# .PCD v0.7 - Point Cloud Data file format
VERSION 0.7
FIELDS x y z rgb
SIZE 4 4 4 4
TYPE F F F U
COUNT 1 1 1 1
WIDTH 1271
HEIGHT 1
VIEWPOINT 0 0 0 1 0 0 0
POINTS 1271
DATA ascii
505.14865 653.73975 2286.0769 1976618
519.47162 653.73975 2286.0769 2107947
534.27405 654.32703 2288.1304 1910568
551.0675 657.25818 2298.3804 1844776
561.72809 652.91162 2283.1809 2371119
580.91528 658.44568 2302.533 2502706
593.35852 656.25262 2294.864 2502705
613.07147 662.01343 2315.009 2502706
621.3855 655.48352 2292.1746 2305326
638.23834 658.05255 2301.1582 2436912
658.76361 664.21088 2322.6934 2305326
673.75128 664.6402 2324.1948 2173740
691.36591 667.58807 2334.5032 2371119
705.99225 667.58807 2334.5032 2371119
723.9574 670.68109 2345.3193 2239533
738.27332 670.33765 2344.1182 2239533
742.78516 661.27936 2312.4421 2831670
757.27338 661.27936 2312.4421 2831670
774.78766 663.87231 2321.5095 2831927
789.33264 663.87231 2321.5095 2963513
804.0744 664.03479 2322.0776 2765877
818.79761 664.17651 2322.5732 2700084
833.58228 664.36218 2323.2227 2568498
850.03156 665.84552 2328.4097 2502705
862.71185 664.37616 2323.2715 2502705
869.43481 658.44409 2302.5273 2437169
879.00568 654.82709 2289.8792 2370863
887.71857 650.69739 2275.438 2502448
909.70844 656.27655 2294.9478 2831672
920.68683 653.86176 2286.5034 2305326
917.48322 641.60339 2243.637 2042154
938.80475 646.60687 2261.1335 2502706
960.95428 652.02332 2280.0745 2897463
971.08636 649.24652 2270.3643 2897463
983.60785 648.12433 2266.4402 2502705
997.8078 648.12433 2266.4402 2568498
1005.0818 643.68878 2250.9292 2765877
1019.1846 643.68878 2250.9292 2831670
1042.7218 649.56598 2271.4814 2634291
1042.8121 640.87524 2241.0906 2568498
1059.0793 642.2251 2245.811 2568498
1070.5105 640.64545 2240.2871 2700084
1087.3022 642.27332 2245.9795 2831670
1101.374 642.27332 2245.9795 2502705
1104.4158 635.92224 2223.7703 2305326
1123.9159 639.08801 2234.8408 2502705
1150.5361 646.17493 2259.623 2502962
1157.8722 642.39044 2246.3892 2436912
1154.429 632.78833 2212.8113 2634548
1172.1614 634.88373 2220.1387 2831670
1194.1887 639.22876 2235.333 2700084
1197.3961 633.51599 2215.356 2371119
1199.0674 627.13074 2193.0271 2107947
1218.9589 630.31165 2204.1504 2502705
1236.2568 632.09515 2210.3872 2700084
1252.6649 633.38922 2214.9126 2634291
1261.3467 630.79108 2205.8271 2634291
1275.1669 630.79108 2205.8271 2502705
1284.3834 628.53821 2197.949 2502705
1298.1543 628.53821 2197.949 2502962
1316.1118 630.54401 2204.9631 2568498
1330.4669 630.80023 2205.8589 2568755
1348.3774 632.71948 2212.5706 2700084
1364.4338 633.73853 2216.134 2765877
1394.6725 641.25793 2242.4287 2568498
1408.722 641.25793 2242.4287 2371119
1420.9036 640.41602 2239.4846 2305326
1444.4886 644.67999 2254.3955 2502705
1451.2432 641.42261 2243.0046 2502705
1467.0067 642.17133 2245.6228 2502705
1483.7671 643.33801 2249.7026 2634291
1489.7086 639.836 2237.4565 2765877
1511.4091 643.10474 2248.887 2371119
1534.4945 646.89703 2262.1482 2371119
1537.8987 642.39868 2246.418 2634291
1544.9706 639.50018 2236.282 2568755
1559.4871 639.70752 2237.0071 2634548
1573.7012 639.78821 2237.2893 2634291
1588.4916 640.09973 2238.3787 2634291
1617.8103 646.20898 2259.7422 2831670
1630.8094 645.75006 2258.1375 2963256
1655.7356 649.98126 2272.9336 2700341
1665.7731 648.34528 2267.2126 2502962
1670.0963 644.53168 2253.877 2436912
1683.7167 644.34009 2253.2068 2305326
1697.6251 644.26093 2252.9299 2239533
1709.2666 643.32983 2249.6741 2239533
1728.8842 645.39136 2256.8831 2305326
1789.4144 662.56836 2316.9497 2042154
1803.9308 662.56836 2316.9497 2173740
1800.16 655.90521 2293.6492 2568498
1814.7762 655.99408 2293.96 2634291
1820.6862 652.95917 2283.3472 2371119
1849.1353 657.99182 2300.9458 2107947
1863.5513 657.99182 2300.9458 2173740
1905.6144 667.67859 2334.8198 2634291
1924.4139 669.12885 2339.8914 2502962
1941.5348 669.97803 2342.8608 2436912
1958.4133 670.73151 2345.4956 2371119
1974.8567 671.32568 2347.5735 2371119
2001.9052 675.48962 2362.1343 2502705
2013.4119 674.38666 2358.2773 2634291
2029.1013 674.69061 2359.3403 2634291
2048.957 676.36554 2365.1973 2568498
2063.7759 676.36554 2365.1973 2700084
2078.2444 676.25153 2364.7988 2765877
2093.3496 676.34491 2365.1252 2568498
2112.8677 677.85278 2370.3982 2502705
2127.719 677.85278 2370.3982 2371120
2132.1819 674.56616 2358.905 2371120
2146.9612 674.56616 2358.905 2305327
2150.4475 671.04218 2346.582 2304815
2163.9146 670.65948 2345.2437 2370607
2178.8901 670.74628 2345.5471 2502193
2193.8701 670.83325 2345.8513 2502193
2204.0815 669.47064 2341.0864 2436400
2200.314 663.90808 2321.6345 2304814
2214.572 663.82184 2321.333 2173228
2215.4121 659.74091 2307.0623 2107435
2220.9473 657.10199 2297.8342 2173228
2237.3574 657.69391 2299.9041 2173228
2251.7671 657.69391 2299.9041 2173228
2259.4604 655.74469 2293.0879 2107435
2271.4873 655.06982 2290.728 2107435
2285.0791 654.85199 2289.9661 2041899
2322.8101 661.51135 2313.2534 1910056
2315.6738 655.38971 2291.8467 1778470
2354.1357 662.16931 2315.5542 1910056
2354.0181 658.08069 2301.2566 2304814
nan nan nan 16777215
nan nan nan 16777215
nan nan nan 16777215
nan nan nan 16777215
nan nan nan 16777215
nan nan nan 16777215
nan nan nan 16777215
nan nan nan 16777215
nan nan nan 16777215
nan nan nan 16777215
-2073.8359 663.67468 2271.3188 3555393
-2059.6055 663.67468 2271.3188 3489600
-2048.1738 664.58289 2274.427 3423807
-2030.0564 663.31921 2270.1023 3358014
-2030.4325 668.12311 2286.5427 3358014
-2001.5721 663.30646 2270.0586 3160635
-1981.1805 661.2475 2263.012 3226428
-1958.4019 658.35632 2253.1174 3094842
-1944.2853 658.35632 2253.1174 3094842
-1926.3739 657.06195 2248.6877 2963513
-1911.7965 656.89404 2248.113 2963256
-1888.08 653.56006 2236.7031 3029049
-1873.6407 653.41168 2236.1953 2963256
-1858.1858 652.90411 2234.4583 3029306
-1844.1862 652.90411 2234.4583 3226428
-1827.0544 651.78674 2230.6343 3160635
-1803.8182 648.45758 2219.2407 3029049
-1782.2773 645.69098 2209.7725 3160635
-1765.5095 644.62378 2206.1201 3160635
-1750.6066 644.22601 2204.7588 3029049
-1736.7931 644.22601 2204.7588 3029049
-1717.2827 642.09595 2197.469 3029049
-1698.9232 640.36523 2191.5459 2897463
-1685.1926 640.36523 2191.5459 2831670
-1673.8605 641.28424 2194.6909 2963256
-1640.6348 633.76111 2168.9443 2963256
-1605.1191 625.22028 2139.7148 2897463
-1603.5941 629.88708 2155.6863 2700084
-1590.2393 629.94702 2155.8914 2765877
-1574.7764 629.16577 2153.2175 2765877
-1573.4777 634.07874 2170.0315 2831670
-1567.5378 637.19098 2180.6824 2897463
-1546.1283 634.01422 2169.8105 2897463
-1521.2062 629.32794 2153.7727 2897463
-1514.0436 631.97076 2162.8171 2700084
-1502.9054 632.98688 2166.2947 2831670
-1497.1031 636.28931 2177.5967 2831670
-1489.9813 639.08649 2187.1697 2700084
-1469.3455 636.08545 2176.8989 2766133
-1446.504 632.06427 2163.1372 2765877
-1435.8992 633.36456 2167.5872 2634291
-1414.9806 630.09692 2156.4043 2568755
-1406.3597 632.29535 2163.928 2765621
-1395.5155 633.5271 2168.1436 2963256
-1382.1088 633.60846 2168.4219 2765621
-1365.3479 632.13849 2163.3911 2699827
-1363.5024 637.61389 2182.1299 2503218
-1349.8308 637.61389 2182.1299 2503218
-1337.7113 638.35455 2184.6648 2569011
-1340.9783 646.52893 2212.6401 2832183
-1304.9065 635.70947 2175.6123 2963769
-1279.8916 630.10498 2156.4319 2897976
-1267.2335 630.52924 2157.8838 2634804
-1255.6075 631.48169 2161.1436 2832183
-1237.0281 628.91968 2152.3752 2963256
-1228.0548 631.23895 2160.3127 2963257
-1226.8372 637.64081 2182.2222 2831667
-1204.2083 632.93323 2166.1111 2897718
-1186.6177 630.79663 2158.7991 3094840
-1176.8915 632.83966 2165.7908 3160633
-1164.5386 633.50134 2168.0554 3029047
-1155.2874 635.88593 2176.2163 2897461
-1141.6527 635.88593 2176.2163 3160633
-1132.6547 638.49976 2185.1616 3292219
-1112.6403 634.8913 2172.8123 3292219
-1100.9886 636.02454 2176.6907 2831668
-1091.8484 638.65527 2185.6938 2831668
-1083.4567 641.79614 2196.4429 2963254
-1088.0793 652.82623 2234.1917 2963254
-1072.7003 651.98676 2231.3186 2897461
-1054.9314 649.65338 2223.333 2831668
-1038.5632 648.13177 2218.1255 3094841
-1044.0529 660.39453 2260.0928 2436912
-1020.1671 654.15814 2238.75 2239533
-1004.5019 653.09277 2235.1038 2502705
-1000.1406 659.4505 2256.8621 3292221
-978.02393 654.11548 2238.604 3292221
-961.8266 652.64191 2233.5608 3094842
-962.02838 662.41656 2267.0129 2963256
-937.89624 655.4776 2243.2656 2963257
-932.06708 661.31378 2263.239 3358272
-912.53607 657.4585 2250.0447 3292479
-897.83771 657.01855 2248.5393 3160893
-883.75 657.01855 2248.5393 3029307
-866.86487 654.90527 2241.3069 2897464
-852.41583 654.59302 2240.2383 3160636
-837.81958 654.15546 2238.7407 2766135
-822.0354 652.75964 2233.9639 3095100
-806.66467 651.64954 2230.1646 3424065
-793.76831 652.53436 2233.1926 3095100
-773.44189 647.23328 2215.0505 3029307
-757.79865 645.729 2209.9026 3226686
-744.77948 646.44641 2212.3579 3095100
-729.05652 644.7998 2206.7224 2831928
-733.58093 661.34302 2263.3389 3226686
-699.41162 642.96735 2200.4512 3555651
-680.67719 638.32727 2184.5713 3292734
-667.63599 638.94537 2186.6865 3095355
-655.96338 640.92651 2193.4668 3095355
-645.53253 644.23175 2204.7783 3292734
-631.00427 643.50293 2202.2842 3292734
-615.40356 641.62341 2195.8518 3424320
-608.52899 648.96387 2220.9734 3095355
-590.53278 644.5097 2205.7297 3094842
-578.88104 646.93237 2214.021 3160635
-564.00171 645.77844 2210.0718 3226428
-550.27771 645.92267 2210.5652 3094842
-540.31049 650.59772 2226.5649 3029049
-525.26562 649.24469 2221.9343 2963256
-511.34451 649.24469 2221.9343 2502705
-509.0542 664.42535 2273.8877 2634291
-491.24918 659.64709 2257.5349 2963513
-478.65338 661.7879 2264.8616 3029049
-465.57269 663.36859 2270.2712 3029049
-449.61002 660.81305 2261.5254 3555393
-433.06421 657.20636 2249.1819 3160635
-420.0892 658.95819 2255.1772 3094842
-408.27597 662.71777 2268.0439 3226428
-393.08997 661.07642 2262.4265 3292221
-377.45337 658.52606 2253.6985 3292221
-364.32901 660.33087 2259.875 3292221
-350.1702 660.33087 2259.875 3226428
-335.44528 659.21844 2256.0679 3226428
-320.86984 658.3147 2252.9751 3489600
-305.92841 656.54236 2246.9094 3226428
-291.32016 655.34857 2242.824 3358014
-275.80133 651.88159 2230.9587 3291964
-260.58463 648.79657 2220.4009 3095611
-246.10291 647.29681 2215.2681 3095355
-232.22354 647.29681 2215.2681 3095355
-216.83403 642.8197 2199.946 3358527
-202.50392 641.08881 2194.0222 3490113
-187.26233 636.01001 2176.6409 3358527
-176.13487 645.20398 2208.1057 2963769
-162.17305 644.69769 2206.373 3161148
-149.41193 649.31506 2222.1753 3226941
-133.72552 640.8623 2193.2471 3161404
-120.45656 643.38556 2201.8826 3029562
-106.66108 643.38556 2201.8826 3029818
-92.634346 641.78345 2196.3994 2898232
-78.780479 641.02875 2193.8167 2963769
-65.075142 641.41907 2195.1526 2832440
-51.321827 641.41907 2195.1526 2700854
-37.280418 636.50031 2178.3188 2634804
-23.906265 643.87158 2203.5459 2371632
-10.119624 645.09924 2207.7473 2700597
3.7104487 644.72589 2206.4695 2371632
17.573704 646.16132 2211.3821 2371632
31.18273 641.10425 2194.0752 2306096
45.079891 643.25323 2201.4297 2174253
59.089928 645.62854 2209.5588 2240046
73.24984 648.42889 2219.1426 2306096
87.294792 649.48041 2222.7412 2305839
100.96487 647.83734 2217.1179 2437425
114.7747 647.37982 2215.5522 2305839
128.7796 648.00269 2217.6838 2568497
142.71428 648.1853 2218.3088 2240046
156.83842 649.11957 2221.5063 1976874
170.16722 646.87823 2213.8354 1976874
184.76346 649.42957 2222.5671 2174253
198.91948 650.18445 2225.1506 2108460
212.83919 650.11865 2224.9253 2108460
227.07515 650.96753 2227.8306 2305839
241.68463 652.72687 2233.8516 2305839
255.09238 651.22565 2228.7139 2305839
269.1391 651.42688 2229.4026 2371632
283.10699 651.42688 2229.4026 2503218
296.81348 650.8537 2227.4409 2569011
314.80438 659.30493 2256.364 2634804
325.04358 651.4928 2229.6282 2766390
339.01288 651.4928 2229.6282 2766390
351.72739 649.17682 2221.7021 2503218
364.68604 647.47064 2215.863 2371632
378.56909 647.47064 2215.863 2240046
390.57895 644.38019 2205.2864 3029562
404.02933 643.79626 2203.2881 2766390
417.83359 643.79626 2203.2881 2437425
433.71732 646.89777 2213.9026 2437425
449.44275 649.57831 2223.0762 2634291
468.96951 657.42664 2249.9358 2371119
482.11499 656.13226 2245.5059 2107947
493.46744 652.54022 2233.2129 1976361
505.26602 649.72009 2223.5613 1910568
519.62506 650.25531 2225.3931 1844775
534.37268 651.23608 2228.7498 1844775
549.07642 652.11493 2231.7573 1910568
561.93152 650.80902 2227.2881 1910567
576.44623 651.44202 2229.4543 2239532
592.93176 654.21948 2238.96 2436911
606.18427 653.38385 2236.1001 2305325
619.34674 652.49115 2233.0449 2436912
642.40802 661.836 2265.0261 2305326
661.75549 667.03351 2282.8137 2239533
676.49194 667.46155 2284.2788 2173740
690.80359 667.46155 2284.2788 2239533
703.50024 665.93274 2279.0466 2305326
716.77777 665.00366 2275.8669 2634291
729.41962 663.53265 2270.8325 3029049
733.93713 654.86865 2241.1816 2766134
745.44696 652.65204 2233.5955 2700084
759.21893 652.46106 2232.9419 2765877
768.57581 648.55139 2219.5618 2502705
784.492 650.21735 2225.2632 2502705
804.33075 655.01941 2241.6975 2436912
822.70776 658.48682 2253.5642 2502705
842.38483 662.86017 2268.5312 2634291
852.39655 659.60907 2257.4048 2700085
856.48297 651.95374 2231.2056 2634292
861.04852 644.90314 2207.0762 3029049
870.60358 641.75348 2196.2969 3029051
886.04712 642.97473 2200.4766 1976362
899.8338 642.97473 2200.4766 923417
907.78735 638.86957 2186.4272 1449761
915.22015 634.52551 2171.5603 2436912
939.96118 642.13269 2197.5947 2634036
950.62854 640.04468 2190.4487 2568498
968.88202 643.05103 2200.7375 2634292
982.67035 643.05103 2200.7375 2568498
999.47504 644.99762 2207.3994 2568498
1015.4078 646.33612 2211.9802 2568755
1025.3728 643.89093 2203.6121 2634291
1040.6365 644.79395 2206.7024 2568498
1054.4622 644.79395 2206.7024 2502705
1065.6805 643.22028 2201.3169 2634291
1088.3773 648.52631 2219.4758 2502705
1088.0959 640.17944 2190.9099 2173740
1101.2284 639.83411 2189.7283 2634548
1115.5256 640.16577 2190.8633 2897463
1129.9915 640.5849 2192.2976 3094842
1141.9587 639.5946 2188.9087 2963256
1144.4387 633.37714 2167.6301 2831670
1156.4967 632.54413 2164.7795 2502962
1161.9091 628.13788 2149.6997 2305326
1166.7875 623.54724 2133.989 1910568
1173.8257 620.20172 2122.5396 2305326
1204.5892 629.32623 2153.7666 2568498
1218.0831 629.32623 2153.7666 2568498
1231.3563 629.21332 2153.3804 2700084
1244.1127 628.84167 2152.1084 2568498
1258.6687 629.37793 2153.9436 2568498
1272.5021 629.54529 2154.5164 2700084
1292.9691 632.95648 2166.1907 2634291
1301.0542 630.29846 2157.094 2765877
1320.4863 633.13562 2166.8037 2766134
1335.3975 633.76935 2168.9727 2634291
1352.3368 635.34332 2174.3591 2700084
1372.2164 638.25336 2184.3184 2502705
1409.2947 649.02649 2221.1877 2173740
1415.3726 645.4519 2208.9543 2502705
1418.7804 640.74066 2192.8308 2568498
1432.6605 640.80396 2193.0474 2568498
1449.7926 642.3067 2198.1902 2568755
1463.512 642.28339 2198.1106 2568755
1477.2838 642.28339 2198.1106 2502705
1489.7325 641.7135 2196.1602 2436912
1510.1276 644.54559 2205.8525 2502962
1523.9479 644.54559 2205.8525 2700084
1527.8037 640.36902 2191.5588 2897463
1539.9667 639.71771 2189.3298 2765877
1551.9832 639.01758 2186.9338 2765877
1595.1472 651.0423 2228.0864 3094842
1609.1068 651.0423 2228.0864 3292221
1594.0297 639.39508 2188.2258 3029049
1611.0836 640.72498 2192.7771 2700084
1642.8571 647.83691 2217.1165 2568498
1662.3586 650.03082 2224.6248 2502705
1663.0829 644.9068 2207.0886 2371119
1687.881 649.12567 2221.5271 1844775
1693.5662 645.98511 2210.7791 2107947
1719.0087 650.37054 2225.7876 2436912
1739.7999 652.93988 2234.5806 2502705
1752.3442 652.39777 2232.7253 2502706
1763.2358 651.25385 2228.8105 2634291
1780.7212 652.54419 2233.2263 2436913
1799.3038 654.21338 2238.939 2239533
1821.5037 657.16168 2249.0291 2173740
1838.191 658.09137 2252.2107 2436912
1869.5133 664.20624 2273.1379 2436912
1886.4479 665.1557 2276.3872 2371119
1900.8939 665.21997 2276.6072 2371119
1922.0348 667.60876 2284.7825 2371119
1953.2179 673.42456 2304.686 2436912
1973.8254 675.53546 2311.9104 2173740
1989.093 675.80145 2312.8206 1976361
2003.5835 675.80145 2312.8206 2107947
2001.2671 670.17322 2293.5588 2765877
2018.0383 670.97168 2296.2915 2634291
2032.4255 670.97168 2296.2915 2502705
2050.8459 672.29395 2300.8167 2371119
2051.7703 667.90228 2285.7869 2305326
2062.3489 666.69232 2281.6462 2305326
2076.6438 666.69232 2281.6462 2371119
2085.5078 664.96057 2275.7195 2370607
2099.7659 664.96057 2275.7195 2304814
2105.5776 662.30383 2266.6272 2173228
2126.9802 664.55377 2274.3274 2041642
2147.8674 666.61395 2281.3779 1975849
2160.3958 666.0697 2279.5154 2239021
2148.0715 657.92072 2251.6267 2436400
2152.783 655.06171 2241.8423 2370607
2160.9963 653.29852 2235.8079 2304558
2171.6765 652.29895 2232.387 2239021
2185.6631 652.29895 2232.387 2173228
2197.3752 651.62439 2230.0786 2239021
2217.1887 653.3457 2235.9695 2304814
2236.771 654.97766 2241.5547 2304814
2261.4219 658.06427 2252.1179 2107435
2267.7322 655.80853 2244.3982 1910056
2313.9014 665.0365 2275.9792 1910056
2291.9475 654.69214 2240.5774 2107435
nan nan nan 16777215
nan nan nan 16777215
nan nan nan 16777215
nan nan nan 16777215
nan nan nan 16777215
nan nan nan 16777215
nan nan nan 16777215
nan nan nan 16777215
nan nan nan 16777215
nan nan nan 16777215
-1994.1853 651.79633 2184.0835 3160891
-2003.1023 659.23438 2209.0076 3094842
-1995.7109 661.37146 2216.1687 3094842
-1980.0291 660.77185 2214.1594 3094842
-1966.1567 660.77185 2214.1594 3029049
-1936.0674 655.28302 2195.7671 2963256
-1933.2981 659.02863 2208.3181 2963256
-1919.4623 659.02863 2208.3181 2963256
-1906.3003 659.2616 2209.0989 2765877
-1885.4211 656.80969 2200.8828 2634291
-1862.4062 653.57214 2190.0342 2634291
-1847.4576 653.13824 2188.5801 2634291
-1831.9187 652.48761 2186.3999 2700084
-1825.0214 654.92822 2194.5781 2897463
-1808.3221 653.86176 2191.0046 2897463
-1792.7964 653.20648 2188.8088 2831670
-1778.0819 652.83899 2187.5774 2897463
-1740.1035 643.85785 2157.4829 3160892
-1719.0149 641.03442 2148.022 3160635
-1704.756 640.73346 2147.0134 3029049
-1683.5548 637.79761 2137.1758 2963256
-1656.549 632.59808 2119.7529 2897463
-1643.2681 632.59808 2119.7529 2766134
-1640.3275 636.61115 2133.2002 2765877
-1626.9624 636.61115 2133.2002 2700084
-1602.4952 632.23114 2118.5232 2634291
-1574.6372 626.42896 2099.0808 2634291
-1566.9785 628.63251 2106.4646 2634548
-1558.5266 630.55255 2112.8984 2634291
-1552.2427 633.39008 2122.4067 2568498
-1538.906 633.37402 2122.3528 2568498
-1521.4413 631.6438 2116.5552 2568498
-1501.2434 628.73846 2106.8198 2568755
-1495.0887 631.71527 2116.7947 2568498
-1479.8947 630.89172 2114.0352 2568498
-1463.7886 629.66107 2109.9114 2436912
-1448.2156 628.6394 2106.4878 2371119
-1433.8779 628.14008 2104.8147 2305326
-1431.119 632.75085 2120.2646 2173740
-1417.8348 632.75085 2120.2646 2239533
-1390.2576 626.31177 2098.6882 2371632
-1378.7516 627.0589 2101.1919 2371632
-1367.662 628.01178 2104.3848 2437169
-1367.9823 634.27344 2125.3667 2502962
-1346.0742 630.25049 2111.8865 2502962
-1335.9142 631.70294 2116.7534 2568754
-1322.6521 631.70294 2116.7534 2568754
-1307.5829 630.83112 2113.832 2569011
-1308.349 637.65924 2136.7122 2766646
-1302.8978 641.56708 2149.8069 2832183
-1283.2139 638.47491 2139.4453 2766390
-1253.9911 630.52112 2112.7932 2832183
-1240.7537 630.52112 2112.7932 2964026
-1220.7014 627.02057 2101.0632 2831927
-1217.1411 632.0072 2117.7729 2963512
-1211.826 636.18262 2131.7642 3358014
-1187.499 630.35895 2112.2498 3226426
-1174.4885 630.47894 2112.6519 3160633
-1158.8877 629.19513 2108.3501 3226426
-1146.1389 629.44824 2109.198 3226426
-1136.1808 631.25757 2115.261 3094840
-1122.928 631.25757 2115.261 2963254
-1114.325 633.90265 2124.1243 3226426
-1101.0166 633.90265 2124.1243 3423805
-1082.49 630.86139 2113.9333 3226426
-1073.1141 633.14392 2121.5818 2963254
-1059.8218 633.14392 2121.5818 2897461
-1049.509 634.94659 2127.6223 2897461
-1041.0171 637.91138 2137.5569 2765875
-1031.1351 640.09058 2144.8591 2765875
-1027.1862 646.0589 2164.8582 2700082
-1016.8737 648.13098 2171.8015 2765875
-1004.4069 648.86761 2174.2698 2897463
-990.61877 648.75916 2173.9065 2897463
-984.56061 653.78064 2190.7327 3029049
-969.11102 652.61969 2186.8425 3292221
-948.95593 648.21112 2172.0701 3292221
-940.72925 651.94098 2184.5684 3292221
-929.73425 653.83411 2190.9119 3160635
-922.30072 658.32611 2205.9641 3226428
-905.7804 656.37006 2199.4097 3095099
-893.52454 657.4917 2203.168 2831928
-873.41272 652.77692 2187.3694 2765877
-861.88123 654.42694 2192.8984 2831671
-846.00049 652.77448 2187.3613 2831670
-833.96478 654.08331 2191.7471 2897720
-820.58411 654.36346 2192.6858 2831671
-804.87756 652.76685 2187.3357 3095100
-791.17322 652.76685 2187.3357 3358272
-766.61511 643.65393 2156.7996 3292479
-753.70612 644.17017 2158.5293 3095100
-738.96655 643.11218 2154.9841 3095100
-722.07501 640.10712 2144.9146 3160893
-711.04736 642.28485 2152.2119 3095100
-700.61359 645.09363 2161.6238 2897721
-681.52039 639.88269 2144.1626 3029307
-661.08862 633.18024 2121.7036 3292735
-651.71185 637.0083 2134.5308 3358527
-636.21582 634.89014 2127.4331 3095355
-627.03931 639.12262 2141.6157 3095355
-614.98254 640.54028 2146.3662 3029562
-600.67584 639.62561 2143.301 2897976
-587.73346 640.15503 2145.0752 2897976
-579.39148 645.83716 2164.1152 3094842
-560.91498 640.22418 2145.3069 2897463
-547.16473 639.86261 2144.0952 2831670
-534.64191 640.95428 2147.7534 3029049
-528.24933 649.64124 2176.8623 2371119
-512.24127 646.65027 2166.8398 2568498
-497.27423 644.84631 2160.7949 2897463
-489.35764 652.33997 2185.9053 2831670
-480.38663 658.81915 2207.6162 2897463
-467.39633 660.0069 2211.5962 3094842
-454.1767 660.93341 2214.7007 3029049
-442.38287 664.05865 2225.1731 3621186
-425.07477 658.84045 2207.6875 3226428
-411.24292 658.84045 2207.6875 2963256
-396.70871 657.67609 2203.7859 3094842
-382.5368 657.05005 2201.688 3160635
-368.27524 656.21729 2198.8977 3226428
-354.49515 656.21118 2198.8772 3358014
-340.54327 655.87372 2197.7463 3358014
-326.77371 655.87372 2197.7463 3292221
-312.7739 655.39117 2196.1296 3292221
-298.38589 654.01343 2191.5129 3160635
-283.89252 652.26074 2185.6399 3358014
-265.65744 641.29791 2148.9048 3292221
-256.22516 651.54895 2183.2546 3161148
-240.83125 646.94153 2167.8159 2964026
-227.12944 646.60059 2166.6733 3160891
-213.1519 645.38135 2162.5879 3424320
-198.61266 642.18054 2151.8623 3029562
-186.40492 646.60101 2166.6748 3292734
-172.82983 646.60028 2166.6724 3029819
-159.77968 648.73065 2173.811 3226941
-146.16008 648.73065 2173.811 3161148
-131.7599 644.9101 2161.0088 3095098
-119.20494 650.28027 2179.0037 3094842
-105.28596 648.63641 2173.4951 2700084
-91.364891 646.4892 2166.3 2700084
-77.052597 640.34149 2145.7 2502961
-63.602322 640.27301 2145.4705 2239790
-50.15313 640.1817 2145.1646 2437425
-36.630589 638.74457 2140.3489 2569011
-23.170881 637.37579 2135.7625 2305839
-9.8697062 642.58691 2153.2241 2569011
3.6204622 642.50745 2152.9578 2634804
17.170219 644.79108 2160.6099 2766390
30.707111 644.79108 2160.6099 2569011
44.425816 647.44073 2169.4885 2240046
57.655079 643.38708 2155.9053 2437425
71.249641 644.17499 2158.5454 2503218
84.886513 645.03302 2161.4207 2437425
98.42849 645.03302 2161.4207 2371632
111.83783 644.26892 2158.8604 2371632
125.36375 644.26892 2158.8604 2437169
139.45909 646.91028 2167.7112 2371376
153.28859 647.95911 2171.2256 2108460
166.52594 646.53784 2166.4631 2042667
180.07213 646.43964 2166.134 2240046
193.71397 646.67444 2166.9209 2305839
207.3707 646.92493 2167.7603 1911081
219.43184 642.4729 2152.842 1976874
235.30684 649.05646 2174.9026 2305839
248.97035 649.15308 2175.2266 2240046
262.59882 649.15308 2175.2266 2174510
275.5864 647.64697 2170.1797 1911338
287.34232 643.52411 2156.3645 2634804
304.24066 650.77118 2180.6484 3029562
317.28735 649.51062 2176.4246 2766390
331.17059 649.99597 2178.0508 2305839
344.24893 648.9256 2174.4641 2634804
357.87262 648.9256 2174.4641 2766647
369.29376 645.07819 2161.572 2503218
382.83667 645.07819 2161.572 2963769
398.04163 647.78302 2170.6355 2766390
411.64136 647.78302 2170.6355 2634805
423.20367 644.67944 2160.2358 2437425
439.22217 648.34601 2172.5222 2371632
456.96964 654.26776 2192.365 2371119
468.68945 651.46539 2182.9749 2305326
481.89267 650.82562 2180.8308 2239790
495.31815 650.51288 2179.783 2371119
508.97519 650.51288 2179.783 2239533
525.58917 654.19342 2192.116 2108204
539.55725 654.47699 2193.0662 1976362
549.49988 649.98486 2178.0137 1910568
561.39429 647.96332 2171.2397 2107691
576.80963 650.00507 2178.0813 2239533
590.45593 650.00507 2178.0813 2370863
607.93237 654.12616 2191.8906 2370862
621.66528 654.12616 2191.8906 2502705
637.64276 656.43689 2199.6335 2568242
649.29083 654.28717 2192.4302 2502962
663.36224 654.61786 2193.5383 2173997
677.10535 654.61786 2193.5383 2239789
691.37323 655.11505 2195.2041 2437169
706.83911 656.70581 2200.5347 2634291
719.18799 655.39526 2196.1431 2634291
728.41364 651.34106 2182.5581 2699828
738.9621 648.59741 2173.3645 2765621
752.07758 648.16534 2171.9167 2436912
765.46008 647.97467 2171.2778 2371119
780.31268 649.01343 2174.7585 2568498
796.81665 651.36646 2182.6431 2436912
814.26135 654.39606 2192.7949 2371119
826.07135 652.87189 2187.6877 2371119
833.44965 647.95203 2171.2019 2502705
845.09412 646.45367 2166.1812 2634291
855.4588 644.03925 2158.0906 3358015
868.97992 644.03925 2158.0906 3686979
878.78485 641.32721 2149.0029 2568498
899.12024 646.26611 2165.5525 1778726
906.87268 642.14825 2151.7542 2239276
919.65485 641.66028 2150.1191 2699828
934.47803 642.59003 2153.2346 2699827
948.91077 643.22864 2155.3745 2568498
963.35132 643.85455 2157.4717 2634291
976.86853 643.85455 2157.4717 2700084
988.12897 642.38733 2152.5554 2634291
1000.5962 641.73364 2150.365 2568498
1013.4565 641.34613 2149.0664 2700084
1026.921 641.34613 2149.0664 2700084
1040.3131 641.30145 2148.9167 2700084
1054.9008 641.98547 2151.2087 2568498
1068.3787 641.98547 2151.2087 2568498
1079.9764 640.86975 2147.47 2568755
1081.4905 633.87128 2124.019 2634548
1118.5188 647.60516 2170.0396 3029306
1130.8578 646.88611 2167.6301 3160635
1125.0771 635.94214 2130.9583 2765877
1133.4495 633.16095 2121.6389 2568498
1135.7758 627.10596 2101.3494 2436912
1147.6285 626.38934 2098.9482 2239533
1165.7943 629.0957 2108.0168 2371119
1175.1523 627.04181 2101.1345 2634291
1180.0547 622.68225 2086.5261 2634291
1199.838 626.18445 2098.2615 2765877
1214.827 627.13574 2101.4492 3094842
1235.3131 630.8739 2113.9753 3095099
1248.5577 630.8739 2113.9753 3029049
1261.9574 630.95135 2114.2349 3094842
1273.549 630.13257 2111.4912 2963256
1286.778 630.13257 2111.4912 2963256
1300.3295 630.28876 2112.0146 2897463
1313.0784 630.05676 2111.2373 2765877
1326.7949 630.28906 2112.0156 2765877
1354.8884 637.27905 2135.4382 2436912
1368.2677 637.27905 2135.4382 2700084
1381.1703 637.05927 2134.7017 2831670
1392.9647 636.33746 2132.283 2634291
1406.3241 636.33746 2132.283 2634291
1421.2169 637.02472 2134.5859 2502705
1445.1594 641.71771 2150.3115 2568498
1438.41 632.82129 2120.5007 2437169
1466.745 639.38153 2142.4834 3094842
1484.1089 641.08374 2148.1873 2963256
1501.7136 642.8584 2154.1338 3160635
1513.1494 641.98419 2151.2046 3160635
1521.7308 639.92511 2144.3047 3160635
1541.5505 642.58661 2153.2231 3160635
1555.0411 642.58661 2153.2231 3160635
1554.6582 636.90295 2134.178 2831927
1576.2911 640.25873 2145.4226 2765877
1596.9875 643.18048 2155.2131 2634291
1631.4596 651.55481 2183.2744 2700084
1624.6648 643.44629 2156.1038 2963256
1638.1735 643.44629 2156.1038 2963256
1649.9097 642.75586 2153.79 2897463
1673.6681 646.72205 2167.0803 2831670
1697.6085 650.69415 2180.3904 2700084
1711.2694 650.69415 2180.3904 2634291
1718.0231 648.08856 2171.6594 2502705
1731.6292 648.08856 2171.6594 2568498
1758.5267 653.02435 2188.1985 2568498
1782.9021 656.95435 2201.3674 2436913
1796.6943 656.95435 2201.3674 2371119
1822.287 661.23621 2215.7156 2436912
1836.1692 661.23621 2215.7156 2371119
1849.4414 661.01825 2214.9851 2371119
1886.0164 669.07025 2241.9663 2568498
1895.6779 667.52606 2236.792 2568498
1909.9615 667.6203 2237.1077 2305326
1923.9777 667.6203 2237.1077 2107947
1934.3181 666.35413 2232.8647 2371119
1956.4963 669.15472 2242.2493 2634291
1970.5448 669.15472 2242.2493 2634291
1982.525 668.45734 2239.9126 2436912
1993.3182 667.37244 2236.2771 2371119
2007.3292 667.37244 2236.2771 2305326
2018.3949 666.39996 2233.0186 2436912
2026.7015 664.53632 2226.7737 2305326
2028.2651 660.5022 2213.2559 2436400
2047.9629 662.38818 2219.5754 2436400
2059.7634 661.71167 2217.3086 2502193
2073.6555 661.71167 2217.3086 2370607
2087.1858 661.59698 2216.9243 2436400
2097.4663 660.46045 2213.116 2436400
2100.7366 657.14606 2202.0098 2502706
2114.533 657.14606 2202.0098 2436914
2116.2502 653.4165 2189.5127 2436913
2129.968 653.4165 2189.5127 2107949
2130.9429 649.53229 2176.4971 2107691
2139.7769 648.0777 2171.623 2107948
2153.9644 648.25275 2172.2095 2239277
2167.5735 648.25262 2172.2092 2370608
2177.8611 647.26532 2168.9009 2502193
2194.0959 648.04681 2171.5195 2567729
2210.9143 648.99005 2174.6802 2567730
2224.5396 648.99005 2174.6802 2502193
nan nan nan 16777215
nan nan nan 16777215
nan nan nan 16777215
nan nan nan 16777215
nan nan nan 16777215
nan nan nan 16777215
nan nan nan 16777215
nan nan nan 16777215
nan nan nan 16777215
nan nan nan 16777215
-1959.6731 653.89197 2146.2847 2831670
-1961.0441 658.87054 2162.626 2700084
-1946.4742 658.52533 2161.4929 2634291
-1929.8328 657.46954 2158.0276 2700084
-1902.4907 652.7276 2142.4629 2700084
-1884.5474 651.16571 2137.3362 2700084
-1882.9714 655.27747 2150.8323 2700084
-1880.1569 659.01428 2163.0977 2766134
-1858.1615 656.03345 2153.3137 2700084
-1842.9296 655.41437 2151.2817 2634291
-1813.3481 649.64539 2132.3459 2634291
-1802.9844 650.72662 2135.895 2634291
-1796.2037 653.12701 2143.7739 2568498
-1766.8591 647.29718 2124.6384 2568498
-1748.1135 645.29132 2118.0544 2634291
-1718.8849 639.35541 2098.571 2436912
-1721.7421 645.35461 2118.2625 2765877
-1705.391 644.19135 2114.4441 2765877
-1672.2964 636.6358 2089.6443 2700341
-1670.7305 641.05835 2104.1606 2568498
-1648.4573 637.54285 2092.6216 2436912
-1636.5618 638.01666 2094.1768 2568498
-1607.5569 631.77411 2073.6868 2502705
-1594.8503 631.88733 2074.0583 2436912
-1579.4664 630.93286 2070.9255 2436912
-1564.5369 630.14563 2068.3416 2436912
-1555.2626 631.64209 2073.2534 2371119
-1534.4349 628.43201 2062.7168 2239533
-1530.7163 632.23383 2075.1958 2239533
-1504.2352 626.61884 2056.7654 2371119
-1487.3972 624.95844 2051.3154 2239534
-1480.7258 627.57806 2059.9138 2436912
-1467.8199 627.57806 2059.9138 2436912
-1453.0852 626.78925 2057.3247 2371119
-1438.8761 626.21497 2055.4399 2305326
-1425.998 626.21497 2055.4399 2371119
-1412.6874 626.02325 2054.8105 2305326
-1401.5537 626.80157 2057.3652 2371119
-1391.4478 628.05823 2061.49 2371119
-1387.2506 632.03052 2074.5283 2436912
-1378.6488 634.05206 2081.1638 2634291
-1364.9244 633.73401 2080.1196 2831927
-1351.2612 633.43842 2079.1494 2831927
-1348.1605 638.13666 2094.5706 2502705
-1334.9314 638.086 2094.4043 2568498
-1313.7617 634.20105 2081.6528 2700084
-1303.1058 635.36462 2085.4719 2831670
-1293.1473 636.89514 2090.4956 2831670
-1280.0497 636.89514 2090.4956 2897463
-1273.1234 639.9975 2100.6785 2700084
-1259.4781 639.75165 2099.8716 2437169
-1243.7606 638.43701 2095.5566 2436912
-1222.2017 634.06378 2081.2021 2568498
-1208.4998 633.71637 2080.0618 2831670
-1193.6323 632.74353 2076.8687 3160635
-1187.1025 636.21777 2088.2722 3292221
-1173.0175 635.67505 2086.491 2831668
-1148.8783 629.61023 2066.5842 3094840
-1133.4216 628.21973 2062.02 3358012
-1113.1118 624.07617 2048.4194 3358012
-1104.6332 626.54645 2056.5278 3226426
-1104.8748 634.07953 2081.2539 3094840
-1095.7916 636.37732 2088.7959 2963254
-1077.8962 633.55109 2079.5193 3094326
-1064.8674 633.55109 2079.5193 3094583
-1051.8152 633.53699 2079.4731 3094583
-1037.3047 632.63324 2076.5066 2831668
-1023.8597 632.3645 2075.6245 2831411
-1013.5239 634.03387 2081.104 2897461
-1000.485 634.03387 2081.104 2897461
-1008.1526 647.32928 2124.7439 3029047
-994.84039 647.32928 2124.7439 3160633
-975.44287 643.31592 2111.5708 3094842
-962.21332 643.31592 2111.5708 3292221
-945.77057 641.13782 2104.4214 3160635
-931.75439 640.56635 2102.5457 3226428
-919.36664 641.11395 2104.343 3226428
-906.18225 641.11395 2104.343 2963513
-889.63623 638.7005 2096.4214 2963513
-881.23712 642.15131 2107.748 3160635
-873.26703 646.02454 2120.4612 2568498
-863.97412 649.02362 2130.3052 2700084
-850.07385 648.6015 2128.9197 2963256
-839.9043 651.0578 2136.9819 2765877
-826.08234 650.71667 2135.8623 2832183
-810.80023 649.19519 2130.8682 2963769
-797.69946 649.3985 2131.5356 2897976
-780.31561 646.06262 2120.5862 3555906
-761.68616 641.56195 2105.8135 3753285
-746.06067 639.47748 2098.9717 3358527
-729.48236 636.48682 2089.1553 3161149
-718.72742 638.56073 2095.9626 3095355
-705.59558 638.56073 2095.9626 3161147
-690.5874 636.83044 2090.2832 3292734
-679.9964 639.18536 2098.0129 3292734
-666.85168 639.18536 2098.0129 3161148
-656.77594 642.1861 2107.8623 3226941
-644.00439 642.62006 2109.2866 3292734
-622.92365 634.60712 2082.9856 2963769
-607.49463 632.1322 2074.8621 2963769
-594.49493 632.1322 2074.8621 2963769
-582.93597 633.69836 2080.0027 2832440
-573.57648 637.78174 2093.4058 2766647
-560.17096 637.45209 2092.3237 2700084
-548.69141 639.35089 2098.5562 2831927
-537.0083 641.09979 2104.2966 2963513
-523.15356 640.27905 2101.6025 2897463
-510.46106 640.87494 2103.5586 2963256
-498.79211 642.82159 2109.9482 2963256
-485.03433 642.10901 2107.6091 2963513
-472.05566 642.41675 2108.6194 2897720
-463.23242 648.56018 2128.7839 2897463
-449.8949 648.56018 2128.7839 3029049
-435.50287 646.99353 2123.6418 3029049
-423.98077 649.72614 2132.6111 3029049
-411.43866 651.02258 2136.8665 3029049
-398.05051 651.02258 2136.8665 3160635
-387.7605 656.26599 2154.0769 3094842
-376.4762 660.1441 2166.8062 3029049
-365.04865 664.05176 2179.6323 3226428
-352.56488 666.26715 2186.9041 3423807
-333.57785 655.87512 2152.7939 3358014
-319.19385 654.03894 2146.7671 3160635
-304.49066 651.35852 2137.9692 3160635
-291.09564 651.35852 2137.9692 3160635
-275.71396 646.69885 2122.6746 2963256
-261.25729 643.84637 2113.3118 3095099
-247.998 643.79779 2113.1523 3226684
-234.05684 641.87366 2106.8367 3160635
-221.07877 642.51862 2108.9536 3160635
-206.10846 637.08746 2091.127 3423807
-193.03616 637.18414 2091.4441 2765877
-179.86446 636.94275 2090.6519 2765877
-168.74992 644.52057 2115.5247 3160635
-155.9079 646.22986 2121.1353 3358014
-142.46051 645.51477 2118.7881 3226428
-128.89214 644.04822 2113.9744 2502705
-115.44517 642.92175 2110.2769 2305326
-101.87094 640.70355 2102.9961 2042154
-88.417992 638.70245 2096.4277 2436912
-75.823311 643.28461 2111.4678 2371376
-62.580978 643.14758 2111.0181 2766134
-49.087826 639.66864 2099.5991 2437425
-35.933186 639.66864 2099.5991 2305839
-22.959105 644.73907 2116.2419 2042667
-9.6619873 642.19977 2107.907 2042924
3.5447035 642.19977 2107.907 2306096
16.895191 647.71252 2126.0017 2437425
30.170399 646.75098 2122.8457 2437425
43.407875 645.81653 2119.7786 2306096
56.44582 643.04681 2110.6873 2503218
69.825378 644.48151 2115.3965 2700597
82.894539 643.05066 2110.7 2503218
96.153847 643.28564 2111.4712 2371632
109.38975 643.32605 2111.6038 2503218
122.6196 643.32605 2111.6038 2437169
135.91771 643.64929 2112.665 2502962
148.88315 642.47955 2108.8254 2371632
162.0956 642.47955 2108.8254 2240046
175.51859 643.25122 2111.3582 2240046
188.95764 643.96942 2113.7156 2240046
201.8878 642.97278 2110.4443 2174509
217.31927 649.57526 2132.1157 1976874
228.95267 644.71777 2116.1721 2240046
242.32858 645.0304 2117.1982 2174253
255.59349 645.0304 2117.1982 1976874
268.39313 643.91418 2113.5344 1911081
280.09546 640.3941 2101.9802 2174253
293.36588 640.61432 2102.7031 2371632
307.51801 642.65833 2109.4121 2371632
320.10355 641.39478 2105.2649 2371632
333.2937 641.39478 2105.2649 2569011
346.66263 641.72577 2106.3513 2700597
359.85959 641.72577 2106.3513 2569010
375.22919 645.4632 2118.6187 2634804
388.50299 645.4632 2118.6187 2700596
399.1557 641.25238 2104.7974 2832182
412.34293 641.25238 2104.7974 2437681
432.36157 651.547 2138.5876 2239532
442.07202 646.1557 2120.8918 2239788
457.9389 649.81512 2132.9031 2437424
474.87488 654.74097 2149.0713 2700852
482.52206 646.94128 2123.4702 2700596
494.72552 645.50507 2118.7561 2569268
510.87509 649.15814 2130.7468 2766647
519.13995 642.86145 2110.0789 2635061
534.15686 645.03088 2117.1997 2108460
548.21588 645.96667 2120.2712 2108460
561.50006 645.96667 2120.2712 2108460
575.41223 646.67242 2122.5879 2437425
586.66278 644.42267 2115.2034 2766390
600.38763 644.93018 2116.8691 2569011
616.66498 648.09833 2127.2681 2503475
629.99298 648.09833 2127.2681 2569011
638.58069 643.32281 2111.5933 2569011
649.92114 641.45807 2105.4727 2503218
665.06281 643.34467 2111.665 2240046
688.88025 653.38635 2144.625 2240046
702.31696 653.38635 2144.625 2174253
705.45825 643.98798 2113.7766 2503475
718.70172 643.98798 2113.7766 2832440
724.60126 637.52655 2092.5681 2502705
737.71185 637.52655 2092.5681 2371119
751.58197 638.17151 2094.6851 2634291
769.06268 641.8075 2106.6194 2371119
786.53174 645.31116 2118.1196 2436912
798.52765 644.28259 2114.7437 2502705
816.61676 648.1236 2127.3511 2305326
826.53339 645.45923 2118.6057 2239533
839.41754 645.15979 2117.6228 2305328
851.8028 644.49225 2115.4316 2305069
861.32715 641.71362 2106.3113 2173740
875.95709 642.76532 2109.7634 2239276
902.05682 652.07703 2140.3274 2634291
913.14282 650.42175 2134.8943 2897462
920.44171 646.1557 2120.8918 2831670
943.39673 652.84546 2142.8496 3029049
955.62903 652.03131 2140.1772 3094842
954.5705 642.29663 2108.2251 2765877
980.18762 650.53192 2135.2559 2831670
993.16974 650.27271 2134.405 2897463
991.98956 640.87085 2103.5452 2766134
1005.1033 640.82898 2103.4077 2765877
1020.6716 642.33295 2108.3442 2765877
1030.7866 640.41046 2102.0339 2568498
1044.2032 640.56183 2102.5308 2568498
1057.3524 640.54736 2102.4834 2700084
1061.7644 635.30542 2085.2776 2831670
1085.0854 641.36755 2105.1755 2963256
1099.7457 642.22632 2107.9944 2436912
1098.941 634.14087 2081.4553 2305326
1111.9822 634.14087 2081.4553 2765877
1121.4749 632.14093 2074.8906 2371119
1141.2789 635.93231 2087.3352 2305326
1152.7251 635.03339 2084.3848 2436912
1156.4011 629.92212 2067.6079 2502705
1169.3553 629.92212 2067.6079 2831670
1181.3976 629.43628 2066.0132 2634291
1203.2107 634.11029 2081.3547 2765877
1210.1431 630.92584 2070.9023 3094842
1222.3463 630.52777 2069.5959 3160635
1238.6771 632.24493 2075.2322 3160635
1257.7306 635.30164 2085.2651 3094842
1264.4983 632.15356 2074.9321 3095099
1278.8822 632.83826 2077.1797 3029049
1294.1853 633.95959 2080.8601 2700084
1304.8152 632.79211 2077.0281 2700084
1319.8269 633.75165 2080.1777 2502705
1332.8599 633.75165 2080.1777 2568241
1347.837 634.66718 2083.1826 2897720
1369.7113 638.78168 2096.6877 2700084
1387.2872 640.8324 2103.4189 1976617
1400.0917 640.66119 2102.8569 1844775
1416.5443 642.14697 2107.7339 2173996
1429.7499 642.14697 2107.7339 2305583
1438.9364 640.3584 2101.863 2568755
1452.1051 640.3584 2101.863 2831670
1475.1514 644.67505 2116.0317 3029049
1484.7925 643.10858 2110.8901 3292221
1493.678 641.24548 2104.7749 3423807
1515.4818 644.91229 2116.8105 3489600
1525.4375 643.51733 2112.2317 3094842
1526.1498 638.28046 2095.0427 2502705
1543.0288 639.83667 2100.1506 2634291
1578.1411 648.86334 2129.7791 2765877
1572.7262 641.21521 2104.6755 3358014
1585.9127 641.21521 2104.6755 3160635
1614.4359 647.36511 2124.8613 2963256
1614.306 642.0188 2107.313 2897463
1627.5089 642.0188 2107.313 2765877
1637.6173 640.80786 2103.3384 2700084
1658.3966 643.75854 2113.0234 2502705
1681.1963 647.44049 2125.1089 2371119
1696.1182 648.05457 2127.1245 2436912
1721.8964 652.77484 2142.6179 2568498
1740.1093 654.57629 2148.5308 2436912
1753.5704 654.57629 2148.5308 2371119
1777.443 658.43304 2161.1899 2502705
1788.407 657.48572 2158.0806 2305326
1799.7249 656.68182 2155.4419 2371119
1846.2559 668.64282 2194.7017 2436913
1868.2224 671.59637 2204.3962 2502705
1876.8009 669.72906 2198.2671 2371119
1883.9301 667.37561 2190.5422 2239533
1897.6545 667.37561 2190.5422 2239533
1922.2898 671.18518 2203.0466 2371119
1936.0927 671.18518 2203.0466 2502705
1955.3829 673.0741 2209.2466 2436912
1955.4465 668.36487 2193.7893 2305326
1969.1913 668.36487 2193.7893 2371119
1976.6125 666.23346 2186.7935 2436912
1982.1522 663.50159 2177.8264 2371119
1981.6863 658.81049 2162.4287 2238765
1996.9607 659.38043 2164.2996 2370607
2009.2018 658.94781 2162.8796 2239021
2021.3003 658.47461 2161.3264 2304815
2034.0574 658.22083 2160.4934 2567986
2041.193 656.16333 2153.74 2633779
2053.8357 655.89154 2152.8479 2699315
2053.1868 651.40625 2138.1257 2436656
2052.8142 647.06628 2123.8806 2436657
2056.509 644.05609 2114 2370863
2069.7539 644.05609 2114 2436143
2071.333 640.44904 2102.1606 2239021
2090.7783 642.37683 2108.4883 2370607
2103.9885 642.37683 2108.4883 2502449
2113.7888 641.34216 2105.092 2502449
2110.1851 636.27869 2088.4722 2305327
2123.27 636.27869 2088.4722 2502449
2164.6372 644.70209 2116.1206 2568242
nan nan nan 16777215
nan nan nan 16777215
nan nan nan 16777215
nan nan nan 16777215
nan nan nan 16777215
nan nan nan 16777215
nan nan nan 16777215
nan nan nan 16777215
nan nan nan 16777215
nan nan nan 16777215
nan nan nan 16777215
-1914.1116 656.25745 2110.8691 2502705
-1898.0334 655.27258 2107.7012 2502705
-1877.3044 652.65692 2099.2878 2436912
-1871.5071 655.23212 2107.571 2371119
-1870.0024 659.35748 2120.8403 2502705
-1861.8047 661.16498 2126.6543 2436912
-1838.4554 657.57922 2115.1206 2371119
-1814.3804 653.67993 2102.5784 2305326
-1793.4082 650.84961 2093.4746 2305326
-1780.292 650.84961 2093.4746 2305326
-1757.4254 647.25854 2081.9238 2436912
-1746.9758 648.22119 2085.0203 2371119
-1733.9125 648.22119 2085.0203 2173740
-1723.698 649.29431 2088.4719 2042154
-1693.2698 642.7113 2067.2976 2173740
-1659.5671 634.77441 2041.7683 2436912
-1651.1063 636.44409 2047.1389 2371119
-1636.0059 635.56049 2044.2968 2107947
-1615.092 632.38678 2034.0884 2042411
-1598.8768 631.01685 2029.682 2107947
-1591.927 633.31104 2037.0613 2042154
-1564.8347 627.56433 2018.5768 1976361
-1540.1461 622.69574 2002.917 1844775
-1534.6301 625.56262 2012.1383 1713189
-1520.9182 625.10834 2010.6771 1844775
-1509.781 625.71356 2012.6238 2042154
-1501.066 627.34125 2017.8594 2371119
-1487.6947 627.03406 2016.8713 2436912
-1452.4109 617.40686 1985.9052 2371119
-1443.0242 618.71698 1990.1191 2436912
-1438.9482 622.34692 2001.7949 2568498
-1425.5774 621.98517 2000.6313 2502705
-1422.3138 626.06598 2013.7576 2042154
-1415.0404 628.43915 2021.3907 2107947
-1394.7069 625.0025 2010.3367 2371119
-1382.1115 625.0025 2010.3367 2371119
-1373.0779 626.62799 2015.5651 2436912
-1367.1788 629.72742 2025.5345 2305326
-1368.2306 636.11652 2046.0851 2305326
-1362.5994 639.48999 2056.936 2765877
-1339.7838 634.78607 2041.8058 2897463
-1320.6582 631.75653 2032.0612 2700084
-1316.6293 635.96002 2045.582 2700084
-1311.8682 639.88916 2058.22 2897463
-1288.0172 634.49225 2040.8607 2568498
-1275.5121 634.63232 2041.3113 2502705
-1262.6201 634.58081 2041.1455 2765877
-1253.6747 636.53192 2047.4215 2831670
-1242.0845 637.16675 2049.4634 2963512
-1228.941 637.00977 2048.9585 2963513
-1212.7157 635.23511 2043.2502 3028793
-1195.4698 632.88232 2035.6825 2963256
-1181.1006 632.01813 2032.9026 2963256
-1168.6399 632.16742 2033.3829 3226428
-1154.4132 631.35419 2030.7671 3358013
-1138.0039 629.31592 2024.2111 3358012
-1125.3217 629.31592 2024.2111 3094840
-1108.6609 627.06573 2016.9731 3160633
-1091.6229 624.54779 2008.8741 3226426
-1078.6819 624.34241 2008.2136 3226426
-1064.6304 623.48187 2005.4457 3029047
-1071.1713 634.80438 2041.8647 2897461
-1047.2284 628.11676 2020.3538 2897461
-1031.2854 626.12244 2013.939 3094840
-1025.3722 630.24347 2027.1943 3094840
-1007.7398 627.17438 2017.3226 3029047
-995.89191 627.6731 2018.9268 3029047
-983.24274 627.6731 2018.9268 3029047
-974.85962 630.43195 2027.8007 2963511
-962.15479 630.43195 2027.8007 2897460
-962.30981 638.97083 2055.2661 3292221
-950.76587 639.86792 2058.1516 3555393
-931.64508 635.62024 2044.489 3358014
-924.16003 639.30347 2056.3362 3226428
-915.02448 641.93292 2064.7937 3029049
-902.08789 641.93292 2064.7937 2831670
-891.88892 643.90924 2071.1509 2831670
-880.08344 644.76709 2073.9102 2963256
-867.08972 644.76709 2073.9102 2963256
-855.18811 645.59155 2076.562 2634548
-843.26727 646.4267 2079.2483 2831927
-831.52081 647.42389 2082.4556 2963513
-821.59045 649.88934 2090.386 2635060
-805.41473 647.41449 2082.4255 2963769
-788.30511 644.09509 2071.7485 2897976
-779.25494 647.35992 2082.25 2963769
-772.99695 653.09503 2100.697 3555906
-752.15588 646.4942 2079.4653 3358527
-736.29584 644.01758 2071.4993 3095355
-719.54358 640.65765 2060.6919 2897976
-707.44653 641.39545 2063.0652 3161405
-689.6994 636.94281 2048.7432 3424320
-678.08459 638.0921 2052.4397 3358527
-665.22546 638.0921 2052.4397 3490113
-653.88452 639.57709 2057.2163 2963769
-647.54004 646.10718 2078.2205 3358527
-635.33209 646.93481 2080.8826 3095355
-611.23688 635.43915 2043.9064 2963769
-592.77356 629.43164 2024.5831 2897976
-586.08136 635.93378 2045.4976 3095355
-574.38818 637.17896 2049.5027 3621699
-565.65649 641.84149 2064.4998 2766390
-550.51697 639.28125 2056.2646 2634291
-536.89502 638.40277 2053.439 2700084
-525.05646 639.65369 2057.4626 2831670
-512.35028 639.88409 2058.2039 2634291
-498.63889 638.83856 2054.8408 2568498
-487.27109 640.81964 2061.2129 2765877
-479.21796 647.38654 2082.3354 2831927
-468.69443 650.8902 2093.6052 3029049
-451.71667 645.37439 2075.8635 3094842
-440.31866 647.73975 2083.4717 3160635
-428.59546 649.75671 2089.9592 3029049
-417.92026 653.53955 2102.127 2831927
-404.74979 653.53955 2102.127 2897463
-392.21524 654.60095 2105.5408 2963256
-377.83261 652.54437 2098.9258 2897463
-366.58539 655.94983 2109.8796 2897463
-349.49451 648.76263 2086.7617 2897463
-338.32065 652.42731 2098.5493 2831670
-327.8118 657.7226 2115.5818 2831670
-310.41721 649.06653 2087.7393 2766134
-297.33688 649.06653 2087.7393 2700084
-283.94934 648.36499 2085.4829 3160635
-272.57458 652.41357 2098.5051 3094842
-257.56586 647.73364 2083.4519 2897463
-244.28151 647.12201 2081.4846 3818565
-230.21753 644.25958 2072.2776 3489600
-216.38284 641.73505 2064.1575 3489600
-202.72748 639.45526 2056.8245 3423807
-189.01933 636.68817 2047.924 3029049
-177.37146 640.96313 2061.6746 2436912
-165.21631 643.93262 2071.2258 3029306
-151.87567 642.39386 2066.2766 2897463
-138.83339 641.94806 2064.8425 2371119
-127.09718 648.07031 2084.5349 2371118
-115.0011 653.54974 2102.1597 1910566
-101.05543 648.57581 2086.1609 1581602
-87.751625 646.85565 2080.6279 2305325
-75.083961 650.04266 2090.8789 2502704
-61.704964 647.11676 2081.4678 2568499
-48.349449 642.935 2068.0171 2305327
-35.392681 642.935 2068.0171 1910568
-22.339401 640.16937 2059.1213 1844775
-9.4989386 644.27753 2072.3354 2239533
3.496731 646.46747 2079.3794 2502705
16.401617 641.65277 2063.8928 2437168
29.330172 641.60089 2063.7258 2239533
42.761147 649.20862 2088.1963 2964026
55.72031 647.76666 2083.5581 2897976
68.1213 641.61487 2063.7708 2634804
81.329185 643.81335 2070.8423 2569011
94.108231 642.47913 2066.5508 2503475
107.05583 642.47931 2066.5513 2503218
120.00343 642.47931 2066.5513 2502705
133.11336 643.26379 2069.0747 2437169
145.87772 642.38733 2066.2556 2305839
159.04124 643.26831 2069.0891 2437425
172.00473 643.26831 2069.0891 2371632
186.0625 647.07391 2081.3301 2108460
198.67262 645.67627 2076.8345 2239276
210.71802 642.72791 2067.3508 2107947
224.95119 646.40765 2079.187 2239533
237.90288 646.2038 2078.5312 2305069
251.01718 646.43988 2079.2905 2174253
262.49609 642.64886 2067.0967 2042667
276.08496 644.13696 2071.8833 1911081
290.60651 647.56989 2082.9253 2042667
301.70032 643.39783 2069.5059 2305839
313.70432 641.4306 2063.1782 2700597
328.15305 644.42004 2072.7937 2305839
