# .PCD v0.7 - Point Cloud Data file format
VERSION 0.7
FIELDS x y z rgb
SIZE 4 4 4 4
TYPE F F F U
COUNT 1 1 1 1
WIDTH 1279
HEIGHT 1
VIEWPOINT 0 0 0 1 0 0 0
POINTS 1279
DATA ascii
-556.81537 619.75665 1717.9589 2501674
-546.72662 620.52252 1720.0819 2633005
-539.88464 625.07825 1732.7104 2962483
-533.51141 630.37488 1747.3926 2501677
-517.70087 624.50903 1731.1326 2699056
-512.67249 631.67719 1751.0026 3028020
-500.72745 630.45032 1747.6017 2699055
-488.63419 628.97772 1743.5197 2435884
-478.70157 630.28259 1747.1368 2764847
-470.01651 633.32965 1755.5831 3620155
-458.66254 632.84027 1754.2266 3028019
-451.40927 638.12366 1768.8722 2764847
-439.10486 636.35291 1763.9636 2764847
-428.59991 637.16589 1766.2172 3028020
-417.43143 637.00934 1765.7832 2897461
-404.67984 634.36261 1758.4465 2568239
-392.4942 632.4798 1753.2273 2831411
-382.07635 633.41925 1755.8314 2831411
-364.72348 622.57642 1725.7753 2831668
-351.50369 618.34167 1714.0367 3160376
-344.05695 624.31567 1730.5964 2765875
-331.74527 621.56342 1722.9673 2634032
-318.29025 616.41174 1708.687 3357755
-302.88907 607.00134 1682.6014 3686720
-295.6539 613.86737 1701.6339 3226169
-285.92172 615.86859 1707.1813 3291960
-276.55356 618.83997 1715.4178 2831409
-262.27087 610.60974 1692.6038 3160374
-251.19975 609.47803 1689.4668 3291960
-242.81953 615.06287 1704.9478 3555388
-232.164 615.13306 1705.1423 3884097
-219.69569 610.17529 1691.3995 3752511
-209.13647 610.28595 1691.7062 2699823
-198.061 608.82153 1687.6469 2699823
-187.00203 607.24548 1683.2781 3094581
-175.26387 603.14374 1671.9081 3226167
-164.78883 603.14374 1671.9081 3357753
-153.37094 599.45837 1661.6924 2765873
-144.01109 603.86615 1673.9106 2963252
-133.52351 603.86615 1673.9106 3093811
-124.44424 610.7782 1693.0707 2764846
-114.38255 613.70721 1701.1899 2896432
-104.14109 616.17462 1708.0295 4080706
-92.777107 611.80487 1695.9167 3817534
-81.459167 606.64771 1681.6211 2896432
-71.540207 611.9245 1696.2483 2304295
-61.346184 616.27948 1708.3202 2567467
-51.031677 621.00897 1721.4303 3225141
-39.911591 615.84302 1707.1105 2238502
-29.097401 613.34283 1700.1798 2238502
-18.473871 614.29462 1702.8182 2698796
-7.850594 617.86829 1712.7245 2566954
2.8982162 621.74274 1723.4644 2040610
13.605371 617.617 1712.0278 2699053
24.272127 616.10339 1707.8323 2764846
35.102417 618.39703 1714.1902 2896432
45.842354 618.39703 1714.1902 2699053
56.666256 619.31476 1716.7341 2896688
66.921219 614.71356 1703.9796 3488569
78.00425 617.93835 1712.9187 3620155
88.373962 615.41571 1705.9259 3291190
98.168053 609.86139 1690.5294 3028018
109.25813 612.65613 1698.2764 3028018
120.57396 616.10828 1707.8457 3093811
131.34641 616.44739 1708.7858 3225397
142.40573 617.98041 1713.0353 3028018
153.44366 619.21216 1716.4496 3093811
164.56273 620.5885 1720.2649 3028018
175.31818 620.50873 1720.0437 2830895
186.30997 621.2262 1722.0325 2764846
196.98495 620.8667 1721.0359 2633260
207.77692 620.89398 1721.1117 2633260
218.68025 621.23499 1722.0569 2633260
230.89391 625.09131 1732.7466 2830639
243.15588 628.7262 1742.8225 3093811
253.15854 626.45789 1736.5347 3225397
264.03848 626.45789 1736.5347 3356983
273.28098 622.72668 1726.1919 3291190
283.586 621.60852 1723.0923 2962225
291.86234 616.2887 1708.3459 2501931
302.20432 615.55267 1706.3057 2699053
313.69177 617.12048 1710.6515 3093811
324.40955 617.12048 1710.6515 3093811
334.18414 615.38373 1705.8373 3159604
342.33722 610.86121 1693.3008 3159604
352.29141 609.72778 1690.1589 3225140
362.82504 609.63409 1689.8993 3291190
376.17892 614.15009 1702.4176 3422520
386.38812 613.42462 1700.4066 3357753
396.59695 612.73749 1698.5018 3357753
407.40051 612.98108 1699.1772 3620925
419.81509 615.57452 1706.3661 3555132
432.24194 618.0567 1713.2467 4081476
443.75949 619.14996 1716.2772 3489339
456.57553 621.96021 1724.0673 3423546
464.9838 618.77509 1715.238 3555132
474.04272 616.58002 1709.1534 3555132
483.66818 615.2027 1705.3353 3357753
494.59067 615.49884 1706.1564 3226167
505.20731 615.40997 1705.91 3357753
515.15936 614.53204 1703.4763 3357753
525.08112 613.6543 1701.0432 2962995
534.68494 612.44727 1697.6975 2371115
544.82062 611.8847 1696.1381 3423289
557.40363 614.03967 1702.1116 3751998
572.27747 618.58984 1714.7246 3423289
582.47058 618.0061 1713.1066 3159861
589.4278 614.07239 1702.2021 2830895
604.04987 618.12183 1713.4271 3159861
611.66656 614.98639 1704.7358 3291190
621.51788 614.16681 1702.464 3554362
633.487 615.43237 1705.9722 3422776
645.60974 616.80267 1709.7706 3751741
660.38007 620.61639 1720.3422 3751741
668.87866 618.50818 1714.4982 3554362
677.70764 616.76727 1709.6725 3225397
690.61243 618.73218 1715.1191 2830896
708.51642 625.04712 1732.6241 2830639
721.72321 627.09015 1738.2875 2961969
730.90344 625.62592 1734.2285 2962225
739.73737 623.91248 1729.4789 2962226
756.88531 629.15942 1744.0234 3027761
770.51471 631.37408 1750.1622 3159348
785.00232 634.21979 1758.0505 3028018
796.82843 634.86621 1759.8425 3093813
805.85272 633.29315 1755.4821 3093813
814.8396 631.73346 1751.1586 3225400
821.48883 628.427 1741.993 2962227
836.03339 631.16779 1749.5905 2436396
849.82941 633.27991 1755.4452 2107431
861.43402 633.72577 1756.6813 2633519
882.62921 641.12695 1777.1971 2633775
892.25916 640.04755 1774.2052 3028277
896.42151 635.12085 1760.5483 2962994
907.78223 635.35211 1761.1895 2699823
922.86188 638.14935 1768.9432 3555132
922.5824 630.38556 1747.4221 4278855
919.63403 621.00171 1721.4102 4278855
923.56213 616.42493 1708.7234 3291960
924.12238 609.73096 1690.168 3423290
932.50458 608.2912 1686.1769 3488826
939.25812 605.83313 1679.363 3554619
953.06665 607.92969 1685.1747 2962481
959.04034 605.03741 1677.1575 3028275
971.50122 606.25623 1680.5359 3357753
982.03027 606.25623 1680.5359 3291960
997.20319 609.09265 1688.3984 3160374
1010.6345 610.81696 1693.1781 3555132
1016.8922 608.21484 1685.9652 3423289
1029.5079 609.42987 1689.3333 3423289
1049.8237 615.13202 1705.1395 3028275
1064.601 617.50665 1711.722 2830639
1082.7242 621.75549 1723.4998 2764846
1093.5226 621.75549 1723.4998 2567467
1102.1333 620.5238 1720.0856 2830639
1121.9496 625.5639 1734.0566 3291190
1119.4614 618.19043 1713.6173 2962225
1129.0535 617.56458 1711.8824 2764846
1136.7959 615.94818 1707.402 2764846
1149.0538 616.78589 1709.724 2567467
1157.8149 615.74835 1706.848 2962225
1165.4716 614.14789 1702.4115 3093811
1177.7024 614.9649 1704.6763 2962225
1188.8292 615.19592 1705.3168 2896432
1189.6483 610.13635 1691.2916 2699053
1200.5872 610.31036 1691.774 2830639
1213.6615 611.5575 1695.231 3488569
1220.845 609.84021 1690.4707 3356983
1228.9283 608.59821 1687.028 3093811
1230.9432 604.39777 1675.3843 2962482
1243.5275 605.41406 1678.2014 2567467
1259.5033 608.05066 1685.51 2764846
1275.1481 610.48492 1692.2578 2830639
1280.3308 607.91156 1685.1244 2567467
1299.3505 611.89642 1696.1704 2567467
1308.2043 611.06818 1693.8745 2830639
1323.9148 613.43024 1700.4222 2699310
1344.9005 618.17932 1713.5865 3159604
1370.031 624.74323 1731.7817 3159604
1375.6005 622.35406 1725.1591 3093811
1398.6578 627.85254 1740.4006 3159604
1411.7236 628.81543 1743.0697 3817534
1416.4326 626.06964 1735.4586 4343878
1432.0922 628.16919 1741.2783 4278085
1461.5275 636.23376 1763.6334 3488826
1461.5972 631.48981 1750.4832 2962225
1480.8494 635.04266 1760.3315 2633260
1479.7583 629.88348 1746.0305 2501674
1475.7638 623.57336 1728.5388 2699053
1475.2428 618.81207 1715.3406 3028018
1485.8977 618.77362 1715.234 3291190
1503.6326 621.6629 1723.243 3488569
1508.2922 619.14374 1716.26 3422776
1520.5953 619.77563 1718.0115 3028018
1531.451 619.81274 1718.1144 2765102
1544.634 620.78467 1720.8087 2699309
1555.6672 620.88525 1721.0874 2764846
1565.4896 620.50439 1720.0317 2830639
1579.7535 621.87726 1723.8373 2962481
1589.6459 621.52216 1722.853 2830641
1601.2064 621.81982 1723.678 2830641
1612.0057 621.81982 1723.678 3093813
1640.4857 628.59454 1742.4575 3488571
1642.641 625.25946 1733.2126 3488571
1654.5266 625.64764 1734.2887 3356985
1664.5997 625.34979 1733.4631 3356985
1676.6539 625.79529 1734.698 3356985
1687.5223 625.79529 1734.698 3356985
1693.7277 624.07709 1729.9352 3422778
1705.7908 624.52545 1731.178 3291192
1717.1962 624.72882 1731.7418 3225399
1730.0287 625.44556 1733.7286 3225399
1740.7568 625.39734 1733.595 3291192
1750.5784 625.02606 1732.5657 3291192
1777.7408 630.81256 1748.6058 3291192
1781.6106 628.31366 1741.679 3225399
nan nan nan 16777215
nan nan nan 16777215
nan nan nan 16777215
nan nan nan 16777215
nan nan nan 16777215
nan nan nan 16777215
nan nan nan 16777215
nan nan nan 16777215
nan nan nan 16777215
nan nan nan 16777215
nan nan nan 16777215
nan nan nan 16777215
nan nan nan 16777215
-1494.2443 613.20532 1670.9325 3028275
-1484.6687 613.57446 1671.9385 3028532
-1475.2571 614.01715 1673.1448 2765616
-1451.026 608.25403 1657.4407 2107429
-1451.241 612.72913 1669.635 2239272
-1449.4996 616.43738 1679.7396 2371114
-1440.0328 616.89026 1680.9738 2370858
-1428.5845 616.49475 1679.896 2568237
-1418.1443 616.53168 1679.9966 2765616
-1409.1171 617.18799 1681.785 2962995
-1396.4113 616.23083 1679.1769 2897202
-1388.3243 617.31299 1682.1256 2634030
-1380.5953 618.57196 1685.5563 2831409
-1374.2604 620.47986 1690.755 2963252
-1351.329 614.86578 1675.4573 3291960
-1342.3604 615.56683 1677.3674 3489339
-1328.9894 614.24408 1673.7632 3423546
-1317.1421 613.61023 1672.036 3028788
-1304.0862 612.39868 1668.7345 3160375
-1290.8329 611.07404 1665.125 3160376
-1276.5942 609.25751 1660.1752 3160377
-1258.222 605.4223 1649.7245 2897203
-1256.4708 609.58728 1661.0736 3884098
-1247.5458 610.31232 1663.0494 4015684
-1229.8981 606.7464 1653.3326 3357754
-1220.7587 607.35303 1654.9856 3029045
-1202.0669 603.17682 1643.6057 2963252
-1189.0441 601.79761 1639.8474 3160630
-1186.3402 605.66241 1650.3788 3554362
-1177.3706 606.36829 1652.3022 3422776
-1168.5468 607.16235 1654.4661 3225397
-1158.6061 607.38519 1655.0732 3291190
-1151.0597 608.87866 1659.1427 2896432
-1142.6763 609.95233 1662.0685 3028018
-1129.6008 608.51831 1658.1609 3225396
-1121.3917 609.70343 1661.3903 3356726
-1120.7338 615.05487 1675.9724 3751484
-1109.5433 614.67267 1674.9309 3751741
-1096.2906 613.12976 1670.7267 3685948
-1085.4861 612.93951 1670.2083 3751741
-1079.3923 615.43146 1676.9987 3225397
-1069.4695 615.76782 1677.9152 3225397
-1036.4397 602.67438 1642.2367 3027761
-1028.4626 604.03229 1645.9369 2963251
-1035.5522 614.3562 1674.0686 3357753
-1023.3386 613.32239 1671.2515 3291960
-1012.2955 612.97577 1670.3071 3291960
-1004.8562 614.82709 1675.3518 3094581
-997.53931 616.79321 1680.7092 3028788
-987.50385 617.10236 1681.5516 3620925
-977.55304 617.47162 1682.5579 3555132
-963.4566 615.20178 1676.3728 3028788
-952.95355 615.20178 1676.3728 3226167
-940.32233 613.81256 1672.5873 3752511
-922.43896 608.92493 1659.2689 4146755
-907.26587 605.73541 1650.5776 3554362
-896.92444 605.73541 1650.5776 3225398
-901.23541 615.74615 1677.8562 2962225
-894.68964 618.48816 1685.3279 2106916
-882.54883 617.38171 1682.313 2172709
-871.51611 617.03302 1681.3628 2501674
-858.60535 615.32996 1676.7219 2699053
-845.68909 613.58057 1671.9551 2896432
-835.21381 613.58057 1671.9551 2962225
-825.56299 614.19397 1673.6266 2369832
-816.11157 614.97339 1675.7505 2370088
-813.21625 620.77789 1691.5671 2699566
-803.88959 621.76135 1694.2469 2896945
-793.2746 621.76135 1694.2469 2961968
-783.47754 622.41107 1696.0176 2634287
-770.35999 620.4046 1690.55 2765873
-755.21484 616.68652 1680.4185 3160374
-749.45905 620.63867 1691.1879 3291960
-732.45374 615.25476 1676.5171 3357753
-719.40344 613.08472 1670.6039 3620925
-713.70111 617.20502 1681.8314 3226167
-704.47021 618.35168 1684.9559 3094581
-691.19507 615.92932 1678.3552 3489339
-679.61743 614.96808 1675.736 3489596
-666.32782 612.40338 1668.7473 3620155
-653.10144 609.81592 1661.6967 3620155
-640.3045 607.552 1655.5278 3488569
-629.77515 607.40063 1655.1154 3488313
-617.37708 605.41168 1649.6954 3159604
-611.24823 609.60736 1661.1284 3225397
-602.48529 611.27588 1665.675 3422776
-592.04932 611.27588 1665.675 2896432
-583.91425 613.69421 1672.2648 2896432
-580.45575 621.20563 1692.7328 2962739
-570.47357 621.88513 1694.5844 2765359
-563.28625 625.69489 1704.9656 2567980
-556.18365 629.74792 1716.0099 2305064
-545.43237 629.74792 1716.0099 2765618
-536.19598 631.53229 1720.8721 3028019
-525.41907 631.53821 1720.8881 2370088
-517.44165 634.97968 1730.2659 2962224
-507.31311 635.87219 1732.698 2896432
-492.36325 630.6286 1718.4095 2370088
-483.05643 632.53986 1723.6176 2304295
-472.2811 632.57153 1723.7039 2238502
-462.233 633.60156 1726.5106 3159604
-454.69351 638.20203 1739.0465 2830895
-448.70444 645.25787 1758.2731 2699051
-433.19998 638.64099 1740.2427 2764847
-421.28967 637.11792 1736.0924 3028020
-412.7117 640.68707 1745.8181 2896947
-401.03537 639.50989 1742.6104 2502446
-390.1174 639.50989 1742.6104 2634032
-379.18381 639.48364 1742.5388 2370860
-364.54309 633.01849 1724.9218 2699825
-351.50369 629.02386 1714.0367 2962997
-340.22897 628.03491 1711.3419 2897204
-328.99573 627.06055 1708.687 2502446
-316.02298 622.59387 1696.5155 3686720
-298.35864 608.25159 1657.4341 4081479
-290.41336 613.40326 1671.472 4147272
-282.92676 619.9455 1689.299 3423545
-276.55356 629.5307 1715.4178 2699823
-261.56113 619.47736 1688.0233 3226167
-250.39594 618.02307 1684.0605 3620925
-240.22176 618.99445 1686.7075 3818304
-230.17567 620.40057 1690.5391 3686718
-218.24779 616.62555 1680.2524 3818304
-208.86238 620.01526 1689.4891 3620925
-196.72853 615.17255 1676.2931 3226167
-184.77153 610.3678 1663.2006 3094581
-172.87099 605.18634 1649.0814 3686718
-162.59607 605.39886 1649.6606 3555132
-152.93088 608.06464 1656.9247 2896945
-142.90154 609.56537 1661.0139 2831152
-132.19254 608.17487 1657.225 3356727
-123.59087 617.06879 1681.4603 3225397
-113.4271 619.09436 1686.9797 2501674
-103.40256 622.37415 1695.9167 2172709
-92.030846 617.36798 1682.2755 3093811
-80.776581 611.9566 1667.5299 3422776
-70.278969 611.52136 1666.3439 3093811
-60.912678 622.49579 1696.2483 3291190
-50.432396 624.31848 1701.215 3488313
-39.645 622.29742 1695.7078 2962225
-29.020864 622.29742 1695.7078 2369831
-18.433302 623.53455 1699.0789 2698796
-7.7902536 623.71124 1699.5603 2830640
2.8727212 626.9198 1708.3033 1646109
13.510941 623.92596 1700.1455 2764846
24.155962 623.74738 1699.6587 2830639
34.891319 625.297 1703.8813 2830382
45.632755 626.20392 1706.3527 2501674
56.066792 623.34894 1698.573 2567467
66.733246 623.57654 1699.1934 3685948
77.597176 625.33307 1703.9796 3422776
87.715752 621.38446 1693.2201 3159604
97.832054 618.27362 1684.7433 2501674
108.60976 619.5415 1688.1982 2633260
119.58502 621.61121 1693.838 2699053
129.91382 620.25714 1690.1482 2962225
139.47273 615.70837 1677.7533 3159604
153.13843 628.65637 1713.0353 2962225
163.60161 627.62231 1710.2178 2830639
174.77885 629.2865 1714.7524 2633260
185.52232 629.2865 1714.7524 2699053
196.73834 630.80176 1718.8813 2764846
207.76276 631.57715 1720.9943 2501674
217.75078 629.28101 1714.7375 2567467
228.98573 630.63483 1718.4265 2764846
239.75514 630.64258 1718.4475 2830639
250.52173 630.64258 1718.4475 3028018
261.99966 632.35944 1723.1259 3291190
272.79559 632.35944 1723.1259 3093811
280.61325 625.71844 1705.0297 2633260
290.07889 623.10449 1697.9069 2699053
300.29575 622.23199 1695.5295 2764846
311.72302 623.84149 1699.9153 2830639
322.37973 623.85352 1699.948 2830639
332.43408 622.73645 1696.9041 2699053
340.43085 617.95361 1683.8713 3159604
349.32013 615.02972 1675.9039 3356982
356.00769 608.51312 1658.1467 3028018
372.68469 618.9566 1686.6042 3356726
383.25177 618.9566 1686.6042 3225654
382.99658 601.94739 1640.2557 2830896
404.93011 619.78937 1688.8737 3358009
415.94928 620.4425 1690.6533 3423546
430.50595 626.20886 1706.3661 3555388
441.08054 626.0437 1705.9161 3291960
453.72729 628.75793 1713.3121 3226167
463.17685 627.01855 1708.5725 2962995
472.2381 624.84399 1702.647 3028788
481.59418 623.14697 1698.0227 3357753
493.34549 624.5556 1701.8611 3226167
503.34546 623.73438 1699.6233 3291960
513.92828 623.65442 1699.4054 3357753
524.04834 623.02765 1697.6975 3489339
534.55585 622.8772 1697.2876 3555132
540.62616 617.66315 1683.0798 3291960
553.47205 620.24164 1690.1058 3621182
564.0611 620.24164 1690.1058 3620925
577.94141 623.79407 1699.7859 3620925
588.59113 623.79407 1699.7859 3751998
600.03876 624.62469 1702.0494 3356727
610.70264 624.62469 1702.0494 3356983
619.72351 622.97308 1697.5488 3817790
631.67395 624.27246 1701.0896 3949120
643.91138 625.80762 1705.2727 3620155
648.65302 620.12653 1689.7922 3291190
662.86768 623.53888 1699.0906 2633260
676.74866 626.53442 1707.2533 3028018
689.45319 628.36456 1712.2402 3225397
702.9776 630.87439 1719.0793 3356983
716.35968 633.18274 1725.3694 3291190
727.94611 633.85883 1727.2117 3356983
739.28973 634.30676 1728.4323 3225397
750.57312 634.69086 1729.4789 3028018
765.64569 638.2226 1739.1025 3093811
781.48004 642.28131 1750.1622 3751741
793.81763 643.39355 1753.193 3291192
798.49969 638.35522 1739.464 2962227
805.88873 635.58759 1731.9224 2436140
816.66785 635.53162 1731.7699 2962226
826.77728 634.96283 1730.22 3093813
839.90143 636.69409 1734.9375 2896434
850.77136 636.69409 1734.9375 3093813
874.87 646.46918 1761.5737 2830641
885.39111 646.09283 1760.5483 3225143
893.91028 644.28296 1755.6165 3094324
899.42474 640.37762 1744.9749 2765616
913.27124 642.42731 1750.5599 3620925
917.06976 637.44403 1736.981 4213062
912.85638 627.07397 1708.7234 4213062
913.25488 620.07562 1689.6536 3555132
919.02405 616.84247 1680.8435 3686975
925.59229 614.21277 1673.6779 3818304
926.71991 608.0722 1656.9453 3423545
948.53241 615.48975 1677.1575 3093811
947.44434 608.04773 1656.8785 3159861
966.00781 613.24225 1671.0332 3422776
966.57983 607.02643 1654.0956 3423033
993.14807 617.09534 1681.5326 3488826
1006.3292 618.72205 1685.9652 3751740
1012.5563 616.08386 1678.7764 3488826
1024.9041 617.18567 1681.7787 3159603
1043.3235 621.88416 1694.5818 3093812
1061.1398 626.13214 1706.157 3093811
1074.9552 627.95813 1711.1328 2962225
1088.2203 629.42981 1715.1429 2896432
1094.0032 626.58722 1707.3971 3028018
1104.8273 626.65912 1707.593 3225397
1117.6948 627.8775 1710.9131 2962225
1126.314 626.70886 1707.7285 2962225
1135.582 625.91992 1705.5789 2896432
1146.2062 625.88617 1705.4868 2830639
1151.101 622.75342 1696.9503 3093811
1161.7329 622.75342 1696.9503 3225397
1175.6328 624.48932 1701.6805 3291190
1179.0519 620.67676 1691.2916 3028018
1187.8031 619.71405 1688.6682 3028275
1192.2391 616.53687 1680.0107 2896432
1208.5959 619.52582 1688.1554 3225397
1208.9689 614.34064 1674.0262 3159604
1218.7249 613.97168 1673.0209 2830639
1226.7407 612.73999 1669.6646 2962225
1239.4189 613.83807 1672.6567 3093811
1254.042 615.87286 1678.2014 2962482
1258.5454 612.94537 1670.2242 2896432
1264.8866 610.9538 1664.7974 2699053
1282.1888 614.24579 1673.7677 2238502
1305.9077 620.53339 1690.9009 2501674
1318.4661 621.45929 1693.4238 2435881
1334.3412 623.92126 1700.1326 2896432
1358.4757 630.17566 1717.1753 3093811
1372.725 631.78217 1721.5529 3028018
1388.215 633.93024 1727.4061 3028018
1405.71 636.95355 1735.6444 2830639
1405.1957 631.83276 1721.6908 3093811
1419.5854 633.44043 1726.0714 3225397
1443.0017 639.02106 1741.2783 2896432
1453.8835 639.00879 1741.2449 3093811
1464.793 639.00879 1741.2449 3159861
1464.9341 634.34589 1728.5388 3159604
1458.194 626.79364 1707.9595 3356983
1470.9081 627.65265 1710.3003 3159604
1484.281 628.77838 1713.3679 3159604
1495.1749 628.84534 1713.5503 3291190
1504.2776 628.16327 1711.6918 3422776
1517.7224 629.29132 1714.7655 3093811
1527.8169 629.02411 1714.0374 3093811
1541.6044 630.27045 1717.4336 2962225
1554.8304 631.27155 1720.1616 2962225
1561.1204 629.46222 1715.2312 2830639
1571.6914 629.39197 1715.0398 2764846
1584.1105 630.05768 1716.8538 3028020
1589.6755 628.00677 1711.2653 3225656
1600.3972 628.00677 1711.2653 3093813
1622.8688 632.58685 1723.7456 3159606
1626.7111 629.89282 1716.4045 3093813
1652.9235 635.83936 1732.6084 3159606
1659.2839 634.12152 1727.9275 3356985
1670.2539 634.17621 1728.0764 3422778
1682.9833 634.89392 1730.0321 3291192
1690.0326 633.47333 1726.1611 3225399
1702.1665 633.96454 1727.4998 3291192
1716.0488 635.09668 1730.5847 3225399
1728.0115 635.50861 1731.7072 3093813
1736.5253 634.65485 1729.3807 3225399
1747.5005 634.70575 1729.5195 3225399
1761.4333 635.82367 1732.5657 3225399
1776.3618 637.28503 1736.5477 3291192
nan nan nan 16777215
nan nan nan 16777215
nan nan nan 16777215
nan nan nan 16777215
nan nan nan 16777215
nan nan nan 16777215
nan nan nan 16777215
nan nan nan 16777215
nan nan nan 16777215
nan nan nan 16777215
nan nan nan 16777215
nan nan nan 16777215
nan nan nan 16777215
-1443.5054 602.44305 1614.1938 3028274
-1457.2249 612.4599 1641.0331 3028275
-1444.7723 611.54089 1638.5708 2896432
-1439.8097 613.80182 1644.6288 2238502
-1429.9972 614.01294 1645.1945 2305065
-1422.9951 615.44263 1649.025 2568237
-1416.4398 617.08783 1653.4333 2634030
-1407.2588 617.60492 1654.8188 2568493
-1397.9205 618.06024 1656.0387 2634030
-1392.3971 620.2215 1661.8297 2831409
-1379.5868 619.14508 1658.9456 2765616
-1366.7645 618.047 1656.0033 2502700
-1357.6725 618.63171 1657.5701 2765616
-1348.8326 619.34131 1659.4713 2962995
-1325.8542 613.51947 1643.8722 3423546
-1319.8401 615.51788 1649.2268 3884097
-1302.6023 612.2724 1640.5308 3555132
-1293.865 613.00256 1642.4872 3226167
-1279.946 611.26978 1637.8444 3357753
-1269.3389 611.10339 1637.3986 3357754
-1256.396 609.80066 1633.908 3160376
-1241.5363 607.53851 1627.8468 3160376
-1232.0107 607.87079 1628.7371 3949891
-1221.8063 607.87079 1628.7371 3752512
-1211.0631 607.60059 1628.0131 3357753
-1184.9813 599.56488 1606.4821 3226167
-1181.3142 602.82983 1615.2302 2897202
-1174.7758 604.67328 1620.1696 3094580
-1172.47 608.7464 1631.0831 3554362
-1158.6277 606.84888 1625.9988 3422776
-1147.7614 606.48999 1625.0374 2831152
-1138.3809 606.91699 1626.1814 2896946
-1129.5507 607.64771 1628.1393 2896948
-1122.2257 609.20886 1632.3224 3094839
-1110.8722 608.59174 1630.6687 3160376
-1099.3862 607.88989 1628.7882 3291962
-1102.3522 615.24072 1648.4841 3555132
-1083.9927 610.71594 1636.3604 3751741
-1071.8575 609.64502 1633.491 4146499
-1060.2985 608.88434 1631.4528 3883327
-1057.515 613.19727 1643.0089 3291190
-1039.1593 608.47668 1630.3606 3356983
-1028.9446 608.47668 1630.3606 3291190
-1021.1185 609.90344 1634.1833 2962995
-1010.8798 609.90344 1634.1833 3160374
-1004.5986 612.31555 1640.6465 3094581
-995.388 612.97363 1642.4095 3094838
-993.5108 618.20856 1656.4362 3094581
-973.28125 612.01385 1639.838 2962995
-972.71777 618.18518 1656.3735 3291960
-953.24738 612.34418 1640.7231 3094581
-944.95374 613.63385 1644.1787 3094581
-935.45142 614.15845 1645.5842 3291446
-925.40656 614.33447 1646.056 2962738
-915.20184 614.40723 1646.2509 2830639
-904.88757 614.40723 1646.2509 3159860
-889.84387 611.159 1637.5475 2699053
-882.96729 613.5097 1643.8461 2501674
-872.78784 613.59387 1644.0715 2172709
-862.48718 613.59387 1644.0715 2238502
-855.49689 615.97729 1650.4578 2501674
-844.65552 615.61243 1649.4801 2106916
-831.39825 613.45581 1643.7017 2501674
-818.69006 611.65533 1638.8774 3159604
-807.79816 611.18335 1637.6128 2765615
-806.22223 617.83838 1655.4443 2634031
-792.883 615.53479 1649.272 3094581
-782.54974 615.53479 1649.272 3226166
-774.78784 617.58429 1654.7635 3225653
-762.72003 616.21069 1651.083 3094581
-752.55927 616.36121 1651.4865 2765615
-739.75848 614.32361 1646.0267 4081475
-729.92407 614.72656 1647.1064 5002578
-719.14142 614.33099 1646.0466 3686974
-708.16797 613.75854 1644.5128 3357753
-694.58777 610.87665 1636.791 3489339
-687.04541 613.29816 1643.2792 3357753
-673.93652 610.7486 1636.448 3752511
-659.2085 606.63043 1625.4136 3752768
-652.63251 610.00244 1634.4487 3619898
-641.16058 608.83301 1631.3152 3093811
-630.36072 608.27417 1629.8179 3159347
-616.9093 605.09613 1621.3025 3159604
-607.11011 605.45386 1622.2611 2896689
-598.37164 606.89972 1626.1351 3093811
-584.90442 603.51642 1617.0698 3028275
-578.98895 607.94318 1628.931 2764589
-569.62787 608.84595 1631.35 2370858
-566.78552 616.87671 1652.8677 2634030
-556.42981 616.87671 1652.8677 3160374
-545.10266 615.77936 1649.9274 2831409
-543.77631 626.1554 1677.729 2107686
-542.07471 636.49988 1705.4462 2699825
-530.79254 635.78473 1703.53 2634032
-520.11938 635.78473 1703.53 2305066
-509.48297 635.83063 1703.653 2369834
-502.69617 640.78552 1716.9292 1909539
-483.58704 629.90631 1687.7794 2238503
-474.09332 631.34558 1691.6357 2435883
-464.24127 632.36249 1694.3605 2633261
-456.26059 636.03577 1704.2026 2567211
-446.71054 637.6449 1708.5143 2699053
-437.82037 640.2981 1715.6233 3225398
-425.66565 638.19043 1709.976 3356983
-412.75159 634.80609 1700.9078 2896432
-405.07489 639.51074 1713.5135 2238503
-393.62201 638.34772 1710.3972 2501676
-382.82739 638.21692 1710.0469 2699568
-372.13461 638.25323 1710.1442 2305067
-360.37357 636.40527 1705.1926 2699825
-348.43185 634.11554 1699.0575 2897204
-335.35999 629.55988 1686.8511 3423548
-317.38879 615.21112 1648.4048 2831409
-302.87454 606.82336 1625.9304 3620925
-291.9317 605.25616 1621.7313 4607820
-280.27872 602.0506 1613.1422 3226167
-273.85318 610.25397 1635.1226 2634030
-266.50763 616.96515 1653.1046 2765616
-256.17572 617.02606 1653.2678 3423546
-245.44551 616.09241 1650.7661 3555132
-233.504 611.90228 1639.5392 3686718
-223.5513 612.77814 1641.886 3621181
-212.74063 611.27332 1637.8538 3752511
-201.47685 608.24792 1629.7476 3949890
-190.96588 607.29358 1627.1904 2897202
-180.9753 607.9798 1629.0291 3160374
-170.51195 607.06494 1626.5778 3818304
-159.32243 603.284 1616.4471 3555132
-151.73967 613.5741 1644.0186 3423546
-140.45248 609.29285 1632.5472 3226167
-130.34015 609.83594 1634.0026 3356983
-120.42521 611.47394 1638.3914 3554362
-110.90661 615.61719 1649.4929 3751741
-100.24818 613.63495 1644.1816 3422520
-89.495857 610.55798 1635.9371 3225397
-79.748238 614.42596 1646.3011 3225141
-70.127296 620.56415 1662.7478 4146499
-59.429989 617.65741 1654.9595 4409671
-49.141403 618.66772 1657.6665 3554362
-38.944157 621.67755 1665.7311 3488569
-28.414474 619.6416 1660.276 3685948
-18.012331 619.6416 1660.276 2962225
-7.5314035 613.22693 1643.0884 3027761
2.8290949 627.88391 1682.3605 2501931
13.393971 629.02826 1685.4265 2699053
23.796364 624.89679 1674.3567 2962225
34.294521 625.03882 1674.7373 2764846
44.939972 627.16986 1680.4473 2698796
55.553764 628.13397 1683.0305 2238502
66.098473 628.13397 1683.0305 2501674
76.50724 627.0199 1680.0453 3356983
86.697609 624.60187 1673.5665 3554362
95.857079 616.0799 1650.7327 3356983
106.19943 616.0799 1650.7327 2699053
116.31367 614.87408 1647.5017 2633260
126.53783 614.39844 1646.2273 2633260
138.38843 621.29645 1664.71 3028018
149.367 623.58704 1670.8473 2830639
161.17453 628.81165 1684.8462 2962225
171.90323 629.44366 1686.5397 2962225
182.46992 629.44366 1686.5397 2633260
193.27354 630.21625 1688.6097 2435881
203.79678 630.04181 1688.1423 3291190
214.13396 629.33777 1686.2559 3159604
224.69888 629.33777 1686.2559 2699053
235.82677 630.84369 1690.2909 2896688
245.47583 628.43439 1683.8353 2699053
255.87708 628.06982 1682.8586 2764846
266.42072 628.06982 1682.8586 2633260
276.94043 628.01562 1682.7134 2633260
286.85001 626.63245 1679.0073 2896432
297.03906 625.93616 1677.1416 2699053
304.70245 620.14703 1661.6302 2567467
314.9671 619.85974 1660.8604 2567467
321.46094 612.4071 1640.8917 2567467
331.47116 611.9079 1639.5541 3093811
342.21173 612.74628 1641.8004 3817790
348.3089 605.46417 1622.2887 3357239
359.69821 607.53345 1627.8333 3160117
372.32904 611.52783 1638.5358 2896432
382.42792 611.2608 1637.8203 2633260
392.20038 610.49969 1635.7809 3159348
407.8681 618.72015 1657.8069 3422776
421.80157 623.96692 1671.8651 3422775
432.57452 624.39728 1673.0184 2897202
440.62946 620.97693 1663.8538 2962995
451.05408 620.97693 1663.8538 2962995
462.75018 622.68799 1668.4384 3028788
470.54633 619.19147 1659.0697 2963252
482.0401 620.60657 1662.8615 2502444
490.70697 618.39935 1656.9474 2436651
500.23013 617.34039 1654.11 2897202
514.15448 621.64563 1665.6456 3555132
519.84027 616.01678 1650.5636 3818304
530.35944 616.22345 1651.1173 3620925
546.10376 622.3772 1667.6057 3291960
554.52551 620.11127 1661.5343 3291960
568.86627 624.4259 1673.095 3686718
573.8429 618.49164 1657.1947 3883841
584.82501 619.12604 1658.8945 3686718
596.06403 620.00555 1661.2511 3620668
606.47229 620.00555 1661.2511 3620155
613.83264 616.9422 1653.0432 3685948
621.49451 614.27856 1645.9061 3488569
633.28186 615.71289 1649.7493 3356983
644.32672 616.39081 1651.5657 3225397
657.5625 619.11011 1658.8518 3225397
674.15833 624.85913 1674.2559 2962225
689.05432 628.88068 1685.0311 3291190
695.7583 625.41693 1675.7504 3422776
706.59821 625.71869 1676.559 3225397
719.76727 628.04407 1682.7896 2896432
733.14673 630.48315 1689.3248 2765103
746.59552 632.91156 1695.8315 3225397
764.74402 639.20007 1712.681 3685948
775.47449 639.20007 1712.681 3554621
789.23926 641.66699 1719.291 3357755
799.93707 641.60754 1719.1318 2897460
804.07385 636.35718 1705.064 3423805
812.30835 634.44501 1699.9403 3489341
831.99792 641.41339 1718.6116 3752513
845.02106 643.13007 1723.2112 3883842
851.17487 639.64124 1713.8632 3620927
857.70795 636.52075 1705.5021 3818306
860.2431 630.54669 1689.4951 3489082
873.09918 632.19092 1693.9006 2831410
887.6369 634.99872 1701.4241 3555132
884.15912 625.00488 1674.6464 3949890
883.17133 616.98492 1653.1576 4147269
884.3172 610.62421 1636.1146 4147269
897.77917 612.81616 1641.9878 3423546
898.29333 606.22052 1624.3153 3489339
901.49249 601.56439 1611.8395 3555132
922.29907 608.63055 1630.7728 3160374
935.59662 610.64093 1636.1594 2962996
947.37311 611.62585 1638.7983 3225397
957.17255 611.32678 1637.9971 3488569
966.66125 610.83783 1636.6869 3620155
976.01843 610.27679 1635.1837 3554362
987.30609 610.922 1636.9125 3291190
995.6734 609.7655 1633.8137 3028018
1019.0282 617.71771 1655.121 3093811
1035.4247 621.33411 1664.8108 3291190
1046.2736 621.58258 1665.4767 3685948
1055.6787 620.97699 1663.854 3225654
1066.4891 621.20178 1664.4563 2896432
1082.1799 624.2373 1672.5897 3093811
1093.4502 624.68921 1673.8007 3093811
1102.2661 623.74371 1671.2671 3093811
1112.0052 623.33344 1670.1678 3225397
1125.1222 624.80664 1674.1151 3028018
1128.0165 620.62811 1662.9192 3028018
1139.6068 621.26685 1664.6306 3356983
1144.1914 618.10938 1656.1704 3620155
1152.6814 617.09943 1653.4644 3159604
1164.8295 618.0484 1656.0072 2699053
1177.5229 619.26758 1659.2737 2764846
1175.2988 612.68872 1641.6462 3291190
1188.2778 614.08069 1645.376 3620155
1202.4957 616.0835 1650.7423 3422776
1205.8409 612.52917 1641.2188 3291190
1218.9817 613.96863 1645.0757 3291190
1234.2615 616.45239 1651.7306 3422520
1240.4298 614.3819 1646.1829 3225397
1244.1412 611.13873 1637.4932 3027761
1251.7405 609.84265 1634.0204 2370088
1262.5157 610.10242 1634.7166 3159604
1292.6492 619.63751 1660.2649 3356983
1303.0513 619.63751 1660.2649 3422776
1315.0946 620.4118 1662.3396 3291190
1342.9854 628.59137 1684.2561 3028018
1351.407 627.60187 1681.6047 2962482
1361.9429 627.60187 1681.6047 2699309
1387.0286 634.25519 1699.4318 2567467
1402.7605 636.5625 1705.614 2830639
1408.3828 634.28192 1699.5034 2896432
1418.5997 634.08929 1698.9872 2962225
1433.2057 635.84674 1703.6962 3159604
1437.0403 632.83478 1695.6259 3488569
1445.391 631.84113 1692.9635 3422776
1451.0526 629.69513 1687.2134 3356983
1458.8319 628.49243 1683.991 3159604
1464.8073 626.5354 1678.7473 3093811
1482.7573 629.69165 1687.2042 2962225
1497.896 631.61774 1692.365 3028018
1508.4991 631.61774 1692.365 3093811
1522.2593 632.93042 1695.8821 3159604
1531.4662 632.34479 1694.3129 3028018
1534.9567 629.4231 1686.4846 2830639
1536.2615 625.65131 1676.3784 2764845
1546.7645 625.65131 1676.3784 2896434
1538.4077 618.07416 1656.076 3028020
1564.3461 624.28461 1672.7166 3093813
1584.6212 628.16754 1683.1205 2830641
1590.0851 626.16663 1677.759 2435883
1575.525 616.35828 1651.4785 2896434
1585.4694 616.20178 1651.0592 3422778
1626.7076 628.1311 1683.0227 3488571
1647.3043 631.98755 1693.3557 3488571
1658.8109 632.32947 1694.272 3422778
1668.7681 632.08032 1693.6044 3620157
1676.6217 631.04248 1690.8236 3751743
1682.4182 629.24829 1686.0162 3488571
1693.6786 629.50732 1686.7103 3291192
1704.2463 629.50732 1686.7103 3093813
1722.8826 632.4693 1694.6466 3356985
1725.9518 629.71533 1687.2676 3422778
nan nan nan 16777215
nan nan nan 16777215
nan nan nan 16777215
nan nan nan 16777215
nan nan nan 16777215
nan nan nan 16777215
nan nan nan 16777215
nan nan nan 16777215
nan nan nan 16777215
nan nan nan 16777215
nan nan nan 16777215
nan nan nan 16777215
nan nan nan 16777215
-1399.8668 593.98639 1565.3953 3488569
-1425.9609 609.3277 1605.8257 3028018
-1425.3782 613.40656 1616.5752 2830382
-1406.0669 609.42645 1606.0859 2304552
-1414.7338 617.60284 1627.634 2173479
-1416.6924 622.94818 1641.7212 2634030
-1389.9476 615.6579 1622.5084 2897202
-1378.8507 615.24237 1621.4133 2897202
-1371.34 616.43262 1624.55 2634030
-1362.8063 617.17737 1626.5129 2634030
-1352.8364 617.27814 1626.7783 2765873
-1333.8314 613.22644 1616.1006 2831409
-1333.8314 617.91724 1628.4626 2831665
-1317.311 614.96796 1620.6901 2765872
-1306.3727 614.599 1619.7178 3423545
-1299.8932 616.33844 1624.3019 3291960
-1281.3199 612.32587 1613.7272 3226166
-1272.2426 612.82355 1615.0387 3423545
-1259.1484 611.37878 1611.2312 3620925
-1246.9951 610.37122 1608.5759 3423547
-1235.8944 609.8667 1607.2462 3160375
-1222.0948 608.01117 1602.3561 3620925
-1218.6715 611.3299 1611.1024 3489340
-1204.3516 609.19232 1605.469 3160376
-1194.6925 609.39624 1606.0063 3357756
-1181.3663 607.71716 1601.5813 3291962
-1166.1946 605.05176 1594.5569 3357755
-1156.2041 605.05176 1594.5569 3160376
-1148.6078 606.31543 1597.8872 2962998
-1134.719 604.25067 1592.4457 3160630
-1126.743 605.32574 1595.2789 2962994
-1111.5205 602.49219 1587.8114 2897201
-1101.5724 602.49219 1587.8114 3160117
-1093.5774 603.57013 1590.6522 3422775
-1090.119 607.19482 1600.2048 3356983
-1082.2361 608.39948 1603.3795 3554362
-1079.1224 612.33295 1613.7458 3554362
-1065.7635 610.47235 1608.8424 3488569
-1052.0857 608.39172 1603.3591 3422776
-1040.6603 607.58612 1601.236 3291190
-1037.4141 611.58667 1611.7791 3356983
-1023.2173 609.14679 1605.3489 3751741
-1011.8719 608.3728 1603.3092 3356726
-1004.3675 609.91571 1607.3754 3029044
-995.57257 610.6983 1609.4377 3028788
-986.03754 611.03815 1610.3336 3028788
-975.94824 611.03815 1610.3336 3094581
-967.52808 612.09412 1613.1163 3160374
-959.54504 613.45184 1616.6945 3094581
-949.41602 613.45184 1616.6945 2897202
-938.89941 613.19873 1616.0275 2962995
-929.41345 613.62054 1617.1392 3094581
-915.43005 611.04968 1610.3639 3160118
-912.01007 615.55121 1622.2272 2765616
-893.86884 610.1062 1607.8773 2369831
-884.53162 610.61462 1609.2174 2106916
-885.78662 618.53131 1630.0811 2172709
-875.57367 618.53131 1630.0811 2501674
-862.78735 616.69189 1625.2335 2567467
-852.51642 616.62811 1625.0653 2370088
-842.3349 616.62811 1625.0653 2106916
-836.22205 619.64301 1633.0107 1975330
-825.45734 619.2428 1631.9562 2633516
-812.6618 617.2901 1626.8099 2831409
-802.46936 617.2901 1626.8099 2897458
-793.54517 618.27826 1629.4141 2963252
-782.04871 617.26196 1626.7357 3226167
-769.95398 615.7403 1622.7256 3160374
-757.61963 613.98376 1618.0963 3159605
-743.25958 610.51562 1608.9565 2831410
-741.80743 617.70056 1627.8916 3028789
-730.28589 616.58411 1624.9493 4608076
-718.85822 615.51654 1622.1359 4476234
-710.19147 616.81616 1625.5609 2897202
-696.54846 613.76886 1617.5299 2831153
-682.28467 610.07642 1607.799 3489339
-670.41504 608.44617 1603.5026 3357753
-657.90686 606.17798 1597.5249 3620925
-637.0929 596.06879 1570.8831 4278855
-623.62085 592.61926 1561.7922 3752767
-617.91962 596.56195 1572.1827 3028788
-612.75446 601.15833 1584.2961 2831409
-607.28894 605.60657 1596.019 2831666
-600.73383 609.099 1605.223 3225140
-585.09668 603.34503 1590.0591 2962225
-580.24231 608.70343 1604.1805 3159604
-571.68347 610.29602 1608.3777 2963251
-562.02612 610.75201 1609.5795 2831409
-544.87866 602.93652 1588.9824 2765616
-542.91809 611.948 1612.7312 2436907
nan nan nan 16777215
nan nan nan 16777215
nan nan nan 16777215
-522.64673 636.48145 1677.387 2502446
-510.5015 634.44836 1672.0289 2436397
-497.12085 630.76257 1662.3153 2567468
-484.55399 627.97375 1654.9656 2764591
-472.8132 626.1568 1650.1774 2304040
-462.4743 626.1568 1650.1774 2435882
-450.76996 624.26581 1645.1937 2896434
-440.13535 623.80243 1643.9725 2764334
-437.41986 634.80951 1672.9807 2633261
-427.08792 635.03223 1673.5676 2633261
-409.02374 623.47986 1643.1224 3422779
-398.7291 623.47986 1643.1224 2962228
-395.82553 635.34338 1674.3877 3027764
-383.41473 632.17725 1666.0437 2896690
-372.97644 632.17725 1666.0437 2700082
-357.50549 623.40155 1642.9161 3028791
-345.96811 621.16809 1637.0299 3489340
-339.34714 627.89484 1654.7577 3094580
-329.58157 629.04382 1657.7858 3555131
-311.64996 614.17462 1618.5994 3226167
-296.7153 604.40991 1592.8655 3226167
-284.13889 598.93658 1578.4409 3555388
-274.24945 598.93658 1578.4409 3160373
-266.73572 604.31891 1592.6255 2502444
-256.91522 604.69031 1593.6044 2568237
-247.98734 607.27759 1600.423 3357753
-237.96021 607.27759 1600.423 3357753
-229.48921 611.42365 1611.3495 3423546
-219.24352 611.00537 1610.2471 3620925
-209.1185 610.89929 1609.9675 3818304
-197.55028 606.35272 1597.9855 3686718
-186.53729 603.11591 1589.4552 3555132
-175.84856 600.62146 1582.8813 3884097
-165.54474 599.22223 1579.1937 3489339
-155.6506 599.22223 1579.1937 3423546
-148.49837 610.49451 1608.9008 3423546
-138.21581 609.60229 1606.5494 3292217
-128.54391 611.47479 1611.4841 3291190
-118.38191 611.13635 1610.5923 2830639
-108.40346 611.77075 1612.2642 4278085
-98.517075 613.1084 1615.7896 4212293
-88.143135 611.37079 1611.2102 3817534
-78.644905 616.04333 1623.5242 3028275
-68.733521 618.38708 1629.7008 3356983
-58.062122 613.5177 1616.8682 4080449
-48.116615 615.88147 1623.0977 3883070
-38.174259 619.56335 1632.8008 4277829
-28.10832 623.20081 1642.3871 4277828
-17.874479 625.16736 1647.5697 3356984
-7.5144882 622.06659 1639.3979 3553849
2.7701714 625.07288 1647.3208 3685692
13.074523 624.27911 1645.2289 2830639
23.205231 619.54919 1632.7635 3225397
33.490482 620.57727 1635.4729 3028018
43.98069 624.03168 1644.5768 2764846
54.205666 623.12567 1642.1891 2370088
64.338219 621.61591 1638.2102 3159604
74.574471 621.38556 1637.6031 3488569
84.552277 619.31793 1632.1541 3159861
94.676048 618.65021 1630.3944 2567467
104.95634 619.03577 1631.4105 2567467
115.67197 621.69263 1638.4124 2830639
125.99834 621.99481 1639.2087 2764846
135.79178 619.81879 1633.4741 2633260
146.81621 623.17291 1642.3136 2501674
157.56989 625.01367 1647.1648 2501674
167.63792 624.07574 1644.6929 2896432
178.27681 625.24841 1647.7833 2765103
188.67285 625.48767 1648.4139 2567467
200.54659 630.34674 1661.2194 2501674
210.43848 628.80438 1657.1548 2567467
220.59483 628.16022 1655.457 2699053
231.48305 629.56427 1659.1572 2830639
241.46106 628.47852 1656.296 2567724
251.69193 628.11334 1655.3336 2699053
262.5527 629.2868 1658.4261 2370088
272.59793 628.49066 1656.3279 2238502
282.96625 628.47046 1656.2747 2633260
290.2594 621.86328 1638.8622 2764846
301.88901 624.68085 1646.2876 2633260
310.3248 620.92181 1636.381 2172709
319.62677 619.08093 1631.5294 2699053
328.24747 616.07532 1623.6085 3159604
338.78433 616.73883 1625.3572 3028018
347.18353 613.58569 1617.0472 3356983
357.13885 613.28345 1616.2507 3159604
366.01837 611.20148 1610.7639 2633260
376.78012 612.28992 1613.6324 2567467
389.57697 616.5423 1624.8391 3225397
400.45377 617.61682 1627.6709 3093811
411.8595 619.43341 1632.4584 2830639
423.14285 620.98236 1636.5405 2568494
434.24261 622.19507 1639.7365 2765873
444.79315 622.58289 1640.7585 2831409
454.60831 621.94708 1639.083 2765616
464.70795 621.72003 1638.4846 2963252
474.17654 620.67682 1635.7352 3423803
484.42496 620.67682 1635.7352 2436907
491.31851 616.46741 1624.6418 2371115
505.17645 620.98993 1636.5604 2963252
515.43005 620.98993 1636.5604 2371115
522.34674 617.0481 1626.1722 2634287
532.56976 617.08813 1626.2777 3292217
539.04028 612.86023 1615.1355 2831665
555.93024 620.41626 1635.0486 3291960
566.57037 620.85028 1636.1924 3489082
578.64569 622.81354 1641.3665 3488569
584.16724 617.77747 1628.0944 3883327
596.46155 619.95374 1633.8296 3422776
596.09296 609.11694 1605.2704 3488569
612.36237 615.35925 1621.7213 3225397
622.54028 615.3764 1621.7665 3488569
632.70111 615.3764 1621.7665 3685948
645.80127 618.19 1629.1815 3356983
660.58984 622.50708 1640.5588 3291190
671.31067 622.91748 1641.6403 3422776
680.72351 622.12006 1639.5387 3356983
692.21588 623.21857 1642.4338 3225397
702.71295 623.40198 1642.9171 3488569
708.646 619.58954 1632.8699 3291190
718.8764 619.58954 1632.8699 3225397
734.71771 624.35767 1645.4358 3291190
758.79041 635.89197 1675.8334 3883329
756.36615 625.20911 1647.6797 3818306
774.56995 631.63544 1664.6157 3884099
790.10046 635.74005 1675.433 3949892
792.88306 629.61407 1659.2886 3291962
815.16083 638.92712 1683.8322 3489341
825.54663 638.80023 1683.4979 3686720
829.97113 634.12195 1671.1687 4081478
829.76971 626.07007 1649.9486 4081478
840.69214 626.50598 1651.0974 3621181
850.5545 626.15094 1650.1617 3949890
860.89325 626.15094 1650.1617 4147526
857.55872 616.32391 1624.2637 4410441
870.31207 618.15411 1629.087 4147269
868.28436 609.56519 1606.4517 4081476
866.68878 601.4729 1585.1251 3555132
873.71307 599.47827 1579.8687 2699567
880.11121 597.10358 1573.6104 3686975
889.97034 597.10358 1573.6104 3619899
911.36768 604.76007 1593.7882 3027762
923.05255 605.87549 1596.7278 3225397
933.05658 605.87549 1596.7278 3554362
944.44019 606.76178 1599.0636 3554362
958.50952 609.33691 1605.8501 3225397
967.79675 608.84998 1604.5669 3488569
979.34882 609.78333 1607.0265 3620155
995.34229 613.43488 1616.6499 3620155
1011.3469 617.01971 1626.0974 3291190
1021.6571 617.09357 1626.2919 3422776
1023.6541 612.19415 1613.38 3620155
1043.5955 618.01733 1628.7264 3093811
1055.0762 618.76581 1630.699 3159604
1063.1646 617.52948 1627.4408 3291190
1073.361 617.52948 1627.4408 3225397
1085.171 618.44904 1629.8643 3225397
1094.4503 617.92273 1628.4772 3422776
1103.3865 617.21417 1626.6097 2962225
1113.5778 617.21417 1626.6097 2041123
1121.0459 615.71851 1622.6682 3225397
1133.3199 616.86566 1625.6914 3751741
1141.8435 615.96924 1623.3289 3225397
1152.4575 616.20624 1623.9535 3291190
1144.9565 606.83801 1599.2644 3620155
1158.0635 608.45996 1603.5389 3751484
1176.8589 613.01715 1615.549 3555133
1181.0839 609.97168 1607.5229 3883840
1195.4962 612.19446 1613.3809 3752254
1202.1458 610.43811 1608.7522 3686974
1224.2543 616.49567 1624.7162 3818307
1228.7083 613.63629 1617.1807 4015685
1226.0432 607.29755 1600.4753 4410699
1231.9541 605.2749 1595.145 4147270
1251.9639 610.15613 1608.009 3817792
1274.9187 616.38336 1624.4203 3488827
1287.4774 617.52539 1627.4301 3620155
1294.2917 615.91608 1623.1887 3028018
1313.9805 620.41058 1635.0336 2764846
1324.7395 620.65179 1635.6694 2896432
1339.7159 622.85016 1641.4629 2830639
1354.1754 624.77649 1646.5396 2830639
1362.9266 624.06 1644.6512 2962225
1380.7399 627.47235 1653.6443 2962225
1392.9265 628.29602 1655.8149 3093811
1403.2885 628.29053 1655.8005 2962225
1407.7339 625.65558 1648.8563 3093811
1408.465 621.42029 1637.6946 3291190
1419.5753 621.79242 1638.6753 3225397
1429.7307 621.74402 1638.5477 3225397
1434.5386 619.38733 1632.3369 2633260
1442.0494 618.22284 1629.2681 2699053
1455.2417 619.49329 1632.6162 3028018
1470.2637 621.51953 1637.9561 3291190
1478.0792 620.49231 1635.249 3159604
1489.5188 620.99023 1636.5612 3028018
1499.7723 620.99023 1636.5612 2764846
1512.0739 621.8324 1638.7808 2896432
1517.7322 619.94971 1633.819 3159606
1534.7758 622.71161 1641.0978 3422778
1559.9624 628.71869 1656.929 3291192
1568.5355 627.99481 1655.0212 2699055
1562.2117 621.35529 1637.5233 2830641
1562.2366 617.31116 1626.8654 3356985
1575.7738 618.62408 1630.3254 3949122
1592.8229 621.28992 1637.3511 3817536
1605.9518 622.4024 1640.283 3751743
1614.6021 621.776 1638.6321 3817536
1619.4579 619.70551 1633.1755 3751743
1625.2163 618.00427 1628.692 3685950
1640.4484 619.90424 1633.6992 3620157
1648.4153 619.05219 1631.4537 3422778
1658.6338 619.05103 1631.4507 3488571
1668.2672 618.83295 1630.876 3356985
nan nan nan 16777215
nan nan nan 16777215
nan nan nan 16777215
nan nan nan 16777215
nan nan nan 16777215
nan nan nan 16777215
nan nan nan 16777215
nan nan nan 16777215
nan nan nan 16777215
nan nan nan 16777215
nan nan nan 16777215
nan nan nan 16777215
nan nan nan 16777215
nan nan nan 16777215
-1388.9823 603.27454 1564.1826 3356983
-1396.8568 611.00568 1584.2281 3422776
-1386.9313 611.00568 1584.2281 3357496
-1381.8152 613.13983 1589.7616 3291960
-1377.2189 615.53729 1595.9778 3094581
-1365.3582 614.69922 1593.8048 3028788
-1349.4392 612.0083 1586.8278 3291960
-1342.8489 613.53967 1590.7983 3357753
-1336.995 615.43286 1595.707 3094838
-1330.3274 616.97729 1599.7114 3160375
-1315.6172 614.78674 1594.0319 3226169
-1310.6279 617.1402 1600.1338 3226170
-1296.5961 615.23901 1595.2045 3291962
-1280.0062 612.08521 1587.0271 3226169
-1272.4623 613.24152 1590.0251 3291962
-1264.6012 614.26202 1592.6711 3423548
-1246.1097 610.09412 1581.8646 3423548
-1233.8198 608.91998 1578.8203 3884099
-1220.6266 607.27747 1574.5615 3620927
-1208.2334 606.00952 1571.2739 3028790
-1193.3993 603.48627 1564.7316 3357755
-1181.9359 602.63995 1562.5374 2962997
-1172.1461 602.63995 1562.5374 2897204
-1165.4838 604.26141 1566.7415 3028790
-1157.1287 605.02533 1568.7222 2897461
-1144.2953 603.44073 1564.6135 2699825
-1135.1294 603.77954 1565.4921 2765618
-1125.782 604.02673 1566.1331 2831411
-1115.9696 604.02673 1566.1331 3094584
-1106.9066 604.43591 1567.194 2962997
-1091.6829 601.45825 1559.4733 2962997
-1081.9124 601.45825 1559.4733 3225655
-1073.5145 602.22827 1561.47 3356984
-1064.5826 602.71021 1562.7195 3159604
-1059.6874 605.50769 1569.9728 3422776
-1049.1293 605.09131 1568.8932 3620155
-1041.1741 606.18262 1571.7228 3488569
-1031.0879 606.0423 1571.3589 3356983
-1017.194 603.63953 1565.129 3488569
-1004.8492 602.11829 1561.1847 3488569
-1009.4811 610.83978 1583.798 3028018
-991.30884 605.79852 1570.7269 3027762
-987.2309 609.35577 1579.9502 2962995
-979.78131 610.88293 1583.9098 2897202
-969.85767 610.88293 1583.9098 2831409
-961.3681 611.79547 1586.276 2897202
-955.88483 614.6604 1593.7041 3226167
-944.24902 613.58771 1590.9229 3094581
-934.28137 613.58771 1590.9229 2831409
-921.83447 611.94183 1586.6554 2831409
-915.20343 614.16296 1592.4144 2897202
-899.4953 610.2746 1582.3325 2831665
-888.6557 609.63947 1580.6858 2830382
-879.82458 610.38342 1582.6147 2304295
-881.97614 618.85052 1604.5684 2172709
-867.69775 615.85162 1596.7928 2304295
-868.88379 623.88666 1617.6262 2699053
-857.49023 622.97229 1615.2554 2764846
-844.35712 620.7572 1609.512 2370088
-830.29407 617.79657 1601.8357 1778208
-821.65283 618.84705 1604.5594 1844000
-816.25531 622.39691 1613.7635 2633516
-799.60333 617.34662 1600.6691 2962225
-789.76074 617.49219 1601.0464 3225141
-778.47107 616.49542 1598.462 3159604
-766.90796 615.2533 1595.2415 3356726
-756.47272 614.8952 1594.313 3225653
-745.89539 614.41046 1593.0562 2897202
-735.95264 614.44238 1593.1389 2897202
-726.26074 614.68756 1593.7745 2502444
-720.4375 618.2594 1603.0358 2173479
-708.88428 616.9455 1599.629 3489339
-689.28027 608.48682 1577.6973 3357753
-674.46808 604.07361 1566.2546 3094581
-669.41248 608.39752 1577.4656 3423546
-652.16943 601.6084 1559.8627 3489339
-640.4137 599.75153 1555.0482 3357753
-632.26117 601.26392 1558.9695 3686718
-622.25085 601.0293 1558.3611 3752511
-610.534 599.11267 1553.3916 3160374
-600.89789 599.20868 1553.6407 2897202
-595.70563 603.81232 1565.577 3357752
-584.32776 602.19525 1561.3843 3358009
-577.89197 605.70312 1570.4796 3028018
-569.44153 607.18427 1574.3198 2963252
-559.78668 607.41083 1574.9072 2502700
-551.72302 609.40289 1580.0725 2305065
-538.13251 605.25177 1569.3092 2502444
-528.30029 605.25177 1569.3092 2502700
