# .PCD v0.7 - Point Cloud Data file format
VERSION 0.7
FIELDS x y z rgb
SIZE 4 4 4 4
TYPE F F F U
COUNT 1 1 1 1
WIDTH 1277
HEIGHT 1
VIEWPOINT 0 0 0 1 0 0 0
POINTS 1277
DATA ascii
4828.6646 933.93805 7536.0361 3686720
4570.4873 875.44238 7064.0293 3489341
4623.3369 877.0722 7077.1802 3620927
4671.4688 877.78461 7082.9282 3686721
4784.6958 890.6001 7186.3379 3752770
5167.021 952.79822 7688.2207 3818306
5186.2915 947.51849 7645.6182 3818306
5241.8652 948.90729 7656.8242 3818563
5308.8164 952.31183 7684.2959 4015685
5393.1074 958.73755 7736.1455 4015685
5435.8408 957.72711 7727.9917 4015685
5375.6641 938.76282 7574.9673 3884099
5354.2935 926.84808 7478.8267 3884099
5405.2573 927.5528 7484.5127 3949892
5423.4985 922.67841 7445.1807 3949892
5440.6323 917.70038 7405.0127 3884100
5473.8008 915.48834 7387.1631 3818305
5516.7393 914.93365 7382.688 3621184
5443.9541 895.35541 7224.709 3686720
5379.8994 877.52405 7080.8262 3686720
5424.2632 877.52405 7080.8262 3818306
5381.6982 863.57513 6968.2705 4080708
5264.71 838.00433 6761.9375 4080708
5301.3218 837.09583 6754.6064 4146501
5336.2964 835.94513 6745.3218 4146501
5378.5576 835.94513 6745.3218 3949122
5312.1753 819.1911 6610.1318 3949122
5452.6992 834.35663 6732.5039 3949122
5365.7246 814.74524 6574.2578 3817536
5411.9121 815.49835 6580.3345 3949122
5489.1855 820.88879 6623.8306 3817536
5365.7939 796.41486 6426.3481 3948865
5406.2612 796.44495 6426.5908 3883071
5568.7495 814.31769 6570.8076 3882814
5609.9175 814.31769 6570.8076 3948607
nan nan nan 16777215
nan nan nan 16777215
nan nan nan 16777215
nan nan nan 16777215
nan nan nan 16777215
5742.8203 798.45294 6442.7935 3948607
5772.8984 797.03253 6431.332 3751228
5750.2192 788.39838 6361.6626 3882814
5745.4893 782.32709 6312.6729 3751742
5744.8994 776.8988 6268.8711 3817536
5787.1567 777.29919 6272.1021 3751743
5809.6309 775.05493 6253.9927 3751743
5854.0112 775.74359 6259.5498 3817536
5851.5371 770.25555 6215.2661 3751743
5893.4048 770.63831 6218.3545 3817536
5942.563 771.96307 6229.0444 3883329
6062.3169 782.38141 6313.1108 3949123
6023.1157 772.28351 6231.6299 3949122
6062.1587 772.28351 6231.6299 3949122
6113.4937 773.83942 6244.1846 3883586
6173.2388 776.43329 6265.1147 3949122
6189.9775 773.61951 6242.4102 3883586
6195.1606 769.40582 6208.4097 3949122
6238.2285 769.92053 6212.563 3883329
6239.3643 765.28571 6175.1641 3949122
6223.5605 758.64313 6121.564 3817536
6073.8779 735.86212 5937.7422 3751743
nan nan nan 16777215
nan nan nan 16777215
nan nan nan 16777215
nan nan nan 16777215
nan nan nan 16777215
-4760.8457 656.17657 5041.2383 3356475
-4859.5815 674.25836 5180.1562 3093559
-4860.9204 678.97876 5216.4219 3093302
-4899.7129 689.03003 5293.6431 3027766
-4961.082 702.41479 5396.4751 3093556
-5017.7031 715.30646 5495.5186 3159605
-4987.1182 715.85852 5499.7598 2830641
-4985.7646 720.64343 5536.521 2369834
-5094.3262 741.49384 5696.7095 2238504
-5148.0737 754.60376 5797.4297 3357241
-5205.3276 768.41766 5903.5586 4212294
-5117.4927 760.85779 5845.478 3949379
-5145.2896 770.50482 5919.5933 3752513
-5136.2744 774.7392 5952.1255 3818563
-5110.5791 776.50122 5965.6621 3752769
-5080.2563 777.58087 5973.957 3884099
-5077.0093 782.85156 6014.4502 3949892
-5049.7061 784.46387 6026.8374 3949892
-5021.2461 785.91949 6038.0205 3884099
-4942.5688 779.4776 5988.5293 3818306
-4862.9282 772.78406 5937.1045 3291963
-4918.8413 787.6947 6051.6592 3291962
-4883.7852 788.15619 6055.2046 3225912
-4888.7739 795.13806 6108.8442 3159604
-4881.1118 800.15619 6147.3975 3093811
-4837.6465 799.33826 6141.1133 3028018
-4809.731 801.09717 6154.627 3356983
-4845.6719 813.60626 6250.731 3554362
-4902.4038 829.83856 6375.4395 3751741
-4892.0815 834.89386 6414.2778 3685948
-4875.0435 838.87732 6444.8823 3620155
-4865.3271 844.19769 6485.7573 3620155
-4843.5454 847.49652 6511.1016 3620155
-4816.5273 849.92743 6529.7778 3620155
-4783.3267 851.29968 6540.3203 3554362
-4776.8242 857.48834 6587.8657 3620155
-4724.6533 855.51538 6572.708 3751484
-4661.937 851.58142 6542.4844 3555388
-4552.2593 838.92322 6445.2349 3489339
-4472.8218 831.66132 6389.4434 3489339
-4271.3589 801.37433 6156.7559 3292220
-4158.5693 787.32336 6048.8062 3291962
-4070.4192 777.7218 5975.0396 3292219
-3946.7319 761.08899 5847.2539 3226425
-3851.8865 749.75842 5760.2041 3291962
-3752.8188 737.38403 5665.1348 3291961
-3663.7817 726.76294 5583.5356 3094582
-3568.5063 714.68774 5490.7651 3094583
-3445.4106 696.7514 5352.9648 3160376
-3336.5195 681.36328 5234.7417 3226682
-3201.6311 660.30786 5072.978 3489597
-3043.3235 633.95178 4870.4912 3621694
-2916.8447 613.75922 4715.3569 3687486
-2855.8652 607.07678 4664.0171 3621694
-2674.2087 574.33838 4412.4966 4477004
-2397.9531 520.38678 3998 5266777
-2510.6536 550.5957 4230.0874 5398106
-2499.5544 554.00983 4256.3174 5398106
-2490.4187 557.93744 4286.4922 5332313
-2488.8718 563.66937 4330.5293 5463899
-2412.4822 552.39081 4243.8789 3687745
nan nan nan 16777215
-3183.1804 745.28754 5725.8555 3490108
-3119.0864 738.60504 5674.5156 3621694
-3142.6431 752.76367 5783.2925 3753024
-3123.4258 756.88721 5814.9727 3884610
-3132.3252 768.00195 5900.3647 3884867
-3141.4111 779.42847 5988.1519 3884610
-3152.6167 791.66357 6082.1509 3819074
-3174.0955 806.80933 6198.5117 3818047
-3179.75 818.25818 6286.4702 3818304
-3178.2083 828.11908 6362.2295 3884097
-3194.4014 842.91022 6475.8657 3818047
-3228.582 862.8894 6629.3608 3818304
-3240.655 877.40369 6740.8706 3949890
-3232.7498 886.8208 6813.2197 3818561
-3249.2263 903.26794 6939.5786 3818817
-3238.9741 912.62988 7011.5049 3950403
-3204.8701 915.4364 7033.0664 4081989
-3165.0195 916.65686 7042.4424 4081989
-3149.3232 925.00623 7106.5889 4147782
-3099.833 923.52704 7095.2241 4279368
-3050.6152 922.08704 7084.1611 4213575
-2992.1401 917.76501 7050.9565 4213575
-2943.6838 916.43268 7040.7202 4213575
-2885.405 911.9552 7006.3208 4147782
-2830.6428 908.46802 6979.5298 4213575
-2789.5217 909.31812 6986.061 4147782
-2738.8589 907.03528 6968.5225 4345161
-2620.2722 881.81976 6774.7979 4345161
-2560.1785 875.78284 6728.418 4147782
-2520.0591 876.49109 6733.8589 3884610
-2526.3906 893.65436 6865.7202 3950403
-2485.4087 894.38623 6871.3433 3950405
-2416.5608 884.93951 6798.7666 4016196
-2400.3103 894.76044 6874.2183 4016452
-2380.6843 903.659 6942.5835 4081990
-2358.0029 911.70734 7004.417 4081734
-2334.1104 919.5838 7064.9302 4015941
-2294.3279 921.38367 7078.7573 3884356
-2227.481 912.17126 7007.981 3753027
-2141.5076 894.59839 6872.9731 3752770
-2105.4861 897.59961 6896.0303 3818563
-2089.0728 909.26086 6985.6206 3950149
-2036.0547 905.14832 6954.0249 4081735
-1930.5433 877.00909 6737.8389 4213321
-1868.6013 867.84698 6667.4482 4279114
-1771.2296 841.43469 6464.5298 4410700
-1703.7538 828.32086 6363.7798 4279114
-1653.5892 823.19653 6324.4106 4147528
-1582.4283 807.11145 6200.833 3884613
-1520.9882 795.29944 6110.0845 3752770
-1449.6174 777.55096 5973.7275 3686977
-1388.8466 764.69806 5874.9814 3686977
-1309.4581 740.6153 5689.96 3489598
-1285.2815 747.28577 5741.2075 3358012
-1319.5367 789.29187 6063.9297 3292221
-1297.6066 799.18445 6139.9321 3555393
-1193.2192 757.34528 5818.4922 2042155
-1187.761 777.63898 5974.4033 1581605
-1212.9017 819.9386 6299.3809 1252383
-1169.344 817.08069 6277.4238 2042155
-1091.8203 789.46387 6065.251 3884359
-1038.0515 777.65131 5974.498 4015688
-990.68787 769.9328 5915.1987 3818308
-958.53021 773.8913 5945.6108 3818821
-911.52991 765.70178 5882.6929 3950150
-872.56415 763.85565 5868.5098 4015944
-822.65869 751.849 5776.2656 3621186
-777.10522 742.89777 5707.4956 3423550
-728.75842 730.28387 5610.5864 3292221
-686.87646 723.19806 5556.1479 3357245
-642.43274 712.51459 5474.0693 2370606
-615.09692 720.67023 5536.7271 2304813
-579.88123 720.01666 5531.7056 1844262
-568.63055 750.92786 5769.189 1712675
-532.4848 750.92786 5769.189 3291708
-493.82709 747.1275 5739.9917 3752514
-471.30356 769.05731 5908.4727 3686720
-440.86957 780.71735 5998.0537 3884099
-410.38889 794.46014 6103.6362 3949891
-372.34064 794.87189 6106.7998 3752511
-338.65735 805.76361 6190.478 3818304
-307.44501 826.11224 6346.8115 3818304
-273.16061 843.02576 6476.7534 3752513
-236.45102 857.05042 6584.5015 3950149
-200.33789 879.62213 6757.9146 3950149
-161.28424 897.92072 6898.498 3950149
-119.85075 911.51727 7002.9565 3884356
-76.323837 915.70178 7035.105 3950149
-32.857151 933.03583 7168.2783 3949892
11.962648 925.9389 7113.7544 3950149
56.629185 927.52203 7125.917 3950149
101.22919 927.1001 7122.6753 3950149
146.24498 929.57922 7141.7217 4015685
193.02621 939.48938 7217.8589 3950149
235.94781 930.41766 7148.1631 3884356
276.83859 917.50977 7048.9951 3950149
320.17889 915.15491 7030.9038 3818306
366.54034 920.96063 7075.5078 3884356
412.0137 923.52295 7095.1934 4081735
454.18597 918.90747 7059.7334 4081476
495.54147 913.60522 7018.9976 3884097
536.54028 908.56335 6980.2622 3686718
574.09869 898.89471 6905.9805 3818304
615.90027 896.75952 6889.5762 3884097
655.88837 892.43634 6856.3628 3884353
691.16455 882.6275 6781.0034 4015426
729.5907 877.74432 6743.4878 4081732
765.92126 871.0127 6691.77 4015427
795.23688 857.41626 6587.312 4015683
818.07819 838.52533 6442.1782 3949890
844.73169 825.13464 6339.3008 4015683
869.83112 811.49677 6234.5244 3949890
890.27759 794.87671 6106.8364 4015683
914.93713 783.23303 6017.3809 3949892
947.36371 778.89673 5984.0664 4081224
971.95312 768.69238 5905.6689 4147018
997.27075 759.79126 5837.2842 3752007
996.8324 732.59137 5628.314 1580842
1008.4237 715.78888 5499.2246 396312
1042.8781 715.78888 5499.2246 988453
1082.9698 719.53442 5528.001 1119786
1091.4 702.66351 5398.3857 988202
1117.7207 697.97882 5362.3945 922409
1143.0255 692.95172 5323.7725 922409
1174.0411 691.57367 5313.1855 790823
1207.6384 691.75037 5314.543 593445
1236.3762 689.20868 5295.0161 659237
1250.0022 678.59607 5213.4819 396064
1279.5293 676.93646 5200.7314 461856
1309.4216 675.54773 5190.062 527649
1341.6466 675.40051 5188.9312 462363
1383.4539 679.97003 5224.0376 1055011
1389.3578 667.08954 5125.0801 3226179
1466.8751 688.39899 5288.7949 3686982
1612.6433 740.08917 5685.918 3686980
1750.4337 785.96289 6038.354 3686979
1790.7382 787.04956 6046.7026 3686978
1857.8683 799.63696 6143.4087 3555648
1936.8971 816.7309 6274.7368 3555391
2006.3583 829.19043 6370.4604 3555391
2088.856 846.44672 6503.0356 3621439
2163.6782 859.99188 6607.1001 3753024
2234.8491 871.60449 6696.3164 3621694
2278.7261 872.34045 6701.9707 3752511
2368.2151 890.19501 6839.1426 3753024
2450.6392 904.8064 6951.3984 3884866
2494.1917 904.8064 6951.3984 3818817
2515.8074 896.98492 6891.3086 3818817
2605.635 913.33746 7016.9404 3753280
2676.1384 922.48608 7087.2271 3818817
2716.9585 921.27087 7077.8911 4081989
2742.1448 914.87885 7028.7822 4147782
2786.1821 914.87885 7028.7822 3950403
2874.7971 929.28857 7139.4888 3818817
2948.772 938.59686 7211.0024 3819074
2988.9971 937.04382 7199.0703 3884610
3030.646 935.97662 7190.8716 3884610
3041.3733 925.53088 7110.6196 4016196
3075.9275 922.53284 7087.5864 3884867
3116.3435 921.35315 7078.5234 4015682
3138.6392 914.9245 7029.1338 3884097
3152.4207 906.2262 6962.3062 3752510
3182.7146 902.44733 6933.2744 3620925
3216.6062 899.77667 6912.7563 3686462
3240.6663 894.46326 6871.9351 3686718
3258.3694 887.55762 6818.8809 3752512
3243.3083 872.02155 6699.5205 3686719
3240.6243 860.16766 6608.4507 3818305
3188.1328 835.5592 6419.3896 3620926
3141.6179 813.11066 6246.9233 3621182
3090.2029 789.96198 6069.0776 3752512
3102.7847 783.53693 6019.7158 3752769
3113.4062 776.77722 5967.7827 3686976
3113.0234 767.4649 5896.2388 3818306
3143.5872 765.91095 5884.3003 3884099
3055.541 735.82965 5653.1929 3950149
3005.0432 715.3764 5496.0557 4080709
2986.0823 702.8092 5399.5049 3817791
3004.3296 699.18274 5371.644 3750714
2701.8752 621.82825 4777.3491 3223857
2647.8679 602.72162 4630.5576 2566183
2731.2383 614.96088 4724.5889 2829099
2823.7229 628.96783 4832.2007 3158064
2773.6267 611.25549 4696.1211 3684408
2975.4565 648.85199 4984.9658 3948350
3160.3782 682.01855 5239.7759 3685691
3354.9858 716.57196 5505.2412 3685947
3500.5591 740.05579 5685.6611 3685948
3602.3999 753.914 5792.1304 3620925
3823.1008 792.12292 6085.6797 3621181
4010.9919 822.84637 6321.7202 3620926
4297.3125 872.96405 6706.7617 3489340
4252.1064 855.41644 6571.9482 3555132
4297.7422 856.30518 6578.7759 3686718
4455.7363 879.35114 6755.8325 3555132
4501.9712 880.11505 6761.7012 3555132
4759.9351 921.87091 7082.501 3620927
4782.3071 917.64905 7050.0654 3423548
4824.0664 917.19061 7046.543 3489341
4868.3257 917.21143 7046.7031 3555134
4933.0435 921.0517 7076.207 3555134
4961.1772 918.05371 7053.1743 3620927
4984.688 914.2608 7024.0342 3620927
4973.9619 904.30975 6947.583 3358012
5023.7007 905.42896 6956.1816 3291961
5042.8931 901.0708 6922.6992 3226423
5048.9497 894.46002 6871.9102 3357753
5038.5718 885.0741 6799.8003 3555132
5067.5264 882.69672 6781.5356 3752511
4965.5234 857.73755 6589.7803 3620925
4957.5977 849.3067 6525.0083 3620925
4964.7671 843.57861 6481.001 3752513
4814.7559 811.45306 6234.1885 3949379
4769.9731 797.43652 6126.5029 3949122
4585.873 760.53882 5843.0273 4080708
4481.897 737.40845 5665.3223 3949122
4559.0557 744.20953 5717.5732 3949122
4589.2646 743.30023 5710.5879 3949121
4606.6514 740.34454 5687.8799 3883329
4343.9175 692.76086 5322.3066 3817792
nan nan nan 16777215
4580.8511 719.50024 5527.7383 3949121
4699.0415 732.52594 5627.8115 3949120
4714.958 729.5329 5604.8169 3948607
nan nan nan 16777215
nan nan nan 16777215
nan nan nan 16777215
nan nan nan 16777215
nan nan nan 16777215
nan nan nan 16777215
nan nan nan 16777215
nan nan nan 16777215
5214.606 756.15698 5809.3628 3817021
5178.312 745.68927 5728.9419 3817021
5228.0547 747.6698 5744.1582 3751228
5245.0879 744.97748 5723.4736 3948607
5271.7817 743.68457 5713.54 3751741
5404.2891 757.23529 5817.647 3817533
5445.5728 757.9082 5822.8169 3751741
5507.2583 761.3927 5849.5874 3817533
5547.1113 761.83264 5852.9673 4014913
5638.8174 769.34149 5910.6558 3949376
5711.1104 774.12097 5947.3755 4015169
5743.5229 773.46783 5942.3579 4014912
5775.1504 772.7182 5936.5981 4014914
5821.5127 773.93695 5945.9619 4014916
5889.9575 778.05731 5977.6172 3949122
5945.1938 780.39178 5995.5527 3883329
5966.9277 778.32697 5979.689 3949122
5991.9976 776.72028 5967.3452 3883329
6017.2983 775.16321 5955.3828 3883586
6023.5664 771.18866 5924.8472 3883329
6023.7832 766.49286 5888.7705 3685950
nan nan nan 16777215
nan nan nan 16777215
nan nan nan 16777215
nan nan nan 16777215
nan nan nan 16777215
-4506.8101 650.90479 4772.2412 3619903
-4575.5938 665.25244 4877.4341 3356731
-4670.3096 683.58875 5011.8706 3290938
-4660.2505 686.7337 5034.9282 3356731
-4711.1909 698.97168 5124.6533 3422525
-4774.6113 713.24188 5229.2783 3356731
-4805.4932 722.81494 5299.4653 2962229
-4905.2163 742.948 5447.0747 2435628
-4972.8105 758.46283 5560.8247 2238506
-4936.6191 758.25525 5559.3032 2370090
-5067.8091 783.93689 5747.5933 2633262
-5051.0522 786.93665 5769.5864 3619900
-5051.356 792.65656 5811.5234 4080708
-4955.873 783.3197 5743.0684 4014659
-4902.8442 780.60565 5723.1694 3883842
-4866.9863 780.60565 5723.1694 3883842
-4944.2681 798.88647 5857.1992 3949892
-4927.4136 802.11652 5880.8809 3884100
-4875.3066 799.61346 5862.5293 3818562
-4805.6802 794.17725 5822.6724 3752256
-4809.5356 800.89404 5871.918 3423547
-4706.3711 789.75592 5790.2568 3619899
-4675.8843 790.73529 5797.437 3620154
-4658.0127 793.88 5820.4932 3620155
-4681.4355 804.16766 5895.9194 3488569
-4624.708 800.74158 5870.8003 3422776
-4563.9639 796.55951 5840.1387 3488569
-4631.2676 814.83887 5974.1577 3488569
-4704.9155 834.5415 6118.6113 3356983
-4672.3877 835.57996 6126.2251 3422776
-4650.1978 838.49982 6147.6323 3488569
-4617.4355 839.54614 6155.3037 3488569
-4578.8706 839.54614 6155.3037 3488569
-4540.1216 839.51208 6155.0542 3422776
-4508.5625 840.81836 6164.6313 3488570
-4509.2896 848.22021 6218.8999 3358011
-4472.6035 848.65247 6222.0688 3555134
-4413.2373 844.75085 6193.4634 3686720
-4367.5122 843.41425 6183.6641 3620927
-4279.2676 833.76929 6112.9502 3555134
-4132.5122 812.44714 5956.6221 3357755
-3964.8672 786.59186 5767.0586 3620927
-3871.2732 775.08722 5682.71 3555135
-3787.6975 765.39337 5611.6377 3555135
-3694.7791 753.6123 5525.2622 3555134
-3612.1094 743.71857 5452.7241 3620928
-3544.9583 736.86151 5402.4507 3423549
-3484.0986 731.19275 5360.8887 3423548
-3390.4839 718.47253 5267.6279 3357755
-3262.6787 698.18567 5118.8906 3226427
-3126.9976 675.79401 4954.7217 3292474
-2982.3435 650.99463 4772.8999 3424316
-2881.0952 635.26355 4657.5645 3489852
-2722.0708 606.341 4445.5127 3687488
-2660.916 598.84619 4390.563 4805712
-2568.7588 584.14478 4282.7769 5332313
-2528.6997 581.10541 4260.4927 5398362
-2483.3562 576.7738 4228.7349 5463899
-2510.509 589.36798 4321.0718 5398362
-2503.7151 594.18054 4356.356 5398362
-2498.7236 599.53168 4395.5889 4082246
nan nan nan 16777215
-2757.8953 676.6311 4960.8594 3687488
-2888.3826 716.72272 5254.7988 3687231
-2986.2881 749.56073 5495.5576 3687231
-2984.8835 757.94727 5557.0449 3819074
-2960.5854 760.64966 5576.8584 3884610
-2977.157 774.0426 5675.0513 3884867
-3007.5315 791.39136 5802.2471 3884867
-3002.6829 799.78259 5863.7695 3752767
-2985.7385 805.12024 5902.9033 3752767
-2990.5645 816.53577 5986.5986 3818561
-2983.7859 825.03259 6048.895 3752767
-2971.8313 832.2984 6102.1655 3818560
-2941.3267 834.49078 6118.2393 3949890
-2971.2014 854.09753 6261.9907 3884354
-2944.533 857.75769 6288.8257 3818817
-2930.9878 865.39197 6344.7979 4016196
-2887.0876 864.15039 6335.6948 4016453
-2847.7483 864.25842 6336.4868 4081989
-2817.1729 867.06665 6357.0767 4147782
-2796.8889 873.16852 6401.8135 4147782
-2758.0776 873.57977 6404.8281 4147782
-2726.2864 876.25934 6424.4741 4147782
-2692.4348 878.34711 6439.7808 4147782
-2647.8076 876.92957 6429.3882 4081989
-2603.2185 875.48114 6418.7686 4279368
-2557.4688 873.59076 6404.9092 4213575
-2517.8992 873.78473 6406.3315 4213575
-2381.3757 839.79437 6157.1235 4279368
-2342.7996 839.79437 6157.1235 4081989
-2336.4243 851.53027 6243.168 4016196
-2324.5496 861.62744 6317.1973 4081989
-2253.4592 849.745 6230.0786 4015941
-2239.6062 859.40747 6300.9214 3818563
-2219.6514 867.03326 6356.8315 3884357
-2179.824 867.03326 6356.8315 3950149
-2155.8276 873.44745 6403.8579 3950149
-2130.9253 879.73083 6449.9263 3950149
-2141.9426 901.3728 6608.5981 3884356
-2074.1487 890.04895 6525.5752 3818563
-1977.9982 865.85657 6348.2041 3686977
-1936.4192 865.05011 6342.291 3686977
-1858.912 847.8233 6215.9897 3752770
-1818.4393 847.11169 6210.7725 3752770
-1746.0946 831.1969 6094.0894 3884356
-1721.4097 837.7652 6142.2466 4081735
-1658.0664 825.38971 6051.5132 3884356
-1601.6636 815.97089 5982.457 3884356
-1563.9808 815.86615 5981.6895 3884356
-1476.6891 789.24194 5786.4883 3752770
-1422.9644 779.66943 5716.3057 3686977
-1364.3123 766.83307 5622.1934 3818563
-1307.2415 754.22882 5529.7827 3620927
-1249.0796 740.29156 5427.5986 3489340
-1235.2307 752.57214 5517.6362 3423291
-1282.0701 803.59918 5891.7515 2304813
-1214.7637 783.98431 5747.9409 1909285
-1198.5184 797.13153 5844.3325 1448734
-1156.7645 793.60706 5818.4922 1383197
-1163.8235 824.43127 6044.4863 1185562
-1129.2994 826.88171 6062.4517 1581090
-1080.3763 818.59265 6001.6787 2831157
-995.30023 781.32495 5728.4434 3160122
-944.06488 768.82843 5636.8223 2962744
-894.54877 756.81506 5548.7441 2896950
-856.4201 753.85388 5527.0337 2765363
-821.31891 753.42035 5523.855 2567729
-769.52625 736.9635 5403.1982 2370606
-721.98889 723.25482 5302.6904 2436399
-689.48877 724.01392 5308.2559 2370606
-652.72485 720.14575 5279.8955 2567986
-607.39209 705.90588 5175.4932 2436141
-577.92834 709.54285 5202.1582 2699314
-565.14093 735.31238 5391.0928 1975847
-558.82159 773.30859 5669.6699 1318174
-512.37897 757.17096 5551.3535 2962996
-477.77411 757.45007 5553.3999 3357754
-444.2616 759.64093 5569.4624 3489341
-418.25354 776.13092 5690.3623 3686720
-385.0448 781.08691 5726.6982 3884356
-349.16525 781.08691 5726.6982 3752513
-324.57718 809.23889 5933.1001 3620927
-295.88248 833.11029 6108.1177 3686720
-258.20099 835.01105 6122.0542 3949892
-221.79396 842.41577 6176.3433 3950149
-191.32715 880.28088 6453.959 3752770
-151.45641 883.57886 6478.1387 3818563
-111.68408 890.07581 6525.7725 3884356
-68.87014 865.83759 6348.0649 4015942
-29.097548 865.83759 6348.0649 4015942
10.877861 882.28748 6468.6704 3752770
51.8125 889.26282 6519.8115 3818820
92.577614 888.46118 6513.9346 3884356
133.90369 891.88647 6539.0474 3949892
174.45499 889.75525 6523.4224 3818563
212.39685 877.65063 6434.6748 3752770
254.63309 884.32214 6483.5884 3818563
297.84821 892.08978 6540.5381 3752513
341.99527 900.43219 6601.7026 3752770
396.50763 931.32056 6828.1665 3621441
438.59134 929.84314 6817.335 3818562
481.30405 929.84314 6817.335 3818305
512.77893 909.9021 6671.1328 3752769
553.36273 907.91205 6656.5425 3687230
585.80847 893.78455 6552.9639 3686975
615.53027 877.62366 6434.4771 3555645
650.54706 870.53516 6382.5063 3884354
680.0592 857.32806 6285.6758 3753025
713.67255 850.45428 6235.2788 3621182
754.20532 852.11145 6247.4287 3752768
774.44659 831.81067 6098.5894 3687231
807.72241 826.76056 6061.564 3752768
838.09631 819.32715 6007.0645 3818561
858.7807 803.46722 5890.7842 3818304
886.22687 794.97998 5828.5581 3752513
913.66724 787.15955 5771.2207 3752259
949.0249 786.49597 5766.3555 3686466
966.81085 771.85254 5658.9946 3752008
968.27899 745.67871 5467.0957 1515304
995.87408 740.72656 5430.7881 330519
1029.8997 740.72656 5430.7881 1054246
1067.13 742.95782 5447.147 1119786
1086.876 733.25494 5376.0083 988203
1114.1171 729.03998 5345.1055 922410
1142.3206 725.68243 5320.4888 987689
1172.4629 723.7121 5306.043 987174
1201.4976 721.18549 5287.5186 855844
1219.3009 712.23389 5221.8882 855844
1239.8754 705.32648 5171.2451 658463
1275.1923 706.94391 5183.1035 527134
1297.4374 701.41412 5142.5605 658459
1333.8783 703.64087 5158.8867 396568
1387.4608 714.59076 5239.168 593945
1401.4603 705.11902 5169.7241 2436147
1439.541 707.9176 5190.2422 3686469
1562.0879 751.21246 5507.6675 3818052
1653.4097 777.94427 5703.6572 3686979
1691.1073 778.84802 5710.2832 3818562
1764.9414 796.01251 5836.1279 3818817
1832.1245 809.54126 5935.3169 3884610
1901.2524 823.37408 6036.7354 3818561
1970.7634 836.83002 6135.3896 3818305
2039.6116 849.49493 6228.2451 3752512
2088.4858 853.5213 6257.7656 3686719
2149.5999 862.30933 6322.1968 3686718
2232.4758 879.35126 6447.1431 3686719
2316.6541 896.29114 6571.3413 3687231
2375.5623 903.03345 6620.7739 3752767
2427.5493 906.95856 6649.5518 3424060
2484.311 912.50494 6690.2163 3489595
2510.2588 906.737 6647.9272 3686974
2526.9939 897.88385 6583.0186 3621181
2567.9009 897.76581 6582.1533 3621182
2611.5654 898.60034 6588.2715 3753024
2642.6707 895.15454 6563.0083 3752767
2711.3008 904.33063 6630.2842 3686974
2772.3369 910.73492 6677.2393 3687231
2810.2102 909.45276 6667.8389 4016196
2851.5242 909.30554 6666.7588 4081989
2860.8601 899.11237 6592.0259 4016196
2908.7256 901.146 6606.936 3950659
2916.3179 890.82074 6531.2344 3950660
2920.2332 879.67358 6449.5063 3950660
2931.3367 870.96667 6385.6694 4016196
2960.8669 867.89514 6363.1509 3884610
2990.0112 864.79388 6340.4131 3818817
2987.9536 852.8678 6252.9741 3687233
3011.269 848.39893 6220.21 3555390
3027.6521 842.11615 6174.1465 3489341
3041.6482 835.3363 6124.439 3489340
3029.7766 821.7099 6024.5337 3686718
3006.5605 805.37982 5904.8066 3752512
3006.4622 795.56409 5832.8403 3818305
3015.5796 788.39362 5780.2686 3686719
3013.386 778.47113 5707.52 3620925
3018.2749 770.58966 5649.7354 3686719
2955.928 745.92401 5468.894 3818305
2997.8101 747.82434 5482.8267 4080706
2882.9473 711.02344 5213.0137 4015170
2857.7573 696.91541 5109.5776 3816508
2610.5896 629.58643 4615.9414 2894892
2593.7964 618.68268 4535.998 2696744
2675.8 631.32526 4628.6899 2894379
2785.1689 650.08405 4766.2241 3026221
2773.6267 640.5224 4696.1211 3487286
2741.4739 626.4519 4592.96 3816764
2999.2502 678.237 4972.6328 3686205
3116.4026 697.48401 5113.7466 3489596
3238.7068 717.48077 5260.3564 3489598
3368.0771 738.62421 5415.374 3620928
3496.7314 759.19037 5566.1592 3555135
3623.0439 778.84705 5710.2759 3489341
3852.0889 819.98767 6011.9067 3291962
3829.5906 807.30457 5918.918 3423548
3866.6746 807.30457 5918.918 3489341
3950.166 816.90167 5989.2817 3620927
4020.8398 823.6925 6039.0698 3620927
4249.3882 862.39673 6322.8374 3555134
4292.1147 863.02252 6327.4253 3620927
4324.1353 861.50378 6316.291 3621183
4378.7339 864.47009 6338.0391 3620927
4424.4038 865.63623 6346.5884 3555134
4476.6191 868.05066 6364.291 3555134
4527.645 870.19403 6380.0054 3555134
4529.8052 862.99023 6327.189 3488825
4526.7305 854.92273 6268.0405 3620155
4529.6528 848.11694 6218.1421 3817276
4534.5498 841.7937 6171.7822 3948863
4508.1401 829.81482 6083.9565 3817277
4495.9023 820.62354 6016.5688 3751740
4497.4756 814.08508 5968.6309 3751484
4501.5767 808.10822 5924.8101 3751484
4537.2295 807.8468 5922.8936 3817533
4466.3545 788.77643 5783.0752 3883326
4388.3081 768.75665 5636.2964 3883327
4351.1191 756.15698 5543.9189 3817534
4406.4492 759.70782 5569.9531 3817534
4469.481 764.52026 5605.2363 3751740
4296.4585 729.19464 5346.2393 3751741
4029.6062 678.61383 4975.396 3751741
4042.2383 675.5155 4952.6797 3751740
4206.2847 697.57507 5114.4141 3751741
4241.1479 698.03918 5117.8169 3751741
4315.1953 704.89716 5168.0972 3883070
4326.1108 701.41705 5142.5825 3948607
nan nan nan 16777215
nan nan nan 16777215
nan nan nan 16777215
nan nan nan 16777215
nan nan nan 16777215
nan nan nan 16777215
nan nan nan 16777215
nan nan nan 16777215
4291.3022 652.06549 4780.751 3750714
4698.9175 709.05371 5198.5718 3619899
4712.9023 706.26843 5178.1509 3751228
4758.1538 708.17474 5192.1279 3816765
4943.9341 730.82867 5358.2197 3883327
5019.5791 737.00629 5403.5122 3949120
4787.458 698.21564 5119.1104 3949120
5112.2031 740.61572 5429.9751 3883327
5212.3975 750.1391 5499.7979 4014913
5325.8188 761.42847 5582.5679 4080706
5360.6934 761.414 5582.4619 4014913
5385.1748 759.93298 5571.604 4014913
5421.2031 760.09015 5572.7559 3883329
5508.3335 767.36426 5626.0874 3883329
5558.1963 769.38708 5640.9185 3883329
5617.6577 772.70477 5665.2427 3751743
5663.7676 774.1557 5675.8804 3817536
5698.7188 774.07275 5675.2725 3817536
5733.8066 774.0094 5674.8081 3751743
5744.3169 770.6496 5650.1748 3817536
5772.4292 769.6778 5643.0498 3883329
nan nan nan 16777215
nan nan nan 16777215
nan nan nan 16777215
nan nan nan 16777215
nan nan nan 16777215
-4342.0273 655.75964 4597.7534 2501422
-4385.499 666.74841 4674.7993 2369836
-4431.4341 678.26196 4755.5249 2567215
-4490.7603 691.99493 4851.8115 2698801
-4558.6172 707.23853 4958.6895 2830387
-4557.7188 711.95117 4991.7314 2896436
-4604.5127 724.23035 5077.8252 3159350
-4660.2524 738.09735 5175.0508 3159606
-4726.2549 753.79535 5285.1152 3028020
-4779.2212 767.62109 5382.0518 2962227
-4834.395 782.00037 5482.8701 2830641
-4828.1787 786.58405 5515.0078 2896434
-4642.5049 761.78674 5341.1455 3356985
-4612.623 762.37885 5345.2969 3159606
-4582.7305 762.97778 5349.4961 3028020
-4525.1255 758.93762 5321.1694 3291192
-4504.5381 761.09216 5336.2754 3817280
-4624.4561 787.19629 5519.3003 3883328
-4615.9209 791.66321 5550.6196 3883329
-4590.1484 793.21918 5561.5288 3818050
-4571.4419 796.02936 5581.2319 3884099
-4538.8291 796.44269 5584.1299 3818306
-4535.1309 801.97559 5622.9229 3686719
-4535.9053 808.39203 5667.9111 3620925
-4481.436 804.98682 5644.0356 3620155
-4454.7671 806.56061 5655.0703 3488570
-4442.5312 810.79388 5684.751 3554362
-4410.3296 811.42218 5689.1562 3685692
-4414.1689 818.74573 5740.5039 3751485
-4387.5127 820.48663 5752.7104 3883071
-4365.7041 823.17047 5771.5278 3817535
-4339.2295 825.01196 5784.439 3751742
-4310.082 826.37201 5793.9751 3685949
-4254.606 822.66449 5767.98 3686205
-4221.8945 823.3327 5772.665 3949634
-4196.2007 825.39288 5787.1099 3884355
-4123.875 818.23651 5736.9341 3949891
-4087.9312 818.23651 5736.9341 3818306
-4000.5625 807.85205 5664.125 3884098
-3916.5815 797.97192 5594.8521 3884354
-3804.4495 782.12592 5483.7505 3818304
-3736.4802 775.15302 5434.8608 3752511
-3676.0576 769.63177 5396.1494 3686718
-3614.6245 763.79449 5355.2227 3620925
-3581.0728 763.79449 5355.2227 3620925
-3498.6768 753.27826 5281.4897 3555132
-3428.9546 745.31598 5225.6631 3489339
-3366.853 738.87256 5180.4863 3555388
-3278.0862 726.3949 5093.001 3818560
-3141.0435 702.8692 4928.0547 3950404
-2997.1736 677.33356 4749.0156 4015940
-2848.3914 650.16461 4558.5249 3884868
-2810.1606 647.935 4542.8921 3753282
-2722.0708 634.04614 4445.5127 4016453
-2660.916 626.20886 4390.563 4872276
-2527.2688 600.96967 4213.6025 5135961
-2500.8694 600.96967 4213.6025 5333082
-2470.292 599.95502 4206.4883 5201497
-2470.6902 606.52258 4252.5356 5267032
-2469.5325 612.84723 4296.8799 5332568
-2454.4646 615.82123 4317.7314 4213830
-2518.6387 638.96472 4479.9985 3424572
-2724.0371 698.86151 4899.9556 3490109
-2739.6501 710.87872 4984.2119 3555645
-2799.5222 734.78961 5151.8594 3424059
-2793.0415 741.63965 5199.8872 3752511
-2762.1829 742.10181 5203.1274 3686718
-2786.7683 757.6488 5312.1328 3226167
-2802.8025 771.21869 5407.2759 3094581
-2820.1069 785.47443 5507.2275 3226167
-2809.1543 792.11542 5553.79 3423546
-2797.0295 798.58838 5599.1743 3357753
-2782.2373 804.45459 5640.3042 3423546
-2754.9326 806.80731 5656.7998 3423546
-2731.0049 810.22314 5680.7495 3686718
-2751.1831 826.98718 5798.2881 3884353
-2744.4045 835.98846 5861.3989 3950660
-2736.1816 844.78796 5923.0952 3884610
-2694.3687 843.31592 5912.7744 4016196
-2657.2888 843.30499 5912.6978 4082246
-2622.1577 843.92102 5917.0166 4213575
-2593.0872 846.53308 5935.3306 4213575
-2555.9004 846.53308 5935.3306 4147782
-2525.0898 848.67609 5950.356 4147782
-2489.2124 849.15479 5953.7124 4213575
-2443.7747 846.33716 5933.957 4147782
-2391.9954 841.20221 5897.9546 4147782
-2356.6882 841.78998 5902.0752 4081989
-2318.5173 841.35718 5899.041 4213575
-2251.8406 830.3985 5822.2056 4213575
-2215.3625 830.3985 5822.2056 4147782
-2189.8376 834.57275 5851.4731 4081989
-2155.592 835.50916 5858.0381 4081989
-2119.3875 835.70538 5859.4141 4016198
-2109.8013 846.58966 5935.7275 4015942
-2072.6121 846.58966 5935.7275 4081735
-2066.0684 859.336 6025.0962 4081735
-2028.3192 859.336 6025.0962 4081735
-2001.0525 863.86121 6056.8242 4081735
-1963.1045 863.86121 6056.8242 3950149
-1931.9102 866.89166 6078.0718 3950149
-1874.5682 858.07501 6016.2554 3950149
-1829.0011 854.39709 5990.4678 3884356
-1773.6031 845.87634 5930.7266 3950149
-1711.0435 833.50238 5843.9683 4015942
-1667.8116 830.20831 5820.8721 3884356
-1613.2898 821.02124 5756.4585 3818563
-1572.8092 818.72321 5740.3467 3950149
-1489.5282 793.5166 5563.6143 4081735
-1464.0275 798.62085 5599.4019 4213321
-1407.6764 786.73376 5516.0576 4344907
-1349.7474 773.34436 5422.1797 4410444
-1314.5031 772.59631 5416.9351 4213064
-1260.5574 760.52557 5332.3032 3950149
-1186.9832 735.633 5157.7725 3752770
-1136.0111 723.74658 5074.4331 3686977
-1170.6809 767.30884 5379.8628 3621186
-1101.0393 743.05737 5209.8271 3620673
-1136.5215 790.43628 5542.0171 3620673
-1117.1672 801.46155 5619.3188 3488831
-1076.3715 797.32147 5590.2915 3489342
-1044.7759 799.9472 5608.7017 3555135
-984.13855 779.74554 5467.0605 3226170
-917.93677 753.51917 5283.1787 3094584
-864.74493 736.40979 5163.2188 2633520
-811.86017 718.24219 5035.8398 2567727
-780.30908 718.24219 5035.8398 2765106
-758.76349 727.8399 5103.1328 2699313
-728.94299 729.9953 5118.2446 2699313
-695.66479 728.72687 5109.3516 3357243
-654.36053 718.52313 5037.8096 3554879
-620.64386 716.03894 5020.3921 3883331
-592.65643 720.25226 5049.9331 3555135
-568.01733 729.23944 5112.9453 3160377
-534.86969 727.72455 5102.3237 3094584
-528.77631 765.16589 5364.8379 3357756
-494.7644 764.54846 5360.5088 3818563
-448.95685 744.28619 5218.4434 4015942
-417.72534 746.90326 5236.7925 4015942
-387.72534 752.35608 5275.0239 4410443
-361.91342 767.70917 5382.6699 4344907
-329.82034 771.52441 5409.4199 4213321
-305.65933 796.89368 5587.292 4147529
-276.64386 814.53217 5710.9614 4345163
-241.89154 818.01062 5735.3501 4542286
-208.05293 826.33203 5793.6943 4344907
-172.34734 829.18829 5813.7207 4147528
-136.11287 830.34924 5821.8604 4147271
-99.971405 833.13519 5841.3936 4213064
-63.333939 832.6181 5837.7686 4213321
-26.725971 831.60571 5830.6699 4279114
9.7907019 830.39429 5822.1763 4015942
47.056774 844.54279 5921.376 4015685
84.867233 851.67993 5971.4175 3949892
122.38937 852.44165 5976.7578 3620927
159.63248 851.35834 5969.1621 3357755
197.03113 851.35834 5969.1621 3423548
234.93219 853.18286 5981.9546 3620927
271.89438 851.56488 5970.6104 3620927
309.30212 851.56488 5970.6104 3423547
351.38907 863.05762 6051.1899 3357755
386.96368 857.87451 6014.8496 2897202
425.31088 859.21259 6024.231 3226167
462.14465 857.52417 6012.3931 3226167
496.5405 851.90753 5973.0132 3226167
526.28857 839.66296 5887.1626 3291960
560.44513 835.59521 5858.6421 3226167
592.40149 828.94885 5812.0415 3291960
632.7478 834.13232 5848.3848 3555132
661.34644 824.10938 5778.1108 3423546
696.45361 822.81641 5769.0449 3357753
732.76813 823.00696 5770.3809 3423546
768.67871 822.74725 5768.5601 3489339
798.6814 816.47131 5724.5576 3489339
817.87659 800.16144 5610.2036 3555132
850.2431 797.55084 5591.8994 3555390
873.73938 787.15552 5519.0146 3423294
880.22241 762.80786 5348.3052 3160122
908.52527 758.46191 5317.834 3225664
942.79291 759.22675 5323.1963 1383719
981.61285 763.48004 5353.0176 462105
1015.1512 763.48004 5353.0176 1120039
1064.2759 774.82745 5432.5781 1185579
1078.246 760.67096 5333.3223 988202
1107.089 757.5426 5311.3882 856616
1135.808 754.51434 5290.1562 725285
1165.6594 752.38885 5275.2534 987687
1193.7965 749.30444 5253.6279 855588
1212.7599 740.7821 5193.875 724259
1229.7067 731.50549 5128.8335 461342
1262.0084 731.60291 5129.5166 461340
1288.4362 728.37488 5106.8833 592666
1319.2632 727.72986 5102.3613 593433
1373.4729 739.70862 5186.3481 527383
1404.4154 738.89233 5180.625 1120544
1417.7123 729.03888 5111.5391 3291455
1497.6335 753.12457 5280.4121 3883846
1592.9784 783.75775 5495.1914 3884101
1635.2328 787.52637 5521.6147 3818564
1683.9598 794.19147 5568.3462 3753027
1748.2549 807.77924 5663.6147 3752770
1821.4266 824.84631 5783.2778 3949892
1887.0049 837.87592 5874.6323 3884355
1926.5903 839.08624 5883.1182 3687231
1981.7665 846.91394 5938.001 3686974
2033.6294 853.06323 5981.1157 3686974
2071.4575 853.20929 5982.1401 3555646
2118.054 856.89746 6007.999 3686717
2164.2039 860.27948 6031.7114 3686718
2204.0281 861.07397 6037.2817 3555132
2245.6077 862.51581 6047.3916 3489339
2279.2097 860.89673 6036.0391 3489852
2326.5481 864.4342 6060.8413 3555389
2362.9229 863.84991 6056.7446 3621182
2384.0879 857.81146 6014.4072 3686974
2446.1838 866.45892 6075.0381 3489596
2499.1226 871.64771 6111.418 3423803
2537.8477 871.79718 6112.4663 3423803
2566.2102 868.43549 6088.896 3554876
2593.3772 864.77356 6063.2207 3686462
2642.0708 868.29181 6087.8887 3883840
2678.4944 867.73499 6083.9844 3949890
2714.1958 866.96307 6078.5723 3884354
2743.2578 864.12109 6058.6465 3949890
2764.8508 859.03607 6022.9937 3950147
2801.0083 858.55231 6019.6016 3949890
2841.7886 859.47949 6026.1025 3884097
2854.0515 851.87054 5972.7534 3555132
2859.2317 842.37183 5906.1548 3423546
2876.6592 836.6781 5866.2339 3555132
2886.0244 828.81262 5811.0864 3752511
2870.2271 814.00684 5707.2783 3818304
2841.865 796.04602 5581.3486 3949889
2829.3818 782.91553 5489.2866 3949889
2814.3069 769.39197 5394.4683 3818303
2848.064 769.38086 5394.3906 3752510
2885.1897 770.26947 5400.6206 3817277
2869.0015 757.06897 5308.0674 3817534
2842.002 741.35083 5197.8623 3948607
2821.8772 727.76184 5102.5854 4408644
2737.7371 698.15271 4894.9854 3749945
2576.6128 649.78522 4555.8647 2763050
2546.9333 635.263 4454.0444 2630951
2653.0637 654.5625 4589.3599 2828586
2743.0039 669.49652 4694.0674 3025965
2727.9719 658.76447 4618.8213 3289906
2673.6733 638.875 4479.3696 3882300
2852.019 674.41168 4728.5293 3948351
3029.2385 708.9541 4970.7178 3751485
3112.7146 721.07727 5055.7178 3686206
3217.9885 737.95502 5174.0532 3686205
3296.8386 748.49695 5247.9663 3620670
3398.4946 763.95728 5356.3638 3686206
3560.5479 792.55939 5556.9028 3752512
3519.8203 775.90668 5440.145 3686719
3579.8411 781.56921 5479.8472 3620926
3667.2402 793.04486 5560.3066 3620925
3730.5825 799.15118 5603.1201 3489339
3953.8325 839.07904 5883.0679 3357753
3992.7576 839.51343 5886.1138 3489341
4056.2241 845.05261 5924.9512 3489340
4094.2971 845.24902 5926.3281 3621183
4133.6655 845.70691 5929.5386 3620927
4179.1123 847.38922 5941.3335 3555134
4205.7026 845.25195 5926.3486 3489341
4240.2544 844.73828 5922.7471 3489597
4260.3413 841.37683 5899.1787 3555389
4253.2339 832.74878 5838.6846 3555390
4250.4868 825.11432 5785.1567 3686463
4270.4473 821.97974 5763.1787 3752256
4278.8726 816.69598 5726.1328 3555133
4252.2358 804.86353 5643.1714 3423291
4232.3926 794.50153 5570.52 3423291
4230.2061 787.59637 5522.1055 3686463
4182.9209 772.47485 5416.0835 3752000
4118.1597 754.3952 5289.3208 3817792
4082.4023 741.87494 5201.5371 3817792
4072.7976 734.26801 5148.2021 3751742
4049.7615 724.37805 5078.8604 3685949
4001.2983 710.1297 4978.9604 3685949
4029.6062 709.62134 4975.396 3685949
3910.7783 683.40875 4791.6108 3685950
3996.3965 693.05042 4859.2114 3751741
3987.4355 686.26837 4811.6606 3686204
4005.7244 684.24292 4797.4595 3685948
3819.9514 647.65015 4540.895 3817021
nan nan nan 16777215
nan nan nan 16777215
3494.1328 579.46246 4062.8079 3553335
nan nan nan 16777215
nan nan nan 16777215
nan nan nan 16777215
3858.3435 621.745 4359.2651 3553335
3920.6384 627.34259 4398.5117 3619128
4264.2119 677.55536 4750.5708 3750714
4158.5103 656.17999 4600.7007 3619642
4229.0068 662.71027 4646.4863 3685435
4538.2065 706.30157 4952.1201 3685435
4657.2466 719.90649 5047.5088 3948607
4588.5244 704.49982 4939.4873 3883327
4764.145 726.56342 5094.1826 3883327
4812.9272 729.11841 5112.0967 3817534
4886.4067 735.35632 5155.8325 3751997
4972.9409 743.46393 5212.6782 3620155
5043.9072 749.15363 5252.5703 3554362
5097.9253 752.26862 5274.4106 3620155
5097.5259 747.36511 5240.0303 3620157
5186.4121 755.53107 5297.2847 3685950
5276.7842 763.80817 5355.3184 3685950
5346.9966 769.08112 5392.2886 3620157
5383.0493 769.40533 5394.562 3685950
5439.8442 772.67163 5417.4634 3554364
5468.5801 771.93677 5412.3105 3620157
5472.6367 767.74866 5382.9468 3620157
5478.2178 763.82446 5355.4326 3554364
nan nan nan 16777215
nan nan nan 16777215
nan nan nan 16777215
nan nan nan 16777215
nan nan nan 16777215
nan nan nan 16777215
-4291.8276 681.01892 4574.9487 3027766
-4272.0967 682.4458 4584.5342 3225145
-4333.3916 696.92322 4681.7905 3554110
-4409.3062 713.96509 4796.2744 3817534
-4438.8276 723.67725 4861.519 3620157
-4409.8193 723.91534 4863.1187 3488571
-4404.9658 728.14972 4891.564 3488571
-4519.3242 752.28729 5053.7158 3422778
-4539.498 760.97693 5112.0908 3488571
-4579.4248 773.12494 5193.6987 3356985
-4548.022 773.3183 5194.9976 3488571
-4538.165 777.20435 5221.1035 3488571
-4495.3066 775.45416 5209.3457 3488571
-4481.0547 778.64899 5230.8081 3620157
-4439.1611 777.05249 5220.083 3554364
-4433.5356 781.82776 5252.1626 3489341
-4471.1045 794.34863 5336.2754 3752256
-4452.7231 797.04297 5354.375 3883842
-4411.2593 795.61505 5344.7827 4146758
-4355.4937 791.5661 5317.5825 4278343
-4315.8223 790.40222 5309.7642 4080965
-4303.4761 794.26349 5335.7031 3817793
-4283.5371 796.77295 5352.561 3751743
-4231.3823 793.28217 5329.1108 3620157
-4240.3896 801.29364 5382.9302 3423548
-4217 803.26251 5396.1567 3489085
-4173.7998 801.45911 5384.042 3620927
-4119.9507 797.56482 5357.8809 3620927
-4086.967 797.67908 5358.6484 3752770
-4040.7903 795.19879 5341.9863 3686976
-4005.1252 794.76312 5339.0596 3686720
-4004.2439 801.28046 5382.8418 4147527
-3958.4739 798.84973 5366.5127 4278857
-3908.9749 795.61841 5344.8052 4278600
-3901.1565 800.88794 5380.2051 4213062
-3860.1296 799.3725 5370.0244 4278854
-3800.583 793.96149 5333.6743 4344647
-3756.1274 791.63507 5318.0459 4278855
-3685.5444 783.71112 5264.8145 4081733
-3634.9727 779.93774 5239.4658 4015940
-3554.0476 769.52356 5169.5054 4015683
-3522.5339 769.71466 5170.7891 4015683
-3461.762 763.45679 5128.75 3949890
-3386.0261 753.75055 5063.5454 3884353
-3329.8713 748.2608 5026.6665 3819073
-3295.6084 747.63263 5022.4463 3819074
-3184.1816 729.3183 4899.4146 3950403
-3074.7109 711.09991 4777.0269 4213832
-2897.5793 676.72131 4546.0781 4477004
-2820.3447 665.22235 4468.8306 4542540
-2719.9041 647.96448 4352.8955 4280395
-2680.3591 645.01117 4333.0557 4148554
-2687.9619 653.45917 4389.8081 4214858
-2595.0239 637.38721 4281.8398 5004630
-2497.1458 619.75348 4163.3799 5201754
-2485.9009 623.4754 4188.3828 5201753
-2459.6594 623.4754 4188.3828 5201753
-2446.002 626.69958 4210.0425 5201497
-2457.1248 636.41235 4275.291 5201498
-2489.9949 652.034 4380.2339 4478031
-2480.2776 656.7276 4411.7646 3029815
-2619.7729 701.48065 4712.4067 2963765
-2620.5706 709.69244 4767.5718 3292473
-2778.104 761.02948 5112.4438 3818817
-2717.084 752.99573 5058.4746 3818304
-2685.3911 752.99573 5058.4746 3818303
-2686.8821 762.4118 5121.73 3818304
-2684.2522 770.87201 5178.564 3752511
-2651.8069 770.87201 5178.564 3818561
-2627.6206 773.30261 5194.8921 3752511
-2613.6592 778.84113 5232.0986 3620925
-2591.7317 782.11627 5254.1006 3752511
-2566.8188 784.56329 5270.5391 3752511
-2542.4346 787.23779 5288.5059 3752511
-2499.3682 784.1217 5267.5728 3950147
-2497.6431 794.06573 5334.3745 4016196
-2475.1653 797.59222 5358.0649 3884610
-2472.8582 807.80487 5426.6714 3950660
-2455.9685 813.47211 5464.7427 4081989
-2418.3704 812.34351 5457.1611 4213575
-2348.3513 800.13605 5375.1538 4279368
-2341.1995 809.30524 5436.7505 4476747
-2307.8035 809.53918 5438.3223 4410954
-2305.6033 820.88702 5514.5552 4345161
-2289.252 827.46527 5558.7461 4213575
-2233.8655 819.91919 5508.0532 4279368
-2209.9087 823.85339 5534.4819 4345161
-2159.4473 817.87439 5494.3164 4345161
-2116.9927 814.78345 5473.5522 4279368
-2082.6992 814.78345 5473.5522 4147782
-2026.9346 806.24304 5416.1792 4016196
-2005.459 811.2829 5450.0361 4213575
-1950.0167 802.51862 5391.1597 4278857
-1885.7609 789.75427 5305.4111 4213321
-1881.9341 802.29352 5389.6475 4147528
-1868.9984 811.33673 5450.3979 4016199
-1851.078 818.51257 5498.6035 4081735
-1818.5344 819.37177 5504.3755 4081735
-1736.9047 797.72003 5358.9233 4081735
-1661.347 778.05835 5226.8403 3950149
-1618.9946 773.46973 5196.0151 4015942
-1583.3403 771.95862 5185.8633 4147528
-1531.7545 762.45392 5122.0127 4081735
-1496.592 760.89227 5111.522 4015942
-1480.2008 769.01465 5166.0864 3884356
-1441.3539 765.57294 5142.9658 3818563
-1404.8616 763.25305 5127.3813 3884356
-1207.2087 671.21802 4509.1084 4081735
-1155.9008 658.09094 4420.9233 4476750
-1097.8145 640.36542 4301.8467 5134680
-1088.7961 651.08984 4373.8911 4410957
-1129.6565 692.96509 4655.2007 3687490
-1117.8766 703.91302 4728.7471 4015942
-1088.3987 704.00958 4729.3955 3950149
-913.78638 607.60675 4081.7805 4147527
nan nan nan 16777215
-948.80737 668.30011 4489.5063 4015943
-909.82709 660.42273 4436.5879 4081736
-867.14838 649.27972 4361.7314 4147530
-838.45679 648.22516 4354.647 4345165
-806.82037 644.74646 4331.2778 4147530
-789.52454 652.88428 4385.9458 3818821
-764.84387 655.28204 4402.0537 4015944
-757.73108 673.47357 4524.2607 4147016
-681.34082 629.11206 4226.249 4015688
-671.3302 644.93262 4332.5283 3686467
-657.54425 658.30682 4422.3735 4081224
-626.63934 654.9649 4399.9233 4936790
-610.53137 667.49292 4484.084 4871253
-576.66479 660.87756 4439.6431 4805460
-544.75354 655.94611 4406.5146 3621188
-521.45953 661.41821 4443.2749 4279372
-491.44382 658.50092 4423.6772 4937046
-467.87299 664.38666 4463.2168 4871510
-427.43433 645.54565 4336.6465 4674132
-403.46835 650.71375 4371.3647 4608595
-388.52719 672.24988 4516.04 4608339
-362.27737 676.06531 4541.6714 4740181
-333.81674 676.05389 4541.5947 4937816
-303.89429 672.80396 4519.7622 4937559
-286.82281 700.26093 4704.2129 4608850
-266.23111 724.42841 4866.5649 4608593
-241.82626 743.12958 4992.1958 4608336
-211.64342 746.99377 5018.1548 4608079
-186.90921 774.79242 5204.9004 4476750
-154.74361 777.02545 5219.9014 4344907
-121.97763 776.63275 5217.2637 4213321
-89.590401 779.24689 5234.8247 4278858
-56.814075 779.54156 5236.8042 4213321
-24.139288 783.93921 5266.3467 4410700
8.8662233 784.84363 5272.4224 4344907
41.439259 776.22107 5214.4976 4081735
74.900307 784.50177 5270.126 3949892
111.24035 808.64374 5432.3066 3752770
143.80365 800.45135 5377.272 3884099
177.49393 800.45135 5377.272 3818562
212.17688 804.21387 5402.5479 3884355
246.02551 804.21387 5402.5479 4081478
282.18665 810.85889 5447.1875 3884098
319.88907 820.02087 5508.7358 3949635
349.07465 807.69208 5425.9136 3818561
380.20502 801.65198 5385.3374 3752512
419.70261 812.8006 5460.2319 3423546
450.27301 806.28333 5416.4497 3423547
484.20877 806.28333 5416.4497 3423290
514.68591 800.90143 5380.2954 3489339
544.03271 794.5304 5337.4961 3555133
582.27533 801.13672 5381.876 3423546
617.0365 802.49188 5390.98 3423546
647.29889 798.15924 5361.874 3423546
677.34393 793.99927 5333.9282 3423546
707.09998 789.90759 5306.4414 3489339
738.87476 788.33746 5295.8931 3489339
768.83228 785.04657 5273.7856 3357752
799.43365 782.65729 5257.7349 3226168
821.02393 771.98419 5186.0352 3226168
847.39062 766.44391 5148.8169 3094329
890.85535 776.20758 5214.4072 2896953
939.7655 789.85724 5306.103 1712425
973.62848 790.35944 5309.4766 1646634
1006.894 790.35944 5309.4766 1580074
1029.536 782.28723 5255.249 1514540
1069.2169 787.26105 5288.6621 1185066
1091.4448 779.47144 5236.333 1053480
1121.1328 777.30878 5221.8047 1053479
1152.2664 776.24255 5214.6421 922150
1178.2661 771.87201 5185.2817 856613
1205.5353 768.54535 5162.9341 724257
1219.6003 757.1947 5086.6826 460826
1253.3416 758.32709 5094.2896 592414
1283.0651 757.03271 5085.5942 461592
1314.3927 756.72461 5083.5244 461591
1358.3627 763.53735 5129.291 396309
1378.3688 756.8764 5084.5439 1054236
1395.099 748.75812 5030.0073 2831159
1431.7664 751.46259 5048.1753 3554881
1463.3948 751.46259 5048.1753 3620929
1550.6348 779.41541 5235.9565 3686720
1596.4028 785.79626 5278.8218 3555132
1643.4453 792.53265 5324.0757 3621181
1689.1885 798.3869 5363.4033 3489852
1739.4823 806.1217 5415.3643 3621182
1784.1438 811.00031 5448.1377 3423802
1824.7708 813.89624 5467.5918 3555389
1865.2815 816.63446 5485.9868 3620925
1902.4448 817.83466 5494.0498 3555389
1948.1526 822.60004 5526.0625 3489852
2002.7129 830.87177 5581.6299 3555388
2064.0671 841.62982 5653.9004 3358010
2107.7073 844.92365 5676.0278 3489595
2087.8191 823.06384 5529.1782 3752768
2131.4272 826.54095 5552.5366 3753024
2175.3647 830.03186 5575.9878 3687231
2179.2595 818.37518 5497.6807 3621181
2256.0823 834.04169 5602.9253 3489595
2225.5994 810.16675 5442.5381 3357753
2271.2234 814.29858 5470.2949 3291704
2406.9512 850.13232 5711.019 3291960
2443.3228 850.33783 5712.3989 3357753
2486.3438 852.81799 5729.0605 3357753
2522.238 852.81799 5729.0605 3489339
2547.9788 849.43304 5706.3213 3752511
2611.5466 858.57788 5767.7544 3686718
2619.9739 849.59241 5707.3916 3620925
2660.7349 851.19269 5718.1421 3489595
2686.4456 847.99969 5696.6924 3357753
2690.8406 838.25024 5631.1973 3423546
2710.9199 833.57581 5599.7959 3686718
2721.7952 826.22693 5550.4272 3555132
2758.0034 826.65649 5553.3125 3357753
2744.8623 812.46808 5457.998 3291960
2722.9446 796.06299 5347.792 3291960
2720.5559 785.69672 5278.1533 3291960
2713.9912 774.38794 5202.1831 3226167
2733.373 770.66302 5177.1602 3226167
2780.813 774.84363 5205.2441 3620155
2776.6213 764.70734 5137.1509 3686204
2775.5762 755.66016 5076.3735 3817277
2702.5896 727.45349 4886.8867 4277058
2659.4866 707.83234 4755.0762 3618615
2518.4651 662.87329 4453.0503 2631207
2536.4731 660.29834 4435.752 2433828
2578.1619 663.87689 4459.792 2697000
2659.0005 677.35175 4550.3135 2828586
2757.5544 695.00562 4668.9087 3158321
2720.6555 678.50806 4558.0815 3619128
2789.77 688.51752 4625.3228 3816764
2889.6226 705.82935 4741.6201 3817021
3021.8245 730.61017 4908.0928 3817534
