# .PCD v0.7 - Point Cloud Data file format
VERSION 0.7
FIELDS x y z rgb
SIZE 4 4 4 4
TYPE F F F U
COUNT 1 1 1 1
WIDTH 1266
HEIGHT 1
VIEWPOINT 0 0 0 1 0 0 0
POINTS 1266
DATA ascii
-2351.3162 640.13025 2575.2222 4278085
-2329.8877 638.67914 2569.3843 4278085
-2308.6726 637.2666 2563.7019 4146756
-2297.3149 638.5744 2568.9629 4146499
-2284.7429 639.56061 2572.9307 4212292
-2262.3264 637.78571 2565.79 4146499
-2257.2766 640.9162 2578.384 3949120
-2234.2019 638.93713 2570.4221 3883327
-2211.3599 636.99628 2562.6143 3685949
-2195.5374 637.0639 2562.8865 3686718
-2196.7039 642.09845 2583.1401 4015683
-2180.5815 642.11676 2583.2136 4147269
-2160.4368 640.94183 2578.4871 4015683
-2154.2571 643.92352 2590.4824 4081476
-2135.1555 643.05865 2587.0032 4081476
-2118.947 643.05865 2587.0032 4081475
-2128.3953 650.90497 2618.5684 4147268
-2119.5854 653.24609 2627.9868 4213061
-2094.585 650.59503 2617.3215 4607820
-2077.4995 650.37988 2616.4561 4345417
-2080.6448 656.54517 2641.2588 4279369
-2067.4102 657.59918 2645.499 4476491
-2041.8197 654.70831 2633.8691 4410954
-2022.2925 653.73041 2629.9351 3950403
-2005.1833 653.52448 2629.1067 4016196
-1984.3982 652.10712 2623.4048 4542540
-1980.2416 656.17621 2639.7744 4081989
-1973.0184 659.28912 2652.2976 3884611
-1956.401 659.28912 2652.2976 3818307
-1943.5906 660.58307 2657.5032 3950659
-1921.1669 658.60376 2649.5405 4147782
-1900.1989 657.09338 2643.4644 4081989
-1886.0319 657.92889 2646.8254 4081989
-1868.1089 657.4574 2644.9287 3884610
-1850.5417 657.10376 2643.5061 3818817
-1839.6006 659.1178 2651.6084 3950403
-1824.3772 659.62036 2653.6301 3819331
-1809.6526 660.31409 2656.4209 3752510
-1794.3361 660.80267 2658.3865 3884097
-1767.9297 657.1781 2643.8049 3884097
-1748.969 656.27887 2640.1873 3620925
-1734.823 657.18628 2643.8381 3555132
-1718.2585 657.18628 2643.8381 3620925
-1702.3254 657.43018 2644.8191 3752511
-1694.1283 660.69574 2657.9563 3884097
-1672.26 658.64166 2649.6929 3752511
-1662.1948 661.24176 2660.1528 3686974
-1665.8732 669.41724 2693.0425 3752511
-1633.5392 663.14062 2667.7922 3818304
-1616.8247 663.14062 2667.7922 3620925
-1602.0763 663.95551 2671.0703 3620925
-1584.2688 663.50635 2669.2634 3555388
-1563.2161 661.67401 2661.8918 3489339
-1545.512 661.2348 2660.125 3489339
-1529.269 661.41797 2660.8621 3555132
-1515.9402 662.87946 2666.7415 3555132
-1502.6617 664.39581 2672.8418 3686718
-1481.5156 662.42853 2664.9272 3489339
-1459.8441 660.17871 2655.8765 3160374
-1441.713 659.49664 2653.1323 3094581
-1426.6101 660.19989 2655.9617 3094581
-1408.2192 659.38031 2652.6646 3226167
-1380.1334 653.94733 2630.8079 3423546
-1367.8965 655.98346 2638.999 3423546
-1351.9213 656.25476 2640.0906 3489339
-1335.7343 656.42877 2640.7905 3489339
-1315.4178 654.55231 2633.2415 3423546
-1300.0908 655.1424 2635.6155 3620925
-1280.5641 653.60419 2629.4272 3489339
-1258.7988 650.86835 2618.4211 3489339
-1245.923 652.71735 2625.8596 3555132
-1230.9531 653.50409 2629.0247 3555132
-1216.6886 654.69171 2633.8025 3489339
-1204.22 656.89166 2642.6528 3423546
-1189.5367 657.9281 2646.8223 3291960
-1182.1212 663.07037 2667.5095 2962995
-1158.1324 658.9306 2650.8552 2962739
-1138.8944 657.41272 2644.7488 3160374
-1125.7771 659.43536 2652.8857 3489339
-1109.156 659.43536 2652.8857 3752767
-1104.9174 666.90918 2682.9529 3949633
-1094.9474 671.1012 2699.8171 3358266
-1078.3521 671.30035 2700.6184 3489852
-1063.2754 672.46631 2705.3088 3489852
-1049.6362 674.59387 2713.8679 3292473
-1037.2006 677.57776 2725.8721 3292473
-1018.3167 676.3786 2721.0479 3489852
-1004.2989 678.4256 2729.283 3818817
-989.32831 679.88885 2735.1697 3818817
-974.78925 681.70551 2742.478 4147782
-957.5816 681.68756 2742.4058 4016710
-945.4223 685.32849 2757.0532 4016710
-926.93091 684.42944 2753.4363 4148039
-903.09509 679.47528 2733.5059 4148039
-889.32788 682.05133 2743.8694 3950660
-868.53857 679.23755 2732.5493 3950915
-853.13092 680.60382 2738.0459 3884356
-849.03497 691.23547 2780.8167 3621438
-821.01434 682.42651 2745.3784 3884867
-802.70294 681.4834 2741.5845 3950403
-785.526 681.4834 2741.5845 4147782
-764.74725 678.28876 2728.7324 4345417
-755.53717 685.44336 2757.5151 3621438
-742.58325 689.45685 2773.6614 3423802
-724.28412 688.58099 2770.1379 3160630
-705.97864 687.65594 2766.4163 3292217
-689.49432 688.50287 2769.8235 3686205
-668.69434 684.97278 2755.6221 3489083
-651.32965 684.8678 2755.1997 3027762
-642.55566 694.03607 2792.0833 2896432
-625.73285 694.78052 2795.0781 3291190
-605.19757 691.32703 2781.1848 3423032
-586.64795 690.00415 2775.8633 3423033
-566.63904 686.83179 2763.1008 3685948
-551.00909 688.93451 2771.5598 3883327
-533.64441 688.93451 2771.5598 3751741
-508.98688 679.2027 2732.4094 3751741
-486.19531 671.37024 2700.8994 3751741
-472.98578 676.68146 2722.2664 3159604
-453.47058 673.03131 2707.582 3685948
-443.87543 684.39282 2753.2891 4607050
-410.96234 659.26642 2652.2063 4277828
-397.26413 664.14581 2671.8359 3751741
-382.17502 667.02704 2683.427 3685691
-365.07999 666.51123 2681.3518 3620155
-348.17798 666.31506 2680.5627 3554362
-331.28589 666.11896 2679.7737 3488569
-312.81616 662.56036 2665.4578 3752768
-297.06888 664.69189 2674.0327 3620925
-280.47372 665.06769 2675.5447 3489339
-263.28802 664.00201 2671.2573 3555132
-247.84451 667.48346 2685.2632 3226167
-229.87555 664.17542 2671.9551 2436651
-213.92767 666.64575 2681.8931 3291960
-195.56068 661.35632 2660.6138 3094581
-177.30591 655.49579 2637.0371 3357753
-160.78404 655.49579 2637.0371 3686718
-144.89137 658.35461 2648.5381 3686718
-128.29745 658.35461 2648.5381 3555132
-112.08061 660.57697 2657.4785 4015683
-94.475372 653.96423 2630.8757 3555132
-78.210144 655.79236 2638.2302 3226167
-61.918354 658.31781 2648.3901 3423546
-45.275028 657.58673 2645.449 3357497
-28.70793 657.75763 2646.1365 3423289
-12.074343 654.79016 2634.1985 3489339
4.4539752 658.37445 2648.6179 3489339
21.12182 660.67133 2657.8582 3489339
37.774124 660.67133 2657.8582 3357753
53.804985 653.12769 2627.5105 3686718
70.240005 652.87543 2626.4954 3620925
86.995491 655.13214 2635.5742 3423546
104.11017 658.94232 2650.9023 3423546
120.94298 660.16541 2655.823 3555132
137.55325 660.02496 2655.2578 3423546
154.34373 660.68622 2657.918 3818817
170.48857 658.724 2650.0242 3950403
188.19228 662.59857 2665.6116 3424059
206.52782 667.88495 2686.8784 3424059
224.45625 671.1571 2700.042 3489852
242.41031 674.04175 2711.647 3621438
260.37817 676.58453 2721.8765 3687487
275.98056 673.04584 2707.6404 3819073
292.61328 672.2843 2704.5767 3687487
310.71747 674.80176 2714.7043 3884867
327.31375 673.95306 2711.29 3819074
347.4169 680.05261 2735.8284 3950403
362.7829 676.74182 2722.5093 4016196
379.82614 676.71661 2722.408 3818817
400.29547 682.5354 2745.8167 3818817
416.22028 680.44513 2737.4075 3884610
433.24478 680.24701 2736.6104 3884610
450.39047 680.24701 2736.6104 3753281
458.11542 666.54016 2681.4683 3621951
483.85846 679.09125 2731.9609 3028788
499.24878 676.75128 2722.5474 2897202
514.96533 674.99341 2715.4756 2765616
531.46484 674.34155 2712.853 2831666
548.43695 674.31116 2712.7307 2831665
567.51245 676.79095 2722.7068 2831409
592.73663 686.24463 2760.7388 2897202
602.45007 677.71387 2726.4197 3292216
615.40424 673.19855 2708.2546 3226167
636.40039 677.48663 2725.5056 3226424
646.92926 670.69885 2698.1985 3292216
666.72668 673.62115 2709.9548 3356983
683.48193 673.401 2709.0691 3356983
697.79462 670.8432 2698.7793 3291190
717.85706 673.80341 2710.6882 3685692
729.09863 668.53864 2689.5081 3883070
745.25159 667.91333 2686.9927 3292216
757.60394 663.9848 2671.1882 3423802
774.91034 664.47406 2673.1565 3555388
797.30188 669.21082 2692.2122 3423546
815.96753 670.68878 2698.158 3752511
825.32666 664.61249 2673.7134 3752511
846.28979 667.93646 2687.0854 3884097
869.12921 672.58264 2705.7769 3818304
888.2995 674.26599 2712.5491 3686718
902.25006 671.99854 2703.4272 3752511
919.16809 671.98401 2703.3689 4147269
953.02765 684.13165 2752.2383 4278855
956.02661 674.08783 2711.8323 4015683
968.14557 670.71289 2698.2551 3752511
986.78809 671.89575 2703.0137 3752768
1016.0353 680.13739 2736.1694 4213062
1018.4301 670.42871 2697.1118 4542026
1035.3282 670.42871 2697.1118 5133908
1056.7927 673.33801 2708.8159 4936531
1096.3375 687.49335 2765.7622 4936787
1112.5718 686.81787 2763.0449 4739408
1123.6486 683.02814 2747.7988 4344650
1127.7885 675.19971 2716.3052 3818304
1139.4901 672.06378 2703.6897 3752512
1159.603 673.90808 2711.1091 3949891
1177.6333 674.50623 2713.5156 3884097
1196.3783 675.49097 2717.4771 4213062
1213.8296 675.72778 2718.4299 4344648
1230.8615 675.72778 2718.4299 4081476
1242.0033 672.53845 2705.5991 4147269
1263.6726 675.05872 2715.7383 4213062
1280.1427 674.77155 2714.583 4213062
1286.6357 669.30188 2692.5786 4344651
1304.8805 670.00787 2695.4187 4410443
1324.9192 671.60516 2701.8445 4278857
1344.4618 672.91382 2707.1094 4410442
1361.4227 672.91382 2707.1094 4410443
1385.229 676.25574 2720.5537 4015682
1417.433 683.56616 2749.9634 3555132
1416.5426 674.93274 2715.2314 3751741
1430.911 673.68817 2710.2246 3356983
1447.8914 673.68817 2710.2246 3093811
1460.7266 671.7818 2702.5554 3554362
1477.6589 671.7818 2702.5554 3488569
1491.4694 670.37854 2696.9102 3422520
1514.1901 672.96698 2707.323 3422776
1531.1523 672.96698 2707.323 3620155
1539.5813 669.25751 2692.4001 3685948
1567.7355 674.11017 2711.9221 3685948
1588.5275 675.72705 2718.4268 3356983
1593.5792 670.685 2698.1428 3422776
1609.7161 670.36523 2696.8564 3356983
1620.7644 667.95502 2687.1602 3488569
1637.6003 667.95502 2687.1602 3488569
1656.6669 668.85559 2690.7832 3356983
1668.9318 667.01965 2683.3972 3356983
1682.6733 665.80463 2678.5093 3422776
1698.7397 665.52441 2677.3818 3488569
1715.4146 665.48566 2677.2261 3422776
1738.592 667.94586 2687.1235 3291190
1749.4232 665.66119 2677.9324 3356983
1765.3197 665.32898 2676.5957 3225397
1782.8085 665.59741 2677.6758 3422776
1795.4575 664.07092 2671.5344 3554362
1812.0406 664.0141 2671.3059 3554362
1824.9343 662.61877 2665.6926 3225397
1852.9528 666.69061 2682.0735 2896432
1867.7098 665.96082 2679.1375 3028018
1874.3455 662.37384 2664.7073 3488569
1885.8634 660.56042 2657.4121 3225397
1921.0703 667.0036 2683.3328 2962226
1939.5891 667.59113 2685.6963 2962228
1957.2876 667.88861 2686.8931 3093811
1973.3378 667.62335 2685.8259 2962225
1990.1654 667.62335 2685.8259 2962225
2010.6575 668.84235 2690.73 2830639
2027.6686 668.89276 2690.9329 3028019
2045.2324 669.12323 2691.8599 3093811
2067.2812 670.80518 2698.6262 3028018
2098.1223 675.28973 2716.6675 2962482
2123.5581 677.97632 2727.4756 2895919
2130.2551 674.68512 2714.2354 2895919
2144.8032 673.91302 2711.1292 2961712
2166.2979 675.31848 2716.7832 3224884
2165.4722 669.79828 2694.5757 3817021
2212.1565 678.94495 2731.3723 3619642
2218.9568 675.80408 2718.7368 3553849
2240.7146 677.23193 2724.481 3553849
2269.2598 680.67407 2738.3284 3685435
2300.6965 684.92529 2755.4312 3488056
2317.5706 684.81018 2754.968 3488056
2330.2024 683.45251 2749.5061 3684921
2343.1758 682.21429 2744.5247 3619128
2360.3711 682.21429 2744.5247 3355956
2392.6887 686.55341 2761.981 3290163
2416.3835 688.3739 2769.3047 3421749
2433.7344 688.3739 2769.3047 3421749
2441.6985 685.73779 2758.6997 3421749
2448.6792 682.86444 2747.1404 3224627
2454.6548 679.75293 2734.6228 3290677
2471.6606 679.71783 2734.4817 3356470
2488.7927 679.71783 2734.4817 3619642
2505.0491 679.48016 2733.5254 3685435
2522.1753 679.48016 2733.5254 3685435
2525.3074 675.73553 2718.4609 3619642
2531.5505 672.86786 2706.9243 3619642
2542.0278 671.15637 2700.0391 3553849
2554.0481 669.87219 2694.873 3422263
2573.6885 670.59027 2697.7617 3488569
2586.1511 669.4411 2693.1387 3422776
2603.0244 669.4411 2693.1387 3356983
2620.7866 669.66821 2694.0522 3291190
2635.6853 669.16541 2692.0295 3422777
2644.8516 667.22278 2684.2146 3356986
2650.479 664.41772 2672.9299 2962227
2660.062 662.63324 2665.751 3093813
2675.4502 662.30811 2664.4429 3356985
2687.0862 661.06384 2659.4373 3422778
2704.2136 661.17755 2659.8948 3356985
2712.6956 659.18909 2651.8953 3291192
nan nan nan 16777215
nan nan nan 16777215
nan nan nan 16777215
nan nan nan 16777215
nan nan nan 16777215
nan nan nan 16777215
nan nan nan 16777215
nan nan nan 16777215
nan nan nan 16777215
-2293.1465 635.58484 2494.3972 4410184
-2284.9451 637.65741 2502.531 4278342
-2260.0928 635.07971 2492.4148 4080963
-2246.1577 635.5553 2494.2812 4014913
-2234.4534 636.67316 2498.6682 3817534
-2220.2761 637.09711 2500.3323 4014913
-2205.3135 637.30023 2501.1294 4212292
-2212.3535 643.91016 2527.0703 4080706
-2199.2822 644.71967 2530.2476 3752254
-2155.9438 636.60382 2498.3962 3686718
-2140.0305 636.52643 2498.0925 3686718
-2161.9717 647.79022 2542.2981 4015683
-2134.5911 644.33337 2528.7312 3950147
-2120.5408 644.87854 2530.8711 4147269
-2110.6516 646.70703 2538.0469 3949890
-2081.3062 642.55658 2521.7583 3884097
-2055.9441 639.58179 2510.0835 3949891
-2056.2249 644.59979 2529.7771 4344906
-2047.0115 646.69647 2538.0054 4673357
-2046.6309 651.63824 2557.3997 4278854
-2037.7029 653.91498 2566.3352 4082245
-2037.8638 659.16791 2586.9507 4345160
-2021.6558 659.16791 2586.9507 4476746
-1987.6019 653.30219 2563.9302 4410954
-1981.4163 656.57556 2576.7766 4345161
-1971.3787 658.61572 2584.7834 4410953
-1922.538 647.61865 2541.6248 4476747
-1912.9182 649.76001 2550.0286 3950403
-1914.7065 655.84509 2573.9099 3753025
-1901.7368 656.93549 2578.1892 3752770
-1890.3024 658.57953 2584.6414 4016196
-1883.6056 661.91675 2597.7385 4279368
-1849.8087 655.70599 2573.364 4213575
-1833.6859 655.70599 2573.364 4147782
-1813.9655 654.40814 2568.2705 3621695
-1794.766 653.27673 2563.8303 3753024
-1778.5189 653.20923 2563.5652 4016196
-1762.5236 653.2337 2563.6614 4148039
-1752.5774 655.5213 2572.6392 4147269
-1745.1504 658.80231 2585.5159 4081476
-1726.1 657.71582 2581.2517 3818304
-1705.5122 656.01746 2574.5862 3818304
-1689.6277 656.11304 2574.9614 3752511
-1670.7383 655.03235 2570.7202 3752511
-1650.3179 653.32446 2564.0176 3555132
-1635.7056 653.90491 2566.2957 3686718
-1619.627 653.90491 2566.2957 3884097
-1603.8265 654.01843 2566.741 3686718
-1592.2834 655.88782 2574.0776 3686718
-1580.5878 657.73199 2581.3152 3620925
-1560.1711 655.94775 2574.3127 3620925
-1562.4584 663.77136 2605.0171 3752511
-1537.4744 660.05237 2590.4216 3686718
-1519.0255 659.08948 2586.6428 3423546
-1504.2175 659.7027 2589.0493 3620925
-1488.436 659.89764 2589.8145 3555132
-1468.3391 658.16254 2583.0049 3357753
-1454.6967 659.31415 2587.5244 3489339
-1437.4746 658.85107 2585.707 3357753
-1419.3409 657.95483 2582.1897 3226167
-1396.4873 654.82458 2569.905 3291960
-1377.5128 653.46167 2564.5559 3423546
-1360.3375 652.93005 2562.4695 3291960
-1343.3564 652.48004 2560.7036 3423546
-1327.3129 652.48004 2560.7036 3620925
-1304.8041 649.26306 2548.0781 3423546
-1288.4893 649.08655 2547.3855 3489339
-1275.3308 650.51562 2552.9941 3291960
-1258.4578 650.06226 2551.2148 3423546
-1242.0153 649.82245 2550.2737 3620925
-1226.3534 649.99011 2550.9316 3489339
-1205.994 647.63959 2541.7068 3489595
-1187.005 645.97192 2535.1619 3489339
-1176.2139 648.78082 2546.1858 3291960
-1169.4054 653.89392 2566.2524 3226167
-1166.5546 661.39343 2595.6848 3423802
-1146.9636 659.47986 2588.1748 3424059
-1130.7479 659.47986 2588.1748 3226680
-1111.6173 657.75513 2581.406 3095350
-1107.0681 664.73474 2608.7979 3819330
-1098.5043 669.47687 2627.4087 3753280
-1074.9741 665.10345 2610.2449 3687744
-1065.2649 669.27814 2626.6289 3489852
-1056.7423 674.34113 2646.499 3292473
-1035.9698 671.6239 2635.835 3358266
-1024.8635 675.18677 2649.8176 3292473
-1013.3477 678.59265 2663.1843 3358266
-997.23999 678.98621 2664.7288 3621438
-983.23462 680.84882 2672.0388 4081989
-968.54932 682.29712 2677.7227 4016453
-956.24268 685.50159 2690.2988 4345161
-931.56714 679.79504 2667.9033 4148039
-918.88849 682.79462 2679.675 4015939
-907.00995 686.51117 2694.2612 4213575
-879.51532 678.32507 2662.134 4345161
-854.99054 672.15704 2637.9275 4016196
-839.07019 672.64374 2639.8374 3950146
-829.27594 678.15979 2661.4854 3819072
-810.24768 676.19586 2653.7778 3753024
-796.63947 678.76776 2663.8716 3687231
-779.01184 677.95172 2660.6689 3818561
-760.60742 676.40924 2654.6155 4015427
-745.46106 677.75995 2659.9163 4410185
-736.78528 685.18988 2689.0757 4147270
-721.05688 686.25531 2693.2571 4146756
-702.52979 684.64447 2686.9351 4278341
-685.69531 684.64447 2686.9351 3949376
-670.93695 686.76953 2695.2751 3685692
-654.60693 687.35413 2697.5693 3488569
-637.70581 687.35413 2697.5693 3751484
-624.7475 691.7196 2714.7019 3554362
-611.63702 696.15613 2732.1135 3685691
-588.74359 689.39288 2705.5706 3488569
-569.99695 687.22821 2697.0752 3093811
-557.92639 693.22638 2720.6152 3225397
-544.59387 697.98517 2739.2915 2896432
-515.59021 682.31488 2677.7925 3159604
-492.31403 673.42511 2642.9041 3422776
-475.2229 672.67139 2639.9458 3356983
-461.2822 676.4834 2654.9065 3291190
-444.05621 675.58246 2651.3706 3356983
-427.03198 674.93048 2648.8118 3621182
-405.45224 666.73444 2616.646 3423803
-390.67606 669.50708 2627.5273 3489339
-371.40732 664.48602 2607.8218 4147269
-353.19052 660.97156 2594.0291 4213062
-335.71948 658.58087 2584.6467 4147269
-320.35654 660.29297 2591.366 3884097
-305.99435 664.36072 2607.3301 3884097
-288.59634 661.92426 2597.7681 3620925
-272.46783 662.28235 2599.1733 3423546
-254.47908 657.87683 2581.8838 3423546
-240.3546 663.54126 2604.114 3555132
-225.29642 667.26538 2618.7295 3423546
-208.77858 666.9118 2617.342 3620925
-190.1532 659.19183 2587.0444 3489339
-172.80956 654.8905 2570.1636 3357753
-156.99075 656.0777 2574.8228 3357753
-140.85869 656.0777 2574.8228 2700079
-123.42143 649.21222 2547.8787 3620668
-108.94617 658.2019 2583.1594 4015683
-93.127655 660.79736 2593.3455 3094325
-76.642746 658.76208 2585.3579 3028531
-60.017044 654.10144 2567.0669 2962738
-43.720333 650.9267 2554.6072 3028532
-27.646482 649.31915 2548.2983 3028788
-11.893518 661.15491 2594.7488 2699823
4.3709731 662.30432 2599.2595 3226167
20.656139 662.30432 2599.2595 3818304
35.908207 643.78229 2526.5686 3752511
52.394753 651.95502 2558.6431 3752511
67.110954 639.4306 2509.4902 3555388
83.152122 641.88873 2519.1372 3489595
100.44263 651.66827 2557.5176 4015683
114.86284 642.69653 2522.3074 3950146
132.7032 652.71741 2561.635 3424315
149.25821 654.93579 2570.3413 3490109
165.40497 655.10522 2571.0061 3226937
183.14307 660.98792 2594.0933 3292473
200.4158 664.3689 2607.3623 3490108
217.49388 666.64368 2616.2898 3490108
234.93248 669.6272 2627.9988 3687231
250.40602 666.98572 2617.6321 3621438
267.0899 667.6947 2620.4146 3424315
285.33411 671.99634 2637.2966 3357497
301.8576 671.99634 2637.2966 3357497
318.39728 672.03058 2637.4309 3291704
336.92697 676.05438 2653.2227 3094324
349.55875 668.42188 2623.2683 3752254
372.97006 681.1618 2673.2671 3160118
386.72263 675.9248 2652.7141 2962739
402.04074 673.74298 2644.1514 3094324
419.43515 675.07556 2649.3813 3160117
436.03436 675.07556 2649.3813 3226167
453.24854 675.99286 2652.9812 3357753
481.23904 692.34882 2717.1714 2568237
492.69547 684.61261 2686.8101 2173479
500.08673 671.9256 2637.019 2568237
517.36676 672.91187 2640.8896 2962995
532.92761 671.67023 2636.0168 3028018
548.47461 670.48639 2631.3706 3093811
564.41541 669.83893 2628.8296 3159604
580.56232 669.46582 2627.3655 3225397
597.45007 669.94409 2629.2424 3290934
612.28082 668.15192 2622.209 3291190
629.32104 668.80157 2624.7585 3291190
644.93109 667.93695 2621.3652 3291190
661.27625 667.8576 2621.054 3291190
675.93201 666.11731 2614.2239 3093811
690.19727 664.08368 2606.2427 3422776
699.33649 657.32574 2579.7209 3291190
712.19257 654.28802 2567.7991 3422776
731.98535 657.61627 2580.8611 3751741
746.52991 656.18762 2575.2544 3620155
762.66467 656.18762 2575.2544 3160374
785.50897 661.84082 2597.4407 2897202
802.28137 662.25244 2599.0562 3160374
819.11609 662.69818 2600.8052 3752511
838.38477 665.05707 2610.063 4278855
856.55304 666.46967 2615.6069 4410441
874.07214 667.33356 2618.9973 4147784
888.97955 666.20837 2614.5813 4015942
901.80884 663.59479 2604.324 4015941
922.46863 666.73364 2616.6428 4015684
941.89551 668.88745 2625.0955 3884354
959.36139 669.59851 2627.8862 3818305
981.64331 673.59039 2643.5525 4147269
998.20605 673.59039 2643.5525 3818304
1022.4381 678.68121 2663.532 3949890
1037.3314 677.50916 2658.9321 3884097
1056.7883 679.30768 2665.9905 3686718
1071.4218 677.99786 2660.8501 3686718
1082.543 674.53973 2647.2783 4279111
1098.3091 674.0365 2645.3035 3884096
1112.7529 672.7489 2640.25 3818304
1127.1661 671.48071 2635.2729 4213318
1144.8395 672.16327 2637.9517 3752767
1164.4674 673.95764 2644.9939 4081476
1185.8236 676.68793 2655.709 4213064
1197.2649 673.763 2644.23 4278857
1206.6307 669.76587 2628.543 4278857
1222.9087 669.6615 2628.1333 4213066
1243.4659 671.87201 2636.8086 3949890
1271.9844 678.26978 2661.9172 3686718
1299.2539 683.84467 2683.7961 4015683
1306.8188 679.03833 2664.9333 4015682
1313.6361 673.96967 2645.041 4147268
1329.0498 673.38275 2642.7378 4213062
1345.6074 673.38275 2642.7378 4147269
1366.7794 675.664 2651.6904 3555132
1365.5969 666.97211 2617.5786 3751998
1384.3292 668.09772 2621.9963 3554362
1405.7294 670.46936 2631.304 3028018
1422.2153 670.46936 2631.304 3554362
1426.8962 664.96796 2609.7134 3620155
1440.314 663.61664 2604.4099 3554362
1451.2222 661.15234 2594.7385 3554362
1467.415 661.12347 2594.6252 3685948
1482.4095 660.56128 2592.4189 3883327
1502.2546 662.14929 2598.6511 3751741
1526.9058 665.79889 2612.9744 3817534
1547.2164 667.49841 2619.6443 3883327
1556.6564 664.52173 2607.9622 3817534
1568.7758 662.73889 2600.9651 3751741
1582.4911 661.65991 2596.7307 3554362
1601.8967 662.95789 2601.8247 3554362
1617.76 662.7785 2601.1206 3488569
1629.6639 660.9967 2594.1279 3751741
1638.4512 657.99847 2582.3611 3620155
1659.8351 660.06824 2590.4839 3356983
1675.3451 659.78461 2589.3708 3356983
1690.8331 659.49786 2588.2454 3225397
1701.9672 657.53442 2580.5398 3159604
1718.1892 657.55524 2580.6213 3291190
1734.3564 657.55475 2580.6196 3225397
1754.8315 659.17249 2586.9685 3093811
1771.3383 659.28357 2587.4045 3093811
1793.0114 661.29816 2595.3108 3159604
1819.7092 665.1131 2610.2827 3488569
1838.4169 665.96564 2613.6287 3620155
1840.7609 660.92767 2593.8569 3422776
1859.6332 661.86053 2597.5178 3225397
1873.5709 661.03619 2594.2827 3159604
1889.5767 660.94934 2593.9419 3094068
1911.0087 662.74585 2600.9924 3159604
1937.1333 666.12561 2614.2566 3225397
1945.101 663.25739 2603 3159348
1958.6012 662.30774 2599.2729 3093555
1981.8613 664.64685 2608.4531 3094068
1998.2041 664.64685 2608.4531 3028275
2024.252 667.84882 2621.0193 3028275
2044.2542 669.02069 2625.6184 2830382
2061.7114 669.3476 2626.9014 2830126
2088.5002 672.6748 2639.9595 2764333
2103.4146 672.1554 2637.9207 3159091
2116.5269 671.07251 2633.6711 3290677
2139.0696 672.97333 2641.1309 3751228
2151.3628 671.64526 2635.9187 3817021
2192.2151 679.18536 2665.5105 4014400
2209.8484 679.47223 2666.6362 3948607
2231.1921 680.88715 2672.1892 3685435
2227.3464 674.65125 2647.7161 3553849
2243.7935 674.60864 2647.5488 3488056
2265.0291 675.99579 2652.9927 3224627
2290.6699 678.66791 2663.4795 3026991
2307.5598 678.72736 2663.7131 2961198
2327.4338 679.65747 2667.3633 3092527
2347.5754 680.65192 2671.2661 3158320
2361.2532 679.77136 2667.8103 3093041
2364.5259 675.92883 2652.73 3026991
2383.1262 676.49097 2654.936 3092527
2401.7842 677.06146 2657.175 2961712
2406.1687 673.62817 2643.7009 3422263
2416.8579 671.99481 2637.2908 3488056
2427.8064 670.45526 2631.2485 3751228
2440.9404 669.53601 2627.6409 3685178
2446.7976 666.64636 2616.3003 3553850
2457.9136 665.21844 2610.6963 3554106
2467.1929 663.31567 2603.2288 3356983
2480.8894 662.61755 2600.489 3488312
2492.2239 661.30194 2595.3257 3751741
2500.9609 659.31854 2587.5417 3620155
2516.9878 659.27014 2587.3518 3488569
2549.3711 663.47906 2603.8701 3356983
2565.6606 663.47278 2603.8452 3356986
2563.1013 658.62305 2584.8123 3291192
2579.2959 658.62305 2584.8123 3356985
2614.6738 663.49091 2603.9165 3554364
2630.9883 663.49091 2603.9165 3488571
2622.5569 657.28894 2579.5764 3422778
2636.0754 656.63049 2576.9922 3356985
nan nan nan 16777215
nan nan nan 16777215
nan nan nan 16777215
nan nan nan 16777215
nan nan nan 16777215
nan nan nan 16777215
nan nan nan 16777215
nan nan nan 16777215
nan nan nan 16777215
-2234.8564 634.5791 2430.9915 3685948
-2223.4849 635.68237 2435.218 3685948
-2201.6594 633.79163 2427.9749 3817534
-2188.4443 634.37054 2430.1926 3949120
-2171.614 633.90222 2428.3984 4080706
-2154.2368 633.26648 2425.9631 4212292
-2141.6541 634.0412 2428.9309 4409671
-2130.7539 635.32861 2433.8628 4278085
-2122.3594 637.38708 2441.7485 4344134
-2107.061 637.38708 2441.7485 4278598
-2086.2673 635.71265 2435.334 4081732
-2064.4766 633.7074 2427.6521 3818304
-2051.7043 634.46124 2430.54 3621181
-2050.7502 638.9082 2447.5757 3423546
-2044.3828 641.72302 2458.3591 3291960
-2028.9803 641.72302 2458.3591 3620925
-2007.0643 639.64716 2450.4065 3818304
-2016.8193 647.71057 2481.2966 3949890
-2009.469 650.3631 2491.458 3949890
-1997.8882 651.67725 2496.4924 4147013
-1982.5233 651.76819 2496.8406 3819074
-1959.5809 649.34949 2487.575 3490108
-1951.2719 651.78003 2496.886 3819077
-1950.2839 656.71503 2515.7915 4015943
-1927.3616 654.28442 2506.48 4081735
-1913.1686 654.80145 2508.4609 3884356
-1890.4526 652.38593 2499.2073 3818817
-1878.9235 653.82281 2504.7117 4015941
-1867.3774 655.27795 2510.2861 4147271
-1851.9652 655.38959 2510.7139 4081735
-1847.8729 659.5434 2526.6267 4147273
-1844.1471 663.901 2543.3201 4476746
-1792.0212 650.75854 2492.9729 4871505
-1768.2743 647.78107 2481.5667 4542540
-1756.4056 649.14081 2486.7756 4148039
-1741.1869 649.2757 2487.2922 4148039
-1722.5117 648.11249 2482.8362 4147782
-1709.1478 648.94464 2486.0242 4147782
-1694.9528 649.47369 2488.0508 4147269
-1678.2703 649.0506 2486.4299 4213062
-1662.5592 648.99872 2486.2312 4213062
-1653.6714 651.63464 2496.3291 4279112
-1633.1974 649.71173 2488.9626 4278855
-1622.5837 651.71216 2496.626 3884097
-1599.4993 648.69379 2485.0632 3620925
-1582.1741 647.97485 2482.3088 3620925
-1571.5973 650.03284 2490.1929 3620925
-1551.2167 648.03644 2482.5449 3620925
-1537.1401 648.65985 2484.9331 3620925
-1524.0626 649.72198 2489.002 3686974
-1509.4229 650.13318 2490.5771 3621181
-1507.1415 655.93152 2512.7898 3884097
-1480.6848 651.21967 2494.7395 3752511
-1468.4656 652.7359 2500.5479 3686718
-1452.8889 652.77637 2500.7029 3752511
-1443.5887 655.66846 2511.782 3686718
-1427.8517 655.66846 2511.782 3226167
-1405.8203 652.74591 2500.5862 3357753
-1389.337 652.36261 2499.1179 3291960
-1378.5903 654.69489 2508.0525 3357753
-1357.9764 652.34094 2499.0349 3555132
-1336.1105 649.32361 2487.4758 3555132
-1319.5829 648.86005 2485.7 3489339
-1305.0409 649.37335 2487.6665 3620925
-1293.9175 651.62079 2496.2761 3555132
-1276.4437 650.68597 2492.6948 3291960
-1264.2426 652.44904 2499.449 3555132
-1240.3436 648.14374 2482.9558 3555132
-1224.3864 647.93164 2482.1433 3620925
-1207.9907 647.47913 2480.4099 3620925
-1190.7941 646.57983 2476.9648 3950147
-1173.1237 645.39618 2472.4304 3884354
-1167.4647 650.8775 2493.4287 3160374
-1145.1956 647.12134 2479.0393 3028788
-1142.8604 654.68109 2507.9998 3752511
-1129.6588 656.14001 2513.5886 4344391
-1107.9584 652.63403 2500.1577 3949890
-1095.3085 654.43512 2507.0574 4015426
-1079.6011 654.43512 2507.0574 4081476
-1069.6547 657.979 2520.6335 3884097
-1067.8567 666.71649 2554.1057 3489339
-1053.1699 667.55035 2557.3 3686461
-1053.399 678.01031 2597.3711 3358266
-1047.5812 684.84558 2623.5559 3292473
-1010.7643 671.3103 2571.7041 3489852
-997.01013 672.90198 2577.8015 3621694
-989.30981 678.69916 2600.01 3555902
-980.4115 683.85492 2619.761 3950660
-970.97241 688.80267 2638.7151 4016196
-941.91406 679.76294 2604.085 4016196
-941.00073 691.07428 2647.4172 4213575
-919.67969 687.5351 2633.8591 4279368
-899.94739 685.07593 2624.4385 4147782
-881.13098 683.2356 2617.3882 4081989
-860.07916 679.55914 2603.3042 4147782
-844.26447 679.95837 2604.8337 3687231
-826.70197 678.93817 2600.9253 3621438
-803.8808 673.47113 2579.9819 3753280
-787.71637 673.47113 2579.9819 3884611
-769.57031 671.74133 2573.3552 3818304
-763.56116 680.7583 2607.8982 3752511
-741.65106 675.68304 2588.4553 3949890
-723.08783 673.49811 2580.0852 4213062
-711.52301 677.88086 2596.875 4081733
-697.28168 679.85901 2604.4531 4015683
-680.96399 679.85901 2604.4531 3291960
-664.3009 679.50574 2603.0999 3357497
-651.78967 683.48846 2618.3569 4147526
-627.57513 675.08746 2586.1738 5068370
-609.95331 673.521 2580.1729 4937041
-605.52454 686.83386 2631.1729 3818304
-588.29095 685.96118 2627.8296 3621181
-569.11267 682.70526 2615.3567 3555388
-551.45465 681.13409 2609.3379 4278084
-531.71539 676.81775 2592.8025 4278085
-509.85587 669.4455 2564.5603 4146243
-494.99527 671.08209 2570.8298 3291190
-482.3866 675.98444 2589.6101 3686975
-466.16183 675.98444 2589.6101 4279111
-448.95605 674.5105 2583.9636 4410697
-436.40714 680.18445 2605.6997 4410698
-411.10675 665.65253 2550.0298 3884097
-395.13 665.65253 2550.0298 3884097
-375.81659 659.79449 2527.5886 4081476
-358.69855 657.44495 2518.5876 4081476
-344.14246 659.79095 2527.575 3554876
-326.76538 656.69397 2515.7107 3555131
-310.40909 655.43848 2510.9011 3686461
-293.89673 653.70178 2504.248 3226423
-277.75986 652.65155 2500.2249 3357753
-261.92398 652.22522 2498.5916 3686718
-245.6783 650.65936 2492.593 3555132
-230.06143 650.65936 2492.593 3818304
-213.12465 646.6546 2477.2512 3752511
-198.77892 650.49976 2491.9817 3686718
-183.1689 650.5105 2492.0227 3489339
-167.82433 651.55377 2496.0193 3489339
-152.18599 651.55377 2496.0193 3423546
-137.26398 654.9718 2509.1133 3291960
-122.88496 662.20001 2536.8037 3358010
-105.26807 651.53571 2495.9502 3028788
-89.144196 648.00311 2482.4172 2765616
-73.527756 647.44556 2480.2812 2831409
-58.123253 648.95532 2486.0649 2896946
-42.548698 648.97687 2486.1477 3028532
-26.925005 647.84106 2481.7964 3226167
-11.363419 647.13708 2479.0996 3094581
4.1777811 648.51422 2484.3752 3291960
19.688702 646.72534 2477.5222 3818304
34.792782 639.0412 2448.0852 4015682
50.437828 642.95508 2463.0789 3621694
66.038895 644.60583 2469.4026 3160887
82.318161 650.99323 2493.8721 3489852
98.855988 657.06128 2517.1179 4674126
113.26075 649.23248 2487.1267 4279369
128.18901 645.93518 2474.4951 3621182
144.38362 649.04199 2486.397 3621182
160.11658 649.67053 2488.8049 3686718
177.37076 655.81213 2512.3325 3686718
193.1113 655.81213 2512.3325 3818304
209.49915 657.84473 2520.1191 3883841
228.43755 667.03998 2555.345 3620925
244.44756 667.03998 2555.345 3291704
258.46381 661.9339 2535.7842 3160374
274.42221 662.10498 2536.4397 3291960
290.20932 661.8667 2535.5269 3291960
305.43338 660.43573 2530.0449 3291960
321.98969 661.88446 2535.595 2962995
341.43393 668.85437 2562.2957 3028788
357.67209 669.19971 2563.6187 2765616
374.43884 670.46185 2568.4539 2765873
390.67831 670.71478 2569.4226 2831409
408.21582 673.08789 2578.5139 2634030
429.05774 680.52148 2606.991 2634030
445.39136 680.52148 2606.991 3094581
467.69894 689.32635 2640.7212 3555132
471.97021 671.85461 2573.7893 3423546
487.07883 670.45483 2568.4268 3094581
504.09442 671.68549 2573.1414 3094582
519.98737 671.39026 2572.0105 3028018
534.82178 669.78723 2565.8694 3093811
551.18152 670.13226 2567.1912 3159604
567.12347 669.96423 2566.5474 3291190
579.44019 665.64075 2549.9849 3028018
594.02142 664.08099 2544.0095 3093811
608.58429 662.58276 2538.27 3159604
624.4873 662.58276 2538.27 3159604
640.26361 662.45172 2537.7678 3225397
656.164 662.45215 2537.7695 3356983
671.27258 661.67212 2534.7812 3159604
674.11578 649.11768 2486.6868 2896432
693.72821 652.91296 2501.2261 3620155
710.8089 654.21039 2506.1965 3620155
729.3714 656.78619 2516.064 3290933
748.745 659.96777 2528.2524 3488312
771.29303 665.75769 2550.4329 3291960
779.1861 658.91968 2524.2371 2962995
794.96558 658.89008 2524.1238 3752511
812.21863 660.05927 2528.6028 4344648
828.77484 660.62817 2530.7822 4279112
846.82019 662.34052 2537.3418 4213318
858.27045 658.92633 2524.2627 4147525
878.42279 662.1958 2536.7876 4015939
898.20404 665.07428 2547.8147 3884610
929.04358 675.8974 2589.2766 3949890
947.71521 677.6485 2595.9849 3949890
943.79449 663.4588 2541.626 4213062
956.57391 661.28491 2533.2981 4081476
979.35315 665.98206 2551.2922 3949890
993.31482 664.62842 2546.1067 3818561
1014.9009 668.33862 2560.3198 3884097
1031.7386 668.85498 2562.2981 4015683
1054.7225 673.27893 2579.2456 4081476
1062.3562 667.9184 2558.7102 3884098
1078.3112 667.87122 2558.5295 4542028
1094.3412 667.87122 2558.5295 4542028
1099.0383 661.05475 2532.4163 3884355
1120.424 664.32721 2544.9529 3884099
1147.1511 670.63055 2569.1001 3950149
1156.0981 666.50897 2553.3108 4081479
1166.0212 663.05493 2540.0789 4213065
1178.8351 661.31561 2533.4155 4213065
1204.304 666.62744 2553.7646 3686721
1227.082 670.33008 2567.949 3686717
1241.509 669.43384 2564.5156 3555132
1257.6292 669.46191 2564.623 3291961
1271.5598 668.33844 2560.3191 3028788
1289.3005 669.22058 2563.6985 3291960
1320.7987 677.13409 2594.0142 3949890
1324.3678 670.71082 2569.4075 3818304
1337.4374 669.19543 2563.6023 3883583
1353.4991 669.19543 2563.6023 4014656
1350.0271 659.65082 2527.0381 3751485
1364.0062 658.75562 2523.6086 3619898
1376.0081 656.93695 2516.6416 3620155
1389.9773 656.08813 2513.3899 3817534
1411.0242 658.56165 2522.8657 4080706
1422.7405 656.67383 2515.6335 3554362
1438.5018 656.67383 2515.6335 3685948
1456.629 657.74219 2519.7263 3817534
1489.084 665.18799 2548.2502 3422776
1497.5273 661.8634 2535.5142 3422776
1513.4131 661.8634 2535.5142 3488569
1526.4247 660.61945 2530.7488 3554362
1536.6586 658.2113 2521.5234 3620155
1551.1378 657.6521 2519.3813 3685948
1566.9225 657.6521 2519.3813 3620155
1588.4335 660.03156 2528.4966 3883327
1596.8971 656.99603 2516.8679 3751741
1619.5724 659.80963 2527.6465 3685948
1630.5935 657.86682 2520.2039 3620155
1643.579 656.74628 2515.9111 3817534
1656.0403 655.43951 2510.905 3554362
1683.8605 660.17902 2529.0615 3093811
1685.7435 654.75592 2508.2864 3093811
1701.7528 654.86908 2508.72 3159604
1720.6514 656.08191 2513.366 3291190
1742.2773 658.30316 2521.8755 3488569
1750.9646 655.63977 2511.6721 3422776
1770.1212 656.909 2516.5344 3554362
1785.3356 656.70575 2515.7559 3488569
1796.86 655.16064 2509.8369 3817534
1805.9286 652.75476 2500.6201 3291190
1828.7001 655.3006 2510.3728 3291190
1845.3024 655.61108 2511.5623 3225397
1863.8538 656.60303 2515.3623 3356983
1890.113 660.27081 2529.4133 3356983
1897.0732 657.19208 2517.6189 3159860
1914.441 657.73975 2519.717 3225653
1930.9279 657.97833 2520.6309 3225397
1940.3816 655.83582 2512.4233 3159861
1968.6373 660.03168 2528.4971 3159348
2010.1754 668.57819 2561.2375 3422263
2021.1373 666.90027 2554.8098 3422263
2026.236 663.32928 2541.1299 3422263
2044.0668 663.94965 2543.5063 3488056
2081.8315 670.98523 2570.4587 3422263
2090.2019 668.51147 2560.9822 3751228
2112.7166 670.56488 2568.8484 4014400
2133.6873 672.10077 2574.7322 4014400
2159.1111 675.00586 2585.8613 3751228
2162.0811 670.90015 2570.1328 3751228
2169.0962 668.10114 2559.4102 3356470
2190.6565 669.79028 2565.8811 3224884
2226.7957 675.87988 2589.2097 3093298
2238.3726 674.48016 2583.8474 3027505
2254.5613 674.48016 2583.8474 2961712
2266.197 673.12781 2578.6667 2895919
2279.4177 672.26208 2575.3503 2961712
2286.5923 669.63794 2565.2974 2961712
2312.8525 672.60065 2576.6472 2895919
2326.7708 671.95801 2574.1853 2830126
2339.1243 670.87543 2570.0381 2961712
2355.2263 670.87543 2570.0381 3224884
2336.303 660.96637 2532.0776 3422776
2360.1599 663.21234 2540.6816 3620412
2376.6472 663.37109 2541.29 3751741
2385.0693 661.29175 2533.3242 3751741
2392.2283 658.89185 2524.1306 3751741
2402.1428 657.27753 2517.9463 3685948
2424.5425 659.07812 2524.8442 3883327
2431.3552 656.64587 2515.5264 3751741
2456.8438 659.25616 2525.5261 3620155
2467.8606 657.97473 2520.6172 3488569
2470.0867 654.38062 2506.8486 3356986
2485.7927 654.38062 2506.8486 3225399
2514.8513 657.8736 2520.2297 3225399
2524.0823 656.1684 2513.6975 3356985
2537.4705 655.55847 2511.3608 3422778
2559.3225 657.12927 2517.3784 3291192
2572.1406 656.37543 2514.4905 3159606
nan nan nan 16777215
nan nan nan 16777215
nan nan nan 16777215
nan nan nan 16777215
nan nan nan 16777215
nan nan nan 16777215
nan nan nan 16777215
nan nan nan 16777215
nan nan nan 16777215
-2185.3787 635.34497 2377.1714 3751741
-2182.3286 638.81183 2390.1428 3751741
-2167.3535 638.81183 2390.1428 3949120
-2140.2998 635.22693 2376.7297 3949120
-2123.3125 634.60034 2374.3853 4080963
-2117.2205 637.24432 2384.2778 4409671
-2093.8721 634.69495 2374.7395 4475464
-2079.5354 634.86029 2375.3582 4409671
-2068.4768 636.03613 2379.7576 4343878
-2066.7112 640.10724 2394.9897 4212549
-2041.3285 636.86963 2382.876 4015683
-2014.2795 633.06061 2368.6245 3884097
-2011.6783 636.93573 2383.1233 3555132
-1989.9882 634.77966 2375.0562 3423546
-1991.8885 640.17285 2395.2351 3489339
-2000.5972 647.8526 2423.9692 3489339
-1990.6593 649.56543 2430.3779 3291960
-1966.0586 646.48315 2418.8455 3226167
-1951.9685 646.836 2420.1655 3094581
-1931.8278 645.17358 2413.9456 3291703
-1930.5676 649.84027 2431.4062 3753024
-1917.6564 650.62817 2434.3542 3818560
-1902.4044 650.62817 2434.3542 3950403
-1885.6824 650.1214 2432.458 4016453
-1876.6818 652.29004 2440.5723 3884610
-1863.9574 653.18951 2443.9375 3555645
-1840.1676 650.19403 2432.7297 3884610
-1830.938 652.33606 2440.7444 4081989
-1809.4623 650.11432 2432.4316 4016197
-1807.2277 654.82666 2450.063 4016198
-1797.8121 656.99554 2458.178 4345161
-1789.0085 659.42737 2467.2769 4805712
-1769.0297 657.74658 2460.988 4805968
-1740.1523 652.69855 2442.1006 4345161
-1715.5531 649.17987 2428.9353 4016196
-1703.0911 650.23206 2432.8721 3950403
-1683.9493 648.73004 2427.2522 4016196
-1664.7473 647.17712 2421.4419 4016196
-1646.9321 646.13977 2417.5605 4015683
-1631.5658 646.05286 2417.2354 4278855
-1618.9763 647.0741 2421.0564 4410441
-1600.2555 645.64099 2415.6943 4213319
-1590.9574 648.01843 2424.5896 4015683
-1575.7665 648.01843 2424.5896 3949890
-1545.1412 641.60938 2400.6099 3818304
-1530.1007 641.60938 2400.6099 3620925
-1512.8541 640.67517 2397.1145 3489339
-1483.7903 634.66748 2374.6367 3357753
-1481.1632 639.96063 2394.4412 3489339
-1468.1681 640.83655 2397.7185 3489339
-1453.1456 640.83655 2397.7185 3555132
-1444.4949 643.67584 2408.3418 3752767
-1438.8405 647.92438 2424.2378 3686718
-1427.2224 649.54938 2430.3179 3620925
-1411.2205 649.19275 2428.9834 3818304
-1405.3583 653.54364 2445.2627 3489339
-1394.3916 655.59064 2452.9214 3291960
-1368.6383 650.65356 2434.4492 3423546
-1359.1222 653.41144 2444.7678 3555132
-1335.6195 649.43134 2429.8762 3686718
-1311.973 645.2887 2414.3765 3620925
-1296.7656 645.2486 2414.2263 3686718
-1283.9712 646.42242 2418.6182 3620925
-1272.0883 648.08862 2424.8523 3620925
-1260.4786 649.93604 2431.7644 3291960
-1243.4193 648.98425 2428.2034 3226167
-1236.1881 653.20209 2443.9846 3357753
-1212.8405 648.90295 2427.8992 3489339
-1193.1879 646.4967 2418.896 3555132
-1175.1012 644.88782 2412.8765 3620924
-1162.4596 646.26422 2418.0264 4081476
-1143.8203 644.29871 2410.6721 3423546
-1133.8638 647.23676 2421.665 2765873
-1118.6914 647.23676 2421.665 2897459
-1114.8728 653.896 2446.5811 3291960
-1099.5442 653.896 2446.5811 3357753
-1084.804 654.25085 2447.9087 3423546
-1072.9578 656.38635 2455.8987 3489339
-1055.4292 655.05707 2450.9253 3291960
-1041.5522 655.98853 2454.4102 3160374
-1035.407 661.89044 2476.4924 3291960
-1025.833 665.7467 2490.9209 3621694
-1021.4305 673.13013 2518.5461 3358266
-1022.7009 684.54236 2561.2456 3424059
-982.87915 668.37518 2500.7554 4081989
-960.58405 663.79553 2483.6206 4016196
-955.61865 671.23785 2511.4663 3687488
-948.83752 677.63257 2535.3923 4081989
-936.01465 679.85669 2543.7139 3950403
-931.22784 688.09583 2574.541 3358522
-907.84869 682.64514 2554.147 3753281
-895.00476 685.06281 2563.1929 4016196
-879.33459 685.36603 2564.3274 3621694
-863.60437 685.63287 2565.3257 3687488
-843.5722 682.42957 2553.3406 4410954
-841.85736 694.20721 2597.4072 3818817
-813.06647 683.68182 2558.0259 3424059
-786.01215 674.22266 2522.634 3489083
-759.8924 665.19348 2488.8508 4147526
-745.8432 666.57361 2494.0146 3423803
-730.18341 666.54254 2493.8984 3752511
-718.01605 669.76782 2505.9661 4739662
-706.19061 673.46344 2519.7935 4673869
-689.93201 673.00372 2518.0732 4542283
-673.96869 672.81732 2517.3757 3884610
-666.06732 680.86279 2547.4785 4081989
-647.25165 677.87286 2536.2915 4608590
-619.72729 665.3822 2489.5569 4476749
-604.82373 666.14679 2492.4177 4673873
-589.20795 666.14679 2492.4177 5002837
-569.31512 661.17957 2473.8328 4476750
-565.07196 674.6178 2524.1125 3753027
-547.23914 672.13867 2514.8367 4278857
-536.32599 678.26355 2537.7532 4278857
-520.42621 678.26355 2537.7532 4147528
-503.57651 676.98657 2532.9753 3686721
-484.74533 672.87598 2517.5952 3686718
-464.81836 666.91663 2495.2981 3884097
-447.87375 664.9704 2488.0164 4542026
-433.70502 667.15399 2496.1863 3423546
-419.29324 669.11304 2503.5161 3818304
-403.42465 668.80914 2502.3792 3752511
-385.84641 665.5318 2490.1167 3752511
-365.61218 657.20404 2458.958 4015940
-350.37387 657.51898 2460.1365 3949634
-336.18341 659.9198 2469.1191 3621181
-319.07669 656.55157 2456.5168 3948863
-302.05002 653.01495 2443.2844 3751484
-286.44632 652.34143 2440.7644 3621181
-270.98358 651.93097 2439.2288 3423546
-254.40614 648.62952 2426.8762 3489339
-239.20102 648.62952 2426.8762 3489339
-222.96408 645.64166 2415.697 3620925
-207.82898 645.64166 2415.697 3884097
-192.83757 646.12311 2417.4983 4147526
-176.41725 641.49078 2400.1663 4213575
-159.71083 634.85791 2375.3489 3752510
-146.26157 641.13959 2398.8521 3818817
-131.28508 641.3988 2399.8223 3949890
-116.71172 643.94946 2409.3655 3818304
-101.61631 643.94946 2409.3655 3489596
-86.313736 642.40771 2403.5969 2831665
-71.878822 648.0368 2424.6584 3028788
-56.941959 650.94464 2435.5383 3160631
-40.909355 638.86981 2390.3599 3291960
-25.884565 637.67639 2385.8945 3357753
-10.901833 635.67273 2378.3977 3160374
4.0253878 639.77655 2393.7524 3357753
19.089216 642.00391 2402.0862 3620925
34.261959 644.31561 2410.7356 4147269
49.365967 644.31561 2410.7356 3620925
63.857391 638.19348 2387.8293 3357753
79.947868 647.34308 2422.063 3620925
95.666107 651.04016 2435.8958 3554876
111.48555 654.3139 2448.1445 3094325
125.69438 648.48633 2426.3403 2962995
140.89615 648.48633 2426.3403 3094324
155.45335 645.80853 2416.3213 3028788
170.92004 647.04901 2420.9626 3094324
187.32843 651.36169 2437.0986 3291703
203.74774 655.05939 2450.9338 3489339
219.57271 656.46191 2456.1814 3291960
235.27948 657.35046 2459.5061 3028788
250.6722 657.30627 2459.3406 3028788
266.72131 658.88879 2465.2617 3291960
282.26056 659.10742 2466.0796 3160374
297.72314 659.13354 2466.1775 3291960
317.66776 668.59039 2501.5605 2897459
333.0802 668.06769 2499.605 2634030
351.00504 672.40485 2515.8325 2502700
363.75052 666.87366 2495.1375 2568493
379.4826 667.04822 2495.7905 2634287
395.22159 667.22058 2496.4353 2831409
411.84158 668.81042 2502.384 2831665
426.77884 667.65125 2498.0469 2831409
440.56079 664.83075 2487.4939 2699823
457.9834 667.50922 2497.5154 2502445
474.1348 668.21906 2500.1711 2634030
488.61557 666.60437 2494.1299 2502701
503.03885 665.01367 2488.1782 2896432
519.78741 666.50031 2493.7405 2633260
535.4115 666.50031 2493.7405 2699053
549.1322 664.19818 2485.127 2830639
566.11292 665.85736 2491.3347 3028018
578.16431 661.78522 2476.0986 2830639
592.89331 660.91058 2472.8264 2962225
606.37189 658.72229 2464.6387 3093811
621.33667 658.21704 2462.7483 2830639
636.0531 657.47955 2459.989 2830896
648.60626 654.59375 2449.1914 2896175
661.1123 651.7948 2438.7192 3422519
678.31946 653.65253 2445.6699 3620926
696.60938 656.44855 2456.1313 3358009
712.54492 656.95294 2458.0186 3423803
729.23315 658.11536 2462.3677 3423546
743.75055 657.31104 2459.3584 3291961
761.31403 659.17676 2466.3391 3555132
776.76642 659.17676 2466.3391 3818304
790.49982 657.74646 2460.9875 4081476
804.4931 656.58295 2456.6343 4081476
818.03131 655.09869 2451.0811 3818304
831.97833 653.99066 2446.9351 3949890
850.68884 656.59924 2456.6951 3949890
866.25342 656.7301 2457.1848 3949890
886.16156 660.09186 2469.7629 3555132
912.28546 667.88879 2498.9355 3357753
926.1994 666.63452 2494.2427 3357753
939.91162 665.27911 2489.1714 4410441
948.92633 660.69727 2472.0281 3949890
964.41437 660.69727 2472.0281 3752511
984.41492 663.73975 2483.4119 3818304
1003.7603 666.25275 2492.8142 3884097
1019.3785 666.25275 2492.8142 4015683
1034.6582 666.03479 2491.9988 3752511
1048.8153 665.11145 2488.5439 2962995
1061.7078 663.42493 2482.2339 3489339
1075.4991 662.34064 2478.177 3818560
1086.6328 659.67389 2468.199 3818304
1103.181 660.32275 2470.627 3949890
1117.2875 659.51245 2467.5952 3620924
1130.1781 658.01636 2461.9973 3621180
1158.2095 665.2572 2489.0894 4015683
1168.6852 662.35577 2478.2336 3818306
1188.4315 664.71588 2487.064 3620927
1202.728 664.0061 2484.4082 3752514
1223.1877 666.67352 2494.3884 3686719
1238.1709 666.32642 2493.0898 3291959
1251.0175 664.85242 2487.575 3423546
1263.7015 663.32953 2481.877 3620925
1267.2067 657.08398 2458.509 3555132
1285.166 658.39349 2463.4084 3555132
1305.9565 661.10504 2473.554 3752511
1322.437 661.5968 2475.3938 3357753
1330.1886 657.7608 2461.0413 2831665
1341.9343 655.96515 2454.3228 2962738
1356.2687 655.46118 2452.4373 3225397
1368.4961 653.96173 2446.8269 3422776
1383.8263 653.96173 2446.8269 3356983
1394.8186 651.93427 2439.241 3488569
1415.9801 654.65222 2449.4104 3356983
1439.3187 658.30774 2463.0876 3159604
1450.2556 656.27356 2455.4768 3028275
1456.7144 652.27698 2440.5232 3028018
1466.8446 649.9903 2431.9675 3094068
1494.1147 655.26764 2451.7129 3291190
1516.6373 658.37659 2463.3452 3554362
1527.8746 656.5733 2456.5981 3620155
1539.6461 655.03326 2450.8359 3620155
1546.3783 651.40082 2437.2451 3554362
1596.6189 665.98785 2491.8232 4014913
1612.231 665.98785 2491.8232 3817790
1601.1777 655.07849 2451.0054 3949120
1617.8025 655.59253 2452.9285 3554362
1662.592 667.40283 2497.1174 2633260
1658.106 659.39697 2467.1631 2896432
1657.5869 653.10217 2443.6106 3225397
1670.5242 652.17578 2440.1448 3291190
1687.323 652.76019 2442.3313 3225397
1702.625 652.76019 2442.3313 3159604
1717.8624 652.73572 2442.2397 3225397
1745.2511 657.2879 2459.272 3291190
1758.8766 656.62244 2456.782 3356983
1762.9874 652.44733 2441.1606 3291190
1772.5565 650.34662 2433.3008 3356983
1790.9064 651.47601 2437.5264 3356983
1807.5939 651.98657 2439.4368 3291190
1824.1829 652.45343 2441.1833 3159604
1838.3197 652.04272 2439.6467 3159604
1862.5758 655.19843 2451.4541 3028018
1881.5353 656.45453 2456.1538 3225653
1896.2656 656.22675 2455.3015 3291190
1905.2521 654.03082 2447.0854 3290677
1927.2178 656.28998 2455.5381 3290677
1954.3507 660.25897 2470.3884 3422263
1965.5573 658.82733 2465.0317 3422263
1989.3115 661.59106 2475.3723 3356470
2007.7336 662.55237 2478.9692 3422263
2035.6462 666.60681 2494.1389 3356470
2051.2727 666.60681 2494.1389 3685435
2067.2744 666.72784 2494.5918 3619642
2088.3667 668.47644 2501.1343 3488056
2104.1301 668.50598 2501.2449 3356470
2119.8013 668.50598 2501.2449 3290677
2131.3562 667.21753 2496.4238 3224884
2152.4727 668.91913 2502.7905 3290677
2172.9978 670.4137 2508.3826 2961712
2184.7781 669.20825 2503.8723 2698540
2194.4207 667.36987 2496.9939 2830126
2208.3867 666.86298 2495.0974 2961712
2223.1499 666.60236 2494.1223 3027505
2237.0164 666.07825 2492.1614 2961712
2252.6304 666.07825 2492.1614 3159091
2283.4626 670.54712 2508.8818 3488056
2299.4353 670.62115 2509.1587 3948607
2307.6194 668.43799 2500.9905 3554362
2311.3242 664.99561 2488.1106 3554362
2335.7056 667.50836 2497.5122 3751741
2338.4255 663.83844 2483.781 4014913
2332.7107 657.83832 2461.3313 3949120
2344.3064 656.76666 2457.3215 3685948
2355.8792 655.70258 2453.3403 3620155
2373.3015 656.2699 2455.4629 3554362
2392.4424 657.30194 2459.3245 3422776
2414.1096 659.01056 2465.7173 3225396
2418.3303 655.96503 2454.3223 3093814
2420.1895 652.32147 2440.6897 2962483
2434.3604 652.0213 2439.5667 2962227
