# .PCD v0.7 - Point Cloud Data file format
VERSION 0.7
FIELDS x y z rgb
SIZE 4 4 4 4
TYPE F F F U
COUNT 1 1 1 1
WIDTH 1281
HEIGHT 1
VIEWPOINT 0 0 0 1 0 0 0
POINTS 1281
DATA ascii
nan nan nan 16777215
nan nan nan 16777215
-526.3233 640.9588 1689.1865 2765102
-509.27185 632.92023 1668.0016 2501674
-498.18573 632.11377 1665.8763 2501930
-487.46887 631.7514 1664.9213 2501931
-473.36243 626.88422 1652.0944 2238758
-459.93777 622.7226 1641.1267 2435881
-449.65564 622.7226 1641.1267 2896432
-439.40628 622.7691 1641.2493 2633003
-435.43713 631.93201 1665.3973 2699053
-425.0029 631.93201 1665.3973 2633260
-412.26044 628.41357 1656.1249 3225140
-404.27734 632.15546 1665.9862 2698796
-396.87445 637.02704 1678.8248 2962225
-385.59326 635.76929 1675.5101 2961968
-370.45435 627.90247 1654.7778 2831151
-359.30899 626.54639 1651.204 3160630
-351.78647 631.6145 1664.5607 3160631
-340.81183 630.60492 1661.8999 2962995
-328.41577 626.81873 1651.9218 3357753
-314.32867 619.45361 1632.5116 2831409
-300.72964 612.58722 1614.4159 3160374
-287.35645 605.71881 1596.3149 3423546
-277.71149 606.49731 1598.3666 3094325
-268.98956 609.42529 1606.0829 2502700
-255.87392 602.23944 1587.1453 2502701
-248.82613 609.33167 1605.8362 3292217
-239.81107 612.00104 1612.8711 3226424
-230.60706 614.40192 1619.1984 3358522
-219.64671 612.12903 1613.2084 3687231
-208.94954 610.40564 1608.6666 3753024
-196.02654 601.67584 1585.6599 3555645
-185.74754 600.56244 1582.7258 3555645
-174.92625 597.47131 1574.5793 3555645
-165.26369 598.20483 1576.5126 3226680
-155.68228 599.34418 1579.5151 3292473
-148.47772 610.40961 1608.677 3292473
-138.25891 609.79236 1607.0504 3161144
-128.19025 609.79236 1607.0504 3028532
-118.11265 609.74628 1606.9288 2502444
-107.48772 606.60272 1598.6444 3884097
-98.115257 610.60779 1609.1992 3949890
-87.364304 605.96875 1596.9735 3555132
-78.168022 612.30786 1613.6796 2897202
-68.303017 614.51379 1619.4933 3291960
-58.1129 614.05432 1618.2822 3884097
-48.008217 614.49408 1619.4412 3555132
-38.097569 618.3186 1629.5205 3884097
-28.025543 621.3656 1637.5505 3949890
-17.907175 626.31091 1650.5834 3160374
-7.5284414 623.22168 1642.442 3357753
2.7809973 627.51569 1653.7585 3291960
13.142308 627.51569 1653.7585 2634287
23.397829 624.69128 1646.3151 2961968
33.712505 624.69128 1646.3151 2634030
44.125854 626.09137 1650.0049 2568237
54.46365 626.09137 1650.0049 2239272
64.517982 623.35272 1642.7874 2831152
74.421204 620.10846 1634.2374 3226167
84.541054 619.23572 1631.9374 3028788
94.549553 617.82367 1628.2162 2370858
105.01276 619.36853 1632.2875 2305065
115.89262 622.8786 1641.5378 2568237
125.98438 621.92596 1639.0272 2568237
135.94295 620.50885 1635.2926 2305065
146.9716 623.83252 1644.0519 2239272
157.6606 625.37354 1648.1132 2370858
168.53394 627.41138 1653.4836 2831409
179.50417 629.55298 1659.1277 2634030
187.97189 623.16394 1642.2898 2239528
199.59254 627.34802 1653.3167 2239528
210.73212 629.68182 1659.4672 2239528
220.98509 629.27148 1658.3857 2567723
232.19156 631.49121 1664.2356 2633773
241.76009 629.2569 1658.3472 2436394
252.2607 629.53271 1659.0742 2502187
262.1539 628.33093 1655.9071 2041893
271.69431 626.40723 1650.8373 2107686
282.8345 628.17786 1655.5035 2436651
291.30063 624.09412 1644.7412 2502444
301.69183 624.27289 1645.2124 2568237
310.82184 621.91638 1639.002 1844514
319.20615 618.26617 1629.3822 2568237
328.13083 615.85645 1623.0317 2897202
340.0889 619.11371 1631.6158 2897202
347.49368 614.13373 1618.4917 3226167
358.29959 615.27667 1621.5038 2962995
368.45883 615.27667 1621.5038 2305065
379.46643 616.6554 1625.1372 2305321
391.25577 619.19916 1631.8411 2962995
401.94635 619.91876 1633.7375 2831666
413.23587 621.50342 1637.9138 2568237
423.54474 621.5722 1638.095 2568237
434.8302 623.03687 1641.9551 2699823
445.25433 623.22845 1642.4598 2765616
453.08212 619.85919 1633.5804 2502444
462.97397 619.40021 1632.3708 2831409
473.63068 619.96222 1633.8521 3226167
482.86362 618.67639 1630.4633 2305065
493.1666 618.78625 1630.7529 2239529
502.30612 617.46155 1627.2617 3094838
514.16907 619.4707 1632.5566 2371115
526.10608 621.48901 1637.8757 2502701
533.1073 617.711 1627.9192 3226167
539.47034 613.34924 1616.4242 2765873
554.4704 618.78711 1630.7551 3160374
567.88733 622.2934 1639.9956 3357754
580.72559 625.05219 1647.2662 3291963
586.61285 620.36383 1634.9104 3489341
597.65857 621.19788 1637.1085 3226169
608.38141 621.67395 1638.3632 3291963
615.55536 618.56787 1630.1774 2897461
625.43866 618.24146 1629.317 3291963
635.64685 618.24146 1629.317 3423548
645.17352 617.58911 1627.5979 3160120
660.28235 622.21729 1639.7952 3028277
670.34283 622.01935 1639.2734 3422778
681.27747 622.62628 1640.8729 3159606
691.59711 622.6615 1640.9657 3093813
702.42523 623.14673 1642.2445 3159607
709.87677 620.66571 1635.7059 2830641
720.125 620.66571 1635.7059 3028020
735.30353 624.85541 1646.7476 3028020
755.51123 633.14392 1668.5911 3685950
754.67969 623.81512 1644.006 3620925
772.71729 630.12463 1660.6342 3686718
778.61908 626.50171 1651.0863 3686718
789.52258 626.94562 1652.2561 3357753
799.15985 626.38544 1650.7798 3423546
813.20282 629.24872 1658.3257 3620925
824.07703 629.61865 1659.3008 3884097
824.85059 622.35846 1640.1671 3949890
834.98639 622.25385 1639.8915 3555132
841.79639 619.70343 1633.17 3949890
852.02863 619.70343 1633.17 4147269
856.93762 615.8775 1623.0872 4147269
867.18677 615.93439 1623.2371 3950146
866.05884 608.00275 1602.3341 3884097
874.46948 606.87268 1599.3557 3423546
871.89728 598.23248 1576.5854 2634030
883.1828 599.1875 1579.1023 3489339
894.07336 599.85645 1580.8652 3292217
912.02338 605.19519 1594.9349 2699823
924.57867 606.87714 1599.3676 2962995
936.59967 608.17615 1602.791 3292216
949.27484 609.86792 1607.2494 3358010
964.0188 612.83923 1615.0801 3028788
975.0376 613.40533 1616.5719 3291960
990.94641 617.00446 1626.0571 3423546
1001.5977 617.29016 1626.8101 3357753
1012.8193 617.91797 1628.4647 3094581
1025.1437 619.19946 1631.8418 3291960
1036.0839 619.62775 1632.9706 3160374
1049.3749 621.43982 1637.7462 2962995
1060.5436 621.97223 1639.1493 2897459
1070.8135 621.97223 1639.1493 2963252
1079.1904 620.88336 1636.2795 3028788
1089.2684 620.78424 1636.0184 2962995
1098.3192 620.10712 1634.2339 3028788
1108.0082 619.79944 1633.423 2634030
1119.3834 620.43201 1635.0901 1844514
1117.4958 613.7688 1617.5298 3094581
1127.6302 613.7688 1617.5298 3358010
1141.3201 615.68677 1622.5845 2897202
1151.486 615.68677 1622.5845 3029045
1160.262 614.95001 1620.6428 3291960
1170.4158 614.95001 1620.6428 3489339
1178.1813 613.70599 1617.3643 3489339
1188.5569 613.83105 1617.694 3489340
1201.2767 615.1546 1621.182 3489340
1212.9933 615.94641 1623.2688 3555391
1225.3228 617.03363 1626.1342 3686720
1227.8644 613.2149 1616.0701 4015685
1231.2754 609.8891 1607.3053 4213063
1235.4685 607.00159 1599.6956 3949891
1253.0532 610.68707 1609.4083 3620669
1268.3955 613.22955 1616.1088 3357497
1282.4012 615.0907 1621.0135 3488570
1298.5756 617.95459 1628.5612 2896432
1314.301 620.56189 1635.4324 2501674
1334.7916 625.36133 1648.0809 2699053
1355.9014 630.37494 1661.2937 2633260
1367.8831 631.10071 1663.2065 2633260
1377.8257 630.88196 1662.63 2830639
1389.1685 631.30267 1663.7388 2830639
1406.4559 634.39862 1671.8978 2896432
1415.3749 633.7019 1670.0618 2962482
1418.0314 630.23218 1660.9176 3093811
1418.7958 625.97827 1649.7068 3159604
1429.1318 625.97827 1649.7068 3159861
1448.249 629.797 1659.7706 2962225
1440.8696 622.12091 1639.541 2501930
1449.0032 621.20398 1637.1246 2633260
1463.9655 623.20703 1642.4033 2830896
1478.4218 624.96814 1647.0447 3093811
1486.7745 624.14258 1644.869 3028018
1497.0802 624.14258 1644.869 2962481
1506.4211 623.74316 1643.8164 2633260
1516.3361 623.58521 1643.4001 2764847
1533.3551 626.33124 1650.637 3028020
1540.6182 625.08209 1647.345 3225656
1558.8412 628.26685 1655.738 3028020
1560.3506 624.71783 1646.385 2830641
1555.725 618.77533 1630.724 2633262
1549.1472 612.13885 1613.2344 3291192
1569.0134 615.97003 1623.3311 3685950
1587.1735 619.08636 1631.5438 3685950
1602.5691 621.09137 1636.8279 3554364
1617.8361 623.02142 1641.9143 3554364
1625.7599 622.11707 1639.5309 3554364
1630.1093 619.86487 1633.5955 3554364
1635.5626 618.05792 1628.8335 3422778
1654.5662 621.36212 1637.5414 3225399
1665.0096 621.43073 1637.7222 3225399
1678.0077 622.44604 1640.3979 3291192
nan nan nan 16777215
nan nan nan 16777215
nan nan nan 16777215
nan nan nan 16777215
nan nan nan 16777215
nan nan nan 16777215
nan nan nan 16777215
nan nan nan 16777215
nan nan nan 16777215
nan nan nan 16777215
nan nan nan 16777215
nan nan nan 16777215
nan nan nan 16777215
nan nan nan 16777215
-1391.7876 604.49292 1567.3418 3028788
-1403.2926 613.82074 1591.5271 3291960
-1393.5612 613.92651 1591.8013 3291960
-1382.2966 613.35339 1590.3154 3423546
-1369.0881 611.90326 1586.5554 3160374
-1362.1801 613.26843 1590.095 2962994
-1352.5859 613.43549 1590.5281 3423546
-1345.5612 614.77887 1594.0114 3160374
-1336.0697 615.00696 1594.6027 3028789
-1331.994 617.75018 1601.7155 3160376
-1316.8873 615.38031 1595.5708 3226169
-1306.8905 615.38031 1595.5708 3226169
-1266.229 600.82977 1557.8439 3160377
-1271.8973 608.20758 1576.9733 3226169
-1268.879 611.51459 1585.5476 3357755
-1261.3591 612.68719 1588.588 3620927
-1242.3687 608.26245 1577.1155 3555134
-1230.9514 607.50433 1575.1498 3884099
-1221.335 607.62994 1575.4753 3686720
-1207.8656 605.82495 1570.7955 3226169
-1200.2406 606.94586 1573.7017 3489341
-1183.843 603.6123 1565.0585 2962997
-1177.8213 605.55774 1570.1027 2962740
-1167.9841 605.55774 1570.1027 3094583
-1162.744 607.96143 1576.335 2897461
-1151.2389 607.10242 1574.1077 2765618
-1144.0323 608.51508 1577.7704 2699825
-1136.4471 609.74915 1580.9701 2897204
-1129.3239 611.25488 1584.8743 3094840
-1117.7561 610.36035 1582.5549 2962997
-1100.7485 606.45288 1572.4235 2831411
-1090.8969 606.45288 1572.4235 3160376
-1082.2551 607.13171 1574.1837 3226168
-1072.3925 607.13171 1574.1837 3094582
-1068.6465 610.62695 1583.2461 3160376
-1061.5491 612.25452 1587.4662 3489338
-1052.5188 612.7876 1588.8484 3357753
-1043.6992 613.45483 1590.5784 3226167
-1024.9524 608.24365 1577.0667 3291960
-1010.2785 605.37158 1569.6199 3291960
-1009.5161 610.8609 1583.8528 2831409
-994.27142 607.60895 1575.4211 2897202
-995.57147 614.50391 1593.2983 2962995
-988.67877 616.4303 1598.2932 2962995
-979.14392 616.73206 1599.0756 2831409
-972.07794 618.61108 1603.9475 2897459
-960.80432 617.82373 1601.9061 3160374
-950.76788 617.82373 1601.9061 3160374
-946.13495 621.3725 1611.1074 3094581
-931.25061 618.19257 1602.8624 2568237
-923.69867 619.86383 1607.1958 2305065
-915.59894 621.20032 1610.6609 2305065
-900.12817 617.50989 1601.0924 2699823
-897.28668 622.49786 1614.0253 2107686
-897.15558 629.5014 1632.1842 1647134
-887.39075 629.8288 1633.0331 1844514
-877.25641 629.89844 1633.2137 2239272
-867.61359 630.32703 1634.3248 2239272
-858.01727 630.79993 1635.551 1976100
-845.50812 629.11682 1631.1871 2041893
-835.56018 629.32166 1631.7183 2173479
-826.37866 630.11597 1633.7777 2173479
-802.14008 619.30511 1605.7472 2634286
-784.89374 613.68677 1591.1797 3160374
-783.20709 620.24597 1608.1866 2897202
-771.38702 618.84662 1604.5583 2962995
-759.52917 617.37964 1600.7546 2831409
-747.6731 615.87482 1596.8529 2765616
-736.78876 615.1405 1594.949 2962995
-725.25201 613.83374 1591.5608 2962995
-720.31915 618.15796 1602.7726 2370858
-711.99237 619.65051 1606.6427 3160374
-689.25134 608.4613 1577.631 3423546
-679.01935 608.1499 1576.8236 3291960
-669.14001 608.1499 1576.8236 3423546
-656.0423 605.18097 1569.1257 3423546
-645.30426 604.3316 1566.9235 3291960
-634.27704 603.18097 1563.9401 3555132
-624.47852 603.18097 1563.9401 3620925
-613.69885 602.21826 1561.444 3094581
-604.3844 602.68549 1562.6553 2831409
-599.76892 607.93091 1576.2557 3291960
-588.70752 606.70898 1573.0875 3423546
-582.78918 610.836 1583.7882 2897202
-572.86627 610.836 1583.7882 2831409
-564.98431 613.0506 1589.5303 2502444
-556.0011 614.12823 1592.3245 2305065
-546.56921 614.74078 1593.9125 2371115
-529.57062 606.70709 1573.0828 2371114
nan nan nan 16777215
nan nan nan 16777215
nan nan nan 16777215
-489.85754 606.34851 1572.153 2764846
-495.2731 625.63208 1622.1519 2698797
-480.51013 619.70007 1606.7711 2764846
-475.97321 626.9845 1625.6584 3159604
-467.4306 629.19568 1631.3915 3620412
-455.99823 627.52887 1627.0698 3817534
-445.80417 627.52887 1627.0698 3093811
-432.04126 622.3877 1613.7397 2501675
-424.39459 626.02222 1623.1633 2173479
-415.54465 628.01672 1628.3347 2041893
-405.18356 627.77026 1627.6957 3358010
-397.159 631.22461 1636.6522 3620925
-387.60574 632.3681 1639.6171 3489339
-375.98285 630.10535 1633.7501 3686718
-364.16998 627.38861 1626.7062 2831409
-354.58307 628.46075 1629.4861 3094581
-340.5752 621.52844 1611.5118 3291960
-330.47858 621.52844 1611.5118 3291960
-318.26566 617.42297 1600.8671 3226167
-307.67856 616.30695 1597.9733 3028788
-295.92862 612.70819 1588.6425 3094838
-281.78101 603.7218 1565.3424 2699823
-273.48962 607.08698 1574.0676 2962995
-264.18011 608.35938 1577.3667 3226937
-254.73909 609.41589 1580.1062 3555645
-242.56131 603.74603 1565.4053 3292730
-232.88219 604.07971 1566.2704 3292473
-224.8631 608.93817 1578.8674 3292473
-214.38541 607.27936 1574.5664 2568750
-204.52025 607.27936 1574.5664 2371371
-194.42824 606.57153 1572.7312 2700336
-184.71931 607.04718 1573.9645 3226680
-174.49142 605.77478 1570.6653 3555645
-164.75171 606.1463 1571.6287 3029301
-154.83893 605.88788 1570.9586 2700080
-145.7312 608.95837 1578.9199 3094582
-135.93639 609.396 1580.0546 3291960
-125.8243 608.36835 1577.3899 3094581
-115.34544 605.24078 1569.2809 2699823
-107.14695 614.61108 1593.5762 3818304
-96.92762 613.12402 1589.7207 3357753
-86.967529 613.12402 1589.7207 2568237
-77.361595 615.94379 1597.0319 2897202
-67.35569 615.94379 1597.0319 2370858
-57.288448 615.28497 1595.3235 2568237
-47.692989 620.48547 1608.8076 3949890
-37.791241 623.42078 1616.4182 4213062
-27.682508 623.84058 1617.5067 4410698
-17.334949 616.255 1597.8387 3357496
-7.4338264 625.49652 1621.8003 3291960
2.7037277 620.10034 1607.8091 3423290
12.77715 620.10034 1607.8091 3752511
22.976181 623.50903 1616.6471 3160374
33.029945 622.09583 1612.9829 3291960
43.136921 622.1123 1613.0255 3620924
53.525497 625.41278 1621.5831 3620924
63.996307 628.46777 1629.5042 3555132
74.002144 626.74414 1625.0352 3686717
84.194702 626.82764 1625.2517 2962995
94.064621 624.75012 1619.8651 2897202
104.21357 624.75012 1619.8651 2765616
114.16952 623.69574 1617.1312 2634030
124.20833 623.22906 1615.9211 2107686
135.36679 628.02728 1628.3621 2239272
144.7708 624.58356 1619.4332 1910307
154.25305 621.90656 1612.4921 2041893
165.25333 625.30267 1621.2976 2502444
176.53453 629.30688 1631.6798 2502700
186.82462 629.53296 1632.2661 2633517
195.80098 625.53857 1621.9093 1844000
205.96274 625.53857 1621.9093 1777695
217.9847 630.92267 1635.8693 2830639
227.62883 629.24994 1631.5321 2896432
237.76198 629.01477 1630.9224 2501674
248.21269 629.60443 1632.4513 2501674
257.8779 628.23376 1628.8975 2435625
267.72433 627.39221 1626.7156 2239015
276.37439 623.91156 1617.6908 2107686
285.4502 621.60437 1611.7086 2568237
296.39774 623.39142 1616.342 3226167
306.64984 623.64606 1617.0024 2700079
315.37262 620.87372 1609.8141 2699823
324.94702 619.89777 1607.2837 2765616
333.81833 617.6795 1601.5322 2634030
344.15335 618.22003 1602.9337 2568237
350.77191 612.24316 1587.4368 2305065
359.44992 610.09143 1581.8577 2305065
374.06186 617.85651 1601.9911 2370858
383.85089 617.4577 1600.957 2897202
394.38596 618.24866 1603.0078 2831409
405.49524 619.87817 1607.2329 2239272
413.63782 617.00336 1599.7791 2568237
423.66092 617.00336 1599.7791 2305065
435.28711 619.28406 1605.6925 2502444
441.34177 613.71411 1591.2506 2634030
454.7782 618.42841 1603.4739 2173478
463.83789 617.11584 1600.0707 2172453
473.86282 617.11584 1600.0707 2106662
485.36765 619.00311 1604.9641 2106917
490.38959 612.71387 1588.6572 2106661
499.32574 611.46814 1585.4272 1843746
507.57336 609.44427 1580.1797 2238247
513.67395 604.96924 1568.5767 2633260
522.45374 603.7583 1565.437 2765102
532.62213 604.16724 1566.4972 2634030
545.49664 607.57532 1575.3339 2765616
557.55988 609.97479 1581.5552 2699309
569.21722 611.85413 1586.4281 3093040
582.18427 615.05273 1594.7213 3290933
595.48682 618.49176 1603.6382 3488568
604.26996 617.2005 1600.2903 3159347
612.94293 615.84076 1596.7646 3028018
621.80597 614.71265 1593.8396 2962738
625.67383 608.76001 1578.4054 2699309
641.64197 614.58252 1593.5022 2699054
651.62573 614.58252 1593.5022 2896434
662.19537 615.12671 1594.9132 3291192
679.61047 621.91907 1612.5247 2764848
687.38153 619.81641 1607.0728 2962227
694.94849 617.59302 1601.308 2962227
704.98114 617.59302 1601.308 3028277
722.74286 624.26898 1618.6174 3356985
733.2583 624.58777 1619.4441 3620157
744.42383 625.44409 1621.6644 3555132
750.50757 622.06531 1612.9037 3555132
746.94806 610.88947 1583.9269 3555132
756.98047 610.97717 1584.1542 3291960
775.6322 617.92938 1602.1801 3028788
792.67883 623.44159 1616.4722 3028274
804.18884 624.51501 1619.2555 2765360
808.93262 620.37268 1608.5151 3357753
804.35583 609.27234 1579.7339 3094837
819.16016 612.94391 1589.2535 2765872
820.97131 606.92175 1573.6392 2568494
830.05579 606.35571 1572.1716 2239785
842.06757 607.91632 1576.2179 2700080
855.08142 610.15564 1582.0242 3028788
855.88318 603.72949 1565.3623 3291960
864.6272 602.98785 1563.4393 2502957
874.98737 603.37732 1564.4491 3290933
884.78906 603.37732 1564.4491 3225141
892.79913 602.16882 1561.3158 2830639
910.00519 607.12177 1574.1578 2830383
923.94946 609.81573 1581.1428 3093811
926.46582 604.98999 1568.6305 3093554
938.42218 606.3653 1572.1964 2830640
952.26318 608.91711 1578.8129 3554875
966.15857 611.45087 1585.3824 3489339
971.68536 608.69073 1578.226 3094581
990.52692 614.24298 1592.6218 2897202
1002.6551 615.56293 1596.0442 3028788
1011.6341 614.94244 1594.4354 3160374
1021.6237 614.94244 1594.4354 3028788
1037.7103 618.57678 1603.8586 2962995
1046.0369 617.56012 1601.2227 2962995
1056.3011 617.6958 1601.5745 2831409
1068.5326 618.96857 1604.8744 2765616
1071.9336 615.14996 1594.9736 2962995
1081.7758 615.06427 1594.7513 2897202
1081.7955 609.44647 1580.1853 2436651
1090.9288 609.01819 1579.075 3028788
1093.2626 604.83594 1568.2311 3620925
1101.0386 603.71216 1565.3174 3028788
1133.7449 616.15723 1597.5851 3291960
1132.8329 610.27368 1582.3302 3752511
1145.8619 611.93738 1586.6439 3620925
1155.8027 611.93738 1586.6439 3555134
1165.9354 612.03809 1586.905 3555134
1176.2676 612.24091 1587.4309 3555134
1187.8353 613.07806 1589.6016 3686720
1196.3909 612.35956 1587.7384 3555134
1196.7449 607.48956 1575.1116 3752513
1209.6228 609.00476 1579.04 4147271
1227.9296 613.2063 1589.934 3949892
1239.4828 613.99487 1591.9786 3620927
1246.5067 612.54504 1588.2195 3817536
1256.4574 612.54504 1588.2195 3751230
1267.8307 613.23322 1590.0037 3356728
1282.9752 615.7204 1596.4526 2830384
1310.3496 623.99304 1617.902 2896432
1320.9301 624.20276 1618.4458 3291189
1321.7561 619.83502 1607.121 3093811
1345.1261 626.02533 1623.1713 2699053
1361.2583 628.77942 1630.3123 2764846
1375.5787 630.66187 1635.1931 2633516
1385.5646 630.54395 1634.8873 2699053
1395.4142 630.36621 1634.4265 2764846
1398.8231 627.30267 1626.4834 3159604
1405.5929 625.77985 1622.5348 3028018
1415.3981 625.62048 1622.1217 3159604
1421.9253 624.02484 1617.9845 3225397
1432.1956 624.08289 1618.1349 2962225
1439.5452 622.87628 1615.0065 3093811
1443.7393 620.33075 1608.4064 3356983
1448.9948 618.27338 1603.0719 3225397
1457.6025 617.66492 1601.4943 2962225
1467.9752 617.8075 1601.864 2830639
1481.2806 619.17407 1605.4072 2764846
1486.5585 617.18921 1600.261 2896434
1496.4459 617.13208 1600.1127 2962227
1507.7496 617.65582 1601.4707 3225399
1514.436 616.29364 1597.9388 3620157
1531.9635 619.33209 1605.817 3291192
1541.6292 619.17334 1605.4054 3356985
1540.1072 614.55243 1593.4242 3685950
1556.9309 617.2644 1600.4558 3620157
1567.9724 617.66388 1601.4917 3554364
1577.2332 617.36127 1600.707 3554364
1587.2621 617.36127 1600.707 3554364
1595.0006 616.47601 1598.4117 3554364
1600.3326 614.67749 1593.7485 3685950
1605.4133 612.80536 1588.8943 3685950
1630.35 618.48877 1603.6305 3488571
1641.5754 618.93304 1604.7823 3159606
nan nan nan 16777215
nan nan nan 16777215
nan nan nan 16777215
nan nan nan 16777215
nan nan nan 16777215
nan nan nan 16777215
nan nan nan 16777215
nan nan nan 16777215
nan nan nan 16777215
nan nan nan 16777215
nan nan nan 16777215
nan nan nan 16777215
nan nan nan 16777215
nan nan nan 16777215
-1361.6023 600.93872 1533.3491 3489339
-1375.1157 611.21527 1559.5707 3555134
-1370.5002 613.52332 1565.4598 3686720
-1364.6791 615.32098 1570.0468 3686720
-1352.9269 614.45105 1567.827 3620926
-1338.824 612.49304 1562.8311 3555132
-1325.822 611.01355 1559.0559 3357753
-1312.7488 609.479 1555.1404 3291959
-1305.6505 610.71625 1558.2974 3357752
-1295.3744 610.47455 1557.6807 3291961
-1289.4572 612.29895 1562.3358 3291961
-1274.0469 609.60907 1555.4723 3357754
-1262.2277 608.60919 1552.921 3226169
-1251.432 608.09119 1551.5992 3160376
-1241.7108 608.09119 1551.5992 3094583
-1235.1794 609.66565 1555.6166 2831411
-1219.2661 606.59753 1547.7881 3028790
-1210.1818 606.90497 1548.5725 3686720
-1199.4734 606.39636 1547.2747 3620927
-1191.6211 607.33508 1549.6699 2897204
-1178.9564 605.81641 1545.7949 2371117
-1177.7649 610.21692 1557.0232 2634031
-1165.9578 609.1449 1554.288 2699825
-1156.5339 609.31049 1554.7104 2897201
-1145.2045 608.46637 1552.5566 2831409
-1135.3781 608.41315 1552.4209 3028787
-1125.6516 608.41315 1552.4209 3226168
-1117.2328 609.1261 1554.24 3094583
-1109.2277 610.07904 1556.6715 3094583
-1099.5398 610.11523 1556.7638 2962997
-1081.2913 605.35931 1544.6287 3094583
-1073.0579 606.17517 1546.7103 3291962
-1065.1107 607.16901 1549.2463 3160376
-1052.7101 605.61914 1545.2915 3094584
-1043.0283 605.61914 1545.2915 3291961
-1042.9579 611.25201 1559.6644 3357753
-1033.186 611.25201 1559.6644 3226167
-1027.262 613.55017 1565.5283 3160374
-1015.9038 612.61566 1563.1438 2897459
-1003.9578 611.30511 1559.7998 2963252
-994.18518 611.30511 1559.7998 2765616
-990.93573 615.35583 1570.1357 2765616
-981.76874 615.77631 1571.2086 2831409
-971.92462 615.77631 1571.2086 2897202
-963.05591 616.40063 1572.8015 2831409
-956.00732 618.21484 1577.4307 3094581
-946.229 618.28333 1577.6053 3423546
-932.51221 615.75256 1571.1479 3423546
-926.17426 618.09222 1577.1178 2962995
-916.49963 618.23157 1577.4733 2436651
-904.87933 617.04712 1574.451 2305065
-895.01489 617.04712 1574.451 2699823
-893.51154 622.87561 1589.323 2568237
-884.41949 623.48578 1590.88 2370858
-875.86658 624.49426 1593.4532 2436651
-876.55652 632.1922 1613.0952 2436651
-864.74762 630.95013 1609.9259 2436655
-850.92487 628.19196 1602.8882 2699826
-834.86444 623.69623 1591.417 2502444
-826.34369 624.7926 1594.2145 2239272
-822.88477 629.78973 1606.9651 2305065
-816.05585 632.29962 1613.3693 2502701
-783.67261 614.82397 1568.7786 2963252
-778.88867 618.83215 1579.0059 2897202
-769.14514 618.95245 1579.3127 2831409
-757.71356 617.69965 1576.1162 2897202
-745.93762 616.12946 1572.1096 2831409
-733.95129 614.34106 1567.5464 2502700
-724.19409 614.39532 1567.6848 2699823
-713.35193 613.51794 1565.4462 2962995
-699.19611 609.72644 1555.7719 3028788
-678.00092 599.60248 1529.9395 3029045
-681.66815 611.49084 1560.2738 2634030
-669.27222 609.10608 1554.1888 2962995
-658.77399 608.4035 1552.3961 2699823
-645.21252 604.80847 1543.223 2699823
-637.26849 606.44977 1547.411 3160631
-627.6535 606.5271 1547.6084 3357753
-618.96564 607.51685 1550.1338 3423546
-606.53241 604.80341 1543.2103 3094581
-596.86377 604.80341 1543.2103 2897202
-593.57452 611.37427 1559.9763 3226167
-579.96191 607.354 1549.7183 3160374
-569.33197 606.37366 1547.2168 2897202
-562.97296 609.98694 1556.4364 2831666
-553.22137 609.98694 1556.4364 2568237
-544.75342 611.42755 1560.1123 2107686
-536.01392 612.61066 1563.131 2634030
-526.85742 613.35223 1565.0232 2765873
-503.595 597.38879 1524.2911 2699823
-495.80594 599.51825 1529.7246 3226424
-483.8273 596.56586 1522.1914 3225397
-474.96338 597.41248 1524.3516 2764589
-479.1879 615.09436 1569.4686 2831409
-468.52191 614.00299 1566.6837 2568237
-460.71213 616.68811 1573.5352 3884097
-450.85342 616.68811 1573.5352 4213319
-447.04788 625.15283 1595.1337 4147013
-434.94904 622.14209 1587.4514 4015683
-421.99124 617.73309 1576.2015 2436652
-411.69769 617.10632 1574.6022 1712928
-401.78415 617.03235 1574.4135 2305065
-400.81271 631.03296 1610.1372 4081476
-389.10034 628.40955 1603.4434 3752511
-381.14908 631.88239 1612.3046 3489339
-364.23352 620.27844 1582.696 3358009
-352.71414 617.47162 1575.5343 2371114
-342.84293 617.47162 1575.5343 2897202
-333.38913 618.24561 1577.5093 3226167
-321.81036 615.00604 1569.2432 3094581
-310.39044 611.87531 1561.2549 3160374
-298.82355 608.24176 1551.9835 3226167
-287.75552 605.41333 1544.7666 2963252
-277.92551 605.08337 1543.9246 3094581
-268.55997 605.77728 1545.6951 3818304
-259.86981 608.10345 1551.6306 3424059
-245.24034 596.17218 1521.1869 3555645
-234.09761 592.09497 1510.7836 3292473
-227.24069 598.97083 1528.3279 2831922
-220.85127 607.73822 1550.6986 2766129
-211.88992 609.90924 1556.2382 2831922
-201.27405 607.29767 1549.5745 3160887
-189.60207 601.07318 1533.6923 3424059
-179.993 601.07318 1533.6923 3489852
-172.41066 608.22296 1551.9355 3292217
-163.7301 612.12158 1561.8832 2831922
-153.35809 609.79016 1555.9344 3423802
-142.94276 606.95837 1548.7087 2962995
-133.40465 607.71008 1550.627 3226167
-123.45209 606.5437 1547.6508 3555132
-114.43726 610.17841 1556.925 3226167
-105.16033 612.96277 1564.0297 3160374
-96.111732 617.78705 1576.3392 3094581
-86.429932 619.18011 1579.8937 3160374
-77.07357 623.56653 1591.0859 3489339
-66.904655 621.70551 1586.3374 3423803
-56.558048 617.25598 1574.984 2897202
-46.720158 617.65082 1575.9916 2962995
-37.170319 623.08606 1589.86 3620925
-27.101538 620.61713 1583.5603 4015683
-17.138618 619.12073 1579.7421 3291704
-7.2915926 623.44269 1590.7699 3291703
2.6602101 619.97852 1581.9308 3028788
12.482506 615.58978 1570.7327 2831409
22.361065 616.62195 1573.3663 3555132
32.218693 616.62195 1573.3663 3884097
42.334576 620.40668 1583.0233 3686717
52.486221 623.17926 1590.0978 3555132
62.557819 624.26837 1592.8768 3423546
73.037453 628.56946 1603.8513 2699823
81.819893 618.9903 1579.4094 2502444
91.964661 620.67273 1583.7023 2962995
103.12211 628.19647 1602.8998 2699823
113.0741 627.69312 1601.6154 2897202
122.88854 626.5705 1598.7509 2831409
133.01851 627.10461 1600.1138 2370858
142.88759 626.42023 1598.3674 2370858
152.42288 624.45789 1593.3604 2699823
161.65991 621.59003 1586.0427 2568237
172.22174 623.85315 1591.8174 2239272
183.56068 628.52954 1603.7495 2568493
193.16077 627.07544 1600.0393 2765616
202.11629 623.77557 1591.6194 2304552
211.85028 623.07562 1589.8334 2502187
222.5529 625.15942 1595.1504 2765102
233.58002 627.93646 1602.2362 2304551
243.7117 628.17664 1602.8491 2238759
253.40184 627.30469 1600.6243 2634287
263.48257 627.42932 1600.9423 2634030
273.24225 626.80829 1599.3575 2765872
280.43909 620.56012 1583.4148 3423546
288.4415 616.46057 1572.9545 4081476
296.87997 613.53308 1565.4847 3226167
307.15195 614.46069 1567.8517 2634030
318.0394 616.52411 1573.1166 2765616
328.68518 618.00897 1576.9054 2634030
338.22894 617.39557 1575.3402 2634030
345.17331 612.2066 1562.1001 2765616
356.24176 614.41663 1567.7393 3094581
367.14136 616.22473 1572.3528 2830640
376.35995 615.19055 1569.714 2238759
386.52139 615.71094 1571.0417 2041636
395.42395 614.25 1567.314 2041636
406.57095 616.26184 1572.4474 2173479
416.42282 616.26184 1572.4474 2041893
424.96747 614.37195 1567.6252 2041894
433.65125 612.7641 1563.5226 2831670
443.4472 612.7641 1563.5226 2633262
455.56406 615.90192 1571.5289 2633263
465.41019 615.90192 1571.5289 2370090
476.3783 617.35596 1575.2391 2238503
486.89331 618.17566 1577.3307 1975588
494.82831 615.75232 1571.1473 1580316
503.86829 614.77161 1568.645 2238502
507.75311 607.65906 1550.4966 2962224
516.2019 606.17285 1546.7045 2699310
528.82812 609.55664 1555.3385 2502444
537.28235 608.09613 1551.6118 2831410
547.00366 608.09613 1551.6118 3028790
554.61987 605.79675 1545.7449 2897204
563.52124 604.95593 1543.5994 3094840
569.8833 601.46356 1534.6882 3291447
586.10376 608.31903 1552.1807 3028276
597.95197 610.48682 1557.7119 2633775
609.92828 612.71375 1563.3942 2502446
618.84351 611.84375 1561.1743 2304811
628.45587 611.67944 1560.755 2106918
640.81561 614.15314 1567.0669 2238504
646.66022 610.40234 1557.4965 2699055
661.19922 614.84802 1568.84 3291192
671.31812 615.1134 1569.5171 3225399
682.4978 616.3291 1572.619 3159606
694.16785 617.94666 1576.7465 3225399
710.52814 623.6355 1591.262 3225399
716.62463 620.28302 1582.7078 3159862
722.94202 617.21051 1574.868 3094838
732.95221 617.33105 1575.1757 3226167
738.68488 613.89355 1566.4045 3357753
749.82709 614.98291 1569.1841 3226167
761.44617 616.43005 1572.8767 3094581
765.89386 612.10889 1561.8508 3094581
775.03253 611.59851 1560.5485 2765616
778.86163 606.96307 1548.7208 3159347
782.36731 602.19281 1536.549 3488313
798.97528 607.50085 1550.0929 2238245
806.86292 606.13043 1546.5963 2698797
821.25909 609.62396 1555.5103 4080450
830.91925 609.5611 1555.3499 3093554
833.22675 604.16846 1541.59 2961968
842.88531 604.16846 1541.59 3356983
851.70331 603.57275 1540.0702 3159347
854.95148 599.08752 1528.6256 2896432
863.79272 598.57745 1527.3241 2765103
878.44061 602.05829 1536.2058 2896432
896.12994 607.52563 1550.1561 2699053
904.00055 606.29047 1547.0045 2699053
913.77747 606.34656 1547.1476 2830639
923.56317 606.40717 1547.3022 2370601
934.28058 607.0719 1548.9984 1845027
944.55029 607.43506 1549.9252 2173992
960.29376 611.27527 1559.7236 3029045
970.41919 611.49786 1560.2916 3029045
980.96411 611.97766 1561.516 3028788
994.57147 614.33972 1567.543 2897202
1004.7166 614.5379 1568.0487 2831409
1014.3257 614.40759 1567.7161 2897202
1024.4661 614.59845 1568.2031 2962995
1038.7266 617.23389 1574.9277 3028788
1048.3608 617.09674 1574.5776 2897202
1058.318 617.15027 1574.7144 2897202
1065.6375 615.67902 1570.9602 2897202
1068.3273 611.58429 1560.5122 2765616
1078.7585 611.95538 1561.4591 2831409
1079.0049 606.59399 1547.7791 2765616
1089.5145 607.04663 1548.934 2897459
1109.1234 612.5163 1562.8904 3226167
1120.0364 613.13 1564.4562 3620925
1116.2958 605.78088 1545.7043 3620925
1140.5504 613.61975 1565.7059 3488825
1149.4233 613.12012 1564.431 3620411
1158.9456 612.97235 1564.054 3423802
1168.7582 612.97931 1564.0718 3160377
1178.5575 612.97931 1564.0718 3620927
1175.8922 606.54974 1547.6661 4015685
1194.4905 611.10388 1559.2864 4344650
1205.7942 611.88245 1561.2729 4213064
1219.4811 613.84814 1566.2887 3884099
1226.9542 612.67957 1563.3069 3818306
1236.7488 612.67957 1563.3069 3489341
1248.4235 613.60358 1565.6647 3555134
1267.5688 618.15649 1577.2819 3555391
1287.8793 623.20276 1590.1578 3685950
1298.7682 623.6474 1591.2924 3883330
1308.7382 623.6474 1591.2924 3356986
1319.2002 623.88013 1591.8862 2699054
1330.4408 624.47485 1593.4037 2370090
1340.8593 624.67761 1593.921 2567467
1350.8625 624.68536 1593.9409 2633259
1358.5297 623.62073 1591.2242 2699052
1374.6005 626.40106 1598.3185 2896431
1368.5942 619.1535 1579.8258 3028017
1373.4475 616.88757 1574.0441 3093811
1381.3518 616.01465 1571.8167 3093811
1393.6111 617.0824 1574.5411 3028018
1403.6664 617.16602 1574.7545 3094068
1418.6788 619.41296 1580.4877 3291190
1415.9756 613.94733 1566.5417 3291190
1425.7904 613.94733 1566.5417 3159604
1434.1104 613.30798 1564.9104 3225397
1448.6123 615.30316 1570.0013 2764845
1461.7324 616.68848 1573.536 2567469
1463.556 613.32129 1564.9443 2567469
1471.781 612.66357 1563.2662 2699312
1487.666 615.18225 1569.6927 3751743
1484.3677 609.78711 1555.9266 3685950
1511.2726 616.78918 1573.793 3422778
1524.3522 618.09454 1577.1238 3554364
1529.8267 616.31921 1572.5938 3751743
1539.882 616.40027 1572.8007 3685950
1549.4794 616.29816 1572.5402 3620157
1559.4739 616.35437 1572.6835 3554364
1566.2253 615.13605 1569.575 3554364
1577.1497 615.56165 1570.6609 3685950
1567.6663 608.06628 1551.5356 3949122
1580.6243 609.31415 1554.7197 3883329
1590.3651 609.31415 1554.7197 3817536
nan nan nan 16777215
nan nan nan 16777215
nan nan nan 16777215
nan nan nan 16777215
nan nan nan 16777215
nan nan nan 16777215
nan nan nan 16777215
nan nan nan 16777215
nan nan nan 16777215
nan nan nan 16777215
nan nan nan 16777215
nan nan nan 16777215
nan nan nan 16777215
nan nan nan 16777215
-1337.9391 599.88501 1506.701 3357755
-1349.0243 609.1532 1529.9795 3555134
-1341.8254 610.23865 1532.7058 3555134
-1331.9504 610.11407 1532.3928 3686721
-1313.4518 606.00879 1522.0818 3620927
-1303.9155 606.00879 1522.0818 3291962
-1298.1815 607.789 1526.5531 3226169
-1289.3442 608.1319 1527.4143 3291960
-1278.1387 607.35455 1525.4619 3291960
-1268.5093 607.32013 1525.3754 3226166
-1263.6212 609.57239 1531.0323 3160373
-1254.262 609.68573 1531.317 3160375
-1244.5261 609.61633 1531.1427 3160376
-1229.2144 606.79333 1524.0524 3226169
-1218.2053 606.06677 1522.2274 3094583
-1203.9695 603.71082 1516.3101 3226169
-1188.2336 600.55908 1508.394 3357755
-1178.7831 600.55908 1508.394 3489341
-1174.9139 603.42566 1515.594 3489341
-1159.0662 600.13666 1507.3331 2502447
-1150.6761 600.68689 1508.7151 2568240
-1147.7891 604.14264 1517.3947 2765618
-1142.3793 606.3172 1522.8564 2897204
-1134.925 607.4342 1525.6619 3160374
-1119.391 604.20886 1517.561 3094581
-1108.1165 603.24719 1515.1456 3291960
-1094.6472 601.06378 1509.6617 3423547
-1092.3502 605.0304 1519.6245 3160375
-1080.6929 603.83667 1516.6262 3291961
-1071.9825 604.28302 1517.7473 3028788
-1061.6422 603.8103 1516.5601 2897202
-1056.2279 606.15607 1522.4517 3818303
-1048.1113 606.97955 1524.52 3357752
-1040.3713 608.03833 1527.1793 3291960
-1028.7142 606.80621 1524.0846 3423546
-1023.3321 609.28705 1530.3157 3160374
-1017.0309 611.26251 1535.2772 3094581
-1007.1108 611.07971 1534.8182 3094581
-997.95477 611.36157 1535.5261 2897202
-989.17676 611.88275 1536.8352 3028788
-982.58203 613.77802 1541.5953 2962995
-972.53802 613.53485 1540.9846 2765616
-964.88879 614.81274 1544.1942 3094581
-956.56073 615.6795 1546.3713 3094581
-944.66016 614.24121 1542.7588 3094581
-930.38708 611.21454 1535.1569 3160631
-920.76886 611.21454 1535.1569 3357753
-901.80817 604.94745 1519.4161 3423546
-899.26727 609.67883 1531.2997 3291960
-903.43341 619.10852 1554.9838 3094581
-893.69098 619.10852 1554.9838 2897202
-890.95471 624.01556 1567.3086 2699823
-880.52521 623.58368 1566.2238 2699823
-869.87567 622.9845 1564.7189 2568236
-863.49817 625.466 1570.9515 2502444
-856.47394 627.53101 1576.1381 2634030
-843.90155 625.53156 1571.1162 3555132
-834.47931 625.84753 1571.9098 3291960
-825.69232 626.65314 1573.9332 1975843
-818.83643 628.96155 1579.7311 2173479
-805.21545 626.06647 1572.4597 3620925
-792.34589 623.69116 1566.4938 3752255
-779.33734 621.14551 1560.1 3094581
-766.30017 618.51208 1553.4857 3094581
-758.67822 620.23798 1557.8206 3028532
-747.73962 619.26208 1555.3695 3028788
-735.13861 616.86542 1549.35 3160374
-721.87006 613.83704 1541.7437 2897202
-711.32007 613.06958 1539.816 2962995
-700.65704 612.18219 1537.5873 3094581
-687.23126 608.82257 1529.1492 2897202
-676.83923 608.09357 1527.3181 2831409
-665.68915 606.65277 1523.6993 3094581
-655.63483 606.18329 1522.52 3094581
-642.63251 602.93396 1514.3589 2831409
-632.70105 602.51154 1513.298 2897202
-629.2674 608.35828 1527.9828 3160374
-617.80359 606.50226 1523.3213 3160374
-603.75873 602.01447 1512.0496 3291960
-594.28522 602.01447 1512.0496 2962995
-590.07324 607.43073 1525.6532 2436651
-581.44659 608.40594 1528.1027 2897202
-576.11816 612.92279 1539.4474 3160374
-561.02661 607.02972 1524.6461 2831409
-551.67285 607.24841 1525.1953 3226167
-538.09528 602.74347 1513.8805 2897202
-530.89899 605.35309 1520.4349 2305065
-521.37305 605.35309 1520.4349 2699823
-511.47931 604.91821 1519.3427 3028788
-496.63605 598.50201 1503.2275 2765616
-486.65793 597.81427 1501.5 3358266
-477.3924 597.99194 1501.9463 2962225
-468.44998 598.5896 1503.4474 2764847
-461.84338 602.25781 1512.6606 3291190
-455.21213 606.04688 1522.1775 2568494
-448.53018 609.92914 1531.9283 2568236
-446.61288 620.60211 1558.7351 4212035
-440.17328 625.32764 1570.604 4409670
-429.91208 624.716 1569.0679 4080706
-419.9722 624.55371 1568.6602 2567726
-410.17691 624.60364 1568.7856 2239272
-399.05682 622.58929 1563.7262 2699823
-391.15881 625.62695 1571.3558 3028788
-384.90616 631.521 1586.1595 3028788
-374.1496 630.14203 1582.696 3226167
-359.53973 622.02161 1562.3003 3226167
-349.1828 621.01025 1559.7603 3029044
-337.72861 617.93304 1552.0314 3094581
-326.92294 615.8952 1546.9131 2897202
-315.90167 613.31427 1540.4307 2962995
-304.30676 609.42181 1530.6542 2897202
-293.23682 606.36157 1522.9679 3818304
-283.58435 606.12524 1522.3743 3423546
-272.67105 603.08368 1514.735 3160374
-261.00363 598.09479 1502.2047 3028788
-250.48291 595.45856 1495.5834 2831409
-240.94643 595.0481 1494.5525 3226936
-230.44408 592.12268 1487.2048 2568750
-223.06544 597.31537 1500.2469 2305578
-216.20815 604.42218 1518.0969 2173992
-207.46831 606.67822 1523.7633 2042406
-199.09285 610.26892 1532.7817 3358522
-187.77057 604.73291 1518.8773 3555645
-178.44112 605.36664 1520.4689 2831922
-170.55261 611.23596 1535.2106 3226167
-159.91954 607.38275 1525.5328 3423546
-150.19704 606.71796 1523.863 2765616
-141.39636 609.93945 1531.9543 2962995
-131.84213 610.14276 1532.465 3094581
-120.99056 603.90271 1516.792 3423546
-111.9323 606.31262 1522.845 3160374
-103.39893 612.27991 1537.8326 2239529
-94.287361 615.69788 1546.4175 3028788
-85.370407 621.31519 1560.5261 3291960
-75.80098 623.02277 1564.8149 3226167
-65.295639 616.40247 1548.1871 3160374
-55.976067 620.6189 1558.7773 2634030
-46.078293 618.85211 1554.3398 2962995
-36.29203 618.03735 1552.2935 3226167
-26.634674 619.62506 1556.2811 3226167
-16.745605 614.54279 1543.5162 3357753
-7.1019969 616.88806 1549.4067 2634030
2.6143713 618.98438 1554.672 3094581
12.345983 618.53894 1553.5532 3160374
22.100004 619.11407 1554.9977 3555132
32.003269 622.23895 1562.8463 4015683
41.572918 618.9328 1554.5425 4081476
51.546333 621.75201 1561.6233 3686718
62.036457 628.90997 1579.6016 2897202
71.50975 625.20819 1570.304 2436651
81.013161 622.63324 1563.8367 2436907
90.9189 623.37256 1565.6935 2962995
100.72845 623.37256 1565.6935 2568237
110.2114 621.53064 1561.0673 2041893
120.71584 625.28015 1570.4847 2305065
131.00868 627.45099 1575.9371 2239272
140.88435 627.45966 1575.9589 2370858
151.11938 628.96277 1579.7341 2765616
160.52148 627.02753 1574.8735 3094581
170.23769 626.47235 1573.4791 3292217
180.09602 626.47235 1573.4791 3226167
189.34695 624.46906 1568.4476 2962995
199.34142 624.99475 1569.7679 2831409
209.32672 625.44366 1570.8954 2896432
218.295 622.94983 1564.6318 2896432
228.34468 623.62384 1566.3246 2830896
238.15819 623.62384 1566.3246 2699823
247.02159 621.23444 1560.3232 2699823
258.12314 624.44128 1568.3779 2963252
268.12418 624.84833 1569.4003 3028788
278.96408 627.11237 1575.0867 3160374
285.0574 618.91595 1554.5001 3357753
293.51703 616.229 1547.7515 2962995
299.71555 609.11871 1529.8928 2568237
309.42484 609.36298 1530.5063 2765616
317.98611 607.39972 1525.5753 2765616
328.9548 610.01532 1532.1448 2239272
339.12357 611.04132 1534.7217 3028788
350.55927 614.23053 1542.7319 3949890
357.70401 609.93195 1531.9354 3818304
370.16141 614.68011 1543.8611 2436908
379.83417 614.68011 1543.8611 2042406
390.30197 615.93475 1547.0123 2502701
399.28455 614.84155 1544.2666 2173479
409.53748 615.70996 1546.4478 1910307
413.91272 607.90576 1526.8464 1844514
430.10895 617.42322 1550.7509 3883327
435.29587 611.06549 1534.7825 3356983
447.93198 615.21356 1545.201 1712159
458.64767 616.60443 1548.6943 1777952
469.03668 617.50751 1550.9625 2370088
478.75394 617.50751 1550.9625 2172966
488.78455 617.90363 1551.9575 2305323
497.18814 616.26752 1547.8483 2305323
505.84494 615.00201 1544.6697 2568495
513.90381 613.07062 1539.8187 2634032
522.94397 612.35956 1538.0327 2502444
530.52484 609.99622 1532.0969 2699823
537.81885 607.39301 1525.5585 3029047
545.32538 605.11652 1519.8407 2897204
554.84766 605.11652 1519.8407 2568239
567.34027 608.30133 1527.8398 2502446
570.2038 601.22742 1510.0726 2568496
580.32642 601.91357 1511.796 2700082
595.98492 608.22729 1527.6539 2568497
608.08356 610.76587 1534.0299 2371117
618.64905 611.70947 1536.3999 2765105
624.12256 607.6665 1526.2454 2896434
630.34021 604.45898 1518.1893 3159606
647.81836 611.98456 1537.0909 2896434
657.00275 611.56946 1536.0483 2830641
669.18317 613.91492 1541.9392 3488571
680.41919 615.3396 1545.5175 3225399
686.93097 612.51172 1538.4149 2830641
690.64966 607.30615 1525.3405 2896434
701.34583 608.29443 1527.8225 2700080
706.34058 604.37769 1517.9851 2897202
717.21265 605.52716 1520.8721 3291960
731.08203 609.1438 1529.9558 3226167
744.32239 612.14948 1537.5051 3291960
762.80005 619.33069 1555.5417 3555132
762.11542 610.96869 1534.5394 2765616
766.47833 606.81122 1524.0973 2765616
773.98138 605.21143 1520.0792 2634030
784.62488 606.07642 1522.2516 2897202
788.28235 601.58905 1510.981 2897459
801.31464 604.27783 1517.7343 3686718
808.81378 602.77991 1513.972 2897202
821.22046 604.9317 1519.3765 2896432
820.87 597.74469 1501.3253 3356983
828.66882 596.5874 1498.4186 2962225
839.0249 597.27649 1500.1494 2764846
848.42383 597.27649 1500.1494 2896432
859.78058 598.63971 1503.5732 2962225
873.73938 601.76544 1511.4241 2962225
884.58923 602.70599 1513.7863 2962225
894.93011 603.28333 1515.2365 2962225
909.78424 606.85913 1524.2175 2501674
912.19067 602.14374 1512.3743 2435624
912.2923 596.01971 1496.9927 2370088
923.61401 597.27582 1500.1477 3093554
943.70972 604.12347 1517.3467 3291189
955.67004 605.67859 1521.2526 2963252
967.89026 607.36609 1525.4908 2831409
977.10211 607.15118 1524.951 2831409
985.59058 606.4953 1523.3037 2634287
998.44598 608.51349 1528.3728 2962995
1009.9154 609.65668 1531.244 2962995
1019.5092 609.65668 1531.244 2173479
1027.3403 608.61249 1528.6215 2239272
1043.6366 612.55621 1538.5266 3028788
1053.8376 612.88281 1539.3469 2831409
1063.4821 612.88281 1539.3469 2765872
1074.4594 613.64398 1541.2588 2634286
1085.4655 614.4079 1543.1775 2897459
1083.2451 607.73785 1526.4247 2897202
1092.8086 607.73785 1526.4247 3423546
1108.8145 611.28955 1535.3452 3489339
1119.9832 612.13623 1537.4719 3291960
1130.2039 612.45496 1538.2723 3488569
1139.8417 612.45496 1538.2723 3619898
1150.9812 613.25513 1540.2821 3554105
1158.6493 612.2077 1537.6514 3752513
1165.0659 610.52185 1533.417 3818563
1181.2189 613.92389 1541.9617 3884099
1189.9139 613.42596 1540.7112 3818306
1195.7539 611.47601 1535.8136 3818563
1192.6227 605.00629 1519.5638 3884099
1214.2482 611.09839 1534.8651 3555391
1235.4637 616.89001 1549.4117 3620927
1247.4169 618.00256 1552.2061 3621183
1258.1094 618.47809 1553.4004 3817279
1264.8229 617.00543 1549.7015 4080708
1268.9045 614.28101 1542.8588 4080708
1303.5411 626.27777 1572.9904 3225397
1302.8918 621.26874 1560.4095 2962223
1310.6525 620.3147 1558.0133 3159603
1320.8856 620.53632 1558.5699 3028017
1330.2461 620.34772 1558.0962 2962226
1339.6489 620.18146 1557.6786 2830640
1346.3418 618.77216 1554.1389 2501674
1344.1514 613.32959 1540.4692 2764846
1355.0509 613.89502 1541.8893 3093811
1365.5781 614.28491 1542.8687 3093811
1373.0405 613.30048 1540.3959 3159604
1377.2308 610.8783 1534.3123 3291190
1382.0679 608.7746 1529.0286 3093811
1393.1703 609.44067 1530.7014 2699310
1405.8163 610.76819 1534.0358 2896432
1412.2445 609.39471 1530.5861 2633259
1429.8627 612.83569 1539.2286 2764848
1431.5151 609.43359 1530.6837 2764848
1449.7915 613.10693 1539.9099 3159606
1447.2753 607.99677 1527.075 3356985
1461.0979 609.77258 1531.5352 3620157
1485.7733 616.0249 1547.2389 3685950
1492.7242 614.89502 1544.4009 3488571
1499.1396 613.56042 1541.049 3685950
1507.698 613.11438 1539.9287 3751743
1512.3032 611.07672 1534.8108 3488571
1521.657 610.97137 1534.5461 3488571
1531.1786 610.93445 1534.4532 3620157
1535.9771 609.02502 1529.6576 3751743
1539.1777 606.50983 1523.3402 3883329
1545.701 605.32678 1520.3689 3751743
1564.5372 608.95068 1529.4708 3751743
nan nan nan 16777215
nan nan nan 16777215
nan nan nan 16777215
nan nan nan 16777215
nan nan nan 16777215
nan nan nan 16777215
nan nan nan 16777215
nan nan nan 16777215
nan nan nan 16777215
nan nan nan 16777215
nan nan nan 16777215
nan nan nan 16777215
nan nan nan 16777215
nan nan nan 16777215
-1314.6882 598.68689 1480.5173 3291960
-1326.4575 608.33868 1504.3855 3094581
-1316.0857 607.90155 1503.3046 3226166
-1303.5288 606.44159 1499.6941 3357753
-1293.8992 606.33209 1499.4235 3357753
-1283.3593 605.79132 1498.0861 3291960
-1274.1589 605.87958 1498.3044 3226168
-1258.8602 603.04779 1491.3015 3094582
-1258.3888 607.32971 1501.8904 3094583
-1249.2598 607.46625 1502.228 3094582
-1240.9318 607.99731 1503.5414 3028791
-1228.4823 606.50177 1499.8429 3028791
-1220.2491 607.08069 1501.2747 3094583
-1207.6035 605.45642 1497.2579 3291962
-1196.9296 604.80304 1495.6421 3160376
-1189.1156 605.59583 1497.6027 3028790
-1172.8021 602.03815 1488.8047 3423548
-1169.1211 604.96008 1496.0304 3489340
-1152.9381 601.4079 1487.2461 3555133
-1149.4559 604.47681 1494.8353 2568237
-1145.8646 607.53833 1502.4064 2634030
-1136.4515 607.53833 1502.4064 3160376
-1121.651 604.63416 1495.2245 3357755
-1109.0154 602.85791 1490.8319 3160630
-1103.213 604.79761 1495.6287 3029045
-1091.2401 603.35876 1492.0704 3291960
-1081.8918 603.35876 1492.0704 3555132
-1074.7742 604.61359 1495.1736 3620925
-1064.2229 603.94196 1493.5127 3686718
-1056.5475 604.90485 1495.8939 2634030
-1051.5408 607.42657 1502.13 1910307
-1042.1294 607.42657 1502.13 2502444
-1029.3361 605.43732 1497.2107 2568493
-1017.2739 603.84546 1493.2742 2634030
-1011.1873 605.80408 1498.1177 3028788
-1002.6491 606.31689 1499.3859 3226167
-996.39722 608.23505 1504.1293 3094581
-990.59857 610.46912 1509.6539 3028788
-981.99603 611.00159 1510.9708 2962995
-972.98602 611.28857 1511.6804 3029045
-964.01587 611.60645 1512.4664 3029045
-954.83032 611.79254 1512.9268 3094581
-944.82306 611.45068 1512.0813 3226167
-935.56085 611.58887 1512.4231 2897202
-929.42645 613.79559 1517.8801 2765616
-919.03906 613.21014 1516.4324 2897202
-906.78656 611.35498 1511.8447 3291960
-895.09399 609.84222 1508.1038 3357753
-892.28851 614.41669 1519.4161 3226167
-882.15155 613.987 1518.3535 3094838
-868.67096 611.19531 1511.45 3029044
-861.97284 613.16693 1516.3256 3226167
-864.02441 621.47595 1536.8733 2568237
-857.63611 623.83313 1542.7024 2831411
-850.50195 625.69543 1547.3077 3423290
-830.18158 617.78796 1527.7531 4344906
-824.72717 620.8877 1535.4186 4344907
-823.69965 627.43274 1551.604 3029048
-821.01508 632.85681 1565.0175 2963508
-811.21014 632.85712 1565.0182 3424059
-795.84839 628.4693 1554.1674 3687488
-779.66937 623.3194 1541.432 3687488
-769.4928 622.89923 1540.3929 3555647
-754.81537 618.77869 1530.2031 3687233
-739.63971 614.13855 1518.7283 3489598
-727.21075 611.68768 1512.6675 3489598
-714.98126 609.34216 1506.8671 3555391
-701.30048 605.68054 1497.812 3160376
-693.50482 607.07104 1501.2509 3160374
-686.87341 609.53308 1507.3392 2831409
-676.88794 609.04584 1506.1343 2700080
-666.16229 607.86938 1503.225 3226167
-654.20746 605.52148 1497.4188 2370601
-644.82568 605.52148 1497.4188 2041893
-634.45868 604.5827 1495.0973 2239272
-624.40094 603.91492 1493.4458 2897202
-618.82129 607.62378 1502.6177 3029045
-607.21741 605.44067 1497.219 2897202
-595.70502 603.28168 1491.8799 3160374
-586.47064 603.39771 1492.1667 3094581
-582.27295 608.78339 1505.4854 2634030
-571.20874 607.04913 1501.1967 3489339
-561.3891 606.60162 1500.0898 3555132
-552.69342 607.37402 1502 2962995
-540.65564 604.43677 1494.7363 3094581
-531.29065 604.43677 1494.7363 3555132
-522.89459 605.5589 1497.5112 3226167
-515.2395 607.5957 1502.5482 3028788
-504.52985 606.03937 1498.6995 3226167
-493.1243 603.57214 1492.5981 2765616
-477.42975 595.65845 1473.0281 3489595
