# .PCD v0.7 - Point Cloud Data file format
VERSION 0.7
FIELDS x y z rgb
SIZE 4 4 4 4
TYPE F F F U
COUNT 1 1 1 1
WIDTH 1276
HEIGHT 1
VIEWPOINT 0 0 0 1 0 0 0
POINTS 1276
DATA ascii
-3698.7056 666.73096 5379.916 3489599
-3573.3557 650.05939 5245.3916 3489342
-3427.7246 629.35455 5078.3223 3489598
-3308.8723 613.22455 4948.168 3489598
-3135.6699 586.62164 4733.5063 3292732
-2996.9299 566.01947 4567.2656 3424318
nan nan nan 16777215
nan nan nan 16777215
-2510.1475 488.06305 3938.2275 4675155
-2632.6707 516.96759 4171.4614 4806741
-2663.6846 528.30237 4262.9229 4675155
-2663.093 533.53473 4305.1431 4017225
-2756.6409 557.92743 4501.9702 3490881
-2889.9329 590.9516 4768.4453 3490881
-3471.8972 717.37152 5788.5396 3621954
-3463.5698 723.20538 5835.6138 3818820
-3503.0454 739.25159 5965.0923 3753283
-3519.3931 750.71063 6057.5562 3556161
-3558.697 767.36957 6191.979 3556160
-3589.866 782.62231 6315.0547 3818563
-3568.6443 786.66602 6347.6836 3686978
-3569.5593 795.73566 6420.8677 3818816
-3640.4941 820.79901 6623.106 3687231
-3632.3535 828.40607 6684.4883 3753024
-3678.2266 848.65289 6847.8618 3753024
-3667.2964 856.11707 6908.0908 3884610
-3707.5935 875.86121 7067.4082 3818817
-3750.3774 896.67712 7235.374 3818817
-3736.7852 904.35864 7297.3569 3753024
-3714.9028 910.19916 7344.4849 3753024
-3643.8672 903.992 7294.3984 3753281
-3591.9282 902.42493 7281.7539 3753024
-3546.3057 902.42493 7281.7539 3687231
-3514.6411 906.02313 7310.7876 3687231
-3477.5403 908.29639 7329.1313 3753024
-3450.667 913.33746 7369.8081 3687231
-3386.2244 908.43665 7330.2622 3753024
-3343.178 909.21985 7336.5825 3884610
-3295.0754 908.63062 7331.8281 4016196
-3240.0518 906.08936 7311.3218 4081989
-3198.2468 907.22479 7320.4839 3950403
-3156.3677 908.37189 7329.7402 4016196
-3111.0044 908.5354 7331.0591 3950403
-3017.7522 894.50873 7217.877 3884610
-3015.4045 907.41077 7321.9849 3555647
-2969.53 907.41077 7321.9849 3292475
-2899.666 899.96521 7261.9058 3423804
-2848.4736 898.16962 7247.4175 3489598
-2782.2261 891.492 7193.5342 3555391
-2745.2314 894.12195 7214.7563 3752770
-2696.3794 892.91357 7205.0054 3884610
-2647.0271 891.49536 7193.562 4015939
-2596.9358 889.7749 7179.6797 4081733
-2559.0481 892.24878 7199.6411 3950405
-2525.6018 896.38782 7233.0396 3950149
-2480.5227 896.47388 7233.7339 3950149
-2438.9846 897.86658 7244.9722 4016199
-2395.9592 898.75439 7252.1353 4015942
-2315.2625 885.2724 7143.3477 4081735
-2268.3564 884.43378 7136.5811 4081735
-2225.605 885.21387 7142.8755 4081735
-2171.5166 881.42432 7112.2974 4213321
-2134.0461 884.36255 7136.0063 3950149
-2093.8342 886.26624 7151.3672 3950149
-2024.4619 875.64026 7065.626 4015942
-1955.0856 864.5376 6976.0371 3884356
-1914.1035 865.7702 6985.9829 3884356
-1892.6482 876.09924 7069.3286 3950149
-1849.2611 876.52789 7072.7881 3818563
-1802.0823 875.13635 7061.5591 3884356
-1746.5143 869.49817 7016.0645 3950149
-1700.561 868.47906 7007.8408 3884356
-1656.7103 868.50818 7008.0757 4015942
-1629.7147 877.6156 7081.5645 4015942
-1585.3466 877.6156 7081.5645 4213321
-1603.123 913.008 7367.1499 4213321
-1534.7458 899.97845 7262.0122 4147528
-1477.0692 892.61914 7202.6294 4147528
-1445.9061 901.32349 7272.8657 4015942
-1402.899 902.97101 7286.1602 4213321
-1356.1975 902.27148 7280.5156 4213321
-1285.8159 885.22064 7142.9307 4081735
-1241.0836 885.23529 7143.0483 4015942
-1209.5547 895.02075 7222.0083 3950148
-1169.4623 898.98401 7253.9888 4016196
-1127.3379 901.6427 7275.4419 4016196
-1066.3895 888.83551 7172.0996 4082246
-1020.7531 888.22565 7167.1777 4081989
-975.59552 887.99536 7165.3198 3819074
-930.89838 888.18213 7166.8271 3753281
-890.45825 892.65546 7202.9224 3884610
-846.98376 894.4021 7217.0166 3753024
-801.14612 893.70953 7211.4282 3687487
-749.19098 885.70203 7146.8149 3687231
-705.18872 886.67615 7154.6753 3621438
-663.66498 891.11053 7190.4565 3753024
-623.05164 897.50214 7242.0312 3687231
-576.95831 896.38391 7233.0078 3753024
-535.03149 902.09998 7279.1318 3687231
-488.55145 900.48907 7266.1328 3687487
-443.10089 900.63953 7267.3472 3555645
-398.30865 902.3158 7280.8726 3555645
-352.85022 902.72125 7284.1445 3621438
-307.65643 904.02484 7294.6636 3489852
-261.95309 904.02484 7294.6636 3489596
-217.74977 910.29559 7345.2627 3226425
-170.1745 902.05322 7278.7544 3226424
-124.60352 902.28986 7280.6636 3291960
-79.720749 910.66125 7348.2129 3357753
-33.687035 910.79968 7349.3301 3358011
12.348297 910.02576 7343.0854 3292219
58.307167 909.27972 7337.0659 3423805
104.26846 909.21265 7336.5244 3686463
150.31544 909.7052 7340.4985 3555391
193.19312 895.27997 7224.1001 3292476
238.45435 895.27997 7224.1001 3555391
286.70789 904.72235 7300.2915 3621184
329.53244 896.79211 7236.3018 3555391
375.00943 897.12537 7238.9907 3555391
419.42493 895.12134 7222.8198 3686977
460.36856 886.8197 7155.8335 3753024
504.48874 885.5675 7145.7295 3687231
544.11603 877.27563 7078.8218 3621438
579.1604 863.40149 6966.8696 3555645
616.27991 854.34882 6893.8223 3489852
651.96918 844.62897 6815.3926 3489852
678.1344 824.52417 6653.165 3687231
702.09528 804.22296 6489.3521 3818817
729.0155 789.34845 6369.3286 3818818
754.88873 774.94305 6253.0898 3950150
770.1402 751.59314 6064.6772 3686723
808.13727 751.59314 6064.6772 3752263
829.10797 736.46918 5942.6406 3423043
835.60675 710.34271 5731.8237 1712427
852.85028 695.12695 5609.0464 330265
862.30481 675.01837 5446.7881 725792
887.50073 668.29413 5392.5293 988712
926.75098 672.25793 5424.5137 725541
962.74908 673.66559 5435.8726 791335
989.4989 668.72699 5396.0225 988970
1023.3225 668.73737 5396.106 791080
1059.3646 670.15051 5407.5088 659238
1088.1005 666.99731 5382.0654 790569
1117.056 664.16437 5359.2061 659235
1150.3038 663.9743 5357.6724 396062
1184.1782 664.14642 5359.061 330270
1218.3875 664.49164 5361.8472 396314
1262.4508 670.04846 5406.6855 1054755
1271.541 657.23785 5303.3154 2831421
1270.6465 640.05023 5164.627 3489349
1510.2688 741.86072 5986.1455 3555396
1624.2714 778.52667 6282.0063 3490114
1680.4016 786.37518 6345.3369 3555650
1756.8539 803.15125 6480.7046 3621700
1857.1597 829.8277 6695.9595 3687492
1909.5894 834.40588 6732.9014 3687234
1990.1986 850.83325 6865.4556 3687490
2049.1501 857.50244 6919.27 3621184
2120.4646 868.96173 7011.7358 3555391
2209.0046 886.87152 7156.2515 3621184
2263.3066 890.59619 7186.3066 3555391
2346.4451 905.30127 7304.9634 3621184
2411.5195 912.60773 7363.9189 3555392
2473.4905 918.48724 7411.3618 3555392
2544.3647 927.39526 7483.2417 3686977
2629.4182 941.05554 7593.4683 3686977
2686.7917 944.5 7621.2612 3621184
2738.8311 945.98169 7633.2173 3621184
2800.1475 950.56177 7670.1738 3686977
2876.6301 960.04895 7746.7271 3621184
2932.9204 962.59399 7767.2637 3621184
2968.5161 958.37476 7733.2183 3555391
2971.0122 943.77667 7615.4248 3555391
2975.0317 930.11639 7505.1982 3489855
3001.0427 923.64954 7453.0171 3489598
3019.9287 915.2215 7385.0107 3555391
3034.0276 905.61914 7307.5273 3423805
3039.1331 893.65753 7211.0088 3423805
3066.7595 888.57184 7169.9712 3423805
3088.4434 881.93585 7116.4253 3358269
3129.4692 880.93353 7108.3374 3292219
3146.7546 873.37024 7047.3086 3489598
3151.3914 862.55432 6960.0332 3358013
3129.9695 844.99841 6818.3735 3358268
3033.9763 808.0545 6520.2695 3489598
2992.4841 786.41486 6345.6567 3621184
2969.9709 770.26489 6215.3413 3686720
2988.3882 765.01093 6172.9468 3621183
3005.5129 759.56451 6128.999 3620927
3049.1509 760.87158 6139.5459 3620927
3006.3059 740.83429 5977.8633 3620670
2928.1934 712.70624 5750.895 3751228
2902.0659 697.76105 5630.3013 3947835
2850.0923 677.03522 5463.062 3815994
2571.4937 603.60553 4870.5513 2894892
2602.9082 603.81415 4872.2344 2697513
2674.2593 613.1748 4947.7666 2763306
2658.0532 602.47516 4861.4302 3158064
2708.5481 606.96521 4897.6606 3947323
3197.3948 708.4856 5716.8384 4013629
3441.7051 754.17212 6085.4873 3817021
3538.1252 766.8056 6187.4282 3882814
3719.7092 797.42255 6434.479 3685948
3663.5007 776.95215 6269.3018 3620155
3702.7798 776.95215 6269.3018 3685950
4235.3892 879.38074 7095.8081 3620158
4422.1924 908.62854 7331.8115 3554878
4269.2573 868.18665 7005.4814 3554877
4307.4971 867.04895 6996.3013 3555134
4381.7627 873.11273 7045.231 3555134
4682.4907 923.73077 7453.6719 3686720
4714.5327 920.86768 7430.5698 3686720
4759.5322 920.56683 7428.1426 3686720
4821.5249 923.52673 7452.0264 3752513
4916.7383 932.73212 7526.3052 3818306
5025.0723 944.22791 7619.0659 3818306
5065.8438 942.93152 7608.6055 3752513
4940.8203 911.08685 7351.6475 3620927
4997.9385 913.10706 7367.9487 3818306
5002.2461 905.53033 7306.811 3752513
4964.7959 890.6004 7186.3398 3555134
4974.8701 884.38715 7136.2051 3620927
4973.0693 876.19238 7070.0811 3686720
5017.3657 876.19238 7070.0811 3555134
5019.585 868.90875 7011.3081 3620927
5099.4653 875.07831 7061.0908 3884099
5094.3726 866.68555 6993.3687 3752513
4948.5259 834.69421 6735.2275 3818306
4883.8999 816.82788 6591.0625 3884099
4785.147 793.60138 6403.646 3752513
4747.4146 780.797 6300.3262 3818306
4529.3687 738.79272 5961.3892 3752513
4622.479 747.81348 6034.1787 3752514
nan nan nan 16777215
nan nan nan 16777215
4405.5815 695.65552 5613.3115 3817534
4485.5806 702.67822 5669.9785 3687230
nan nan nan 16777215
nan nan nan 16777215
nan nan nan 16777215
nan nan nan 16777215
nan nan nan 16777215
nan nan nan 16777215
nan nan nan 16777215
5861.2534 863.47394 6967.4541 3882815
5580.6968 816.0647 6584.9043 3751229
5712.165 829.15955 6690.5684 3686207
5709.5781 822.7464 6638.8198 3685950
5666.6943 810.66113 6541.3027 3685950
5708.5137 810.77997 6542.2612 3620157
5839.6201 823.48798 6644.8042 3685950
5949.0171 832.97638 6721.3667 3685950
6094.2212 847.30994 6837.0254 3620157
6215.3213 858.11542 6924.2158 3752000
6250.3315 856.96747 6914.9531 3817536
6343.0371 863.69147 6969.2095 3883073
6439.7017 870.85883 7027.0439 3817537
6622.5845 889.50928 7177.5361 3883075
6698.6802 893.66174 7211.0425 3817026
6884.5962 912.31146 7361.5288 3817282
7030.0771 925.39038 7467.064 3817283
7149.7158 934.91711 7543.9355 3751490
7290.6123 947.0802 7642.0815 3817283
7412.4141 956.62018 7719.0605 3685696
7600.6084 974.54944 7863.7334 3619903
7723.5103 983.92993 7939.4253 3619904
7773.9702 984.02069 7940.1577 3751489
7899.5776 993.56189 8017.147 3685696
8016.8975 1001.9468 8084.8047 3817282
8146.2261 1011.7178 8163.6479 3751489
8211.373 1013.4454 8177.5889 3751490
8262.6084 1013.4454 8177.5889 3751490
8346.4346 1017.4183 8209.6465 3751746
8484.3252 1027.8926 8294.1641 3751745
nan nan nan 16777215
nan nan nan 16777215
nan nan nan 16777215
nan nan nan 16777215
nan nan nan 16777215
-5239.4819 722.14587 5548.064 3686207
-5199.4106 721.409 5542.4028 3686464
-5175.5557 722.92737 5554.0679 3686721
-5195.8555 730.67554 5613.5952 3621183
-5225.2637 739.81897 5683.8418 3620927
-5220.8438 744.2655 5718.0034 3620927
-5209.1528 747.72974 5744.6187 3686720
-5202.1221 751.91571 5776.7783 3686977
-5223.5874 760.30823 5841.2554 3686720
-5220.5576 765.22845 5879.0566 3818306
-5225.2603 771.36017 5926.165 3620927
-5188.1309 771.36017 5926.165 3489342
-5139.165 769.58759 5912.5469 3291960
-5174.4614 780.49927 5996.3784 3160375
-5155 783.25055 6017.5156 3225398
-5161.5132 790.01801 6069.5083 3094839
-5115.3184 788.75854 6059.8325 3226168
-5095.9854 791.65332 6082.0723 3226168
-5183.9038 811.3786 6233.6162 3291961
-5208.6372 821.43848 6310.9043 3555134
-5278.9009 838.8877 6444.9619 3620927
-5196.0713 832.08997 6392.7363 3555134
-5167.7598 833.98462 6407.293 3357756
-5217.501 848.604 6519.6099 3357756
-5236.3462 858.38934 6594.7881 3357756
-5198.9839 859.04297 6599.8101 3357755
-5167.7163 860.72235 6612.7119 3094583
-5155.8208 865.6814 6650.811 3291962
-5076.0552 859.23273 6601.2681 3423548
-4995.6323 852.5661 6550.0493 3291962
-4924.3232 847.35706 6510.0303 3291962
-4897.2627 849.73901 6528.3296 3160376
-4800.668 839.9942 6453.4629 3094583
-4545.1958 802.04816 6161.9331 3160376
-4406.8081 784.28986 6025.5005 3094583
-4282.9302 768.82935 5906.7212 3094583
-4178.5884 756.63678 5813.0488 2897461
-4072.7488 743.95624 5715.6274 2963511
-3962.3662 730.2135 5610.0454 2963254
-3850.7046 715.98694 5500.7466 2963511
-3732.0583 700.19305 5379.4058 2897718
-3619.3064 685.22711 5264.4268 3094840
-3473.4429 663.65942 5098.7275 3358012
-3361.9192 648.31354 4980.8286 3620927
-3228.2419 628.36786 4827.5913 3621697
-3117.063 612.46558 4705.418 3424318
-2988.4497 592.80127 4554.3423 3490111
-2733.7515 547.50592 4206.3496 4411726
-2693.4316 544.68176 4184.6519 4938582
-2669.6995 545.18939 4188.5522 5004119
-2657.7356 548.13428 4211.1768 5004119
-2657.4558 553.57208 4252.9541 5004119
-2682.1035 564.3653 4335.8755 4740949
-2671.8696 567.96448 4363.5273 3622465
-2703.3545 580.59796 4460.5874 3292732
-3081.6304 668.7536 5137.8647 3490111
-3177.4612 696.82916 5353.562 3621184
-3316.3179 735.0401 5647.127 3686977
-3367.8535 754.51233 5796.7275 3686977
-3397.5872 769.4715 5911.6548 3555391
-3430.0623 785.38818 6033.9385 3555392
-3434.6619 795.20575 6109.3643 3621437
-3435.1335 804.27808 6179.0649 3621438
-3491.9519 826.90021 6352.8647 3555645
-3518.1243 842.70343 6474.2769 3621694
-3553.2888 861.0542 6615.2612 3687231
-3574.5615 876.43207 6733.4058 3621438
-3568.9692 885.51172 6803.1626 3621694
-3555.8125 892.91138 6860.0122 3753024
-3522.1843 895.28851 6878.2749 3884610
-3529.8862 908.36011 6978.7007 3753024
-3500.1868 912.0144 7006.7754 3884610
-3472.2693 916.23151 7039.1748 3884610
-3463.0464 925.55377 7110.7949 3884610
-3427.5938 928.01721 7129.7212 3950660
-3398.24 932.21875 7162.001 4081989
-3338.2864 928.02618 7129.79 4016196
-3262.3052 919.20374 7062.0103 4016196
-3211.863 917.4339 7048.4126 3884867
-3151.7974 912.82739 7013.022 3950403
-3096.0986 909.37329 6986.4854 3818817
-3049.7244 908.59821 6980.5298 4016196
-3011.5647 910.28351 6993.4775 4081989
-2909.8157 892.51416 6856.96 4213575
-2882.0254 897.23706 6893.2451 4016196
-2841.2788 898.00879 6899.1738 3687232
-2790.9736 895.73657 6881.7173 3423806
-2718.1428 886.05023 6807.2998 3752770
-2614.4714 865.84155 6652.042 3818820
-2541.2839 855.23718 6570.5708 3950149
-2517.6313 861.22839 6616.5996 3884613
-2490.9272 866.35883 6656.0156 3884613
-2451.7627 867.25647 6662.9116 3950405
-2433.6028 875.74371 6728.1172 3950149
-2403.6216 880.20123 6762.3638 3752770
-2333.3767 869.80969 6682.5278 3687234
-2291.5085 869.80969 6682.5278 3818563
-2238.929 865.66815 6650.7095 3884356
-2197.26 865.66815 6650.7095 3950662
-2120.8225 851.70526 6543.436 3950662
-2071.9302 848.47198 6518.5952 4148297
-2034.735 849.99493 6530.2959 4213064
-1975.9752 842.38721 6471.8477 4147528
-1937.1642 843.14325 6477.6562 4015942
-1899.2606 844.33508 6486.8125 3950149
-1847.8041 839.42218 6449.0684 3884356
-1784.9524 828.99731 6368.9766 3818563
-1746.0728 829.4837 6372.7139 3752770
-1725.2936 838.79291 6444.2339 3752770
-1694.1741 843.40063 6479.6338 3686977
-1651.2625 842.22003 6470.5635 3752770
-1581.1654 826.76514 6351.8276 3950149
-1540.101 826.08484 6346.6011 4015942
-1510.0034 831.40692 6387.4893 4015942
-1479.4841 836.78021 6428.7705 4147528
-1451.1708 843.73676 6482.2163 4081735
-1417.8525 848.10034 6515.7402 4015942
-1384.5598 852.73816 6551.3716 4147528
-1349.869 856.77209 6582.3633 4081735
-1311.2217 858.46991 6595.4067 3950149
-1272.0679 859.93579 6606.6689 4147528
-1222.6458 854.32544 6563.5659 4213321
-1181.5231 854.32544 6563.5659 4081735
-1144.5703 857.4494 6587.5669 3686977
-1112.3518 864.48639 6641.6299 3621183
-1071.6693 865.23663 6647.394 3687231
-1024.879 860.91711 6614.208 3753281
-973.36133 852.09497 6546.4302 3884867
-922.81311 843.38269 6479.4961 3818817
-878.57013 839.8963 6452.7109 3818817
-837.48547 839.2384 6447.6567 3687488
-800.9679 843.32263 6479.0342 3621438
-775.55029 860.15363 6608.3428 3687231
-734.51282 860.58234 6611.6357 3621438
-692.38885 859.71313 6604.9585 3753024
-651.85742 860.83649 6613.5889 3950403
-614.60126 866.73132 6658.8774 3687231
-573.64099 867.88055 6667.707 3687231
-531.93677 867.99664 6668.5981 3753024
-492.05118 871.35272 6694.3828 3621438
-452.94696 876.84711 6736.5942 3818817
-411.67865 878.85071 6751.9873 3753024
-375.41721 893.22595 6862.4292 3753024
-333.4993 896.12079 6884.6694 3753280
-291.45316 899.48004 6910.4775 3753024
-249.40526 904.00488 6945.2407 3884610
-201.06784 882.82715 6782.5376 3884356
-161.51668 899.21478 6908.4395 3884356
-117.44881 893.24933 6862.6089 3818563
-74.416237 892.81512 6859.2729 3752770
-31.612133 897.6814 6896.6592 3818820
11.57765 896.13904 6884.8096 3753027
54.682365 895.63538 6880.9399 3687234
97.46862 892.65924 6858.0747 3687234
139.83173 888.81451 6828.5366 3621184
184.4104 897.55481 6895.6865 3884613
226.27946 892.29224 6855.2554 3818563
270.4176 896.229 6885.5005 3752770
310.94647 888.76636 6828.167 3423805
353.31528 887.73163 6820.2178 3555391
394.79834 884.93494 6798.7314 3686977
437.40192 884.94989 6798.8462 3687488
470.39713 867.2478 6662.8457 3753024
512.14191 867.2478 6662.8457 3884610
551.47369 863.46973 6633.8193 3818817
583.27948 849.26306 6524.6733 3818817
616.28339 838.54773 6442.3501 3950403
644.01086 822.4115 6318.3794 3752769
677.49243 815.06683 6261.9521 3818562
698.29279 794.10492 6100.9072 3818819
725.82538 782.57745 6012.3447 3752771
763.21997 782.29602 6010.1821 3884102
786.48053 768.23486 5902.1538 3884105
811.24304 756.83789 5814.5938 3357506
826.07147 737.55078 5666.416 1383718
830.30981 710.78766 5460.8018 330264
864.52344 710.78766 5460.8018 857634
881.72681 697.33478 5357.4463 988968
915.84473 697.75513 5360.6763 922920
953.25812 700.56781 5382.2852 725542
981.44989 696.64258 5352.1284 857127
1016.5773 697.73712 5360.5376 725287
1053.2438 699.78412 5376.2646 593445
1081.7544 696.45349 5350.6758 659236
1101.9727 688.14471 5286.8418 396063
1139.3298 690.71124 5306.5596 461855
1172.8706 690.88409 5307.8877 462109
1206.6956 691.21027 5310.3936 330521
1243.9857 693.45062 5327.6055 1383978
1254.4001 680.98364 5231.8247 3358019
1292.1921 683.63574 5252.2002 3555143
1459.7905 753.12494 5786.0684 3555652
1547.7738 779.16736 5986.1455 3358528
1600.9462 786.86786 6045.3066 3555138
1665.713 799.77936 6144.5024 3423552
1736.6394 814.99829 6261.4258 3358013
1800.5344 826.31799 6348.3916 3358013
1879.2273 843.7926 6482.645 3489342
1958.1326 860.62128 6611.9355 3555391
2023.5491 870.94696 6691.2651 3621184
2075.8066 875.30481 6724.7456 3621184
2156.1758 891.10724 6846.1514 3687234
2222.491 900.59821 6919.0684 3753283
2253.3914 895.65002 6881.0522 3753026
2328.7256 908.21686 6977.6001 3687233
2404.3188 920.41974 7071.3521 3752770
2457.4646 923.74323 7096.8853 3753283
2493.9207 920.78644 7074.1694 3950662
2542.0449 922.16602 7084.7676 3884613
2624.0491 935.57739 7187.8047 3621697
2679.3364 939.17163 7215.4175 3687746
2722.6768 938.52814 7210.4741 3621953
2755.5107 934.34326 7178.3228 3752770
2771.0786 924.53217 7102.9468 3818820
2782.4731 913.66083 7019.4253 3884613
2808.5896 907.88672 6975.0645 3752770
2838.2627 903.42169 6940.7603 3686978
2854.6069 894.91284 6875.3887 3555391
2878.4512 888.97321 6829.7559 3423805
2893.9827 880.67792 6766.0254 3423805
2909.5725 872.63971 6704.2695 3489598
2942.2427 869.87994 6683.0674 3489598
2951.4636 860.36212 6609.9448 3555391
2955.9993 849.76093 6528.4985 3489598
2966.1252 841.03424 6461.4531 3489598
2915.5259 815.55585 6265.7095 3489598
2841.9106 784.40186 6026.3608 3489598
2806.8398 764.56415 5873.9526 3555391
2822.8547 758.9751 5831.0137 3621182
2840.6909 754.01227 5792.8853 3621183
2882.5066 755.45935 5804.0029 3752512
2895.6836 749.45819 5757.8975 3883841
2813.9612 719.34509 5526.5464 3817536
2751.1614 694.74255 5337.5312 4014145
2695.5247 672.51813 5166.7866 3553080
2552.1848 629.1994 4833.9795 2829099
2591.2395 631.33563 4850.3921 2500134
2633.4343 634.17865 4872.2344 2894122
2658.0532 632.7724 4861.4302 3025709
2625.073 617.84143 4746.7192 3750201
2876.8564 669.5166 5143.7266 3947323
3148.8455 724.69708 5567.6641 3685177
3301.0847 751.41022 5772.8945 3619899
3388.0872 762.85577 5860.8281 3620155
3522.6077 784.64038 6028.1934 3620155
3173.457 699.37061 5373.0874 3620155
nan nan nan 16777215
nan nan nan 16777215
3922.6421 837.81439 6436.7158 3620413
3964.7109 838.18243 6439.5435 3489342
4041.7375 845.85901 6498.5205 3489341
4352.1499 901.73865 6927.8296 3489341
4369.9951 896.49506 6887.5444 3423548
4418.915 897.66656 6896.5454 3489341
4475.6299 900.38373 6917.4199 3489341
4529.5488 902.49152 6933.6143 3423548
4588.1162 905.47675 6956.5483 3489341
4565.499 892.53442 6857.1162 3555134
4568.2305 884.74286 6797.2554 3226169
4570.8457 877.073 6738.3296 3094583
4603.439 875.2431 6724.271 3160376
4616.9697 869.85498 6682.8755 3160376
4640.2314 866.38055 6656.1826 3423548
4615.0757 854.00842 6561.1309 3620927
4632.8677 849.73199 6528.2764 3555134
4607.397 837.66498 6435.5684 3555134
4355.4111 784.98218 6030.8193 3686720
4393.1963 784.98218 6030.8193 3686720
4388.1709 777.39795 5972.5518 3818306
4397.7905 772.51465 5935.0342 3818306
4434.9751 772.51465 5935.0342 3620927
4384.0591 757.2962 5818.1147 3489597
4264.1797 730.51434 5612.3569 3555134
4172.2578 708.92096 5446.4604 3752513
4100.6743 691.10565 5309.5898 3686718
4275.7061 714.80573 5491.6714 3620925
4390.2939 728.10327 5593.833 3752254
4047.1189 665.87421 5115.7432 3817791
nan nan nan 16777215
nan nan nan 16777215
nan nan nan 16777215
nan nan nan 16777215
nan nan nan 16777215
nan nan nan 16777215
nan nan nan 16777215
nan nan nan 16777215
5313.2256 816.0238 6269.3042 3619898
5282.0654 805.28479 6186.7993 3488572
5438.3418 823.07013 6323.4395 3751743
5449.5112 818.79565 6290.5996 3685950
5373.3521 801.55548 6158.1479 3685950
5427.5664 803.87067 6175.9351 3685950
5622.083 826.78601 6351.9873 3817536
5698.6992 832.1626 6393.2944 3817793
5727.9731 830.59912 6381.2827 3883329
5767.9536 830.59912 6381.2827 3817536
5867.6611 839.14069 6446.9053 3883329
5969.2959 847.83917 6513.7339 3817793
6136.0391 865.60437 6650.2192 3817536
6208.7734 869.95764 6683.6646 3883328
6375.9946 887.4032 6817.6938 3817535
6485.6309 896.65521 6888.7749 3817535
6615.1885 908.52087 6979.9355 3817535
6782.0117 925.31506 7108.9614 3817536
6874.2812 931.78473 7158.666 3751998
7029.6694 946.67047 7273.0293 3817535
7106.873 950.90326 7305.5493 3817538
7158.936 951.73975 7311.9756 3883075
7246.0161 957.19122 7353.8579 3751489
7360.9351 966.22815 7423.2861 3817282
7434.5298 969.76111 7450.4292 3817282
7489.4224 970.82581 7458.6094 3817282
7566.0479 974.67688 7488.1963 3883076
7711.6826 987.31586 7585.2979 3817282
7779.9761 989.95868 7605.6016 3883075
nan nan nan 16777215
nan nan nan 16777215
nan nan nan 16777215
nan nan nan 16777215
nan nan nan 16777215
-4845.7983 699.86377 5131.1943 2567985
-4939.6729 718.18652 5265.5308 3094329
-4906.6826 718.18652 5265.5308 3488831
-4966.5107 731.8642 5365.8115 3752259
-4933.6616 731.97833 5366.6484 3686721
-4923.1641 735.43292 5391.9766 3818050
-4889.3813 735.43292 5391.9766 3620927
-4917.6313 744.82837 5460.8613 3884099
-4918.3789 750.16077 5499.957 3752513
-4927.9048 756.91675 5549.4897 3620927
-4951.1382 765.88922 5615.2729 3686720
-4945.2021 770.44556 5648.6787 3489341
-4958.1919 778.03729 5704.3394 3028789
-4901.7886 774.77124 5680.3936 3028533
-4810.9604 765.97644 5615.9126 2962226
-4979.2407 798.60992 5855.1714 2634288
-5024.6074 811.86743 5952.3721 2765617
-4988.5811 812.07385 5953.8853 2897203
-4986.6733 817.87915 5996.4478 3094581
-4975.1294 822.18005 6027.9805 3094582
-5059.0791 842.44855 6176.584 3357754
-5096.832 855.27747 6270.6416 3291962
-5077.1206 858.58801 6294.9131 3226169
-5074.0791 864.79144 6340.395 3226169
-5096.2881 875.43036 6418.396 3226169
-4725.2773 818.15454 5998.4673 3160376
-4994.7759 871.75012 6391.4141 3226169
-5135.1406 903.49182 6624.1348 3226169
-4939.6631 876.18024 6423.894 3357755
-4885.4766 873.6875 6405.6182 3291962
-4817.7617 868.71399 6369.1543 3291962
-4688.3291 852.4361 6249.8091 3423548
-4542.4424 832.86694 6106.3335 3423548
-4394.6211 812.60767 5957.7988 3226169
-4270.7085 796.46002 5839.4092 3357755
-4147.627 780.18976 5720.1206 3292219
-4045.6196 767.63452 5628.0693 3292219
-3961.1389 758.21338 5558.9961 3358012
-3882.5564 749.76404 5497.0479 3358012
-3784.3596 737.34192 5405.9727 3160633
-3716.6501 730.68909 5357.1963 3029047
-3605.3401 715.26514 5244.1123 3094840
-3409.4199 682.61725 5004.7476 3160633
-3266.0205 659.9762 4838.7505 3358012
-3100.3369 632.36578 4636.3188 3226938
-2882.3335 593.46063 4351.0776 3095351
nan nan nan 16777215
-2691.2659 564.80438 4140.9785 4740433
-2751.3984 583.0448 4274.7119 5004118
-2656.8293 568.539 4168.3599 5004118
-2599.0754 561.7016 4118.23 5069655
-2583.0144 563.82788 4133.8193 4938325
-2681.7864 591.3172 4335.3628 4806998
-2619.0981 583.40387 4277.3442 3819844
-2534.752 570.45264 4182.3901 3095864
-2624.0403 596.71606 4374.9453 3358525
-3044.7148 699.68774 5129.9033 3489855
-3134.1895 727.93347 5336.9932 3621184
-3135.3308 736.05139 5396.5107 3686977
-3205.2649 760.67206 5577.0225 3752514
-3242.8752 778.07983 5704.6514 3818564
-3249.1646 788.27692 5779.4131 3818563
-3237.1775 794.21979 5822.9844 3884609
-3255.1624 807.73541 5922.0771 3753024
-3245.2822 814.56854 5972.1753 3621438
-3268.199 829.8891 6084.5015 3687231
-3276.5076 841.81818 6171.9614 3555645
-3257.4468 846.91614 6209.3389 3621438
-3218.5432 846.91614 6209.3389 3818817
-3273.1091 871.81238 6391.8701 3884610
-3255.0603 877.74432 6435.3613 3687488
-3235.3967 883.38416 6476.7109 3884610
-3184.2236 880.45465 6455.2329 3819074
-3145.3779 880.90234 6458.5151 3950403
-3106.3118 881.29907 6461.4238 3950403
-3064.481 880.9115 6458.5825 3950660
-3010.8787 877.08459 6430.5244 3950403
-2944.3364 869.33325 6373.6943 3950403
-2916.3484 872.90863 6399.9077 3884867
-2890.5464 877.24713 6431.7163 4016453
-2843.1951 875.07581 6415.7969 3950917
-2801.1094 874.48615 6411.4736 4016453
-2740.5996 868.04376 6364.2402 3950660
-2643.4658 849.63983 6229.3076 4016710
-2604.4373 849.63983 6229.3076 4016453
-2565.1143 849.54236 6228.5933 3753539
-2448.3381 823.39374 6036.8794 3884869
-2457.1572 839.32599 6153.6895 3884869
-2403.1277 833.95569 6114.3164 3753540
-2360.4436 832.41254 6103.0024 3753540
-2326.8123 834.06348 6115.1069 3819076
-2292.1284 835.38629 6124.8047 3950150
-2265.354 839.68567 6156.3271 3884613
-2203.9751 831.08533 6093.2715 3752770
-2153.9678 826.54535 6059.9858 3686977
-2111.9888 824.97845 6048.498 3621184
-2075.4121 825.50311 6052.3447 3686977
-2055.8213 832.92926 6106.791 3686977
-2029.9332 838.03729 6144.2412 3818563
-1978.5928 832.63184 6104.6104 3753027
-1928.1517 827.39935 6066.2471 3950149
-1897.0795 830.43494 6088.5034 4081735
-1812.9597 809.8974 5937.9282 3950406
-1756.5028 801.11591 5873.5449 3884356
-1719.7031 801.11591 5873.5449 3950149
-1670.1624 795.05066 5829.0762 3818563
-1611.3564 784.20514 5749.5601 3686977
-1565.7939 779.4563 5714.7427 3686977
-1531.5604 780.25671 5720.6113 3424062
-1521.9423 793.93628 5820.9058 3489854
-1485.5242 793.96393 5821.1084 3686977
-1450.6548 794.84155 5827.543 3818563
-1448.1011 813.92792 5967.4785 3950149
-1397.2242 806.14545 5910.4199 4081735
-1355.8352 803.56238 5891.4814 4081735
-1319.2389 803.75464 5892.8911 3950149
-1284.5593 805.15948 5903.1909 3950149
-1254.1121 809.37903 5934.1274 3884356
-1209.9004 804.70166 5899.8345 3884356
-1173.7299 805.24622 5903.8271 3753027
-1136.2896 804.92676 5901.4849 3818563
-1099.3149 804.92676 5901.4849 3884356
-1086.1572 822.97266 6033.792 3818563
-1020.9019 801.42267 5875.7939 3621184
-984.08826 801.42267 5875.7939 3686720
-964.948 816.37494 5985.4194 3753281
-927.86914 816.74603 5988.1401 3819074
-882.96387 809.96912 5938.4541 3818817
-846.76575 810.93457 5945.5322 3818817
-809.77173 811.19159 5947.4165 3818817
-763.55298 801.7868 5878.4634 3818817
-733.64703 809.42651 5934.4756 3555901
-690.52625 802.52368 5883.8662 3621438
-653.66199 802.52368 5883.8662 3753023
-626.41473 815.0365 5975.6064 3818817
-588.73981 814.71008 5973.2129 3950402
-551.3158 814.71008 5973.2129 3819074
-527.53943 836.34668 6131.8467 3687231
-489.77634 837.46637 6140.0557 3621437
-451.67212 838.14398 6145.0234 4016196
-419.58191 851.14752 6240.3618 3884610
-383.50723 857.91028 6289.9443 3884610
-345.83652 862.24286 6321.71 3950403
-307.60684 866.12231 6350.1528 3950403
-264.57596 855.62744 6273.207 4016196
-225.27235 855.62744 6273.207 3819074
-186.77339 859.32935 6300.3486 3884357
-148.54294 866.58203 6353.5229 3884356
-108.73615 866.58203 6353.5229 3950149
-68.886879 866.04803 6349.6079 3818563
-28.754198 855.62073 6273.1582 3753027
10.482343 850.20752 6233.4697 3686977
49.636353 851.91339 6245.9766 3752770
89.462486 858.56555 6294.748 3686977
129.51038 862.62402 6324.5044 3621184
174.31992 889.06641 6518.3716 3686977
213.37796 881.70465 6464.3979 3686977
253.68912 881.04376 6459.5522 3686977
291.92645 874.35345 6410.5005 3621184
332.09021 874.35345 6410.5005 3555391
372.68152 875.3576 6417.8628 3489598
413.10959 875.82007 6421.2534 3490109
447.24197 864.03778 6334.8691 3555645
489.17627 868.02032 6364.0679 3555645
517.48364 849.04462 6224.9438 3555645
557.28833 850.27051 6233.9316 3555645
583.98334 832.64404 6104.6997 3621694
618.88513 828.1665 6071.8716 3621694
651.53119 821.36383 6021.9966 3621438
681.10022 811.6391 5950.6978 3555391
712.12415 804.56757 5898.8511 3555392
742.41803 797.40973 5846.3721 3555394
769.02435 787.15045 5771.1543 3621190
796.66431 778.82312 5710.1006 3226436
792.96063 741.88666 5439.2935 1186598
824.69366 739.78235 5423.8652 396314
859.71753 740.67981 5430.4453 988710
881.57562 730.59796 5356.5278 1119785
911.54028 727.72723 5335.481 922408
944.99359 727.74646 5335.6216 988200
977.47406 727.04071 5330.4473 922407
1010.8615 727.03394 5330.3975 790821
1044.8589 727.45221 5333.4644 725028
1070.119 721.95001 5293.1235 461857
1092.6194 714.97272 5241.9683 198940
1135.0964 721.09314 5286.8418 330524
1160.9478 716.60431 5253.9307 462107
1204.6638 723.08594 5301.4521 396310
1269.9807 741.83765 5438.9341 397077
1259.2854 716.36829 5252.2002 2568245
1308.87 725.6142 5319.9888 3620933
1422.0171 768.76379 5636.3486 3621443
1496.042 789.18463 5786.0684 3621187
1544.5594 795.50208 5832.3857 3686979
1600.9742 805.50079 5905.6934 3621186
1650.351 811.58679 5950.314 3752771
1701.1255 818.07605 5997.8916 3752770
1762.5731 829.30658 6080.2305 3621184
1822.7383 839.47137 6154.7559 3621184
1893.1921 853.85516 6260.2139 3555647
1948.8357 861.11115 6313.4126 3489854
2026.2545 877.50879 6433.6343 3555391
2097.9431 890.83331 6531.3262 3555391
2139.9385 891.28088 6534.6074 3423805
2217.1343 906.09723 6643.2368 3292219
2284.6045 916.46631 6719.2598 3358012
2319.1785 913.5025 6697.5303 3358012
2349.6641 909.0625 6664.9771 3358012
2384.9661 906.60815 6646.9829 3555391
2424.5642 905.84326 6641.375 3555391
2462.4558 904.47748 6631.3608 3489342
2510.9456 906.98505 6649.7461 3423805
2545.6768 904.52216 6631.6885 3686977
2601.1672 909.396 6667.4224 3818563
2575.8235 886.30206 6498.104 3818563
2616.5361 886.30206 6498.104 3884356
2639.7839 880.47681 6455.3955 3818563
2635.5864 865.8114 6347.8726 3884356
2667.5708 863.29138 6329.3965 3884356
2692.53 858.60486 6295.0366 3686977
2721.8066 855.41052 6271.6167 3621184
2721.2847 843.07538 6181.1792 3686977
2725.0205 832.38696 6102.8145 3358012
2776.4551 836.36279 6131.9644 3292219
2801.8555 832.49481 6103.6055 3358012
2798.9297 820.4278 6015.1343 3423805
2774.4526 802.44836 5883.314 3489598
2778.1372 792.9787 5813.8853 3555134
2781.625 783.69873 5745.8472 3621182
2790.0784 776.03699 5689.6738 3423547
2820.6135 774.63293 5679.3794 3423548
2738.1423 742.6153 5444.6357 3620413
2735.2856 732.71228 5372.0293 3817279
2591.9475 685.87604 5028.6401 4014400
2608.4253 681.94708 4999.834 3553079
2541.4119 656.54242 4813.5747 2631720
2515.8169 642.30811 4709.2129 2631464
2556.2896 645.07587 4729.5054 2763049
2598.4282 648.19574 4752.3794 3025708
2553.1946 629.69635 4616.7471 3618615
2701.3616 658.77557 4829.9473 3881531
2909.0835 701.57312 5143.7266 3684921
3007.8372 717.44128 5260.0674 3685178
3086.418 728.20593 5338.9907 3620155
3108.0698 725.45209 5318.7998 3620154
3313.1946 765.12659 5609.6816 3554362
3350.2908 765.57208 5612.9482 3620155
3368.0317 761.63159 5584.0571 3488826
3608.936 807.71832 5921.9517 3489083
3646.3201 807.78058 5922.4082 3423548
3721.01 816.02283 5982.8379 3423548
3927.5271 852.72229 6251.9072 3357755
3956.2104 850.4679 6235.3789 3357755
3999.0042 851.26123 6241.1958 3423548
4033.6455 850.32068 6234.2998 3423548
4083.5779 852.59082 6250.9434 3423548
4133.4746 854.81024 6267.2158 3423548
4183.2563 856.96454 6283.0103 3357755
4182.0508 848.7309 6222.6436 3357755
4216.2583 847.76996 6215.5981 3291962
4233.4023 843.42694 6183.7563 3555134
4243.8691 837.84448 6142.8276 3555134
4259.688 833.40942 6110.3115 3555134
4263.8188 826.78705 6061.7583 3489341
4275.7822 821.78699 6025.0991 3423548
4308.1421 820.76038 6017.5718 3423548
4273.7358 807.14191 5917.7256 3489341
4197.2505 785.87897 5761.832 3621184
4132.9888 767.24799 5625.2349 3621183
4137.853 761.65601 5584.2363 3555134
4143.1421 756.23523 5544.4932 3423548
4105.9844 743.2215 5449.0801 3423548
4074.8738 731.50787 5363.1992 3489341
3976.9858 708.09625 5191.5522 3751487
3998.7883 706.20233 5177.6665 3619899
4011.1597 702.68671 5151.8911 3685691
3940.5312 684.80316 5020.7739 3685691
3971.988 684.80316 5020.7739 3620155
3583.0886 612.89972 4493.5996 3817277
nan nan nan 16777215
3255.5266 548.25342 4019.6321 3093554
3418.9346 571.3526 4188.9883 2961712
3427.3027 568.38788 4167.2515 2698540
nan nan nan 16777215
nan nan nan 16777215
nan nan nan 16777215
4355.2783 700.92578 5138.9805 3488315
4399.7769 702.89099 5153.3887 3488315
4672.7495 741.06177 5433.2456 3488571
4855.7266 764.51105 5605.1689 3685950
4941.915 772.4942 5663.6987 3883329
5107.4097 792.67169 5811.6343 3685950
5143.8218 792.67169 5811.6343 3685950
4929.3379 754.28009 5530.1587 3685950
5229.3135 794.59674 5825.748 3751743
5270.8398 795.35516 5831.3086 3685950
5421.9565 812.52625 5957.2017 3751743
5515.1187 820.83679 6018.1328 3685950
5665.3608 837.47241 6140.0996 3685950
5713.8911 838.94958 6150.9302 3685950
5904.6421 861.14874 6313.688 3620157
6037.3452 874.64307 6412.624 3554364
6171.2993 888.13885 6511.5713 3685950
6283.2456 898.31104 6586.1509 3685950
6399.3804 908.94543 6664.1187 3685950
6495.833 916.66437 6720.7119 3685950
6523.5425 914.64569 6705.9116 3751488
6565.8843 914.69128 6706.2456 3751489
6698.3677 927.21405 6798.0591 3751489
6766.8198 930.77112 6824.1387 3751489
6864.0405 938.21576 6878.7202 3751490
6913.5786 939.09058 6885.1343 3751489
6978.4175 942.02008 6906.6123 3751489
7071.4644 948.69775 6955.5713 3751489
7143.271 952.46167 6983.167 3751489
nan nan nan 16777215
nan nan nan 16777215
nan nan nan 16777215
nan nan nan 16777215
nan nan nan 16777215
nan nan nan 16777215
-4768.6611 725.00238 5083.2378 2830131
-4748.0151 726.71698 5095.2593 2962229
-4716.0918 726.71698 5095.2593 3619901
-4711.2949 730.92542 5124.7661 3291192
-4695.8433 733.52734 5143.0093 3225655
-4521.7485 711.21271 4986.5537 3291705
-4734.7803 749.90112 5257.8115 3686720
-4716.6743 752.26733 5274.4014 3620927
-4708.9316 756.33136 5302.896 3555134
-4708.3818 761.61676 5339.9536 3555134
-4700.9199 765.85168 5369.646 3489341
-4689.374 769.47748 5395.0679 3555391
-4618.0815 763.28107 5351.6226 3620670
-4618.6045 768.95038 5391.3721 3751743
-4706.1924 789.30554 5534.0889 3555391
-4765.2134 805.13611 5645.0825 3160377
-4838.7661 823.67719 5775.0806 3094840
-4815.6973 825.92621 5790.8491 3094584
-4840.6992 836.5166 5865.1021 3226169
-4820.728 839.43774 5885.583 3226169
-4794.0864 841.23352 5898.1733 3291962
-4766.9707 842.97314 5910.3711 3357755
-4757.9355 847.96246 5945.353 3291962
-4747.4492 852.7699 5979.0596 3291962
-4709.9888 852.7699 5979.0596 3291962
-4616.5356 842.5509 5907.4106 3291962
-4670.5947 859.30627 6024.8882 3489341
-4583.6689 850.18475 5960.9336 3686720
-4501.4727 841.79773 5902.1294 3752513
-4478.792 844.49359 5921.0312 3686720
-4372.0376 831.24976 5828.1743 3555134
-4229.8457 810.9884 5686.1147 3555391
-4124.8643 797.57776 5592.0884 3423805
-4005.498 781.13214 5476.7827 3423805
-3934.1914 773.85565 5425.7646 3358012
-3835.1104 760.94147 5335.2188 3358012
-3757.947 752.18719 5273.8398 3226426
-3697.9829 746.75079 5235.7231 3226426
-3627.5962 739.09344 5182.0352 3292219
-3554.9026 730.82355 5124.0522 3226426
-3479.3972 721.81976 5060.9233 3292219
-3286.6282 688.09949 4824.499 3292219
-3105.8818 656.29376 4601.498 3292219
-3019.5999 644.03998 4515.583 3292989
-2882.3335 620.57721 4351.0776 3358525
-2745.4768 596.75562 4184.0562 3819333
-2621.7957 575.36603 4034.0864 4740690
-2719.1157 602.53198 4224.5562 4938325
-2618.7705 586.00055 4108.6489 4872789
-2561.9531 578.97772 4059.4097 4938838
-2558.3042 583.95026 4094.2732 4938581
-2548.0222 587.49408 4119.1206 4872532
-2548.9111 593.7124 4162.7192 4083016
-2518.1218 592.60425 4154.9497 3096634
-2708.8154 644.14038 4516.2871 3358780
-2835.3787 681.3537 4777.2021 3358266
-2951.4731 716.8186 5025.8584 3292473
-2987.3589 733.35809 5141.8228 3292729
-3007.2756 746.29529 5232.5298 3489852
-3023.8853 758.68799 5319.4189 3424058
-2999.7805 761.02777 5335.8242 3160887
-3035.0522 778.65363 5459.4048 3029301
-3028.3013 785.77722 5509.3511 3226680
-3043.8516 798.91864 5601.4897 3292473
-3021.511 802.30536 5625.2354 3292473
-3041.2332 817.07275 5728.7749 3358266
-3029.918 823.7547 5775.624 3424059
-3023.0613 831.82495 5832.2075 3621694
-2994.0708 833.92792 5846.9517 3687231
-2979.3462 840.10559 5890.2651 3687231
-2964.0503 846.27502 5933.5215 3753024
-2927.7576 846.53027 5935.311 3884610
-2887.748 845.70349 5929.5142 3950403
-2850.5977 845.70349 5929.5142 4016196
-2814.7915 846.10742 5932.3467 3950403
-2771.3313 844.19073 5918.9082 4016196
-2741.0505 846.2912 5933.6348 3950403
-2705.8618 846.91321 5937.9961 3950660
-2657.5334 843.38269 5913.2422 3819331
-2611.0603 840.3493 5891.9746 3950660
-2566.6929 837.91644 5874.9165 3884867
-2514.9885 832.98273 5840.3247 3950660
-2445.3875 821.88831 5762.5376 3950660
-2421.4854 826.05078 5791.7227 3884867
-2364.7881 818.98218 5742.1621 3819332
-2327.6116 818.56024 5739.2036 3884869
-2292.2271 818.76501 5740.6396 3884869
-2255.1677 818.36847 5737.8594 3819076
-2211.1355 815.38788 5716.9614 3884869
-2181.9756 817.88385 5734.4614 3884869
-2147.0103 818.25085 5737.0342 3885125
-2092.0161 810.867 5685.2637 3884869
-2055.4534 810.4953 5682.6577 3818820
-1992.5104 799.52496 5605.7407 3884356
-1936.7979 791.11432 5546.771 3884356
-1918.4381 797.93243 5594.5752 3884356
-1898.2601 804.23401 5638.7573 3950149
-1855.4099 800.98682 5615.9907 3818563
-1828.8507 804.78302 5642.6069 3950149
-1793.0989 804.60394 5641.3511 3950149
-1729.3851 791.61816 5550.3037 3950149
-1659.127 775.04224 5434.0845 3884356
-1617.2858 771.32465 5408.019 4015942
-1595.9915 777.45697 5451.0146 4016199
-1531.803 762.50555 5346.1851 4081735
-1462.0988 744.07837 5216.9863 4081735
-1414.3427 736.23376 5161.9849 4081735
-1369.6022 729.62842 5115.6724 4081735
-1352.5969 737.83594 5173.2183 4147272
-1320.6418 738.09119 5175.0078 4081735
-1294.5693 741.72974 5200.519 4213321
-1179.0374 692.97662 4858.6943 4213065
-1258.9067 759.52985 5325.3213 4213321
-1215.526 753.32233 5281.7988 4147528
-1182.4338 753.32233 5281.7988 4147528
-1152.4247 755.34302 5295.9663 4081735
-1148.3676 774.99774 5433.7725 3818564
-1126.3026 783.32922 5492.187 3752770
-1091.3995 782.97571 5489.7085 3686977
-1057.0049 782.97571 5489.7085 3753027
-983.82581 753.27991 5281.501 3752770
-991.52887 785.60101 5508.1152 3555648
-957.12402 785.68738 5508.7207 3555391
-897.5011 764.30463 5358.7993 3621440
-867.31561 767.30286 5379.8208 3950660
-825.92059 760.22571 5330.2007 4016196
-773.40894 741.88849 5201.6318 3818817
-764.90411 766.0083 5370.7441 3819075
-748.4162 783.98535 5496.7876 3819076
-687.98566 755.44531 5296.6836 3884868
-661.61084 763.30267 5351.7739 4016454
-627.20148 762.23462 5344.2856 4082504
-590.09082 757.57806 5311.6372 4279627
-557.62042 758.67834 5319.3516 4411212
-517.82361 749.31677 5253.7144 4411213
-494.80713 764.6145 5360.9717 4345419
-473.82156 785.50714 5507.4575 4411468
-446.8403 798.96155 5601.7905 4345419
-418.4892 812.05133 5693.5679 4082248
-386.6102 820.09723 5749.98 4082247
-355.06329 830.57349 5823.4326 4147781
-318.98474 831.6347 5830.8735 4082246
-283.18875 833.80243 5846.0718 4016196
-245.50647 830.23529 5821.0615 4081989
-209.51419 832.13568 5834.3862 4081989
-174.00656 837.17108 5869.6909 4015942
-137.62601 839.58002 5886.5806 3818563
-101.74998 847.95734 5945.3169 3753027
-64.464409 847.47986 5941.9688 3752770
-27.115185 843.71655 5915.583 3358012
9.9297905 842.19098 5904.8872 3292219
47.265167 848.28284 5947.5991 3621184
83.503532 837.99463 5875.4648 3555391
121.55639 846.64001 5936.0801 3226426
160.98952 858.5957 6019.9058 3094839
198.01263 855.5993 5998.8975 2897461
235.56094 855.46631 5997.9644 2963254
273.14008 855.46631 5997.9644 3094583
309.81299 852.97137 5980.4722 3094840
344.47937 846.08661 5932.2002 3160633
379.11945 840.48438 5892.9209 3095094
413.80185 835.96198 5861.2134 3358266
450.52417 835.96198 5861.2134 3292473
486.14752 834.07654 5847.9937 3226680
520.21063 829.96606 5819.1738 3160887
556.04913 829.04108 5812.688 3160887
592.22577 828.70288 5810.3169 3160887
626.33887 825.68359 5789.1479 3226424
653.66193 814.53369 5710.9722 3292219
683.48065 807.48969 5661.584 3357756
700.62042 786.90033 5517.2251 3226429
725.39172 776.41547 5443.7124 3160381
750.00897 766.71484 5375.6978 2896956
790.71143 773.58478 5423.8652 1317670
820.41089 769.56738 5395.6982 593693
858.09882 773.06494 5420.2207 988710
872.3031 755.94501 5300.187 1053993
908.48944 758.43201 5317.624 988199
938.30823 755.61517 5297.8745 790821
968.76807 753.48956 5282.9712 856614
999.58569 751.77344 5270.9385 725028
1038.6071 756.13971 5301.5522 659235
1056.2535 745.15594 5224.541 461855
1089.7402 745.67139 5228.1553 264731
1124.4109 746.94336 5237.0732 264985
1159.7061 748.54614 5248.311 330519
1195.2773 750.23395 5260.145 330774
1254.0742 766.01782 5370.811 264722
1274.2771 758.01874 5314.7271 1844266
1283.7122 744.185 5217.7334 3423555
1379.5753 779.8974 5468.1255 3555650
1449.8046 799.73895 5607.2412 3686980
1484.9357 799.73895 5607.2412 3686979
1525.0118 802.34064 5625.4824 3489600
1582.5775 813.81854 5705.958 3555393
1664.252 836.91302 5867.8813 3686979
1703.0403 837.90894 5874.8643 3621184
1755.9144 845.64655 5929.1147 3621184
1802.1746 849.94409 5959.2466 3621184
1848.26 853.98651 5987.5898 3555391
1905.8221 863.06543 6051.2446 3489598
1947.9039 864.9165 6064.2231 3555647
1988.6229 866.10321 6072.5435 3489598
2028.7285 866.98322 6078.7139 3292219
2067.6584 867.33771 6081.1987 3423805
2107.1667 867.91748 6085.2637 3423805
2142.8381 866.92432 6078.3008 3423805
2175.1187 864.6181 6062.1313 3423805
2211.627 864.0426 6058.0962 3358012
2249.2297 863.90704 6057.1455 3292219
2289.3801 864.73828 6062.9736 3160633
2325.8062 864.15839 6058.9082 3226426
2354.3325 860.70929 6034.7251 3423805
2389.9849 859.93317 6029.2832 3555391
2428.5056 860.1972 6031.1348 3686977
2456.624 856.82501 6007.4912 3752770
2476.2671 850.64319 5964.1479 3686977
2513.6343 850.64319 5964.1479 3752770
2546.6628 849.19647 5954.0044 3555391
2569.2415 844.35706 5920.0742 3686977
2589.3403 838.85223 5881.478 3489341
2598.4507 829.99194 5819.3555 3291962
2623.3926 826.36377 5793.917 3358011
2643.6497 821.37903 5758.9673 3555133
2633.4321 807.18762 5659.4663 3686718
2610.3999 789.49762 5535.4355 3818305
2595.2063 774.61096 5431.0605 3686718
2608.2539 768.43005 5387.7241 3489595
2652.0464 771.3493 5408.1919 3489338
2681.0706 769.95367 5398.4062 3620925
2672.6562 757.97504 5314.4204 3686461
2650.5054 742.44354 5205.5234 3817277
2549.615 705.50159 4946.5112 3948607
2502.7183 684.20801 4797.2148 3487542
2447.1851 661.08679 4635.104 2500134
2441.7046 651.87067 4570.4863 2565671
2516.4182 664.02966 4655.7373 2762537
2551.0178 665.44617 4665.6689 2828330
2513.4238 648.21173 4544.8325 3421236
2526.6785 644.33051 4517.6196 3816507
2786.6038 702.742 4927.1626 3816507
2875.8232 717.29565 5029.2031 3685692
2934.6841 724.0437 5076.5161 3685948
3060.3425 746.95062 5237.1245 3554876
3138.0198 757.78491 5313.0874 3489340
3334.4556 796.7691 5586.4185 3620926
3256.2646 770.00287 5398.7515 3489341
3392.2852 793.92053 5566.4463 3555135
3433.4009 795.36609 5576.5815 3423548
3501.9211 803.06696 5630.5752 3357755
3650.7625 828.84998 5811.3486 3423548
3693.1394 830.19128 5820.7529 3423548
3732.791 830.89978 5825.7207 3423548
3759.531 828.74835 5810.6357 3489341
3788.7427 827.17773 5799.624 3357755
3832.4514 828.77197 5810.8018 3357755
3869.2566 828.85742 5811.4004 3357755
3911.6748 830.13239 5820.3398 3423548
3958.6677 832.34576 5835.8584 3423548
3956.2649 824.22766 5778.9399 3489341
3919.4771 809.15826 5673.2832 3555134
3976.1729 813.4856 5703.6235 3423548
3999.3081 810.93066 5685.7104 3357755
3930.1096 789.86401 5538.0044 3226169
3958.5166 788.61084 5529.2183 3357755
3963.271 782.70831 5487.8335 3423548
3891.8853 761.99963 5342.6382 3489341
3855.8601 748.50842 5248.0469 3555134
3856.1382 742.23303 5204.0479 3555134
3857.6763 736.30341 5162.4731 3489341
3860.5024 730.71619 5123.2993 3489341
3854.2681 723.52026 5072.8462 3423548
3831.3809 713.34155 5001.48 3423548
3849.7844 710.95331 4984.7349 3423546
3867.259 708.43335 4967.0669 3423546
3842.6125 698.29913 4896.0122 3619899
3750.9268 676.23926 4741.3428 3422778
3570.644 638.67865 4477.9927 3620156
3506.5591 622.32593 4363.3384 3685437
3450.4524 607.63116 4260.3086 3027505
3392.5518 592.84863 4156.6631 4211780
3239.4902 561.78857 3938.8904 4343366
3306.5625 569.0849 3990.0474 4277573
3275.5945 559.52484 3923.0186 4079938
3669.708 622.17725 4362.2959 3619645
4317.5122 726.59705 5094.4185 3619644
4327.3018 722.90039 5068.5 3553851
4338.8242 719.54492 5044.9736 3554364
4660.0908 767.23413 5379.3389 3685950
4811.2617 786.43494 5513.9624 3817536
4845.8081 786.43494 5513.9624 3751743
4857.6948 782.78345 5488.3604 3685950
4801.041 768.21606 5386.2236 3685950
4852.1836 770.98022 5405.604 3488571
4956.9038 782.16022 5483.9907 3422778
5039.6328 789.74005 5537.1357 3488571
5224.0547 813.04321 5700.522 3554364
5268.0605 814.32477 5709.5073 3751743
5360.0029 822.94891 5769.9741 3620157
5534.4556 844.04077 5917.8564 3488571
5586.7363 846.34406 5934.0054 3554364
5704.6167 858.48889 6019.1572 3620157
5804.1655 867.73364 6083.9751 3620157
5878.0918 873.05206 6121.2646 3554364
5926.6084 874.55206 6131.7817 3554364
5976.2681 876.20038 6143.3384 3619902
6031.5 878.63922 6160.438 3488317
6109.7729 884.38232 6200.7046 3619903
6210.8198 893.32843 6263.4287 3488317
6301.1138 900.62518 6314.5894 3488317
6338.8042 900.35925 6312.7246 3422524
6325.6499 892.91956 6260.562 3356731
6386.6294 895.97144 6281.96 3554110
6468.8594 901.94904 6323.8711 3554110
nan nan nan 16777215
nan nan nan 16777215
nan nan nan 16777215
nan nan nan 16777215
nan nan nan 16777215
nan nan nan 16777215
-4533.0859 719.30139 4832.1226 3159606
-4493.8013 717.862 4822.4531 3291448
-4522.1816 727.28564 4885.7593 3291191
-4491.5713 727.28564 4885.7593 3225399
-4227.0957 689.1579 4629.6245 3356985
-4211.5566 691.36865 4644.4761 3356985
-4506.3853 744.91449 5004.1865 3291705
-4509.8555 750.71118 5043.1274 3292218
-4493.6855 753.29724 5060.5 3555134
-4497.4053 759.27795 5100.6772 3555134
-4486.5869 762.87225 5124.8232 3686464
-4489.2891 768.83392 5164.8726 3686720
-4468.0488 770.75201 5177.7578 3620414
-4473.1055 777.2677 5221.5288 3620158
-4460.4404 780.77722 5245.105 3292218
-4429.229 781.0683 5247.0605 3226169
-4439.2539 788.69 5298.2617 3226169
-4523.3374 809.68304 5439.2886 3357755
-4501.0791 811.81494 5453.6104 3423548
-4488.2896 815.70038 5479.7119 3423548
-4478.6597 820.2243 5510.1025 3489341
-4466.6924 824.38721 5538.0684 3423548
-4413.7153 820.98706 5515.2271 3357755
-4425.9092 829.75134 5574.103 3423548
-4402.1504 831.86102 5588.2759 3555134
-4325.938 824.01324 5535.5562 3621184
-4338.9741 833.17596 5597.1099 3621184
-4329.3408 838.09991 5630.187 3686977
-4306.1177 840.45203 5645.9888 3687234
-4244.0903 835.20679 5610.7524 3818563
-4154.5449 824.41345 5538.2446 3752770
-4007.1882 801.86969 5386.7998 3818563
-3957.592 798.67181 5365.3174 3686977
-3853.0518 784.23608 5268.3408 3753027
-3774.4927 774.88452 5205.519 3621184
-3693.1462 764.79291 5137.7256 3489598
