# .PCD v0.7 - Point Cloud Data file format
VERSION 0.7
FIELDS x y z rgb
SIZE 4 4 4 4
TYPE F F F U
COUNT 1 1 1 1
WIDTH 1275
HEIGHT 1
VIEWPOINT 0 0 0 1 0 0 0
POINTS 1275
DATA ascii
1460.25 624.95477 1970.6792 3290677
1479.8958 628.05237 1980.4468 2764333
1505.5629 633.63251 1998.0427 2764333
1526.4518 637.12628 2009.0598 2764333
1558.2957 645.09808 2034.1973 2764589
1580.3533 648.922 2046.2555 2895919
1599.8076 651.62408 2054.7759 3290677
1595.5037 644.68323 2032.8892 3159091
1612.101 646.23077 2037.7692 3093298
1636.5514 650.87732 2052.4211 3290677
1658.4302 654.43665 2063.6448 3882814
1652.1768 646.92542 2039.9596 3948607
1667.0087 647.72235 2042.4725 3817021
1693.613 653.04645 2059.261 3817021
1700.6315 650.79504 2052.1616 3685435
1700.6204 645.90747 2036.7495 3422263
1721.1923 648.85205 2046.0348 3356470
1729.1215 647.02228 2040.2649 3488056
1731.8564 643.29004 2028.4961 3159091
1744.3694 643.21771 2028.2678 3027505
1762.4264 645.17596 2034.4429 3159091
1775.9805 645.46942 2035.3684 3290420
1789.2404 645.65265 2035.9462 3224370
1803.2266 646.09351 2037.3362 3158834
1815.9911 646.09351 2037.3362 3093298
1821.0984 643.38818 2028.8055 2764590
1824.3641 640.07428 2018.3557 2764333
1863.4338 649.28137 2047.3884 3093555
1883.6416 651.83533 2055.4419 3225141
1893.5089 650.80042 2052.1787 3159091
1905.0889 650.36444 2050.8037 3159091
1934.7135 656.05292 2068.7415 3093298
1947.9248 656.13715 2069.0071 3093298
1960.5103 656.0108 2068.6086 3093298
1964.283 652.95673 2058.978 3224884
1987.4253 656.33911 2069.6438 3027505
2007.4707 658.66156 2076.9673 3093298
2020.6287 658.70886 2077.1165 3224884
2037.3412 659.90692 2080.8943 3290677
2047.1819 658.87805 2077.6499 3093297
2067.9443 661.3551 2085.4609 3027508
2080.9792 661.34521 2085.4297 3159093
2093.813 661.27191 2085.1985 3290679
2104.5615 660.54504 2082.9065 3290679
2115.9297 660.02045 2081.2522 3290679
2114.0242 655.38708 2066.6418 3356472
nan nan nan 16777215
nan nan nan 16777215
nan nan nan 16777215
nan nan nan 16777215
nan nan nan 16777215
nan nan nan 16777215
nan nan nan 16777215
nan nan nan 16777215
nan nan nan 16777215
nan nan nan 16777215
nan nan nan 16777215
-1711.1719 610.20013 1887.0686 3093811
-1705.2653 612.32465 1893.6387 3093811
-1696.5978 613.48059 1897.2135 3093811
-1684.9386 613.56342 1897.4696 2699053
-1665.2051 610.68628 1888.5719 2699053
-1672.9175 617.90533 1910.8972 3291190
-1674.0468 622.77942 1925.9705 3883327
-1642.4192 615.44952 1903.3025 4409671
-1630.4943 615.44952 1903.3025 4541257
-1610.5389 612.39594 1893.8591 3949120
-1603.9835 614.43011 1900.1499 3225654
-1600.2623 617.5885 1909.9174 3488569
-1588.0178 617.48035 1909.5828 3488312
-1567.7231 614.21649 1899.4893 3356726
-1556.1675 614.35278 1899.9106 3159604
-1546.6218 615.29077 1902.8116 3159348
-1539.4485 617.19446 1908.6989 2962482
-1531.192 618.69043 1913.3251 2830383
-1511.2516 615.4516 1903.309 2830382
-1496.4298 614.26245 1899.6313 3224883
-1492.5364 617.57611 1909.879 3225141
-1480.5704 617.57611 1909.879 3028274
-1463.0251 615.22992 1902.6234 2765359
-1457.6517 618.00574 1911.2076 3357753
-1433.8474 612.94855 1895.5682 3949890
-1419.5078 611.88678 1892.2845 3423803
-1406.8757 611.54932 1891.241 3619899
-1388.2595 608.58282 1882.067 3620155
-1382.7465 611.35876 1890.6517 3620155
-1371.4176 611.58917 1891.3643 3488569
-1353.0758 608.66888 1882.3331 3488569
-1330.9717 603.98993 1867.8633 3554362
-1328.4866 608.21002 1880.9139 3883327
-1318.2308 608.9162 1883.0979 3488569
-1308.6125 609.93219 1886.2399 3422776
-1295.9572 609.53827 1885.0217 3422776
-1287.2516 611.01196 1889.5792 3291190
-1276.9061 611.72736 1891.7916 3159604
-1273.1849 615.65942 1903.9517 3028018
-1248.8342 609.59595 1885.2 3028018
-1246.8932 614.4599 1900.2421 3291190
-1231.2976 612.62402 1894.5645 3225397
-1219.4276 612.62402 1894.5645 3225397
-1213.316 615.54541 1903.5991 3356983
-1201.3894 615.54541 1903.5991 3422776
-1190.8752 616.27643 1905.8597 3028018
-1180.7477 617.2243 1908.791 3751741
-1168.7886 617.2243 1908.791 4080706
-1158.6178 618.17847 1911.7418 4146499
-1148.6068 619.23877 1915.0209 3883327
-1136.2906 619.06555 1914.4851 3751998
-1125.9635 619.98389 1917.3251 3751741
-1108.2695 616.82178 1907.5463 3685948
-1093.7268 615.36377 1903.0374 3620155
-1089.5991 619.7981 1916.7506 4212292
-1071.9821 616.57251 1906.7754 4277828
-1056.6094 614.57971 1900.6125 4343621
-1041.2594 612.55481 1894.3505 4278085
-1040.9271 619.41968 1915.5804 3752511
-1033.4791 622.16107 1924.0582 3818304
-1020.1531 621.38678 1921.6637 4081476
-1015.6831 626.05273 1936.0933 4081476
-1000.756 624.30798 1930.6975 3949890
-993.15063 627.14386 1939.4677 4015683
-988.66132 632.04218 1954.6158 4015683
-983.86017 636.86145 1969.5198 4476234
-966.5531 633.60516 1959.4496 4213062
-951.31879 631.6413 1953.3762 4081476
-937.02551 630.25928 1949.1022 4081476
-927.34528 631.98444 1954.4374 4015683
-915.17377 632.03528 1954.5947 4015683
-906.35461 634.4342 1962.0133 3949890
-895.40295 635.38574 1964.9561 3555132
-883.09192 635.38574 1964.9561 3489595
-871.88739 636.19318 1967.453 4147526
-866.6225 641.41986 1983.6168 4015940
-851.12317 639.11359 1976.4845 3752511
-839.28186 639.52655 1977.7616 3752255
-821.30005 635.2027 1964.39 3554362
-809.13922 635.31799 1964.7465 3225397
-796.82953 635.31799 1964.7465 3356983
-776.03632 628.44794 1943.5005 3159604
-769.13159 632.78528 1956.9139 3554362
-756.87091 632.78528 1956.9139 3620668
-741.02802 629.74103 1947.4995 3226423
-731.17816 631.77307 1953.7837 3291960
-718.93262 631.76923 1953.7717 3357753
-720.05585 643.71655 1990.7194 3489339
-707.58337 643.71655 1990.7194 3818304
-684.90344 634.26379 1961.4863 3884097
-670.82642 632.578 1956.2729 3291960
-655.48047 629.61066 1947.0963 3423546
-641.79071 628.15173 1942.5846 3950146
-623.68945 622.23517 1924.2874 3489083
-612.7735 623.39526 1927.875 3226169
-602.44055 625.20697 1933.4779 3423546
-595.08252 630.24384 1949.0544 3357753
-582.87109 630.24384 1949.0544 2962995
-569.27222 628.71155 1944.3158 2897202
-556.24982 627.76282 1941.3818 3291960
-546.96442 631.08331 1951.6506 3620925
-533.99438 630.20721 1948.9413 3291960
-526.13721 635.46539 1965.2024 3423546
-510.60812 631.48749 1952.9006 4081476
-498.5257 631.68146 1953.5004 3357753
-485.21375 630.28815 1949.1915 3489339
-474.08304 631.72937 1953.6486 3291960
-465.42395 636.62775 1968.797 3555132
-454.48123 638.58423 1974.8474 3818304
-443.4147 640.47131 1980.6833 3357753
-432.28174 642.36841 1986.5503 3160374
-418.07431 639.67389 1978.2173 3160374
-404.48563 637.79028 1972.3923 3620925
-392.84094 638.94995 1975.9785 4147269
-379.64551 637.58075 1971.7441 4081476
-368.37503 639.46088 1977.5586 3555132
-355.97131 639.43628 1977.4824 3357753
-342.56323 637.54071 1971.6204 3357753
-332.34363 641.65924 1984.3572 3160374
-322.20871 646.26794 1998.6096 3094581
-308.48389 643.75757 1990.8462 3160374
-291.08957 633.05536 1957.7493 3555388
-279.18875 633.88428 1960.3127 3423546
-267.45233 635.17993 1964.3197 3094581
-257.08755 640.01526 1979.2729 3291960
-243.42134 636.70532 1969.0369 3226167
-230.20988 634.29486 1961.5824 3555132
-217.5838 633.31641 1958.5565 3423802
-205.38235 633.53082 1959.2196 3424059
-194.22475 637.19708 1970.5577 3160631
-185.76541 650.81433 2012.6694 3620668
-169.69783 637.81873 1972.4802 3620668
-155.0842 628.67578 1944.2052 3555132
-142.74872 627.99634 1942.104 3818304
-130.38441 627.05164 1939.1826 3752767
-118.57259 628.8429 1944.7222 3818304
-107.12252 633.1828 1958.1433 3751484
-95.430199 637.02814 1970.0353 2764589
-83.486603 640.08948 1979.5026 2961968
-70.89592 638.39215 1974.2535 3093555
-59.103828 644.68835 1993.7247 3290677
-46.61784 644.7619 1993.9523 3356726
-34.2062 646.29395 1998.6901 3488569
-21.972172 654.88947 2025.2721 3225397
-9.2840395 654.94757 2025.4519 3093811
3.4295559 659.46851 2039.4329 2962225
16.207235 659.46851 2039.4329 3028018
28.802687 655.32233 2026.6108 3554362
41.116127 649.26019 2007.8634 3883327
54.331631 656.94574 2031.6311 3488569
67.091888 657.25391 2032.5841 3356983
78.740288 648.3092 2004.9225 3291190
90.94841 645.80023 1997.1633 3817534
102.97064 642.73792 1987.6929 4146499
115.08952 640.87451 1981.9303 3685948
127.40551 640.36475 1980.3538 3225397
138.34517 633.64166 1959.5624 3422776
150.79736 634.3775 1961.8381 3487799
163.49725 635.966 1966.7505 3553593
175.82506 635.9859 1966.8121 3290677
188.21767 636.22223 1967.543 3422007
200.5975 636.38904 1968.0588 3290420
213.12241 636.97003 1969.8556 3159091
227.21196 641.90784 1985.1259 3554362
238.6673 639.27728 1976.9907 3423032
250.9312 638.96521 1976.0258 3554362
263.87881 640.34155 1980.2821 3357239
275.58359 638.71387 1975.2484 3356983
288.37674 639.64014 1978.1129 3159860
301.91684 642.07861 1985.6541 3686205
312.30487 637.88593 1972.688 3686205
327.33365 643.13037 1988.9067 3817534
341.49225 646.3432 1998.8425 3751741
349.7587 638.57117 1974.8071 3554362
361.14761 636.8363 1969.4419 3291190
368.90619 629.02582 1945.2878 3356983
380.25961 627.64856 1941.0286 3356983
392.42075 627.64856 1941.0286 3488569
406.4017 630.47174 1949.7593 3291190
417.11649 628.21106 1942.7679 2962482
431.61462 631.61493 1953.2947 3093811
445.19946 633.53156 1959.2219 3356983
456.22299 631.79828 1953.8617 3554362
470.05249 633.93988 1960.4847 3291190
483.37119 635.30103 1964.6941 3685948
496.81671 636.7572 1969.1973 3685948
509.88733 637.67383 1972.0321 3356470
522.5968 638.10626 1973.3693 3093554
535.03046 638.18958 1973.627 3093555
546.24609 636.84912 1969.4816 3290933
558.58551 636.84912 1969.4816 3094324
568.00452 633.59149 1959.4072 3423289
576.86096 629.85742 1947.8596 3883583
592.07031 633.07098 1957.7976 3620926
603.9165 632.63104 1956.437 3753024
611.55609 627.88953 1941.7738 4015939
622.22931 626.38702 1937.1271 4608076
635.22028 627.23047 1939.7356 4739406
650.13721 629.90839 1948.0171 4410441
662.3421 629.90839 1948.0171 3620925
669.38763 625.09045 1933.1173 3489339
684.06134 627.44043 1940.3849 3357753
696.44391 627.64362 1941.0132 3423546
711.52924 630.23383 1949.0234 3621182
729.3183 635.091 1964.0446 3621182
740.31396 633.96942 1960.576 3685948
748.70367 630.68927 1950.4321 3488313
761.17841 630.90039 1951.0848 3093554
771.89539 629.6709 1947.2826 2962225
784.0957 629.6709 1947.2826 3028018
794.93097 628.59149 1943.9446 3290933
813.8432 633.83514 1960.1608 3290934
828.22485 635.44684 1965.1449 2961969
840.53705 635.44684 1965.1449 3554363
852.37207 635.09119 1964.0452 3619898
869.10803 638.34546 1974.109 3422520
891.25732 645.42847 1996.0135 3159604
898.67804 641.79712 1984.7834 2896432
903.55457 636.4726 1968.3171 2830639
912.39001 634.04266 1960.8025 3225397
926.6142 635.37238 1964.9147 3620155
945.86444 640.0683 1979.4371 3554362
958.26624 640.0683 1979.4371 3554362
971.05182 640.32135 1980.2196 2962225
987.80682 643.15253 1988.9751 2896432
1005.9619 646.81335 2000.2964 2962225
1018.4944 646.81335 2000.2964 3159861
1021.9355 641.10992 1982.6583 3291190
1038.6229 643.75372 1990.8344 3225397
1054.299 645.71533 1996.9006 3225397
1065.8948 645.16125 1995.1871 2830896
1078.2428 645.06995 1994.9049 2830639
1082.7228 640.3277 1980.2391 2896432
1095.1295 640.3277 1980.2391 2830895
1110.7341 642.17651 1985.9568 3093811
1116.481 638.34814 1974.1174 3159604
1138.2957 643.68988 1990.6368 3488569
1149.6708 643.07635 1988.7396 3620155
1166.95 645.74304 1996.9865 3422776
1171.2341 641.23859 1983.0562 3028018
1182.1315 640.41125 1980.4977 3028018
1196.1926 641.29724 1983.2377 3028018
1209.9183 641.98712 1985.3711 3356983
1210.5234 635.77197 1966.1504 3488569
1221.3285 634.98511 1963.717 3422776
1234.8121 635.59265 1965.5958 3357240
1249.8754 636.99316 1969.9271 3093555
1260.3011 636.02612 1966.9364 3356470
1272.8685 636.14795 1967.3132 3356470
1283.5909 635.35425 1964.8588 3488056
1294.4202 634.62805 1962.6129 3553849
1298.7706 630.76904 1950.6787 3422776
1312.0096 631.25854 1952.1924 3488569
1323.1205 630.72449 1950.5409 3488569
1333.6738 629.93695 1948.1055 3685948
1339.2969 626.85602 1938.5776 3488569
1349.9644 626.17035 1936.457 3751741
1354.0714 622.48096 1925.0475 3883327
1356.7913 618.22467 1911.8848 3685948
1359.9918 614.26001 1899.6238 3356983
1389.8993 622.32196 1924.5557 3290934
1404.5361 623.46674 1928.0959 4080193
1416.5713 623.4469 1928.0347 4080193
1447.4259 631.64008 1953.3724 3422263
1459.8457 631.71851 1953.615 3093298
1485.1234 637.31342 1970.9175 3224884
1504.4097 640.26611 1980.0488 3224884
1536.1395 648.4231 2005.2745 3027505
1552.2875 649.92377 2009.9155 2830126
1564.7665 649.87659 2009.7695 2961712
1576.1595 649.38269 2008.2421 2895919
1577.5696 644.81616 1994.1199 3027505
1606.1545 651.34155 2014.3 2961712
1618.0334 651.04327 2013.3777 3093298
1621.5985 647.4303 2002.2043 3027505
1634.1429 647.4303 2002.2043 3027762
1642.212 645.67065 1996.7627 3290677
1662.3475 648.646 2005.964 3488056
1675.897 649.02618 2007.1396 3290677
1695.8503 651.86206 2015.9098 3356470
1708.4806 651.86206 2015.9098 3488056
1721.345 651.95081 2016.1842 3488056
1723.2477 647.91675 2003.7086 3356470
1731.46 646.29614 1998.6969 3356470
1738.3984 644.22675 1992.2972 3356727
1749.8914 643.86273 1991.1714 3225141
1762.3666 643.86273 1991.1714 3159091
1782.2833 646.56226 1999.5199 3027505
1811.7184 652.65302 2018.3557 2435368
1824.1979 652.59357 2018.1719 2501161
1825.4731 648.5542 2005.6802 3026991
1838.0392 648.5542 2005.6802 3158834
1847.5869 647.49634 2002.4087 3093555
1862.0272 648.15594 2004.4484 3159091
1889.816 653.422 2020.7338 3159091
1906.9999 654.97552 2025.5382 3027505
1919.6907 654.97552 2025.5382 3159091
1916.7058 649.66235 2009.1071 3553849
1933.0497 650.92725 2013.0187 3224884
1960.2125 655.79523 2028.0731 3159091
1972.9192 655.79523 2028.0731 3093298
1984.4038 655.39166 2026.8252 3224884
1997.6622 655.57538 2027.3933 3159091
2014.8605 657.0415 2031.9274 3027507
2037.4835 660.24719 2041.8411 3093557
2043.7772 658.1543 2035.3687 3422265
2053.0767 657.04932 2031.9514 3290679
2063.8137 656.4151 2029.9902 3290679
2068.0339 653.7287 2021.6825 3224886
nan nan nan 16777215
nan nan nan 16777215
nan nan nan 16777215
nan nan nan 16777215
nan nan nan 16777215
nan nan nan 16777215
nan nan nan 16777215
nan nan nan 16777215
nan nan nan 16777215
nan nan nan 16777215
nan nan nan 16777215
nan nan nan 16777215
-1670.7952 611.51007 1855.3608 3093811
-1661.0637 612.2077 1857.4775 2962482
-1652.1462 613.21741 1860.5409 2962225
-1641.0696 613.43427 1861.199 2896432
-1626.6144 612.38232 1858.0073 3422776
-1624.443 615.97314 1868.902 3751741
-1619.7704 618.66071 1877.0563 3817534
-1594.5889 613.49713 1861.3895 3817534
-1586.4039 614.84479 1865.4785 3291190
-1574.3914 614.71796 1865.0938 2896432
-1561.929 614.41229 1864.1664 2962225
-1548.2057 613.60229 1861.7089 3225397
-1534.394 612.74475 1859.1069 2897716
-1525.8855 614.008 1862.9397 3160630
-1509.2062 611.9776 1856.7792 3357753
-1502.1768 613.85889 1862.4872 3357752
-1492.193 614.55292 1864.593 3225910
-1480.1866 614.41846 1864.1849 3225911
-1466.0132 613.37506 1861.0193 3422776
-1454.4496 613.41571 1861.1426 3356727
-1445.7711 614.68353 1864.9894 3225397
-1434.0864 614.68353 1864.9894 3225141
-1421.6401 614.35449 1863.991 3028018
-1379.4506 601.06006 1823.6548 3423033
-1386.2909 609.08551 1848.0045 4014913
-1374.7126 609.08551 1848.0045 4475464
-1352.2271 604.21185 1833.2177 3883327
-1339.0204 603.43628 1830.8645 3751741
-1336.2544 607.39307 1842.8696 3356983
-1318.5934 604.58942 1834.363 3225397
-1302.5319 602.47614 1827.9514 3225397
-1313.9425 613.1452 1860.322 3291190
-1302.287 613.1452 1860.322 3291190
-1284.0723 610.02917 1850.8676 3422776
-1272.5172 610.04889 1850.9274 3356983
-1260.8076 609.9942 1850.7616 3291190
-1250.9929 610.86383 1853.4 3422776
-1240.9478 611.63611 1855.7433 3422776
-1231.8484 612.89368 1859.5587 3028018
-1227.4296 616.52618 1870.58 3159604
-1211.6633 614.47406 1864.3538 3422776
-1203.5902 616.32141 1869.9587 3356983
-1203.7285 622.45123 1888.557 3356983
-1189.0813 620.98132 1884.097 3159604
-1170.4486 617.37952 1873.1692 2830639
-1155.2969 615.55957 1867.6472 3356983
-1140.7407 614.02301 1862.9851 4014913
-1128.3373 613.62518 1861.7783 3949120
-1116.6726 613.62518 1861.7783 3620155
-1107.0698 614.77014 1865.2522 3554362
-1095.3833 614.77014 1865.2522 3817534
-1081.1006 613.29724 1860.7832 3751741
-1069.7157 613.45404 1861.259 3554362
-1058.1709 613.52167 1861.464 3686718
-1042.0326 610.89777 1853.5031 3489596
-1030.4197 610.89777 1853.5031 3686974
-1034.1178 620.07843 1881.3578 3620925
-1024.0343 621.11182 1884.4932 3884097
-1002.3201 615.03265 1866.0486 3950147
-990.39661 614.88855 1865.6113 4213062
-980.4939 616.01056 1869.0156 4147269
-967.27283 615.04974 1866.1003 3686718
-958.00842 616.612 1870.8405 3686718
-954.22266 621.78308 1886.5297 3884097
-952.34906 628.34528 1906.4399 4344648
-939.40875 627.67987 1904.421 4147269
-927.47693 627.67987 1904.421 4015683
-913.88446 626.54138 1900.9667 3818561
-900.729 625.67627 1898.3419 3884097
-895.32483 630.24451 1912.2021 3818561
-886.79327 632.7052 1919.6682 3818304
-872.95361 631.39435 1915.691 3818304
-875.58746 642.12811 1948.2581 3949890
-857.67761 637.88623 1935.3878 4015683
-835.10602 630.00598 1911.4785 3884097
-826.92352 632.90948 1920.288 3884097
-816.4856 634.14691 1924.0424 3818304
-811.75598 639.92139 1941.5626 3752768
-793.38678 634.95575 1926.4965 3555132
-781.94592 635.4671 1928.0479 2897202
-767.76099 633.72949 1922.7759 3094069
-755.71423 633.72949 1922.7759 3422776
-737.13403 628.16199 1905.8837 3554362
-726.12842 628.97217 1908.3418 2896432
-702.70569 618.87366 1877.7024 3159604
-694.7702 622.30322 1888.1078 3356726
-690.77789 629.44464 1909.7754 3554618
-687.81659 637.79382 1935.1073 3489339
-664.55414 627.28015 1903.2083 3555389
-650.2005 624.94501 1896.1233 3291960
-636.81207 623.46808 1891.6421 3160374
-624.96039 623.46808 1891.6421 3226167
-612.94122 623.29779 1891.1255 3028788
-599.03455 621.16357 1884.6501 3423545
-588.18146 622.17358 1887.7146 3357753
-580.56909 626.72339 1901.519 3160374
-571.7373 630.11993 1911.8243 3620925
-559.75916 630.11993 1911.8243 3752511
-545.07501 627.00732 1902.3804 3160374
-538.7298 633.56219 1922.2683 3357753
-527.13086 634.09705 1923.8911 3423546
-509.63452 627.39685 1903.5624 2831409
-494.81299 623.74738 1892.4896 2634030
-489.04288 631.60876 1916.3416 3949890
-477.96072 632.83264 1920.0548 4476234
-465.931 632.83264 1920.0548 4410441
-454.34036 633.44482 1921.9124 3884097
-442.40054 633.59033 1922.3536 3291960
-438.44073 645.49237 1958.4653 3423546
-424.03748 642.26184 1948.6636 3357753
-411.10675 641.13629 1945.2487 3226167
-397.42136 638.72906 1937.9449 3555132
-385.81699 639.62006 1940.6483 4015683
-374.01083 640.22357 1942.4795 3620925
-362.36868 641.15796 1945.3145 3226167
-340.48868 623.4126 1891.4738 3555132
-327.46603 621.18933 1884.7284 3226167
-317.68405 625.17719 1896.8278 3357753
-308.72128 631.1499 1914.9492 3884097
-292.30356 621.74829 1886.4242 4081476
-288.2594 638.98279 1938.7148 3752511
-275.00323 636.41516 1930.9244 3686718
-261.26456 632.44318 1918.8732 3226167
-247.22148 627.31561 1903.3158 3160374
-234.76157 625.8891 1898.9878 3160374
-222.82321 625.77509 1898.6418 3423546
-210.92764 625.77509 1898.6418 3423546
-198.56461 624.30542 1894.1827 3555132
-186.75966 624.51501 1894.8187 3357753
-175.05977 625.1283 1896.6794 3620925
-163.17648 625.1283 1896.6794 3621181
-150.16158 620.45251 1882.4927 3423546
-138.41635 620.67303 1883.1619 3752511
-126.90946 622.10297 1887.5002 3489339
-114.93826 621.31683 1885.1151 3358009
-104.07905 627.05017 1902.5104 3751485
-91.842842 624.8974 1895.9789 3751741
-80.588333 629.77679 1910.7833 3093811
-69.440674 637.3396 1933.7292 3817790
-56.695873 630.34204 1912.4983 3685435
-45.631985 643.29059 1951.7849 3356983
-33.589912 646.88159 1962.6802 3422776
-21.368225 649.16345 1969.6036 3422776
-9.0319061 649.44092 1970.4453 3949120
3.2844279 643.73401 1953.1304 3883327
15.770879 654.08105 1984.524 3751741
28.160641 653.06317 1981.4354 3685948
41.001266 659.9248 2002.2542 3883327
52.848423 651.32745 1976.1692 3554362
64.806511 647.1015 1963.3475 3488569
76.999275 646.1933 1960.5919 3422776
89.729225 649.42297 1970.391 3883327
101.30734 644.54315 1955.5853 4080706
112.63781 639.31073 1939.7097 3817534
124.56276 638.14301 1936.1669 3291190
135.91464 634.50726 1925.1357 3356983
148.35172 636.11737 1930.0209 3291446
159.95866 634.19354 1924.1838 3290933
170.92152 630.16473 1911.9602 3356470
185.29504 638.41467 1936.9911 3356470
197.43089 638.41467 1936.9911 3290677
208.86664 636.28192 1930.5203 3224884
222.58348 640.95135 1944.6875 3290677
235.02158 641.64484 1946.7916 3093298
244.57874 634.7926 1926.0015 3093298
256.78357 635.13348 1927.0359 2961712
269.89114 637.57635 1934.4476 2830126
283.21906 640.3075 1942.734 2961969
295.37152 640.2655 1942.6067 3224627
304.41635 633.7572 1922.86 3159091
314.00705 628.8374 1907.9331 3290677
325.15817 627.289 1903.235 3356470
340.31039 633.29584 1921.4602 3027505
352.93219 634.34412 1924.6407 3093811
359.49026 624.78461 1895.6366 3356983
369.33246 621.36169 1885.2512 3949120
382.8432 624.13153 1893.6552 4014913
394.70755 624.13153 1893.6552 3685948
404.6745 621.21887 1884.818 3422776
421.89398 629.28912 1909.3036 3225397
435.93021 632.29712 1918.4301 3422776
445.99341 629.53564 1910.0516 3356983
458.3631 630.08905 1911.7307 3291190
469.07715 628.39642 1906.5952 3751741
482.06906 629.76355 1910.743 3554619
497.68314 634.40698 1924.8314 3555132
509.7428 634.40698 1924.8314 3752511
522.24921 634.95007 1926.4792 3752767
529.1781 628.84076 1907.9434 4015940
544.22125 632.43079 1918.8356 4278855
555.22406 631.27185 1915.3193 4278599
560.95996 624.30042 1894.1675 3687488
573.55402 625.09216 1896.5698 4410954
582.96033 622.44818 1888.5477 4279113
603.74487 631.81665 1916.9722 4279113
618.25073 634.37708 1924.7408 4937044
621.23279 625.24152 1897.0229 4739665
633.39868 625.51849 1897.8633 4805459
642.97205 623.27209 1891.0476 4147786
657.88641 626.1908 1899.9031 3160378
672.71606 628.92651 1908.2034 3160373
681.69556 626.19281 1899.9091 3225398
695.26355 627.6955 1904.4685 3554362
706.30493 626.90491 1902.0697 3883070
727.08691 634.6427 1925.5468 3093811
733.34204 629.65503 1910.4138 3422776
747.48499 631.49133 1915.9854 3554362
753.56299 626.5639 1901.0352 3488569
769.73981 630.05591 1911.6301 2633260
784.79144 632.53412 1919.149 2304552
796.60278 632.36523 1918.6367 3488569
814.98511 637.34009 1933.7307 3751741
820.14313 631.97894 1917.4646 3356983
832.01086 631.86816 1917.1285 3422776
846.04352 633.38135 1921.7196 3291190
865.88611 639.14062 1939.1937 3488569
879.40253 640.13556 1942.2123 3291190
887.28369 637.05725 1932.8726 3225397
907.27985 642.64313 1949.8204 2764846
919.03271 642.31927 1948.8379 2896432
924.32452 637.54742 1934.3597 3422776
944.50903 643.03833 1951.0195 3554362
953.28741 640.7226 1943.9935 2962225
964.33264 639.96973 1941.7092 2962225
981.98566 643.56616 1952.621 2962225
994.19073 643.54761 1952.5647 3093811
1006.8269 643.80505 1953.3459 2830896
1020.7542 644.87213 1956.5835 2962225
1031.7926 644.11041 1954.2723 3094068
1036.0005 639.15253 1939.2297 2764846
1056.4949 644.24091 1954.6682 2041123
1068.7415 644.24091 1954.6682 2304295
1073.3794 639.70636 1940.9102 2961456
1081.5947 637.38147 1933.8563 3028018
1086.5765 633.22382 1921.2417 3291190
1098.6136 633.22382 1921.2417 3422776
1119.8251 638.45428 1937.1113 3488569
1147.4556 647.1933 1963.626 3291190
1144.557 638.71033 1937.8882 3093811
1153.1627 636.75793 1931.9645 2962225
1165.1527 636.69543 1931.7748 3028018
1176.8447 636.47308 1931.1002 2764846
1194.5817 639.49127 1940.2574 3356983
1210.1498 641.29926 1945.7432 3487800
1211.4968 635.61017 1928.4821 3488056
1216.2408 631.79803 1916.9158 3356470
1237.1061 636.35303 1930.736 3159091
1256.3613 639.99963 1941.8 2895919
1265.756 638.6015 1937.558 3093298
1265.3295 632.32196 1918.5055 3356214
1272.7371 630.0387 1911.5778 3356982
1278.0066 626.74945 1901.598 3291190
1291.137 627.34045 1903.3911 3488568
1295.0623 623.48889 1891.7052 3554619
1306.2946 623.19318 1890.8081 3488569
1312.8937 620.71234 1883.281 3554618
1320.4686 618.73291 1877.2754 3751484
1331.5819 618.4317 1876.3616 3750971
1340.7271 617.2298 1872.7147 3158835
1352.9092 617.43469 1873.3365 3224628
1363.4802 616.9071 1871.7358 3290677
1392.8574 624.82489 1895.7588 3751228
1421.3895 632.23285 1918.2351 3619642
1430.8256 631.09387 1914.7793 3027505
1442.6289 631.00934 1914.5228 3224884
1478.9696 641.57031 1946.5656 3422263
1491.1654 641.57031 1946.5656 3553849
1521.0922 649.13715 1969.5237 3619642
1534.5286 649.60132 1970.9321 3488056
1550.2758 651.02856 1975.2626 3224884
1574.1213 655.80719 1989.7611 3093298
1606.1545 663.89496 2014.3 2764333
1615.5988 662.59247 2010.348 2501161
1604.9744 653.14313 1981.6782 2698540
1613.4098 651.53571 1976.8013 2566954
1622.1332 650.0683 1972.3489 2830126
1638.4883 651.65826 1977.173 3159091
1644.6855 649.21478 1969.7593 3224884
1658.0331 649.60901 1970.9554 2961712
1660.9127 645.92651 1959.7825 2895919
1665.4304 642.93042 1950.6923 2895919
1678.5952 643.29187 1951.7889 3290677
1690.824 643.29187 1951.7889 3290934
1695.1415 640.30371 1942.7225 3225141
1707.9934 640.55878 1943.4965 2830126
1715.9895 639.00208 1938.7733 3422263
1731.9089 640.39691 1943.0054 4540744
1740.9124 639.23297 1939.4739 4474951
1748.7395 637.65619 1934.6897 3619642
1778.4132 644.01233 1953.9747 3290677
1793.5493 645.0531 1957.1326 3093298
1806.3739 645.25403 1957.7422 3027505
1823.8386 647.09857 1963.3386 3027505
1847.194 650.99445 1975.1589 3093298
1863.1532 652.24921 1978.9659 3159091
1875.5521 652.24921 1978.9659 3093298
1883.0422 650.55341 1973.8207 3027505
1903.877 653.45984 1982.6392 3027505
1917.7831 653.966 1984.1748 3093298
1930.5055 654.06464 1984.474 3224884
1942.9391 654.06464 1984.474 3356470
1952.9193 653.24408 1981.9845 3290676
1967.9609 654.11621 1984.6306 3224887
1980.3953 654.11621 1984.6306 3422265
2002.6539 657.34094 1994.4146 3619644
2015.1497 657.34094 1994.4146 3553851
2022.5713 655.69604 1989.4238 3488058
2022.8584 651.77246 1977.5194 3356472
nan nan nan 16777215
nan nan nan 16777215
nan nan nan 16777215
nan nan nan 16777215
nan nan nan 16777215
nan nan nan 16777215
nan nan nan 16777215
nan nan nan 16777215
nan nan nan 16777215
nan nan nan 16777215
nan nan nan 16777215
nan nan nan 16777215
-1628.7487 607.39301 1808.6696 2962225
-1633.4744 613.42316 1826.626 2896432
-1613.4849 610.19153 1817.0029 2962225
-1604.5931 611.14075 1819.8296 3291190
-1591.4196 610.46118 1817.8059 3488569
-1576.0643 608.92877 1813.2428 3488569
-1580.8916 615.22852 1832.002 3093811
-1573.1243 616.68317 1836.3335 3225397
-1564.0994 617.6626 1839.2501 3291190
-1544.4698 614.43781 1829.6473 3291190
-1537.5432 616.25616 1835.0619 3291190
-1526.7401 616.53644 1835.8966 3422776
-1490.4738 606.46027 1805.8922 3685948
-1479.4647 606.58551 1806.265 3751741
-1473.0721 608.61993 1812.3232 3488569
-1462.4507 608.92529 1813.2324 3685948
-1455.641 610.83496 1818.9189 3554362
-1441.8019 609.8017 1815.8422 3422776
-1427.0353 608.35663 1811.5391 3488569
-1415.38 608.2254 1811.1483 3488569
-1402.9692 607.76471 1809.7766 3422776
-1386.363 605.46436 1802.9265 3291190
-1376.1259 605.93048 1804.3146 3422776
-1369.4391 607.98059 1810.4194 3488569
-1354.3995 606.32574 1805.4916 3488569
-1339.9288 604.89972 1801.2454 3093811
-1349.0305 614.18146 1828.884 3751741
-1314.291 603.49139 1797.0516 4409671
-1298.7455 601.50616 1791.1399 3422776
-1294.7548 604.88446 1801.1998 2765103
-1287.1067 606.59851 1806.304 2962225
-1272.9158 605.23212 1802.2351 3291190
-1264.5044 606.61383 1806.3495 3356983
-1253.1871 606.61383 1806.3495 3225397
-1254.5947 612.82965 1824.8585 3159604
-1255.6259 618.97406 1843.1552 3488569
-1228.4199 611.18359 1819.9572 3554362
-1215.4595 610.40131 1817.6276 3620155
-1211.6691 614.25293 1829.0967 3883327
-1205.3231 616.87012 1836.8901 3817534
-1186.5342 613.10815 1825.6881 3422776
-1174.7991 612.95349 1825.2274 3685948
-1164.5991 613.60455 1827.1661 4014913
-1161.6205 618.11108 1840.5854 3291190
-1153.4591 619.92249 1845.9795 2962225
-1123.3375 609.84863 1815.9819 3093811
-1130.0525 619.77148 1845.5298 4014913
-1102.0972 610.68811 1818.4817 3883327
-1098.1119 614.83594 1830.8329 3685948
-1086.6411 614.83594 1830.8329 4014913
-1062.6492 607.67566 1809.5114 3949120
-1054.4714 609.50183 1814.9493 3883327
-1048.7292 612.79095 1824.7435 4212548
-1031.4946 609.3634 1814.5371 3818304
-1015.7219 606.7326 1806.7032 3620925
-1004.4023 606.7326 1806.7032 3686718
-1001.3231 611.76715 1821.6948 3621181
-1014.9825 627.26227 1867.8356 4147269
-983.63342 614.97906 1831.259 4015683
-969.64417 613.38757 1826.52 3884097
-953.55914 610.41644 1817.6727 3686718
-947.96307 614.16913 1828.8473 3423546
-940.5097 616.79559 1836.6682 3423546
-934.17206 620.22791 1846.8888 3555132
-925.98083 622.50024 1853.6553 3818560
-904.31842 615.65906 1833.2839 3620925
-899.37726 620.17212 1846.7228 3555132
-888.39532 620.58313 1847.9467 3686718
-880.97229 623.52386 1856.7035 3620925
-871.59723 625.14325 1861.5256 3555132
-862.82886 627.24756 1867.7916 3752511
-855.51392 630.48083 1877.4197 3818304
-843.75128 630.48083 1877.4197 3423546
-829.35651 628.48621 1871.4802 3423546
-818.39191 629.07098 1873.2214 3620925
-811.55786 632.89404 1884.6056 3949890
-799.75024 632.89404 1884.6056 4081476
-784.14185 629.84119 1875.5149 4015683
-769.83777 627.75903 1869.3148 3620668
-752.95483 623.47717 1856.5645 3027761
-740.51575 622.79834 1854.5431 2830639
-728.2218 622.22192 1852.8265 3422776
-721.46619 626.43555 1865.3738 3093811
-709.77899 626.43555 1865.3738 2962225
-691.39056 620.42218 1847.4673 2764846
-679.58978 620.21606 1846.8535 3028018
-667.99377 620.19299 1846.7848 3225397
-654.68073 618.54669 1841.8827 3356983
-650.95428 626.06146 1864.2599 3488570
-637.68231 624.5025 1859.6177 3357496
-625.6557 624.12793 1858.5022 3160374
-614.0116 624.12793 1858.5022 3357753
-600.65881 622.35748 1853.2302 3686718
-592.78101 626.30188 1864.9756 4278858
-581.21204 626.42657 1865.3469 4344648
-570.74603 627.76953 1869.3459 3686718
-556.44611 624.86334 1860.6921 3686718
-544.67029 624.72809 1860.2893 3423546
-532.89001 624.5816 1859.853 3489339
-521.62677 625.0481 1861.2422 3423546
-510.94342 626.24664 1864.8113 3686718
-497.95148 624.60553 1859.9244 3555132
-489.78909 629.08893 1873.2749 2699823
-475.69162 625.98224 1864.0239 2963251
-470.91833 635.2981 1891.7642 4542027
-459.60724 636.0473 1893.9952 4015683
-447.74078 636.0473 1893.9952 3028788
-438.65082 640.09894 1906.0599 3094581
-429.32788 644.02783 1917.7593 3226167
-417.23859 643.9137 1917.4194 3291960
-403.31833 640.88336 1908.3959 3291960
-391.69571 641.43042 1910.0249 3620925
-382.82617 646.66241 1925.6045 3160374
-365.56738 637.60284 1898.6273 2699823
-349.80777 630.6366 1877.8835 3029045
-336.95383 628.60608 1871.8372 3489339
-318.86691 616.3147 1835.2363 2831409
-310.59036 622.77478 1854.4729 3489339
-301.90189 628.87897 1872.6495 4344648
-289.43085 627.27875 1867.8846 3752511
-275.2655 621.71704 1851.3231 3950147
-265.97617 627.16345 1867.5413 3686718
-252.11853 621.84351 1851.6996 3752511
-241.34636 623.98761 1858.0842 2107942
-231.66782 629.31982 1873.9624 2568237
-219.94315 629.36639 1874.1012 2699823
-204.12926 617.05713 1837.447 3291960
-194.17572 622.05023 1852.3154 3555132
-184.60751 628.99109 1872.9835 3752511
-171.05037 622.36066 1853.2396 3423546
-158.50856 618.72778 1842.4219 3423546
-147.19888 619.71155 1845.3512 3094581
-136.29301 622.70795 1854.2738 2897202
-124.38968 621.28082 1850.0242 3226167
-112.60899 620.23584 1846.9125 3160631
-101.29656 621.82611 1851.6478 3949633
-89.695412 621.82611 1851.6478 3949633
-78.258553 623.13422 1855.5432 2962994
-66.895111 625.58539 1862.8422 3028531
-55.518307 628.92139 1872.776 3225397
-43.785419 628.93048 1872.803 3488569
-32.265743 633.13 1885.3082 3620155
-20.777061 643.13928 1915.1134 3488569
-8.8503361 648.41827 1930.833 4080706
3.2064917 640.34229 1906.7847 4475464
15.101239 638.15118 1900.2601 4146499
27.001228 638.01581 1899.8571 3751741
39.024433 639.98395 1905.7175 3685948
50.698757 636.64886 1895.7865 3751741
62.594852 636.83606 1896.344 3685948
74.671539 638.50781 1901.322 3817534
87.818367 647.61121 1928.4298 3949376
100.41287 650.93219 1938.3188 3883327
112.19125 648.81683 1932.0198 3093811
123.47053 644.50812 1919.1896 3356727
133.49799 635.0097 1890.9054 3488569
143.72935 627.95062 1869.8851 3554105
155.16814 626.83307 1866.5574 2830126
166.8627 626.83307 1866.5574 2895919
179.17046 628.98572 1872.9675 3290677
191.03432 629.41119 1874.2344 3356470
203.31891 631.09332 1879.2434 3422263
217.88933 639.29803 1903.675 2961969
228.13734 634.62714 1889.7664 3422006
239.57195 633.55511 1886.5741 3159091
252.24719 635.71057 1892.9926 3224884
266.40643 641.24451 1909.4712 3817021
279.15067 643.04309 1914.827 2961712
291.0632 642.85657 1914.2716 2895662
298.85388 633.94141 1887.7244 2895918
310.21887 632.99829 1884.916 2961712
321.94781 632.83972 1884.4438 3027249
333.00986 631.42798 1880.24 2896176
343.26364 628.63239 1871.9154 2962481
353.51971 626.02563 1864.1531 3751741
364.2298 624.36383 1859.2047 3685948
376.46167 625.33282 1862.0902 3422776
389.0571 626.82941 1866.5465 3751741
400.75159 626.82941 1866.5465 3488569
416.67377 633.25464 1885.6792 3159604
425.71603 629.15771 1873.4797 3554362
439.58087 632.21674 1882.5886 3291190
451.37585 632.21674 1882.5886 2962225
462.14243 630.81299 1878.4086 3356983
474.45496 631.53668 1880.5636 3159860
484.58301 629.38806 1874.1655 3028788
495.95511 628.91864 1872.7678 3620925
507.83673 629.10223 1873.3145 3620925
519.08771 628.51385 1871.5624 3818304
535.05536 633.53632 1886.5181 4147526
544.20538 630.44366 1877.309 4147526
553.55627 627.70972 1869.1678 4015940
564.90741 627.31018 1867.9781 3950146
574.12598 624.60675 1859.9281 3489596
586.55139 625.4303 1862.3805 4015940
599.17517 626.42926 1865.355 4345161
610.66699 626.229 1864.7588 4344391
619.38251 623.2428 1855.8665 4476234
631.00122 623.23401 1855.8402 4344648
638.39587 619.12891 1843.6165 3094580
651.27289 620.39233 1847.3784 3028788
665.62714 622.99408 1855.1259 3159604
680.35999 625.85492 1863.6447 3291190
693.52466 627.20087 1867.6527 3883327
702.55408 624.82452 1860.5764 3554362
716.297 626.64923 1866.0101 3356983
728.11676 626.75995 1866.3398 3620155
744.55872 630.78314 1878.3197 3620412
751.36298 626.64307 1865.9917 3817534
759.80579 623.97559 1858.0485 3488569
779.55139 630.53064 1877.568 3093811
791.07385 630.33856 1876.996 3159604
802.15594 629.80634 1875.4111 3225397
816.57361 631.87054 1881.5579 3356983
828.70679 632.13348 1882.3407 3159604
843.14679 634.1239 1888.2678 2962225
855.87408 634.789 1890.2483 3028018
861.8725 630.51337 1877.5164 3225397
878.65942 634.13892 1888.3126 3685948
896.59747 638.4881 1901.2633 3093811
909.51605 639.1955 1903.3698 3356983
925.31458 641.88239 1911.3706 3356983
944.9989 647.16168 1927.0912 2962225
953.70471 644.88428 1920.3096 2830639
965.73608 644.88428 1920.3096 2633260
978.67279 645.48145 1922.0878 2764846
990.66162 645.44653 1921.9838 2830639
1005.9198 647.51691 1928.1489 2567467
1005.7851 639.74719 1905.0127 2699053
1017.3462 639.5119 1904.3119 2501674
1030.8285 640.47571 1907.1819 2370088
1041.6613 639.78998 1905.1401 3225397
1048.5421 636.72015 1895.9988 3620155
1050.6913 630.87793 1878.6021 3620412
1062.4613 630.87793 1878.6021 3554362
1069.3372 628.00366 1870.0432 3685948
1068.9938 620.99792 1849.1818 4014913
1076.3853 618.58759 1842.0043 3488569
1123.2064 638.64777 1901.7388 2896432
1134.1312 638.0907 1900.08 2962225
1137.5052 633.341 1885.9365 3028018
1151.3899 634.48096 1889.3311 2962225
1162.3654 634.01093 1887.9314 2961456
1170.6375 632.09064 1882.2133 3158834
1181.4446 631.56372 1880.6443 3224883
1191.8004 630.80847 1878.3953 3422007
1206.8119 632.50812 1883.4563 3290677
1218.1475 632.26678 1882.7377 3356470
1227.2902 630.90283 1878.6763 3224884
1237.1036 629.90637 1875.709 3159091
1245.1794 628.05225 1870.1879 3224884
1251.9438 625.57739 1862.8182 3356470
1259.2556 623.41907 1856.3915 3422263
1267.0076 621.51636 1850.7257 3422263
1275.9821 620.24243 1846.9321 3290677
1282.2612 617.69293 1839.3402 3290421
1291.3434 616.52704 1835.8687 3224884
1301.2949 615.79327 1833.6836 3356470
1306.7056 612.94226 1825.194 3290677
1318.1735 612.95734 1825.2389 3422263
1344.8033 619.96198 1846.0969 3159091
1357.334 620.40271 1847.4094 3027505
1354.3043 613.78394 1827.7002 3027505
1379.7322 620.06525 1846.4044 3027505
1396.349 622.31519 1853.1042 2961968
1419.2631 627.31146 1867.9819 2961712
1438.9285 630.80182 1878.3754 3488056
1446.6818 629.05585 1873.1763 3685435
1478.7765 637.8371 1899.3248 3882814
1524.1019 652.13934 1941.9136 4014400
1543.9907 655.41742 1951.6747 3948607
1573.8445 662.8407 1973.7795 3093555
1591.5002 665.05109 1980.3615 2895919
1587.2117 658.12811 1959.7465 2106403
1600.9539 658.73035 1961.5399 2303782
1613.3002 658.75348 1961.6088 2435368
1614.7816 654.37347 1948.566 2830126
1607.3414 646.47076 1925.0338 2961712
1606.6847 641.39386 1909.916 3027505
1602.3063 634.9173 1890.6302 2632747
1613.0746 634.49359 1889.3687 2435368
1620.2627 632.6781 1883.9625 2566954
1631.4796 632.45068 1883.2854 2632747
1643.1073 632.38464 1883.0887 2435368
1658.0074 633.57001 1886.6184 2632747
1677.869 636.62097 1895.7036 2764333
1689.7461 636.62097 1895.7036 3027505
1699.4432 635.80542 1893.2749 3224884
1714.63 637.04071 1896.9532 2961712
1734.8922 640.13165 1906.1575 3093298
1750.38 641.43079 1910.0259 3159091
1765.7655 642.67499 1913.731 3093298
1777.7557 642.67499 1913.731 2961712
1798.1516 645.69354 1922.7192 3027505
1813.2372 646.77747 1925.9471 3159091
1822.6118 645.82361 1923.1067 3159091
1836.7806 646.56989 1925.3289 2961712
1854.6948 648.61621 1931.4224 2961712
1870.7173 649.97864 1935.4795 2896176
1882.7001 649.92914 1935.332 3159091
1893.7628 649.56464 1934.2466 3224884
1906.1501 649.65619 1934.5192 3159091
1925.6897 652.16888 1942.0013 3159094
1949.8408 656.20197 1954.0109 3290679
1952.7014 653.06421 1944.6675 3685437
1964.0867 652.79877 1943.877 3751230
1976.2656 652.79877 1943.877 3948608
2001.4165 657.05743 1956.5582 3882813
nan nan nan 16777215
nan nan nan 16777215
nan nan nan 16777215
nan nan nan 16777215
nan nan nan 16777215
nan nan nan 16777215
nan nan nan 16777215
nan nan nan 16777215
nan nan nan 16777215
nan nan nan 16777215
nan nan nan 16777215
nan nan nan 16777215
-1594.1433 605.52045 1770.2416 3554362
-1587.4635 607.20776 1775.1744 3620155
-1577.5466 607.67194 1776.5316 3488569
-1568.2209 608.37213 1778.5786 3488569
-1555.0162 607.56671 1776.224 3883327
-1545.4242 608.17145 1777.9918 3751741
-1542.5231 611.43707 1787.5389 3225397
-1536.5281 613.51514 1793.6141 2962225
-1524.7253 613.28784 1792.9497 3159604
-1515.2214 613.98859 1794.9984 3028018
-1504.4591 614.18616 1795.5759 3028018
-1500.08 617.01221 1803.838 3028018
-1484.1196 615.08142 1798.1932 3620155
-1468.6821 613.33948 1793.1006 3883327
-1446.2468 608.62573 1779.3201 3751741
-1432.3906 607.47723 1775.9623 3685948
-1421.2935 607.48993 1775.9995 3554362
-1408.2126 606.64838 1773.5391 3488569
-1391.827 604.35828 1766.8441 3554362
-1380.2211 604.12366 1766.1582 3685948
-1371.8151 605.29712 1769.5889 3620155
-1353.6403 602.14423 1760.3713 3554362
-1345.4143 603.40149 1764.0469 3554362
-1336.2997 604.27777 1766.6086 3356983
-1319.8008 601.80151 1759.3694 3225397
-1314.5859 604.47223 1767.1771 3225397
-1304.9668 605.14594 1769.1467 3356983
-1289.4302 603.06354 1763.059 3422776
-1281.8077 604.67865 1767.7806 3159604
-1269.8314 604.25006 1766.5277 3093811
-1252.479 601.23322 1757.708 3225397
-1244.9219 602.90674 1762.6005 3356983
-1234.9465 603.42853 1764.126 3488569
-1240.1758 611.45618 1787.5948 2830639
-1229.0291 611.4826 1787.6721 3028018
-1241.7714 623.50446 1822.818 3685948
-1216.5195 616.49512 1802.3262 3620155
-1193.3422 610.41559 1784.5527 3554362
-1183.4308 611.07111 1786.469 3620155
-1171.7769 610.83069 1785.7662 3751741
-1160.636 610.85571 1785.8394 3751741
-1148.9368 610.58447 1785.0464 4014913
-1139.5951 611.57312 1787.9366 3751741
-1131.3541 613.17798 1792.6284 3291190
-1120.1228 613.17798 1792.6284 3225397
-1105.8959 611.52148 1787.7858 3488569
-1094.6947 611.52148 1787.7858 3883584
-1081.3691 610.32233 1784.28 3752511
-1068.9263 609.60162 1782.173 3752511
-1057.7216 609.57916 1782.1074 3950147
-1044.5486 608.40991 1778.6891 4015940
-1033.4045 608.40991 1778.6891 3949890
-1025.858 610.55103 1784.9487 3752767
-1010.6818 608.14838 1777.9246 3752768
-996.67328 606.40265 1772.8208 3686718
-988.09119 607.95636 1777.3632 3752511
-973.51678 605.81653 1771.1072 3884353
-962.7243 606.00787 1771.6667 3686718
-947.14325 603.1543 1763.3242 3686718
-940.98846 606.30701 1772.5411 3686718
-929.06494 605.77368 1770.9819 3620925
-920.20215 607.24719 1775.2898 3357753
-912.1947 609.32812 1781.3734 3555132
-903.23853 610.81903 1785.7322 3620925
-890.63818 609.85211 1782.9054 3555132
-880.15759 610.33051 1784.304 3423546
-881.18298 618.9024 1809.3639 3752511
-878.17798 624.83008 1826.6936 4081476
-855.86035 616.99188 1803.7784 3752511
-840.54785 614.06146 1795.2113 3357753
-838.64728 620.98254 1815.4452 3160374
-827.63092 621.25116 1816.2306 3226167
-818.58832 623.0296 1821.4299 3357753
-805.01233 621.35919 1816.5464 3620925
-795.82471 623.0766 1821.5673 3489339
-784.01617 622.76221 1820.6481 3423546
-761.28174 613.63165 1793.9548 2897202
-752.49207 615.63617 1799.8149 2897202
-745.29285 619.02252 1809.7151 2962995
-734.1698 619.20416 1810.2461 3160631
-722.68628 619.0827 1809.8911 3292217
-705.3233 613.84058 1794.5656 3489339
-694.07983 613.84058 1794.5656 3423289
-686.70862 617.32159 1804.7424 3620411
-678.745 620.37769 1813.6769 3159604
-667.38171 620.37769 1813.6769 3028018
-649.78003 614.47815 1796.4296 3160117
-640.93488 616.79742 1803.21 3292216
-628.35254 615.53894 1799.5309 3423546
-621.56732 620.01715 1812.6229 3160374
-613.44128 623.29968 1822.2194 3226167
-609.77454 631.32361 1845.6774 3818560
-594.57458 627.48615 1834.4585 4015683
-580.48761 624.69513 1826.299 4081476
-566.94122 622.38525 1819.546 3752511
-552.93231 619.46246 1811.0012 3686718
-542.55951 620.57617 1814.2571 3621182
-534.59784 624.55432 1825.8873 3555132
-523.96869 625.52203 1828.7166 3555132
-511.71817 624.5542 1825.8868 3028788
-502.30591 627.08533 1833.2866 3555132
-488.58057 624.22437 1824.9227 3555132
-481.3378 629.70715 1840.9517 3029045
-471.92691 632.5531 1849.2717 2962995
-463.51273 636.9118 1862.0145 4081476
-453.67929 639.49512 1869.5668 3884097
-442.41876 640.15033 1871.4824 3423546
-430.44379 639.77948 1870.3982 3423546
-418.9451 640.11548 1871.3805 3555132
-407.48019 640.52399 1872.5747 3555132
-398.09204 644.31799 1883.6665 3884097
-386.43448 644.55847 1884.3695 3752511
-372.21866 640.41266 1872.2491 3423546
-357.49142 635.08832 1856.6836 2962995
-345.13181 633.75354 1852.7812 3094581
-330.75449 628.49176 1837.3986 3094581
-318.86691 627.7522 1835.2363 2897459
-307.9501 628.93982 1838.7084 3291960
-291.01193 617.44421 1805.1008 3423546
-279.70242 617.44421 1805.1008 2962995
-263.9938 607.32397 1775.5144 3621181
-258.43356 620.68695 1814.5811 3883071
-246.76851 619.94293 1812.406 3620154
-236.39914 622.53931 1819.9963 2304038
-226.21379 625.90802 1829.8448 2304551
-215.96954 629.4646 1840.2427 3226167
-200.60928 617.67047 1805.7623 3357753
-187.9373 613.23828 1792.8048 3226167
-179.63824 623.4184 1822.5665 3555389
-167.14299 619.42969 1810.9054 3358010
-153.44528 610.0791 1783.569 3028788
-142.27068 610.0791 1783.569 3028788
-132.1107 614.8009 1797.3732 2962995
-119.76915 609.30432 1781.3038 2961711
-108.60873 609.30432 1781.3038 2830639
-99.515152 622.22742 1819.0846 2830639
-86.60421 611.53796 1787.834 3028018
-75.457214 611.97858 1789.1222 3225397
-64.480362 614.19379 1795.5983 3093811
-53.775311 620.48138 1813.9801 2699053
-42.695923 624.66223 1826.2028 3159604
-31.712244 633.81702 1852.9668 3554362
-20.228771 637.78766 1864.5751 3685948
-8.6229067 643.47986 1881.2161 3686204
3.1675467 644.30402 1883.6255 3620155
14.909602 641.74542 1876.1456 3751997
26.471519 637.10718 1862.5856 4080449
37.972431 634.28815 1854.3442 3883069
49.714279 635.8717 1858.9736 3817278
61.454487 636.8371 1861.796 3751741
73.312935 638.52429 1866.7285 3948864
85.464294 641.94733 1876.736 3817277
97.190987 641.73853 1876.1254 3751485
108.26048 637.70337 1864.3286 3751484
117.70852 625.83337 1829.6266 3290934
129.67497 628.27167 1836.755 3554106
141.39195 629.20239 1839.476 3553849
152.0685 625.71173 1829.2711 3159348
163.80409 626.76263 1832.3434 3356470
175.2843 626.76263 1832.3434 3751228
186.91888 627.28076 1833.858 3224884
200.27318 633.17584 1851.0923 3159091
210.39175 628.75555 1838.1697 3423032
220.80054 625.61639 1828.9923 3488825
233.76114 629.66052 1840.8153 3488569
250.45174 642.89911 1879.5184 3685948
263.2872 645.49719 1887.1139 3817534
271.97922 638.15009 1865.6345 3225397
282.608 635.7655 1858.6632 3094067
290.16617 626.93524 1832.8479 2830639
299.09549 621.62701 1817.3292 3488569
308.77841 618.21692 1807.36 4080706
321.68115 621.26666 1816.2758 3093811
333.224 621.57123 1817.1663 3291190
344.6377 621.62286 1817.3171 3685948
357.64151 624.44751 1825.575 3488569
367.72382 622.15417 1818.8704 3356983
378.7858 621.60632 1817.2688 3554362
390.17154 621.60632 1817.2688 3488569
407.29431 630.48712 1843.2319 3225397
417.00327 627.7182 1835.137 3422776
427.0506 625.59351 1828.9253 3422776
438.44739 625.50507 1828.6669 3751741
451.88208 628.25439 1836.7045 4080706
465.06409 630.52466 1843.3417 3949120
472.4809 625.05792 1827.3596 3752767
486.78778 628.74927 1838.1512 3884097
498.30435 628.74927 1838.1512 4147269
506.98874 625.25641 1827.9398 3884097
518.49347 625.31927 1828.1237 3884097
528.96729 624.1629 1824.743 3884097
537.86682 621.23737 1816.1901 3884097
547.09796 618.80792 1809.0878 3620925
558.4325 618.80792 1809.0878 3423546
570.60419 619.71716 1811.7458 3358009
583.89673 621.78455 1817.7899 3752511
592.97437 619.3703 1810.7317 4015683
601.80585 616.79437 1803.201 4409671
617.00507 620.71948 1814.6761 4475464
624.14764 616.54407 1802.4692 3225141
637.50824 618.55011 1808.334 3290933
653.17072 622.6806 1820.4094 3159604
664.57617 622.6806 1820.4094 3291190
685.43359 631.38733 1845.8635 3488569
690.6861 625.66913 1829.1465 3422776
700.7843 624.45544 1825.5983 3291190
710.81641 623.2229 1821.9949 3620155
729.27875 629.30383 1839.7725 3948351
740.80548 629.30383 1839.7725 4014143
749.47125 626.91064 1832.7761 3422263
762.80463 628.43518 1837.233 2961712
774.58911 628.65729 1837.8823 2830895
783.83337 626.84143 1832.5736 2896688
795.315 626.84143 1832.5736 3422776
809.48621 628.93103 1838.6827 3028018
821.14429 629.03693 1838.9922 2962225
836.54059 631.96381 1847.5491 3225397
848.11603 631.96381 1847.5491 3356983
865.68219 636.36761 1860.4236 3356983
875.50153 635.03528 1856.5286 3028018
891.62634 638.25159 1865.9314 3356983
908.07684 641.61469 1875.7634 3028018
925.79529 645.77643 1887.9303 2699054
941.4549 648.4151 1895.6443 2435624
952.01007 647.51617 1893.0164 2633004
962.5202 646.60907 1890.3645 3093555
973.66833 646.14746 1889.015 3159348
983.30792 644.70789 1884.8063 2699053
993.65247 643.75916 1882.0327 2370088
1006.6644 644.54059 1884.3171 3225397
1008.9885 638.54004 1866.7747 3422776
1013.5524 634.07831 1853.7306 3093811
1033.0715 638.96753 1868.0244 3093811
1029.9126 629.87781 1841.4506 3488569
1044.2439 631.56763 1846.3907 3554362
1054.5778 630.82928 1844.2322 3554362
1058.137 626.09833 1830.4012 3488569
1062.402 621.88202 1818.0748 3291190
1089.4142 630.92908 1844.524 2961969
1100.3275 630.56049 1843.4463 3027761
1110.4218 629.73505 1841.0332 3290933
1124.6792 631.26337 1845.5011 3159604
1143.4773 635.28308 1857.2529 2962226
1160.3335 638.15399 1865.6459 2633260
1154.0594 628.37335 1837.0522 2830639
1163.6892 627.35986 1834.0894 2961968
1175.0237 627.27625 1833.8447 2896432
1192.5549 630.47028 1843.1825 3093554
1205.5824 631.24487 1845.4471 2896176
1225.6912 635.67731 1858.4054 2830383
1219.033 626.27484 1830.9172 2896176
1220.2638 621.06293 1815.6802 3027505
1226.1064 618.27277 1807.5232 3027505
1235.2845 617.20026 1804.3877 3159091
1246.5897 617.20026 1804.3877 3290677
1258.4324 617.46411 1805.1591 3356470
1264.5765 614.95203 1797.8149 3224884
