# .PCD v0.7 - Point Cloud Data file format
VERSION 0.7
FIELDS x y z rgb
SIZE 4 4 4 4
TYPE F F F U
COUNT 1 1 1 1
WIDTH 1273
HEIGHT 1
VIEWPOINT 0 0 0 1 0 0 0
POINTS 1273
DATA ascii
1846.5978 696.54987 3030.1069 3357752
1851.9299 691.45251 3007.9324 3028788
1876.7601 693.66443 3017.5547 2897202
1899.427 695.04071 3023.5417 3291960
1918.7214 695.16785 3024.0947 3423546
1933.9662 693.83966 3018.3169 3226167
1957.9889 695.65594 3026.218 3160374
1981.6201 697.29956 3033.3679 3226166
2000.8424 697.37531 3033.6975 3160376
2019.8495 697.37531 3033.6975 3160374
2040.7335 698.01727 3036.4902 3094581
2060.5193 698.27533 3037.6128 3160374
2083.2493 699.51715 3043.0149 3094581
2101.4832 699.24042 3041.811 3226167
2117.2532 698.15625 3037.0947 3160374
2129.4622 695.92767 3027.4001 3028788
2152.2466 697.164 3032.7783 2831409
2176.3513 698.80267 3039.9067 2765616
2201.1873 700.64563 3047.9241 2765616
2225.9563 702.43585 3055.7117 2765873
2237.6592 700.10736 3045.5825 2963252
2263.7195 702.2724 3055.0007 3160374
2286.75 703.46912 3060.2065 3226167
2325.5437 709.45471 3086.2449 3291960
2343.5066 709.03918 3084.4373 3423546
2354.4573 706.52625 3073.5056 3226167
2364.5869 703.80975 3061.6882 3094837
2382.8408 703.53552 3060.4954 3291189
2402.2695 703.60986 3060.8188 3225397
2425.4187 704.7641 3065.8401 3356983
2457.9187 708.59595 3082.509 3554362
2476.9729 708.52197 3082.1873 3949120
2422.2087 687.49719 2990.7261 4540744
2433.3828 685.36676 2981.4585 4475207
2484.1204 694.32721 3020.4377 3619899
2530.1001 701.83221 3053.0857 3290677
2533.77 697.57623 3034.5718 3422263
2582.002 705.56079 3069.3057 3356470
2595.512 704.00928 3062.5564 3290420
2639.1897 710.60315 3091.241 3290420
2658.3179 710.53918 3090.9626 3356213
2681.7043 711.60614 3095.604 3422006
2699.5208 711.19019 3093.7947 3422006
2718.9041 711.19019 3093.7947 3487542
2738.3762 711.2132 3093.8945 3421749
2752.6206 709.8877 3088.1284 3487542
2771.4436 709.75323 3087.5435 3224370
2782.4861 707.64185 3078.3586 3224370
2814.1138 710.75873 3091.9177 2961455
2833.4856 710.75873 3091.9177 2764077
2848.4521 709.66125 3087.1433 2566954
2845.9595 704.25806 3063.6387 2698540
2861.4417 703.34552 3059.6689 2830126
2878.1152 702.73602 3057.0176 2895919
2885.1313 699.79211 3044.2112 3158834
2861.0173 689.38599 2998.9426 3225397
2894.5024 692.90387 3014.2461 3225397
2913.3247 692.88892 3014.1812 3422776
2932.1853 692.88324 3014.1562 3356983
2931.5647 688.30353 2994.2339 3422778
2954.1624 689.19897 2998.1292 3356985
2960.0007 686.19781 2985.0735 3291192
2964.8237 683.00043 2971.1643 3225399
2970.5232 680.04364 2958.3018 3159606
2963.5564 674.24176 2933.0627 3093813
2971.322 671.84247 2922.6255 3093813
2985.7666 670.97357 2918.8457 3291192
nan nan nan 16777215
nan nan nan 16777215
nan nan nan 16777215
nan nan nan 16777215
nan nan nan 16777215
nan nan nan 16777215
nan nan nan 16777215
-3290.864 833.8266 3531.5398 460812
-3182.6926 811.8772 3438.5767 460809
-3161.1487 811.8772 3438.5767 460810
-3100.085 801.65765 3395.2935 460554
-3044.5471 792.73572 3357.5059 329737
-2864.0486 750.92615 3180.428 922131
nan nan nan 16777215
-2510.6938 667.56897 2827.3821 3290678
-2466.144 660.38306 2796.9473 4146242
-2366.1416 638.13879 2702.7354 3883584
-2360.5181 641.21106 2715.7473 4014913
-2337.675 639.61646 2708.9937 4014656
-2321.4451 639.82117 2709.8606 3884354
-2313.8406 642.42365 2720.8831 3884097
-2297.2461 642.55029 2721.4194 3818304
-2274.1047 640.83392 2714.1501 3620925
-2258.9363 641.35535 2716.3584 3489339
-2245.5908 642.40619 2720.8091 3884097
-2240.4724 645.84467 2735.3723 4015683
-2226.4724 646.75623 2739.2332 4015683
-2231.3657 653.21277 2766.5786 3620925
-2230.3103 658.01526 2786.9189 3291960
-2210.0522 657.18359 2783.3965 3292216
-2191.4709 656.84113 2781.946 3686974
-2177.9746 658.0296 2786.9795 4081732
-2173.8281 662.08478 2804.1548 4213319
-2170.272 666.38745 2822.3779 3555389
-2152.4895 666.35669 2822.2476 3226167
-2145.6553 669.74286 2836.5891 3225910
-2127.8831 669.74286 2836.5891 3160374
-2107.2722 668.8418 2832.7729 3423802
-2078.7866 665.40479 2818.2161 3818817
-2070.6211 668.46899 2831.1941 3884610
-2038.8937 663.91376 2811.9011 3884610
-2016.7441 662.42523 2805.5964 3884610
-1997.1655 661.76221 2802.7886 3818817
-1992.7548 666.15802 2821.4062 3687488
-1969.7405 664.35779 2813.7817 3687487
-1952.3417 664.43628 2814.114 3753024
-1944.1108 667.66467 2827.7874 3753024
-1926.3939 667.66467 2827.7874 3818304
-1907.2129 667.15253 2825.6182 3555133
-1886.4285 666.0647 2821.011 3423546
-1873.8446 667.87909 2828.6956 3686718
-1873.6858 674.19904 2855.4626 3752511
-1853.9969 673.54559 2852.6951 3621181
-1829.4188 671.086 2842.2778 3489339
-1810.8002 670.78558 2841.0054 3686718
-1798.6879 672.91339 2850.0176 3752511
-1781.0594 672.99951 2850.3821 3752511
-1765.0453 673.70349 2853.3638 3818560
-1749.6113 674.64557 2857.3538 3686975
-1734.3411 675.6709 2861.6965 3423546
-1720.7964 677.39703 2869.0071 3358009
-1702.0645 677.09589 2867.7319 3489595
-1688.3958 678.8241 2875.0515 3489596
-1666.7616 677.35266 2868.8193 3686975
-1641.7201 674.44916 2856.522 3620925
-1625.2727 675.05127 2859.0723 3620925
-1604.0731 673.67096 2853.2261 3489596
-1584.3718 672.89587 2849.9434 3489339
-1565.0544 672.26807 2847.2844 3291703
-1544.0323 670.88501 2841.4268 3225911
-1529.3645 672.263 2847.2627 3423032
-1510.9863 672.02307 2846.2468 3423290
-1496.7318 673.63348 2853.0674 3423546
-1477.4261 672.98199 2850.3081 3423546
-1455.9786 671.3269 2843.2983 3423546
-1437.8182 671.16528 2842.6138 3555132
-1420.3192 671.31219 2843.2361 3423546
-1398.4873 669.38898 2835.0903 3291960
-1380.2882 669.17731 2834.1941 3489339
-1362.6117 669.21698 2834.3621 3818304
-1346.1824 669.87817 2837.1624 3752511
-1324.4927 667.90448 2828.8032 3752511
-1305.6492 667.33203 2826.3784 3752255
-1287.6479 667.18005 2825.7349 3490108
-1270.3926 667.41583 2826.7334 3621438
-1257.4218 669.94104 2837.4287 3621694
-1239.6444 669.94104 2837.4287 3818817
-1219.4545 668.61816 2831.8259 3884867
-1197.1495 666.07965 2821.0742 3753281
-1190.335 672.21271 2847.05 3819074
-1178.036 675.38818 2860.499 3687231
-1165.6912 678.63501 2874.2505 3555645
-1146.0537 677.67145 2870.1697 3686975
-1128.4033 677.87097 2871.0146 3687231
-1108.5787 676.74969 2866.2656 3687487
-1091.911 677.55035 2869.6567 3884867
-1078.0035 680.11932 2880.5371 3884610
-1066.1143 684.07074 2897.2727 3950659
-1048.0546 684.13116 2897.5288 4147529
-1027.8635 682.77795 2891.7974 4081989
-1017.1468 687.78259 2912.9937 4279368
-1000.475 688.86993 2917.5989 4081989
-977.96783 685.90485 2905.0408 3687231
-964.604 689.36176 2919.6821 4016196
-946.36401 689.40021 2919.8447 4147782
-924.44702 686.70868 2908.4453 3884610
-903.08026 684.32593 2898.3535 3950403
-885.43378 684.72235 2900.0325 4213832
-867.00281 684.51599 2899.1584 4081989
-854.29865 688.91895 2917.8066 3818817
-838.43738 690.9129 2926.2517 4016196
-820.03754 690.85736 2926.0164 4147782
-802.9071 691.89313 2930.4033 4410954
-778.06055 686.17255 2906.1746 4213062
-772.7829 697.84918 2955.6292 3752511
-746.35632 690.53204 2924.6387 3949890
-727.44629 689.97595 2922.2832 3949890
-708.71515 689.56519 2920.5437 4147269
-700.89209 700.0274 2964.8545 4278855
-671.75629 689.19318 2918.968 4081476
-660.08539 696.17224 2948.5269 4213062
-636.80975 690.96173 2926.4585 4541257
-624.89062 698.12982 2956.8176 4212292
-606.49786 698.28247 2957.4644 4278085
-578.95807 687.58154 2912.1423 4409671
-555.97375 681.77051 2887.5305 4278085
-536.51111 680.03235 2880.1687 4212548
-515.95496 676.73871 2866.2192 3883327
-497.99713 676.73871 2866.2192 4146499
-483.71262 681.91711 2888.1514 3356983
-464.59885 680.42523 2881.8328 3291190
-441.82199 673.23114 2851.3633 3488569
-423.95728 673.23114 2851.3633 3554362
-404.03009 669.81183 2836.8813 3554362
-385.29779 668.14996 2829.8428 3422776
-366.4321 666.08521 2821.0979 3554362
-347.87662 664.40369 2813.9761 3685948
-329.40485 662.71106 2806.8071 3686718
-311.05331 661.08307 2799.9121 3818304
-295.34705 665.21851 2817.427 3357753
-276.80972 663.09778 2808.4451 3489339
-259.68427 664.30103 2813.541 3489339
-242.16956 664.61102 2814.8542 3555132
-226.37216 670.0531 2837.9031 3884098
-206.14619 662.19708 2804.6301 3687234
-187.87088 659.72681 2794.168 3489598
-171.1608 662.81024 2807.2273 3621441
-153.97945 664.56598 2814.6633 3621184
-136.28462 664.27313 2813.4231 3555134
-117.94199 660.2666 2796.4541 3226426
-100.45863 660.51184 2797.4927 3357498
-83.634338 666.10986 2821.2024 3226425
-66.141243 667.95404 2829.0132 3357753
-48.535923 669.60022 2835.9851 3291960
-30.772129 669.69885 2836.4028 3160374
-13.001585 669.71942 2836.49 3291960
4.786808 672.09271 2846.5417 3620925
22.707895 674.66626 2857.4414 3489339
40.587738 674.28552 2855.8291 3226167
58.480392 674.28552 2855.8291 3226167
76.340935 674.00201 2854.6282 3226167
94.400826 675.25208 2859.9226 3357753
112.19088 674.48108 2856.6572 3160374
131.19417 680.21259 2880.9321 3226167
149.24411 680.21259 2880.9321 3489339
166.94902 678.80975 2874.9907 3226167
185.71614 681.57843 2886.717 3094581
205.45457 687.10413 2910.1201 3226167
222.84048 684.50275 2899.1023 3226167
238.80949 678.26904 2872.7007 3160374
257.30194 679.5741 2878.2278 3686718
276.08749 681.43152 2886.0947 3555132
295.08575 683.55328 2895.0813 3489339
313.07343 683.224 2893.6865 3489339
330.5777 681.93353 2888.2209 3555132
349.08185 682.7326 2891.6052 3489339
366.13483 680.75464 2883.2278 3620925
383.65823 679.79626 2879.1687 3686718
402.1846 680.62115 2882.6626 3555132
419.44843 679.33038 2877.1958 3423546
439.45953 682.41217 2890.248 3160374
462.82434 690.25171 2923.4512 3094581
479.00595 687.18921 2910.4805 3357753
496.79138 686.56781 2907.8486 3357753
508.09735 677.35254 2868.8188 3291960
527.32416 678.96545 2875.6501 3357753
545.46649 679.12183 2876.3123 3357753
565.15131 681.12701 2884.8049 2962995
578.19 675.24622 2859.8979 3160374
598.58521 678.05219 2871.782 3555132
616.64868 678.13013 2872.1121 3686718
636.18195 679.77411 2879.075 3818304
655.99933 681.62268 2886.9045 3818304
673.86115 681.39465 2885.9385 3818304
689.53705 679.02594 2875.9062 3752511
708.29626 679.73682 2878.9172 3818304
724.44971 677.97375 2871.45 3818561
742.44019 677.97375 2871.45 3686718
761.43115 678.86572 2875.2278 3686718
781.26727 680.45258 2881.9485 3884097
795.82733 677.4762 2869.3428 4081476
810.36493 674.61273 2857.2148 4147269
830.12958 676.13043 2863.6428 3752511
840.48419 670.0816 2838.0239 3489339
869.63593 678.95911 2875.623 3489339
889.91547 680.68994 2882.9539 3489339
903.97546 677.68933 2870.2454 3686718
922.75769 678.27679 2872.7334 3752511
940.18103 677.86206 2870.9768 3752511
958.45599 678.06537 2871.8379 3752511
983.08038 682.67041 2891.3418 3949890
1001.1956 682.67041 2891.3418 3884097
1013.1156 678.5213 2873.769 3818304
1033.1713 679.87067 2879.4841 3884097
1052.6241 680.78394 2883.3521 3949890
1074.4983 683.20581 2893.6094 3686718
1091.3058 682.37927 2890.1089 3686718
1108.3722 681.73895 2887.397 3752511
1118.5873 676.97278 2867.2104 3752511
1138.9034 678.37384 2873.1445 3555132
1160.444 680.44928 2881.9346 3291960
1180.3228 681.50159 2886.3914 3555132
1196.1277 680.20544 2880.9019 3555132
1216.0203 681.23779 2885.2744 3094581
1236.8977 682.78369 2891.8215 3357753
1249.7528 679.92035 2879.6943 3686718
1261.7374 676.67163 2865.9351 3884354
1272.5651 672.90234 2849.9707 3949890
1287.7939 671.53247 2844.1687 4278855
1308.3899 672.96045 2850.2168 4278855
1326.2474 672.96045 2850.2168 4081476
1342.0051 671.90912 2845.7642 4015683
1361.7183 672.83978 2849.7058 3949890
1368.5499 667.46387 2826.937 4344648
1390.7006 669.6012 2835.9893 4344648
1410.8438 670.73022 2840.7712 3949890
1429.2764 671.02802 2842.0325 3884097
1449.4835 672.14142 2846.7478 3818304
1459.9075 668.74622 2832.3682 3818304
1478.376 669.07336 2833.7537 3884097
1497.5634 669.71423 2836.468 3555132
1515.3347 669.71423 2836.468 3291960
1543.9343 674.4444 2856.5017 2633774
1565.9424 676.21973 2864.021 2370344
1594.5607 680.77698 2883.3225 2830639
1611.4248 680.27008 2881.1755 2962225
1640.8016 684.99811 2901.2004 2830639
1646.108 679.68384 2878.6926 2896432
1669.3394 681.80585 2887.6799 3225397
1693.5142 684.26343 2898.0889 3225397
1716.9156 686.35986 2906.968 3291190
1735.0505 686.32898 2906.8372 3356983
1756.7372 687.68903 2912.5974 3290933
1773.8256 687.23962 2910.6941 3160631
1791.7667 687.1264 2910.2146 3226167
1815.0018 689.02515 2918.2563 3423546
1833.9913 689.29047 2919.3799 3357753
1853.2025 689.63293 2920.8306 3357753
1880.8872 693.09113 2935.4773 3226167
1907.1821 695.97528 2947.6924 3357753
1930.0574 697.56805 2954.4382 3423546
1927.4657 690.01367 2922.4431 3423548
1937.8311 687.19629 2910.5105 3423546
1967.4227 691.18597 2927.4082 3094581
1988.64 692.18707 2931.6482 3094581
2006.9149 692.15509 2931.5127 3291960
2017.0955 689.35742 2919.6636 3226424
2034.1921 688.95233 2917.948 3094581
2049.647 688.00336 2913.9287 2897459
2071.0391 689.04651 2918.3469 2831666
2094.8049 690.85431 2926.0034 2700080
2113.1372 690.85431 2926.0034 2568494
2136.8145 692.58673 2933.3408 2765616
2149.8667 690.87518 2926.0918 2568237
2167.1025 690.52563 2924.6113 2502444
2172.3477 686.39325 2907.1094 2764846
2189.6946 686.12158 2905.9587 2830639
2221.6885 690.40607 2924.105 2896688
2242.2747 691.10437 2927.0625 2962482
2263.9238 692.11633 2931.3486 3093554
2283.6914 692.5415 2933.1492 3028018
2302.0686 692.5415 2933.1492 3093811
2311.7375 689.9425 2922.1416 2962481
2389.0378 707.41058 2996.1248 3028018
2342.9026 688.34094 2915.3584 3028531
2348.4614 684.63666 2899.6694 3751228
2342.269 677.5896 2869.823 4211779
2376.1616 682.15778 2889.1707 3553849
2410.1165 686.67456 2908.3008 3422263
2455.6838 694.40735 2941.0518 3488056
2490.8201 699.09723 2960.915 3488056
2523.2319 702.9588 2977.27 3422263
2555.8516 706.82111 2993.6284 3356470
2567.0076 704.73468 2984.7915 3488056
2575.7322 702.01575 2973.2759 3488056
2601.2332 703.87537 2981.1521 3422263
2619.9111 703.87537 2981.1521 3356470
2634.0579 702.66669 2976.033 3422520
2660.8096 704.81372 2985.1265 3553849
2705.1396 711.55481 3013.677 3225141
2683.0945 700.86407 2968.3982 3027762
2697.8164 699.85858 2964.1396 3356470
2709.248 698.0191 2956.3489 3488312
2747.2344 702.99982 2977.4436 3422776
2727.4729 693.23572 2936.0894 3291189
2731.8633 689.69989 2921.114 2962225
2772.7092 695.35364 2945.0596 2699053
2792.7947 695.76062 2946.7834 2896432
2794.2332 691.54736 2928.9387 3093811
2780.0754 683.55432 2895.0854 3291190
2803.3789 684.81598 2900.4292 3356983
2814.0291 682.9903 2892.6968 3422775
2815.0718 678.87115 2875.2507 3422777
2839.7837 680.47607 2882.0481 3159606
2853.5466 679.45367 2877.7178 3028020
2857.2629 676.06689 2863.3735 3093813
2853.7979 671.03375 2842.0566 3159606
2864.8315 669.45111 2835.3535 3093813
2876.5569 668.04865 2829.4136 3028020
2889.3865 666.91815 2824.6257 3028020
nan nan nan 16777215
nan nan nan 16777215
nan nan nan 16777215
nan nan nan 16777215
nan nan nan 16777215
nan nan nan 16777215
nan nan nan 16777215
-3121.5354 811.79938 3349.8274 395019
-3119.4255 816.74213 3370.2231 395016
-3098.3101 816.74213 3370.2231 460810
-3087.2593 819.41351 3381.2463 461066
-3041.562 812.86243 3354.2139 264457
-2914.063 784.20648 3235.9673 593166
nan nan nan 16777215
nan nan nan 16777215
-2361.5713 649.07245 2678.3472 4146501
-2297.7051 636.03851 2624.5637 4014913
-2285.083 637.104 2628.9602 4080449
-2272.7588 638.26862 2633.7661 4014913
-2264.6399 640.63989 2643.551 3752768
-2253.7156 642.24677 2650.1814 3752768
-2244.7075 644.42749 2659.1799 3620925
-2227.7732 644.34827 2658.8533 3686974
-2204.1294 642.31274 2650.4536 3884353
-2202.9636 646.84625 2669.1611 3949890
-2188.8284 647.61194 2672.3206 3884097
-2182.4338 650.69739 2685.0522 3884097
-2191.6978 658.53558 2717.396 3686718
-2164.2209 655.37067 2704.3362 3686718
-2162.3755 659.9787 2723.3511 3752511
-2144.1086 659.60828 2721.8225 4081732
-2122.5757 658.21906 2716.0898 4279368
-2111.7241 660.14642 2724.0432 4279368
-2098.22 661.26929 2728.6765 4213832
-2062.5591 655.37042 2704.3352 3489852
-2083.6565 667.55786 2754.6257 3292473
-2052.9058 663.19922 2736.6401 3819073
-2030.2372 661.39996 2729.2158 4016196
-2018.625 663.20276 2736.6548 3884610
-1998.3126 662.15356 2732.3254 3950403
-1972.4449 659.22955 2720.2598 3687231
-1957.2535 659.85388 2722.8359 3358010
-1949.1512 662.90015 2735.4062 3358009
-1921.8992 659.42999 2721.0867 3424315
-1907.0514 660.19177 2724.2302 3687230
-1893.0531 661.26416 2728.6553 3687488
-1876.59 661.48712 2729.5754 3753024
-1866.0424 663.81866 2739.1963 3884353
-1849.2427 663.94867 2739.7329 3621181
-1823.4823 660.8338 2726.8796 3621181
-1804.4559 660.12354 2723.9487 3752511
-1804.0031 666.25928 2749.2673 3818304
-1786.9187 666.31171 2749.4836 3620925
-1771.384 666.94867 2752.1121 3489339
-1752.9053 666.47882 2750.1731 3620925
-1738.9531 667.73767 2755.3677 3949890
-1721.7509 667.76129 2755.4653 3752511
-1706.184 668.42609 2758.2085 3751998
-1691.9655 669.63818 2763.2102 3488312
-1684.174 673.44525 2778.9197 3488569
-1664.5638 672.5567 2775.2532 3685691
-1644.7395 671.56183 2771.1477 3620155
-1623.9636 670.15302 2765.3347 3883327
-1603.0454 668.65454 2759.1511 3817277
-1584.8574 668.27466 2757.5835 3751741
-1569.1251 668.93317 2760.301 3751741
-1550.1748 668.2193 2757.355 3685948
-1528.2545 666.19458 2749.0005 3620155
-1516.3674 668.54736 2758.7087 3620155
-1495.6405 667.01196 2752.373 3685948
-1475.5499 665.72784 2747.0745 3423546
-1466.8804 669.62714 2763.1646 3620925
-1449.5684 669.62714 2763.1646 3621182
-1416.6687 662.33942 2733.0923 3555645
-1400.4244 662.75568 2734.8098 3489339
-1386.0173 664.06238 2740.2019 3620925
-1368.8491 664.06238 2740.2019 3555388
-1351.7421 664.09241 2740.3259 3423546
-1338.7909 666.19116 2748.9863 3555389
-1309.6575 660.18732 2724.2119 3686718
-1298.8468 663.38324 2737.3997 3686718
-1276.0081 660.43927 2725.2515 3555132
-1259.0325 660.49115 2725.4656 3620925
-1243.4552 661.28821 2728.7544 3423546
-1229.6318 663.0531 2736.0374 3489339
-1212.4897 663.0531 2736.0374 3357496
-1199.3719 665.28546 2745.2488 3357753
-1184.582 666.64166 2750.8452 3884353
-1171.6968 669.12561 2761.095 3686718
-1153.5579 668.63879 2759.0862 3291704
-1122.9559 660.80341 2726.7539 3357753
-1120.2205 669.3772 2762.1331 3686974
-1111.1759 674.39099 2782.822 3818304
-1093.7407 674.39099 2782.822 3884096
-1073.2148 672.45447 2774.8313 3423546
-1053.6666 671.07684 2769.1465 3686974
-1046.2429 677.50446 2795.6697 3884610
-1029.4187 677.95984 2797.5488 3753024
-1009.8531 676.59436 2791.9143 3686722
-991.20923 675.80914 2788.6741 3753024
-975.83124 677.26245 2794.6709 3884610
-961.30475 679.37048 2803.3696 3950403
-949.31647 683.38434 2819.9324 3950403
-934.58582 685.53876 2828.8225 3753281
-916.07477 684.94983 2826.3926 4081989
-897.8111 684.52637 2824.645 3884610
-877.41272 682.42548 2815.9758 3950403
-860.5921 683.07825 2818.6694 3818817
-842.93225 683.07825 2818.6694 3687231
-827.03015 684.53314 2824.6729 3818817
-813.9624 688.44891 2840.8311 3884610
-798.05225 690.08191 2847.5696 4081989
-778.08643 688.20251 2839.8142 4213575
-754.73004 683.16602 2819.0315 3686462
-738.7074 684.68555 2825.3018 3884097
-728.48358 691.7865 2854.6033 4213062
-708.96552 690.19659 2848.0427 3818561
-695.42963 694.49884 2865.7957 4081476
-681.82074 698.95428 2884.1807 4147269
-656.78986 691.62451 2853.9348 3950147
-643.95874 697.09082 2876.4912 4081990
-623.30304 694.15784 2864.3884 3817534
-602.51477 690.89893 2850.9409 3751741
-584.62311 690.86395 2850.7964 4212292
-561.83551 684.8587 2826.0164 4146499
-542.03564 682.22321 2815.1411 4278085
-523.34979 680.85962 2809.5144 4278342
-504.18875 678.76135 2800.8562 4014913
-479.26126 668.46887 2758.385 3685948
-470.49301 680.78815 2809.2197 3159604
-455.20264 684.26093 2823.5496 3817534
-431.41275 674.72144 2784.1858 3554362
-409.08356 666.75879 2751.3286 3620155
-391.84564 666.75879 2751.3286 3817534
-373.79129 665.30573 2745.3325 3554362
-356.30426 664.77081 2743.1252 3620155
-339.04642 664.63104 2742.5486 3489339
-321.45932 663.79651 2739.1047 3555132
-303.84839 662.81567 2735.0576 3884353
-281.51443 650.79913 2685.4722 3620925
-267.60678 657.9729 2715.0742 3489339
-251.7588 661.026 2727.6726 3489339
-234.28912 659.95569 2723.2559 3620925
-219.35156 666.4101 2749.8896 2634289
-199.09496 656.42761 2708.6975 2107688
-180.80334 651.66711 2689.0537 3423548
-166.65077 662.37952 2733.2578 3884099
-148.87514 659.49597 2721.3591 3621184
-131.82498 659.49597 2721.3591 3423806
-115.10804 661.41071 2729.26 3160633
-98.088905 661.95416 2731.5024 2962997
-80.352371 656.86267 2710.4929 3160374
-63.370289 656.86267 2710.4929 3555132
-46.895016 664.03912 2740.106 3489339
-29.680603 662.99371 2735.7922 3620925
-12.717686 672.38708 2774.5532 3620925
4.6390686 668.54187 2758.6863 3621181
21.886969 667.44031 2754.1406 3620925
39.142517 667.44031 2754.1406 3357753
56.154469 664.55756 2742.2451 3423546
73.586105 666.82855 2751.6165 3357753
90.926147 667.56506 2754.6555 3423546
107.79111 665.13507 2744.6284 3423546
125.68921 668.87158 2760.0469 3291960
143.63635 671.9339 2772.6831 3555132
161.29922 673.14893 2777.6968 3357753
179.78622 677.23169 2794.5442 3489339
197.24213 677.05054 2793.7966 3357753
215.11232 678.20502 2798.5605 3226167
233.09288 679.50732 2803.9343 3357753
253.66566 687.65424 2837.5518 3555132
273.68329 693.32745 2860.9622 3686718
286.40988 680.9682 2809.9626 3555132
303.70834 680.28088 2807.1265 3291960
320.082 677.71088 2796.5212 3423546
337.76624 678.03827 2797.8726 3949890
356.60034 680.52795 2808.146 3949890
371.53275 675.68762 2788.1726 4015683
389.15857 675.96045 2789.2983 3884097
408.22784 678.60931 2800.2288 3555132
425.60947 678.34998 2799.1587 3752511
443.14703 678.34998 2799.1587 3686718
462.09433 680.42566 2807.7239 3555132
476.59338 676.03949 2789.6245 3357753
491.11411 671.99323 2772.928 3291960
508.85144 672.47437 2774.9133 3160374
527.45679 674.03296 2781.3447 3028788
543.31769 672.09686 2773.3557 2699823
566.06116 678.53094 2799.9053 2962995
583.60345 678.53094 2799.9053 2831666
586.70447 662.23059 2732.6433 3226167
619.59167 679.52197 2803.9949 3818304
633.17114 675.26837 2786.4426 3686718
649.94098 674.55426 2783.4958 3423546
667.19373 674.36548 2782.717 3752511
682.98334 672.74524 2776.031 3291960
703.63782 675.8783 2788.9595 3686718
712.7392 668.03119 2756.5789 3620925
730.73547 668.69507 2759.3184 3489339
754.28186 674.28973 2782.4043 3884097
770.34839 673.09613 2777.479 3884097
789.16888 674.30829 2782.481 3686718
806.60193 674.30829 2782.481 3620925
813.37268 665.58325 2746.4778 3489339
847.08844 678.81207 2801.0654 3686718
855.12018 671.33978 2770.2317 3950146
871.51227 670.59784 2767.1702 3686718
891.02429 672.23865 2773.9409 3818304
909.25861 672.87122 2776.5508 3555132
935.18506 679.06543 2802.1108 3818304
957.93127 682.76465 2817.3755 4213062
963.30182 674.16968 2781.9089 3949890
981.17731 674.47626 2783.1741 3818304
1004.5427 678.48004 2799.6953 4015683
1021.0974 677.82538 2796.9939 4015683
1039.0865 678.12885 2798.2461 3949890
1054.645 676.86237 2793.02 4278855
1068.5061 674.56561 2783.5427 4081476
1101.7073 684.35626 2823.9431 3291960
1086.5107 664.24896 2740.9719 4279624
1117.4824 672.55371 2775.2407 5332055
1137.3994 674.05255 2781.4255 4740175
1155.5348 674.46631 2783.1331 4542540
1171.5222 673.63269 2779.6931 4542284
1189.4923 673.9469 2780.9895 4410697
1209.3606 675.31189 2786.6221 4213062
1226.1857 674.96289 2785.1821 4278855
1241.4525 673.77802 2780.2927 4147269
1257.7827 673.19507 2777.8872 4213062
1273.0219 672.05194 2773.1704 4213319
1288.0802 670.84558 2768.1924 4147269
1295.1534 665.56775 2746.4138 4081476
1312.3606 665.56775 2746.4138 4278855
1322.8199 662.18988 2732.4751 4476234
1343.212 663.80701 2739.1482 4278855
1368.984 668.00848 2756.4854 4147269
1383.1903 666.5321 2750.3931 4015683
1399.1783 665.93994 2747.9497 4015683
1431.0326 672.82202 2776.3479 4213062
1443.8666 670.70349 2767.606 4015683
1444.276 662.93225 2735.5386 3489339
1461.4149 662.93225 2735.5386 3356983
1493.3032 669.54529 2762.8269 3554362
1518.6132 673.09119 2777.4585 3422776
1546.5764 677.7193 2796.5562 2962225
1560.4016 676.1178 2789.9478 3028018
1577.8816 676.1178 2789.9478 3028018
1599.3799 677.82086 2796.9751 3159604
1616.9038 677.82086 2796.9751 3225397
1638.6385 679.56714 2804.1812 3356983
1663.7253 682.65179 2816.9097 3356983
1681.0021 682.50073 2816.2864 3356983
1706.3805 685.60797 2829.1082 3093811
1717.402 682.94214 2818.1079 2897715
1744.8916 686.81268 2834.0793 3291960
1750.7313 682.16931 2814.9189 3423546
1780.3446 686.78961 2833.9841 3357753
1792.1865 684.53076 2824.6631 3357753
1810.4504 684.74506 2825.5474 3291960
1832.2277 686.27106 2831.8445 3291960
1850.4585 686.45233 2832.5923 3291960
1865.6128 685.49963 2828.6611 3291962
1880.312 684.39923 2824.1204 3357754
1917.0605 691.27008 2852.4724 2634287
1915.1053 684.18677 2823.2439 2437164
1930.1494 683.25067 2819.3809 2371372
1940.2211 680.58734 2808.3909 3028018
1952.7434 678.82385 2801.114 3093811
1983.6345 683.42029 2820.0808 3028018
2008.3074 685.81207 2829.9504 3093811
2024.3348 685.23553 2827.5715 2962225
2042.4668 685.37537 2828.1482 2830895
2060.647 685.52869 2828.781 2634287
2078.3665 685.52747 2828.7759 2699823
2097.2104 685.89404 2830.2886 2699823
2109.697 684.19275 2823.2683 2502444
2127.3857 684.19275 2823.2683 2502700
2142.3528 683.32465 2819.686 2962738
2160.0188 683.32465 2819.686 3159348
2179.2993 683.83112 2821.7761 3028018
2203.8369 685.96576 2830.5847 2962225
2221.7515 686.02136 2830.8142 2962225
2236.5991 685.1366 2827.1631 2896689
2240.6892 680.99634 2810.0786 2962482
2250.0872 678.52118 2799.865 3159091
2288.0579 684.63379 2825.0884 3224884
2290.1814 680.00879 2806.0034 3027505
2309.6558 680.56677 2808.3062 3093298
2336.1355 683.1651 2819.0278 3290677
2376.8257 689.84875 2846.6074 3553849
2388.4761 688.06708 2839.2556 3488056
2398.7639 685.92224 2830.405 3553849
2426.3511 688.7193 2841.9468 3619642
2449.1775 690.13397 2847.7844 3553849
2460.4919 688.30792 2840.2493 3422263
2471.1921 686.3374 2832.1182 3027505
2488.3989 686.18921 2831.5066 3290677
2524.2271 691.14172 2851.9429 3422263
2550.3989 693.39923 2861.2583 3553849
2577.564 695.89343 2871.5503 3685435
2608.6394 699.40149 2886.0261 3882814
2610.8464 695.17456 2868.584 3817278
2615.1382 691.55676 2853.6555 3619898
2631.8113 691.24011 2852.3486 3620155
2656.4736 693.01184 2859.6597 3488569
2656.1047 688.27356 2840.1074 3685948
2670.4419 687.38373 2836.4355 3422776
2723.8164 696.48749 2874.0017 3356983
2728.5095 693.10559 2860.0466 3159604
2683.7925 677.29834 2794.8191 3356983
2707.939 678.96228 2801.6853 3356983
2722.9309 678.32416 2799.052 3422776
2724.4988 674.37146 2782.7415 3422777
2747.5527 675.75348 2788.4443 3159606
2775.1953 678.2395 2798.7029 3028020
2787.1687 676.88885 2793.1294 2962484
2749.3215 663.53119 2738.01 2896691
2769.7061 664.30597 2741.207 3028020
2786.5894 664.23651 2740.9207 3028020
2797.0674 662.65051 2734.376 3028020
nan nan nan 16777215
nan nan nan 16777215
nan nan nan 16777215
nan nan nan 16777215
nan nan nan 16777215
nan nan nan 16777215
nan nan nan 16777215
nan nan nan 16777215
-3049.6011 818.99402 3294.7849 460809
-2909.7371 786.758 3165.1006 395017
-3033.1658 825.75934 3322.0017 329481
-2967.3191 813.41461 3272.3391 264458
-2946.8167 813.41461 3272.3391 461580
nan nan nan 16777215
nan nan nan 16777215
-2244.1238 632.65405 2545.1455 4146499
-2241.1921 636.34924 2560.0112 4015170
-2236.5952 639.62152 2573.1755 4014913
-2227.7661 641.72229 2581.6267 3685948
-2199.7158 638.27631 2567.7639 3619899
-2186.9761 639.25507 2571.7012 3882814
-2177.207 641.12299 2579.2158 3818048
-2169.5393 643.64227 2589.3508 3884354
-2152.179 643.30237 2587.9834 3949890
-2142.491 645.26801 2595.8911 4015683
-2126.2271 645.26801 2595.8911 4015683
-2118.3015 647.81812 2606.1501 4081476
-2110.4089 650.41797 2616.6094 4015683
-2131.4856 662.0567 2663.4314 4081476
-2108.9617 660.22937 2656.0803 4279625
-2077.7959 655.64618 2637.6421 4345161
-2069.0156 658.10986 2647.5535 4345161
-2068.6919 663.32483 2668.5332 4476747
-2042.4652 660.25153 2656.1692 4345161
-2010.0298 655.104 2635.4609 4081989
-1993.5177 655.104 2635.4609 4148039
-1979.8746 656.05463 2639.2854 4345161
-1947.5934 650.79327 2618.1191 4279368
-1959.7418 660.41498 2656.8269 3884610
-1948.5907 662.28253 2664.3398 3818817
-1930.6266 661.84668 2662.5867 3884867
-1913.4991 661.69269 2661.967 4147782
-1891.3325 659.77802 2654.2644 4147782
-1873.8881 659.49133 2653.1111 3950660
-1857.2656 659.49133 2653.1111 3555902
-1841.3616 659.74872 2654.1467 3818817
-1830.2384 661.7395 2662.1553 4015426
-1812.8268 661.47223 2661.0801 4015683
-1796.1542 661.47223 2661.0801 3818304
-1771.1586 658.37836 2648.6335 3949890
-1746.8112 655.46918 2636.9299 3818304
-1740.0789 659.17737 2651.8481 3686718
-1733.0706 662.8515 2666.6289 3620925
-1714.9471 662.30469 2664.429 3620925
-1697.5656 662.03632 2663.3494 3686718
-1687.6997 664.72272 2674.1567 3752511
-1664.8154 662.28424 2664.3469 3752511
-1649.0825 662.66998 2665.8987 3621181
-1638.9926 665.35449 2676.6982 3686718
-1625.2247 666.58594 2681.6523 3686718
-1606.113 665.62842 2677.8005 3751997
-1589.2057 665.57397 2677.5813 3751741
-1569.4979 664.33301 2672.5889 3685948
-1554.2039 664.95355 2675.0854 3685691
-1535.4821 664.10516 2671.6724 3685691
-1516.3484 663.05804 2667.4597 3685948
-1499.345 662.92932 2666.9421 3685948
-1479.832 661.67572 2661.8987 3620155
-1465.2136 662.60699 2665.6453 3554362
-1452.6809 664.51379 2673.3162 3093811
-1427.8605 660.77856 2658.2896 3159604
-1409.246 659.86102 2654.5984 3356726
-1393.8574 660.4502 2656.9685 3422776
-1377.2107 660.4502 2656.9685 3554362
-1352.3536 656.46466 2640.9348 3620155
-1333.7748 655.46576 2636.9165 3685691
-1317.0576 655.36829 2636.5242 3619642
-1299.222 654.70459 2633.8542 3619642
-1290.5497 658.70081 2649.9309 3554105
-1276.019 659.77222 2654.241 3422776
-1250.3024 655.0116 2635.0894 3488826
-1233.651 654.93646 2634.7869 3555132
-1219.8264 656.38019 2640.5952 3620925
-1204.7329 657.17151 2643.7786 3291960
-1188.5055 657.35779 2644.5278 3028788
-1172.2687 657.54395 2645.2769 3094581
-1155.6952 657.54395 2645.2769 2831409
-1138.738 657.32245 2644.3857 2699823
-1121.2551 656.7865 2642.2295 3160374
-1110.3861 660.16663 2655.8279 3489339
-1098.1512 662.82532 2666.5234 3686718
-1085.0269 665.02081 2675.356 3686718
-1074.3567 668.81311 2690.6123 3555132
-1056.2371 668.01483 2687.4009 3423546
-1037.8335 667.0083 2683.3516 3423546
-1023.5443 668.65637 2689.9817 3358266
-1011.9848 672.17285 2704.1284 3358009
-988.79987 667.95569 2687.1628 3555901
-975.55011 670.42017 2697.0774 3818307
-961.09418 672.12799 2703.948 3818817
-941.98389 670.58386 2697.7358 4081989
-928.97644 673.40704 2709.0935 3884610
-917.59497 677.53595 2725.7041 4016453
-900.51764 677.53595 2725.7041 4279625
-884.6333 678.45099 2729.3853 4279368
-866.04199 677.28503 2724.6946 4081989
-850.8476 678.78223 2730.7175 4016196
-850.26337 692.23553 2784.8398 3818817
-815.82678 678.11456 2728.0317 3621438
-803.85547 682.46191 2745.521 3818817
-786.65393 682.46191 2745.521 3884610
-767.97473 681.15137 2740.2485 3950403
-750.2782 680.67224 2738.3213 4016453
-737.95258 685.15753 2756.3652 3621182
-729.73645 693.76459 2790.9912 3423546
-708.58679 690.19641 2776.6365 2831409
-680.72656 679.74768 2734.6018 3028275
-666.14587 682.3623 2745.1201 3949377
-655.112 688.84491 2771.1995 3752511
-642.02057 693.45807 2789.7581 2568237
-625.28125 694.27899 2793.0608 3290934
-605.8609 692.08466 2784.2329 3554362
-582.17108 684.73859 2754.6799 3488569
-566.86041 687.10016 2764.1804 3488569
-549.25183 686.73737 2762.7209 4146499
-530.61823 685.02765 2755.8428 3949120
-510.42728 681.12482 2740.1418 3554362
-488.06335 673.94971 2711.2766 3554362
-473.47931 677.38757 2725.1069 3422776
-456.40567 677.38757 2725.1069 3290933
-440.95444 679.88904 2735.1704 4080449
-415.99017 667.33203 2684.6538 4343622
-398.64816 666.45959 2681.1443 4081476
-382.35428 667.3399 2684.6855 3358266
-365.1312 666.60468 2681.7278 3489339
-348.1239 666.21155 2680.1462 3489339
-331.16669 665.87927 2678.8096 3555131
-314.39142 665.89679 2678.8801 3423546
-294.64261 659.26306 2652.1929 3818304
-278.6994 660.86035 2658.6187 3423546
-262.43777 661.85767 2662.6306 3291960
-245.09019 660.06567 2655.4216 3620925
-227.81995 658.23615 2648.0615 3028788
-211.40395 658.78131 2650.2546 2568237
-196.4476 664.35565 2672.6802 3291960
-179.95599 665.29315 2676.4514 3489338
-163.18719 665.29315 2676.4514 3555644
-144.86159 658.2193 2647.9937 3686974
-127.90348 656.33289 2640.4048 3687231
-110.67912 652.31689 2624.2485 3753023
-94.837898 656.47363 2640.9709 3950403
-78.291397 656.47363 2640.9709 3357753
-61.713318 656.13788 2639.6204 3357753
-45.329906 658.38379 2648.6555 3291960
-28.957085 663.46631 2669.1023 3357753
-12.234331 663.46631 2669.1023 3357753
4.4792552 662.11121 2663.6509 3555132
21.167814 662.10992 2663.6458 3686718
37.792019 660.98425 2659.1172 3423546
54.353687 659.78833 2654.3059 3489339
70.983734 659.78833 2654.3059 3686974
87.235313 656.93817 2642.8398 3489339
104.06863 658.67944 2649.845 3423546
121.50324 663.22369 2668.1262 3555132
138.34932 663.84473 2670.6248 3555132
155.49017 665.59369 2677.6606 3423546
172.61433 666.93738 2683.0664 3752511
189.24225 666.29547 2680.4839 3752511
206.59955 668.11694 2687.8115 3423546
224.33473 670.79376 2698.5803 3489339
242.04477 673.02539 2707.5581 3555132
260.71976 677.47211 2725.447 3686718
276.96994 675.45874 2717.3474 3818304
293.06091 673.31274 2708.7141 4015683
310.15506 673.58032 2709.7905 4015683
328.95175 677.32574 2724.8582 3949890
345.19693 675.70709 2718.3467 4015683
364.95709 680.79767 2738.8257 4015683
380.1947 677.37335 2725.0498 4147269
395.47919 674.3233 2712.7795 3949890
413.09662 675.33856 2716.864 3818304
429.97855 675.11859 2715.979 3752511
445.71069 673.17883 2708.1755 3752511
461.23657 671.0813 2699.7371 4015940
474.09616 665.38995 2676.8411 3226424
495.90762 672.22217 2704.3269 3027762
512.88434 672.26587 2704.5024 3028274
529.15662 671.41284 2701.071 2962482
546.05206 671.37891 2700.9343 2962225
563.49286 671.99731 2703.4224 2831665
580.4306 671.99731 2703.4224 2831666
606.50598 682.27643 2744.7749 3094581
606.9165 663.91364 2670.9019 3358010
628.82275 669.4198 2693.053 3358009
645.69556 669.4198 2693.053 3358009
660.59308 667.42413 2685.0244 3291960
677.63654 667.64185 2685.9001 3291960
693.70276 666.90942 2682.9539 3291960
718.30865 674.22729 2712.3936 3357753
734.69037 673.66595 2710.135 3620925
741.35651 664.42255 2672.9492 3686718
754.70905 661.44763 2660.9812 3423546
778.15704 667.25806 2684.3564 3489339
796.10284 668.20441 2688.1636 3555132
814.12396 669.1734 2692.0618 3620925
826.06628 665.20801 2676.1091 3752767
837.16083 660.73132 2658.0996 3686974
855.76501 662.24066 2664.1714 3884097
885.26178 671.96027 2703.2732 3620925
921.39386 686.2569 2760.7881 3686718
930.8017 680.4892 2737.5847 4015683
939.62305 674.50916 2713.5271 4147269
956.62408 674.50916 2713.5271 4278855
975.14392 675.56128 2717.76 3949890
1006.3329 685.20361 2756.5508 3620925
1005.9618 673.39417 2709.0417 3818304
1020.1516 671.56201 2701.6709 4015939
1042.8875 675.32367 2716.804 4673613
1062.3861 676.90192 2723.1533 5003091
1079.0455 676.64984 2722.1392 5200471
1113.9248 687.65314 2766.405 5068631
1130.6036 687.25592 2764.8071 4673873
1121.708 671.55939 2701.6604 4213577
1138.675 671.58319 2701.7561 3555903
1155.6025 671.58319 2701.7561 3950146
1172.6273 671.63898 2701.9807 4213062
1188.0151 670.76898 2698.4807 4081476
1205.637 671.16705 2700.082 4147269
1220.9606 670.29236 2696.5632 4213062
1235.176 668.84149 2690.7266 4081476
1250.6744 668.11505 2687.8042 4147269
1265.6244 667.11884 2683.7964 4344648
1279.5457 665.61365 2677.741 4344648
1293.4619 664.14484 2671.832 4476234
1313.9795 666.05975 2679.5356 4278855
1336.7244 669.0412 2691.5298 4344648
1357.584 671.01648 2699.4763 4476234
1369.541 668.59692 2689.7427 4278855
1381.0189 666.00525 2679.3164 3620925
1401.8868 667.94977 2687.1392 3489339
1415.3597 666.36652 2680.7698 3555389
1427.8121 664.34552 2672.6394 3028275
1449.6167 666.67242 2682.0005 3028018
1464.2738 665.69659 2678.0747 3488569
1485.7032 667.78693 2686.4839 3554362
1508.8822 670.60785 2697.8325 3225397
1533.9393 674.19183 2712.2507 3422776
1550.9324 674.19183 2712.2507 3488569
1563.3115 672.20782 2704.2693 3620155
1580.2548 672.20801 2704.2698 3488569
1603.1191 674.70001 2714.2952 3225397
1622.0575 675.50482 2717.5327 3422776
1647.7904 679.09308 2731.9683 3554362
1667.0413 679.96356 2735.4702 3160630
1674.0077 675.85675 2718.9485 3226167
1680.1333 671.49658 2701.408 3160374
1694.3766 670.43536 2697.1387 3094581
1725.2842 675.92383 2719.2185 3423546
1742.3209 675.92383 2719.2185 3357753
1763.5693 677.54193 2725.728 3291960
1782.0579 678.07874 2727.8877 3226167
1798.4377 677.81073 2726.8093 3226167
1823.0684 680.62811 2738.1438 3226167
1836.8105 679.36572 2733.0652 3357240
1848.9139 677.52612 2725.6646 3356983
1860.3218 675.46765 2717.3833 3356983
1868.8208 672.3999 2705.042 3225397
1885.2739 672.22351 2704.332 2962482
1906.6686 673.79645 2710.6602 3028018
1930.1351 676.06738 2719.7961 3554362
1948.4545 676.51154 2721.5828 3093811
1962.3793 675.43536 2717.2532 2961969
1982.183 676.38367 2721.0684 3027762
2002.3025 677.42279 2725.2485 2962481
2019.377 677.42279 2725.2485 3028018
2035.8105 677.20953 2724.3906 2699310
2059.4607 679.38043 2733.1243 2765102
2073.1992 678.27289 2728.6687 3028018
2081.7876 675.51227 2717.5627 3093811
2106.5364 677.9978 2727.562 2962225
2127.0422 679.08862 2731.9504 3028018
2145.5425 679.52692 2733.7136 2830639
2159.2183 678.44232 2729.3503 2830639
2172.4136 677.22504 2724.4531 2961712
2189.4832 677.22504 2724.4531 3487800
2195.699 673.8938 2711.0518 3553849
2231.7092 679.68799 2734.3616 3619642
2233.0469 674.91449 2715.158 3488056
2261.5442 678.35974 2729.0181 3488056
2305.2703 686.28693 2760.9089 3553849
2322.5684 686.28693 2760.9089 3553849
2329.1982 683.15808 2748.3215 3553849
2349.0881 683.93567 2751.4497 3619642
2370.7202 685.20544 2756.5581 3553849
2363.4065 678.15131 2728.1794 3422263
2389.8276 680.80865 2738.8699 3290677
2406.9875 680.80865 2738.8699 3290677
2440.8623 685.50299 2757.7551 3356470
2464.1433 687.17694 2764.4895 3422263
2488.2458 689.05511 2772.0452 3159091
2498.6631 687.14368 2764.3555 3356470
2515.9824 687.14368 2764.3555 3356983
2529.3074 686.06012 2759.9966 3488825
2538.3342 683.83337 2751.0383 3620155
2554.9456 683.6662 2750.3657 3751741
2575.7305 684.6106 2754.165 3685948
2577.7493 680.58765 2737.981 3620155
2598.3281 681.48584 2741.5942 3422776
2614.375 681.19135 2740.4097 3356983
2619.594 678.09802 2727.9651 3422776
2630.1509 676.41736 2721.2041 3422776
2651.7239 677.57336 2725.8545 3291190
2668.8025 677.57336 2725.8545 3422776
2668.0562 673.07672 2707.7646 3488571
2683.2378 672.6297 2705.9663 3554364
2692.969 670.83057 2698.7283 3093813
2690.7566 666.09723 2679.6863 3028020
2717.7913 668.61774 2689.8264 3225399
2720.8162 665.23682 2676.2251 3422778
2727.7183 662.8396 2666.5811 3422778
nan nan nan 16777215
nan nan nan 16777215
nan nan nan 16777215
nan nan nan 16777215
nan nan nan 16777215
nan nan nan 16777215
nan nan nan 16777215
nan nan nan 16777215
nan nan nan 16777215
nan nan nan 16777215
nan nan nan 16777215
nan nan nan 16777215
nan nan nan 16777215
nan nan nan 16777215
nan nan nan 16777215
nan nan nan 16777215
-2189.9941 637.4024 2501.5303 4212548
-2176.9622 638.17657 2504.5686 4080706
-2189.1216 646.40045 2536.8438 3817790
-2148.9714 639.18579 2508.5293 3621438
-2133.2546 639.18579 2508.5293 3752511
-2131.2388 643.32147 2524.76 3752511
-2136.0498 649.59503 2549.3811 3818304
-2130.926 652.91919 2562.427 3884097
-2105.3203 649.97046 2550.8545 3752511
-2073.8127 645.14056 2531.8992 3818304
-2062.0613 646.4295 2536.9578 3949890
-2055.6748 649.43341 2548.7468 4278855
-2039.7062 649.43341 2548.7468 5068115
-2071.2256 664.67267 2608.5544 4279368
-2052.6096 663.93762 2605.6697 3950403
-2031.5924 662.40784 2599.6658 4147782
-2024.5747 665.45477 2611.6238 4279368
-1997.6328 661.94916 2597.8657 4345161
-1975.1189 659.86523 2589.6873 4213575
-1963.0084 661.2514 2595.1272 4147782
-1918.6433 651.70465 2557.6604 4410954
-1889.7103 647.28308 2540.3079 3818817
-1903.3926 657.50751 2580.4341 3753281
-1897.5204 661.0943 2594.5107 3950403
-1863.0608 654.69714 2569.4048 4016453
-1851.7504 656.39417 2576.0649 4147782
-1844.0081 659.39709 2587.8501 4147782
-1831.5682 660.75854 2593.1931 4016196
-1815.1354 660.69092 2592.9277 3621438
-1783.7632 655.13531 2571.1243 3818817
-1776.2148 658.30804 2583.5759 4081989
-1759.245 658.01526 2582.4268 4344391
-1738.2737 656.20636 2575.3276 4213062
-1722.5571 656.36584 2575.9536 4081476
-1715.4233 659.82971 2589.5479 3818304
-1696.4891 658.7774 2585.418 3818561
-1685.0916 660.65973 2592.8052 3884354
-1667.7351 660.21954 2591.0779 3620925
-1641.1971 656.10034 2574.9116 3620925
-1619.5945 653.89185 2566.2444 3686974
-1613.7826 658.07837 2582.6746 3620925
-1587.0344 653.72565 2565.592 3752511
-1570.9601 653.72565 2565.592 3620925
-1563.701 657.43182 2580.1372 3621181
-1545.3773 656.51489 2576.5386 3555388
-1538.1421 660.33899 2591.5466 3752511
-1522.5294 660.6098 2592.6094 3752511
-1506.3855 660.6535 2592.7808 3489339
-1489.0927 660.18872 2590.9568 3489339
-1468.9623 658.44183 2584.1011 3620925
-1451.469 657.85132 2581.7834 3817020
-1431.9155 656.3031 2575.7073 3554362
-1408.8816 653.1062 2563.1609 3356984
-1398.2588 655.65527 2573.165 3291447
-1380.9579 655.09583 2570.9695 3291703
-1361.9701 653.71362 2565.5449 3225654
-1343.0293 652.32117 2560.0801 3291190
-1327.0579 652.35474 2560.2117 3422776
-1305.7292 649.72345 2549.885 3488569
-1288.3475 649.01514 2547.1055 3488569
-1269.0278 647.30066 2540.3767 3554362
-1256.5927 649.09882 2547.4336 3619642
-1243.1169 650.3988 2552.5356 3619642
-1229.0663 651.42798 2556.5747 3685948
-1215.644 652.82184 2562.0449 3619899
-1196.5225 651.15131 2555.489 3685948
-1182.9982 652.52295 2560.8718 3555132
-1166.9535 652.52295 2560.8718 3357753
-1158.2556 656.68829 2577.2192 3357753
-1154.9236 664.05664 2606.1367 3752511
-1123.3937 655.19073 2571.3418 3752511
-1105.256 653.99103 2566.6335 3226167
-1077.9137 647.22913 2540.0959 3094581
-1089.0565 663.71899 2604.8118 3884097
-1078.2615 667.13733 2618.2273 3752511
-1054.9167 662.77667 2601.1133 3686718
-1029.6707 657.0658 2578.7007 3423546
-1016.0566 658.71399 2585.1692 3291960
-1009.2738 664.91614 2609.5098 3226167
-997.60229 668.04865 2621.8037 3291960
-988.28699 672.89032 2640.8052 3424059
-970.7998 672.23828 2638.2461 3752769
-952.12097 670.72412 2632.3037 3950149
-938.052 672.46124 2639.1211 4016195
-931.03009 679.4032 2666.3652 4279368
-913.33911 678.67102 2663.4917 4016196
-896.85229 678.82294 2664.0881 3950403
-879.51855 678.32751 2662.1438 4542540
-858.66034 675.04211 2649.25 4345161
-832.31494 667.22839 2618.5845 3884610
-822.30688 672.46057 2639.1187 3753281
-807.85229 674.19678 2645.9324 3687488
-794.07227 676.58038 2655.2871 3687487
-778.50476 677.5105 2658.9373 3818560
-762.53168 678.12054 2661.3313 3884867
-747.94226 680.01581 2668.7695 3950403
-731.22156 680.01581 2668.7695 4410441
-709.73248 675.47748 2650.9587 4410441
-695.63586 677.92609 2660.5681 3620925
-683.60541 682.55774 2678.7456 4344647
-674.71344 690.63519 2710.446 4147269
-656.29767 689.12946 2704.5369 4146756
-638.44379 688.1496 2700.6912 3949633
-621.52319 688.1496 2700.6912 4147012
-613.96289 698.80347 2742.5029 3423545
-590.15302 691.04321 2712.0474 3620154
-567.01141 683.6286 2682.9482 3554362
-548.00775 680.9024 2672.249 3159604
-545.86487 699.61414 2745.6846 2896432
-516.74524 683.84344 2683.7915 2962225
-497.3392 680.29889 2669.8806 3093811
-484.07635 685.20331 2689.1284 3751741
-462.89673 678.8512 2664.199 3883070
-443.07123 674.08392 2645.4895 3949377
-423.15817 668.8078 2624.783 3949890
-408.23093 671.30377 2634.5786 3818304
-391.74872 671.34534 2634.7417 3489339
-371.58444 664.80286 2609.0654 3949890
-355.50421 665.30145 2611.022 3884097
-339.25143 665.50952 2611.8386 3949890
-322.18979 664.07153 2606.1951 3884097
-304.56516 661.25769 2595.1521 3949890
-289.97562 665.08777 2610.1833 3949890
-271.07315 658.89233 2585.8689 3423546
-254.87189 658.89233 2585.8689 3357753
-238.02576 657.11212 2578.8823 3555132
-220.85783 654.11951 2567.1377 3555132
-205.71042 657.11102 2578.8782 3686718
-189.98413 658.60577 2584.7444 3555132
-175.10539 663.591 2604.3093 3357753
-157.35265 657.59003 2580.7581 3357753
-140.5896 654.82434 2569.9038 3094581
-124.33286 654.00641 2566.6938 2897202
-109.70618 662.79352 2601.1797 4015683
-93.091919 660.54376 2592.3503 3752254
-76.850037 660.54376 2592.3503 3225910
-59.832512 652.09033 2559.1741 3225654
-43.902706 653.64191 2565.2634 2962482
-27.763323 652.06329 2559.0681 3094325
-11.729969 652.06329 2559.0681 2962995
4.2929459 650.48138 2552.8596 2897459
20.305931 651.0755 2555.1912 3555132
36.314999 651.0755 2555.1912 3752767
51.918606 646.03027 2535.3911 3752511
67.24147 640.67419 2514.3706 3818304
82.577309 637.45154 2501.7231 3555132
98.567429 639.50208 2509.7705 3555132
114.46561 640.47394 2513.5847 4015683
130.25854 640.69299 2514.4443 3620925
151.61453 665.27515 2610.9189 3752511
168.52739 667.47192 2619.5403 3423546
185.25891 668.62421 2624.0625 3423546
202.29408 670.59534 2631.7983 3489339
218.98172 671.20404 2634.1873 3489339
235.44633 671.0918 2633.7468 3489339
253.48157 675.1778 2649.7825 3818304
269.4606 673.62122 2643.6736 3686718
285.84351 673.19592 2642.0046 3555132
303.95236 676.65973 2655.5984 3423546
319.49341 674.34412 2646.5107 3226167
337.77444 677.75482 2659.8962 3357753
353.73062 676.39935 2654.5764 3291960
369.37573 674.59741 2647.5046 3357753
385.96317 674.59741 2647.5046 3160374
401.13086 672.2182 2638.1672 3028788
417.99756 672.76184 2640.3008 3160374
434.75095 673.08856 2641.5833 3423546
451.64355 673.59906 2643.5867 3423802
468.6636 674.25684 2646.168 3028788
491.62189 683.12091 2680.9558 2436651
502.81238 675.58789 2651.3918 2633003
515.33612 670.27069 2630.5242 2962225
531.84119 670.30096 2630.6431 3093811
547.90973 669.79584 2628.6606 3028018
561.9588 666.92346 2617.3877 3225397
575.81506 663.99164 2605.8816 3225141
593.66504 665.69983 2612.5854 3290934
610.03369 665.69983 2612.5854 3488312
628.7298 668.17322 2622.2925 3488826
645.15924 668.17322 2622.2925 3291447
657.27679 663.81842 2605.2017 3225397
674.41498 664.62231 2608.3567 3160374
691.27698 665.1225 2610.3196 3160374
705.88049 663.47668 2603.8606 3226167
721.52234 662.85919 2601.4373 3160374
737.82111 662.85919 2601.4373 3555132
754.36914 663.07825 2602.2969 3686718
766.75671 659.70844 2589.0718 3489339
788.02069 663.95715 2605.7463 3160374
805.85101 665.1991 2610.6204 2962995
822.46118 665.40436 2611.426 3423546
842.16187 668.05334 2621.822 4081477
855.37872 665.55591 2612.0208 4213832
873.95636 667.24512 2618.6501 4213320
890.36292 667.24512 2618.6501 4015942
901.24927 663.18298 2602.708 3884356
916.79156 662.63043 2600.5396 4081734
935.84583 664.59125 2608.2349 4081477
969.01056 676.33331 2654.3174 3752511
977.19257 670.53632 2631.5667 3752511
994.62689 671.17511 2634.0737 3949890
1021.0262 677.74402 2659.8538 3818304
1037.691 677.74402 2659.8538 3949890
1053.9211 677.4646 2658.7571 3884097
1072.7946 678.86658 2664.2593 3423289
1073.201 668.71869 2624.4331 3884097
1088.0605 667.74695 2620.6196 4147269
1111.7604 672.1488 2637.895 3818304
1130.9008 673.70557 2644.0046 4015682
1144.239 671.81079 2636.5684 4213061
1159.0454 670.81952 2632.6782 4015683
1175.5399 670.81952 2632.6782 4081476
1193.8623 671.84814 2636.7151 4278855
1201.9283 667.1557 2618.2993 4147269
1210.5403 662.88855 2601.5525 4213062
1221.1235 659.79993 2589.4309 4213062
1239.3239 660.854 2593.5676 3949890
1273.6047 670.34454 2630.814 3949890
1295.0011 672.89771 2640.834 4081733
1307.6537 670.90033 2632.9951 4213062
1319.4371 668.51239 2623.6235 4278855
1327.3591 664.25079 2606.8987 4410441
1347.3827 666.0752 2614.0588 4147526
1377.5857 672.82758 2640.5588 3620925
1377.8215 664.95703 2609.6704 3752511
1375.9047 656.24432 2575.4768 3423546
1390.1123 655.33527 2571.9089 3029045
1412.6646 658.33563 2583.6843 3357240
1427.6071 657.76202 2581.4331 3554106
1445.8771 658.71716 2585.1816 3422776
