# .PCD v0.7 - Point Cloud Data file format
VERSION 0.7
FIELDS x y z rgb
SIZE 4 4 4 4
TYPE F F F U
COUNT 1 1 1 1
WIDTH 1286
HEIGHT 1
VIEWPOINT 0 0 0 1 0 0 0
POINTS 1286
DATA ascii
-299.23642 583.77704 1172.5745 3555391
-291.77731 583.55194 1172.1223 3358012
-285.18988 585.10358 1175.2389 3358012
-277.8652 585.18475 1175.402 3555647
-270.77463 585.77673 1176.5911 2963254
-264.30878 587.79132 1180.6375 2634289
-257.36929 588.83826 1182.7404 3029047
-250.15073 589.28973 1183.6472 3029047
-243.49838 591.14349 1187.3706 2897461
-239.02454 598.56946 1202.2865 3818563
-231.13377 597.64362 1200.4269 3029047
-222.9512 595.87561 1196.8756 2766132
-215.95662 597.27008 1199.6765 3160633
-208.44026 597.27008 1199.6765 2568496
-201.48946 598.95117 1203.0532 2502703
-192.63869 594.89563 1194.9072 2568496
-185.20502 595.06525 1195.2479 2502703
-178.31081 597.05554 1199.2456 2436910
-172.8597 604.2655 1213.7275 3226426
-165.25531 604.2655 1213.7275 3029047
-158.1053 606.00702 1217.2256 3029047
-150.86607 607.5658 1220.3566 3029304
-143.37651 608.22906 1221.6888 2963254
-135.59453 607.65674 1220.5392 2700082
-127.77759 606.84985 1218.9186 2634032
-120.42 608.26068 1221.7523 2897461
-112.85916 608.76685 1222.7689 2700082
-105.18948 608.71674 1222.6683 3226169
-97.152893 606.36884 1217.9523 3160376
-89.161224 603.9248 1213.0432 2831411
-81.561127 603.9248 1213.0432 2897204
-74.24485 606.24225 1217.698 2436653
-66.615593 606.24225 1217.698 2502446
-58.824684 604.58081 1214.361 2962997
-51.127995 603.53796 1212.2662 3028790
-43.396198 601.64453 1208.4631 2897204
-35.824802 601.64453 1208.4631 2634032
-28.330454 603.28528 1211.7587 2436653
-20.750315 603.63153 1212.4542 2502446
-13.150232 603.46265 1212.115 2436653
-5.5363884 601.33728 1207.8459 2831411
2.0256155 599.70142 1204.5602 2700082
9.5443659 597.93518 1201.0126 2436653
17.000439 595.53064 1196.1827 2831668
24.693489 600.35895 1205.8809 2700081
32.305 601.40692 1207.9858 2962996
39.598351 597.25836 1199.653 3028789
46.812588 593.43042 1191.9642 2502446
54.764862 598.72455 1202.598 2370859
62.550385 601.1355 1207.4407 2502444
70.23069 602.12427 1209.4266 2568237
77.479652 599.58228 1204.3209 2567981
85.689056 604.26447 1213.7255 2371371
92.633575 599.9906 1205.141 2437164
100.14306 599.74451 1204.6466 2371370
107.69055 599.74451 1204.6466 2371371
115.89198 603.14795 1211.4828 2568494
123.4823 603.14795 1211.4828 2634800
131.31186 604.24884 1213.6941 3292219
138.91603 604.24884 1213.6941 3489852
145.15163 598.6048 1202.3575 3094838
153.00244 599.85028 1204.8591 2700336
160.05566 597.99872 1201.14 3094838
166.68414 594.79767 1194.7104 3094838
173.75262 593.37445 1191.8518 2568495
181.92743 595.69092 1196.5048 2634286
189.73592 596.67218 1198.4756 2897204
196.8644 595.52161 1196.1646 2831410
205.37143 598.47272 1202.0922 2502446
213.77992 600.93799 1207.0439 2239274
218.99452 594.56354 1194.2401 1976102
226.09366 593.55762 1192.2197 1976359
234.51317 595.97162 1197.0685 2436653
241.30998 594.23993 1193.5902 2568239
250.86023 599.18903 1203.531 2239531
259.41757 601.54694 1208.2671 2239531
266.45358 600.34344 1205.8497 2371117
274.76453 601.99976 1209.1765 2436910
283.12387 603.67017 1212.5317 2436910
290.63037 603.48254 1212.1549 2436910
298.03284 603.09381 1211.3741 2436910
305.50586 602.86371 1210.912 2634290
312.38074 601.49304 1208.1588 2634290
320.59885 602.7124 1210.608 2371117
328.18369 602.7124 1210.608 2239531
336.08801 603.28583 1211.7599 2107945
345.39975 606.30457 1217.8232 2173738
353.58725 607.26202 1219.7463 2173738
358.91165 603.36572 1211.9203 2568496
366.8548 603.94202 1213.0779 2765619
376.32645 606.96027 1219.1403 2436398
385.32147 609.10498 1223.4481 2436399
393.78366 610.34015 1225.9291 2568241
402.44379 611.82898 1228.9196 2568239
410.53085 612.40698 1230.0806 2634032
418.26794 612.45129 1230.1696 2699825
425.92831 612.38373 1230.0338 2962997
433.88483 612.73669 1230.7428 2304812
446.19702 619.12109 1243.5665 2831414
453.07306 617.87286 1241.0593 3225915
463.24365 621.08392 1247.509 2633778
471.93497 622.23798 1249.827 2831157
478.4324 620.50891 1246.3541 2831157
484.7352 618.5871 1242.4939 2962743
494.0191 620.47015 1246.2762 2041641
499.02521 617.00549 1239.317 2041641
505.94891 615.98157 1237.2604 2173227
513.95544 616.28699 1237.8739 2567985
516.22333 609.80438 1224.8529 2897207
528.89307 615.6192 1236.5326 2173227
534.92419 613.65045 1232.5782 2304813
540.83899 611.60626 1228.4723 2370606
546.7016 609.56128 1224.3646 2041641
550.6571 605.47577 1216.1586 1975848
560.84821 608.26471 1221.7604 2238764
568.32092 608.07001 1221.3693 2502446
570.4472 602.23615 1209.6514 2436653
577.53394 601.72339 1208.6215 2305067
584.41876 601.0163 1207.2012 2699825
586.19867 595.14441 1195.407 3028790
593.50244 594.95819 1195.0328 2502446
598.83856 592.82855 1190.7554 2239274
605.65692 592.20081 1189.4944 2436653
612.12195 591.24695 1187.5785 2634032
619.1203 590.82495 1186.7308 3028790
627.39838 591.61975 1188.3273 3226169
632.94458 589.84998 1184.7726 3094840
642.65295 591.95514 1189.001 2634032
651.89044 593.58319 1192.2711 2568496
661.71222 595.70044 1196.5238 2502703
670.32849 596.69708 1198.5256 2568239
677.83759 596.69708 1198.5256 3358012
683.25787 594.87842 1194.8727 3226169
690.12653 594.34656 1193.8043 3226169
698.13123 594.79395 1194.703 3226169
705.92908 595.0575 1195.2324 3226169
712.87164 594.60217 1194.3177 3423548
720.27795 594.53906 1194.191 3423548
726.72888 593.69678 1192.4991 3357755
734.18488 593.68427 1192.4741 3226169
738.45001 591.11786 1187.3192 3094583
746.0426 591.23969 1187.5638 2962997
753.39838 591.17316 1187.4303 2963254
761.44666 591.64612 1188.3802 2765362
765.42383 588.97729 1183.0197 2305067
776.02222 591.40558 1187.8972 2435883
778.91522 587.97131 1180.9991 2633518
778.94476 582.46057 1169.9302 2370603
782.73657 579.8396 1164.6656 2831155
796.91681 584.89142 1174.8129 3620927
804.27734 584.89142 1174.8129 3159606
813.50293 586.23541 1177.5123 2567469
825.17621 589.30328 1183.6744 2699055
832.73419 589.40369 1183.8762 3028020
840.80981 589.86548 1184.8037 3028020
848.05414 589.74115 1184.554 2896434
856.73517 590.60938 1186.2979 2699055
862.03003 589.14832 1183.3633 2962484
867.49286 587.82617 1180.7075 3028277
876.35565 588.81067 1182.6851 2764848
884.34106 589.19409 1183.4552 3028020
890.57959 588.41699 1181.8943 2830641
897.4165 588.04474 1181.1466 3028020
905.80359 588.6861 1182.4348 3751743
918.79498 592.28522 1189.6639 3817536
932.89148 596.5329 1198.1959 3028277
938.80914 595.52466 1196.1708 2962227
940.65485 591.96991 1189.0306 2764848
946.01965 590.66821 1186.416 2699055
952.7605 590.23926 1185.5544 2962227
962.32855 591.55481 1188.1969 3422778
976.37781 595.58368 1196.2893 3093813
979.67181 593.04059 1191.1812 2896434
991.74359 595.80933 1196.7426 2764848
999.24158 595.80933 1196.7426 2830641
1009.7338 597.58148 1200.302 3093813
1016.4942 597.13501 1199.4053 3028020
1021.8445 595.87299 1196.8704 2830641
1027.8145 594.98792 1195.0927 2699055
1036.8839 595.89697 1196.9186 2896434
1044.3829 595.89697 1196.9186 2830641
1058.7512 599.78839 1204.7349 2567469
1050.5093 590.90662 1186.8949 2370090
1055.5239 589.55408 1184.1782 2304297
1069.4474 593.16162 1191.4243 2172711
1075.9369 592.62445 1190.3455 2041125
1081.9691 591.8446 1188.7791 1975332
1087.7465 590.93695 1186.9559 1975332
1090.8904 588.62073 1182.3035 1777953
1096.4476 587.62915 1180.3118 1712160
1099.4198 585.2746 1175.5824 2172711
1106.7852 585.2746 1175.5824 2501676
1108.9006 582.51678 1170.0431 2567469
1123.0079 586.05322 1177.1464 2699055
1134.2725 588.06964 1181.1965 2830898
1144.7439 589.65143 1184.3738 2896434
1153.9213 590.5506 1186.1798 2764848
1164.87 592.33893 1189.7719 2699055
1170.8652 591.60175 1188.2911 2765105
1176.3 590.59247 1186.2639 2765105
1187.0022 592.22388 1189.5408 2830641
1195.7405 592.86121 1190.8209 2830641
1208.0677 595.25909 1195.6373 2633262
1220.5675 597.71179 1200.5638 2435629
1228.0894 597.71179 1200.5638 2304043
nan nan nan 16777215
nan nan nan 16777215
nan nan nan 16777215
nan nan nan 16777215
nan nan nan 16777215
nan nan nan 16777215
nan nan nan 16777215
nan nan nan 16777215
nan nan nan 16777215
nan nan nan 16777215
nan nan nan 16777215
nan nan nan 16777215
nan nan nan 16777215
nan nan nan 16777215
nan nan nan 16777215
nan nan nan 16777215
nan nan nan 16777215
-1055.0339 611.8681 1213.8038 3029304
-1050.3937 613.59985 1217.2393 2963254
-1038.4816 611.07788 1212.2363 2831668
-1026.0054 608.18463 1206.4967 2634289
-1015.7191 606.55591 1203.2657 2700082
-1008.1802 606.55591 1203.2657 2634289
-1000.6624 606.56866 1203.291 2502703
-992.25153 606.03625 1202.2347 2502703
-983.10657 605.0437 1200.2659 2173738
-970.62927 601.9693 1194.167 1910566
-961.47595 600.92462 1192.0945 1976359
-951.05176 599.06305 1188.4016 2371117
-948.77588 602.34521 1194.9126 2634546
-934.88245 598.2453 1186.7794 3029047
-926.23743 597.46509 1185.2317 3226426
-923.3631 600.4248 1191.103 3029047
-909.82129 596.43958 1183.1973 3094840
-900.22778 594.99841 1180.3383 3160376
-889.5274 592.79578 1175.9688 3226169
-884.60571 594.43958 1179.2296 2634032
-873.06305 591.62433 1173.6449 2502446
-866.33997 592.05499 1174.4993 2897204
-860.15045 592.86072 1176.0977 3094583
-852.0011 592.31799 1175.021 3357755
-849.35236 595.62311 1181.5776 3292219
-843.7915 596.92633 1184.1628 2831411
-833.76233 595.06348 1180.4674 2765618
-825.5014 594.44073 1179.2319 2305067
-821.0802 596.59656 1183.5087 2107688
-814.78125 597.41492 1185.1321 2041895
-807.92511 597.836 1185.9674 2305067
-797.89923 595.89764 1182.1222 2962997
-789.89441 595.44653 1181.2273 3291962
-785.88354 598.02606 1186.3445 3291962
-778.53363 598.08972 1186.4708 3160376
-773.80438 600.18738 1190.632 3094583
-771.47668 604.20667 1198.6053 2962740
-761.64624 602.37115 1194.9641 3489598
-751.6626 600.37689 1191.0079 3423805
-743.47485 599.79144 1189.8466 2634546
-734.32721 598.4118 1187.1097 2436910
-726.88959 598.4118 1187.1097 3160633
-716.50525 595.96082 1182.2476 3358012
-709.07379 595.94043 1182.207 2765875
-698.66077 593.38727 1177.1422 3029047
-695.27863 596.81482 1183.9417 3358014
-685.77576 595.00568 1180.3528 3160889
-678.72974 595.31201 1180.9604 3292219
-671.33069 595.31201 1180.9604 3226426
-666.09692 597.25354 1184.812 2962997
-665.36908 603.32458 1196.8556 2831411
-654.13928 599.90289 1190.0676 2699825
-641.19788 594.81439 1179.9733 2634289
-635.83789 596.72223 1183.7579 3423548
-628.42126 596.72223 1183.7579 3291962
-621.9325 597.61383 1185.5266 3029304
-619.46808 602.44061 1195.1019 3752770
-611.98041 602.44061 1195.1019 3818563
-605.01666 602.96283 1196.1378 3752770
-592.17535 597.56696 1185.4337 3818563
-585.84467 598.68744 1187.6565 3226426
-579.5603 599.88464 1190.0315 3226426
-571.28864 599.02936 1188.3347 3620927
-571.02258 606.65656 1203.4653 2831668
-559.48047 602.34784 1194.918 2765618
-546.73102 596.60486 1183.5251 2962740
-537.81458 594.94409 1180.2306 3028790
-528.97589 593.32422 1177.0171 3028791
-523.33459 595.29565 1180.928 2239274
-516.24689 595.65472 1181.6403 2634032
-514.48071 602.25354 1194.7308 2897204
-504.47989 599.2655 1188.8032 3620927
-499.44766 602.17841 1194.5818 3752256
-491.95605 602.16962 1194.5643 2765618
-484.47171 602.16962 1194.5643 2239274
-479.75943 605.66907 1201.5065 2634032
-468.94098 601.44867 1193.1342 3028790
-461.46564 601.44867 1193.1342 3160376
-455.31918 603.20917 1196.6266 2700082
-447.44202 602.69745 1195.6115 2700082
-440.36026 603.25793 1196.7233 3029047
-432.86246 603.25793 1196.7233 3950406
-427.54874 606.35553 1202.8682 4147784
-423.33008 611.14514 1212.3696 3226426
-415.88052 611.36023 1212.7964 2766388
-406.70071 608.99249 1208.0992 2831925
-401.40424 612.46002 1214.9781 3094840
-391.13699 608.33069 1206.7865 2963254
-378.70486 600.60516 1191.4608 3423805
-369.25128 597.38776 1185.0782 3950406
-362.3544 598.25952 1186.8076 4015942
-353.10916 595.20929 1180.7567 3489598
-344.65875 593.39709 1177.1616 3029047
-339.21701 596.79883 1183.9099 3555391
-327.86459 589.72131 1169.8698 3818563
-320.53497 589.72131 1169.8698 3818563
-313.01443 589.36176 1169.1565 4081735
-304.18286 586.45734 1163.3949 3950149
-296.32709 585.33789 1161.1741 3292219
-289.59229 586.43207 1163.3446 3621184
-281.46985 584.70013 1159.9089 3950149
-272.64539 581.37939 1153.3214 3884356
-267.77902 586.54785 1163.5743 3160633
-263.27576 592.82318 1176.0232 2634289
-255.17392 591.12354 1172.6515 2765875
-247.40778 590.1239 1170.6683 3358012
-240.0421 590.04742 1170.5167 3423805
-234.08662 593.54193 1177.449 3621184
-227.02266 594.36169 1179.0752 3358012
-218.90112 592.37463 1175.1334 2700082
-211.81061 593.13647 1176.6447 2700082
-207.49829 602.01361 1194.2549 2634289
-198.6122 597.78876 1185.8737 2371117
-191.21097 597.87823 1186.0513 2700082
-184.25136 599.4118 1189.0934 2831668
-175.97205 596.60028 1183.516 2634289
-171.16872 605.84442 1201.8544 3094840
-164.46786 608.91425 1207.9441 3292219
-155.73318 604.38696 1198.963 2700082
-148.04797 603.68018 1197.5609 2831925
-140.35081 602.84662 1195.9073 2963254
-133.90286 607.58734 1205.3118 2765875
-125.7776 604.82892 1199.8398 2765875
-118.31193 605.09338 1200.3644 2897461
-110.79127 605.09338 1200.3644 2831668
-103.61282 607.09845 1204.342 3029047
-95.665039 604.5567 1199.2998 3160376
-87.718719 601.59167 1193.4178 2634032
-80.861961 606.2428 1202.6445 2962997
-73.488853 607.58081 1205.299 3357755
-65.794579 606.26587 1202.6903 3357755
-58.068783 604.28278 1198.7563 3160376
-50.162441 599.55249 1189.3726 2831411
-42.641441 598.58093 1187.4452 2831668
-35.2658 599.67047 1189.6066 2568239
-27.903761 601.63708 1193.5079 2436909
-20.454119 602.4635 1195.1473 2568239
-12.956871 602.03235 1194.292 2568239
-5.4536786 599.76874 1189.8015 2634032
1.9977008 598.8407 1187.9604 2962997
9.463748 600.30634 1190.868 2568239
16.998819 602.92798 1196.0687 2634032
24.487879 602.81268 1195.8401 2765615
32.082153 604.73474 1199.653 2700079
39.344563 600.85889 1191.9642 2765616
46.796871 600.65723 1191.5641 2502443
54.294613 601.01392 1192.2717 2370857
61.763199 601.00067 1192.2454 2502444
69.345055 601.97345 1194.1752 2436651
76.826927 601.97345 1194.1752 2239015
84.320724 602.05853 1194.344 2371627
91.789299 601.96436 1194.1571 2371371
99.222015 601.66693 1193.5671 2371371
106.83501 602.4278 1195.0765 2239785
114.32254 602.4278 1195.0765 2437164
122.12585 603.98956 1198.1747 2503214
130.35725 607.36505 1204.8708 3094840
138.03098 607.91479 1205.9614 3292473
144.81505 604.69269 1199.5695 2963508
151.2653 600.46344 1191.1796 2634543
159.38332 602.94086 1196.0942 2634799
166.68414 602.24329 1194.7104 2634543
173.09967 598.54443 1187.3728 2371371
180.4072 598.10773 1186.5065 2108455
187.20731 596.0899 1182.5035 2436907
195.26651 598.08215 1186.4557 2765873
202.9101 598.70197 1187.6853 2568496
213.20833 606.83368 1203.8167 2239531
218.88539 601.70618 1193.645 2173738
225.18976 598.58508 1187.4534 1844773
231.99582 596.95447 1184.2186 2041895
239.99309 598.39508 1187.0765 2370860
248.50711 600.99878 1192.2417 2173481
256.26843 601.68335 1193.5997 2173738
263.87067 601.96619 1194.1608 2239531
271.42575 602.12872 1194.4832 2305324
279.26794 602.9024 1196.0181 2371117
286.9837 603.36993 1196.9454 2371117
294.46533 603.33386 1196.8739 2436910
302.70715 604.81842 1199.819 2634289
310.19336 604.75793 1199.6989 2634291
317.73575 604.80725 1199.7968 2239531
325.25287 604.80725 1199.7968 1976359
333.4194 605.98761 1202.1383 2107945
341.82275 607.53674 1205.2114 2173738
350.42404 609.3631 1208.8345 2305324
356.99036 607.64832 1205.4327 2765875
363.93109 606.62872 1203.4102 2765875
374.01108 610.77704 1211.6394 2305067
381.60236 610.77704 1211.6394 2239274
389.94025 611.94873 1213.9637 2370860
397.56943 611.98456 1214.0349 2370861
405.55215 612.55316 1215.1628 2370861
415.31375 615.73804 1221.481 2370861
423.11588 615.9552 1221.9117 3226171
433.63489 620.0495 1230.0338 3291708
444.90451 625.0553 1239.9642 3752259
449.56952 620.76971 1231.4625 3554880
460.50537 625.14136 1240.1349 2436656
468.06247 624.85736 1239.5715 2568242
473.54398 621.85693 1233.6194 2831157
484.07004 625.47101 1240.7889 2436399
493.44055 627.5014 1244.8167 2239020
494.02875 618.474 1226.9084 2173227
501.12979 617.75171 1225.4756 2239020
508.57364 617.46741 1224.9116 2107434
514.9444 615.90814 1221.8184 2370863
522.70764 616.03564 1222.0713 2831157
532.75665 618.81439 1227.5837 2962743
539.21924 617.40771 1224.7931 2831157
546.15527 616.57489 1223.141 2173227
547.73029 609.79663 1209.6946 2041641
552.23114 606.41638 1202.9889 1975848
557.7417 604.22089 1198.6335 2239275
564.01697 602.90125 1196.0157 2239531
571.51038 602.90125 1196.0157 2239530
578.70905 602.59436 1195.407 2436652
585.69489 602.07654 1194.3796 2634031
587.85449 596.6731 1183.6605 2568239
596.92188 598.32837 1186.9442 2370860
604.35846 598.32837 1186.9442 2305067
609.52271 596.10608 1182.5356 2173481
618.72339 597.83734 1185.9701 2370860
626.15387 597.83734 1185.9701 2765618
628.91284 593.42944 1177.2258 2962997
635.8338 593.00531 1176.3845 2634032
650.44489 599.68085 1189.6272 2502446
656.07056 598.01483 1186.3223 2699825
663.50317 598.01483 1186.3223 2897204
671.1535 598.20886 1186.707 3028790
680.20093 599.63019 1189.5267 2962997
686.02124 598.20673 1186.7029 3423548
691.20496 596.26465 1182.8502 3226169
698.58356 596.237 1182.7954 3094583
706.32806 596.51904 1183.3549 3226169
712.11432 595.15851 1180.656 3489341
718.54034 594.35522 1179.0624 3555134
725.20306 593.76208 1177.8857 3489341
731.69177 593.03986 1176.453 3291962
738.15161 592.30884 1175.0028 2962997
746.35248 592.97546 1176.3253 3028790
760.83795 598.57343 1187.4303 2699569
763.71423 595.01807 1180.3773 2567212
770.28735 594.38348 1179.1185 2172711
776.72333 593.65625 1177.6758 1646367
778.94476 589.75177 1169.9302 1646367
786.27472 589.75177 1169.9302 2041125
793.95764 590.01404 1170.4504 2896434
797.65936 587.34003 1165.1459 2962227
806.78137 588.66949 1167.7832 2699055
818.26862 591.6853 1173.7659 2699055
832.73419 596.7818 1183.8762 3422778
837.97595 595.23639 1180.8104 3488571
844.31036 594.48743 1179.3247 2896434
846.51703 590.8703 1172.149 2567469
853.3642 590.52655 1171.4673 2830641
861.15277 590.83459 1172.0782 3159606
869.77344 591.70355 1173.802 3159606
875.76221 590.78241 1171.9747 3488571
884.72552 591.86646 1174.1252 3225399
889.81317 590.36133 1171.1394 2896434
902.2403 593.71051 1177.7833 3159606
914.68347 597.01581 1184.3403 3356985
932.89148 604.00024 1198.1959 3028020
931.62909 598.36786 1187.0225 2962227
933.69086 594.94275 1180.2279 2830641
940.92346 594.84033 1180.0248 2567469
948.31665 594.84033 1180.0248 2896434
958.2088 596.39569 1183.1102 3028277
965.73596 596.46643 1183.2506 3028020
974.00989 596.9939 1184.2969 2896434
982.34601 597.55115 1185.4023 2633519
987.81287 596.3678 1183.0549 2633262
993.80688 595.51807 1181.3691 2830641
1002.4645 596.26508 1182.8511 3028020
1010.869 596.85175 1184.0149 2896434
1015.6333 595.29614 1180.929 2501676
1023.6537 595.65778 1181.6464 2501676
1033.3542 596.98492 1184.2791 2896434
1040.058 596.57416 1183.4642 3028020
1046.4773 596.0072 1182.3396 2962484
1053.6725 595.88708 1182.1012 2699055
1055.9803 593.0238 1176.4211 2238504
1065.1899 594.04938 1178.4557 2041125
1072.5488 594.03589 1178.4288 2041125
1077.1512 592.50616 1175.3943 1975332
1083.5873 591.99908 1174.3883 1844003
1090.9451 591.99908 1174.3883 2041125
1096.0596 590.78986 1171.9895 2501676
1099.6241 588.76685 1167.9763 2501676
1107.853 589.25146 1168.9377 2435883
1115.1769 589.25146 1168.9377 2304297
1123.1008 589.56653 1169.5627 2633262
1130.9536 589.84052 1170.1062 2896434
1137.5901 589.48047 1169.3921 2896434
1150.2045 592.203 1174.7928 2567469
1156.7382 591.78009 1173.9539 2764848
1162.4941 590.96704 1172.3411 2699055
1170.6036 591.35321 1173.1071 2633262
1181.0961 592.93085 1176.2367 2830641
1190.2697 593.83093 1178.0223 2765104
1202.7836 596.37616 1183.0714 2567215
1214.6228 598.55768 1187.399 2172200
nan nan nan 16777215
nan nan nan 16777215
nan nan nan 16777215
nan nan nan 16777215
nan nan nan 16777215
nan nan nan 16777215
nan nan nan 16777215
nan nan nan 16777215
nan nan nan 16777215
nan nan nan 16777215
nan nan nan 16777215
nan nan nan 16777215
nan nan nan 16777215
nan nan nan 16777215
nan nan nan 16777215
nan nan nan 16777215
nan nan nan 16777215
nan nan nan 16777215
-1034.0806 611.53851 1198.3348 2700082
-1023.4412 609.67316 1194.6796 2634289
-1012.7909 607.77368 1190.9575 2831668
-1001.4599 605.43451 1186.3738 2765875
-991.75745 604.05225 1183.6652 2634289
-984.28699 604.01886 1183.5997 2634289
-981.75018 607.03552 1189.511 2436910
-974.29755 607.03552 1189.511 1778980
-957.08087 600.90509 1177.4983 1844773
-943.94647 597.26251 1170.3605 2502703
-936.37341 597.10925 1170.0601 2897461
-923.47668 593.53192 1163.0502 3029047
-906.40594 587.19366 1150.6301 3686977
-906.276 591.81647 1159.6887 4213321
-896.70569 590.29938 1156.7159 4081735
-897.17859 595.42297 1166.7557 3423291
-891.33545 596.40448 1168.6791 3423548
-883.31256 595.93182 1167.7528 3094840
-878.37262 597.5484 1170.9205 2765618
-871.03387 597.54663 1170.9171 3160376
-860.49658 595.33197 1166.5774 3226169
-850.82727 593.68494 1163.35 2699568
-845.29901 594.92395 1165.778 3094583
-839.03699 595.66376 1167.2275 3160376
-830.3446 594.67578 1165.2916 3094840
-821.44165 593.51837 1163.0236 3028533
-815.46429 594.47284 1164.8939 2502446
-811.99792 597.29156 1170.4174 2502446
-805.1911 597.68219 1171.1829 3357755
-797.85333 597.68219 1171.1829 3029047
-785.85004 594.15485 1164.2709 2700082
-779.07849 594.55389 1165.0529 3818563
-771.77905 594.55389 1165.0529 4016199
-770.73572 599.41943 1174.587 3358269
-763.55438 599.55908 1174.8606 3292219
-754.99817 598.61127 1173.0034 3555391
-747.84473 598.76807 1173.3107 3489598
-736.38263 595.44397 1166.7969 3358012
-729.07233 595.44397 1166.7969 3423805
-718.30359 592.59082 1161.2061 3752770
-709.88123 591.63483 1159.3328 4476493
-697.99268 587.74036 1151.7014 3752770
-694.1283 590.59186 1157.2891 3160633
-691.40533 594.48505 1164.9178 2831668
-685.16278 595.40271 1166.7161 2700082
-676.69666 594.38708 1164.7258 2897204
-669.60577 594.57037 1165.0851 3160119
-665.20941 597.17676 1170.1924 3160376
-661.71527 600.6601 1177.0182 3357755
-654.34088 600.6601 1177.0182 3291962
-646.81091 600.51569 1176.7351 3357755
-639.01843 600.1214 1175.9625 3292219
-631.0249 599.52686 1174.7975 3358012
-621.81659 597.75055 1171.3168 3292219
-613.25916 596.56494 1168.9935 2963254
-609.1366 599.71698 1175.17 3226169
-603.33545 601.27332 1178.2197 3292219
-595.89355 601.21271 1178.1011 3555391
-587.30701 599.98132 1175.6881 3489598
-581.42712 601.51892 1178.701 3292219
-574.04218 601.51892 1178.701 3226426
-565.03381 599.79559 1175.3241 3620670
-558.461 600.6463 1176.9911 3950148
-551.08679 600.6463 1176.9911 3950149
-540.15082 596.71155 1169.2808 3028790
-533.93756 597.95764 1171.7225 3291962
-527.83081 599.35938 1174.4692 2962997
-521.81207 600.9021 1177.4923 2370860
-514.46265 600.93475 1177.5563 2699825
-507.68933 601.651 1178.9598 3160376
-499.2392 600.37195 1176.4535 3489341
-492.78714 601.49347 1178.6511 3686977
-487.10849 603.60742 1182.7935 3226426
-479.78271 603.71411 1183.0026 3357755
-474.95636 607.01855 1189.4778 3029304
-466.73492 606.02008 1187.5212 3029304
-458.55502 605.04407 1185.6086 3029047
-452.80252 607.2915 1190.0126 2568239
-443.44229 604.69458 1184.9238 3095097
-436.48462 605.34113 1186.1908 3884868
-429.23767 605.60205 1186.702 4345420
-424.34222 609.24823 1193.8469 4082248
-414.93533 606.43188 1188.3281 3950662
-405.09857 602.87274 1181.3539 2964024
-398.37207 603.89606 1183.3591 2568753
-393.03397 607.10278 1189.6428 3029047
-384.44421 605.31366 1186.137 3555391
-373.77029 600.10785 1175.9359 3621184
-365.78717 599.09973 1173.9606 3818563
-359.18732 600.3623 1176.4346 3818563
-351.9873 600.65356 1177.0054 3423805
-341.26123 594.81152 1165.5576 3292219
-333.95865 594.81152 1165.5576 3423805
-322.77518 587.74475 1151.71 3818563
-315.55936 587.74475 1151.71 4015942
-310.76263 592.3559 1160.7457 4213321
-302.09213 589.62708 1155.3986 3818563
-294.34048 588.60181 1153.3894 3226426
-287.155 588.68561 1153.5536 2831668
-276.47116 581.41669 1139.3099 3029047
-269.57922 581.94812 1140.3512 3818563
-264.10437 585.65094 1147.6071 2963254
-259.27362 591.02917 1158.146 2634546
-253.5006 594.50745 1164.9617 3292219
-244.56856 590.56372 1157.2339 3160633
-237.12943 590.09418 1156.3137 3226683
-230.24393 591.01611 1158.1204 3489598
-222.21417 588.96521 1154.1016 3752770
-212.76855 582.89758 1142.2118 2831668
-205.63695 582.96765 1142.349 2568496
-201.18408 590.91058 1157.9136 3489598
-196.4357 598.54736 1172.8782 2963511
-188.70874 597.34924 1170.5304 2765875
-181.79639 598.737 1173.2498 2765875
-175.00575 600.65961 1177.0171 2437166
-167.51115 600.22876 1176.173 2700082
-161.97652 607.10449 1189.6462 3226426
-154.33018 606.34686 1188.1616 2634289
-145.93518 602.422 1180.4706 2568753
-138.13918 600.68262 1177.0623 2963254
-131.03464 601.92352 1179.4939 2700082
-124.0024 603.66455 1182.9055 3094840
-116.45585 602.96429 1181.5332 3094840
-108.59236 600.41626 1176.5404 2436653
-101.38589 601.39453 1178.4573 2700082
-93.889633 600.67255 1177.0425 2962997
-86.506485 600.61279 1176.9254 2568239
-79.412018 602.73291 1181.0798 2634032
-72.36795 605.71063 1186.9148 3291962
-64.364189 600.41785 1176.5435 2897204
-56.923145 599.68433 1175.1061 2831411
-48.958717 592.39984 1160.8318 2436653
-41.56955 590.74854 1157.5961 2568239
-34.802319 599.10565 1173.972 2897204
-27.586105 602.1416 1179.9211 2897204
-20.096273 599.24146 1174.2382 2831411
-12.72436 598.53833 1172.8604 2634032
-5.3865514 599.71021 1175.1567 2502446
1.9797611 600.80005 1177.2924 2305067
9.3797035 602.33099 1180.2924 2370860
16.810278 603.61206 1182.8026 2634032
24.174398 602.45312 1180.5316 2568237
31.469025 600.51105 1176.7261 2634030
38.476944 594.87366 1165.6793 2831409
46.018337 597.96686 1171.7406 2305064
53.603569 600.70032 1177.0969 2436653
60.883011 599.76013 1175.2546 2436653
68.286293 600.11121 1175.9425 2305066
75.676208 600.28784 1176.2887 2568239
83.241982 601.70435 1179.0643 2502959
90.629189 601.70435 1179.0643 2634289
97.930565 601.17749 1178.032 2766131
105.31131 601.17749 1178.032 2634289
112.56217 600.48462 1176.6743 2437164
120.07775 601.20239 1178.0808 2568749
127.45879 601.20239 1178.0808 2897461
134.40111 599.24628 1174.2477 2700592
141.47047 598.03027 1171.8649 2634542
149.09355 599.15942 1174.0775 2502958
156.59061 599.69977 1175.1364 2436908
163.95319 599.69977 1175.1364 2173992
170.12332 595.52551 1166.9567 2107688
177.72639 596.50458 1168.8752 2107946
185.04976 596.50458 1168.8752 2239017
191.8522 594.88934 1165.7101 2370860
200.51643 598.95386 1173.6747 3028790
207.81848 598.80573 1173.3844 2962997
214.15385 595.9776 1167.8427 2568239
222.34386 598.32715 1172.4467 2436653
229.60432 598.10504 1172.0114 1844516
237.23065 598.82019 1173.4127 1712930
245.1792 600.28119 1176.2756 1910566
252.54892 600.28119 1176.2756 1976616
260.14069 600.79401 1177.2805 2371117
267.77365 601.37097 1178.4111 2239531
275.62241 602.38861 1180.4053 2173738
283.29959 602.98798 1181.5797 2107945
291.3295 604.28845 1184.1281 2239531
297.81427 602.39893 1180.4254 2173738
305.36255 602.70001 1181.0154 2107947
312.76199 602.70001 1181.0154 2042152
320.82867 603.95612 1183.4768 1844773
328.85513 605.08148 1185.682 1910566
338.39355 608.87756 1193.1206 2107945
343.90955 605.42841 1186.3618 2568496
350.16751 603.40375 1182.3944 2502703
359.44608 606.56018 1188.5796 2042152
367.93771 608.28748 1191.9644 1844516
377.12296 611.07001 1197.4167 2107688
382.68201 607.98279 1191.3673 2173481
392.2189 611.21271 1197.6964 1581344
397.17728 607.32025 1190.069 1910309
409.34479 614.39166 1203.9257 2831411
418.49811 616.76489 1208.5762 2699825
426.61069 617.5473 1210.1093 2370605
437.18829 621.80829 1218.4589 2896950
444.70883 621.64972 1218.1481 2963000
450.38867 618.96674 1212.8907 2502192
460.60107 622.49854 1219.8114 2765364
468.24359 622.49854 1219.8114 2831157
475.1803 621.57532 1218.0024 2831157
482.85226 621.62787 1218.1053 2699571
490.00223 621.01715 1216.9087 2239020
497.16519 620.44141 1215.7804 2502193
502.81604 618.02454 1211.0444 2765364
510.30844 617.90924 1210.8185 2634034
515.88287 615.50897 1206.1151 2896950
522.07703 613.90686 1202.9757 2896950
532.4292 617.17004 1209.37 3160122
538.64929 615.61914 1206.3311 2896950
543.07684 612.09082 1199.4171 2370606
543.81244 604.55457 1184.6494 2041642
549.09058 602.20306 1180.0416 1778726
556.93524 602.69147 1180.9987 2107434
565.07593 603.48328 1182.5503 2370606
572.38684 603.37982 1182.3475 2173228
576.40625 599.85358 1175.4377 1976104
582.36182 598.40582 1172.6008 2107688
585.72546 594.36407 1164.6808 2436654
594.31311 595.65753 1167.2155 2568239
601.24133 595.27667 1166.469 2699824
607.59943 594.34717 1164.6477 2765618
614.62122 594.0813 1164.1267 2699825
622.46979 594.61139 1165.1654 2568239
630.71387 595.50262 1166.9119 2831411
642.51166 599.69031 1175.1178 2699825
649.87415 599.69031 1175.1178 2962997
657.73712 600.14709 1176.0128 3489341
664.13538 599.27197 1174.298 3226169
669.6701 597.64539 1171.1106 2568496
676.9668 597.60938 1171.0402 2962997
684.14728 597.47278 1170.7725 3226169
690.34186 596.48718 1168.8412 3160376
698.08234 596.84399 1169.5403 3291962
702.63776 594.49854 1164.9442 3226169
712.93427 597.00885 1169.8634 3226169
719.14197 596.07898 1168.0413 3423548
723.32019 593.50256 1162.9927 3226169
730.60669 593.50256 1162.9927 2897461
737.53699 593.21613 1162.4313 2897204
748.95068 596.50592 1168.8779 3094583
757.49103 597.46588 1170.7589 3225142
762.95355 596.00299 1167.8923 2370603
766.84979 593.35596 1162.7054 1449501
774.08765 593.32007 1162.635 1251866
780.76538 592.8595 1161.7325 1448988
788.52637 593.22241 1162.4437 1514525
794.00745 591.87915 1159.8115 2567469
796.63086 588.44934 1153.0907 3159606
808.80408 592.07202 1160.1895 3028020
822.04248 596.40289 1168.676 2962227
835.82782 601.05072 1177.7836 2896434
835.9762 595.89648 1167.6836 2764848
838.06073 592.19983 1160.4398 2633262
843.8764 591.18066 1158.4427 2896434
851.06561 591.13287 1158.3491 3159606
860.56763 592.67871 1161.3783 3356985
870.91479 594.77588 1165.4878 4080708
875.23944 592.75934 1161.5363 3883329
882.51678 592.75934 1161.5363 3159606
890.03839 592.92194 1161.855 3159606
900.164 594.80273 1165.5404 3356985
908.11908 595.23047 1166.3785 3356985
918.02533 596.9201 1169.6895 3291192
926.83289 597.87421 1171.5591 3028020
934.74835 598.24237 1172.2805 2764848
938.39252 595.89246 1167.6758 2896434
946.62915 596.47266 1168.8126 3159606
954.60852 596.88312 1169.6169 3094070
959.77112 595.53949 1166.984 3028020
966.02936 594.89087 1165.713 2962227
974.74988 595.7569 1167.41 2699055
981.04724 595.14001 1166.2013 2962227
988.66449 595.32709 1166.5679 3028020
999.1618 597.23285 1170.3024 2962227
1007.1566 597.62604 1171.0728 2962227
1015.6002 598.27783 1172.35 2699055
1024.5754 599.2312 1174.2181 2699055
1026.3672 595.99963 1167.8857 2896434
1032.4949 595.31378 1166.5419 2896434
1040.8357 595.90466 1167.6997 2830641
1047.0065 595.2536 1166.4238 2764848
1054.1321 595.15057 1166.222 2501676
1059.0853 593.83099 1163.6362 2238504
1062.9852 591.94281 1159.9363 2106918
1072.6682 593.27887 1162.5543 1844003
1082.47 594.66217 1165.2649 1777953
1086.8734 593.08112 1162.1669 2435883
1092.9999 592.4552 1160.9403 2501676
1095.179 589.71198 1155.5648 2435883
1099.296 588.04144 1152.2914 2238504
1108.9965 589.35992 1154.8749 2172711
1114.1085 588.23871 1152.6779 2567469
1119.896 587.48621 1151.2034 2633262
1135.7888 592.01062 1160.0691 2567469
1138.587 589.6955 1155.5326 2633262
1146.7272 590.15887 1156.4406 2633262
1155.3049 590.84027 1157.7758 2567469
1164.1508 591.64935 1159.3612 2764848
1175.642 593.78455 1163.5452 2764848
1188.1509 596.40417 1168.6785 2698800
1192.2726 594.80756 1165.5498 2238251
nan nan nan 16777215
nan nan nan 16777215
nan nan nan 16777215
nan nan nan 16777215
nan nan nan 16777215
nan nan nan 16777215
nan nan nan 16777215
nan nan nan 16777215
nan nan nan 16777215
nan nan nan 16777215
nan nan nan 16777215
nan nan nan 16777215
nan nan nan 16777215
nan nan nan 16777215
nan nan nan 16777215
nan nan nan 16777215
nan nan nan 16777215
nan nan nan 16777215
-1011.2391 605.33368 1171.8652 2634289
-1003.8969 605.33368 1171.8652 2634289
-994.91766 604.33923 1169.9401 2502703
-987.1004 604.04108 1169.3628 2502703
-977.31036 602.52222 1166.4225 2502703
-971.01624 603.15204 1167.6417 2436910
-963.7251 603.16736 1167.6714 2502703
-958.8186 604.68683 1170.6129 2634289
-949.71796 603.56421 1168.4397 2634289
-941.52789 603.00739 1167.3617 2897461
-923.14624 595.86353 1153.5319 3029047
-909.18665 591.4837 1145.053 3226426
-900.25842 590.33344 1142.8262 3621184
-891.84094 589.50232 1141.2173 3555391
-888.96838 592.35266 1146.7352 3555391
-891.17389 598.66064 1158.9468 3292219
-884.39618 598.98804 1159.5807 3029304
-879.83112 600.83197 1163.1503 2963254
-866.56006 596.71161 1155.1737 3226426
-857.40051 595.37701 1152.5901 3555391
-849.73834 595.0683 1151.9924 3489598
-841.93201 594.65247 1151.1874 3029047
-836.24701 595.74066 1153.2941 3226683
-829.56042 596.12817 1154.0442 3160633
-822.33008 596.12817 1154.0442 2897718
-815.70795 596.57306 1154.9055 2962997
-806.6734 595.24579 1152.3361 2897204
-798.51355 594.54584 1150.981 2897461
-795.57806 597.75848 1157.2003 3226426
-784.67572 594.98914 1151.8392 3555391
-774.9162 593.04309 1148.0719 4015942
-769.57855 594.47632 1150.8464 3950149
-760.01855 592.64417 1147.2996 3818563
-753.91864 593.50085 1148.958 3555647
-748.23419 594.70435 1151.2878 3555647
-745.19983 598.05804 1157.7803 3621184
-736.33588 596.75311 1155.2542 3226426
-727.12299 595.13672 1152.1249 3226426
-719.41339 594.73071 1151.3389 3423805
-712.19989 594.73071 1151.3389 3555391
-702.57837 592.69928 1147.4062 3818563
-694.72229 592.13055 1146.3053 3160633
-687.87561 592.41931 1146.8643 2897461
-680.0401 591.85358 1145.769 2897205
-672.86151 591.85358 1145.769 2896950
-666.48694 592.56842 1147.153 3094840
-660.22626 593.40118 1148.7651 2831411
-656.49817 596.55377 1154.8682 3094840
-653.79541 600.71857 1162.9308 3686977
-643.50958 597.93134 1157.535 3752770
-633.60883 595.4425 1152.7168 3621184
-627.4129 596.41797 1154.6052 3423805
-623.06122 599.18976 1159.9712 3357755
-618.29663 601.62531 1164.6862 3357755
-612.67212 603.27222 1167.8744 3094583
-605.35498 603.27222 1167.8744 2699568
-591.91785 597.09863 1155.923 2502446
-585.22394 597.65863 1157.007 2896947
-577.97498 597.65863 1157.007 3028533
-570.6582 597.58765 1156.8696 3028790
-563.45148 597.63159 1156.9547 2962997
-557.30621 598.81726 1159.25 3555134
-550.03619 598.80963 1159.2352 3686720
-542.70648 598.73602 1159.0928 3818306
-537.11255 600.60132 1162.7037 2831668
-530.82581 601.7326 1164.8938 3226169
-523.92609 602.1908 1165.7809 3818306
-516.62213 602.1908 1165.7809 3291962
-509.71014 602.6543 1166.6782 3028790
-499.41028 599.06732 1159.7341 3094840
-494.38965 601.80066 1165.0256 2831411
-492.25955 608.18713 1177.3892 3818563
-485.43237 608.8764 1178.7235 4081735
-476.24802 606.58466 1174.287 3687234
-468.43716 605.99799 1173.1511 3292475
-461.08698 605.99799 1173.1511 3160633
-454.57507 607.11743 1175.3184 3094840
-448.02557 608.22278 1177.4583 3095096
-440.73032 608.33582 1177.677 3358525
-431.33939 605.5108 1172.2081 3819076
-423.7814 605.20557 1171.6172 4213834
-415.34818 603.61755 1168.543 3819076
-408.02686 603.61755 1168.543 3621697
-399.99396 602.54565 1166.4678 3424318
-394.87009 605.8974 1172.9565 3226940
-388.98682 608.18903 1177.3928 3095354
-380.27252 606.05725 1173.266 4147528
-371.72903 604.11908 1169.5138 3753026
-364.40164 604.11908 1169.5138 4081991
-354.96198 600.54535 1162.5955 4148040
-343.27515 592.94031 1147.8729 3819076
-335.61667 592.11694 1146.2789 3555134
-326.49411 588.61804 1139.5054 3226170
-318.88321 587.74896 1137.8229 4147528
-312.47168 589.1012 1140.4408 4081735
-307.12314 592.56775 1147.1516 3489598
-297.49551 587.7464 1137.818 3423805
-290.31894 587.64978 1137.6309 3555391
-281.07492 583.25806 1129.1289 3752770
-271.8623 578.7063 1120.3173 3686977
-264.49884 577.95392 1118.8607 3489598
-259.90512 583.37744 1129.3601 3358012
-254.32375 586.82562 1136.0355 2766132
-247.16617 586.73077 1135.8518 2897461
-241.09041 589.27448 1140.7761 3029047
-234.09639 589.66058 1141.5237 2897461
-226.83748 589.38281 1140.986 2897461
-219.92487 590.01605 1142.2118 3950149
-212.1131 588.19849 1138.6931 2765875
-205.3661 589.30969 1140.8444 2568496
-199.08783 591.89465 1145.8486 3029047
-194.83269 600.9129 1163.307 3226426
-186.54228 597.70264 1157.0922 2831668
-180.45955 601.59229 1164.6223 2568496
-173.30321 602.08008 1165.5665 2634289
-164.3251 596.00317 1153.8022 2897461
-158.52567 601.42645 1164.3011 2963254
-152.89217 608.0329 1177.0906 2436910
-143.99103 601.65533 1164.7443 2700082
-136.05421 598.84131 1159.2966 3029047
-128.66841 598.27197 1158.1945 3094840
-123.07655 606.47443 1174.0736 3555391
-114.5598 600.39081 1162.2963 3029047
-107.12554 599.53949 1160.6482 2239531
-99.489639 597.35352 1156.4164 2502960
-92.08725 596.33624 1154.447 2699825
-84.735954 595.5047 1152.8373 2831411
-77.52459 595.5932 1153.0085 2634032
-70.387924 596.3327 1154.4402 2568239
-63.191277 596.67523 1155.1033 2831411
-55.789528 594.91925 1151.704 3028790
-48.470509 593.65491 1149.2562 2568496
-41.180279 592.36328 1146.7559 2897204
-33.995495 592.36328 1146.7559 3028790
-26.965919 595.79242 1153.3943 2765618
-19.772646 596.7915 1155.3284 2765875
-12.510931 595.68573 1153.1877 2502703
-5.288312 595.96289 1153.7244 2502446
1.9431024 596.87634 1155.4927 2239274
9.1603088 595.4259 1152.6848 1844516
16.431696 597.22363 1156.1649 2370860
23.708464 598.05695 1157.7782 2502444
30.863028 596.13934 1154.0659 3028788
37.830524 592.02228 1146.0957 2897459
45.26099 595.30817 1152.4568 2239271
52.417076 594.57745 1151.0422 2107686
59.928017 597.56189 1156.8198 2239016
67.541367 600.81335 1163.1143 2173478
74.873703 601.17517 1163.8148 2502187
81.454659 595.97522 1153.7482 2437420
89.701454 602.81781 1166.9948 3160887
96.988777 602.66705 1166.7029 2700335
103.20926 596.37292 1154.5181 2568750
110.26569 595.41724 1152.668 2502702
117.64894 596.23541 1154.2518 2634033
124.63876 595.08032 1152.0157 2831668
131.85649 595.08032 1152.0157 2897462
139.01711 594.83588 1151.5425 2502703
146.73206 596.87054 1155.4813 2371118
153.60716 595.45813 1152.7471 2371118
160.83878 595.49255 1152.8137 2502447
168.06151 595.49255 1152.8137 2370861
175.64908 596.73193 1155.2131 2371117
181.899 593.50879 1148.9734 2765618
189.04442 593.34161 1148.6498 2962997
198.01431 598.70312 1159.0291 2831668
204.37163 596.06543 1153.9229 2765618
211.22528 595.00623 1151.8723 2502446
218.8851 596.21283 1154.2081 2370860
228.24478 601.82434 1165.0715 1910309
235.05611 600.57703 1162.6567 1581344
242.30232 600.48236 1162.4735 2173738
249.58557 600.48236 1162.4735 2436910
255.9942 598.43774 1158.5154 2568496
262.78671 597.37848 1156.4647 2436910
270.51501 598.44635 1158.532 1910566
276.4903 595.68158 1153.1797 1713187
284.34366 597.00079 1155.7336 2239531
292.42575 598.72284 1159.0673 2107944
300.07916 599.505 1160.5814 1910568
306.30676 597.46893 1156.6399 2436910
314.22418 598.74701 1159.114 2173738
323.44904 602.40228 1166.1903 1713187
332.32178 605.25482 1171.7125 1910566
340.84833 607.36713 1175.8018 2370860
346.56345 604.48627 1170.2247 2107688
353.90552 604.50378 1170.2585 1581344
361.95334 605.7016 1172.5774 1515551
370.09692 607.00879 1175.108 1844516
378.52188 608.71759 1178.416 2041895
386.1059 609.03436 1179.0294 2173481
394.09775 609.97064 1180.8418 2107688
405.24844 615.67133 1191.8778 1844516
413.79584 617.28229 1194.9965 1712930
420.85849 616.66046 1193.7927 2173481
428.47351 616.85553 1194.1704 2370606
439.1727 621.40796 1202.9834 2831157
446.70975 621.40796 1202.9834 2699571
454.44986 621.68573 1203.5211 2567985
462.38058 622.21094 1204.5378 2831157
470.30521 622.71118 1205.5063 2831157
477.85809 622.71118 1205.5063 2567985
483.2879 619.98767 1200.2338 2239020
491.14911 620.41888 1201.0686 2239020
500.12296 622.22137 1204.558 2436399
507.4267 621.92328 1203.981 2633778
512.43469 618.86145 1198.0536 3489087
516.50311 614.76965 1190.1322 3160379
529.68408 621.48615 1203.1348 2370606
535.56207 619.5658 1199.4171 1910312
539.15485 615.09149 1190.7552 1844262
540.30548 607.99115 1177.0098 1646883
545.96179 606.08392 1173.3176 1580576
550.36169 602.8512 1167.0593 2106920
559.03656 604.32446 1169.9115 2238506
565.10278 602.97614 1167.3013 1646625
571.38147 601.88611 1165.191 1515552
579.51129 602.74884 1166.8612 1910310
583.15131 598.97845 1159.5621 2239018
587.02966 595.54272 1152.9109 2371117
593.9212 595.21027 1152.2672 2436653
601.14056 595.21027 1152.2672 2371116
609.12213 595.95605 1153.7111 2436653
616.40051 596.00446 1153.8047 2568238
626.61163 598.85449 1159.3221 2765618
629.87799 595.07819 1152.0116 3028790
639.9527 597.74677 1157.1777 2962997
654.89288 604.84924 1170.9274 3555134
660.98492 603.71283 1168.7274 3291962
668.58539 603.96399 1169.2136 3620927
676.09821 604.13141 1169.5377 3620927
677.79547 599.15442 1159.9027 3291962
684.59198 598.74274 1159.1058 3160376
690.01038 597.14716 1156.0168 3028790
694.78839 595.03625 1151.9303 2897204
703.66644 596.44403 1154.6556 2831411
710.9007 596.44403 1154.6556 3028790
716.75635 595.29895 1152.439 3291962
725.42206 596.48743 1154.7397 3226169
731.81726 595.80383 1153.4164 3226169
736.52582 593.77393 1149.4867 3094583
745.85889 595.4754 1152.7805 2831411
760.2887 601.17432 1163.8131 2634032
762.68103 597.33716 1156.3848 2436910
766.78082 594.89691 1151.6606 1778723
773.83972 594.77655 1151.4276 1712160
781.51178 595.12531 1152.1028 1975846
788.02283 594.59167 1151.0697 2435626
792.61853 592.63568 1147.2831 3028020
798.32324 591.5365 1145.1552 3291192
806.67499 592.40088 1146.8285 3356985
818.23474 595.58502 1152.9927 2830641
821.69885 592.87231 1147.7412 2699055
830.10406 593.74078 1149.4225 2764848
838.54626 594.62061 1151.1257 2830641
842.83673 592.56647 1147.1492 2764848
849.32025 592.07587 1146.1993 2699055
857.89325 593.03796 1148.0619 3554364
867.28357 594.54425 1150.9779 3949122
873.14319 593.62537 1149.1991 3356985
879.71423 593.20117 1148.3779 3159606
887.81982 593.81018 1149.5569 3291192
894.42267 593.41248 1148.787 3356985
901.20825 593.14142 1148.2622 3356985
908.51227 593.21307 1148.4009 3291192
919.5191 595.6825 1153.1814 3356985
928.37457 596.73041 1155.2101 3291192
935.05634 596.37573 1154.5236 3356985
939.64282 594.70056 1151.2805 3291192
946.32556 594.36743 1150.6356 2830641
953.82452 594.5481 1150.9854 2896434
961.85834 595.05695 1151.9705 3291192
969.20471 595.13611 1152.1238 3159606
975.43683 594.53497 1150.96 3225656
984.67767 595.76306 1153.3374 2830898
992.74329 596.26733 1154.3136 3028020
998.90796 595.6308 1153.0814 3488571
997.56897 590.56122 1143.2672 3488571
1009.6116 593.42938 1148.8197 3291192
1018.201 594.2417 1150.3922 3225399
1025.4283 594.25311 1150.4143 2896434
1035.5035 595.90326 1153.6089 2830641
1045.2727 597.35571 1156.4207 2830640
1050.9023 596.43872 1154.6454 2567469
1055.2281 594.79932 1151.4717 2238760
1060.1125 593.495 1148.9467 1909539
1067.3112 593.495 1148.9467 1909796
1073.452 592.91083 1147.8158 2106918
1079.1855 592.1109 1146.2672 2238504
1085.6072 591.69659 1145.4652 2172711
1090.4044 590.40826 1142.9711 2040870
1099.7916 591.60577 1145.2893 2106919
1102.0243 588.96411 1140.1753 2567212
1106.9524 587.78766 1137.8978 2962483
1107.5056 584.31818 1131.1813 3357241
1126.6002 590.61298 1143.3673 2896434
1142.1189 594.96539 1151.7932 2567469
1146.7273 593.61536 1149.1797 2370090
1153.8522 593.57678 1149.105 2041124
1161.0292 593.56531 1149.0828 2106918
1171.2201 595.08521 1152.0251 2238504
1178.9071 595.3222 1152.4839 2304043
nan nan nan 16777215
nan nan nan 16777215
nan nan nan 16777215
nan nan nan 16777215
nan nan nan 16777215
nan nan nan 16777215
nan nan nan 16777215
nan nan nan 16777215
nan nan nan 16777215
nan nan nan 16777215
nan nan nan 16777215
nan nan nan 16777215
nan nan nan 16777215
nan nan nan 16777215
nan nan nan 16777215
nan nan nan 16777215
nan nan nan 16777215
nan nan nan 16777215
-996.68231 603.81812 1154.9963 2897461
-989.24438 603.69513 1154.7611 2700339
-979.23438 601.98914 1151.4978 2765875
-973.50446 602.90851 1153.2565 2897461
-963.32458 601.06519 1149.7305 3029047
-954.8772 600.28314 1148.2346 2765875
-947.68317 600.28314 1148.2346 2634289
-937.15009 598.15204 1144.1581 2897461
-929.56818 597.88605 1143.6494 3094840
-921.69867 597.42969 1142.7764 3029304
-905.8158 591.73126 1131.8763 3292219
-898.76086 591.75537 1131.9225 3358012
-891.27338 591.49274 1131.4202 3621184
-887.38202 593.63171 1135.5116 4147528
-881.04169 594.15369 1136.51 4279114
-879.22693 597.76093 1143.41 3029047
-870.99463 597.02856 1142.0092 3094840
-863.67767 596.91669 1141.7952 3555391
-851.76843 593.60248 1135.4557 3884356
-844.90515 593.77869 1135.7927 3884613
-842.79218 597.32458 1142.5754 3687234
-836.32935 597.82196 1143.5267 3292219
-826.10382 595.61505 1139.3053 3226426
-821.42004 597.39996 1142.7196 3160633
-814.44751 597.53711 1142.9819 2897461
-807.48859 597.68683 1143.2683 3291962
-800.24475 597.6264 1143.1527 3292476
-792.20514 596.96527 1141.8881 2963254
-785.79779 597.5332 1142.9745 3686977
-776.04962 595.54791 1139.1769 4015942
-768.91235 595.54791 1139.1769 3950405
-762.70929 596.27826 1140.574 3029047
-752.18573 593.61279 1135.4753 3226169
-745.07159 593.61279 1135.4753 3621184
-741.30426 596.30487 1140.6249 3620670
-731.20288 593.90479 1136.0339 3358012
-724.06836 593.89087 1136.0073 3226426
-717.66736 594.48431 1137.1425 3226426
-710.54272 594.48431 1137.1425 3292219
-703.38593 594.45709 1137.0903 3358012
-698.43542 596.31293 1140.6403 3029047
-690.46594 595.60297 1139.2822 2568496
-683.22351 595.5119 1139.108 2897718
-675.90619 595.35297 1138.8041 2766132
-669.54865 596.04498 1140.1278 2568498
-663.4165 596.95483 1141.8682 3358012
-656.474 597.1474 1142.2365 3226426
-649.2782 597.11121 1142.1672 3094840
-642.87848 597.81445 1143.5125 3489598
-630.28503 592.70917 1133.7469 3489598
-626.92999 596.27411 1140.566 3489084
-617.64252 594.21393 1136.6252 3489598
-616.93903 600.46027 1148.5734 3357755
-610.0705 600.7829 1149.1906 3357755
-599.88263 597.80542 1143.4952 3291962
-594.07806 599.17694 1146.1185 3094583
-587.11774 599.40198 1146.5491 2700082
-579.66852 599.12732 1146.0237 2962997
-572.66187 599.3089 1146.3711 2897204
-568.45227 602.45953 1152.3977 2634032
-558.50299 599.52991 1146.7938 3357755
-550.2757 598.39648 1144.6257 3620927
-546.80408 602.47302 1152.4235 3423548
-540.99731 604.05127 1155.4424 3357755
-533.75812 604.05127 1155.4424 2831411
-524.27789 601.48022 1150.5244 3226169
-517.06818 601.4787 1150.5215 3160376
-507.9259 599.19733 1146.1576 2897461
-502.2489 600.99701 1149.6001 3094583
-497.03189 603.40759 1154.2111 3094583
-490.91196 604.77698 1156.8304 3226426
-486.82321 608.72723 1164.3866 3621441
-480.15277 609.52032 1165.9037 3818563
-474.61697 611.8006 1170.2654 3621441
-464.52625 608.18884 1163.3567 3226426
-456.5603 607.28809 1161.6338 3226426
-448.13071 605.73145 1158.6562 3358012
-439.8605 604.34259 1155.9996 3357756
-433.67572 605.82043 1158.8264 3424318
-425.50912 604.53296 1156.3638 3555647
-417.61713 603.59784 1154.5751 3292475
-411.08609 604.63147 1156.5521 3753539
-403.13992 603.58337 1154.5474 3819076
-395.90634 603.58337 1154.5474 3555904
-388.53894 603.37561 1154.1499 3358525
-379.34045 600.26245 1148.1951 3358525
-369.78354 596.45081 1140.9041 4739922
-361.91971 595.27356 1138.6522 4805972
-354.58301 594.93353 1138.0017 4279629
-347.12601 594.37354 1136.9305 4477008
-338.20926 591.23822 1130.9332 4016458
-330.10178 589.41357 1127.4431 3292732
-322.79474 588.96985 1126.5942 3358525
-316.80698 590.96704 1130.4146 3884356
-307.87262 587.43341 1123.6554 4081735
-300.83255 587.43341 1123.6554 3094840
-292.46756 584.78424 1118.5879 2897461
-285.79114 585.46411 1119.8884 3029047
-278.89914 585.7254 1120.3883 3950149
-270.77795 583.35217 1115.8486 3884356
-263.00458 581.62231 1112.5398 2765875
-257.00803 583.83459 1116.7715 2634289
-252.14653 588.82123 1126.3101 2831925
