# .PCD v0.7 - Point Cloud Data file format
VERSION 0.7
FIELDS x y z rgb
SIZE 4 4 4 4
TYPE F F F U
COUNT 1 1 1 1
WIDTH 1270
HEIGHT 1
VIEWPOINT 0 0 0 1 0 0 0
POINTS 1270
DATA ascii
-1823.7631 665.46271 2677.1338 4081476
-1798.4041 662.30078 2664.4133 3884097
-1777.6841 660.80396 2658.3918 4015683
-1757.0458 659.30951 2652.3796 3884097
-1746.5311 661.62158 2661.6812 3752511
-1732.3726 662.58453 2665.5549 3818304
-1718.2789 663.59131 2669.6052 3752511
-1707.3239 665.84192 2678.6592 3818304
-1689.5616 665.45612 2677.1072 3752768
-1664.3054 662.0813 2663.5305 3818560
-1649.5679 662.86499 2666.6833 3686718
-1632.1584 662.58008 2665.5371 3752511
-1613.5201 661.78528 2662.3396 3818304
-1591.7084 659.65869 2653.7844 3686718
-1576.7772 660.36877 2656.6411 3686974
-1558.6532 659.74268 2654.1221 3752511
-1542.0243 659.74268 2654.1221 3620925
-1522.3064 658.40662 2648.7473 3686718
-1505.6863 658.39575 2648.7036 3620925
-1489.0913 658.39575 2648.7036 3686718
-1476.469 660.172 2655.8494 3686718
-1460.2562 660.36511 2656.6262 3489339
-1439.283 658.38501 2648.6604 3291960
-1420.4268 657.33838 2644.45 3357753
-1403.868 657.3429 2644.468 3291960
-1388.4611 657.89319 2646.6819 3226167
-1380.4735 662.01489 2663.2634 3620925
-1356.2167 658.33984 2648.4788 3752511
-1343.8767 660.4303 2656.8884 3555132
-1327.2305 660.4303 2656.8884 3620925
-1306.0836 658.16229 2647.7644 3620925
-1287.9417 657.36969 2644.5759 3620925
-1270.9441 657.14813 2643.6846 3555132
-1252.9661 656.4071 2640.7034 3489339
-1239.8872 658.24713 2648.1057 3620925
-1223.2959 658.24713 2648.1057 3686718
-1205.6615 657.67804 2645.8164 3423546
-1190.6785 658.55957 2649.3625 3028788
-1174.0792 658.55957 2649.3625 3094581
-1157.9073 658.80255 2650.3401 2962995
-1141.3749 658.84454 2650.509 3028788
-1123.7986 658.27631 2648.2231 3291960
-1109.0162 659.35223 2652.5515 3555132
-1098.129 662.81183 2666.4695 3949633
-1082.223 663.30237 2668.4426 3818817
-1070.975 666.70789 2682.1431 3621438
-1051.1287 664.78406 2674.4036 3226680
-1034.3727 664.78406 2674.4036 3424059
-1017.0998 664.44635 2673.0449 3358266
-1006.3894 668.4563 2689.1768 3358266
-980.18298 662.13483 2663.7458 3687231
-970.03387 666.62927 2681.8269 3884610
-954.66437 667.63153 2685.8586 4081989
-948.34521 675.1123 2715.9539 4476747
-927.22577 672.13806 2703.9883 4279368
-911.08014 672.72552 2706.3518 4279368
-900.466 677.49719 2725.5481 4345161
-886.466 679.85651 2735.0396 4410954
-869.39801 679.90961 2735.2532 4147782
-853.12488 680.599 2738.0264 4081989
-850.07806 692.08466 2784.2329 3884867
-809.21381 672.61786 2705.9187 3818817
-796.3949 676.12799 2720.0398 4081989
-779.50952 676.26379 2720.5862 4213062
-762.12445 675.96246 2719.3738 4213062
-741.81708 672.99615 2707.4404 4213062
-731.80713 679.45166 2733.4109 4015170
-724.37787 688.6701 2770.4963 3686717
-697.65063 679.54407 2733.7827 3160374
-673.53998 672.57147 2705.7319 3291960
-654.38568 670.31586 2696.6577 4015170
-634.4115 667.07849 2683.634 3686461
-619.51184 669.14594 2691.9514 2567980
-608.76422 675.93933 2719.281 3291959
-591.72705 675.93933 2719.281 3423546
-573.68555 674.75812 2714.5288 3423545
-556.77039 674.86981 2714.9783 3423546
-542.44037 678.22083 2728.4592 4015940
-526.92682 680.26208 2736.6711 4015939
-505.23892 674.20135 2712.2891 3489339
-485.23462 670.04358 2695.5625 3489596
-478.97668 685.25238 2756.7471 3423033
-449.54471 667.20471 2684.1416 3291190
-432.72775 667.20471 2684.1416 4146499
-419.96069 673.70154 2710.2783 4146756
-402.97995 673.70154 2710.2783 4212291
-381.96338 666.65765 2681.9409 3685692
-365.32153 666.95215 2683.1257 3817278
-348.7406 667.39172 2684.894 3751741
-331.72552 667.00287 2683.3298 3619899
-314.49164 666.10913 2679.7341 3620925
-295.15002 660.39838 2656.7603 3752511
-279.42474 662.58026 2665.5378 3423546
-264.07639 665.99017 2679.2556 3555132
-245.67931 661.65228 2661.8044 3621181
-227.61166 657.6344 2645.6406 3423546
-211.93199 660.42682 2656.8745 2831409
-196.06088 663.04791 2667.4189 3226167
-179.34869 663.04791 2667.4189 3489339
-165.71098 675.58221 2717.8442 3621181
-146.34094 664.9411 2675.0354 3620925
-129.58101 664.9411 2675.0354 3818304
-112.16697 661.08588 2659.5259 3949890
-95.731514 662.6593 2665.8557 4081476
-79.029099 662.6593 2665.8557 3292216
-61.996441 659.14819 2651.7305 3357753
-45.526001 661.23193 2660.1135 3423546
-28.859566 661.23193 2660.1135 3555132
-12.18969 661.04535 2659.363 3357753
4.4972739 664.77478 2674.3662 3818304
21.219889 663.73883 2670.1987 3818304
37.845966 661.92786 2662.9131 3620925
54.202904 657.95795 2646.9424 3555132
70.362427 654.01331 2631.0732 3818560
86.852608 654.05615 2631.2456 3555132
103.72443 656.50079 2641.0803 3489339
120.69511 658.81244 2650.3799 3620925
138.28136 663.51862 2669.3127 3489339
155.01692 663.56781 2669.5107 3555132
172.24631 665.51544 2677.3459 4015683
188.97003 665.33704 2676.6282 3753024
207.16835 669.95636 2695.2114 3555645
225.48511 674.23346 2712.4182 3424059
243.52499 677.1413 2724.1162 3621438
262.02124 680.85406 2739.0525 3687488
279.89548 682.59338 2746.0498 4082246
294.2724 676.09613 2719.9116 3884098
313.60904 681.08154 2739.9678 3753024
332.88617 685.42688 2757.449 4016196
346.95844 679.15515 2732.218 4081989
366.34122 683.37964 2749.2129 4081989
382.99863 682.36896 2745.147 4081989
405.89703 692.08655 2784.2405 4081989
419.09109 685.13849 2756.2886 3950659
429.84918 674.91547 2715.1619 3819073
446.57999 674.49182 2713.4575 3687487
460.74921 670.37213 2696.8843 3621694
473.53729 664.60559 2673.6855 3423290
494.14673 669.83527 2694.7244 2897202
511.33145 670.23029 2696.3137 2897202
527.55621 669.38208 2692.9014 2831666
543.16168 667.82513 2686.6377 2897715
559.99432 667.82513 2686.6377 2831665
574.42108 665.03979 2675.4324 2831666
587.453 660.84314 2658.5496 3226424
603.38556 660.05109 2655.363 3489339
627.42328 667.92999 2687.0596 3292217
644.25854 667.92999 2687.0596 3489595
657.36108 664.15869 2671.8877 3226424
676.72955 666.74817 2682.3052 3358010
691.99457 665.26727 2676.3474 3292217
713.09961 669.33801 2692.7239 3423546
729.9704 669.33801 2692.7239 3620925
738.60382 661.95551 2663.0244 3620925
752.17798 659.22931 2652.0571 3555132
773.599 663.34961 2668.6328 3489339
793.3172 665.86627 2678.7573 3686974
810.10046 665.86627 2678.7573 3686718
823.20929 662.90735 2666.8538 3884097
836.43506 660.15851 2655.7952 3752511
853.07446 660.15851 2655.7952 4081476
889.29968 675.02521 2715.6035 3752511
915.68121 682.0022 2743.6714 3752511
930.91553 680.57239 2737.9194 4213062
938.93365 674.01428 2711.5364 4278855
954.88043 673.27966 2708.5811 4410441
968.49438 670.95453 2699.2273 4081476
1011.009 688.38757 2769.3596 3357753
1021.168 683.57324 2749.9919 4081476
1038.3976 683.57324 2749.9919 4410441
1037.9796 672.14557 2704.0188 4804942
1068.6671 680.90387 2739.2529 5003091
1085.75 680.85413 2739.053 5266006
1113.3448 687.29517 2764.9648 4937556
1137.8879 691.68372 2782.6201 4674128
1128.0166 675.33624 2716.8547 4213576
1145.0386 675.33624 2716.8547 3555133
1156.3492 672.01715 2703.502 4015684
1178.3531 674.91858 2715.1746 4278855
1193.821 674.04712 2711.6685 4213062
1208.3705 672.68878 2706.2039 4213062
1223.4948 671.68359 2702.1602 4278855
1239.9794 671.44244 2701.1902 4278855
1257.6458 671.83917 2702.7861 4344648
1276.1301 672.65649 2706.0742 4410441
1284.2617 668.06689 2687.6104 4410441
1299.3499 667.16809 2683.9944 4476234
1315.1182 666.63696 2681.8577 4344648
1337.4663 669.41254 2693.0237 4410441
1354.2865 669.3866 2692.9194 4476234
1369.7235 668.6861 2690.1013 4278855
1409.2939 679.64105 2734.1729 3555389
1388.4227 661.53461 2661.3311 3751997
1411.1265 664.37347 2672.7517 3685948
1427.9224 664.39679 2672.8457 3225396
1435.746 660.2934 2656.3376 3159348
1459.1211 663.35413 2668.6509 3620155
1475.6918 663.28699 2668.3809 3620155
1489.8978 662.17047 2663.8892 3422776
1499.7814 659.17883 2651.854 3225397
1522.3363 661.76117 2662.2424 3488569
1535.9479 660.44183 2656.9348 4014913
1556.3148 662.02441 2663.3015 4014657
1567.3851 659.66077 2653.7927 3422519
1595.8348 664.58441 2673.6003 3422520
1614.3396 665.30719 2676.5081 3620155
1626.6198 663.4762 2669.1421 3291961
1647.3702 665.10229 2675.6836 3357753
1664.1343 665.10229 2675.6836 3291960
1678.5055 664.15546 2671.8748 3291960
1698.8483 665.56689 2677.553 3423546
1719.4711 667.05939 2683.5571 3357753
1736.2925 667.0625 2683.5696 3357753
1755.775 668.07806 2687.6553 3291960
1774.7953 668.90021 2690.9626 3488569
1791.3459 668.78479 2690.4983 3422776
1812.1343 670.23895 2696.3484 3488569
1834.9888 672.42328 2705.136 3422776
1849.9811 671.71301 2702.2786 3356983
1848.3517 665.03516 2675.4138 3291190
1862.6385 664.15247 2671.8628 3028018
1885.9583 666.47772 2681.217 3093811
1912.9366 670.04333 2695.5615 3554362
1941.6504 674.14911 2712.0789 3159604
1962.6198 675.51813 2717.5862 2896689
1976.6194 674.48523 2713.4309 3159861
1995.377 675.07965 2715.8225 3028018
2024.1154 679.01227 2731.6431 3028018
2038.6168 678.14294 2728.146 2830639
2049.5828 676.12195 2720.0154 2962225
2061.2095 674.35028 2712.8882 3028018
2085.0364 676.56653 2721.804 3028018
2111.8999 679.72406 2734.5068 3093811
2134.8433 681.57928 2741.9702 3028018
2151.9702 681.56268 2741.9033 2830640
2163.8994 679.91321 2735.2676 2896176
2173.4368 677.54407 2725.7366 2961969
2177.6492 673.5647 2709.7278 3488569
2197.6428 674.49048 2713.4521 3619898
2253.1499 686.21796 2760.6313 3553849
2238.2874 676.49829 2721.5295 3619386
2261.3105 678.28967 2728.7361 3685434
2285.2222 680.31854 2736.8982 3816765
2320.5134 685.67981 2758.4663 3553593
2337.7961 685.67981 2758.4663 3619642
2339.8459 681.24475 2740.6243 3553849
2371.1877 685.34052 2757.1016 3619642
2388.4617 685.34052 2757.1016 3356470
2397.6355 683.0329 2747.8181 3159091
2452.1526 693.58344 2790.2625 3290677
2457.9949 690.31451 2777.1118 3488056
2474.5593 690.08167 2776.1748 3422263
2494.6316 690.82349 2779.1592 3356470
2512.0437 690.82349 2779.1592 3356470
2532.8403 691.74774 2782.8774 3553849
2543.0232 689.78046 2774.9631 3685435
2544.1079 685.38885 2757.2959 3685435
2557.4827 684.34509 2753.0969 3751228
2573.8291 684.10522 2752.1321 3751228
2585.5676 682.65192 2746.2854 3685435
2602.7742 682.65192 2746.2854 3553849
2619.9492 682.64386 2746.2529 3422776
2626.2461 679.81989 2734.8923 3488569
2632.7236 677.07904 2723.866 3422776
2643.1582 675.38464 2717.0493 3422776
2667.8889 677.34143 2724.9214 3422776
2683.877 677.06793 2723.821 3488571
2699.6343 676.73993 2722.5015 3356985
2708.5381 674.70892 2714.3308 3093813
2704.6228 669.52979 2693.4954 3093813
2712.0864 667.21423 2684.1802 3356985
2718.7656 664.73547 2674.2083 3422778
2724.6362 662.0907 2663.5681 3554364
nan nan nan 16777215
nan nan nan 16777215
nan nan nan 16777215
nan nan nan 16777215
nan nan nan 16777215
nan nan nan 16777215
nan nan nan 16777215
nan nan nan 16777215
nan nan nan 16777215
-2278.896 631.63501 2478.8958 4410184
-2268.5088 633.0705 2484.5295 4409928
-2252.9424 633.0705 2484.5295 4343878
-2235.7585 632.61279 2482.7332 4080450
-2225.4871 634.11835 2488.6418 4080449
-2219.4055 636.84729 2499.3518 4080449
-2201.4944 636.19666 2496.7981 4146499
-2188.6243 637.00372 2499.9656 4409671
-2176.1057 637.92554 2503.5833 4409671
-2170.3835 640.86755 2515.1294 4015170
-2149.283 639.27844 2508.8928 3686718
-2134.1013 639.43945 2509.5249 4015683
-2123.2537 640.91107 2515.3003 4015683
-2120.0986 644.74408 2530.3433 4015683
-2112.9573 647.41351 2540.8196 3949890
-2097.0383 647.41351 2540.8196 3949890
-2074.5764 645.37811 2532.8315 3818304
-2058.1023 645.18835 2532.0869 4015683
-2039.8405 644.43103 2529.1145 4410441
-2038.6766 649.10565 2547.4604 5331287
-2026.2859 650.25122 2551.9563 4739919
-2040.823 660.12506 2590.707 4081989
-2027.0735 660.93439 2593.8833 4410954
-2018.6805 663.5174 2604.0205 4410954
-1981.5151 656.60834 2576.9053 4542540
-1967.0225 657.16034 2579.0718 4476747
-1951.168 657.26282 2579.4739 4476747
-1920.2778 652.25983 2559.8394 4411211
-1870.79 640.80237 2514.8735 3950660
-1888.9523 652.51917 2560.8572 3819074
-1887.7914 657.70471 2581.208 3950403
-1870.3024 657.24188 2579.3916 4279368
-1845.2667 654.09601 2567.0454 4279368
-1837.9248 657.22186 2579.313 4213575
-1833.8859 661.5946 2596.4744 4147782
-1809.9968 658.82062 2585.5874 3555645
-1790.8962 657.75507 2581.4058 4016196
-1779.7714 659.62622 2588.749 4279625
-1769.0374 661.6778 2596.8008 4541770
-1740.4929 657.04407 2578.6155 4541771
-1747.8052 665.98639 2613.7102 4081477
-1721.5599 662.19012 2598.8115 3753024
-1705.8478 662.41156 2599.6804 3950146
-1693.6876 664.02985 2606.0315 4015683
-1664.4633 658.92432 2585.9944 3752511
-1646.49 658.21619 2583.2156 3752254
-1624.3927 655.82904 2573.8469 3884097
-1608.0219 655.72919 2573.4551 3818561
-1589.6949 654.82159 2569.8931 3818304
-1577.7057 656.53265 2576.6084 3686718
-1563.4065 657.30798 2579.6511 3620925
-1545.084 656.39032 2576.0496 3621181
-1531.9926 657.69897 2581.1855 3752511
-1513.7654 656.80719 2577.6858 3752511
-1493.2074 654.87402 2570.0989 3620925
-1477.3696 654.99139 2570.5593 3555132
-1457.5848 653.3421 2564.0867 3555132
-1439.5636 652.45538 2560.6067 3489339
-1427.9701 654.49475 2568.6104 3423546
-1411.0583 654.11523 2567.1211 3423546
-1389.5557 651.57428 2557.1489 3357753
-1371.386 650.55524 2553.1494 3357753
-1347.8473 646.935 2538.9417 3357753
-1336.5262 649.16254 2547.6838 3357753
-1332.3762 654.96912 2570.4722 3423546
-1311.0967 652.39423 2560.3667 3555132
-1292.6667 651.19098 2555.6445 3555132
-1274.363 650.02197 2551.0566 3555132
-1261.3303 651.54608 2557.0381 3555132
-1244.6659 651.20929 2555.7163 3621182
-1231.9507 652.95679 2562.5745 3620925
-1215.8953 652.95679 2562.5745 3489339
-1201.1166 653.65149 2565.301 3620925
-1185.0442 653.65149 2565.301 3686718
-1169.6783 654.04663 2566.8516 3291960
-1164.4315 660.18988 2590.9612 3423546
-1158.6388 666.19281 2614.5203 3818816
-1131.6429 660.00183 2590.2234 3818817
-1114.1621 659.2608 2587.3152 3358266
-1080.9165 649.03217 2547.1721 3226936
-1076.5228 656.08044 2574.8335 3950659
-1078.4889 667.27814 2618.7795 3950660
-1056.5266 663.78809 2605.0828 3687231
-1027.6482 655.77527 2573.6357 3424059
-1010.7319 655.2619 2571.6213 3292473
-1000.5629 659.17731 2586.9873 3424059
-989.23688 662.44666 2599.8184 3424059
-982.42413 668.89856 2625.1392 3489852
-957.18909 662.81342 2601.2576 3818817
-945.19196 665.8429 2613.147 4016196
-932.78668 668.68671 2624.3079 4147782
-930.39563 678.94019 2664.5483 4608333
-913.00671 678.42401 2662.5225 4081989
-909.67926 688.53162 2702.1904 4147782
-889.92212 686.35126 2693.6335 4608333
-858.63293 675.02063 2649.1655 4279368
-840.81287 674.04077 2645.3201 4016196
-824.40833 674.17914 2645.863 3753024
-808.13928 674.43628 2646.8723 4081989
-793.04095 675.70172 2651.8386 3818817
-776.42639 675.70172 2651.8386 3950403
-758.63745 674.65741 2647.74 4016453
-745.48041 677.77753 2659.9854 4148039
-725.89563 675.06281 2649.3313 4410697
-703.65759 669.69592 2628.2683 4344391
-691.24207 673.6441 2643.7634 3620925
-679.7605 678.71875 2663.6792 4542027
-663.4256 679.08099 2665.1008 4213062
-646.72797 679.08099 2665.1008 4081476
-629.94519 678.98926 2664.741 4080962
-612.20044 677.82751 2660.1814 4344390
-595.20996 677.45911 2658.7356 3686461
-577.09869 675.7572 2652.0564 3620925
-557.99628 672.75928 2640.291 3489339
-542.22363 673.71558 2644.0439 3094581
-536.21149 687.2417 2697.1282 3094581
-510.47034 675.53949 2651.2019 3160630
-494.17834 675.97528 2652.9124 3292217
-480.47998 680.11267 2669.1497 3818560
-461.78448 677.22003 2657.7974 4081475
-442.82944 673.71606 2644.0459 4146498
-425.9588 673.23419 2642.1548 4212292
-407.84296 670.66577 2632.0747 4146499
-392.78601 673.12292 2641.718 3882814
-372.43433 666.32343 2615.033 4015939
-356.31747 666.82343 2616.9951 4015940
-340.57098 668.09808 2621.9976 4213062
-324.37421 668.57385 2623.865 4343878
-305.35596 662.97467 2601.8904 3950146
-290.10251 665.37885 2611.3257 4015683
-274.67722 667.65265 2620.2495 3489595
-258.26053 667.65265 2620.2495 3489339
-238.58354 658.65198 2584.9258 3555132
-224.18169 663.96381 2605.7725 3686718
-208.12218 664.81494 2609.1128 3686718
-191.79514 664.88385 2609.3831 3884097
-175.44653 664.88385 2609.3831 3291960
-158.15517 660.94385 2593.9204 3357753
-141.78465 660.39062 2591.749 3423032
-123.71879 650.77637 2554.0173 3094068
-110.49153 667.53833 2619.8008 4015170
-93.597473 664.13104 2606.4287 3817277
-77.267387 664.13104 2606.4287 3225141
-60.26939 656.85168 2577.8604 3225397
-44.057125 655.94092 2574.2861 3027761
-27.872866 654.63611 2569.165 3290933
-11.760785 653.77643 2565.7913 3028531
4.3801265 663.69135 2604.7029 2831409
20.699398 663.69135 2604.7029 3752511
36.067291 646.63446 2537.7622 3818304
51.92104 646.06061 2535.51 3818304
67.107285 639.39569 2509.353 3884097
82.479813 636.69891 2498.7693 3686718
98.201782 637.12976 2500.4602 3489339
113.08718 632.76117 2483.3154 4278855
128.67387 632.89862 2483.8547 3818304
151.6627 665.48657 2611.7485 3752511
168.77168 668.43945 2623.3374 3423546
185.28613 668.72253 2624.4482 3357753
202.50273 671.28699 2634.5127 3555132
219.06606 671.46259 2635.2019 3686718
235.54118 671.36218 2634.8079 3620925
254.70958 678.44879 2662.6196 3949890
271.39172 678.44879 2662.6196 3818304
285.5441 672.49091 2639.2375 3423546
303.285 675.17401 2649.7676 3818817
320.7052 676.90179 2656.5483 3621438
338.1875 678.58368 2663.1492 3358266
353.08105 675.15723 2649.7017 3489596
368.77875 673.50714 2643.2258 3620925
384.04565 671.24591 2634.3516 3225910
401.20306 672.33917 2638.6421 3094325
416.42639 670.23297 2630.3762 3094581
434.65115 672.93402 2640.9768 3489339
451.40668 673.24579 2642.2002 3686718
467.43732 672.49255 2639.2439 3028788
490.26605 681.23688 2673.5618 2370858
496.64502 667.30127 2618.8704 2502701
511.42847 665.18823 2610.5776 3028788
527.6803 665.05688 2610.0623 3093554
543.79816 664.76953 2608.9346 3159604
556.56812 660.52582 2592.2798 3290933
572.69824 660.39746 2591.7761 3290933
588.92444 660.38391 2591.7229 3422776
605.77954 661.05743 2594.3662 3356983
625.3194 664.54889 2608.0686 3619899
642.51007 665.42963 2611.5249 3488312
655.414 661.93701 2597.8181 3422519
670.39099 660.65668 2592.7935 3422776
686.63562 660.65668 2592.7935 3422520
701.953 659.78516 2589.373 3356983
718.56744 660.14453 2590.7834 3290933
732.11029 657.72858 2581.3018 3817277
751.36133 660.43445 2591.9211 3948350
763.06927 656.53577 2576.6206 3620924
786.31976 662.52399 2600.1218 3094581
804.12134 663.7713 2605.0168 3226167
827.63776 669.59247 2627.8625 3620925
840.88086 667.03717 2617.834 4081476
851.60809 662.62207 2600.5066 4278855
871.47205 665.34845 2611.2065 4344648
888.15765 665.59241 2612.1641 4213062
905.91382 666.61542 2616.1787 4147269
923.38867 667.39856 2619.2524 4081476
939.97076 667.52057 2619.731 4147526
970.68701 677.50342 2658.9094 3884097
982.9364 674.4776 2647.0347 4015683
1003.4954 677.15967 2657.5603 4081476
1018.7731 676.24847 2653.9844 4015683
1033.3794 674.92798 2648.802 3949890
1053.9775 677.50085 2658.8994 3752511
1071.786 678.22839 2661.7546 3686718
1085.0585 676.10718 2653.4299 4015683
1085.3846 666.10474 2614.1746 4213062
1118.3853 676.15405 2653.614 4015682
1137.2634 677.49591 2658.8801 4213061
1150.0015 675.19403 2649.8462 4278854
1166.6036 675.19403 2649.8462 4081476
1182.6517 674.87793 2648.6057 4147268
1197.5605 673.92938 2644.8831 4278855
1209.9147 671.58868 2635.6968 4213062
1220.5493 668.36951 2623.0627 4410441
1232.9668 666.1991 2614.5449 4410441
1261.751 672.81299 2640.5015 4015683
1274.9949 671.07623 2633.6855 3884097
1293.7791 672.2627 2638.3418 4081476
1311.0846 672.66058 2639.9033 4278855
1313.7394 665.62555 2612.2939 4278855
1324.4501 662.79498 2601.1853 4278855
1329.207 657.09015 2578.7961 4344648
1353.9631 661.29004 2595.2791 3949890
1370.0487 661.20569 2594.948 3949890
1368.1962 652.56781 2561.0479 3291960
1393.2736 656.8255 2577.7576 3094581
1408.3159 656.30914 2575.731 3620412
1424.4537 656.30914 2575.731 3685948
1440.7052 656.3609 2575.9343 3422776
1445.5791 651.28552 2556.0156 3619898
1480.1965 659.5752 2588.5488 4212035
1496.4146 659.5752 2588.5488 4015427
1510.2924 658.55469 2584.5439 3884097
1539.9041 664.34381 2607.2637 4081476
1545.6362 659.81738 2589.4995 3818817
1558.9407 658.58398 2584.6589 3685949
1562.0339 653.10657 2563.1624 3620925
1589.7775 657.94226 2582.1404 3489339
1604.8499 657.48938 2580.363 3291960
1617.713 656.14941 2575.1042 3555132
1628.9207 654.17108 2567.3401 3620925
1655.7218 658.43243 2584.0642 3489339
1678.3489 660.96759 2594.0134 3291960
1698.0267 662.30371 2599.2571 3226167
1723.4709 665.84216 2613.144 3029044
1733.267 663.32544 2603.2671 3225397
1749.5773 663.32544 2603.2671 3488312
1767.4812 663.92407 2605.6165 3291190
1786.1248 664.78711 2609.0034 3356983
1799.5188 663.6983 2604.7302 3159604
1798.4285 657.3349 2579.7568 3028018
1824.053 660.76233 2593.208 3422776
1865.1042 669.66827 2628.1599 3554362
1899.8204 676.16357 2653.6511 3356983
1916.4464 676.16357 2653.6511 3356983
1911.9408 668.77203 2624.6426 3225397
1927.8369 668.58191 2623.8965 3159604
1950.0582 670.57013 2631.6992 3159604
1976.3341 673.90759 2644.7974 3093811
1992.8621 673.89313 2644.7407 3028018
2006.6349 672.95508 2641.0593 3028018
2023.217 672.96674 2641.105 3159604
2047.7766 675.61011 2651.4792 3159604
2061.5125 674.6687 2647.7847 2962482
2075.0881 673.69037 2643.9451 2962225
2103.8447 677.61713 2659.3557 2830639
2128.9675 680.32092 2669.967 2765103
2134.8916 676.8952 2656.5227 3291190
2138.5916 672.823 2640.5408 3554362
2146.3816 670.09009 2629.8154 3751741
2166.9658 671.36267 2634.8098 3949120
2234.1304 686.93842 2695.9377 3949377
2229.021 680.22455 2669.5889 3817534
2244.4883 679.84338 2668.0928 3685948
2252.7954 677.31512 2658.1704 3685692
2270.9775 677.77106 2659.96 3488312
2292.2397 679.133 2665.3049 3224628
2299.1658 676.25842 2654.0234 3027505
2314.1382 675.7749 2652.1257 2896176
2335.115 677.03912 2657.0874 3093298
2361.2786 679.77869 2667.8389 3159091
2376.7048 679.41034 2666.3933 3093298
2387.8364 677.828 2660.1833 3027505
2404.5032 677.828 2660.1833 3027505
2450.896 686.15002 2692.8438 3224627
2459.4297 683.83173 2683.7454 3488056
2450.2412 676.65088 2655.5635 3619642
2471.0261 677.78839 2660.0278 3817021
2487.1155 677.63123 2659.4111 3751228
2499.9685 676.60034 2655.3655 3685435
2516.8987 676.67926 2655.675 3619642
2527.4895 675.06396 2649.3357 3553849
2542.0713 674.52869 2647.2351 3488569
2554.5176 673.43744 2642.9524 3554362
2566.4812 672.23383 2638.2288 3488569
2581.4509 671.82794 2636.6357 3488569
2597.9705 671.82794 2636.6357 3488572
2605.3804 669.48724 2627.4495 3488571
2620.2834 669.08917 2625.8872 3422778
2641.5171 670.30249 2630.6492 3488571
2657.0386 670.06036 2629.6987 3488571
2677.9343 671.16809 2634.0461 3620157
2678.0801 667.09363 2618.0557 3488571
nan nan nan 16777215
nan nan nan 16777215
nan nan nan 16777215
nan nan nan 16777215
nan nan nan 16777215
nan nan nan 16777215
nan nan nan 16777215
nan nan nan 16777215
nan nan nan 16777215
-2218.1521 629.83588 2412.8208 3751741
-2214.5498 633.12799 2425.4324 3685948
-2200.4458 633.44238 2426.6367 3751741
-2189.7971 634.7627 2431.6948 3883584
-2173.8511 634.55518 2430.8999 4014913
-2163.2561 635.91785 2436.1201 4080706
-2140.9927 633.84534 2428.1807 4409671
-2130.7175 635.31769 2433.821 4475464
-2122.7817 637.51398 2442.2346 4475208
-2114.3506 639.59216 2450.196 4409928
-2106.5549 641.89447 2459.0159 4344648
-2095.3303 643.17816 2463.9333 4213062
-2065.9478 638.86572 2447.4131 3949890
-2061.324 642.20251 2460.1958 3752511
-2051.677 644.0127 2467.1304 3489339
-2030.9198 642.33649 2460.709 3226167
-2015.5027 642.33649 2460.709 3620925
-2013.5627 646.66473 2477.29 3884097
-1998.2584 646.7348 2477.5586 3884097
-2004.8593 653.95111 2505.2034 3686975
-1995.9248 656.17395 2513.7188 3950403
-1974.2489 654.21008 2506.1953 3884610
-1950.1637 651.40985 2495.468 3687231
-1934.4364 651.37878 2495.3489 3753281
-1919.1069 651.48218 2495.7451 4213575
-1905.0297 652.01587 2497.7896 3950660
-1890.2578 652.31866 2498.9497 3950403
-1866.7697 649.59357 2488.51 3950660
-1843.7561 646.98895 2478.5322 4016196
-1835.7018 649.63416 2488.6655 4213832
-1834.88 654.90601 2508.8613 4148039
-1814.2692 653.14484 2502.1145 4279368
-1798.5925 653.14484 2502.1145 4542540
-1783.0172 653.18195 2502.2566 4739919
-1766.5735 652.89874 2501.1716 4542540
-1749.4858 652.37024 2499.1472 4410954
-1730.7795 651.22333 2494.7534 4410954
-1714.1921 650.85992 2493.3613 4279368
-1705.4014 653.47742 2503.3887 4213575
-1687.0221 652.43518 2499.396 4213575
-1675.4109 654.01556 2505.4502 4279368
-1663.0872 655.34497 2510.543 4279368
-1649.6327 656.24994 2514.0098 4345161
-1644.7214 660.60376 2530.6887 4345161
-1630.7961 661.3866 2533.6875 3950659
-1592.1324 652.05328 2497.9329 3687488
-1574.9215 651.40778 2495.46 3818047
-1559.4355 651.46997 2495.6982 3752511
-1538.7211 649.32709 2487.489 3620925
-1524.6705 649.98114 2489.9949 3686718
-1508.2021 649.60742 2488.563 3620925
-1494.9589 650.62946 2492.4783 3818304
-1487.441 654.1911 2506.1226 3884097
-1455.2238 646.84985 2477.9993 3752511
-1439.6982 646.84985 2477.9993 3686974
-1423.781 646.67194 2477.3176 3884097
-1399.2659 642.54187 2461.4958 3818304
-1391.6901 646.185 2475.4521 3423546
-1382.4587 649.13293 2486.7454 3555132
-1366.2917 648.85425 2485.6777 3291960
-1349.5814 648.30817 2483.5857 3226167
-1333.0916 647.85645 2481.8555 3226167
-1315.1559 646.68323 2477.3608 3291960
-1304.1998 648.95496 2486.0635 3423546
-1288.8583 649.07294 2486.5156 3423289
-1273.2795 649.07294 2486.5156 3357240
-1255.2793 647.82336 2481.7285 3554619
-1237.2635 646.53424 2476.79 3817533
-1224.33 647.90173 2482.0288 3883070
-1208.3651 647.67975 2481.1785 3948863
-1196.8875 649.88843 2489.6396 4014657
-1179.2681 648.77661 2485.3804 4146242
-1158.2848 645.75958 2473.8225 3818046
-1147.7322 648.55475 2484.5305 3160374
-1133.2125 649.1543 2486.8274 3094581
-1139.7207 661.98431 2535.9773 4147269
-1123.832 661.98431 2535.9773 4147526
-1095.2925 654.42554 2507.0208 4015939
-1084.5286 657.42218 2518.5002 4213062
-1064.0576 654.53607 2507.4441 4081220
-1049.6418 655.34412 2510.5396 3752254
-1036.9937 657.297 2518.0208 3423289
-1023.4352 658.72443 2523.4893 3818817
-1003.9013 656.29028 2514.1643 3424059
-990.54022 657.87823 2520.2476 3226680
-977.68146 659.85669 2527.8267 3621438
-961.84387 659.85669 2527.8267 3753024
-937.72565 654.08081 2505.7002 3753024
-922.5943 654.48352 2507.2427 4213575
-923.51001 666.48096 2553.2036 4081989
-904.23236 664.07141 2543.9729 3884610
-899.92694 672.76825 2577.2893 4476747
-882.15985 671.5354 2572.5664 4608333
-874.96326 678.45306 2599.0671 4345161
-858.67932 678.45306 2599.0671 4279368
-839.89575 676.43994 2591.355 4147782
-826.5528 678.81561 2600.4558 3226680
-799.7511 670.01135 2566.728 3555902
-790.50922 675.85889 2589.1292 4147782
-772.21686 674.05145 2582.2051 3687231
-750.82422 669.40253 2564.3958 3687231
-736.4975 670.98785 2570.4688 3884610
-721.48627 672.00641 2574.3706 4147782
-699.63013 666.55029 2553.469 4805712
-692.17493 674.87988 2585.3787 5266519
-677.60712 676.50763 2591.6145 5200725
-665.20551 680.43103 2606.6445 3555645
-655.70367 687.59283 2634.0803 3950404
-636.40125 684.58179 2622.5454 5792607
-615.21344 679.32935 2602.4238 4937301
-596.98828 677.15131 2594.0803 4739666
-573.73029 668.98303 2562.7886 4213577
-557.7511 669.07593 2563.1445 3686717
-543.41968 671.20966 2571.3184 4015426
-534.8692 680.83221 2608.1814 4212806
-518.52814 680.83221 2608.1814 4147269
-495.85764 672.25122 2575.3086 3423546
-479.5463 672.00427 2574.3625 3357496
-468.53464 679.42523 2602.7913 3818304
-452.22736 679.42523 2602.7913 4673099
-428.67123 668.12726 2559.5103 4804172
-410.33002 664.3949 2545.2119 4212036
-395.73901 666.67853 2553.9602 4080449
-381.79974 670.29871 2567.8289 4212036
-365.71149 670.29871 2567.8289 4409414
-346.64011 664.57947 2545.9189 3883327
-330.68915 664.57947 2545.9189 3817277
-312.91275 660.72498 2531.1531 3948863
-295.83786 658.01935 2520.7881 3621181
-279.88202 657.638 2519.3271 3160374
-264.16742 657.81171 2519.9927 3620925
-247.86571 656.45258 2514.7859 3818304
-234.25485 662.51923 2538.0266 3686718
-217.90417 661.15643 2532.8059 3686718
-202.70306 663.34149 2541.1765 3555132
-186.88597 663.71143 2542.5938 3884097
-171.72928 666.71423 2554.0969 3686718
-155.43608 665.46838 2549.3245 3620925
-137.54105 656.29382 2514.178 3291960
-122.28357 658.95929 2524.3889 3358010
-106.46749 658.95929 2524.3889 3423290
-90.179024 655.52545 2511.2344 3093555
-73.790657 649.7605 2489.1494 3093555
-58.536968 653.57458 2503.7607 3093811
-43.04007 656.47162 2514.8589 3225397
-27.174761 653.85046 2504.8176 3356726
-11.468927 653.14569 2502.1179 3029301
4.1788392 648.67847 2485.0044 3357753
19.608311 644.08472 2467.4062 3686718
34.764675 638.52496 2446.1077 4015940
50.101822 638.67188 2446.6704 4081476
65.972343 643.95618 2466.9141 3423546
82.24189 650.39001 2491.5613 3489339
96.826927 643.57489 2465.4531 4015683
112.27376 643.57489 2465.4531 5002578
128.29614 646.4751 2476.5635 3818304
144.71097 650.51349 2492.0342 3884097
161.35701 654.70361 2508.0859 3949890
177.61807 656.72656 2515.8357 3818304
197.69299 671.3717 2571.9392 3884097
213.66278 670.91888 2570.2046 3752511
226.87585 662.47992 2537.876 3752511
245.01308 668.58313 2561.2566 3752511
262.63879 672.6261 2576.7446 3291960
276.3754 666.81744 2554.4924 3291960
293.55978 669.508 2564.7996 3423289
307.25146 664.36694 2545.105 3357497
323.17188 664.31458 2544.9043 3226167
341.92749 669.82117 2565.9995 3160374
356.51682 667.03821 2555.3384 3226167
370.6561 663.68854 2542.5061 2568237
383.88245 659.04767 2524.7275 2765616
399.62442 658.92194 2524.2458 2962995
417.11102 661.57294 2534.4016 2699823
436.71567 667.26575 2556.21 3028788
453.15671 667.89307 2558.613 3094838
474.06616 674.83826 2585.2192 3686718
478.51859 658.67181 2523.2876 3357753
496.19067 661.15411 2532.7969 3028787
511.77246 660.78345 2531.3772 3159604
526.87781 659.83856 2527.7573 3291190
539.80408 656.2995 2514.1995 3291190
556.54205 657.46405 2518.6606 3422776
572.24561 657.37592 2518.3232 3291190
586.88586 656.10388 2513.4502 3159604
602.45593 655.91064 2512.71 3093811
619.42102 657.20746 2517.6777 3291190
633.39221 655.3421 2510.532 3291190
657.77997 664.08362 2544.0195 3422776
673.11237 663.48553 2541.7285 3290933
693.3349 667.62402 2557.5825 2961968
691.89154 651.18433 2494.604 3422776
706.84979 650.56653 2492.2373 3621181
729.86835 657.23364 2517.7781 3357753
747.41241 658.79321 2523.7527 3291960
765.01733 660.34076 2529.6812 3291960
783.86304 662.87469 2539.3884 3094581
796.44513 660.11646 2528.8218 3423546
814.78198 662.1424 2536.583 4015683
835.49084 665.98163 2551.2905 4410441
841.48059 658.16406 2521.3425 4344648
863.32251 662.80499 2539.1213 4147526
879.23083 662.80499 2539.1213 4147269
895.66241 663.19238 2540.6052 4147269
911.60065 663.20734 2540.6626 4015683
925.90399 662.05273 2536.2395 4213062
944.33972 663.84216 2543.0945 4278855
960.27301 663.84216 2543.0945 4213062
984.53131 669.50336 2564.7817 3949890
1000.6005 669.50336 2564.7817 4081476
1014.3558 667.97961 2558.9446 3884097
1046.1272 678.18274 2598.0315 3949890
1058.6425 675.78125 2588.8315 4081476
1071.7294 673.81146 2581.2856 4213062
1079.5598 668.64459 2561.4922 4147270
1109.3632 677.03912 2593.6504 4542028
1112.3291 669.04895 2563.0413 4213064
1122.3755 665.48431 2549.3855 4015941
1140.4712 666.72546 2554.1401 4147272
1160.1615 668.85156 2562.2849 4081479
1172.2484 666.59601 2553.644 3950150
1178.4603 661.10529 2532.6099 4147269
1191.5999 659.59515 2526.825 4344648
1203.0902 657.22382 2517.7405 4015683
1215.2635 655.2821 2510.302 3620925
1231.2184 655.40295 2510.7649 3555132
1257.7104 661.05908 2532.4331 3620925
1272.5153 660.50806 2530.322 3357753
1291.2218 661.97083 2535.9258 3620925
1315.3175 666.12738 2551.8489 4147269
1319.0017 659.97107 2528.2649 3949890
1331.3861 658.26233 2521.719 3884097
1334.5077 652.06775 2497.9883 3949890
1346.7214 650.40784 2491.6294 3620925
1374.7378 656.33051 2514.3184 3752254
1388.2554 655.27539 2510.2764 3751741
1396.8943 651.96686 2497.6018 3751742
1412.447 651.92273 2497.4329 4015426
1429.7628 652.68445 2500.3508 3818048
1447.5164 653.62738 2503.9631 3752255
1468.1414 655.8327 2512.4114 3884097
1493.9673 660.28998 2529.4866 3818817
1503.9872 657.74115 2519.7224 3751740
1516.6533 656.39056 2514.5483 3620155
1518.4412 650.40808 2491.6304 3554875
1539.4944 652.71558 2500.47 3489339
1553.0615 651.83459 2497.095 3423546
1565.6254 650.5542 2492.1902 3489339
1581.9562 650.849 2493.3193 3620925
1604.308 653.59094 2503.8235 3291960
1626.6411 656.27228 2514.0952 3489339
1637.0277 654.12848 2505.8828 3884097
1645.8882 651.42145 2495.5125 3752511
1663.6769 652.26575 2498.7468 3160374
1698.4126 659.6767 2527.1372 2962738
1701.5607 654.79523 2508.4368 2962995
1730.4929 659.83447 2527.7417 3291703
1746.3301 659.83447 2527.7417 3423032
1757.563 658.11047 2521.1372 3358523
1775.5897 658.93835 2524.3088 3358010
1805.1008 663.97607 2543.6077 3358009
1820.5996 663.81653 2542.9963 3423546
1832.2224 662.25867 2537.0286 3620155
1847.7645 662.13214 2536.5437 3356983
1863.1606 661.95593 2535.8687 3225397
1881.1826 662.7077 2538.7485 3225397
1904.229 665.2019 2548.3037 3356983
1926.7635 667.47748 2557.021 3422776
1942.8688 667.50659 2557.1326 3093811
1958.8899 667.50659 2557.1326 3159604
1975.0101 667.54004 2557.2607 3225397
1992.1489 667.91449 2558.6951 3093811
2008.1801 667.91449 2558.6951 3093811
2033.6539 671.03027 2570.6313 3422776
2066.301 676.44537 2591.376 3488569
2064.4524 670.57123 2568.8728 3422776
2086.7505 672.57056 2576.532 3356983
2108.8945 674.49005 2583.8853 3488569
2092.4739 664.13995 2544.2354 3751741
2147.2876 676.38489 2591.144 4146499
2156.8296 674.29254 2583.1287 4080706
2176.874 675.49048 2587.7178 3817534
2185.2336 673.07159 2578.4514 3620155
2207.2109 674.85187 2585.2712 3356983
2227.1094 675.97516 2589.5745 3224884
2240.8018 675.21216 2586.6516 3224884
2257.0081 675.21216 2586.6516 3093298
2265.7444 672.99341 2578.1519 3093298
2288.1345 674.83289 2585.1987 3093298
2304.3315 674.83289 2585.1987 3093298
2314.5188 673.08521 2578.5037 3027505
2347.7322 678.01154 2597.3755 2895919
2355.658 675.61737 2588.2039 2961198
2377.8225 677.31183 2594.6951 2961198
2388.6069 675.76373 2588.7646 3553849
2384.2703 669.98737 2566.636 3619642
2407.0835 671.86652 2573.835 3685435
2446.646 678.36462 2598.7283 3751228
2451.7983 675.29932 2586.9854 3685435
2470.7458 676.04877 2589.8564 3685948
2480.1865 674.20422 2582.7903 3817534
2493.6401 673.46729 2579.9673 4146499
2510.116 673.55096 2580.2878 4146499
2526.0969 673.50153 2580.0984 3751740
2532.4985 670.91498 2570.1897 3554364
2541.9922 669.17505 2563.5242 3488571
2554.2861 668.18951 2559.7488 3422778
2568.1631 667.62787 2557.5972 3488571
2579.0454 666.29944 2552.5081 3488571
2595.0376 666.29944 2552.5081 3554364
2611.4277 666.40094 2552.897 3422778
nan nan nan 16777215
nan nan nan 16777215
nan nan nan 16777215
nan nan nan 16777215
nan nan nan 16777215
nan nan nan 16777215
nan nan nan 16777215
nan nan nan 16777215
nan nan nan 16777215
-2160.9971 628.25659 2350.6499 4014913
-2177.1897 637.30762 2384.5146 3817534
-2164.2949 637.91034 2386.7698 3817534
-2147.731 637.43237 2384.9817 3883327
-2128.4658 636.14056 2380.1482 4080706
-2119.9841 638.07605 2387.3899 4146499
-2100.6016 636.73486 2382.3716 4409671
-2089.8213 638.00049 2387.1072 4541257
-2072.0884 637.14667 2383.9126 4409671
-2062.1245 638.68665 2389.6743 4344392
-2049.9451 639.55792 2392.9343 4278855
-2038.5569 640.69067 2397.1726 4147269
-2023.538 640.69067 2397.1726 4015683
-2019.9808 644.34686 2410.8525 3752511
-1996.8381 641.76361 2401.187 3686718
-1981.7939 641.76361 2401.187 3949890
-1973.9725 644.12042 2410.0051 3818304
-1978.6382 650.61957 2434.322 3357753
-1961.0603 649.84875 2431.438 3291960
-1939.6321 647.78003 2423.6978 3226424
-1922.6984 647.19147 2421.4956 3226680
-1912.5378 648.89154 2427.8564 3753024
-1914.4196 654.73743 2449.729 3950403
-1899.652 654.93768 2450.4783 3950403
-1875.1593 651.76099 2438.5925 4081989
-1872.413 656.15265 2455.0242 3884867
-1857.0316 656.15265 2455.0242 3884610
-1829.608 651.86224 2438.9714 4016196
-1820.7623 654.17432 2447.6223 4213575
-1792.245 649.39783 2429.751 4081989
-1776.9185 649.36005 2429.6096 4213575
-1770.469 652.59369 2441.7083 4805712
-1750.5077 650.85986 2435.2212 4937298
-1742.1029 653.43024 2444.8381 4937298
-1726.7853 653.43024 2444.8381 4279368
-1698.5508 648.4986 2426.3865 4081989
-1688.5312 650.49518 2433.8564 4081989
-1676.9204 651.90948 2439.1482 4081988
-1661.8959 652.01044 2439.5261 4147782
-1651.5793 653.9776 2446.8862 4082245
-1636.5027 654.0791 2447.2659 4279111
-1623.41 654.98285 2450.6475 4344904
-1598.4142 651.05566 2435.9536 4278855
-1596.1505 656.40112 2455.9539 4081220
-1579.8193 656.00922 2454.4875 3818304
-1547.1655 648.76501 2427.3831 3686718
-1527.9199 647.0553 2420.9861 3620925
-1500.6644 641.88519 2401.6418 3555132
-1487.6475 642.76227 2404.9236 3489596
-1466.6602 640.17841 2395.2559 3489339
-1456.2698 642.21436 2402.8735 3555132
-1448.2701 645.35809 2414.636 3621181
-1436.8271 647.01776 2420.8457 3818304
-1410.6909 642.02563 2402.1675 3752511
-1396.4406 642.39368 2403.5444 3752511
-1384.8083 643.98724 2409.5068 3884097
-1363.629 641.1272 2398.8059 3555132
-1353.4183 643.41797 2407.377 3489339
-1343.3619 645.83453 2416.4185 3489339
-1335.9752 649.60425 2430.5232 3160374
-1305.2488 641.98138 2402.002 3094581
-1288.6338 641.20239 2399.0872 3225653
-1268.5206 638.64374 2389.5139 3422519
-1253.5071 638.62207 2389.4329 3422776
-1250.1786 644.62506 2411.8933 3422776
-1231.6008 642.8158 2405.1238 3291190
-1211.7372 640.28223 2395.6443 3488569
-1193.4622 638.53503 2389.1072 3685948
-1189.5695 644.53613 2411.5605 3685948
-1179.703 647.41327 2422.3254 3817534
-1170.6287 650.80579 2435.0188 4014913
-1156.3553 651.3595 2437.0903 4212292
-1144.5468 653.33484 2444.4812 3159603
-1129.7765 653.65021 2445.6614 2830895
-1119.2778 656.47974 2456.248 3226167
-1110.7976 660.58838 2471.6208 3423546
-1092.3124 658.77924 2464.8518 3357753
-1072.6821 656.21771 2455.2676 3620925
-1055.0895 654.84625 2450.1365 3489339
-1040.6783 655.43811 2452.3508 3291960
-1025.5491 655.58862 2452.9141 3226167
-1006.418 653.14667 2443.7773 3226680
-994.31952 655.26379 2451.6985 3753024
-979.82037 655.84045 2453.8562 3424315
-969.59167 659.33942 2466.9478 3489852
-955.44922 660.24725 2470.3445 4279368
-936.3172 657.6803 2460.74 3950403
-919.84229 656.92493 2457.9138 3884610
-905.1618 657.44727 2459.8682 4213575
-897.89294 663.46423 2482.3809 3687231
-887.26483 667.1673 2496.2361 3489852
-876.53101 670.92242 2510.2861 4081989
-857.92212 668.67682 2501.884 4147782
-842.24713 668.67682 2501.884 4016196
-833.82593 674.5451 2523.8406 4147782
-821.39539 677.33392 2534.2751 4279368
-806.4115 678.08588 2537.0884 3884354
-782.25635 671.00104 2510.5803 3752511
-768.22461 672.4873 2516.1411 4015683
-751.91077 671.99628 2514.304 3753024
-734.90338 670.85114 2510.0193 3621695
-712.44366 664.56989 2486.5178 4147782
-691.79144 659.73163 2468.4153 5068884
-674.52625 657.97595 2461.8462 4805712
-667.8324 666.69141 2494.4556 4674125
-659.51007 674.15991 2522.3994 4081735
-648.17938 678.84448 2539.9268 3884611
-634.48206 681.22382 2548.8291 4476748
-621.86731 684.9184 2562.6526 4936788
-596.22565 674.08087 2522.1035 5068630
-582.37561 676.34753 2530.5842 5266010
-562.1189 671.09229 2510.9216 4674129
-546.83771 671.64563 2512.9919 3686975
-530.3736 670.7359 2509.5881 4279368
-515.67682 672.07373 2514.5938 4344905
-499.52618 671.5415 2512.6023 4016453
-480.82098 667.42859 2497.2136 3687231
-464.53598 666.51147 2493.7822 3884610
-447.2132 663.98969 2484.3469 4279368
-433.14777 666.29681 2492.979 4476234
-418.81497 668.34979 2500.6604 3620925
-402.34949 667.02667 2495.71 4015940
-386.03961 665.86505 2491.3635 3555132
-373.65366 671.65887 2513.0415 4212292
-356.23096 668.5105 2501.2617 4278085
-337.65472 662.80792 2479.9253 3883327
-320.85098 660.20245 2470.1768 3751741
-305.37457 660.20245 2470.1768 4080450
-289.56793 659.45044 2467.363 3555132
-272.98026 656.7345 2457.2014 3620925
-257.63535 656.86261 2457.6807 3555132
-242.46754 657.48718 2460.0176 3555132
-229.16547 663.59912 2482.8857 3620925
-213.91815 664.55829 2486.4744 3949890
-196.22209 657.46326 2459.928 4081732
-179.62878 653.16858 2443.8594 4344905
-164.60927 654.32941 2448.2024 3884610
-150.21443 658.46704 2463.6836 3818817
-134.72214 658.19073 2462.6499 4344648
-118.85855 655.79437 2453.6838 4213062
-103.61031 656.58551 2456.6438 3752768
-88.253555 656.84521 2457.6155 3160374
-73.105377 659.09497 2466.0332 2963251
-57.654915 659.09497 2466.0332 3160630
-41.641998 650.31128 2433.1687 3423546
-25.8668 637.23877 2384.2571 3423546
-10.82766 631.34784 2362.2158 3291960
3.9994824 635.6593 2378.3474 3489339
19.065525 641.20715 2399.105 3555132
34.096661 641.20715 2399.105 4015683
48.679436 635.35516 2377.2097 4278855
64.26387 642.25586 2403.0288 3489339
80.6633 653.13593 2443.7371 3423546
95.687325 651.18457 2436.436 3818304
110.3331 647.55017 2422.8376 3423546
125.51293 647.55017 2422.8376 3028788
140.71394 647.64764 2423.2024 3094069
156.38939 649.69708 2430.8706 3159861
172.08357 651.45374 2437.4431 3094581
188.5074 655.46118 2452.437 3423546
204.25391 656.68677 2457.0227 3489339
219.85428 657.30377 2459.3313 3555132
235.63423 658.34161 2463.2144 3226167
252.05252 660.92572 2472.8831 3226167
268.32678 662.8548 2480.1006 3357753
283.86539 662.8548 2480.1006 3423546
297.95377 659.64417 2468.0879 3357753
318.12424 669.55109 2505.1553 3160374
335.91214 673.7478 2520.8574 2502444
343.98526 658.9574 2465.5183 2568237
358.38818 657.04279 2458.3547 2634030
373.41611 656.38458 2455.8921 2831409
389.69278 657.88672 2461.5122 2831409
405.1149 657.88672 2461.5122 2962995
420.14441 657.2724 2459.2139 2962995
435.55212 657.2724 2459.2139 2765873
448.95319 654.34766 2448.2708 2831409
463.12589 652.7038 2442.1201 2699823
481.29651 656.6192 2456.7698 2436908
493.12616 651.90924 2439.1472 2830382
506.52042 649.48865 2430.0906 2896432
526.29224 655.14832 2451.2666 2699053
538.73175 651.61835 2438.0591 2896432
553.04987 650.49268 2433.8472 3093811
563.47015 644.96582 2413.1682 2962482
565.39099 630.25317 2358.1204 2962225
590.23065 641.1875 2399.0315 3159604
613.10516 649.49695 2430.1216 3028018
629.6701 650.88147 2435.302 3093811
650.44312 656.44751 2456.1274 2962995
668.36823 658.94849 2465.4851 2963252
686.42761 661.46582 2474.9038 3555389
699.56732 659.23596 2466.5605 3621181
712.36957 656.79132 2457.4138 3489339
730.54059 659.29523 2466.7825 3555132
745.14142 658.54022 2463.9575 3489339
763.7702 661.30341 2474.2961 3555132
782.94672 664.42145 2485.9624 3686718
797.09863 663.23712 2481.531 3949890
804.65704 656.7168 2457.135 4213062
820.72797 657.2583 2459.1611 4147269
835.42847 656.7027 2457.0823 4081476
850.51752 656.46692 2456.2002 3949890
867.98804 658.0451 2462.105 4015940
883.41382 658.0451 2462.105 3884097
897.80878 657.29034 2459.281 3291960
918.47235 661.073 2473.4338 2831409
950.59656 672.84192 2517.468 4278855
963.8595 671.09454 2510.9299 4344648
960.49066 658.00916 2461.9705 3949890
980.39465 661.02911 2473.2698 3752511
1001.705 664.88855 2487.71 3818561
1026.8276 671.1214 2511.0305 3752511
1041.2222 670.26019 2507.8083 4015683
1048.8252 665.11768 2488.5674 3555132
1059.9689 662.33838 2478.1685 3423546
1078.9231 664.44928 2486.0667 3686718
1092.9127 663.48621 2482.4631 4015683
1104.2626 660.97021 2473.0493 3950147
1119.7108 660.94281 2472.947 3949890
1121.4556 652.93787 2442.9961 3884097
1139.2854 654.38751 2448.4199 3752511
1154.6256 654.38751 2448.4199 4213062
1163.9165 651.00409 2435.7607 3949890
1186.8229 655.2251 2451.5537 3752511
1200.0524 654.06403 2447.2097 3752511
1221.7827 657.50708 2460.0918 3620925
1242.5837 660.37042 2470.8052 3489339
1258.0642 660.37042 2470.8052 3555132
1266.1519 656.53711 2456.4626 3555132
1275.3488 653.36407 2444.5908 3489339
1302.7096 659.46136 2467.4041 3686718
1318.1686 659.46136 2467.4041 3752511
1328.9407 657.14368 2458.7324 3357753
1335.1368 652.6424 2441.8904 3160117
1346.5616 650.76996 2434.8848 3356983
1361.8915 650.80554 2435.0178 3422776
1370.6024 647.71246 2423.4451 3554362
1381.5398 645.72772 2416.019 3422776
1391.6187 643.38922 2407.2693 3422776
1403.5713 641.95776 2401.9136 3620155
1439.2804 651.30707 2436.8943 3225397
1454.7788 651.41028 2437.2805 3094068
1465.4933 649.39148 2429.7271 2962225
1479.1984 648.72583 2427.2363 3291703
1489.274 646.49811 2418.9014 3357753
1499.8208 644.51776 2411.4917 3357753
1514.9296 644.51776 2411.4917 3489339
1533.9796 646.17798 2417.7036 3555132
1563.1716 652.03619 2439.6223 3686718
1555.165 642.41479 2403.6235 4015683
1569.1184 641.96228 2401.9304 4542027
1589.2389 644.01752 2409.6201 3949890
1645.3885 660.49701 2471.2788 2962738
1660.8718 660.49701 2471.2788 2830640
1659.9789 654.04456 2447.1367 3422776
1679.22 655.57074 2452.8469 3225910
1694.3125 655.46411 2452.4482 3290676
1709.4011 655.35815 2452.0515 3290933
1729.0756 656.99634 2458.1812 3356470
1750.8942 659.41321 2467.2239 3356727
1767.2753 659.75781 2468.5132 3488569
1782.3934 659.62915 2468.0317 3554362
1794.9598 658.56641 2464.0554 3488569
1810.3979 658.56641 2464.0554 3422776
1825.4061 658.41138 2463.4753 3291190
1841.0809 658.49731 2463.7969 3093811
1861.1229 660.13086 2469.9089 2962225
1876.5977 660.13086 2469.9089 3291190
1893.8322 660.74481 2472.2061 3225397
1916.5681 663.25269 2481.5894 3291190
1930.9879 662.86542 2480.1404 3291190
1942.8419 661.61066 2475.4456 3225397
1963.8793 663.47809 2482.4329 3225397
1987.8652 666.30469 2493.0085 3488569
2001.8743 665.7691 2491.0046 3291190
2015.03 664.96027 2487.9783 3356983
2051.114 671.672 2513.0906 3422776
2066.8591 671.672 2513.0906 3488569
2064.1719 665.72711 2490.8477 3685948
2098.1035 671.59314 2512.7957 3751741
2107.9353 669.71497 2505.7683 3620155
2111.7668 665.97223 2491.7646 3422262
2139.6934 669.82733 2506.1887 3487799
2155.3953 669.82733 2506.1887 3356470
2181.6812 673.09271 2518.4062 3356470
2210.4033 677.05737 2533.2402 2961712
2216.1135 673.9671 2521.6777 2764333
2220.9434 670.65472 2509.2844 2830126
2232.1709 669.30725 2504.2429 3093298
2248.874 669.60883 2505.3713 2961969
2264.4504 669.5733 2505.2383 2961712
2283.6292 670.59601 2509.0647 3290420
2308.1736 673.16956 2518.6938 3816507
2319.5862 671.90436 2513.96 3619899
2327.1025 669.53528 2505.0959 3685435
2338.5537 668.32239 2500.5579 3685435
2411.5461 684.59613 2561.4468 3882814
2418.9543 682.15961 2552.3303 4277572
2408.0642 674.62866 2524.1531 4211779
2414.1897 671.93195 2514.0632 3751741
2425.8435 670.79883 2509.8237 3554362
2441.6636 670.82507 2509.9216 3554362
2460.6145 671.70557 2513.2163 3685948
2477.792 672.09381 2514.6689 3225400
2499.8914 673.80383 2521.0669 3093813
2500.7415 669.80084 2506.0896 3028020
2500.6746 665.60382 2490.3862 3159606
2509.2803 663.75281 2483.4607 3159606
2525.8708 664.02393 2484.4749 3225399
2539.4919 663.51569 2482.5735 3225399
nan nan nan 16777215
nan nan nan 16777215
nan nan nan 16777215
nan nan nan 16777215
nan nan nan 16777215
nan nan nan 16777215
nan nan nan 16777215
nan nan nan 16777215
nan nan nan 16777215
nan nan nan 16777215
-2120.604 635.21826 2322.5405 3685948
-2114.1741 637.66779 2331.4968 3620155
-2106.2119 639.6861 2338.8762 3620155
-2084.2075 637.43799 2330.6565 3949120
-2067.1003 636.6665 2327.8357 3883327
-2057.0867 638.08435 2333.0198 3883327
-2043.0909 638.27844 2333.7295 3883327
-2028.6128 638.32361 2333.8945 3948864
-2019.1456 639.95752 2339.8687 3949634
-1999.0271 638.21484 2333.4968 3884097
-1985.7039 638.63196 2335.022 3884354
-1970.4658 638.43488 2334.3013 3949890
-1954.3206 637.93854 2332.4868 4081476
-1953.0446 642.32513 2348.5254 4278855
-1934.3372 641.00189 2343.6873 4476234
-1940.7023 648.03046 2369.3857 3818561
-1933.6053 650.63757 2378.918 3686718
-1925.3376 652.88818 2387.147 3818304
-1904.2646 650.79773 2379.5037 3949890
-1889.0366 650.68768 2379.1011 3884610
-1868.9349 648.88367 2372.5051 4016196
-1857.7708 650.17871 2377.2402 4016453
-1846.2639 651.37372 2381.6096 4016196
-1818.7367 646.89014 2365.2163 4147782
-1813.8276 650.44379 2378.2095 4213575
-1798.9274 650.44379 2378.2095 4213575
-1782.1334 649.75336 2375.6851 4213575
