# .PCD v0.7 - Point Cloud Data file format
VERSION 0.7
FIELDS x y z rgb
SIZE 4 4 4 4
TYPE F F F U
COUNT 1 1 1 1
WIDTH 1268
HEIGHT 1
VIEWPOINT 0 0 0 1 0 0 0
POINTS 1268
DATA ascii
3878.8657 802.15668 5881.1753 3685948
3935.3384 806.17712 5910.6519 3685948
4009.5259 813.71765 5965.937 3620155
4065.1035 817.37689 5992.7656 3751741
3947.1375 786.39398 5765.6079 3751741
4020.7244 793.79022 5819.835 3751741
4104.0303 802.95496 5887.0283 3685948
4150.0376 804.72406 5899.9985 3620155
4198.2256 806.88104 5915.813 3685948
4235.29 806.88104 5915.813 3620155
4434.4478 837.49408 6140.2593 3554362
4419.3525 827.46472 6066.7261 3751741
4417.1968 820.0083 6012.0581 3883327
4391.1074 808.27246 5926.0146 3883327
4408.6895 804.70483 5899.8574 3817534
4380.4238 792.89752 5813.29 3685948
4371.647 784.78357 5753.8008 3751741
4401.2012 783.6272 5745.3228 3817534
4395.5889 776.27887 5691.4473 3883327
4386.835 768.4986 5634.4043 3949120
4312.1182 749.37915 5494.2261 3817791
4320.1748 744.83337 5460.8979 3883327
4281.5835 732.3797 5369.5913 3817534
4315.2251 732.3797 5369.5913 3817534
4156.3481 699.95813 5131.8857 3948864
4173.1348 697.39014 5113.0581 3883071
4214.1904 698.88623 5124.0269 4014143
4246.2944 698.88623 5124.0269 3948864
4191.4019 684.67523 5019.8364 4014400
3808.0845 617.42645 4526.7881 3948864
nan nan nan 16777215
nan nan nan 16777215
nan nan nan 16777215
3483.4248 548.44861 4021.0632 3288880
nan nan nan 16777215
nan nan nan 16777215
nan nan nan 16777215
4111.874 629.19293 4613.0566 3685178
4405.3906 669.40118 4907.8516 3816250
4430.3228 668.5235 4901.4165 3685178
4595.0913 688.6134 5048.71 3751228
4646.6611 691.58087 5070.4663 3817021
4674.3281 690.97467 5066.022 4014400
4706.0688 690.97467 5066.022 4014400
4675.0928 681.828 4998.9609 3948607
4644.748 672.89453 4933.4634 4014400
4678.9019 673.36145 4936.8867 4014400
4766.4473 681.45551 4996.23 4080193
4867.0889 691.30408 5068.437 4080450
4958.7734 699.76111 5130.4414 4014400
5118.8477 717.69775 5261.9478 4014401
5177.8423 721.32361 5288.5312 3882816
5208.0913 720.92419 5285.603 4014402
5229.2437 719.27863 5273.5381 3948609
5313.1445 726.23053 5324.5073 3882816
5346.5039 726.23053 5324.5073 3883073
5388.7676 727.4325 5333.3198 3882816
5443.0259 730.22876 5353.8213 3948609
5541.8271 738.92999 5417.6162 3948609
nan nan nan 16777215
nan nan nan 16777215
nan nan nan 16777215
nan nan nan 16777215
nan nan nan 16777215
nan nan nan 16777215
-4290.7725 652.34668 4573.8242 2435630
-4319.5098 661.13116 4635.415 2369836
-4386.668 675.95502 4739.3501 2699058
-4429.9609 687.27838 4818.7422 2962228
-4512.9375 704.95599 4942.686 3028020
-4603.6636 724.09692 5076.8892 3093813
-4629.0366 733.15332 5140.3867 2962484
-4683.1235 746.9162 5236.8833 2896434
-4778.397 767.48871 5381.1235 2830898
-4760.2266 770.00305 5398.7529 2764848
-4749.7397 773.80518 5425.4106 3028020
-4627.4956 759.32397 5323.8779 3488571
-4743.1094 783.9458 5496.5098 3488058
-4646.3965 773.57751 5423.8145 3159094
-4494.439 753.79108 5285.085 3291193
-4582.9229 774.33612 5429.1333 3817535
-4580.7144 779.75043 5467.0947 3883327
-4608.5723 790.40289 5541.7827 3883327
-4520 781.09686 5476.5352 4014913
-4498.1299 783.26343 5491.7261 3949377
-4485.1177 787.0177 5518.0483 4014913
-4508.2656 797.22473 5589.6133 3883327
-4481.0767 798.62048 5599.3994 3685948
-4445.9946 798.62048 5599.3994 3554362
-4431.5112 802.34991 5625.5479 3488569
-4408.5244 804.58734 5641.2349 3554362
-4356.395 801.49915 5619.5825 3685948
-4347.9395 806.46124 5654.3735 3620155
-4328.374 809.42737 5675.1699 3685948
-4309.9912 812.66559 5697.874 3817534
-4283.3262 814.38318 5709.917 3817534
-4257.168 816.22693 5722.8438 3751741
-4224.042 816.75464 5726.5439 3685948
-4182.25 815.60144 5718.4585 3949120
-4151.4639 816.5932 5725.4121 3884097
-4105.0674 814.50494 5710.7705 3949634
-4057.6345 812.17242 5694.4165 3884097
-4021.9575 812.17242 5694.4165 3884354
-3957.6421 806.33765 5653.5068 3884354
-3894.8003 800.70038 5613.9824 3752511
-3832.6194 795.0976 5574.6992 3818304
-3686.4368 771.80481 5411.3853 3686718
-3509.6653 741.61597 5199.7212 3686974
-3477.0876 741.61597 5199.7212 3555132
-3439.3857 740.51276 5191.9863 3686718
-3406.8564 740.51276 5191.9863 3555132
-3334.5659 731.78699 5130.8071 3686718
-3220.8135 713.70374 5004.019 3949634
-3101.7961 694.08685 4866.4785 3884353
-2954.4351 667.67505 4681.2964 3884610
-2891.4141 659.98486 4627.3779 4016196
-2777.5466 640.41522 4490.1685 3884867
-2668.9014 621.6615 4358.6797 4213573
-2603.0876 612.59985 4295.1455 5134932
-2514.7073 597.9826 4192.6592 5200725
-2450.1426 588.77985 4128.1353 5069395
-2421.8406 588.18774 4123.9839 5003602
-2393.9741 587.68976 4120.4927 4872016
-2452.9934 608.7428 4268.1025 4806480
-2482.0701 622.74738 4366.2935 3753278
-2491.4497 632.06702 4431.6367 3621179
-2578.927 661.633 4638.9336 3621435
-2624.1179 680.9007 4774.0259 3555642
-2654.3611 696.68927 4884.7246 3555130
-2718.2771 721.78729 5060.6958 3686972
-2752.989 739.63171 5185.8091 3686715
-2740.8262 745.15826 5224.5576 3423544
-2842.2471 782.0722 5483.3735 3160371
-2802.2803 780.50909 5472.4146 3291959
-2765.7646 779.88068 5468.0078 3423546
-2733.8711 780.55585 5472.7422 3489339
-2692.7959 778.59351 5458.9834 3489339
-2668.5654 781.51385 5479.459 3555132
-2512.4155 745.37305 5226.0635 3686718
-2479.6726 745.37305 5226.0635 3949890
-2452.4197 747.04529 5237.7881 3949890
-2419.6033 747.04529 5237.7881 3884354
-2390.3821 748.17053 5245.6777 3949890
-2337.8083 741.91614 5201.8257 4081476
-2250.9512 724.45111 5079.3726 4081476
-2178.5476 711.20343 4986.4888 4278598
-2099.856 695.48773 4876.3008 4212293
-1940.5579 652.21637 4572.9106 4278085
-1765.6259 602.31488 4223.0342 4343878
-1680.8423 582.1156 4081.4099 4212036
-1576.6057 554.45105 3887.4443 2369575
-1470.9095 525.39697 3683.7366 527628
-1447.8297 525.39697 3683.7366 329992
-1438.1215 530.32788 3718.3091 329992
-1441.3293 540.2627 3787.9651 659214
-1450.5756 552.83136 3876.0881 2567467
-1410.726 546.7984 3833.7893 4343878
-1455.2943 573.84375 4023.4136 4212036
-1513.4303 607.2868 4257.894 4015683
-1469.4731 600.22852 4208.4058 4147269
-1464.4285 609.09698 4270.5859 4081476
-1470.442 622.98071 4367.9292 4081476
-1443.0757 622.98071 4367.9292 3950660
-1399.7283 615.94836 4318.623 3884610
-1391.9436 624.5965 4379.2578 3884610
-1364.5061 624.5965 4379.2578 3884610
-1356.0145 633.44672 4441.3101 3884867
-1335.2421 636.81085 4464.897 3884867
-1414.2029 688.9021 4830.1265 3950403
-1459.1868 726.35834 5092.7451 3884610
-1458.6621 742.32947 5204.7241 3818817
-1442.3689 750.82275 5264.2734 3884867
-1414.552 753.57452 5283.5669 3950403
-1407.9945 768.05511 5385.0952 4016196
-1381.91 772.33325 5415.0908 4147525
-1354.8522 776.26917 5442.6865 4279368
-1295.6691 761.52667 5339.3218 4081989
-1262.2166 761.52667 5339.3218 3950403
-1227.9983 761.052 5335.9941 3818817
-1105.7058 704.43939 4939.0635 3752510
-1181.8109 774.60382 5431.0103 3555134
-1107.4486 747.38275 5240.1543 3686719
-1149.9635 799.78503 5607.5645 3554363
-1120.8925 804.13403 5638.0566 3488570
-1047.5421 775.96625 5440.5625 3489084
-1041.6921 797.58612 5592.147 3554620
-966.88892 766.07843 5371.2358 3225656
-814.79968 668.85571 4689.5742 3094070
-851.94434 725.50891 5086.7891 2501932
-809.70563 716.33606 5022.4756 2567981
-778.26025 716.35626 5022.6172 2567981
-734.61023 704.67102 4940.688 2567981
-712.73816 713.76703 5004.4629 2567982
-686.36609 718.98627 5041.0566 3225911
-643.89935 707.03625 4957.271 3488828
-625.5528 721.70239 5060.1006 3686208
-593.84967 721.70239 5060.1006 3358011
-569.65466 731.34149 5127.6836 3094583
-537.5282 731.34149 5127.6836 3094583
-529.77808 766.61548 5375.0015 3357755
-497.50073 768.77686 5390.1553 3555133
-447.10193 741.21106 5196.8823 3752512
-413.13644 738.69818 5179.2637 4081476
-385.18408 747.42499 5240.4502 4344392
-354.11008 751.15637 5266.6123 4278855
-326.69589 764.2157 5358.1758 4081988
-277.76559 724.17108 5077.4092 3950147
-263.91245 777.04657 5448.1372 4081990
-236.15346 798.60602 5599.2979 4213319
-201.64072 800.86426 5615.1313 4213319
-167.82191 807.41577 5661.0664 4081989
-132.35358 807.41577 5661.0664 4081989
-90.377396 753.18127 5280.8096 4081733
-57.492855 755.82849 5299.3701 4147269
-25.407505 790.58038 5543.0273 4213062
9.3221245 790.6521 5543.5303 3949890
42.43264 761.55194 5339.499 3949890
78.798096 790.7735 5544.3813 3818561
113.81077 792.69171 5557.8306 3555132
148.63229 792.69171 5557.8306 3357753
184.3721 796.65948 5585.6499 3423546
222.44699 807.84149 5664.0508 3686718
249.35085 780.95917 5475.5698 3489339
283.99075 781.87811 5482.0127 3423546
328.83707 807.66705 5662.8276 3160374
356.10739 789.46808 5535.2285 2962995
393.07605 794.09167 5567.6465 3160374
423.89032 786.54205 5514.7134 3226167
444.4743 762.57837 5346.6958 3160374
459.26254 732.72693 5137.397 3226167
498.54483 743.30499 5211.5635 3226167
519.35419 726.73352 5095.3755 3357753
554.26038 730.66467 5122.938 3357753
567.07397 706.63574 4954.4629 3357753
605.60608 715.48566 5016.5127 3226167
624.93994 701.89996 4921.2588 3357753
661.16254 707.66833 4961.7031 3291960
708.38287 724.16156 5077.3423 3423546
744.14294 728.0249 5104.4297 3489339
766.39905 718.90289 5040.4722 3489339
763.99811 688.28918 4825.8291 3291959
809.32208 701.36511 4917.5088 3226170
844.75903 705.22803 4944.5933 3094586
885.24811 712.88617 4998.2866 1317149
912.06683 709.38837 4973.7627 462615
925.87115 696.3338 4882.2329 791584
916.29016 667.08899 4677.1875 2897477
912.76642 643.92993 4514.8115 5266027
876.66638 599.87231 4205.9087 4673890
879.66547 584.3595 4097.1431 4607838
903.74249 583.33142 4089.9343 3422533
915.34564 574.53058 4028.229 593176
982.60828 600.20013 4208.2065 132369
1057.6914 629.1803 4411.3965 330001
1095.0464 634.81287 4450.8887 657684
1131.3629 639.57867 4484.3032 527379
1174.0511 647.62823 4540.7417 527121
1292.6958 696.20465 4881.3271 461840
1382.6412 727.43646 5100.3042 1448734
1419.4882 729.95209 5117.9419 3554366
1540.9885 774.92682 5433.2749 3884099
1601.3274 787.86548 5523.9922 3884354
1637.8575 788.79047 5530.4775 3819074
1699.9331 801.72485 5621.165 3687488
1749.134 808.18555 5666.4629 3753280
1784.6362 808.18555 5666.4629 3818817
1891.4995 839.87158 5888.6245 3818817
1934.9312 842.71887 5908.5884 3753281
1993.1796 851.79126 5972.1978 3687487
2041.5131 856.37024 6004.3027 3686974
2022.199 832.92017 5839.8862 3686975
2013.3008 814.5177 5710.8599 3686975
2047.0217 813.69904 5705.1201 3686974
2096.2383 818.9624 5742.0234 3489596
2206.0596 847.32581 5940.8892 3489596
2298.0837 868.02576 6086.0229 3423803
2338.3621 868.82367 6091.6177 3489596
2407.4766 880.13794 6170.9463 3620925
2424.2717 872.26984 6115.7798 3555388
2462.5889 872.26984 6115.7798 3489339
2536.7373 884.76709 6203.4023 3357753
2575.6035 884.76709 6203.4023 3357753
2622.0898 887.34576 6221.4824 3620669
2695.2078 898.72937 6301.2969 3752255
2722.8032 894.82373 6273.9131 3884866
2724.7393 882.71661 6189.0259 3949890
2790.0349 891.1875 6248.418 3949890
2829.1833 891.1875 6248.418 4015683
2828.7224 878.88092 6162.1323 4015683
2860.188 876.69177 6146.7837 3884097
2898.6995 876.69177 6146.7837 3818304
2911.6653 869.06689 6093.3232 3620925
2928.4485 862.76416 6049.1323 3489339
2958.2747 860.41602 6032.6685 3555388
2973.835 854.03009 5987.895 3883583
2962.1177 840.06738 5889.9976 4015170
2910.6008 815.2998 5716.3438 4080963
2908.928 804.9267 5643.6143 4015426
2913.2703 796.4472 5584.1616 4015169
2849.2698 769.70673 5396.6748 3883583
2883.0818 769.70673 5396.6748 3949120
2910.8374 768.10864 5385.4702 3949120
2918.5256 761.31244 5337.8198 4014657
2848.7971 734.70447 5151.2627 4277058
2760.6882 704.00549 4936.0215 3618614
2568.5369 647.7486 4541.5854 2631720
2562.0518 639.03387 4480.4834 2565926
2620.7925 646.60059 4533.5361 2763305
2735.9578 667.77673 4682.0093 2960684
2742.2263 662.20673 4642.9561 3355699
2700.0852 645.18616 4523.6191 3947837
2850.9014 674.1474 4726.6763 4013887
3011.0444 704.69598 4940.8628 3882814
3078.0972 713.05798 4999.4917 3751998
3118.2981 715.09381 5013.7656 3685692
3182.9854 722.64825 5066.7324 3751484
3305.3301 743.01453 5209.5273 3817534
3534.3892 786.73651 5516.0767 3883327
3371.4824 743.20709 5210.8774 3751741
3399.2314 742.13763 5203.3789 3751742
3613.0149 781.3186 5478.0898 3685949
3688.3169 790.09711 5539.6392 3554362
3716.123 788.63257 5529.3706 3620155
3851.4929 809.81128 5677.8618 3685948
3762.4534 783.84998 5495.8384 3685948
3778.2041 779.9931 5468.7964 3751741
3863.7039 790.47546 5542.292 3751741
3887.2415 788.20728 5526.3887 3554362
3924.6909 788.77496 5530.3691 3620155
3967.8918 790.47852 5542.3135 3620155
4017.8708 793.49127 5563.4365 3751741
4053.1948 793.5827 5564.0776 3817534
4046.9443 785.60211 5508.123 3817790
4081.4543 785.60211 5508.123 3751741
4120.6709 786.50043 5514.4214 3620155
4129.9526 781.71771 5480.8882 3488569
4129.4038 775.16858 5434.9702 3620412
4096.6553 762.73132 5347.7686 3620155
4099.8687 757.13721 5308.5459 3751997
4073.3977 746.19531 5231.8286 3817791
4037.2742 733.67401 5144.0376 3883327
4047.7957 729.76044 5116.5981 3751741
4065.6313 727.21667 5098.7632 3751741
4067.7754 721.92767 5061.6802 3685948
4025.0173 708.81317 4969.73 3685948
4001.1875 699.20782 4902.3833 3751997
4022.116 697.51062 4890.4839 3882814
4032.1265 693.96002 4865.5894 3882814
4044.041 690.78809 4843.3496 3817021
3847.1155 652.25562 4573.1855 3882814
3616.5442 608.63074 4267.3164 4145472
3579.4727 597.97125 4192.5796 3750714
3575.103 592.89044 4156.9561 3355956
3510.3542 577.9422 4052.1489 3487798
3504.6582 572.86133 4016.5251 2829868
3478.7837 564.57812 3958.4487 3553335
nan nan nan 16777215
3808.1819 609.34845 4272.3486 3750714
4160.7012 661.10815 4635.2539 3619642
4335.2544 684.06885 4796.2388 3619642
4344.1294 680.75061 4772.9736 3685435
4374.0337 680.75061 4772.9736 3751228
4492.5439 694.44714 4869.0049 3948607
4540.311 697.09729 4887.5859 3882814
4527.0708 690.40808 4840.6851 3948607
4557.3989 690.40808 4840.6851 3882814
4660.4448 701.35126 4917.4116 3882814
4722.4912 706.02124 4950.1548 3685435
4788.2329 711.17926 4986.3193 3685435
4819.4741 711.17926 4986.3193 3751228
4890.8032 717.05676 5027.5283 3817022
5096.2773 742.40057 5205.2227 3751230
5154.4058 746.09399 5231.1182 3751230
5225.3174 751.57941 5269.5786 3685437
5313.1445 759.4137 5324.5073 3619644
5306.3086 753.70435 5284.4771 3619644
5283.7139 745.84131 5229.3467 3619644
5283.5522 741.22229 5196.9614 3619644
5308.8833 740.21423 5189.8936 3685437
nan nan nan 16777215
nan nan nan 16777215
nan nan nan 16777215
nan nan nan 16777215
nan nan nan 16777215
nan nan nan 16777215
-4195.3105 665.70374 4472.0645 3028020
-4245.2007 678.14929 4555.6714 3291191
-4220.8701 678.82672 4560.2222 3488571
-4199.0093 679.91327 4567.5215 3685950
-4327.3457 705.50195 4739.4209 3554364
-4348.6328 713.87103 4795.6426 3488571
-4383.6934 724.6333 4867.9414 3488570
-4384.8452 729.90192 4903.335 3488571
-4460.5542 747.74323 5023.1895 3488571
-4527.71 764.39404 5135.0464 3488571
-4484.4233 762.50433 5122.3516 3554364
-4461.3325 764.04602 5132.7085 3554363
-4407.416 760.29279 5107.4946 3422777
-4448.291 772.95587 5192.5625 3751741
-4402.8813 770.70178 5177.4204 3620154
-4422.3076 779.84778 5238.8613 3620155
-4463.23 792.94965 5326.877 3883327
-4480.2051 801.96228 5387.4219 3949120
-4441.1416 801.00458 5380.9888 4146499
-4373.0825 794.76263 5339.0566 4146499
-4342.3838 795.26672 5342.4429 4014913
-4326.3511 798.48547 5364.0654 3883327
-4297.8433 799.43402 5370.4375 3817534
-4218.4805 790.86353 5312.8628 3554362
-4175.1055 788.95715 5300.0562 3554362
-4149.4468 790.39478 5309.7139 3620155
-4116.1797 790.39478 5309.7139 3685948
-4112.3086 796.08551 5347.9429 3883327
-4072.6572 794.88611 5339.8857 3948864
-3990.418 785.28595 5275.3936 3883070
-3957.366 785.28595 5275.3936 3948863
-3997.5322 799.93738 5373.8193 4080706
-3963.8633 799.93738 5373.8193 4409671
-3859.9722 785.64459 5277.8032 4278085
-3867.877 794.05591 5334.3086 4147526
-3845.6523 796.37457 5349.8848 4278855
-3753.0186 784.02502 5266.9233 4213062
-3689.4258 777.57715 5223.6074 4213062
-3602.3896 766.02869 5146.0273 4147269
-3475.1033 745.63538 5009.0293 4081476
-3394.2568 734.9256 4937.083 4015940
-3360.2891 734.26227 4932.627 4015683
-3349.6079 738.72235 4962.5889 3949890
-3304.3145 735.56097 4941.3516 3752768
-3267.7368 734.29852 4932.8706 3686974
-3141.1489 712.59235 4787.0527 3752767
-3096.332 709.1969 4764.2427 3950146
-3030.9475 700.97858 4709.0337 4213575
-2895.8821 676.32495 4543.4155 4542540
-2805.179 661.6452 4444.8003 4476747
-2708.9795 645.36188 4335.4121 4345418
-2694.9792 648.52936 4356.6904 4213832
-2682.0752 652.02814 4380.1943 4477514
-2540.9756 624.11194 4192.6592 5069909
-2466.5151 612.15137 4112.3105 5069652
-2414.7808 605.63812 4068.5557 5004116
-2400.115 608.38208 4086.9888 4806737
-2374.5088 608.38208 4086.9888 4806480
-2380.1997 616.48822 4141.4448 4806480
-2426.2522 635.34235 4268.1025 4148293
-2493.9751 660.35431 4436.1284 3226678
-2501.4233 669.79095 4499.5215 3029299
-2491.6716 674.78461 4533.0679 3226678
-2527.2815 692.31964 4650.8647 3686972
-2558.2266 708.97101 4762.7251 3752509
-2572.7827 721.4198 4846.354 3752509
-2585.0459 733.51544 4927.6099 3752509
-2539.5664 729.32062 4899.4302 3752509
-2509.9092 729.62268 4901.4595 3686719
-2506.3308 737.6073 4955.0981 3752511
-2502.1594 745.61542 5008.895 3686718
-2410.9385 727.55768 4887.5869 3752511
-2390.2236 730.58594 4907.9302 3752511
-2371.4463 734.29309 4932.834 3752511
-2320.5491 728.02118 4890.7007 3884097
-2319.7329 737.50354 4954.4009 4015683
-2291.8376 738.51715 4961.2104 3884097
-2259.7869 738.20117 4959.0879 3818304
-2191.8357 725.98535 4877.0244 3949890
-2108.8342 708.36871 4758.6792 4015940
-1992.962 679.04694 4561.7012 4147269
-1960.0854 677.56183 4551.7246 4409927
-1886.4585 661.73834 4445.4258 4475464
-1707.2023 607.83234 4083.2961 4475464
-1641.3351 593.27148 3985.4788 3356726
-1569.7845 576.17462 3870.6257 1382937
-1478.4476 551.16486 3702.6152 527628
-1446.1078 547.70245 3679.3555 527371
-1432.4866 551.33228 3703.74 395785
-1429.3842 559.19672 3756.5718 1053972
-1402.5284 557.87634 3747.7014 3159604
-1370.2645 554.32306 3723.8315 4409671
-1437.8275 591.72998 3975.1235 4278085
-1509.1696 632.03827 4245.9067 4147269
-1507.9102 642.84216 4318.4849 4015683
-1441.7456 625.8653 4204.438 4015683
-1452.1777 642.12616 4313.6753 4015683
-1464.2004 659.72046 4431.8701 3950659
-1438.8533 660.83185 4439.3364 3884610
-1391.9436 651.88873 4379.2578 3818817
-1367.6143 653.3736 4389.2329 3884610
-1355.3342 660.79407 4439.082 4081989
-1329.0334 661.54639 4444.1362 3950403
-1307.7618 664.88782 4466.5835 4016453
-1293.8236 672.18542 4515.6069 3884610
-1277.0735 678.31561 4556.7886 3753024
-1280.0088 695.42126 4671.7012 3687231
-1282.349 712.99664 4789.7686 4016196
-1185.1705 674.75513 4532.8701 4345162
-1060.9237 618.84674 4157.2886 5134678
-1034.8771 618.84674 4157.2886 4213576
-1154.9 708.45026 4759.2271 3753025
-1112.14 700.30084 4704.481 3884611
-1056.981 683.68762 4592.8765 3884611
-988.80328 657.48798 4416.8726 4016196
-955.47455 653.61914 4390.8823 4015685
-948.20203 667.87366 4486.6416 4015685
-904.24884 656.37366 4409.3867 4081478
-886.58063 663.82971 4459.4751 4213064
-858.15259 663.45233 4456.9399 4344650
-822.68359 657.4231 4416.4365 4147271
-806.85352 667.21417 4482.2114 3818306
-771.60809 661.07727 4440.9849 4015685
-740.43555 658.1012 4420.9922 3884099
-686.98102 634.31995 4261.2344 3818306
-687.31366 660.28766 4435.6802 3686720
-659.52277 660.28766 4435.6802 3884356
-629.97125 658.44751 4423.3184 4739409
-613.7077 670.96564 4507.4126 4805202
-580.39636 665.15405 4468.3721 4607822
-547.69592 659.48914 4430.3159 3489601
-520.78491 660.5625 4437.5269 4213323
-490.03717 656.61609 4411.0156 4805460
-465.76324 661.39081 4443.0913 4805716
-430.8942 650.771 4371.7495 4674131
-406.84515 656.15985 4407.9507 4673873
-384.99844 666.14423 4475.0234 4476750
-357.25745 666.69739 4478.7397 4608337
-329.45975 667.22998 4482.3174 4871509
-301.37665 667.22998 4482.3174 4543055
-283.87512 693.06439 4655.8677 4411214
-257.25787 700.01172 4702.5386 4411213
-233.5594 717.72559 4821.5371 4476493
-211.92664 747.99335 5024.8696 4411212
-182.39468 756.07837 5079.1831 4279369
-151.98976 763.19733 5127.0068 4279368
-116.53761 741.99609 4984.5811 4081989
-86.99456 756.66858 5083.1479 4213318
-54.762302 751.38928 5047.6831 4147526
-23.069403 749.19397 5032.9351 4344392
8.7537823 774.89026 5205.5576 4278598
41.055389 769.03058 5166.1934 4147269
73.926903 774.3064 5201.6353 3752511
106.97152 777.61212 5223.8428 3686718
139.7005 777.61212 5223.8428 3686718
172.66733 778.68463 5231.0479 3752254
203.59167 771.6734 5183.9473 3818304
232.88048 761.24506 5113.8921 3949890
267.95624 769.9679 5172.4902 3620925
299.1568 766.87469 5151.7104 3818304
325.75232 753.72858 5063.3979 3752511
357.47604 753.72858 5063.3979 3489339
385.25415 746.08734 5012.0654 3226167
416.151 745.18256 5005.9873 3226167
446.17105 742.94452 4990.9526 3226167
468.53214 729.0816 4897.8242 3357753
487.36404 711.76886 4781.5205 3555132
524.04285 721.01617 4843.6426 3423546
548.87457 713.84332 4795.4565 3423546
579.69598 714.80066 4801.8877 3291960
605.21582 709.44897 4765.936 3357753
639.12396 713.97113 4796.3149 3357753
666.93073 711.57727 4780.2334 3291960
703.89661 718.74146 4828.3613 3226167
717.55988 702.50159 4719.2651 3160374
722.15161 679.01752 4561.5039 3094326
762.0285 689.23596 4630.1494 3094325
798.54761 695.7793 4674.106 2831413
873.83228 734.44153 4933.8311 1712675
871.74585 707.65442 4753.8809 1252125
890.98132 699.37396 4698.2544 2174003
903.33459 686.39374 4611.0557 6059410
831.42053 612.17224 4112.4507 8364222
845.17938 603.59735 4054.8462 7903412
876.5434 607.729 4082.6018 7639470
903.22083 608.46906 4087.5735 5464437
915.34564 599.63519 4028.229 922395
927.466 591.2724 3972.0496 264211
1069.3025 663.88153 4459.8232 330003
1105.1085 668.63953 4491.7866 526864
1137.4175 671.0979 4508.3013 527122
1187.1239 683.45319 4591.3018 461585
1284.984 722.29108 4852.207 462096
1334.0698 732.55133 4921.1333 988440
1364.9022 732.55133 4921.1333 2831411
1498.1664 786.31256 5282.2905 3489597
1522.5062 781.81665 5252.0879 3489596
1562.9664 785.61377 5277.5962 3686718
1611.403 793.17969 5328.4224 3489595
1658.2701 799.6817 5372.1016 3555132
1697.3953 802.26581 5389.4609 3489339
1749.2517 810.64905 5445.7783 3555388
1750.1907 795.56653 5344.4565 3489339
1792.1436 799.34363 5369.8306 3555132
1782.9891 780.60632 5243.957 3621181
1903.9885 818.49829 5498.5078 3555388
1879.7769 793.72864 5332.1104 3489852
2011.713 834.60571 5606.7139 3358522
2050.3933 836.05408 5616.4443 3358265
2088.4919 837.22076 5624.2812 3555645
2189.6702 863.21576 5798.9111 3753280
2213.0166 858.18018 5765.0825 3753024
2301.3787 878.11365 5898.9917 3687230
2283.7725 857.6228 5761.3384 3489852
2315.8098 856.12213 5751.2573 3292729
2339.0818 851.47681 5720.0508 3292473
2391.752 857.5116 5760.5913 3161144
2427.0461 857.2298 5758.6982 3160887
2467.6223 858.79468 5769.2104 3226680
2517.6411 863.55298 5801.1763 3226680
2551.77 862.80328 5796.1401 3357753
2627.2471 875.85907 5883.8462 3620925
2622.3423 862.12714 5791.5972 3620925
2666.5154 864.68463 5808.7783 3555132
2702.9092 864.68463 5808.7783 3489339
2736.844 863.90845 5803.564 3357753
2749.2664 856.45099 5753.4663 3489339
2774.4292 853.10413 5730.9829 3621181
2728.8757 828.37628 5564.8662 3620925
2823.7534 846.36365 5685.7017 3488825
2770.6624 820.1048 5509.2998 3422776
2774.0093 810.992 5448.082 3422776
2741.6111 791.77753 5319.0029 3422776
2746.3862 783.63123 5264.2778 3291190
2745.2407 774.00909 5199.6382 3554362
2795.2786 778.87427 5232.3213 3620155
2810.7327 774.10193 5200.2617 3751741
2813.0679 765.86731 5144.9434 3882814
2762.3386 743.53607 4994.9263 4211265
2706.2834 720.28754 4838.7476 3618615
2578.2185 678.60071 4558.7041 2434341
2575.9041 670.56299 4504.708 2433828
2604.1274 670.56299 4504.708 2697000
2671.6807 680.58185 4572.0127 2894378
2715.2571 684.34509 4597.2935 3092527
2708.8289 675.55859 4538.2676 3816507
2805.9075 692.50024 4652.0781 3882300
2880.1033 703.50415 4726 3882814
2942.8584 711.51794 4779.835 3686205
2955.6482 707.41144 4752.2485 3751228
3033.949 718.91003 4829.4937 3817021
3037.9451 712.74854 4788.1021 3620412
3054.1885 709.5528 4766.6338 3685948
3203.4468 737.02191 4951.166 3620155
3288.1052 749.24414 5033.272 3685948
3241.6189 731.6347 4914.9756 3685948
3374.2192 754.39624 5067.8828 3685948
3501.2214 775.49347 5209.6099 3620155
3569.8103 783.38232 5262.606 3554362
3529.4983 767.44763 5155.5596 3554362
3565.5325 768.25195 5160.9629 3620155
3746.2642 799.93903 5373.8306 3356983
3793.022 802.70911 5392.439 3291190
3824.3943 802.203 5389.0391 3356983
3826.2441 795.56726 5344.4614 3554362
3849.7986 793.52039 5330.7109 3554362
3920.2883 801.09991 5381.6289 3422776
3954.0059 801.09991 5381.6289 3423033
3928.2771 789.15759 5301.4028 3488568
3853.0088 767.547 5156.2271 3422263
3865.2449 763.58221 5129.5928 3487799
3881.5342 760.47711 5108.7329 3488057
3866.1489 751.2677 5046.8662 3553592
3897.7693 751.2677 5046.8662 3488056
3812.8926 728.99445 4897.2388 3554105
3823.0903 725.10913 4871.1382 3620155
3821.7185 719.10846 4830.8267 3685948
3777.2808 705.16223 4737.1387 3685947
3806.9602 705.16223 4737.1387 3685948
3811.925 700.61975 4706.623 3554618
3780.8362 689.57129 4632.4019 3488826
3781.7456 684.48267 4598.2178 3685692
3810.5549 684.48267 4598.2178 3685691
3954.9868 705.09595 4736.6934 3619898
3808.8755 673.98975 4527.7285 3553849
3616.5442 635.22528 4267.3164 3882814
3504.0442 610.94873 4104.2314 3356470
3514.0825 608.23547 4086.0039 3422263
3459.4919 594.45605 3993.4368 6448741
3479.1184 593.53595 3987.2556 7632759
3504.1003 593.53595 3987.2556 7106414
3562.5596 599.16638 4025.0801 5001039
3687.2422 615.77722 4136.668 3816766
3802.8271 630.64722 4236.562 3882300
4029.6211 663.62598 4458.1064 3816764
4102.2007 670.92828 4507.1621 3816765
4173.3433 677.8974 4553.979 3882558
4250.1226 685.68121 4606.269 4014400
4304.3374 689.7442 4633.5635 4014143
4459.3252 709.79279 4768.2461 4014400
4516.9399 714.17889 4797.7109 4080193
4561.439 716.44696 4812.9473 4014144
4712.6318 735.33307 4939.8203 3751228
4695.1753 727.82928 4889.4116 3685435
4729.46 728.39166 4893.1895 3751228
4811.8389 736.30603 4946.3564 3882815
4921.229 748.22601 5026.4326 4014402
5013.1855 757.36047 5087.7964 3948353
5063.2744 760.09454 5106.1631 3816767
5129.4644 765.19617 5140.4346 3817023
5199 770.7301 5177.6104 3817023
5244.0405 772.58649 5190.0815 3817023
5274.2866 772.25391 5187.8472 3751231
5264.335 766.07581 5146.3438 3751230
nan nan nan 16777215
nan nan nan 16777215
nan nan nan 16777215
nan nan nan 16777215
nan nan nan 16777215
nan nan nan 16777215
-4028.1101 665.93262 4293.8345 3488571
-4075.2717 678.25922 4373.3149 3685950
-4080.2034 683.67676 4408.2461 3685950
-4140.9854 698.59021 4504.4058 3554361
-4165.6421 707.57202 4562.3193 3554361
-4160.3579 711.55701 4588.0142 3554361
-4176.3501 719.2619 4637.6938 3488568
-4044.2795 701.3963 4522.499 3554362
-4039.4871 705.508 4549.0107 3488568
-4020.1965 707.12799 4559.4565 3488569
-4031.2278 714.14294 4604.6875 3554362
-4022.9683 717.81677 4628.376 3488568
-3978.782 715.08716 4610.7759 3488569
-3996.5071 723.52588 4665.1875 3356983
-4031.8496 735.302 4741.1182 3356983
-4041.9421 742.61383 4788.2637 3422776
-4205.8594 778.50812 5019.7046 3488569
-4225.3174 788.0022 5080.9209 3356983
-4158.5674 781.44104 5038.6157 3422776
-4160.3384 787.75372 5079.3188 4080706
-4181.2944 797.82458 5144.2544 3949120
-4160.1484 799.95599 5157.9976 3883327
-4105.8369 795.69342 5130.5132 3949120
-4012.2075 783.68378 5053.0767 4014913
-3982.9465 784.15594 5056.1211 4146499
-3951.2683 784.15594 5056.1211 4146499
-3920.7617 784.39032 5057.6323 4080706
-3889.0742 784.39032 5057.6323 3949120
-3817.8948 776.35974 5005.8525 3884097
-3785.6694 776.18304 5004.7129 3883840
-3669.7068 758.6911 4891.9277 3949633
-3642.6497 759.44006 4896.7568 4475721
-3634.1152 764.09619 4926.7788 4475721
-3645.3987 773.03473 4984.4131 4409928
-3615.7034 773.36279 4986.5283 4213062
-3550.439 766.02228 4939.1978 4213062
-3519.4934 766.02228 4939.1978 4147269
-3489.1379 766.15186 4940.0337 4213062
-3357.7625 743.90308 4796.5767 4147269
-3330.3687 744.49731 4800.4082 4015683
-3339.7979 753.40918 4857.8706 4081476
-3318.5698 755.50549 4871.3872 4081476
-3213.9751 738.48523 4761.6431 4081476
-3154.053 731.50684 4716.6475 4147269
-3112.7356 728.75208 4698.8853 4081733
-3012.0649 711.91638 4590.3311 4016196
-2970.7097 708.91077 4570.9512 4016196
-2903.9678 699.72943 4511.7515 4016196
-2811.7749 684.1748 4411.4575 4016196
-2742.3494 673.90619 4345.2471 3753537
-2684.5239 666.31085 4296.2734 4016453
-2657.6062 666.31085 4296.2734 4017223
-2621.197 663.90674 4280.772 4675151
-2492.1765 637.75348 4112.1396 5136216
-2442.3977 631.54376 4072.1006 4808019
-2414.8772 631.01923 4068.7183 4742227
-2390.7471 631.37878 4071.0366 4479312
-2367.8501 632.07544 4075.5283 4413005
-2380.1997 642.2984 4141.4448 4675920
-2354.4077 642.34082 4141.7183 5070166
-2374.001 654.90436 4222.7261 5464923
-2422.9888 675.95142 4358.4346 5003858
-2415.3601 681.50378 4394.2349 4279622
-2403.3372 685.92993 4422.7744 3818815
-2446.4246 706.3717 4554.5801 3555900
-2458.3994 718.20673 4630.8901 3621180
-2448.1919 723.76648 4666.7388 3686716
-2424.3777 725.38959 4677.2041 4015681
-2365.0957 716.31018 4618.6616 4081476
-2370.9541 726.97925 4687.4541 4015683
-2283.2896 708.88025 4570.7549 4015683
-2355.9817 740.73914 4776.1758 3884097
-2321.6016 739.32013 4767.0264 3752511
-2312.1506 745.90631 4809.4932 3752511
-2269.1099 741.68726 4782.2891 3884097
-2223.3818 736.46515 4748.6177 4081476
-2202.4377 739.42206 4767.6836 4015683
-2126.4622 723.73059 4666.5073 3884097
-2091.1748 721.64276 4653.0454 3818304
-2021.8719 707.59149 4562.4448 3818561
-1949.9166 692.19556 4463.1743 3818048
-1891.6434 681.27936 4392.7881 4014913
-1799.4788 657.65448 4240.4585 4409671
-1692.9702 628.00079 4049.2559 4409671
-1627.1761 612.77747 3951.0979 3027505
-1534.6483 586.86053 3783.9897 1317144
-1482.8857 575.96393 3713.7297 724750
-1446.1078 570.63281 3679.3555 593164
-1439.3011 577.14709 3721.3589 330249
-1429.1101 582.49658 3755.8516 1448729
-1384.1809 573.62903 3698.6748 3883327
-1361.0076 573.62903 3698.6748 4278085
-1418.9497 608.4093 3922.9326 4014913
-1447.4706 631.57819 4072.3225 3884097
-1445.2443 641.92181 4139.0166 3686718
-1427.799 645.76031 4163.7666 3752511
-1403.1306 646.414 4167.9814 3884097
-1393.5264 654.16406 4217.9526 3818304
-1376.1195 658.48016 4245.7822 3752768
-1346.2002 656.86102 4235.3423 3752511
-1329.0521 661.53369 4265.4712 3818304
-1304.6432 662.70996 4273.0552 3686974
-1275.2534 661.35236 4264.3018 3489852
-1228.5204 650.74994 4195.939 3358266
-1196.8899 647.85858 4177.2959 3160886
-1176.1219 650.84912 4196.5786 3489851
-1085.3528 614.35303 3961.2568 4279624
-1029.5116 596.38196 3845.3821 4871507
-1098.22 651.42847 4200.314 4805458
-1060.9237 644.75562 4157.2886 2897462
-1008.0825 628.06189 4049.6499 3160633
-1016.3588 649.56714 4188.3125 3621184
-1009.6002 662.34863 4270.7256 3752513
-987.20496 665.28833 4289.6802 3555135
-914.56024 633.58118 4085.2373 2897204
-884.47638 630.38214 4064.6104 3028790
-863.61523 633.76141 4086.3994 4278857
-838.01263 633.76141 4086.3994 4608079
-798.16284 622.64709 4014.7358 5002324
-766.9574 617.7724 3983.3047 2962997
-739.7995 615.9397 3971.4875 2897460
-728.15961 627.349 4045.0532 4147014
-708.31024 632.25317 4076.6746 4541772
-680.93567 630.55591 4065.7307 4673359
-653.49902 628.66687 4053.5505 3028535
-631.24756 631.815 4073.8494 2831412
-607.57861 633.74994 4086.3254 4476493
-581.9765 633.74994 4086.3254 4476237
-563.58972 641.96863 4139.3184 4541776
-540.51392 645.38153 4161.3242 3818565
-514.44196 645.38153 4161.3242 2765877
-488.94525 646.14172 4166.2261 4279116
-459.60992 641.62891 4137.1279 5002839
-426.48578 630.97113 4068.4084 5200218
-401.37778 631.57202 4072.2825 3686979
-375.12537 630.33142 4064.2834 3094843
-357.46069 644.39124 4154.939 4937045
-347.14697 674.95203 4351.9902 5200217
-314.80307 664.23871 4282.9126 5003350
-285.24423 657.953 4242.3833 3753026
-269.3884 685.2312 4418.269 4345164
-253.99173 720.05933 4642.8354 4345164
-226.50388 725.18494 4675.8848 4345164
-197.78857 727.31989 4689.6504 4279626
-171.31575 739.88458 4770.666 4476748
-143.3233 749.81024 4834.665 4477005
-113.90945 755.62671 4872.1689 4345419
-83.383804 755.62671 4872.1689 4476747
-52.802227 754.82739 4867.0146 4411210
-22.477032 760.51697 4903.7002 4279625
8.122467 749.10797 4830.1372 4410954
37.49017 731.64911 4717.5649 4213575
69.821014 761.91852 4912.7373 3884867
101.47401 768.53162 4955.3779 4082245
129.90417 753.3559 4857.5269 4411211
157.9127 741.96002 4784.0483 4476747
188.41267 744.03894 4797.4526 4476490
220.73306 751.74548 4847.1436 4344905
252.43784 755.74493 4872.9312 4213318
282.04996 753.29242 4857.1177 4147269
307.57291 741.45984 4780.8228 4081732
335.22791 736.41101 4748.2686 4015683
366.50635 739.49609 4768.1611 4147269
393.05682 733.29572 4728.1816 4213062
414.9935 719.95996 4642.1948 4081476
443.63431 719.24023 4637.5542 3949890
469.16116 713.87067 4602.9321 3620925
500.91647 718.05145 4629.8892 3686718
523.88647 709.87036 4577.1387 3752511
547.35773 703.18237 4534.0156 3620925
575.64203 703.03247 4533.0488 3555132
607.44983 706.99762 4558.6157 3423546
630.13586 700.4668 4516.5059 3357753
660.83331 703.02008 4532.9692 3291960
676.04169 689.56415 4446.2075 3160374
684.58832 670.64716 4324.2334 3094581
734.85278 692.48297 4465.0273 3094581
742.96521 674.45221 4348.7676 2897715
788.2467 690.24506 4450.5977 2897205
786.98395 665.59375 4291.6499 2502961
789.67365 645.80371 4164.0464 4477274
798.78265 632.36139 4077.3723 8363450
814.72559 624.99463 4029.8726 8429757
840.50281 625.38818 4032.4099 7772085
850.72693 614.52386 3962.3584 7113638
862.82568 605.59137 3904.7632 5729670
899.84155 614.15784 3959.9988 2765884
952.11139 632.39642 4077.5981 1777958
1073.3987 694.3255 4476.9077 1843240
1097.2609 691.68616 4459.8896 1909031
1141.7748 701.87286 4525.5718 1646371
1194.2141 716.31976 4618.7236 1777443
1270.0126 743.76306 4795.6738 2238764
1257.6803 719.51825 4639.3467 3225401
1316.9729 736.41968 4748.3247 3160376
1412.0513 772.14294 4978.6631 3160633
1449.5762 775.53064 5000.5063 3029044
1485.3994 777.88379 5015.6792 3094581
1516.8242 777.88379 5015.6792 3226167
1555.1714 781.36182 5038.105 3291960
1611.9932 793.79895 5118.2979 3160374
1638.4302 791.08026 5100.7681 3291960
1665.0323 788.54382 5084.4136 3357753
1723.6677 800.98846 5164.6548 3160374
1774.5284 809.42822 5219.0732 3094581
1788.6885 801.12488 5165.5342 3160374
1827.1639 803.81354 5182.8706 3291960
1892.726 818.11639 5275.0928 3357753
1939.9497 824.1377 5313.9175 3357496
1994.3853 832.9679 5370.853 3357497
2025.0073 831.72418 5362.834 3226167
2049.2168 827.93018 5338.3711 3226167
2084.2222 828.54999 5342.3672 3226167
2114.4373 827.27588 5334.1519 3291960
2147.8574 827.27588 5334.1519 3423289
2202.2029 835.21204 5385.3232 3291960
2276.6826 850.42963 5483.4438 3160374
2289.4597 842.4892 5432.2451 3226423
2338.5596 847.95166 5467.4663 3291960
2317.4189 828.15533 5339.8223 3291960
2350.8745 828.15533 5339.8223 3226167
2379.4312 826.45374 5328.8511 3226167
2382.2297 815.97638 5261.2944 2962995
2403.1477 811.90668 5235.0537 3291960
2507.6472 835.8045 5389.1436 3555132
2559.5649 841.77472 5427.6382 3620925
2580.0745 837.39429 5399.394 3620925
2611.6086 836.65918 5394.6543 3620925
2626.0537 830.53802 5355.186 3686718
2622.3752 818.91187 5280.2217 3752254
2663.1084 821.27118 5295.4351 3554362
2658.4746 809.75421 5221.1748 3291190
2682.7517 807.21613 5204.8096 3225397
2698.1323 802.09424 5171.7847 3291190
2706.3853 795.00018 5126.0435 3488569
2677.4275 777.27014 5011.7227 3751741
2683.0908 769.88531 4964.106 3948864
2700.8037 766.08752 4939.6187 4079422
2660.7148 746.16608 4811.168 4211265
2641.5559 732.49463 4723.0166 3552822
2593.4075 711.17651 4585.5605 2170656
2591.9021 702.97601 4532.6851 2433571
2606.457 699.26208 4508.7383 2565414
2632.2251 698.60376 4504.4932 2828586
2674.251 702.22845 4527.8647 3026478
2683.7043 697.31372 4496.1753 3487286
2706.9248 696.04095 4487.9688 3750715
2788.7729 709.71466 4576.1348 3882558
2817.4604 709.71881 4576.1616 3685948
2800.7368 698.39917 4503.1738 3751228
2910.229 718.46478 4632.5542 3817021
2912.3979 711.90027 4590.2271 3751741
2954.3027 715.08215 4610.7437 3685948
3035.9199 727.72162 4692.2407 3620155
3124.7886 741.84015 4783.2749 3685948
3071.1787 722.18665 4656.5522 3817534
3218.2354 749.64569 4833.604 3883327
3233.675 746.22009 4811.5166 4015170
3408.9446 779.40039 5025.458 3949120
3475.5688 787.3606 5076.7842 3620155
3523.2976 790.93469 5099.8296 3488569
3549.7583 789.71307 5091.9526 3554362
3577.6443 788.82751 5086.2427 3356983
3608.093 788.51758 5084.2441 3422776
3632.1255 786.82306 5073.3184 3488569
3651.1169 784.07544 5055.6021 3488569
3649.7651 777.04401 5010.2642 3488312
3675.8606 775.92627 5003.0571 3422263
3653.8291 764.75427 4931.022 3422006
3615.197 750.32428 4837.9795 3422263
3639.3574 749.05817 4829.8159 3356470
3647.3958 744.52216 4800.5684 3422263
3643.4114 737.62628 4756.1045 3356470
3673.2095 737.62628 4756.1045 3356470
3676.6855 732.38287 4722.2959 3422007
3684.1951 728.02026 4694.1665 3356470
3679.4072 721.31604 4650.9385 3356470
3628.1475 705.67828 4550.1089 3488056
3652.1948 704.8175 4544.5586 3553592
3653.5325 699.62128 4511.0542 3619386
3644.5371 692.54132 4465.4038 3619385
3648.0515 687.92834 4435.6597 3619643
3683.8127 689.41992 4445.2773 3685690
3706.7402 688.50543 4439.3809 3685689
3716.6904 685.21204 4418.1455 3817021
3527.2161 645.47308 4161.9146 3817534
3464.3528 629.31683 4057.7415 3554362
3500.9397 631.33002 4070.7224 3356728
3407.0977 609.96375 3932.9558 5461850
3324.1636 590.84308 3809.6687 6976372
3314.2812 584.8869 3771.2639 6120806
3433.6331 601.66016 3879.4153 3949636
3596.752 625.81281 4035.1482 3489342
3661.0603 632.55591 4078.6262 3489087
3862.0728 662.66132 4272.7417 3620158
3986.5693 679.31396 4380.1157 3620414
4060.5718 687.19354 4430.9219 3620156
4113.5479 691.43176 4458.2495 3620155
4151.6108 693.12323 4469.1558 3685691
4241.2588 703.34644 4535.0732 3686204
4283.8892 705.68835 4550.1738 3685948
4319.8306 706.90479 4558.0171 3685948
4447.8682 723.07697 4662.293 3751484
4464.7183 721.08063 4649.4209 3751741
4549.6274 730.03088 4707.1309 3817534
4722.71 752.9231 4854.7363 4080706
4797.1235 759.89246 4899.6738 4146758
4812.376 757.46136 4883.9985 3817793
4875.1802 762.49829 4916.4756 3817793
4939.1489 767.65289 4949.7119 3752000
4992.4175 771.09058 4971.8774 3817536
5033.9077 772.67767 4982.1108 3883073
5037.0874 768.401 4954.5356 3948609
5023.6543 761.65802 4911.0576 3948866
nan nan nan 16777215
nan nan nan 16777215
nan nan nan 16777215
nan nan nan 16777215
nan nan nan 16777215
nan nan nan 16777215
-3896.3513 670.03461 4153.3838 3751743
-3916.5879 678.04303 4203.0259 3685950
-3917.7219 682.83038 4232.7017 3620157
-3943.5925 692.02368 4289.689 3620154
-3819.7842 674.89728 4183.5264 3554362
-3818.7188 679.37085 4211.2568 3422776
-3842.198 688.30365 4266.6294 3422776
-3821.0134 689.30438 4272.8325 3422776
-3840.1965 697.65277 4324.5825 3422776
-3816.3076 698.23944 4328.2188 3291190
-3803.7251 700.91779 4344.8213 3422776
-3821.7061 709.30737 4396.8262 3488569
-3802.8 710.92285 4406.8403 3488569
-3774.1316 710.72357 4405.605 3422776
-3809.1292 722.59894 4479.2178 3422776
-3781.0657 722.59894 4479.2178 3356983
-3782.0085 728.1839 4513.8374 3356983
-3770.3 731.39868 4533.7651 3488569
-3907.5254 763.77325 4734.4473 3488569
-3893.6709 766.88684 4753.7476 3817790
-3863.8872 766.88684 4753.7476 3949120
-3856.9272 771.4519 4782.0454 3949120
-3688.9395 743.62805 4609.5718 4014913
-3660.0586 743.62805 4609.5718 4014913
-3664.8176 750.51697 4652.2749 3949120
-3752.3491 774.60327 4801.5801 3817534
-3695.1226 768.95477 4766.5664 3817534
-3687.2195 773.56213 4795.126 3883327
-3603.8506 762.28265 4725.2075 3817534
-3452.3589 736.28778 4564.0713 3817534
-3521.0208 757.20312 4693.7207 3751741
-3534.1709 766.43237 4750.9307 3685948
-3497.699 764.96576 4741.8394 3751741
-3497.562 771.48871 4782.2734 3751741
-3460.7405 769.96265 4772.814 3752511
-3255.3335 730.57538 4528.6616 3949890
-3362.5449 761.27155 4718.9395 3818561
-3321.0906 758.55603 4702.1069 3752511
-3144.6414 724.68237 4492.1323 3621182
-3108.5442 722.83313 4480.6694 3620925
-3062.9297 718.71698 4455.1543 3752511
-2993.8589 708.97046 4394.7378 3686974
-2963.6577 708.33313 4390.7871 3752511
-2927.4917 706.24481 4377.8423 3818304
-2877.0872 700.64948 4343.1582 3884097
-2836.9707 697.47668 4323.4907 3818817
-2879.4111 714.73529 4430.4727 3555645
-2788.7544 698.9704 4332.75 3490109
-2714.575 687.06622 4258.9585 3621695
-2651.0454 677.64783 4200.5762 4345421
-2624.7275 677.64783 4200.5762 4675412
-2514.7217 655.82251 4065.2866 5070683
-2494.4458 657.1911 4073.7703 5203039
-2485.2019 661.52454 4100.6318 5334625
-2442.3977 656.92175 4072.1006 5466210
-2414.8772 656.3761 4068.7183 5202266
-2390.7471 656.75012 4071.0366 4806995
-2371.4089 658.46289 4081.6536 4477772
-2307.3113 647.64917 4014.6218 3819586
-2260.6208 641.53705 3976.7344 3358265
-2234.3408 641.14551 3974.3071 3226936
-2259.4106 655.64606 4064.1929 3095092
-2258.7307 662.91986 4109.2812 3160372
-2283.3618 677.87561 4201.9883 3357751
-2338.0042 702.19373 4352.7305 3620923
-2315.5029 703.64325 4361.7158 3884095
-2322.1282 714.08417 4426.4365 4081474
-2279.2153 709.35974 4397.1509 4015681
-2250.7087 709.05817 4395.2817 4015684
-2217.5955 707.27991 4384.2588 4015683
-2201.55 710.96899 4407.1265 3752511
-2163.9353 707.69769 4386.8486 3686718
-2136.4504 707.69769 4386.8486 3555132
-2144.9355 719.76813 4461.6699 3752511
-2095.7234 712.54028 4416.8662 4081476
-2059.1733 709.48181 4397.9077 4081476
-2054.4436 717.45245 4447.3159 4015940
-1984.4783 702.54773 4354.9248 3949890
-1993.3403 715.52295 4435.355 3686718
-1909.3666 695.06982 4308.5713 3686718
-1853.1052 684.26306 4241.5825 3620412
-1826.5305 684.26306 4241.5825 3817534
-1749.9413 665.24976 4123.7236 4014913
-1705.1053 657.9187 4078.2805 3751741
-1623.2325 635.85657 3941.5225 2633004
-1526.3481 607.14136 3763.5239 1448473
-1466.9125 592.65503 3673.7263 658957
-1443.8954 592.65503 3673.7263 527372
-1440.2162 600.72089 3723.7249 527371
-1438.6416 609.9447 3780.9011 1975073
-1395.9238 601.74176 3730.053 4080706
-1382.1505 605.94904 3756.1328 3949120
-1418.9497 632.8576 3922.9326 3751741
-1417.6383 643.41772 3988.3921 3554876
-1398.1909 645.97778 4004.2612 3620925
-1410.7136 663.67175 4113.9419 3752511
-1393.5404 667.79376 4139.4937 3686718
-1358.7725 663.4809 4112.7588 3620925
-1320.4327 657.22333 4073.9697 3423546
-1302.2511 660.95026 4097.0723 3226166
-1276.5817 660.95026 4097.0723 3357752
-1232.7256 651.34094 4037.5061 3358266
-1212.3402 653.99005 4053.9275 3423804
-1122.9329 618.72223 3835.3108 4279113
-1074.5977 605.03717 3750.4805 5134423
-1042.2345 599.9342 3718.8484 5463388
-1044.8191 615.1745 3813.3193 5266009
-1020.9275 615.1745 3813.3193 3291963
-964.97839 595.39496 3690.7107 2173483
-980.74835 619.98145 3843.1165 3226171
-941.11407 609.90033 3780.6257 3818052
-958.27527 637.05573 3948.9558 3949637
-923.73352 630.36798 3907.4998 3357755
-893.97546 626.66919 3884.5723 2239274
-881.2002 635.00146 3936.2219 2765618
-846.48932 627.55133 3890.0405 3817536
-821.57013 627.13397 3887.4531 4278087
-817.32074 642.95105 3985.4995 4409673
-779.79413 632.76233 3922.342 2699055
-755.21948 632.76233 3922.342 2238761
-735.73572 637.17126 3949.6719 4212550
-702.47491 629.54047 3902.3704 4935761
-678.02539 629.54047 3902.3704 5001811
-649.61237 625.72278 3878.7053 3620671
-631.78381 632.19977 3918.8547 2173482
-613.54749 638.776 3959.6194 4081479
-600.30188 651.32135 4037.3848 4805201
-568.42999 643.87213 3991.209 4805201
-540.57672 640.49872 3970.2981 4147016
-514.26849 638.71887 3959.2651 1845030
-491.75528 641.71082 3977.8115 3029049
-467.26089 642.29895 3981.457 4411472
-435.62833 632.58783 3921.2603 4806229
-416.38354 640.77972 3972.0398 4938073
-387.66452 634.50616 3933.1514 2502962
-362.353 633.33661 3925.9019 2766134
-342.39963 642.04401 3979.8767 5002839
-326.32867 659.97113 4091.0027 5134425
-300.6973 659.97113 4091.0027 4739666
-280.22879 672.35852 4167.7896 3293245
-261.31204 691.39758 4285.8076 4147784
-238.52104 703.37274 4360.0391 3753283
-216.9727 722.58417 4479.126 3753026
-191.81764 733.70752 4548.0771 4147784
-163.71548 735.47284 4559.02 4410956
-137.15575 746.37781 4626.6172 4608335
-108.16855 746.37781 4626.6172 4410955
-79.376465 748.21704 4638.0181 4213832
-50.314884 748.17303 4637.7451 3950917
-21.434784 754.39575 4676.3184 4148039
7.9608831 763.70905 4734.0493 4410954
36.574104 742.45361 4602.292 4608333
65.617226 744.81848 4616.9512 4542540
95.390366 751.4873 4658.2896 4016196
124.74519 752.50793 4664.6162 3884610
153.41315 749.78418 4647.7324 3884610
180.52902 741.55396 4596.7153 3884610
209.32886 741.55396 4596.7153 4016196
238.69214 743.30853 4607.5913 3884866
268.94583 747.15814 4631.4541 3884353
290.52689 728.51093 4515.8643 3620925
323.80573 739.90302 4586.4814 3686718
350.20953 735.00885 4556.1436 3752511
377.63281 732.83075 4542.6421 3686718
404.84543 730.57782 4528.6768 3686974
432.13483 728.74957 4517.3438 3620925
454.59698 719.50574 4460.0435 3620925
479.82593 715.45801 4434.9526 3555132
503.68927 709.92871 4400.6777 3555132
525.99915 702.89734 4357.0923 3489339
547.91046 696.05359 4314.6694 3489339
578.57678 700.45251 4341.9375 3291960
600.06903 693.84863 4301.0015 3423546
613.06305 678.40833 4205.2905 3357753
641.84601 680.99237 4221.3086 3160374
664.77203 677.40369 4199.063 3095094
691.50269 677.8175 4201.6284 3029047
715.98236 676.07556 4190.8301 2964026
734.27704 668.82312 4145.874 2832955
752.38763 661.90436 4102.9863 2635066
774.60791 658.93872 4084.603 2372410
799.02472 657.97156 4078.6079 7706797
826.19989 659.26538 4086.6279 8364473
844.50073 653.61304 4051.5906 7705517
854.25116 641.86591 3978.7727 7178659
866.62738 632.70203 3921.9683 6848409
908.18829 644.763 3996.731 5399669
923.89417 638.31354 3956.7524 2503991
983.0401 661.42938 4100.042 3292222
1044.3838 684.80908 4244.9673 3488830
1058.109 676.5791 4193.9517 3225658
1168.983 729.362 4521.1401 2962744
1217.9965 741.96387 4599.2563 3160632
1278.321 760.71442 4715.4863 3160376
1301.4192 756.96521 4692.2461 3160374
1323.2732 752.67407 4665.646 3160374
1361.8441 757.87134 4697.8628 3094581
1381.1719 752.36639 4663.7388 3226167
1402.3779 748.09149 4637.2397 3357753
1424.7218 744.58484 4615.5029 3489339
1442.6276 738.94434 4580.5391 3489339
1473.9897 740.2821 4588.8315 3555132
1557.0361 767.02948 4754.6318 3489339
1629.7157 787.76154 4883.145 3357753
1666.5371 790.716 4901.459 3489339
1697.2462 790.716 4901.459 3226167
1741.563 796.94287 4940.0576 3291960
1764.4066 793.29773 4917.4624 3423289
1795.2162 793.29773 4917.4624 3488825
1851.0834 804.18384 4984.9429 3159604
1893.4202 808.92804 5014.3511 3094067
1922.5242 807.95624 5008.3271 3159605
1948.6824 805.79755 4994.9458 3159860
1983.2148 807.11517 5003.1133 3094581
2029.4113 813.06476 5039.9937 3226167
2069.5398 816.43835 5060.9058 3226167
2096.5974 814.63135 5049.7046 3160374
2135.6389 817.46521 5067.271 3160374
2167.8459 817.63837 5068.3442 3094581
2188.2993 813.43744 5042.3037 3226167
2234.7395 818.87842 5076.0312 3226167
2283.5498 825.02307 5114.1201 3028788
2307.7061 822.2135 5096.7046 3028788
2335.9092 820.90289 5088.5806 3423546
2394.2278 830.0686 5145.396 3620925
2410.2273 824.51379 5110.9634 3489339
2423.2063 818.08484 5071.1113 3423546
2431.9114 810.39807 5023.4634 3423546
2483.9814 817.17383 5065.4648 3488825
2523.6677 819.7561 5081.4717 3620155
2544.1516 816.11432 5058.897 3883327
2552.3381 808.66583 5012.7256 3685948
2579.0752 807.20441 5003.6665 3422776
2582.8977 798.69244 4950.9028 3225654
2570.5791 785.4505 4868.8193 3291447
2580.0242 779.09113 4829.3989 3686205
2593.3821 774.047 4798.1318 3817278
2577.4985 760.49091 4714.1006 3882300
2556.219 745.66779 4622.2158 3817020
2575.9241 742.99841 4605.6689 3486772
2585.3423 737.45392 4571.2998 2367521
2591.7654 731.18597 4532.4463 2499107
2587.2622 722.0047 4475.5342 2630693
