# .PCD v0.7 - Point Cloud Data file format
VERSION 0.7
FIELDS x y z rgb
SIZE 4 4 4 4
TYPE F F F U
COUNT 1 1 1 1
WIDTH 1263
HEIGHT 1
VIEWPOINT 0 0 0 1 0 0 0
POINTS 1263
DATA ascii
nan nan nan 16777215
nan nan nan 16777215
nan nan nan 16777215
-3438.3728 687.23663 3689.8367 3620157
-3473.4475 698.94647 3752.7083 3554621
-3435.1755 695.95612 3736.6523 3357755
-3402.4966 694.06561 3726.5022 3555135
-3358.5386 689.8324 3703.7737 3423549
-3330.8699 688.90918 3698.8169 3555391
-3358.8257 699.55835 3755.9932 3555133
-3367.2944 706.27039 3792.0308 3357756
-3337.4697 704.98883 3785.1501 3423548
-3296.7227 701.36548 3765.6958 3292217
-3294.1606 705.87201 3789.8918 3094841
-3278.4077 707.59686 3799.1531 3094583
-3259.4749 708.65576 3804.8381 3226169
-3211.8062 703.43652 3776.8157 3160376
-3206.9128 707.57788 3799.051 3226169
-3197.9255 710.87109 3816.7327 3226169
-3182.6956 712.8158 3827.1738 3357755
-3148.9419 710.60986 3815.3301 3291962
-3124.155 710.40918 3814.2524 3226169
-3089.231 707.88251 3800.6865 3423548
-3066.9463 708.23529 3802.5806 3358011
-3027.5891 704.6203 3783.1714 3488827
-2996.3188 702.84528 3773.6409 3620157
-2958.188 699.41974 3755.2493 3489341
-2930.8777 698.51831 3750.4092 3423548
-2902.752 697.40631 3744.4387 3357755
-2893.8193 700.92505 3763.3313 3489341
-2892.3684 706.32867 3792.344 3423548
-2864.0789 705.21344 3786.356 3489341
-2829.2351 702.45227 3771.531 3555134
-2784.3557 697.1319 3742.9656 3489341
-2733.1514 690.12415 3705.3401 3226169
-2690.4253 685.1554 3678.6626 3094583
-2650.0232 680.69769 3654.7288 3489341
-2627.1252 680.69769 3654.7288 3884099
-2582.1682 674.93195 3623.7717 4015685
-2570.2776 677.78339 3639.0815 3818306
-2548.3792 678.02332 3640.3696 3620927
-2545.1399 683.27673 3668.5759 3357755
-2506.4558 679.02368 3645.741 3160376
-2480.4778 678.1662 3641.1367 3292219
-2471.6409 682.02264 3661.8425 3423548
-2432.3118 677.45868 3637.3381 3489598
-2409.5227 677.45868 3637.3381 3884356
-2402.4448 681.91815 3661.2815 3884613
-2386.5615 683.94019 3672.1379 4081991
-2376.8401 687.78467 3692.7793 4148042
-2365.4553 691.21863 3711.2166 4148042
-2342.2034 691.21863 3711.2166 4148041
-2287.0752 681.71716 3660.2024 3884869
-2264.1428 681.71716 3660.2024 3687490
-2245.395 682.98993 3667.0359 3884869
-2260.6194 694.72937 3730.0662 4148042
-2217.3604 688.55328 3696.906 4082248
-2194.8127 688.74615 3697.9417 3950662
-2173.2583 689.25812 3700.6904 4015942
-2145.1887 687.6925 3692.2847 3621184
-2128.5762 689.80579 3703.6309 3226425
-2098.5935 687.58496 3691.707 3226167
-2075.4641 687.58496 3691.707 3489339
-2060.6028 690.3551 3706.5801 3489339
-2030.4799 688.01703 3694.0271 3620925
-2001.8325 686.13092 3683.9001 3620925
-1991.8488 690.6723 3708.2832 3489339
-1968.6272 690.67645 3708.3054 3686718
-1945.8632 690.8432 3709.2007 3752511
-1925.2703 691.79413 3714.3064 3752767
-1910.0675 694.72876 3730.063 3621181
-1887.449 695.00549 3731.5486 3752511
-1869.4478 697.01062 3742.3145 3752511
-1849.9303 698.49432 3750.2805 3621181
-1832.4585 700.7984 3762.6514 3752768
-1808.9316 700.81671 3762.7498 3884354
-1792.363 703.56696 3777.5159 3949890
-1774.5735 705.90503 3790.0693 3949890
-1755.6538 707.85089 3800.5168 3884097
-1743.1825 712.48596 3825.4028 4082246
-1681.1736 696.72052 3740.7568 4345161
-1649.7207 693.35156 3722.6687 3884610
-1674.3239 713.78333 3832.3684 4016196
-1652.4205 714.69495 3837.2629 4081989
-1628.3789 714.69495 3837.2629 4016196
-1612.9747 718.54272 3857.9221 3884610
-1578.2859 713.78607 3832.3831 3884356
-1567.4299 719.82733 3864.8196 4213321
-1528.0043 712.73212 3826.7244 4147785
-1506.5372 713.9209 3833.1069 3884356
-1483.934 714.60101 3836.7588 3884356
-1454.9287 712.16986 3823.7056 3686977
-1426.4803 709.93439 3811.7031 3818563
-1402.8436 710.05835 3812.3687 3950149
-1378.958 710.05835 3812.3687 4213321
-1351.0543 707.95288 3801.0645 4279114
-1327.7679 708.23474 3802.5776 4279114
-1305.2198 708.92792 3806.2996 4147528
-1274.75 705.26416 3786.6284 4015942
-1244.136 701.38019 3765.7749 3949892
-1228.2893 705.83197 3789.677 3884099
-1204.9021 706.04077 3790.7979 3029047
-1166.6729 697.38605 3744.3298 2567469
-1125.0981 686.33527 3684.9973 2304297
-1096.8693 683.13324 3667.8054 2172711
-1069.0907 680.08075 3651.4163 2304553
-1050.3116 682.74469 3665.7192 2633262
-1033.4426 686.79718 3687.4775 2632492
-1008.0055 685.21069 3678.9592 2303784
-968.52435 673.77979 3617.5857 2040612
-945.07788 673.22327 3614.5979 2172198
-913.61572 666.78943 3580.054 2435370
-889.72888 665.69946 3574.2017 2764335
-866.09631 664.74847 3569.0957 2698542
-850.57349 670.13641 3598.0244 2435370
-823.36627 666.36133 3577.7556 2237991
-806.53571 671.00806 3602.7041 2172454
-775.54175 663.79962 3564.0012 2566187
-754.53418 664.96466 3570.2566 2763566
-739.46057 671.59027 3605.8301 2763564
-724.2464 678.50177 3642.9385 2303014
-695.19739 672.48029 3610.6086 2039841
-673.14539 673.0498 3613.6663 2039842
-647.7254 670.17419 3598.2271 2237221
-623.05798 667.89795 3586.0059 2500393
-606.23816 674.17847 3619.7266 2631979
-585.98199 676.97723 3634.7532 2303014
-566.2973 680.68927 3654.6833 2105635
-543.08112 680.29041 3652.5417 2171428
-520.19684 680.29041 3652.5417 2631979
-501.12671 685.50793 3680.5552 3092530
-477.35858 684.49225 3675.1018 2960944
-454.92999 685.39178 3679.9316 2895148
-430.93518 683.90173 3671.9314 2698540
-409.14917 685.94672 3682.9111 2764334
-383.29428 681.00684 3656.3884 2830385
-361.68765 683.4668 3669.5962 2895921
-338.84576 683.76801 3671.2134 2632749
-316.31107 684.77808 3676.6367 2172198
-294.91391 688.60297 3697.1729 2107174
-274.01422 694.34052 3727.9783 2435629
-251.90242 697.78961 3746.4968 3487804
-230.49437 704.09741 3780.3638 3423551
-205.61134 700.01917 3758.4675 3488831
-182.54474 701.86993 3768.4043 3489857
-159.79915 705.68817 3788.905 3818566
-135.93471 705.03583 3785.4026 3752773
-112.80798 708.74268 3805.3049 3687237
-89.206802 710.65637 3815.5798 3687492
-65.859344 716.73273 3848.2039 3819335
-41.650311 715.03577 3839.0928 3819335
-17.53735 712.6037 3826.0349 4016715
6.3434572 702.58142 3772.2244 4016715
29.840219 699.36133 3754.9355 3950922
53.797771 705.01898 3785.3118 3818567
76.925858 699.67029 3756.5942 3621183
100.73894 701.59839 3766.9465 3423805
125.54381 708.39087 3803.4158 3160633
149.6767 709.82928 3811.1389 3357755
175.44479 717.55975 3852.6445 3423545
200.25745 719.98535 3865.6677 3357495
224.3772 719.66504 3863.948 3291703
248.58601 719.66504 3863.948 3554875
273.64694 721.91296 3876.0171 3423544
298.67624 723.71777 3885.7075 3490107
324.98123 728.10864 3909.2825 3687234
350.15918 729.53601 3916.946 3686977
374.6478 729.43427 3916.3999 3686977
399.18527 729.43427 3916.3999 3818563
424.98953 731.61517 3928.1091 3752513
448.65445 730.07587 3919.8445 3686720
473.2135 730.07587 3919.8445 3686720
498.36816 730.9494 3924.5349 3686720
521.53693 728.96515 3913.8811 3818306
541.8985 723.41156 3884.0635 4278600
566.24786 723.43011 3884.1631 4015685
587.58173 719.7533 3864.4219 3949635
615.7948 724.46063 3889.696 3949892
624.58972 706.83453 3795.0598 3884356
646.60712 704.91602 3784.759 3752770
659.04462 693.0589 3721.0972 3621184
692.85608 703.72113 3778.3435 3621185
714.83362 702.05646 3769.4058 3555646
737.94501 701.57629 3766.8276 3423804
758.56757 698.83295 3752.0986 3291962
777.15051 694.43207 3728.47 3291962
810.45892 703.06213 3774.8057 3620927
824.48767 694.95215 3731.2625 3686720
851.66071 698.06329 3747.9661 3686977
887.61304 708.01013 3801.3716 3884356
903.86597 702.1344 3769.8245 4279371
927.48511 702.1344 3769.8245 3949892
950.47046 701.66656 3767.3125 4015685
971.92834 700.12109 3759.0149 3949892
1007.6592 708.68695 3805.0056 3686720
1037.9319 713.10687 3828.7363 3686720
1060.647 712.25189 3824.146 3884099
1091.7103 716.91687 3849.1929 3357755
1123.3459 721.74799 3875.1316 3686720
1141.592 717.95398 3854.761 3291962
1170.6158 720.95477 3870.8728 2765873
1193.1349 719.90906 3865.2581 3226167
1227.6271 725.98547 3897.8828 3620925
1244.6014 721.66742 3874.6987 3489338
1287.9119 732.49298 3932.8225 3621181
1309.2878 730.6712 3923.0413 4015683
1317.1351 721.50586 3873.8315 4081476
1369.9116 736.83832 3956.1528 3489339
1386.3854 732.44653 3932.5732 3555132
1410.7183 732.28778 3931.7207 3555132
1442.0758 735.71826 3950.1392 3686718
1456.5256 730.55255 3922.4041 3357753
1486.8878 733.4071 3937.7302 3160374
1521.7706 738.36182 3964.3325 3226167
1531.606 731.19952 3925.8777 3292216
1562.6003 734.20551 3942.0168 3160374
1593.4799 737.06476 3957.3684 3094581
1615.194 735.66193 3949.8367 3160374
1652.5415 741.31439 3980.1853 3226167
1669.814 737.92719 3961.9993 3160374
1695.1681 738.15845 3963.2407 3160374
1720.5387 738.39008 3964.4844 3094581
1751.6171 741.02979 3978.6572 3028788
1786.6234 745.23383 4001.2292 3160374
1822.0934 749.51221 4024.2002 3226167
1852.9152 751.78802 4036.4192 3291960
1881.1459 752.96533 4042.7402 3291960
1902.0426 751.21478 4033.3413 3160374
1929.4479 752.047 4037.8096 3226167
1954.6665 752.01642 4037.6455 3423546
1965.5217 746.53119 4008.1948 3555132
2012.6731 754.7962 4052.5703 3555132
2044.5878 757.2124 4065.5432 3752511
2080.0415 760.86365 4085.1472 3884097
2105.6362 760.86365 4085.1472 5002835
2116.2651 755.52081 4056.4607 4607820
2143.4333 756.13934 4059.7817 3555388
2182.8638 761.01831 4085.9773 3948863
2187.8179 753.90387 4047.7795 3949120
2206.7073 751.69952 4035.9438 3948608
2228.9663 750.67993 4030.4697 3948607
2257.2261 751.68158 4035.8477 4014400
2265.0681 745.93695 4005.0042 4080193
2270.2781 739.46088 3970.2336 3751228
2287.4319 736.97321 3956.8772 3422263
2268.5942 723.0675 3882.2161 3817021
2313.6326 729.59998 3917.2896 4672330
2270.6602 708.53259 3804.1768 4145729
2313.3423 714.35272 3835.4255 3751228
2355.4158 719.86713 3865.033 3685947
2379.4592 719.81506 3864.7534 3620155
2392.9197 716.59479 3847.4636 3685948
2452.2231 727.03015 3903.4922 3883327
2441.0054 716.55798 3847.2659 3883327
2481.7988 721.40918 3873.3123 3686461
2502.085 720.26312 3867.1592 3752511
2522.0659 719.052 3860.6565 3950147
2567.728 725.11615 3893.2153 3752513
2604.5281 728.58704 3911.8511 3884099
2649.1702 734.16663 3941.8083 3884099
2695.1533 740.01129 3973.1887 3818306
2748.5359 747.76196 4014.8032 3686720
2779.8347 749.41858 4023.6975 4278857
2801.5984 748.49792 4018.7544 4542029
2826.7771 748.49792 4018.7544 4278857
2857.1997 749.87415 4026.1436 4213064
2832.9585 737.00531 3957.0496 4147271
2869.8904 740.13617 3973.8594 4015940
2877.5759 735.73541 3950.2312 3686718
2902.3254 735.73541 3950.2312 3423546
2914.0393 732.45886 3932.6392 3291960
2935.7141 731.71997 3928.6721 3489852
2933.896 725.18658 3893.5935 3685691
2960.7131 725.7804 3896.7817 3620155
2991.8645 727.41833 3905.5762 3356983
3016.334 727.41833 3905.5762 3356983
3021.2578 722.74255 3880.4714 3291190
3012.1787 714.81848 3837.9263 3488312
3018.2397 710.58429 3815.1926 3422263
3025.0637 706.59497 3793.7734 3553849
3025.4841 701.18359 3764.7195 3619642
3028.0872 696.35803 3738.8103 3619642
3054.6597 697.07629 3742.6667 3422263
3057.5391 692.41809 3717.6565 3224627
3086.7156 693.74054 3724.7571 3553336
3135.2854 699.36914 3754.9773 4013373
3150.6851 697.56995 3745.3171 4276805
3128.0894 687.44727 3690.9675 3944760
3186.2854 695.09808 3732.0457 3221292
3207.5249 694.63397 3729.554 3023913
3222.0225 692.72711 3719.3157 3221292
3242.7356 692.17432 3716.3479 3287086
3285.125 696.22339 3738.0876 3484464
3313.8235 697.33405 3744.051 3878965
3337.2812 697.33405 3744.051 4013375
3372.7295 699.82214 3757.4094 3881790
3406.1121 701.84991 3768.2969 3552824
3461.249 708.30164 3802.937 3421238
3508.6123 713.08527 3828.6206 3422008
3539.0837 714.39404 3835.6475 3422521
3563.7668 714.5246 3836.3486 3422265
3619.4407 720.8255 3870.1785 3224886
3644.5779 721.00146 3871.1233 3093300
3676.7676 722.56097 3879.4966 3027507
3720.0505 726.26581 3899.3882 3093300
3744.4814 726.26581 3899.3882 3356472
3769.7969 726.43628 3900.3035 3488315
3785.1455 724.69635 3890.9614 3554107
3830.6619 728.71747 3912.5515 3554364
3855.6221 728.802 3913.0051 3554364
3875.637 727.95654 3908.4658 3356985
3896.3901 727.2594 3904.7229 3422778
3901.3542 723.64246 3885.3032 3488571
3906.5708 720.11688 3866.374 3620157
3903.3118 715.08197 3839.3411 3554364
3894.7212 709.13806 3807.4275 3488571
nan nan nan 16777215
nan nan nan 16777215
nan nan nan 16777215
nan nan nan 16777215
nan nan nan 16777215
nan nan nan 16777215
nan nan nan 16777215
-3157.603 652.23633 3388.533 3554363
-3332.3801 692.99774 3600.2991 3554619
-3311.4941 693.34766 3602.1167 3423545
-3290.761 693.7345 3604.1265 3357752
-3257.7725 691.52533 3592.6494 3422775
-3223.0017 688.90442 3579.0332 3422519
-3201.3823 689.07751 3579.9326 3356727
-3190.6687 691.61707 3593.126 3488312
-3167.7148 691.52063 3592.625 3554106
-3142.9949 691.03455 3590.0996 3225654
-3119.4998 690.81256 3588.9465 3225655
-3097.0139 690.81256 3588.9465 3094583
-3079.9353 692.02753 3595.2585 3357755
-3068.9722 694.64459 3608.855 3489341
-3055.5042 696.72931 3619.6855 3423548
-3037.6777 697.84399 3625.4766 3357755
-3017.7231 698.48291 3628.7957 3094583
-2968.7351 692.36035 3596.9875 3094583
-2951.2637 693.55054 3603.1709 3160376
-2943.3198 697.01538 3621.1719 3489341
-2920.365 696.9516 3620.8406 3357755
-2873.241 691.07379 3590.3035 3620413
-2829.187 685.84729 3563.1506 3685951
-2809.2881 686.43994 3566.2295 3489598
-2779.5684 684.62317 3556.7908 3686977
-2769.6194 687.68597 3572.7029 3620927
-2758.7451 690.56702 3587.6709 3489341
-2748.6826 693.70038 3603.9495 3555134
-2715.8701 691.09656 3590.4219 3752513
-2679.3638 687.5014 3571.7441 3686720
-2629.5859 680.41162 3534.9109 3226169
-2576.1909 672.25757 3492.5486 2897461
-2545.7812 670.01318 3480.8884 2699825
-2490.4038 661.10205 3434.5928 3226169
-2468.885 661.10205 3434.5928 3818306
-2486.0754 671.55847 3488.9167 3555391
-2450.3496 667.77954 3469.2839 3357755
-2419.7056 665.33014 3456.5588 4015685
-2404.3142 667.0683 3465.5891 4607822
-2382.6011 667.0683 3465.5891 3884356
-2370.8145 669.87299 3480.1602 3884356
-2322.564 662.3313 3440.979 4344907
-2301.0051 662.3313 3440.979 4608336
-2308.209 670.68872 3484.3979 4476749
-2297.3806 673.9162 3501.1655 4082504
-2300.2126 681.25171 3539.2754 4016455
-2285.7678 683.56329 3551.2847 4147785
-2274.2832 686.81433 3568.1746 4279114
-2259.448 689.10803 3580.0911 4279114
-2238.1304 689.45081 3581.8716 4278857
-2212.0354 688.31403 3575.9658 4213064
-2200.9319 691.86646 3594.4216 4213574
-2181.3425 692.79724 3599.2576 4344904
-2152.699 690.84198 3589.0991 4081989
-2128.6355 690.33063 3586.4426 4015939
-2106.1655 690.33063 3586.4426 4015682
-2059.6731 682.37207 3545.0959 3818304
-2056.0908 688.61108 3577.5093 3752511
-2016.223 682.70123 3546.8059 3686718
-2006.0026 686.81024 3568.1533 3620925
-1986.4459 687.7793 3573.188 3620925
-1912.1278 669.59399 3478.7107 3423546
-1896.465 671.76617 3489.9958 3884097
-1912.8622 685.47791 3561.2314 4081476
-1895.0801 687.12042 3569.7646 3884097
-1866.9453 685.00372 3558.7678 3752511
-1857.7786 689.87952 3584.0989 3620925
-1829.3782 687.64478 3572.489 3620925
-1807.6593 687.89746 3573.8018 3555132
-1791.6892 690.37152 3586.6553 3620925
-1771.8953 691.41638 3592.0835 3489339
-1758.9521 695.19574 3611.718 3555388
-1746.3093 699.19385 3632.4893 3884097
-1729.4269 701.57764 3644.8738 3884097
-1702.9735 700.09076 3637.1489 3884097
-1690.0706 704.20947 3658.5469 3884097
-1675.9781 707.93903 3677.9229 3753023
-1619.59 693.65778 3603.728 4016196
-1566.1136 680.23737 3534.0056 3424059
-1563.7297 688.9422 3579.2292 3358266
-1583.3167 707.72083 3676.7893 3687231
-1560.1029 707.64044 3676.3713 3753024
-1543.1519 710.44067 3690.9194 3555645
-1521.2988 711.0351 3694.0076 3489598
-1500.4324 712.11609 3699.6235 3818563
-1460.7571 704.16406 3658.3108 3884613
-1455.8512 712.98651 3704.1458 3818563
-1432.6437 712.98651 3704.1458 3621184
-1406.5591 711.53119 3696.585 3489598
-1386.0073 712.87286 3703.5552 4015942
-1367.439 715.29767 3716.1528 4081735
-1345.924 716.2384 3721.0403 4213321
-1317.1151 713.26251 3705.5796 4213321
-1296.2517 714.55969 3712.3191 4344907
-1271.3878 713.65869 3707.6379 4213321
-1241.3403 709.76044 3687.3855 3818563
-1216.1451 708.54126 3681.0515 3753027
-1193.0822 708.54126 3681.0515 3883842
-1152.2198 697.76233 3625.0522 3686720
-1132.9553 699.89203 3636.1167 2896177
-1112.0038 701.04559 3642.1099 2501420
-1086.1058 699.06384 3631.814 2501676
-1063.6923 699.28796 3632.9783 2633262
-1046.2483 702.86035 3651.5378 2567469
-1023.3703 702.86035 3651.5378 2699055
-990.82501 696.06897 3616.2549 2633518
-963.53638 692.73901 3598.9548 2699055
-930.76837 685.21564 3559.8691 3027251
-903.83441 681.72327 3541.7251 2961458
-881.64435 681.72327 3541.7251 2961715
-856.56244 679.42938 3529.8079 2895921
-836.35419 680.98218 3537.875 2764335
-810.39056 677.80573 3521.3726 2698541
-784.40094 674.4292 3503.8306 2567213
-769.41516 680.59174 3535.8467 2697772
-749.53046 682.65778 3546.5803 2697772
-729.49561 684.70917 3557.2378 2697772
-709.14825 686.58728 3566.9951 2566186
-690.6532 690.43933 3587.0076 2500393
-664.21259 686.34033 3565.7122 2500393
-638.23395 682.44995 3545.5007 2631979
-616.02032 682.44995 3545.5007 2763309
-604.31561 694.52771 3608.2476 2697772
-582.3847 695.33466 3612.4399 2434600
-559.35876 694.84662 3609.9043 2434343
-540.63922 699.8924 3636.1184 2303014
-518.13885 700.27222 3638.0916 2631722
-494.85181 699.57483 3634.4688 2829611
-473.30786 701.39337 3643.9163 2961198
-447.83035 697.27155 3622.5027 3093555
-428.70355 703.12561 3652.9158 3158834
-405.81689 703.12561 3652.9158 3158834
-378.40906 694.82385 3609.7864 3159091
-355.7926 694.82385 3609.7864 3027505
-332.57901 693.57849 3603.3164 2895918
-313.31177 700.98108 3641.7744 2698539
-290.63898 701.32867 3643.5806 3027763
-266.28152 697.32391 3622.7744 3159862
-241.05415 690.0824 3585.1528 3226425
-221.95723 700.70599 3640.3452 3094582
-197.6983 695.60052 3613.821 3226425
-174.89938 694.97583 3610.5757 3424061
-151.24472 690.26001 3586.0759 3555391
-129.1985 692.52014 3597.8179 3489597
-107.36192 697.09686 3621.595 3555647
-84.993835 699.75055 3635.3816 3555391
-62.482235 702.73322 3650.8772 3884099
-39.531044 701.36145 3643.7507 3884099
-16.480421 692.06445 3595.4502 3555134
5.9540772 681.521 3540.6743 3358012
28.497063 690.22998 3585.9199 3357755
50.963963 690.22998 3585.9199 3489598
73.898552 694.6261 3608.7588 3489598
97.849274 704.27612 3658.8931 3686977
121.28874 707.28149 3674.5066 3489598
144.31067 707.28149 3674.5066 3621184
167.54544 708.18115 3679.1807 3752770
191.83659 712.78827 3703.116 3753027
214.4648 710.88904 3693.2488 4015942
236.20363 706.69885 3671.4797 3884356
255.3331 696.13818 3616.6145 3950406
285.5527 715.07068 3714.9736 3884356
310.55963 719.07971 3735.8015 3686977
333.31882 717.68719 3728.5669 3950149
356.67944 717.68719 3728.5669 3818563
380.09039 717.78217 3729.0605 3818563
405.15198 720.80286 3744.7537 3686720
428.39874 720.44086 3742.8728 3752513
451.32132 719.59943 3738.5017 3818306
474.74417 719.59943 3738.5017 3752770
495.80331 716.18506 3720.7629 4147528
518.51288 715.35431 3716.447 4213321
532.80225 703.47736 3654.7434 4213321
555.70032 703.47736 3654.7434 4081992
580.3277 705.5799 3665.6665 4015942
602.82672 705.03308 3662.8257 4081735
624.33337 703.40839 3654.385 4015942
642.21838 697.96252 3626.0925 3950406
663.09241 696.02637 3616.0337 3950149
681.33099 691.54321 3592.7424 3818563
706.89093 694.54028 3608.3127 3686977
729.49817 694.54028 3608.3127 3620927
753.88031 696.17932 3616.8281 3423548
771.41821 691.58685 3592.969 3818563
793.58173 691.28406 3591.396 4081478
813.25323 688.88708 3578.9431 3949892
837.90302 690.72253 3588.4788 3686977
870.85968 699.13098 3632.1628 3686720
894.34521 699.70123 3635.1252 3423548
917.24091 699.79321 3635.603 3686717
940.57324 700.20569 3637.7461 3884098
964.14221 700.77075 3640.6816 3686720
994.92017 706.42828 3670.074 3160376
1020.591 708.28583 3679.7246 3094583
1053.157 714.74084 3713.26 3094580
1077.2452 715.28766 3716.1008 3160374
1099.2537 714.45959 3711.7988 2897205
1128.9854 718.5816 3733.2136 2897202
1148.8068 716.35651 3721.6536 2699823
1170.8444 715.5744 3717.5903 2765616
1202.6519 720.67725 3744.1011 3489339
1229.4612 722.64709 3754.335 3423546
1249.7296 720.77057 3744.5859 3357753
1270.5548 719.27838 3736.8337 3357753
1289.6296 716.86731 3724.3076 3423546
1316.6329 718.87079 3734.7161 3555132
1334.1058 715.69159 3718.1992 3818304
1357.587 715.78943 3718.7075 3620925
1381.3116 716.01013 3719.854 3489339
1404.6177 716.01013 3719.854 3489339
1447.9093 726.03149 3771.9177 3489339
1456.1526 718.4389 3732.4724 3686720
1479.8479 718.58954 3733.2549 3949890
1504.4424 719.16534 3736.2463 3884097
1519.1604 715.07452 3714.9937 3357753
1542.4359 715.07452 3714.9937 3291960
1582.6001 722.78766 3755.0654 3160374
1606.1267 722.78766 3755.0654 3094581
1629.1351 722.5578 3753.8711 3094838
1659.6418 725.61292 3769.7429 2963252
1682.7178 725.37897 3768.5276 3028788
1712.6958 728.08557 3782.5894 2962995
1741.2773 730.13287 3793.2253 3028788
1762.3567 729.02167 3787.4524 3094581
1788.4528 729.98755 3792.4705 3094581
1812.0164 729.90802 3792.0574 3094581
1818.2789 722.95166 3755.9172 3291960
1846.8944 724.94696 3766.2834 3555132
1908.8823 739.82623 3843.585 3686718
1942.9396 743.64447 3863.4216 3555132
1991.5349 752.86462 3911.3228 3620925
2016.0408 752.86462 3911.3228 3489339
2049.9121 756.32019 3929.2754 3423546
2079.092 757.98328 3937.9153 3621182
2109.3892 760.00989 3948.4441 4146499
2109.2959 751.16693 3902.5027 3817791
2133.9722 751.2464 3902.9155 3817534
2162.1055 752.52728 3909.5703 3949120
2184.2263 751.71039 3905.3262 3883583
2162.7041 736.05792 3824.0076 3751741
2178.6458 733.35931 3809.9878 3554619
2212.6719 736.74072 3827.5549 3554619
2222.7744 732.16931 3803.8054 4015170
2241.8047 730.60443 3795.6753 4541257
2222.5779 716.73529 3723.6216 3883584
2228.4158 711.15314 3694.6208 3357239
2260.6013 714.00769 3709.4509 3356983
2304.0383 720.32172 3742.2539 3291190
2316.8225 717.02191 3725.1106 3159604
2334.3098 715.22894 3715.7957 3422776
2360.9529 716.24902 3721.0952 3488826
2380.4978 715.11688 3715.2134 3620668
2403.7749 715.11688 3715.2134 3884097
2457.8743 724.19855 3762.395 4081476
2488.7163 726.32007 3773.4167 3884099
2529.4111 731.25018 3799.03 3884099
2558.9763 732.90063 3807.6047 3620927
2610.5881 740.77667 3848.5227 3620927
2633.969 740.57111 3847.4546 3884099
2650.8279 738.55206 3836.9653 3094583
2666.5996 736.26923 3825.1052 3291962
2690.0242 736.12122 3824.3362 3555134
2691.813 730.10742 3793.0933 3686720
2671.2063 718.1778 3731.1157 3358012
2708.7585 721.95593 3750.7441 3160375
2738.145 723.51141 3758.8254 3160118
2786.146 729.91711 3792.1045 3226167
2786.6033 723.86426 3760.6582 3225397
2846.5254 733.23022 3809.3169 3291190
2849.9541 728.0094 3782.1936 3422776
2859.5508 724.43738 3763.6357 3356983
2867.0959 720.4082 3742.7034 3225397
2891.666 720.68756 3744.1548 3356983
2922.1387 722.42175 3753.1641 3291190
2903.7612 712.14771 3699.7878 3357240
2917.0002 709.72882 3687.2212 3356983
2929.696 707.21692 3674.1714 3422520
2933.3789 702.58545 3650.1096 3488056
2948.5725 700.76135 3640.6328 3619642
2972.3818 700.99701 3641.8574 3750200
2986.0732 698.86121 3630.7612 3684408
3008.8213 698.86121 3630.7612 3553079
3078.5603 709.69403 3687.0405 3158064
3104.3298 710.30469 3690.2131 2893866
3105.426 705.30261 3664.2261 3025707
3140.219 707.97101 3678.0889 3025451
3203.7192 717.02539 3725.1289 3090732
3217.6406 714.93286 3714.2576 2959147
3224.1274 711.23035 3695.022 2959147
3227.4683 706.8916 3672.481 2959147
3238.7395 704.33887 3659.219 3288369
3279.0662 708.09644 3678.7405 3684153
3299.5818 707.55328 3675.9187 3947326
3322.6125 707.55328 3675.9187 3684153
3352.6653 709.03839 3683.634 3618360
3376.7078 709.24066 3684.6851 3487031
3418.8999 713.22656 3705.3928 3224629
3446.7273 714.18213 3710.3574 3224886
3485.1826 717.31232 3726.6196 3027507
3508.531 717.31232 3726.6196 2830128
3541.176 719.20044 3736.4287 2830128
3564.5854 719.20044 3736.4287 2961714
3582.377 718.07428 3730.5779 3159606
3555.0117 707.96985 3678.0828 3356984
3577.229 707.80615 3677.2324 3488315
3635.4744 714.72766 3713.1914 3488571
3658.1936 714.62122 3712.6384 3422778
3632.8523 705.18683 3663.6245 3356985
3677.0464 709.284 3684.9102 3422778
3696.4922 708.586 3681.2839 3488571
3702.1025 705.26093 3664.0093 3554364
3698.4744 700.22772 3637.8608 3422778
3721.2668 700.22772 3637.8608 3422778
nan nan nan 16777215
nan nan nan 16777215
nan nan nan 16777215
nan nan nan 16777215
nan nan nan 16777215
nan nan nan 16777215
nan nan nan 16777215
-3015.6853 643.09039 3236.2361 3554364
-3144.5898 675.11835 3397.4106 3489085
-3146.5227 680.13715 3422.667 3357756
-3125.0786 680.13715 3422.667 3423548
-3080.9507 675.16614 3397.6514 3422776
-3059.687 675.17133 3397.6775 3356983
-3042.4224 676.06525 3402.176 3422519
-3026.7629 677.33105 3408.5459 3488569
-3016.5618 679.84491 3421.1965 3619898
-2997.4727 680.37744 3423.8762 3488826
-2978.9116 681.03827 3427.2017 3619898
-2947.564 678.76416 3415.7578 3423548
-2920.9094 677.54553 3409.625 3555134
-2899.5469 677.54553 3409.625 3489341
-2896.0562 681.75256 3430.7964 3357755
-2874.561 681.75256 3430.7964 3291962
-2836.4314 677.77765 3410.7932 3226169
-2818.3169 678.5614 3414.7373 3160376
-2887.1709 700.4566 3524.9209 3423548
-2790.9626 682.33478 3433.7263 3489341
-2754.2852 678.59869 3414.925 3555134
-2710.7517 673.10168 3387.2625 3817793
-2689.5295 673.10168 3387.2625 3883586
-2674.5132 674.66711 3395.1401 3686977
-2653.2415 674.66711 3395.1401 3686720
-2634.6152 675.34521 3398.5525 3686720
-2631.9836 680.16785 3422.8215 3686720
-2609.5681 679.91498 3421.5491 3752513
-2557.0757 671.75653 3380.4932 3949892
-2521.6077 667.97162 3361.446 3818307
-2504.283 668.96954 3366.4683 3884099
-2473.6062 666.38739 3353.4739 3949892
-2459.6841 668.31342 3363.1663 3950149
-2438.6128 668.31342 3363.1663 3950149
-2394.1082 661.83539 3330.5669 3752770
-2396.8955 668.43207 3363.7632 3489598
-2385.5127 671.15887 3377.4856 3884356
-2385.2222 677.08331 3407.2991 4344907
-2359.6333 675.86847 3401.1858 4542286
-2322.2515 671.22296 3377.8081 5002837
-2302.1929 671.54517 3379.4294 5068630
-2286.4885 673.15515 3387.5315 5002837
-2240.4917 665.79358 3350.4856 4805971
-2226.856 668.00024 3361.5903 3950918
-2231.5925 675.81274 3400.9055 3950406
-2208.9185 675.39508 3398.8035 4147785
-2187.6238 675.39508 3398.8035 4344651
-2175.083 678.12421 3412.5374 4279114
-2198.0251 692.07983 3482.7664 4279370
-2136.5015 679.45343 3419.2263 4345161
-2117.4133 680.20331 3422.9998 4147782
-2103.4685 682.6377 3435.2505 4147782
-2094.3398 686.7016 3455.7014 4147782
-2072.6887 686.7016 3455.7014 3884866
-2050.2749 686.44623 3454.4163 3818560
-2015.5459 682.01819 3432.1331 3752767
-1991.7148 681.22205 3428.1265 3555132
-1996.7228 690.37982 3474.2114 3621181
-1973.4016 689.83649 3471.4773 3752511
-1945.5507 687.67999 3460.6252 3686718
-1912.0804 683.46637 3439.4207 3489339
-1879.1716 679.35956 3418.7539 3489339
-1864.7375 681.914 3431.6089 3752511
-1845.7947 682.86011 3436.3696 4015683
-1824.2646 682.86011 3436.3696 3818304
-1801.0856 682.23535 3433.2258 3620925
-1780.0895 682.4325 3434.218 3686718
-1757.2549 681.92096 3431.6438 3686718
-1735.7546 681.92096 3431.6438 3620925
-1717.4678 683.19928 3438.0767 3620925
-1702.656 685.90991 3451.7175 3555132
-1685.781 687.84851 3461.4731 3555132
-1671.6858 690.98663 3477.2651 3620925
-1649.8995 690.98663 3477.2651 3620925
-1633.5724 693.30347 3488.9243 3620925
-1620.9027 697.25653 3508.8171 3686718
-1595.5061 695.76831 3501.3279 3752511
-1578.1932 697.81281 3511.6167 3884097
-1555.7633 697.62067 3510.6497 3226936
-1524.3954 693.35754 3489.1965 3160887
-1507.6254 695.70685 3501.0188 3489852
-1498.0631 701.50061 3530.1748 3621438
-1475.9454 701.50061 3530.1748 3621438
-1458.6846 703.84412 3541.968 3752768
-1412.078 691.88135 3481.7678 3950149
-1423.3485 708.34637 3564.625 3884356
-1404.7067 710.21295 3574.0181 3884356
-1381.7122 709.9035 3572.4609 3950406
-1354.701 707.48627 3560.2966 4147528
-1340.4958 711.7879 3581.9438 4147528
-1318.0538 711.7879 3581.9438 4147528
-1297.6515 712.90845 3587.5828 4081735
-1278.4215 714.72394 3596.7188 3950406
-1247.5212 709.96301 3572.7603 3818563
-1224.8068 709.77179 3571.7979 3686977
-1185.8268 699.97217 3522.4832 3752770
-1183.5907 711.90149 3582.5151 3818563
-1164.1138 713.72162 3591.6746 3686977
-1135.2751 709.76062 3571.7417 3489341
-1118.6884 713.45392 3590.3279 2831668
-1085.0829 706.22247 3553.9368 2634032
-1058.4534 703.3233 3539.3474 2830641
-1046.3286 710.14447 3573.6736 2962227
-1023.8132 710.05768 3573.2366 3028020
-988.07837 700.59375 3525.6111 3159863
-967.33606 701.5705 3530.5264 3356985
-931.42902 691.33716 3479.0291 3356985
-909.66272 691.36066 3479.1472 3422777
-887.86475 691.36066 3479.1472 3356983
-852.45026 680.49084 3424.447 2896688
-836.62915 685.10455 3447.6648 2896432
-820.41986 689.63647 3470.4707 3028017
-790.91577 682.93549 3436.7493 3225141
-767.5885 681.34222 3428.7312 3093556
-736.75342 672.80109 3385.7495 2830641
-729.09875 685.54932 3449.9028 2830642
-707.48407 685.54932 3449.9028 3356472
-687.26593 686.94525 3456.9277 3225143
-661.79968 683.01569 3437.1528 3159350
-643.09967 686.03979 3452.3711 3159606
-622.04761 686.67798 3455.5825 3290935
-603.74518 690.50696 3474.8513 3554364
-585.69379 694.92029 3497.0605 3488058
-565.59796 697.15662 3508.3145 3422265
-544.85663 698.74597 3516.3127 3422265
-523.01056 698.99292 3517.5552 3159350
-500.88071 698.86554 3516.9143 3224886
-475.86469 694.51416 3495.0168 3224885
-451.01959 690.00452 3472.3228 2961970
-440.56271 708.16541 3563.7144 3422265
-418.46854 708.56097 3565.7048 3159863
-396.14142 708.58447 3565.8232 3028277
-372.7644 706.62061 3555.9402 3488571
-349.07477 703.77673 3541.6289 3422778
-324.85464 699.40454 3519.627 3422778
-300.67197 694.48224 3494.856 3751743
-280.58557 698.99121 3517.5466 3883329
-258.2081 698.07489 3512.9353 3489597
-234.10468 691.88672 3481.7947 3555134
-210.39503 685.71014 3450.7124 3489855
-189.45273 688.17108 3463.0964 3292218
-167.22057 685.97723 3452.0562 3489854
-144.43408 680.51978 3424.5928 3555390
-122.48996 677.81946 3411.0037 3423805
-102.0919 684.34119 3443.8232 3555391
-80.512199 684.31506 3443.6919 3555648
-58.936401 684.31506 3443.6919 3555391
-37.282681 682.88776 3436.509 3555391
-15.794692 684.74359 3445.8481 3292219
5.8558154 691.97552 3482.2417 3094840
27.706654 692.8136 3486.459 3292219
49.141575 687.09735 3457.6931 3489598
71.509674 693.93469 3492.1006 3818563
93.367958 693.78003 3491.3225 3621184
116.79188 703.10956 3538.2715 3686977
138.91394 702.87524 3537.0925 3621184
161.29337 703.82843 3541.8892 3555391
179.5768 688.83929 3466.459 3818819
200.6199 686.52826 3454.8291 4213833
226.59169 699.89099 3522.0747 4148041
251.67786 708.38922 3564.8403 4082248
272.62527 704.80237 3546.7905 4148041
295.21014 705.67047 3551.1589 4081735
317.78186 706.38751 3554.7673 3950149
337.22546 700.51276 3525.2036 4015942
362.84137 707.39368 3559.8306 3950406
384.41556 706.05426 3553.0903 3884099
397.4631 690.05786 3472.5913 3949635
426.23105 701.59851 3530.6675 3686720
449.96997 704.13074 3543.4104 4278600
468.60358 698.81146 3516.6423 4410443
490.41064 698.48987 3515.0237 4081992
511.90927 697.77551 3511.4287 3950406
533.90948 697.77551 3511.4287 4147528
553.02637 694.15643 3493.2166 4213321
576.20581 695.71802 3501.0752 4147785
594.91937 691.9707 3482.2173 4213321
616.31525 691.49805 3479.8386 4147528
635.6405 688.81372 3466.3303 4147528
646.6767 677.62115 3410.0059 4015942
675.42993 685.11566 3447.7205 3884356
701.88672 689.88837 3471.7385 3884356
721.90643 688.23737 3463.4299 3686977
740.98199 685.80884 3451.2087 3949892
757.81 681.49677 3429.5093 4015685
779.29694 681.49677 3429.5093 3554878
808.48785 688.05316 3462.5029 3489341
835.12201 692.14783 3483.1084 3818306
858.53943 693.43585 3489.5903 3686720
881.44727 694.25854 3493.7305 3291962
903.11322 694.08685 3492.8665 3291962
928.60126 696.79132 3506.4761 3226169
952.35944 698.10266 3513.0754 3094583
977.94586 700.66479 3525.9685 3160376
1005.3182 704.36481 3544.5881 3028791
1030.3313 706.28772 3554.2651 3160377
1041.4749 698.82288 3516.6997 2897205
1073.962 705.6922 3551.2681 2962995
1097.6666 706.62866 3555.9807 3160374
1123.8752 709.10785 3568.4568 3357753
1146.4249 709.22681 3569.0554 3423546
1173.9238 712.3443 3584.7437 3423546
1193.8669 710.84601 3577.2039 3423546
1216.3881 710.90961 3577.5239 3489339
1234.1008 708.21161 3563.9465 3489339
1259.9932 710.21997 3574.0532 3423546
1286.03 712.23828 3584.2102 3489339
1303.2677 709.39777 3569.9158 3423546
1324.9685 709.04144 3568.1226 3357753
1345.6149 708.14203 3563.5964 3489339
1369.9083 709.15997 3568.7192 3489339
1396.9845 711.56268 3580.8103 3489339
1427.2838 715.50513 3600.6501 3686717
1441.4454 711.36084 3579.7947 3555132
1459.7178 709.34119 3569.6311 3226167
1493.6127 714.85962 3597.4014 3094838
1517.1212 715.31683 3599.7024 3028788
1533.637 712.51184 3585.5869 3028788
1556.7479 712.80774 3587.0759 3094581
1581.7223 713.93628 3592.7549 3160374
1598.8754 711.55243 3580.7585 3160374
1626.0605 713.63733 3591.2505 3028788
1662.0787 719.48895 3620.698 3160374
1682.5355 718.53748 3615.9099 3226167
1714.6051 722.50476 3635.8743 3094581
1745.3488 725.81647 3652.54 3226167
1772.8719 727.72064 3662.1223 3423546
1807.0026 732.25372 3684.9341 3423546
1830.4338 732.39136 3685.6267 3357753
1859.0669 734.58099 3696.6458 3489339
1891.9999 738.39484 3715.8384 3686718
1886.9968 727.4906 3660.9648 3555133
1903.4905 725.03625 3648.6138 3422519
1909.2224 718.58978 3616.1731 3422776
1982.515 737.42462 3710.9561 3488569
2002.5408 736.23914 3704.99 3488569
2023.3328 735.35925 3700.5623 3422776
2052.7795 737.60919 3711.8848 3356983
2057.8926 731.16296 3679.4453 3422776
2087.0488 733.3075 3690.2373 3685948
2114.592 734.84448 3697.9717 3554362
2137.761 734.84448 3697.9717 3488312
2156.5583 733.35779 3690.4905 3554362
2166.8569 729.04333 3668.7786 3883327
2192.8484 730.04395 3673.814 3488569
2167.1189 713.98358 3592.9932 3356982
2190.0186 714.11035 3593.6309 3488568
2229.6787 719.64392 3621.4778 3356983
2252.3684 719.64392 3621.4778 3291190
2268.9927 717.72534 3611.8228 3028018
2287.9341 716.57031 3606.0105 2962482
2294.8875 711.72003 3581.6023 3160117
2317.3274 711.72003 3581.6023 3555388
2367.2571 720.08203 3623.6826 3884097
2402.1936 723.76782 3642.2305 3884099
2409.897 719.25616 3619.5264 3555134
2436.2307 720.33722 3624.9666 3489341
2470.103 723.60675 3641.4199 3620927
2491.7339 723.26318 3639.6909 2831411
2536.3464 729.53601 3671.2581 3094583
2569.1565 732.33191 3685.3276 3291962
2583.2571 729.79242 3672.5483 3423548
2574.3359 720.85138 3627.554 3357755
2614.8308 725.78284 3652.3706 3488315
2643.3457 727.33246 3660.1689 3554105
2672.8303 729.11987 3669.1638 3422776
2724.6853 736.92725 3708.4529 3225397
2687.8113 720.80756 3627.3335 2830639
2692.4673 716.00208 3603.1509 2633517
2694.0933 710.47754 3575.3496 2962225
2727.0696 713.24353 3589.2688 3028018
2771.3403 718.89404 3617.7041 3028018
2798.8013 720.12775 3623.9126 3093811
2810.1958 717.24103 3609.3857 3028018
2807.3479 710.79431 3576.9438 2962225
2816.7896 707.53674 3560.5505 2962226
2833.5066 706.14337 3553.5388 3422519
2835.426 701.11279 3528.2234 3553849
2831.6582 694.76465 3496.2773 3553849
2871.5291 699.13879 3518.2893 3356727
2896.7271 699.90106 3522.1252 3619384
2887.3613 692.36371 3484.1951 3619385
2990.0127 711.59869 3580.9915 3355700
3053.2209 721.22986 3629.4585 3158064
3043.1345 713.53296 3590.7256 3092528
3076.49 716.0603 3603.4438 3026734
3108.377 718.21155 3614.2695 2698026
3126.5081 717.17621 3609.0593 3026734
3131.8145 713.23511 3589.2266 3092527
3161.1279 714.7785 3596.9934 3224114
3178.6484 713.65247 3591.3267 3223859
3210.1794 715.66559 3601.4575 3289653
3179.6765 703.91754 3542.3374 3158066
3185.561 700.33203 3524.2942 3421239
3255.8552 710.85852 3577.2668 3618874
3277.1746 710.62146 3576.074 3684667
3299.5798 710.62146 3576.074 3619387
3296.7139 705.21558 3548.8696 3685437
3341.7473 710.05988 3573.2478 3553851
3388.9058 715.28827 3599.5586 3553851
3419.1443 716.89984 3607.6687 3422265
3432.416 714.95612 3597.8872 3487802
3444.0176 712.69214 3586.4944 3356986
3426.4292 704.4563 3545.0488 3422778
3440.1111 702.71405 3536.2812 3554364
3465.7683 703.42468 3539.8574 3817536
3494.3752 704.72125 3546.3821 3817536
3484.373 698.2641 3513.8875 3751743
3529.1572 702.79816 3536.7046 3751743
3553.4958 703.22968 3538.876 3685950
3561.8855 700.51898 3525.2351 3488571
3554.8354 694.82404 3496.5762 3356985
3591.3884 697.66913 3510.8938 3356985
nan nan nan 16777215
nan nan nan 16777215
nan nan nan 16777215
nan nan nan 16777215
nan nan nan 16777215
nan nan nan 16777215
nan nan nan 16777215
-2868.0396 630.7865 3077.7922 3685950
-2995.4092 663.25916 3236.2361 3554877
-3017.979 672.81104 3282.8423 3489341
-2994.0574 672.05817 3279.1692 3555134
-2957.8979 668.52911 3261.9497 3423548
-2933.2656 667.57434 3257.291 3423548
-2916.7905 668.47565 3261.689 3226426
-2897.3728 668.71057 3262.8352 3489342
-2880.6221 669.56879 3267.0225 3292219
-2856.9509 668.81909 3263.3645 3489341
-2833.6001 668.13409 3260.0225 3555134
-2814.5513 668.46094 3261.6172 3620927
-2799.25 669.68921 3267.6101 3752513
-2788.8142 672.10809 3279.4126 3752513
-2773.9358 673.48425 3286.1272 3686720
-2759.4155 674.96863 3293.3699 3686720
-2738.7778 674.96765 3293.3652 3818306
-2738.7363 680.08118 3318.3157 4147271
-2730.0332 683.10559 3333.0728 4147271
-2612.2285 658.66699 3213.8296 4147271
-2597.1165 659.94348 3220.0581 4015685
-2583.4333 661.60596 3228.1697 4146244
-2537.4131 654.94794 3195.6831 3818048
-2534.9612 659.5191 3217.9871 3752768
-2540.2222 666.18634 3250.5186 3818561
-2529.2368 668.66614 3262.6184 3818305
-2515.3503 670.41321 3271.1428 3949890
-2496.9199 670.96796 3273.8496 3949890
-2456.3167 665.52423 3247.2881 3949889
-2398.8328 655.37769 3197.7803 4081476
-2378.7976 655.37769 3197.7803 3949889
-2360.877 655.96521 3200.6467 3686719
-2351.311 658.90399 3214.9858 3884099
-2400.3413 678.45575 3310.3848 4279114
-2287.9236 652.31744 3182.8481 4608079
-2277.4053 655.02771 3196.0723 4673872
-2240.5249 650.1366 3172.2073 4542286
-2220.6501 650.1366 3172.2073 4476493
-2218.7905 655.45856 3198.1746 4213321
-2198.7529 655.45856 3198.1746 4081735
-2211.3894 665.28833 3246.1372 4081735
-2191.5554 665.44141 3246.884 4410700
-2144.6626 657.30426 3207.1804 4016455
-2128.5181 658.52618 3213.1423 4081478
-2146.804 670.52533 3271.6897 4015685
-2135.843 673.53284 3286.3643 4081988
-2118.0193 674.41364 3290.6621 4016196
-2106.5051 677.3407 3304.9438 3950403
-2101.1917 682.33936 3329.334 4015939
-2084.3359 683.65247 3335.7412 4081989
-2064.1169 683.87799 3336.8413 3950403
-2047.8926 685.44507 3344.4875 4016196
-2034.6843 688.06451 3357.2688 4213832
-1999.03 683.06891 3332.8936 4410954
-1954.8235 675.01459 3293.5945 4016196
-1945.297 678.89148 3312.5107 3555902
-1928.3206 680.224 3319.0127 3752768
-1935.3328 690.13995 3367.3955 3752767
-1908.7065 688.14679 3357.6702 3818304
-1884.4872 686.98657 3352.0093 3818304
-1861.4825 686.24811 3348.406 3818304
-1822.1226 679.39453 3314.9651 3818304
-1799.0977 678.54376 3310.8142 3884097
-1784.312 680.81696 3321.9058 3949890
-1764.5006 681.20361 3323.7922 3950147
-1737.0411 678.61151 3311.1445 4015683
-1716.2958 678.61151 3311.1445 3949890
-1694.9838 678.38464 3310.0378 4081476
-1677.8135 679.83044 3317.092 4213062
-1655.4347 679.1756 3313.897 4147269
-1644.7656 683.36932 3334.3594 3686718
-1631.9109 686.75104 3350.8599 3555132
-1601.3512 682.67316 3330.9626 3752511
-1580.4817 682.67316 3330.9626 3752511
-1572.4403 688.28827 3358.3606 3884097
-1564.8347 694.24908 3387.4451 4015683
-1545.0328 694.88837 3390.5645 3687488
-1523.0468 694.5495 3388.9109 3818817
-1507.8223 697.32812 3402.4685 3621438
-1473.4061 691.18347 3372.4871 3621438
-1463.4702 696.51093 3398.4812 3555645
-1444.0903 697.43469 3402.9885 3489852
-1422.8269 697.46277 3403.1255 3621438
-1405.2906 699.34656 3412.3171 3818563
-1394.9333 704.91644 3439.4941 3818563
-1373.0693 704.75494 3438.7063 3818563
-1351.9347 704.96869 3439.7493 3818820
-1331.77 705.70331 3443.3337 3818563
-1311.5015 706.40625 3446.7634 3950149
-1289.0483 705.93634 3444.4707 3950149
-1270.3135 707.52136 3452.2043 3818563
-1251.527 709.13208 3460.0635 3884356
-1221.96 704.58344 3437.8694 3884356
-1202.2061 705.63141 3442.9827 3818563
-1189.8 711.10931 3469.7109 3752770
-1168.5448 711.40369 3471.1472 3686977
-1149.8624 713.3053 3480.4258 3752770
-1130.9487 715.13422 3489.3496 3818563
-1100.8234 709.80579 3463.3508 3884356
-1065.6489 700.94214 3420.1025 3949892
-1057.8782 710.10974 3464.8337 2962996
-1028.714 705 3439.9021 3029047
-1010.5244 707.35376 3451.3865 3423548
-985.11566 704.64655 3438.1772 3686205
-966.89905 707.07788 3450.0403 3488825
-940.49548 703.49634 3432.5652 3291446
-919.13214 703.60565 3433.0984 3291446
-898.75287 704.49146 3437.4207 3356983
-866.38037 695.78912 3394.9595 3488569
-842.61676 693.73645 3384.9438 3554362
-820.69098 693.13007 3381.9849 3685948
-799.6225 693.23474 3382.4956 3883327
-776.64307 691.64331 3374.7305 3949377
-747.97589 684.75574 3341.124 4015169
-729.98596 687.52777 3354.6497 3818050
-710.8399 689.34296 3363.5068 3818307
-689.49231 689.06903 3362.1699 4015684
-669.61401 690.29242 3368.1392 3620928
-647.02197 688.70685 3360.4026 3686720
-627.03766 689.88367 3366.145 3752513
-607.26819 691.38708 3373.4805 3884356
-587.50836 693.01019 3381.4001 3949892
-565.87451 692.46161 3378.7234 3884099
-547.16742 695.59106 3393.9929 3818307
-526.04285 695.77606 3394.8955 3950149
-506.21835 697.76855 3404.6174 3752513
-482.98477 695.03064 3391.2585 3489341
-461.34659 694.44232 3388.3877 3621184
-442.11737 697.59814 3403.7859 3621183
-423.47672 702.04956 3425.5059 3686720
-398.57098 696.03546 3396.1611 4081478
-376.69955 694.94061 3390.8193 3818306
-354.30185 692.6861 3379.8188 3620927
-335.07849 696.74548 3399.6257 3949892
-310.4277 689.30444 3363.3188 4081478
-289.58167 689.84332 3365.948 4081478
-270.0538 693.85364 3385.5156 3752513
-244.74896 682.43958 3329.8228 3555134
-225.07333 686.05688 3347.4729 3555134
-204.07648 685.97656 3347.0808 3620927
-182.05133 682.02557 3327.8027 3620927
-162.45695 687.33673 3353.7175 3423548
-141.49921 687.60071 3355.0056 3357755
-120.24915 686.28857 3348.6035 3423548
-99.241203 686.0957 3347.6621 3358012
-77.784653 681.86682 3327.0283 3555391
-57.162266 684.53101 3340.0278 3358012
-36.388321 687.40942 3354.0723 3621184
-15.426633 689.76184 3365.5505 3621184
5.6136732 684.16632 3338.2483 3884356
26.791286 690.93488 3371.2739 3686977
48.210831 695.22449 3392.2043 3752770
69.728958 697.87585 3405.1414 3884356
91.063232 697.87585 3405.1414 3686977
112.24783 696.94659 3400.6069 3489598
133.76604 698.05475 3406.0139 3489598
155.9662 701.92712 3424.9084 3489598
177.91864 703.88281 3434.4507 3555391
197.55219 697.23218 3402.0005 3950149
219.12936 698.06873 3406.0823 4015942
240.82707 699.10663 3411.1465 3818563
261.84857 698.17242 3406.5881 3818563
283.54172 699.03485 3410.7964 4015942
303.76648 696.41003 3397.9888 4015942
324.06238 694.28137 3387.6025 3950149
348.15057 700.03973 3415.6995 4147528
366.34711 693.9707 3386.0867 4279114
386.3031 691.71649 3375.0876 4279114
408.34293 693.23395 3382.4919 3818563
430.38269 694.60168 3389.1653 3818563
453.64673 697.72357 3404.3982 4213578
474.97635 697.72357 3404.3982 4081735
497.38965 699.24713 3411.8318 3818563
514.604 693.63727 3384.46 4344907
532.39215 689.21442 3362.8794 4410700
552.45673 687.96301 3356.7734 4213321
572.58984 686.88568 3351.5168 4213321
590.92419 683.80298 3336.4753 4081735
609.37134 681.05707 3323.0774 4015942
632.46417 683.51318 3335.0615 3621184
653.35938 683.51318 3335.0615 3752770
674.38788 683.64838 3335.7212 3884356
693.53314 681.92371 3327.3059 3818306
715.82684 683.30505 3334.0459 3884098
735.65314 682.31946 3329.2371 3752512
756.98035 682.74213 3331.2991 3489340
778.61316 683.41016 3334.5588 3818305
808.99542 691.52234 3374.1404 3818561
833.97278 694.71893 3389.7375 3357241
845.33167 686.69391 3350.5813 3160119
867.12079 687.32544 3353.6626 3225912
897.50372 694.57788 3389.0491 3357498
920.41138 695.84357 3395.2249 3357498
944.17114 697.68176 3404.1941 3291961
966.14423 698.14764 3406.4673 3357755
989.45654 699.54028 3413.2622 3423547
1005.7118 695.99023 3395.9404 3291962
1035.4711 701.73889 3423.99 3094581
1050.9429 697.76819 3404.6157 3226167
1068.6741 695.4256 3393.1855 3357753
1089.9335 695.4256 3393.1855 3291960
1116.5437 698.77435 3409.5251 3160374
1137.7441 698.67542 3409.0422 3291961
1159.5419 698.94 3410.3333 3028788
1181.7399 699.43201 3412.7339 2897202
1193.2037 693.66614 3384.6008 2897202
1214.7791 693.87732 3385.6311 3160118
1245.7678 699.36603 3412.4119 3423290
1268.4191 700.06769 3415.8357 3555132
1288.0817 699.12402 3411.2312 3555132
1311.4603 700.19513 3416.4575 3094838
1332.0055 699.74335 3414.2532 3291961
1353.7209 699.91095 3415.0708 3357754
1383.1305 703.9895 3434.9712 3489339
1400.3879 701.85254 3424.5444 3357753
1409.1843 695.60358 3394.054 3489339
1446.4525 703.3858 3432.0256 3226167
1471.6979 705.17908 3440.7756 3423546
1476.2528 697.14972 3401.5981 3489339
1491.0411 694.11273 3386.7798 3489595
1522.24 698.69336 3409.1299 3818303
1543.3971 698.60181 3408.6833 3620925
1577.5018 704.29346 3436.4543 3489339
1607.4493 708.00073 3454.5432 3423546
1652.6758 718.24969 3504.551 3291960
1670.6484 716.54083 3496.2129 3291960
1688.8374 714.96771 3488.5371 3291960
1721.2612 719.38403 3510.0859 3357753
1742.7665 719.18329 3509.1064 3226167
1737.2734 707.98492 3454.4663 3291960
1790.3717 720.646 3516.2434 2897202
1782.3287 708.68823 3457.8979 2962995
1775.5217 697.5033 3403.3232 3291190
1815.283 704.66071 3438.2463 3422776
1876.4528 719.86322 3512.4238 3422776
1917.9009 727.23523 3548.394 3422776
1928.7502 722.96863 3527.5762 3356983
1924.3135 713.13385 3479.5894 3291190
1941.5822 711.47308 3471.4861 3356983
1953.4342 707.88635 3453.9851 3291190
1969.0983 705.74438 3443.5339 2896689
2013.0261 713.66913 3482.2009 3094067
2035.5408 713.91376 3483.3948 3159604
2051.6077 711.91583 3473.6462 3159860
2055.1064 705.64447 3443.0464 3291189
2061.5435 700.50177 3417.9536 3291190
2109.0942 709.29144 3460.8411 3422776
2130.7776 709.29144 3460.8411 3356983
2169.7537 714.98981 3488.6453 3159604
2177.7639 710.47235 3466.603 3159604
2205.3318 712.36157 3475.821 3160117
2204.7271 705.20245 3440.8899 3094838
2239.1279 709.27063 3460.7395 3291960
2265.5327 710.75195 3467.9675 3620925
2310.2754 717.90375 3502.863 3752513
2311.1382 711.41376 3471.1965 3555134
2342.5686 714.36633 3485.603 3423548
2373.2114 717.02643 3498.5825 3620927
2363.6748 707.60938 3452.634 3686720
2438.4573 723.37677 3529.5676 3160376
2455.6565 721.93188 3522.5176 3291962
2465.2959 718.31018 3504.8462 3291962
2486.4399 718.07483 3503.6978 3291962
2505.8987 717.36115 3500.2156 3357755
2509.9363 712.28351 3475.4404 3292217
2531.7109 712.28351 3475.4404 3292473
2568.7769 716.54889 3496.2524 3423803
2607.3713 721.16498 3518.7756 3488569
2625.6777 720.13928 3513.771 3225397
2650.0984 720.79364 3516.9636 2962225
2658.6934 717.16833 3499.2747 2962225
2662.7827 712.39679 3475.9932 3093811
2685.5376 712.65607 3477.2581 3159348
2697.6003 710.0965 3464.7693 3158834
2713.7898 708.65552 3457.7383 3093298
2727.5928 706.61908 3447.8018 3027505
2741.0916 704.53644 3437.6399 3027505
2767.6223 705.80969 3443.8525 3290677
2782.8108 704.19312 3435.9648 3290677
2806.3184 704.69037 3438.3911 3421492
2817.1394 702.01862 3425.3547 3487542
2838.1699 701.91217 3424.8354 3553335
2870.9172 704.68323 3438.3564 3487542
2951.6543 719.10474 3508.7231 3355443
2946.9358 712.64758 3477.2166 3290420
2950.1406 708.18719 3455.4531 3421749
2946.1794 702.08405 3425.6741 3158577
2966.2539 701.75555 3424.0713 2961455
3016.5149 708.52203 3457.0869 3027248
3041.6636 709.33569 3461.0571 3092784
3079.8811 713.164 3479.7366 3553078
3150.2593 724.33313 3534.2339 3356212
3158.8015 721.22772 3519.0818 3355955
3173.3447 719.52606 3510.7788 3355956
3159.9912 711.56604 3471.9395 3552825
3181.7439 711.56604 3471.9395 3422008
3209.1643 712.82489 3478.0818 3619644
3239.0393 714.60834 3486.7839 3817023
3268.4983 716.27679 3494.9246 3948609
3282.2847 714.51117 3486.3098 3948609
