# .PCD v0.7 - Point Cloud Data file format
VERSION 0.7
FIELDS x y z rgb
SIZE 4 4 4 4
TYPE F F F U
COUNT 1 1 1 1
WIDTH 1269
HEIGHT 1
VIEWPOINT 0 0 0 1 0 0 0
POINTS 1269
DATA ascii
-684.60864 683.76404 2895.9736 2634291
-665.52368 682.79877 2891.8855 2436912
-645.65857 680.95679 2884.084 2897463
-628.73969 682.20544 2889.3726 2963256
-612.99774 684.84296 2900.5435 2765877
-596.58105 686.86493 2909.1069 2700084
-579.5943 688.33716 2915.3425 2502705
-559.47424 686.06299 2905.7107 2502962
-542.16559 687.19934 2910.5234 2502705
-526.48975 690.55652 2924.7422 2634291
-505.11945 686.41736 2907.2114 2765877
-486.98895 686.53595 2907.7136 3029049
-466.27701 682.883 2892.2422 3029049
-446.49927 680.35828 2881.5491 2897463
-429.9686 682.77692 2891.793 2700084
-412.06168 683.12683 2893.2749 2831927
-393.77969 682.85858 2892.1387 2765877
-375.09372 681.82996 2887.7822 2831670
-359.99615 687.5506 2912.0112 3094842
-337.71021 679.42017 2877.5759 2897463
-320.02426 680.14911 2880.6631 2831927
-301.58548 679.26941 2876.9375 2897975
-286.47989 686.26263 2906.5562 2700597
-267.43039 684.11633 2897.4658 2503218
-246.81763 677.36719 2868.8809 2569011
-227.82936 674.36621 2856.1709 2503218
-209.93456 674.36621 2856.1709 2634804
-192.06071 674.43982 2856.4827 2634804
-174.04623 673.98395 2854.5518 2569011
-156.27771 674.48511 2856.6743 2569011
-138.37975 674.48511 2856.6743 2700597
-120.37508 673.8877 2854.144 2766390
-102.22387 672.11823 2846.6497 2766390
-84.622635 673.9812 2854.54 2503218
-66.85524 675.16461 2859.5522 2503218
-48.926079 674.98285 2858.7822 2437425
-30.989178 674.42255 2856.4094 2634804
-13.097352 674.65253 2857.3833 2634804
4.824203 677.34314 2868.7791 2569011
22.924337 681.09692 2884.6775 2569011
41.078255 682.43457 2890.343 2569011
59.177719 682.32587 2889.8826 2569011
77.28373 682.32587 2889.8826 2569011
95.305115 681.72046 2887.3186 2634547
112.77493 677.99237 2871.5288 2502705
131.8793 683.76483 2895.9773 2963256
152.40718 694.62897 2941.9905 3095099
169.27728 688.27643 2915.0852 2897463
187.84488 689.39087 2919.8054 2897463
206.33453 690.04694 2922.584 2831670
224.64221 690.03711 2922.5422 2765877
242.41109 688.49835 2916.0251 3094842
260.68088 688.49835 2916.0251 2897463
278.32361 686.95062 2909.47 2897463
297.60324 689.38495 2919.7803 2831670
319.79407 697.89056 2955.8044 2634291
338.61926 698.52216 2958.4792 2305326
349.84567 684.22644 2897.9321 2634291
371.61093 690.93634 2926.3508 2831670
388.79474 688.89746 2917.7156 2436912
404.62018 684.74292 2900.1196 2765877
421.70554 682.98602 2892.6787 2700084
438.33533 680.66644 2882.8545 2436912
455.26959 678.98462 2875.7312 2371119
473.1759 678.82532 2875.0564 2897463
493.66489 682.24695 2889.5483 3160635
513.03265 683.93188 2896.6846 3094842
529.11786 681.27509 2885.4321 3160635
546.26166 680.11182 2880.5051 3160635
563.85321 679.56256 2878.179 3094842
582.76276 680.58655 2882.5161 3226428
600.82257 680.58655 2882.5161 3160635
618.07306 679.69641 2878.7461 2963256
635.47119 679.01465 2875.8584 3029049
652.71332 678.20831 2872.4434 3160635
669.87695 677.36591 2868.8755 3358014
685.81433 675.35999 2860.3796 3358014
704.98114 676.5553 2865.4424 3160635
726.50458 679.89685 2879.595 2963256
750.38312 685.22705 2902.1699 3029049
762.76056 680.0509 2880.2476 2963256
781.91724 681.01862 2884.3459 2963256
799.98853 681.01862 2884.3459 3160635
817.93982 680.91864 2883.9226 3095099
836.05347 680.95532 2884.0779 3160635
854.52759 681.27783 2885.4438 3160635
873.38904 681.88934 2888.0337 3094842
895.36713 684.85986 2900.615 3226428
913.70148 684.98071 2901.1267 3160635
932.22028 685.2323 2902.1924 3160635
950.99646 685.65985 2904.0032 3094842
968.85748 685.42395 2903.0042 3160635
983.62872 683.05121 2892.9546 3226172
1008.3069 687.51923 2911.8784 3160635
1033.1812 691.95996 2930.6863 3160635
1044.4038 687.26215 2910.7896 3160635
1060.9187 686.14838 2906.0723 3160635
1074.7966 683.39557 2894.4131 2765877
1092.6696 683.23206 2893.7207 2963513
1114.2634 685.36261 2902.7441 3160635
1135.4233 687.16199 2910.3652 3226428
1152.5505 686.5025 2907.5723 3358014
1170.2448 686.19617 2906.2747 3423807
1182.2687 682.62512 2891.1499 3555393
1198.5706 681.59467 2886.7856 3292221
1216.9794 681.77521 2887.5503 3094842
1224.8221 676.11774 2863.5891 3094842
1244.4515 677.03619 2867.479 3555393
1260.0278 675.75476 2862.0518 3555393
1288.2897 681.2171 2885.1868 3358014
1295.6149 675.61072 2861.4417 3160635
1312.7201 675.18762 2859.6497 3292221
1329.6243 674.67389 2857.4739 3226428
1343.5846 672.69995 2849.1135 3160635
1349.8425 666.97192 2824.8533 3029049
1387.7399 676.82318 2866.5767 2108203
1394.4097 671.38708 2843.5532 1910568
1410.2292 670.43811 2839.5339 2042154
1420.9955 667.14026 2825.5662 2042154
1440.4503 667.95258 2829.0068 2107947
1458.582 668.1391 2829.7966 2042154
1455.8296 658.86945 2790.5366 2436912
1511.5936 675.98859 2863.042 2831670
1521.1783 672.29688 2847.4062 2765877
1540.7782 673.06567 2850.6624 2634291
1556.7596 672.25433 2847.2261 2502705
1573.2135 671.66302 2844.7219 2502705
1592.2941 672.19391 2846.9705 2568498
1615.9208 674.61096 2857.2073 2700084
1631.3851 673.60474 2852.9456 2765877
1648.097 673.12988 2850.9343 2765877
1662.12 671.57867 2844.3647 2765877
1687.5052 674.60266 2857.1721 2700084
1705.519 674.64728 2857.3611 2700084
1719.2281 673.0058 2850.4089 2634548
1739.3822 673.89514 2854.1755 2700084
1755.9271 673.38226 2852.0034 2436912
1774.3793 673.60376 2852.9414 2436912
1795.8031 674.93774 2858.5913 2436912
1819.1604 676.96484 2867.1768 2502705
1837.3719 677.05615 2867.5635 2305326
1859.6104 678.61517 2874.1665 2371119
1881.7953 680.125 2880.561 2371119
1903.0859 681.28595 2885.4783 2173740
1919.7264 680.77606 2883.3186 2107947
1940.8263 681.84222 2887.8342 2042154
1963.5564 683.4563 2894.6702 2042154
1989.813 686.2569 2906.5317 1778982
2006.0837 685.59412 2903.7246 1713189
2001.5187 677.88635 2871.0796 1910568
2067.2039 693.89673 2938.8892 2371119
2072.9551 689.68408 2921.0471 2371119
2093.499 690.42371 2924.1797 2239533
2114.7473 691.38074 2928.2332 2173740
2128.2825 689.82141 2921.6287 2173740
2138.7598 687.30591 2910.9746 2239533
2156.9978 687.30591 2910.9746 2305326
2192.8828 692.88171 2934.5901 2305326
2211.269 692.88171 2934.5901 2305326
2232.4365 693.74603 2938.251 2568498
2265.2771 698.19409 2957.0898 2634291
2286.5447 699.03192 2960.6384 2766133
2299.585 697.36127 2953.5625 2962743
2307.1821 694.07977 2939.6643 2831413
2331.2295 695.75995 2946.7803 2831670
2351.9209 696.41992 2949.5757 2831670
2367.0071 695.42285 2945.3528 2634291
2379.0242 693.54645 2937.4055 2502705
2394.8296 692.7948 2934.2219 2568498
2414.0125 693.02417 2935.1934 2700084
2430.0703 692.35974 2932.3794 2765877
2441.0083 690.25751 2923.4758 2831670
2452.106 688.23145 2914.8945 2831670
2476.4563 689.92737 2922.0774 2831670
2501.4338 691.77191 2929.8899 2831670
2516.291 690.81122 2925.8208 2765877
2526.6863 688.64832 2916.6602 2765877
2536.4744 686.35211 2906.9351 2700341
2553.0505 685.91235 2905.0728 2700084
2548.2175 679.7677 2879.0479 2700084
2568.8865 680.4646 2881.9995 2765877
2608.5042 686.13593 2906.0195 2700084
2626.7112 686.13593 2906.0195 2765877
2640.9497 685.10645 2901.6592 2896950
2639.4009 680.0235 2880.1311 2633778
2652.3735 678.72546 2874.6338 2633778
2670.3054 678.70551 2874.5491 2567985
2684.0955 677.6402 2870.0371 2567985
2700.1609 677.15961 2868.0017 2567985
2727.5393 679.50378 2877.9299 2633778
2748.8167 680.30719 2881.3328 2699571
2755.0425 677.39929 2869.0168 2633778
2777.575 678.51257 2873.7319 2765364
2795.4377 678.47803 2873.5857 2831157
2810.5356 677.77728 2870.6177 2962743
2825.7302 677.10852 2867.7854 2896951
2855.2727 679.86462 2879.4585 2633779
2865.3462 677.97949 2871.4741 2633779
2868.741 674.54742 2856.9382 2502193
2893.4109 676.12952 2863.6389 2436400
2906.3425 674.966 2858.7109 2633779
2902.1301 669.85962 2837.084 2567987
nan nan nan 16777215
nan nan nan 16777215
nan nan nan 16777215
nan nan nan 16777215
nan nan nan 16777215
nan nan nan 16777215
nan nan nan 16777215
nan nan nan 16777215
nan nan nan 16777215
-2507.3252 660.95331 2727.3726 3292221
-2483.5093 659.16748 2720.0037 3160635
-2457.2876 656.71417 2709.8801 3029049
-2433.2988 654.82751 2702.095 3160635
-2421.1719 656.12903 2707.4656 3358014
-2405.1716 656.39172 2708.5498 3489600
-2385.5068 655.65112 2705.4934 3423807
-2354.1875 651.67365 2689.0808 3160635
-2339.4775 652.26971 2691.5405 2700084
-2335.4651 655.87866 2706.4326 2831670
-2307.2 652.67963 2693.2319 3160635
-2291.1267 652.90784 2694.1736 3160635
-2277.2114 653.75891 2697.6855 3226428
-2256.9465 652.78625 2693.6719 3160635
-2252.6052 656.43921 2708.7456 2634291
-2247.0969 659.80493 2722.634 2568498
-2238.217 662.22473 2732.6189 2831670
-2252.54 671.59961 2771.304 2765620
-2231.7546 670.57141 2767.061 2963256
-2215.2766 670.8313 2768.1335 2964026
-2198.4766 670.99713 2768.8176 3226941
-2170.7878 667.81573 2755.6899 3358527
-2162.4771 670.59259 2767.1484 3424320
-2157.9646 674.60168 2783.6917 2963769
-2140.5239 674.60168 2783.6917 2700597
-2126.5168 675.69269 2788.1936 3161148
-2099.4907 672.63074 2775.5588 3160634
-2074.5442 670.18958 2765.4854 3292221
-2041.2931 665.00171 2744.0781 3094585
-2005.1808 658.78577 2718.4285 2765877
-2010.7483 666.27423 2749.3289 2700341
-2018.3655 674.57709 2783.5901 3094842
-2000.9254 674.57709 2783.5901 3160635
-1967.0664 668.9931 2760.5481 3029049
-1958.4772 671.98041 2772.875 2700084
-1931.2225 668.55945 2758.7588 2831670
-1909.0648 666.85718 2751.7346 2963256
-1891.8485 666.86572 2751.7698 3160635
-1875.5942 667.21655 2753.2175 3094842
-1861.2838 668.27197 2757.5725 3094842
-1844.6439 668.50287 2758.5254 2963256
-1816.7637 664.6261 2742.5281 2831670
-1794.5004 662.74969 2734.7854 2831927
-1782.5984 664.70081 2742.8362 2897463
-1766.9608 665.28326 2745.2397 3029049
-1745.8752 663.80591 2739.1436 3094842
-1728.7137 663.80591 2739.1436 3094842
-1717.9657 666.29321 2749.4075 2897463
-1701.9062 666.75031 2751.2935 2700084
-1684.6687 666.75031 2751.2935 2831670
-1664.2014 665.45898 2745.9648 2765877
-1647.7791 665.7749 2747.2686 2765877
-1630.5667 665.7749 2747.2686 2897976
-1605.2509 662.43097 2733.47 3095355
-1581.6196 659.71747 2722.2732 2963769
-1575.3019 664.24542 2740.9573 2634804
-1559.2286 664.71429 2742.8918 2569011
-1543.9128 665.51996 2746.2166 2832183
-1525.6156 665.04425 2744.2537 2832183
-1513.834 667.4303 2754.0996 2766390
-1496.5786 667.4303 2754.0996 2897976
-1481.0743 668.22028 2757.3594 3029819
-1455.7418 664.54242 2742.1829 3095355
-1439.9852 665.20026 2744.8972 3095099
-1425.8838 666.64783 2750.8706 3094842
-1403.4362 664.18091 2740.6912 2963000
-1381.6737 661.9812 2731.6143 2765621
-1367.8522 663.57867 2738.2061 2832440
-1354.4956 665.44519 2745.908 3161148
-1339.1299 666.35986 2749.6824 3226941
-1323.0295 666.92816 2752.0273 3292734
-1322.4526 675.43994 2787.1504 3029562
-1306.1141 676.02161 2789.5508 3095355
-1284.9524 674.08887 2781.5754 2897976
-1264.422 672.43866 2774.7659 2897976
-1244.9481 671.31213 2770.1174 3029562
-1237.2296 676.58221 2791.864 3095355
-1228.3488 681.3587 2811.574 2897976
-1210.7334 681.3587 2811.574 3292734
-1211.2198 691.69617 2854.2307 3292734
-1189.8644 689.68323 2845.9243 3424320
-1176.2948 692.19067 2856.271 3358527
-1159.9387 693.11041 2860.0664 3161148
-1143.5386 694.03241 2863.8708 3226942
-1125.5955 694.03241 2863.8708 3292478
-1110.0007 695.50378 2869.9424 3160893
-1093.3501 696.35107 2873.4387 3226685
-1074.6515 695.9007 2871.5803 3292479
-1059.7745 697.95178 2880.0439 3226687
-1042.4901 698.46088 2882.1448 3292479
-1023.4837 697.81403 2879.4753 3424065
-1003.7377 696.63049 2874.5918 3424065
-987.7373 698.05084 2880.4529 3226941
-969.61304 697.99512 2880.2229 3226940
-955.49268 700.87439 2892.1038 3292734
-937.3728 700.87439 2892.1038 3490113
-910.45557 694.16699 2864.4263 3292991
-885.42859 688.65997 2841.7021 2831927
-867.62445 688.65997 2841.7021 2765877
-843.83838 683.8125 2821.6992 2700084
-823.14429 681.31671 2811.4006 3094842
-820.81854 694.2478 2864.7598 3160635
-802.1535 693.6283 2862.2036 3555393
-777.724 687.88196 2838.4915 3489600
-751.88562 680.59131 2808.4072 3292221
-742.41656 688.12347 2839.4883 2897463
-724.10938 687.63257 2837.4626 2765877
-707.65936 688.92499 2842.7957 3094842
-685.6203 684.70258 2825.3723 3226428
-665.229 681.94556 2813.9956 3423807
-649.54059 683.99072 2822.4348 3292221
-629.19269 681.10638 2810.5327 3226428
-610.08765 679.44019 2803.6572 3160635
-599.4588 687.39471 2836.481 2634291
-579.6051 684.93402 2826.3271 2897463
-560.32434 683.01666 2818.4153 3029049
-542.20245 682.43304 2816.0071 3029049
-524.99786 683.0036 2818.3616 3029049
-507.25992 682.89594 2817.917 2897463
-491.62357 685.71167 2829.5361 2765877
-473.89566 685.71167 2829.5361 2897463
-451.74738 679.06696 2802.1172 3029049
-425.25327 665.08813 2744.4348 3160635
-416.24734 678.43494 2799.5093 2700084
-399.50674 679.79486 2805.1208 2831670
-382.67737 681.12195 2810.5969 2897720
-362.86523 677.01196 2793.6375 2700084
-345.29843 676.88684 2793.1211 2831670
-326.69669 674.61133 2783.7314 2897463
-309.51877 675.18512 2786.0991 3095099
-291.48511 673.84918 2780.5864 3029562
-274.27802 674.37567 2782.759 2766390
-256.85123 674.39685 2782.8464 2634804
-237.61467 669.3233 2761.9106 2503218
-219.6076 667.18793 2753.0994 2634804
-202.47086 667.55811 2754.6267 2503218
-185.52586 668.68842 2759.291 2569011
-168.14851 668.33258 2757.8225 2700597
-150.58434 667.06757 2752.6025 2897976
-133.33842 667.06757 2752.6025 2963769
-115.92211 666.08838 2748.562 2897976
-98.568687 665.19196 2744.863 2700597
-81.948235 669.90851 2764.3257 2569011
-64.375465 667.2818 2753.4866 2437682
-47.237564 668.88965 2760.1213 2437425
-29.941158 668.81384 2759.8086 2766390
-12.654737 669.05908 2760.8203 2569268
4.6607432 671.66547 2771.5754 2634804
22.140169 675.16156 2786.002 2766390
39.566906 674.67676 2784.0015 2700597
57.132477 676.13171 2790.0051 2634804
74.752007 677.39386 2795.2134 2569011
92.103127 676.2063 2790.3127 2503218
108.96406 672.3728 2774.4944 2503218
127.94186 680.85938 2809.5134 2897976
146.99825 687.66089 2837.5793 3095099
164.49814 686.4989 2832.7847 2897720
181.97177 685.46442 2828.5156 2634291
199.17781 683.69489 2821.2141 2897463
217.00964 684.18689 2823.2441 3094842
234.69812 684.18689 2823.2441 3094842
251.50291 681.7912 2813.3586 3292221
269.35629 682.36584 2815.7297 2831927
287.6058 683.81165 2821.6958 2766134
305.53436 684.37103 2824.0042 2766134
322.84848 683.5683 2820.6917 2897463
339.72763 681.97571 2814.1199 2831670
356.83453 680.97491 2809.9902 2700341
374.55414 681.18243 2810.8467 2437169
392.55887 681.8667 2813.6702 2436912
410.04742 681.63397 2812.71 2239533
428.45465 682.88477 2817.8711 2108460
447.31848 684.73535 2825.5076 2240046
463.92856 683.12653 2818.8689 2437424
480.35098 681.36957 2811.6187 2634291
495.76984 678.36365 2799.2151 2963256
513.12994 678.1286 2798.2451 2831670
528.55267 675.43341 2787.1235 2897720
545.05389 674.24463 2782.2183 2765877
561.31335 672.83972 2776.4211 2502705
579.29126 673.51733 2779.217 3029306
596.81775 673.64575 2779.7471 2897463
614.2337 673.64575 2779.7471 3160635
631.60516 673.59833 2779.5513 3292221
650.56744 675.20441 2786.1787 3094842
666.30981 673.47211 2779.0305 2963513
686.2326 675.94574 2789.2378 3095099
705.42261 677.59271 2796.0337 3029049
727.97546 682.31171 2815.5063 3358014
740.17432 677.33246 2794.96 3291964
757.13336 676.83881 2792.9229 3160635
775.62677 677.70813 2796.51 3094842
796.047 680.18536 2806.7322 2963256
812.2229 679.00732 2801.8711 3160635
830.79102 679.83673 2805.2935 3423807
847.51172 679.15125 2802.4651 3292221
868.6969 681.99866 2814.2146 3292221
886.26044 681.94604 2813.9976 3160635
906.60101 683.9906 2822.4343 3226428
926.70789 685.78406 2829.8347 3489600
940.35382 682.81866 2817.5981 3489857
959.18292 683.6568 2821.0569 3161149
975.82941 682.93713 2818.0872 3357759
996.29376 684.86749 2826.0527 4081737
1016.419 686.5014 2832.7949 4015945
1041.7037 691.50421 2853.4387 3818565
1041.8584 679.93787 2805.7109 3621186
1063.412 682.48889 2816.2375 3621185
1089.4312 687.77588 2838.054 3555393
1102.7413 684.99847 2826.5933 3489600
1120.3256 684.922 2826.2776 3489600
1137.1338 684.3808 2824.0442 3423807
1146.9773 679.72864 2804.8477 3292221
1160.1947 677.18622 2794.3564 3423807
1175.6016 675.97833 2789.3721 3423807
1195.1252 677.13837 2794.1589 3555393
1212.9443 677.31305 2794.8799 3752772
1222.8818 673.14429 2777.6777 3555393
1240.6052 673.31812 2778.395 3555393
1257.4393 673.01123 2777.1287 3292221
1270.6448 670.79712 2767.9924 3423807
1285.0725 669.27911 2761.7285 3226428
1311.226 673.82727 2780.4958 3094842
1328.6465 673.82727 2780.4958 2897720
1346.3085 673.948 2780.9941 2437168
1361.3447 672.76807 2776.1252 2567985
1380.6978 673.7243 2780.0713 2766134
1385.4678 667.62958 2754.9216 2502705
1402.7283 667.62958 2754.9216 2502705
1425.3215 670.1369 2765.2678 2436912
1439.3373 668.59961 2758.9243 2700084
1447.342 664.3396 2741.3459 2831670
1462.7163 663.52258 2737.9746 2765877
1480.2611 663.69775 2738.6973 2700084
1497.6899 663.81744 2739.1912 2634291
1517.1483 664.82373 2743.3435 2436912
1532.5046 664.03015 2740.0688 2502705
1555.1675 666.38489 2749.7856 2437169
1572.3958 666.38489 2749.7856 2436912
1586.8621 665.22711 2745.0081 2568498
1603.7837 665.1123 2744.5344 2700341
1622.3669 665.68176 2746.8843 2700084
1639.8065 665.77496 2747.2688 2700084
1657.5698 665.99628 2748.1821 2700084
1674.8901 666.03687 2748.3496 2436912
1715.5803 675.27533 2786.4714 2502705
1719.9865 670.18964 2765.4856 2371119
1736.7377 669.96771 2764.5698 2305327
1757.7983 671.39612 2770.4641 2371119
1775.1561 671.39612 2770.4641 2305326
1797.6886 673.33429 2778.4619 2371119
1815.9653 673.65662 2779.7917 2436912
1832.9308 673.49097 2779.1082 2436912
1855.2095 675.26233 2786.4177 2107947
1875.5803 676.31274 2790.7522 2239533
1896.7772 677.63892 2796.2244 2173740
1928.0264 682.49921 2816.28 2239533
1955.8625 686.0741 2831.0315 1976361
1963.3741 682.51929 2816.363 2107947
1977.0724 681.15942 2810.7517 2239533
2004.0918 684.37256 2824.0103 2305326
2020.0774 683.79443 2821.6248 2305326
2037.712 683.77979 2821.5645 2107947
2062.2266 686.0542 2830.9495 1976618
2083.5286 687.23016 2835.802 1976361
2098.968 686.46881 2832.6604 2371119
2113.0032 685.26489 2827.6926 2502705
2154.0344 692.76324 2858.6338 2371119
2171.9446 692.76324 2858.6338 2371119
2167.4197 685.66583 2829.3469 2568498
2191.1379 687.5459 2837.1047 2765877
2218.646 690.57532 2849.6055 2765620
2238.0994 691.06921 2851.6436 2765621
2255.8745 691.0412 2851.5281 2831670
2286.7854 695.00604 2867.8884 2568498
2289.5608 690.42456 2848.9834 2502705
2306.8401 690.25391 2848.2793 2502705
2319.3967 688.68347 2841.7991 2568498
2340.9817 689.79742 2846.3955 2634291
2358.8152 689.79742 2846.3955 2568498
2373.3459 688.83875 2842.4397 2568498
2385.0122 687.06927 2835.1382 2568498
2392.5752 684.15259 2823.1025 2502962
2402.6301 681.98608 2814.1626 2634548
2427.0925 683.91089 2822.1052 2568498
2445.1213 684.00806 2822.5063 2634291
2461.8652 683.74701 2821.429 2634548
2475.2781 682.57104 2816.5767 2568498
2483.6196 680.02332 2806.0635 2305326
2510.8831 682.6557 2816.926 2634291
2521.0366 680.6322 2808.5759 2897463
2530.6577 678.49384 2799.7522 2897463
2548.199 678.49384 2799.7522 2699828
2564.3774 678.13336 2798.2649 2831157
2575.3059 676.39905 2791.1082 2699571
2591.7014 676.11426 2789.9331 2567985
2608.8748 676.03485 2789.6055 2567985
2618.0422 673.89575 2780.7786 2765364
2631.3164 672.83496 2776.4014 2633778
2644.9036 671.86774 2772.4102 2765621
2665.7952 672.75641 2776.0774 2633778
2687.938 673.94739 2780.9917 2633778
2716.4919 676.72009 2792.4331 2567985
2732.0737 676.24646 2790.4785 2502193
2738.2627 673.46863 2779.0161 2567986
2772.343 677.54242 2795.8264 2633779
2783.3899 675.97113 2789.3425 2502193
2830.6743 683.16522 2819.0283 2304814
2812.7576 674.63165 2783.8154 2107692
2800.6428 667.58643 2754.7437 2107435
2817.9021 667.58643 2754.7437 2239021
nan nan nan 16777215
nan nan nan 16777215
nan nan nan 16777215
nan nan nan 16777215
nan nan nan 16777215
nan nan nan 16777215
nan nan nan 16777215
nan nan nan 16777215
nan nan nan 16777215
-2435.9094 658.64075 2649.6892 3095099
-2414.9043 657.44177 2644.8657 2765877
-2382.0413 652.97571 2626.8989 2897463
-2360.0786 651.45636 2620.7866 3226428
-2354.7517 654.53979 2633.1914 3226428
-2340.8643 655.27057 2636.1311 3292221
-2321.2446 654.39563 2632.6111 3226428
-2306.7317 654.95813 2634.8743 3094842
-2274.2964 650.40332 2616.5503 2897463
-2268.1838 653.36481 2628.4644 3029049
-2261.1091 656.09045 2639.4294 3292221
-2252.0642 658.28033 2648.2393 3292221
-2235.4719 658.28033 2648.2393 3489600
-2214.9829 657.12415 2643.5881 3292221
-2198.2073 657.06061 2643.3323 2963256
-2213.7371 666.72571 2682.2146 2897720
-2197.7629 666.97778 2683.2288 2831670
-2183.6372 667.79901 2686.5327 2831927
-2165.8044 667.49066 2685.292 2963256
-2149.811 667.74866 2686.3301 3226428
-2126.9146 665.84973 2678.6907 3226428
-2158.1838 681.01251 2739.6899 2831413
-2104.4968 669.39557 2692.9556 2568755
-2082.7244 667.82434 2686.6345 2502962
-2065.9412 667.84039 2686.699 2766134
-2060.543 671.56714 2701.6917 2963513
-2025.3879 665.57709 2677.5938 3094842
-2016.0902 668.05511 2687.5627 3358014
-1982.3163 662.39606 2664.7966 3358014
-1972.3512 664.66418 2673.9214 2634291
-1960.5144 666.33514 2680.6433 2765877
-1947.7535 667.71808 2686.207 3094842
-1923.1927 665.04474 2675.4521 3029049
-1903.9065 664.16437 2671.9106 2963256
-1892.3376 665.98438 2679.2324 2831670
-1877.3015 666.60583 2681.7324 2897463
-1852.0055 663.56244 2669.489 3160635
-1832.0004 662.37646 2664.718 3095099
-1814.2964 662.00848 2663.2375 2831670
-1790.7297 659.47455 2653.0437 2831670
-1776.99 660.5459 2657.3538 2831670
-1760.2939 660.52832 2657.283 2897463
-1741.5381 659.73016 2654.0718 2897463
-1725.0742 659.79321 2654.3254 2897463
-1708.8295 659.94202 2654.9241 2963513
-1691.9791 659.85754 2654.5845 2897463
-1675.3473 659.85754 2654.5845 2963513
-1664.3168 662.08582 2663.5486 2831670
-1649.5773 662.86877 2666.6985 2765877
-1632.7522 662.82117 2666.5068 2765877
-1613.406 661.73853 2662.1514 2831670
-1594.4242 660.78418 2658.3123 2831670
-1579.924 661.68665 2661.9429 2766133
-1560.9553 660.71704 2658.0422 2700341
-1542.7151 660.03821 2655.311 2765877
-1528.5933 661.12573 2659.6863 2766390
-1511.9296 661.12573 2659.6863 2832183
-1496.6163 661.7229 2662.0886 2898233
-1479.7559 661.64166 2661.7617 2897976
-1467.7009 663.73181 2670.1704 2832183
-1454.7753 665.47174 2677.1702 2963769
-1435.4408 664.28656 2672.4021 3094841
-1417.3584 663.65961 2669.8799 3094842
-1401.0396 663.85327 2670.6589 2897463
-1382.1937 662.83984 2666.582 2963256
-1367.2609 663.70099 2670.0464 2700084
-1349.7234 663.30353 2668.4475 2634291
-1333.0048 663.30353 2668.4475 2831414
-1315.933 663.12555 2667.7314 2831927
-1296.4218 661.69794 2661.9883 2897463
-1282.3729 663.0575 2667.4575 2963769
-1273.2192 667.0174 2683.3882 2832183
-1260.3102 669.0896 2691.7246 2897720
-1244.781 669.80811 2694.6152 2832440
-1233.196 672.69794 2706.2407 3161405
-1216.9862 673.11029 2707.8997 3226941
-1204.9564 675.87903 2719.0383 3095355
-1191.1602 677.72205 2726.4526 3161148
-1179.8219 681.0376 2739.791 3161148
-1160.9081 680.01361 2735.6716 3095355
-1149.3788 683.3493 2749.0908 3095355
-1133.3665 684.08057 2752.0327 3029562
-1118.5593 685.57312 2758.0371 3226941
-1104.7878 687.75726 2766.824 3358527
-1087.4982 687.78589 2766.9392 3161148
-1072.3488 689.19104 2772.592 3292733
-1056.369 690.09998 2776.2485 3226941
-1040.0392 690.80682 2779.0923 3424577
-1024.0286 691.75348 2782.9006 3424320
-1004.7695 690.50049 2777.8599 3424063
-988.26965 691.13281 2780.4038 3095355
-974.2464 693.55103 2790.1321 3029562
-956.76544 693.55103 2790.1321 3161148
-938.39886 692.89716 2787.5017 3226941
-921.14685 693.05713 2788.145 3161148
-906.14954 694.95239 2795.7698 3226941
-897.58191 701.95074 2823.9238 3029819
-874.73627 697.83984 2807.386 2436655
-846.53485 689.20001 2772.6279 2568498
-818.11792 680.01898 2735.6931 2634291
-799.56586 678.82013 2730.8701 3292221
-793.74542 688.61414 2770.2712 2963256
-774.50836 686.94623 2763.5613 2568498
-745.69275 676.51227 2721.5857 2700084
-724.49792 672.66541 2706.1099 2700084
-714.23822 679.03027 2731.7156 2634292
-709.26709 690.85901 2779.3022 2765878
-691.85388 690.85901 2779.3022 3160635
-666.10651 682.32196 2744.958 3423808
-645.83289 679.08795 2731.9478 3358014
-629.51312 679.94861 2735.4099 3160635
-612.33722 679.90668 2735.2412 3094842
-597.62585 682.67761 2746.3889 2239533
-586.72656 690.09668 2776.2354 3029049
-565.63385 685.6134 2758.1992 3094842
-543.96027 680.12122 2736.1045 2831670
-525.29272 678.15247 2728.1841 3029049
-507.97217 677.84863 2726.9619 2897463
-490.54599 677.37787 2725.0681 2766134
-476.09274 681.12646 2740.1484 2765877
-458.67047 680.74896 2738.6296 2766134
-440.28296 678.8537 2731.0054 3029049
-416.73337 668.52429 2689.4504 3094842
-399.88315 668.52429 2689.4504 2831670
-385.64484 673.08301 2707.79 2765877
-369.15732 673.95508 2711.2981 2831670
-352.15063 673.9176 2711.1475 2700084
-333.51443 670.59985 2697.8003 2634291
-315.33344 667.89209 2686.907 2700084
-298.46262 667.81036 2686.5781 2765877
-281.96167 668.59595 2689.7385 3160635
-263.15192 663.65869 2669.8762 3029049
-245.67926 661.65216 2661.804 2831926
-228.20641 659.35278 2652.5537 2700597
-212.31081 661.60724 2661.6233 2766646
-195.6349 661.60724 2661.6233 2634804
-179.99794 665.44818 2677.0752 2634804
-163.22523 665.44818 2677.0752 2897976
-145.25809 660.02087 2655.2415 2766390
-128.78954 660.87964 2658.6963 2766390
-112.13107 660.87427 2658.6746 3029562
-95.530716 661.26935 2660.2639 2963769
-79.331207 665.1925 2676.0466 2766390
-62.157745 660.8631 2658.6296 2897976
-45.319088 658.22668 2648.0234 2897976
-28.750538 658.73395 2650.064 2832183
-12.200379 661.62506 2661.6951 2700597
4.4853725 663.0155 2667.2888 2832183
21.241518 664.41541 2672.9204 2634804
37.988194 664.41541 2672.9204 2700597
54.825043 665.51001 2677.324 2832183
71.662758 666.09973 2679.6965 2963769
88.907249 669.52893 2693.4919 2832183
106.1272 671.70862 2702.2607 2700597
123.16343 672.28583 2704.5828 2766390
141.64659 679.66608 2734.2734 2963513
159.28693 681.84607 2743.0435 3029049
175.7318 678.98248 2731.5232 3029049
193.26787 680.46906 2737.5039 3226428
210.58125 680.99323 2739.6125 3160635
226.82043 678.22626 2728.4812 3226428
246.00417 684.03485 2751.8489 3423807
261.3898 679.21326 2732.4517 3226428
278.50946 679.21326 2732.4517 3029049
298.00955 684.68237 2754.4536 3094842
313.15915 680.10443 2736.0369 3094585
331.76437 683.11707 2748.1565 2963256
343.66949 672.71722 2706.3184 3226428
363.79404 678.62805 2730.0974 2502449
378.36407 674.11176 2711.9287 2502705
398.06448 678.73138 2730.5132 2240046
414.51291 677.65393 2726.1787 2240046
431.43091 677.39899 2725.1531 2108460
448.20529 676.94666 2723.3333 2042923
467.89478 680.76868 2738.7092 1911080
487.8656 684.71527 2754.5862 2700596
496.52945 673.06512 2707.718 2700596
513.49414 673.06512 2707.718 2634291
530.35297 672.93079 2707.1775 2568498
547.37817 673.00934 2707.4937 2700084
566.64331 675.75446 2718.5371 2568755
578.46313 669.71948 2694.2585 2502705
596.81531 671.37518 2700.9194 2634291
612.16174 669.65149 2693.9851 2897463
629.04041 669.65149 2693.9851 2831670
644.93396 668.63025 2689.8767 2831670
666.33899 673.22937 2708.3789 3029306
689.02295 678.86023 2731.0315 2831670
709.56598 682.15991 2744.3062 2963256
712.43219 668.71149 2690.2034 2963768
726.30389 665.97607 2679.199 3029818
749.47717 671.70044 2702.228 3029819
777.10321 681.07452 2739.9395 3161404
784.75861 672.91882 2707.1294 3029819
803.47894 674.39551 2713.0701 3293247
834.3067 685.76282 2758.8003 3423807
848.96521 683.64789 2750.2922 3358014
860.63635 679.25952 2732.6377 3160635
877.16876 678.80414 2730.8057 2897720
906.51996 688.09631 2768.188 3292221
923.86353 688.09631 2768.188 3686979
934.09735 682.89856 2747.2776 3687235
953.38684 684.38953 2753.2756 3818565
964.88879 680.33649 2736.9705 3818821
995.83099 689.89288 2775.4155 3753028
1018.5715 693.53687 2790.075 3621186
1022.7035 684.60114 2754.127 3029048
1036.2971 682.19061 2744.4294 2897462
1050.239 680.08417 2735.9553 3160635
1068.694 680.92096 2739.3218 3226428
1080.4919 677.55688 2725.7883 3423807
1091.7391 673.9574 2711.3076 3489600
1109.2028 674.24707 2712.4729 3292221
1122.501 672.03412 2703.5703 3292221
1141.0377 672.97662 2707.3618 3423807
1156.4277 672.06274 2703.6855 3423807
1171.396 670.93378 2699.1436 3358015
1184.4657 668.76495 2690.4185 3489600
1200.0812 668.07416 2687.6396 3555393
1219.2235 669.33875 2692.7271 3621186
1235.4227 668.9751 2691.2639 3686980
1256.188 671.06042 2699.6533 3094842
1291.7173 680.87262 2739.1272 3029305
1289.3149 670.69562 2698.1855 3094073
1311.6711 673.49463 2709.4458 2567728
1325.6511 671.97614 2703.3372 2567985
1333.9528 667.65393 2685.949 3094073
1336.031 660.3634 2656.6194 3028536
1351.0991 659.59381 2653.5234 2831413
1365.6934 658.61438 2649.5833 2765877
1380.4818 657.75098 2646.1099 3226428
1387.0748 653.04968 2627.1965 3292221
1436.4596 668.36914 2688.8262 3094842
1453.3059 668.36914 2688.8262 2765877
1451.4349 659.85974 2654.5933 2831670
1464.0165 658.03925 2647.2693 2765877
1474.178 655.1839 2635.7825 2700084
1498.8525 658.77063 2650.2117 2634291
1515.6857 658.87006 2650.6118 2700084
1529.1395 657.51428 2645.1575 2831670
1547.7968 658.401 2648.7246 2897463
1565.4155 658.83185 2650.458 2634291
1582.3522 658.96954 2651.012 2634291
1598.1956 658.65381 2649.7419 2634548
1621.2505 661.28613 2660.3315 2568755
1642.6862 663.21112 2668.0757 2568498
1664.8521 665.3891 2676.8376 2634291
1679.5659 664.57507 2673.5627 2634291
1697.1705 664.90955 2674.9084 2436912
1723.1592 668.49011 2689.313 2305326
1740.0085 668.49011 2689.313 2371376
1758.9167 669.27356 2692.4646 2700084
1762.7211 664.34961 2672.6558 2634291
1785.4119 666.5694 2681.5859 2107947
1815.1783 671.36481 2700.8777 2239533
1835.4388 672.58826 2705.7996 2305326
1856.2729 673.99762 2711.4692 2305326
1880.1567 676.47858 2721.4502 2239533
1907.953 680.31012 2736.8643 2239533
1911.5566 675.52393 2717.6096 2305326
1937.2437 678.55737 2729.813 2239533
1953.2239 678.16748 2728.2446 2305326
1965.7882 676.60864 2721.9734 2305326
2007.53 685.0329 2755.864 2042154
2031.5938 687.33264 2765.1157 2042154
2040.2855 684.43671 2753.4656 2371119
2061.4788 685.74799 2758.7407 2700084
2071.7947 683.44922 2749.4929 2700084
2073.8489 678.48547 2729.5239 2436912
2099.4473 681.24261 2740.6157 2502705
2119.6763 682.22693 2744.5757 2700084
2139.1804 682.96399 2747.5408 2699572
2162.8455 685.00702 2755.7598 2436657
2180.9851 685.28168 2756.8647 2239533
2203.4819 686.91028 2763.4165 2239533
2220.7957 686.91028 2763.4165 2239533
2236.4412 686.39832 2761.3569 2239533
2258.7053 687.90991 2767.4382 2107947
2276.0442 687.90991 2767.4382 2305326
2293.7688 688.02563 2767.9036 2305326
2300.0276 684.7262 2754.6301 2239533
2308.1025 682.01257 2743.7131 2305326
2324.2932 681.71936 2742.5337 2305326
2330.2041 678.43756 2729.3311 2502962
2354.7205 680.58105 2737.9543 2700084
2371.8745 680.58105 2737.9543 2568755
2388.7063 680.4892 2737.5847 2634291
2399.4663 678.68134 2730.3118 2634291
2406.7976 675.93604 2719.2676 2502705
2419.9727 674.85913 2714.9351 2436912
2415.1301 668.80756 2690.5901 2831670
2441.761 671.49542 2701.4031 3029306
2466.302 673.57538 2709.7708 2896950
2475.155 671.37164 2700.905 2699828
2491.7986 671.29657 2700.6033 2765364
2502.8877 669.73639 2694.3264 2699828
2519.6675 669.70941 2694.2183 2633778
2557.1572 675.15094 2716.1091 2831157
2574.1748 675.15094 2716.1091 2765364
2563.1826 667.85297 2686.7495 2634035
2578.8533 667.552 2685.5388 2567985
2596.5483 667.77557 2686.4382 2502193
2610.1362 666.94672 2683.104 2370606
2626.5205 666.83862 2682.6689 2173227
2645.3589 667.35083 2684.7297 2041642
2669.6548 669.22467 2692.2681 2041642
2690.2124 670.14386 2695.9658 1844263
2694.0574 666.91425 2682.9734 1778470
2710.5286 666.83099 2682.6384 1581091
2732.0652 667.98724 2687.29 1581091
2748.9021 667.98724 2687.29 2107435
nan nan nan 16777215
nan nan nan 16777215
nan nan nan 16777215
nan nan nan 16777215
nan nan nan 16777215
nan nan nan 16777215
nan nan nan 16777215
nan nan nan 16777215
nan nan nan 16777215
-2367.3032 656.13855 2575.0618 3029049
-2346.0566 654.71167 2569.4619 3094842
-2320.9658 652.18494 2559.5454 3292221
-2310.8198 653.85162 2566.0864 3358014
-2293.5142 653.50165 2564.7129 3292221
-2277.3167 653.46466 2564.5676 3292221
-2260.6953 653.30463 2563.9397 3292221
-2254.2444 656.10248 2574.9202 3226428
-2248.0042 659.0025 2586.3013 3423807
-2211.5459 653.02191 2562.8301 3489600
-2195.489 653.02191 2562.8301 3555393
-2183.6958 654.29944 2567.844 3489600
-2169.8298 654.97021 2570.4766 3423807
-2165.7192 658.61774 2584.7915 3358014
-2151.3308 659.17126 2586.9636 3094842
-2148.5725 663.32355 2603.2595 3160635
-2144.5898 667.15851 2618.3103 3226428
-2123.3333 665.63739 2612.3406 3489600
-2106.9661 665.63739 2612.3406 3226428
-2090.1111 665.48212 2611.7312 3094842
-2079.8059 667.42621 2619.3608 3029306
-2063.6719 667.51587 2619.7126 3094842
-2055.2234 670.11279 2629.9045 3226428
-2040.6409 670.73553 2632.3486 3226685
-2016.1559 668.08704 2621.9543 3094842
-1994.4141 666.31152 2614.9863 2700084
-1983.4264 668.12927 2622.1201 3029049
-1966.998 668.12927 2622.1201 3226428
-1939.9624 664.49603 2607.8611 3094842
-1936.7399 669.02698 2625.6431 3160635
-1918.2269 668.30835 2622.823 3094842
-1886.7944 663.03735 2602.1365 3029306
-1869.6692 662.74597 2600.9929 2963256
-1849.173 661.24402 2595.0984 2963513
-1831.8568 660.86267 2593.6018 3094842
-1813.3955 660.05774 2590.4426 3029049
-1807.767 663.95129 2605.7234 3029049
-1796.8696 665.9632 2613.6191 3094842
-1751.8898 655.2641 2571.6296 3226428
-1740.3418 656.98706 2578.3916 2831670
-1724.3853 657.06244 2578.6875 3029049
-1707.9097 656.93958 2578.2053 2897463
-1688.354 655.61841 2573.0203 2897463
-1670.092 654.77887 2569.7256 2963256
-1654.8702 655.12665 2571.0903 2963256
-1637.9325 654.79523 2569.7896 2831670
-1618.4995 653.44977 2564.5093 2831670
-1609.7357 656.4281 2576.198 2897463
-1601.4767 659.67468 2588.9395 2897463
-1581.6021 658.15411 2582.9717 2897463
-1563.9962 657.55597 2580.6243 2765877
-1545.0667 656.38293 2576.0208 2700084
-1531.2162 657.3656 2579.8774 2700084
-1515.115 657.39276 2579.9839 2568498
-1498.9506 657.39276 2579.9839 2436912
-1472.5784 652.86713 2562.2227 2634291
-1462.3872 655.49469 2572.5347 3028793
-1447.2178 655.9245 2574.2214 2963000
-1431.2007 655.97546 2574.4216 2831670
-1419.0808 657.83423 2581.7163 2765620
-1403.4144 658.07281 2582.6528 2765620
-1386.9611 657.94373 2582.146 2765876
-1367.6613 656.44525 2576.2654 2765875
-1350.5472 655.97266 2574.4106 2766133
-1334.1401 655.83618 2573.875 2897461
-1318.2205 655.93896 2574.2783 2831667
-1306.0524 657.93414 2582.1084 2634289
-1290.3378 658.17029 2583.0354 2700082
-1284.3489 663.4364 2603.7024 2634289
-1258.1217 658.24933 2583.3455 2568496
-1241.5713 658.05591 2582.5864 2568495
-1230.5745 660.83972 2593.5117 2963254
-1220.5618 664.23358 2606.8313 2963254
-1208.2657 666.46008 2615.5693 3094842
-1189.1403 664.92902 2609.5605 2963769
-1174.1805 665.71716 2612.6536 2634548
-1165.8656 670.34814 2630.8281 2963256
-1151.8787 671.80377 2636.541 3029049
-1137.757 673.22217 2642.1074 2700853
-1122.7656 674.16028 2645.7891 2897976
-1109.3265 676.07245 2653.2935 3095611
-1093.9661 676.85406 2656.3611 3226941
-1080.3894 678.78046 2663.9214 3292734
-1068.1821 681.64124 2675.1487 3490113
-1051.7675 681.86554 2676.0291 3029562
-1036.4551 682.82324 2679.7876 3226941
-1019.0828 682.43311 2678.2566 3490370
-1011.0846 688.41248 2701.7229 3424320
-994.50739 688.65472 2702.6736 3358270
-976.33112 687.77899 2699.2368 3292478
-959.41956 687.77899 2699.2368 3094842
-941.56421 687.09033 2696.5339 3094842
-923.51501 686.23242 2693.167 3226172
-905.56097 685.41455 2689.9573 3226172
-888.55194 685.29449 2689.4861 3291965
-869.40283 683.48737 2682.394 3160379
-853.98682 684.60175 2686.7673 3291964
-834.88947 682.75031 2679.5015 3358014
-815.56836 680.63629 2671.2046 3555393
-800.07898 681.69836 2675.3728 3292221
-786.27606 684.27356 2685.4795 3357758
-770.86188 685.52856 2690.4048 3028536
-752.32593 684.00134 2684.4111 2699570
-728.66449 677.63776 2659.4368 2239530
-716.99646 682.39093 2678.0908 2765875
-701.6723 683.80878 2683.6553 2699825
-683.35608 682.30878 2677.7686 2700082
-679.33392 695.36469 2729.0073 2897462
-652.8891 685.55042 2690.4905 2963255
-634.30927 683.69312 2683.2014 2831670
-617.49817 683.69312 2683.2014 2897463
-599.72583 682.59906 2678.9077 2765877
-591.0368 692.07806 2716.1089 2831670
-569.38489 686.49023 2694.179 2963256
-553.57819 687.82367 2699.4121 3292221
-526.95294 675.37537 2650.5579 3489600
-510.37012 675.40686 2650.6814 3094842
-493.87448 675.55963 2651.281 3029049
-477.24301 675.53082 2651.168 3029049
-461.27509 676.47296 2654.8655 3226428
-443.435 674.63739 2647.6616 3094842
-426.28857 673.75543 2644.2002 3094842
-408.78931 672.22198 2638.1821 2963256
-392.97162 673.44098 2642.9663 2765877
-375.48929 671.78906 2636.4832 2765877
-358.87631 671.61212 2635.7886 2897463
-342.241 671.37415 2634.8547 2502705
-324.06265 667.93176 2621.345 2436912
-307.1055 666.77319 2616.7981 2568498
-289.68292 664.41644 2607.5488 2634291
-274.3927 666.96112 2617.5354 2897463
-256.71353 663.65326 2604.5537 2700084
-241.34552 666.27692 2614.8503 2831670
-225.69972 668.45978 2623.4172 3621186
-205.65092 656.9209 2578.1321 3160379
-190.42784 660.14392 2590.781 2371888
-173.07169 655.88391 2574.0623 2371632
-156.78079 655.20026 2571.3792 2240046
-140.6703 655.20026 2571.3792 2437425
-123.39244 649.05969 2547.2803 2371376
-107.32151 648.38647 2544.6382 2240046
-92.747795 658.10211 2582.7676 3029562
-75.971703 652.99432 2562.7219 2897719
-59.773132 651.44318 2556.6343 3095355
-43.233662 643.68085 2526.1707 2897976
-27.620232 648.70258 2545.8787 2700597
-11.756211 653.52216 2564.7932 3029562
4.3266702 655.59137 2572.9141 2897976
20.65237 662.18341 2598.7852 2766647
37.148178 666.01324 2613.8154 2898233
53.680668 667.95593 2621.4397 2766390
70.204811 668.90881 2625.1794 2503218
86.872375 670.60712 2631.8445 2832183
103.51341 671.59143 2635.7075 2766390
120.8968 676.45862 2654.8091 3029049
137.5537 676.57513 2655.2664 3160635
153.89128 675.26544 2650.1265 3094842
170.95198 677.07477 2657.2273 3029049
187.55293 676.90369 2656.5559 2831670
203.88882 675.88184 2652.5457 2897463
220.82281 676.84729 2656.3345 2897463
237.46558 676.84729 2656.3345 2897463
254.13608 676.92114 2656.6245 2897463
270.88614 677.18488 2657.6594 2634291
289.45074 681.69153 2675.3459 2700084
305.89822 680.99158 2672.5991 2897463
322.64288 680.99158 2672.5991 2962999
339.69412 681.60675 2675.0134 2832183
355.99118 680.72192 2671.5408 2305839
375.73685 686.21478 2693.0979 1516323
387.50281 677.28845 2658.0659 1648166
403.80109 676.69299 2655.7288 2240046
420.44003 676.69299 2655.7288 2305839
434.11462 672.10345 2637.717 2305839
449.88406 670.97485 2633.2878 2305839
465.50281 669.70941 2628.3213 2305839
481.92529 669.64722 2628.0774 2569011
497.80768 668.8634 2625.0012 2503474
514.82037 669.59991 2627.8918 2503218
530.90375 669.11951 2626.0061 2502705
545.76965 667.17969 2618.3933 2568498
561.98346 666.95276 2617.5027 2502705
576.96857 665.32178 2611.1018 2502705
592.16364 664.01624 2605.978 2436912
606.6933 662.05457 2598.2793 2436912
626.26318 665.55188 2612.0049 2765877
642.62823 665.55188 2612.0049 2831670
658.47046 665.02393 2609.9329 2700341
677.24878 667.41492 2619.3167 2239277
694.66302 668.38043 2623.1057 2568498
708.42328 665.8667 2613.2405 3094586
726.88177 667.7829 2620.7605 3423807
753.90552 677.30939 2658.1482 3489600
770.20428 676.99707 2656.9224 3489344
785.53595 675.86591 2652.4829 3358014
802.62323 676.26068 2654.0325 3292221
819.54773 676.50519 2654.9919 3292221
836.64056 676.8761 2656.4475 3226428
856.93414 679.77161 2667.8113 3160635
875.95673 681.56732 2674.8586 3292221
889.93805 679.44684 2666.5366 3226428
908.26123 680.6582 2671.2908 3226428
925.84521 681.28192 2673.7385 3094842
945.37854 683.29224 2681.6282 2831670
959.72101 681.54614 2674.7756 2963256
974.7417 680.33337 2670.0159 3423807
991.65289 680.4588 2670.5081 3226428
1004.6821 677.96045 2660.7031 3160636
1021.011 677.73395 2659.8142 3555393
1035.1261 676.06873 2653.2791 3292222
1052.3666 676.46533 2654.8354 3160635
1070.2743 677.27173 2658.0002 3423807
1078.7937 672.20349 2638.1096 3423807
1092.4979 670.47028 2631.3074 3423807
1107.9877 669.86798 2628.9436 3489600
1124.4589 669.86798 2628.9436 3094842
1146.1017 672.90436 2640.8601 2831670
1162.6475 672.90436 2640.8601 3160635
1175.4094 670.74512 2632.386 3094842
1186.4329 667.6673 2620.3069 3160635
1208.775 670.95612 2633.2141 3423807
1242.3214 680.29181 2669.8528 3292221
1241.6031 670.86548 2632.8586 3094842
1257.7385 670.6734 2632.1045 3029049
1277.1967 672.23517 2638.2339 2765877
1292.8097 671.75897 2636.365 2700084
1288.4055 661.0249 2594.2385 2765877
1299.6095 658.46643 2584.1975 2766134
1313.3363 657.2334 2579.3584 2700084
1322.9879 654.01569 2566.7302 2831670
1333.6964 651.39154 2556.4316 3160635
1345.146 649.18732 2547.781 3160635
1373.5992 655.14471 2571.1614 3292221
1396.771 658.47424 2584.2283 3358014
1412.9619 658.47424 2584.2283 3489600
1430.9403 659.29779 2587.4602 3094842
1425.6862 649.51849 2549.0808 2831927
1446.9524 651.9043 2558.4441 2766134
1463.3568 652.07141 2559.0999 2765877
1478.7825 651.80341 2558.0481 2897720
1497.2335 652.86047 2562.1965 2766134
1517.2021 654.54968 2568.8262 2634548
1543.4144 658.8689 2585.7771 2765877
1567.0676 662.01727 2598.1331 2897463
1568.7565 655.9173 2574.1934 2502705
1588.9369 657.59436 2580.7751 2502705
1609.7712 659.50562 2588.2759 2436912
1628.1678 660.38995 2591.7466 2436912
1646.8615 661.37604 2595.6165 2436912
1671.4904 664.70319 2608.6741 2502705
1687.8546 664.71106 2608.7051 2700084
1712.6201 667.99573 2621.5959 2700084
1725.4388 666.60248 2616.1279 2765877
1741.8298 666.60248 2616.1279 2831670
1752.0328 664.25647 2606.9209 2568498
1775.3545 666.88159 2617.2234 2436912
1793.4548 667.51526 2619.7104 2502705
1815.4324 669.56744 2627.7644 2502705
1834.4312 670.49402 2631.4006 2502705
1850.6173 670.38519 2630.9736 2502705
1873.1077 672.54187 2639.4375 2371119
1890.4329 672.82239 2640.5386 2436912
1911.7507 674.50684 2647.1492 2371119
1930.651 675.31659 2650.3271 2436912
1971.0934 683.5835 2682.7712 2371119
1991.379 684.77917 2687.4639 2436912
1985.1373 676.9093 2656.5779 2502705
2002.5171 677.15802 2657.554 2502705
2018.7869 677.03046 2657.0532 2502705
2033.1969 676.28619 2654.1326 2436912
2062.1809 680.36243 2670.1299 2634291
2078.9099 680.36243 2670.1299 2699571
2097.875 681.08832 2672.9788 2502192
2111.0129 679.9259 2668.4167 2305326
2132.793 681.54333 2674.7644 2305326
2151.2478 682.0813 2676.8757 2042154
2166.3142 681.5448 2674.7703 2042154
2183.6008 681.70972 2675.4175 2042154
2200.8879 681.87231 2676.0557 2042154
2217.3867 681.79016 2675.7332 2173740
2231.2617 680.90845 2672.2727 2107947
2248.0044 680.90845 2672.2727 1976361
2273.0996 683.41968 2682.1282 2173740
2289.7529 683.37463 2681.9514 2436912
2287.0034 677.5816 2659.2163 2897463
2303.6643 677.5816 2659.2163 2831670
2314.729 675.94745 2652.803 2831670
2326.8103 674.63129 2647.6377 3029049
2332.5364 671.50421 2635.3652 2963256
2349.1257 671.52655 2635.4529 3029049
2355.4397 668.63159 2624.0916 3160635
2361.0876 665.58917 2612.1511 3160635
2405.0042 673.30212 2642.4214 2963000
2421.5596 673.30212 2642.4214 2765364
2417.2898 667.55109 2619.8508 2567985
2429.9424 666.51929 2615.8015 2699571
2442.8743 665.57745 2612.1052 2633778
2459.24 665.57745 2612.1052 2699571
2476.2534 665.75165 2612.7888 2699571
2497.4795 667.04858 2617.8789 2633778
2511.4521 666.40405 2615.3494 2567985
2529.7593 666.91058 2617.3372 2370606
2542.656 665.99335 2613.7375 2370606
2552.9292 664.40515 2607.5044 2304812
2570.9937 664.85187 2609.2576 2304814
2594.8494 666.78113 2616.8291 2173228
2632.6401 672.24445 2638.2703 1910056
2635.3735 668.74359 2624.531 1778470
2636.8914 664.97955 2609.7588 1844263
2686.5977 673.33942 2642.5676 2041642
2734.0342 681.03143 2672.7554 2370607
nan nan nan 16777215
nan nan nan 16777215
nan nan nan 16777215
nan nan nan 16777215
nan nan nan 16777215
nan nan nan 16777215
nan nan nan 16777215
nan nan nan 16777215
nan nan nan 16777215
-2296.6687 652.13043 2498.2283 3029049
-2286.8315 653.79291 2504.5972 3292221
-2274.2065 654.67584 2507.9795 3292221
-2271.0159 658.30579 2521.8855 3358014
-2247.1003 655.93695 2512.8108 3423807
-2216.5122 651.57324 2496.0938 3358014
-2216.8076 656.29053 2514.1653 3160635
-2201.0557 656.29053 2514.1653 3358014
-2177.7778 654.03046 2505.5071 3423807
-2163.5466 654.47406 2507.2065 3555393
-2150.3389 655.23602 2510.1255 3489600
-2129.4065 653.63812 2504.0042 3292221
-2128.8994 658.3327 2521.9885 3226428
-2113.0984 658.3327 2521.9885 3226428
-2087.6355 655.29987 2510.3701 3160635
-2088.0681 660.41125 2529.9512 3226428
-2078.2954 662.34833 2537.3718 3160635
-2061.1799 661.95709 2535.8733 3226428
-2037.9951 659.59558 2526.8264 3094842
-2026.8464 661.12299 2532.6777 3094842
-2010.8105 661.06775 2532.4663 3094842
-1999.0217 662.41913 2537.6431 3094842
-1983.5222 662.55261 2538.1543 3226428
-1974.2456 664.78357 2546.7012 3292221
-1959.4573 665.17999 2548.2195 3292221
-1937.0046 662.95959 2539.7136 2897463
-1921.0349 662.9397 2539.6375 3094842
-1901.729 661.75861 2535.1128 3160635
-1873.7671 657.52014 2518.8757 3029049
-1858.4631 657.68909 2519.5229 3094842
-1840.28 656.83344 2516.2449 3226428
-1819.376 654.98334 2509.1575 3160635
-1801.2344 654.10419 2505.7896 3226428
-1787.9753 654.99823 2509.2146 3160635
-1775.4438 656.17706 2513.7305 2963513
-1759.6946 656.17706 2513.7305 2963256
-1741.2628 655.16779 2509.864 2963256
-1725.6139 655.19666 2509.9746 3029049
-1709.2921 654.96826 2509.0999 2831670
-1693.5719 654.96826 2509.0999 3029049
-1673.4877 653.26477 2502.574 2963513
-1656.8488 652.88672 2501.1255 2897463
-1641.1783 652.88672 2501.1255 2963256
-1625.2521 652.78387 2500.7317 3029049
-1604.8766 650.87469 2493.4177 2963256
-1589.226 650.86298 2493.3728 2897463
-1573.4094 650.78235 2493.0642 2963256
-1557.3356 650.59265 2492.3374 2897463
-1559.5051 658.09772 2521.0884 2897463
-1536.5409 655.04156 2509.3806 2700084
-1515.7277 652.84869 2500.98 2568498
-1498.2576 652.06506 2497.978 2634291
-1482.4254 651.98523 2497.6721 2634548
-1469.125 653.02899 2501.6707 2502705
-1467.9131 659.52667 2526.5625 2502705
-1454.2505 660.51093 2530.333 2831671
-1422.4778 653.20074 2502.3286 2766391
-1407.5778 653.56195 2503.7124 2832440
-1391.2373 653.25482 2502.5359 2569525
-1380.8453 655.76581 2512.155 2766646
-1365.106 655.76581 2512.155 2766390
-1347.4037 654.81189 2508.5007 2831926
-1334.3672 656.1297 2513.5491 2700597
-1314.2933 653.97729 2505.3035 2831926
-1298.5968 653.97729 2505.3035 2831925
-1281.8136 653.42334 2503.1814 2831668
-1268.1069 654.4433 2507.0889 2700082
-1252.3992 654.4433 2507.0889 3094840
-1236.265 654.21765 2506.2244 3160633
-1227.9021 658.15149 2521.2944 3094840
-1214.5972 659.50452 2526.4775 3029046
-1196.2014 658.09247 2521.0684 3029047
-1187.8375 662.2356 2536.9399 3094840
-1175.4639 664.22528 2544.5623 3029048
-1153.2581 660.63739 2530.8174 2831671
-1136.0933 659.87738 2527.906 2765876
-1124.6063 662.44043 2537.7246 2700085
-1110.5579 663.54639 2541.9617 2831670
-1100.8832 667.336 2556.479 2765878
-1082.7211 666.01654 2551.4243 2634291
-1066.7356 666.01654 2551.4243 2766646
-1067.7994 676.82318 2592.8232 3029562
-1052.4552 677.40289 2595.0439 2963769
-1045.08 683.21039 2617.2917 3095355
-1024.6594 680.53888 2607.0576 3095355
-1013.2352 683.8526 2619.752 3292734
-1001.9889 687.39746 2633.332 3555906
-995.62982 694.47003 2660.426 3424320
-978.96149 694.47003 2660.426 2898233
-940.24274 678.5567 2599.4641 3094842
-925.48547 679.67975 2603.7664 3226428
-908.69257 679.32135 2602.3933 3160635
-894.92023 681.24908 2609.7783 3160635
-880.0097 682.36609 2614.0574 3160635
-864.07318 682.7149 2615.3936 3358014
-852.35895 686.4776 2629.8081 3489600
-834.15027 685.05511 2624.3586 3160635
-817.94342 685.2525 2625.1147 3160635
