# .PCD v0.7 - Point Cloud Data file format
VERSION 0.7
FIELDS x y z rgb
SIZE 4 4 4 4
TYPE F F F U
COUNT 1 1 1 1
WIDTH 1272
HEIGHT 1
VIEWPOINT 0 0 0 1 0 0 0
POINTS 1272
DATA ascii
3062.8691 678.67712 5476.311 3947579
2770.3254 607.05438 4898.3799 3290163
2707.4934 586.78564 4734.8301 2632233
2803.8472 601.08228 4850.1904 2829612
2840.8213 602.479 4861.4609 3290163
2839.354 595.77997 4807.4062 4013630
3128.1831 649.49506 5240.8379 4080193
3625.8533 745.00464 6011.5142 4014656
3719.6411 756.41785 6103.6084 3883584
3617.4946 728.15948 5875.5889 3818562
3709.1812 739.09381 5963.8188 3555389
4123.6626 813.48877 6564.1191 3686720
4557.895 890.2724 7183.6938 3620927
4738.6855 916.53485 7395.6074 3489342
4554.751 872.42816 7039.707 3555134
4598.8564 872.42816 7039.707 3686720
4674.083 878.27582 7086.8921 3686720
4770.9453 888.04065 7165.6851 3752770
5151.5273 949.94116 7665.1665 3818306
5170.8691 944.70099 7622.8828 3949892
5218.6289 944.70099 7622.8828 3949892
5286.979 948.39459 7652.687 4081478
5346.0996 950.38092 7668.7153 4081478
5394.1465 950.38092 7668.7153 3950149
5221.1899 911.78674 7357.2944 3884099
5265.4316 911.46576 7354.7051 3818306
5298.3589 909.20886 7336.4932 4015685
5317.6538 904.67145 7299.8809 3949892
5326.4556 898.44159 7249.6118 3818562
5224.9727 873.87201 7051.3574 3752513
5264.8164 873.15308 7045.5557 3818306
5180.2144 851.97864 6874.6978 3686720
5223.2617 851.97461 6874.6655 3752513
5055.2144 817.82031 6599.0708 3818306
4726.6406 758.46112 6120.0957 3949379
4618.4434 735.13556 5931.8799 4015172
4843.6211 764.82343 6171.4336 4080708
4882.2871 764.82343 6171.4336 4014915
4675.7295 726.71027 5863.895 4014915
4682.1758 722.03888 5826.2012 3949122
4723.3145 722.74817 5831.9243 3949122
4772.2822 724.63544 5847.1528 3949122
4808.9165 724.63544 5847.1528 4014915
4901.6313 733.02209 5914.8257 4014915
4972.6309 738.05988 5955.4761 4014659
5006.9673 737.62134 5951.9375 3883329
4901.5347 716.75085 5783.5317 3948608
4432.4385 643.39856 5191.645 4014144
nan nan nan 16777215
nan nan nan 16777215
nan nan nan 16777215
nan nan nan 16777215
nan nan nan 16777215
5248.7178 729.75537 5888.4663 3948609
5337.2148 736.88007 5945.9561 3882816
5485.9199 752.16095 6069.2593 3817023
5484.1187 746.73798 6025.5005 3817537
5531.0054 747.97333 6035.4688 3817536
5623.9497 755.37811 6095.2183 3817536
5674.7271 757.05762 6108.7705 3817793
5716.2412 757.48706 6112.2358 3752000
5805.2051 764.15668 6166.0537 3751743
5843.8369 764.15668 6166.0537 3751743
5906.189 767.23798 6190.917 3883330
5959.9399 769.16901 6206.499 3949124
5962.7559 764.54419 6169.1807 3949122
6008.6182 765.46277 6176.5923 3949121
6060.2759 767.10315 6189.8291 4080451
6128.7729 770.84064 6219.9873 4080707
6186.9556 773.24182 6239.3623 4080964
6214.3271 771.78632 6227.6177 4014915
6169.8525 761.48163 6144.4683 3949122
6218.3706 762.71075 6154.3862 3883329
6281.4419 765.69873 6178.4966 3817537
6298.0947 763.02643 6156.9336 3619901
nan nan nan 16777215
nan nan nan 16777215
nan nan nan 16777215
nan nan nan 16777215
nan nan nan 16777215
-4693.2769 646.86371 4969.6899 3290681
-4921.9839 682.9165 5246.6748 3159095
-4953.7183 691.9408 5316.0063 2896180
-5004.5664 703.77521 5406.9268 3027766
-5007.1162 708.93256 5446.5493 3027766
-5026.3369 716.53723 5504.9741 3159095
-5012.2397 719.46454 5527.4639 2633008
-4989.7861 721.22467 5540.9868 2106664
-5043.5889 734.10876 5639.9722 2304043
-5094.3916 746.73499 5736.9761 3488061
-5208.4263 768.87512 5907.0728 4211784
-5132.2842 763.05701 5862.374 3817797
-5139.5371 769.64337 5912.9751 3884099
-5119.9131 772.2713 5933.165 3949637
-5099.0703 774.75262 5952.228 3949637
-5070.7559 776.12671 5962.7852 3950148
-5053.2144 779.18243 5986.2617 3949892
-5029.7349 781.36145 6003.002 3884356
-5010.0425 784.16595 6024.5483 3949893
-4917.5649 775.5343 5958.2339 3818307
-4824.7095 766.71063 5890.4438 3358011
-4907.5342 785.88403 6037.748 3291704
-4869.7056 785.88403 6037.748 3028531
-4859.355 790.35309 6072.083 3093811
-4794.0181 785.87897 6037.709 3093811
-4756.1899 785.87897 6037.709 3093811
-4834.3687 805.20081 6186.1538 3488569
-4823.4917 809.8822 6222.1196 3554618
-4919.3291 832.70349 6397.4502 3555388
-4874.3047 831.86005 6390.9702 3620925
-4855.1538 835.45471 6418.5874 3620669
-4845.4297 840.74524 6459.2329 3555388
-4843.168 847.43048 6510.5942 3555132
-4802.1206 847.38531 6510.2466 3489595
-4781.4922 850.97321 6537.812 3555132
-4781.249 858.28265 6593.9683 3555389
-4702.4004 851.4859 6541.7505 3621181
-4612.7378 842.59436 6473.439 3620925
-4553.125 839.08282 6446.4609 3555389
-4410.4468 820.06342 6300.3398 3489339
-4154.4937 779.44855 5988.3057 3423546
-4114.3765 778.95648 5984.5254 3160374
-4031.9338 770.36853 5918.5464 3226167
-3912.7959 754.54474 5796.9761 3291960
-3844.3254 748.28668 5748.8975 3226167
-3704.5444 727.89856 5592.2607 3291960
-3601.447 714.39801 5488.5391 3226167
-3523.4204 705.65808 5421.3921 3160374
-3426.562 692.9397 5323.6802 3357753
-3281.3013 670.08691 5148.1084 3555645
-3153.1047 650.29974 4996.0884 3555645
-3034.885 632.19397 4856.9863 3621438
-2920.5986 614.54913 4721.4253 3490109
-2833.0735 602.23181 4626.7949 3621695
-2690.2239 577.77795 4438.9219 4543053
-2590.9541 562.27057 4319.7822 5463899
-2521.9709 553.0777 4249.1558 5463898
-2489.2749 551.73145 4238.813 5463899
-2470.4604 553.46619 4252.1406 5463643
-2463.5447 557.93347 4286.4614 5134678
-2491.1118 570.39478 4382.1987 3753281
-2543.6086 588.9057 4524.4136 3161143
-3049.5168 713.99255 5485.4238 3292986
-3131.6472 741.57947 5697.3677 3752514
-3133.6111 750.60016 5766.6709 3818563
-3141.6807 761.31085 5848.9585 3884356
-3130.5417 767.5647 5897.0054 3950149
-3138.9988 778.83002 5983.5537 3884356
-3145.8438 789.96277 6069.084 3884356
-3170.7439 805.95734 6191.9663 3819073
-3187.9226 820.36121 6302.6274 3753024
-3156.6165 822.49298 6319.0059 3818817
-3191.8665 842.24133 6470.7271 3753024
-3182.1086 850.46869 6533.9355 3753024
-3164.0176 856.65417 6581.4575 3884610
-3179.5024 872.21375 6700.9976 3884610
-3215.9929 894.02924 6868.6001 3884610
-3219.394 907.11298 6969.1196 4016196
-3186.8076 910.2771 6993.4282 4081989
-3142.9915 910.2771 6993.4282 4147782
-3111.7222 913.96222 7021.7402 4148039
-3088.8586 920.25739 7070.1045 4213575
-3010.5339 909.97186 6991.084 4279368
-2966.7327 909.97186 6991.084 4213575
-2939.3821 915.09338 7030.4307 4147782
-2879.689 910.14856 6992.4409 4081989
-2799.168 898.36652 6901.9224 4081989
-2753.74 897.65411 6896.4497 4147782
-2690.2095 890.92395 6844.7432 4279368
-2597.667 874.21216 6716.3506 4213575
-2514.8459 860.27557 6609.2793 4148039
-2473.4626 860.28455 6609.3481 3753024
-2458.3193 869.57568 6680.73 3884610
-2405.3684 865.58344 6650.0586 3950403
-2339.7568 856.81409 6582.6855 3950660
-2280.4814 850.09204 6531.042 4016453
-2217.8484 841.84979 6467.7192 4016196
-2164.3188 836.82062 6429.0811 4016196
-2099.9326 827.32343 6356.1167 4016196
-2050.8848 823.61877 6327.6548 3884610
-1952.6951 799.64423 6143.4644 3753024
-1893.1786 790.8609 6075.9839 3687231
-1832.0272 781.01996 6000.3789 3883841
-1718.2313 747.85352 5745.5693 3949890
-1584.6152 704.4563 5412.1597 4081476
-1545.5927 702.1333 5394.3125 2172709
-1568.9463 728.67621 5598.2349 1185813
-1492.8503 709.18872 5448.5176 1580575
-1543.6299 750.47278 5765.6924 3620156
-1548.8088 771.03436 5923.6616 4343367
-1520.218 775.38135 5957.0586 4343367
-1467.8064 767.49158 5896.4438 2172198
-1418.0901 760.64026 5843.8066 264201
-1385.8235 763.03351 5862.1934 198410
-1343.3282 759.77191 5837.1353 1185562
-1359.9102 790.67627 6074.5654 3093559
-1342.4044 802.97034 6169.0181 3224890
-1280.6534 788.74316 6059.7144 2436143
-1255.4563 796.84766 6121.979 1646885
-1235.636 808.98315 6215.2129 1515555
-1207.8152 816.50012 6272.9639 528147
-1138.4071 795.4635 6111.3447 1976106
-1093.2395 790.49011 6073.1357 3752516
-1043.408 781.66412 6005.3276 3686723
-999.51215 776.79083 5967.8872 3423551
-956.32666 772.11218 5931.9424 3489856
-916.00507 769.46094 5911.5737 3620929
-877.07684 767.80609 5898.8599 3752771
-829.11768 757.75208 5821.6172 3358013
-781.30713 746.91473 5738.3569 3160893
-741.2182 742.76971 5706.5117 3292221
-669.80499 705.22394 5418.0571 2634292
-659.06964 730.96637 5615.8296 1844775
-625.32593 732.65491 5628.8022 2107947
-600.66492 745.82294 5729.9692 1647140
-587.93878 776.42615 5965.0854 1383711
-542.01086 764.36188 5872.3989 3225915
-506.32022 766.02887 5885.2056 3620672
-469.4476 766.02887 5885.2056 3423548
-432.27335 765.49475 5881.1025 3686723
-389.93747 754.86877 5799.4658 3950407
-346.48581 739.67706 5682.752 3292996
-311.71255 741.65417 5697.9414 4019807
-272.94012 733.39685 5634.5024 6980746
-241.42738 745.09088 5724.3447 4346972
-207.12589 750.75732 5767.8784 2503228
-174.93134 768.06976 5900.8857 5003618
-137.62773 766.21735 5886.6543 4806233
-101.0054 768.19012 5901.8105 3621442
-66.316605 795.63916 6112.6943 3687233
-29.385923 834.46429 6410.978 3555903
10.723986 830.06329 6377.1665 3753283
50.840622 832.71198 6397.5151 3687234
91.216911 835.40338 6418.1929 3752770
133.24925 846.9743 6507.0889 3752770
174.33054 848.49457 6518.7686 3818563
214.24823 844.8493 6490.7632 3818563
254.52666 843.56268 6480.8784 3752770
292.80661 836.91785 6429.8276 3686977
340.81979 856.33588 6579.0117 3752770
388.51328 870.84705 6690.4976 4015685
426.48691 862.8667 6629.1865 3949890
468.61523 863.96265 6637.6064 3818304
514.99274 872.07532 6699.9341 3621181
555.3938 869.60754 6680.9746 3620926
598.21405 871.00806 6691.7344 3752511
632.63824 860.80103 6613.3164 3884097
669.04742 854.38367 6564.0132 4015683
706.46124 849.91809 6529.7061 3949890
744.11377 846.21301 6501.2402 3949890
776.87268 837.61609 6435.1929 3949890
801.50714 821.54016 6311.6851 3949890
828.13361 808.92163 6214.7402 3818304
857.91315 800.37805 6149.1021 3818304
879.23944 785.02142 6031.1206 3949890
900.39398 770.78333 5921.7334 4081475
936.03412 769.58179 5912.502 4081477
961.552 760.46637 5842.4707 4015688
988.99084 753.48303 5788.8193 3620419
987.01501 725.3764 5572.8833 1449511
1003.4045 712.22614 5471.8535 396311
1037.6874 712.22614 5471.8535 988453
1080.198 717.69281 5513.8521 1185322
1084.7083 698.35522 5365.2866 987945
1115.6923 696.7121 5352.6631 856618
1141.7926 692.20422 5318.0298 790824
1174.0507 691.57928 5313.2285 790824
1206.9149 691.33594 5311.3589 790823
1236.0117 689.00555 5293.4556 593445
1253.241 680.35437 5226.9902 396063
1282.0957 678.29419 5211.1626 461856
1312.7021 677.24011 5203.0645 593184
1345.3009 677.24011 5203.0645 462363
1381.3402 678.93115 5216.0562 1317414
1393.092 668.88251 5138.855 3357252
1455.358 682.99402 5247.27 3752519
1595.0143 731.99872 5623.7607 3686980
1739.73 781.15686 6001.4307 3621443
1799.7285 791.00098 6077.0601 3621187
1850.6312 796.52222 6119.4785 3621184
1931.9174 814.6311 6258.6045 3555648
1999.9514 826.54266 6350.1177 3555391
2090.2 846.99133 6507.2197 3621440
2166.3931 861.07092 6615.3901 3753280
2252.9478 878.66309 6750.5459 3818817
2301.6433 881.11359 6769.3726 3819074
2389.3386 898.13519 6900.145 3884610
2475.7854 914.09076 7022.728 3950403
2523.0366 915.27039 7031.7905 3818817
2561.9812 913.44788 7017.7886 3753024
2649.4014 928.67853 7134.8022 3753024
2717.4092 936.71246 7196.5244 4016196
2762.4978 936.71246 7196.5244 4016196
2804.5173 935.68854 7188.6582 4081989
2863.9912 940.42834 7225.0728 4016196
2925.3008 945.61407 7264.9136 3884610
3002.0552 955.55701 7341.3027 3884610
3049.7161 956.07904 7345.3135 3950403
3082.3657 951.94958 7313.5879 4016196
3100.2319 943.44232 7248.2285 3950403
3132.7322 939.5697 7218.4761 3884867
3171.4673 937.6507 7203.7324 3884357
3185.155 928.48401 7133.3081 3818563
3191.1782 917.36792 7047.9053 3752770
3223.4011 913.98383 7021.9067 3621184
3252.9653 909.94733 6990.8955 3555390
3271.4438 902.95825 6937.1997 3621183
3288.3457 895.72296 6881.6128 3686976
3288.8157 884.2569 6793.5225 3752513
3278.5303 870.22919 6685.7505 3686719
3217.6646 843.29895 6478.8525 3621183
3155.4458 816.68951 6274.4189 3555390
3103.0828 793.25446 6094.3735 3752769
3101.04 783.09637 6016.3315 3752770
3106.0303 774.93689 5953.644 3818306
3106.4316 765.83978 5883.7534 3818305
3142.5757 765.66449 5882.4067 3950148
3042.5635 732.70435 5629.1821 3949635
2991.0999 712.05707 5470.5542 4343108
2978.1641 700.9455 5385.187 4014400
3001.2776 698.47253 5366.1875 3684921
2650.3401 609.96753 4686.2266 3158064
2624.9265 597.49957 4590.438 2763306
2737.1587 616.29388 4734.8301 2894892
2792.8069 622.08148 4779.2944 3158064
2762.2886 608.75677 4676.9243 3553592
3045.7827 664.18787 5102.7876 3685691
3252.0864 701.80951 5391.8247 3620411
3402.1309 726.64142 5582.6021 3489339
3495.1443 738.91101 5676.8662 3620412
3691.3867 772.53723 5935.208 3686720
3810.8608 789.58685 6066.1958 3686720
4084.4666 837.91943 6437.5229 3620927
4273.251 868.07617 6669.2095 3620926
4220.8413 849.12665 6523.625 3620926
4273.9116 851.55695 6542.2964 3620926
4430.2393 874.31927 6717.1733 3489341
4494.0151 878.55975 6749.752 3555134
4752.3374 920.39948 7071.1958 3423548
4774.873 916.22266 7039.1064 3489341
4799.0156 912.42773 7009.9512 3423548
4842.4775 912.34149 7009.2886 3555134
4897.7495 914.46198 7025.5796 3555134
4818.8799 891.72198 6850.874 3686720
4848.749 889.32764 6832.4795 3620927
4895.7656 890.09283 6838.3584 3423548
4909.1992 884.79224 6797.6348 3357755
4969.8916 888.02692 6822.4858 3291962
4970.9517 880.64209 6765.75 3489341
4961.6855 871.56824 6696.0381 3686720
4912.9517 855.77179 6574.6782 3752513
4864.4097 840.27124 6455.5913 3686977
4740.8481 812.17438 6239.7305 3752513
4772.2212 810.86255 6229.6519 3752770
4639.2358 781.87189 6006.9238 3949378
4533.0054 757.82062 5822.144 4080708
4571.0405 758.07898 5824.1289 4080708
4385.9702 721.62555 5544.0664 4080708
4577.2012 747.17151 5740.3296 3949122
4520.4253 732.1507 5624.9287 3949122
4303.1045 691.56085 5313.0869 3949122
4241.6665 676.45416 5197.0259 3817793
4344.6323 687.59662 5282.6309 3883329
4446.1729 698.34674 5365.2212 3949122
4520.3364 704.66785 5413.7847 3883586
4471.8491 691.9173 5315.8257 4014658
4300.6445 660.50806 5074.5161 4014400
nan nan nan 16777215
nan nan nan 16777215
nan nan nan 16777215
nan nan nan 16777215
nan nan nan 16777215
nan nan nan 16777215
nan nan nan 16777215
4757.5459 689.87988 5300.1724 3750971
5017.5898 722.54492 5551.1299 3751743
5068.2905 724.82178 5568.6226 3817280
5142.3369 730.38342 5611.3511 3752000
5228.5752 737.58942 5666.7129 3817793
5276.1191 739.27649 5679.6738 3817536
5358.3496 745.76855 5729.5513 3883329
5453.7808 753.99927 5792.7856 4014915
5521.3232 758.29095 5825.7573 4080708
5606.1069 764.8786 5876.3687 3949379
5683.0854 770.32227 5918.1909 4015171
5746.3486 773.84833 5945.2812 3949378
5782.0762 773.64478 5943.7173 4014404
5827.8413 774.77826 5952.4253 3948868
5906.1504 780.19635 5994.0513 3949124
5980.8145 785.0675 6031.4751 3948868
6022.916 785.63007 6035.7969 4014405
6055.3364 784.93066 6030.4233 3883075
6085.9043 784.00116 6023.2827 3883332
6115.3428 782.93866 6015.1196 3751490
6097.2651 775.84302 5960.6055 3883075
nan nan nan 16777215
nan nan nan 16777215
nan nan nan 16777215
nan nan nan 16777215
nan nan nan 16777215
-4470.957 645.72662 4734.2764 3685696
-4648.2129 675.81067 4954.8438 3356731
-4677.9741 684.71063 5020.0957 3290938
-4776.2246 703.82373 5160.2271 3356731
-4807.0806 713.19818 5228.958 3422524
-4828.8828 721.349 5288.7173 3225145
-4879.5244 733.95032 5381.1064 2764594
-4884.062 739.74396 5423.5835 2435629
-4955.0703 755.75702 5540.9868 2435629
-4972.6631 763.79156 5599.8936 2435629
-4967.4165 768.40729 5633.7349 2633008
-4932.1196 768.40729 5633.7349 3619903
-4987.2339 782.5946 5737.752 3949638
-4972.353 785.92456 5762.1665 3949636
-4889.4067 778.46619 5707.4839 3818305
-4868.4048 780.83307 5724.8374 3883842
-4886.3945 789.53528 5788.6392 3949892
-4906.041 798.63739 5855.373 3949892
-4842.147 794.17487 5822.6553 3884099
-4782.7358 790.38544 5794.8721 3752513
-4794.48 798.38702 5853.5371 3620927
-4683.0347 785.83997 5761.5459 3423546
-4657.7285 787.66498 5774.9263 3489339
-4615.564 786.64526 5767.4502 3620411
-4615.7026 792.87622 5813.1338 3488826
-4496.8657 778.60645 5708.5117 3357240
-4455.8003 777.68146 5701.73 3488569
-4611.0103 811.27472 5948.0264 3423032
-4689.8672 831.87231 6099.0415 3620411
-4681.7622 837.25653 6138.5171 3620155
-4647.4175 837.99854 6143.957 3620412
-4629.856 841.80444 6171.8608 3554619
-4595.7168 842.63495 6177.9502 3423289
-4562.0186 843.56104 6184.7397 3291960
-4523.269 843.56104 6184.7397 3423545
-4495.1621 845.56293 6199.417 3620925
-4472.6372 848.65881 6222.1152 3620925
-4393.0371 840.88428 6165.1147 3752511
-4321.5303 834.53473 6118.5615 3752767
-4264.3511 830.8631 6091.6421 3620925
-4131.625 812.27264 5955.3428 3555131
-3977.7917 789.15594 5785.8579 3621181
-3882.9714 777.42932 5699.8818 3621181
-3778.5486 763.54462 5598.083 3686718
-3701.8374 755.05194 5535.8174 3686718
-3602.6277 741.76624 5438.4106 3620925
-3517.532 731.16071 5360.6538 3555132
-3465.9287 727.37946 5332.9312 3357753
-3373.4819 714.86963 5241.2124 3357753
-3241.8293 693.72412 5086.1797 3292473
-3083.0569 666.29773 4885.0977 3358266
-2953.2776 644.65002 4726.3833 3555388
-2842.4663 626.74615 4595.1172 3358523
-2695.2922 600.3761 4401.7798 3819074
-2664.8232 599.72552 4397.0103 4871762
-2501.0718 568.7525 4169.9253 5397850
-2506.937 576.10425 4223.8257 5464412
-2484.0093 576.92548 4229.8467 5333339
-2476.2649 581.32886 4262.1309 5332826
-2452.3477 581.99005 4266.979 5135191
-2491.1118 597.70532 4382.1987 3884867
-2588.0034 627.87317 4603.3804 3424316
-2889.9224 709.02313 5198.3477 3555903
-2877.4922 714.02032 5234.9858 3621440
-2942.5161 738.57397 5415.0059 3752514
-2933.123 744.80377 5460.6807 3752771
-2943.1208 756.1626 5543.9604 3818563
-2960.1177 769.61243 5642.5708 3884356
-2985.6248 785.62677 5759.9834 3884356
-2969.5249 790.95087 5799.0176 3884611
-2967.9656 800.32758 5867.7651 3687231
-2960.2466 808.25781 5925.9072 3687231
-2972.3804 821.87897 6025.7729 3621438
-2942.3625 824.04529 6041.6562 3753024
-2932.9749 832.12122 6100.8667 3818817
-2951.9658 848.56805 6221.4502 3884610
-2923.7881 851.7146 6244.5195 3818817
-2914.6494 860.56799 6309.4297 4016196
-2881.1519 862.37378 6322.6689 4016196
-2843.5063 862.97101 6327.0479 4081989
-2819.1736 867.6825 6361.5913 4082246
-2798.0212 873.52209 6404.4058 4081989
-2771.0354 877.68396 6434.9189 4016196
-2743.0994 881.66315 6464.0938 4081989
-2730.9873 890.92395 6531.9912 4147782
-2690.0625 890.92395 6531.9912 4147782
-2635.3452 886.28558 6497.9839 4147782
-2592.8779 885.68591 6493.5874 4147782
-2552.7319 885.8728 6494.957 4147782
-2371.439 836.29004 6131.4312 4213575
-2351.7312 842.99591 6180.5967 4081989
-2320.8938 845.87006 6201.6689 3950403
-2285.4617 847.13898 6210.9722 4016196
-2209.9956 833.35553 6109.9165 3818817
-2185.0347 838.46674 6147.3901 3752768
-2121.7773 828.802 6076.5308 3818304
-2069.7253 823.24115 6035.7607 3884097
-2032.3693 823.42755 6037.127 3884353
-1977.983 816.59015 5986.9976 3752511
-1906.035 802.09808 5880.7456 3621182
-1811.3351 777.27155 5698.7246 3555388
-1756.2415 768.78394 5636.4966 3686974
-1702.7051 760.6438 5576.8149 3621181
-1613.03 735.68005 5393.7886 3817533
-1546.9894 720.65796 5283.6509 3422776
-1498.6235 713.3927 5230.3843 2041124
-1509.4138 734.59235 5385.814 1909540
-1483.8341 738.65649 5415.6108 2238248
-1479.4833 753.72589 5526.0952 2567469
-1499.2426 782.09479 5734.0874 2830129
-1486.9735 794.73853 5826.7876 2698799
-1457.3983 798.53644 5854.6328 2303784
-1420.7172 798.53644 5854.6328 1119511
-1385.3477 799.29309 5860.1807 987926
-1357.5288 804.56616 5898.8408 1251098
-1347.1434 820.75568 6017.5381 1382941
-1330.7015 834.0813 6115.2373 2040614
-1265.7594 816.89606 5989.2397 2238507
-1251.3777 832.28809 6102.0898 1448734
-1212.6132 831.92242 6099.4092 922647
-1180.9142 836.53796 6133.249 593681
-1141.584 835.87659 6128.3994 1382941
-1090.0757 825.94165 6055.5596 2764850
-1002.1723 786.7196 5767.9956 3159609
-946.36639 770.7027 5650.564 2962230
-907.28595 767.59106 5627.7505 2896950
-862.27856 759.01074 5564.8423 2699571
-809.37158 742.46075 5443.5024 2370607
-764.612 732.25714 5368.6929 2305069
-725.85242 727.12518 5331.0664 2436399
-693.96503 728.71429 5342.7178 2304813
-655.0838 722.74835 5298.9771 2436400
-633.224 735.92749 5395.6025 2041897
-599.69305 736.26416 5398.0708 2173483
-573.45428 746.12891 5470.3965 1647140
-575.72955 796.70618 5841.2139 1055003
-537.57269 794.40112 5824.314 2305069
-501.44638 794.97949 5828.5547 2963254
-463.66177 792.81323 5812.6719 3160633
-427.24359 792.81323 5812.6719 3423805
-383.5849 778.12543 5704.9854 2634551
-341.16592 763.19226 5595.5 3230305
-308.24295 768.51428 5634.519 7641525
-273.0029 768.68866 5635.7979 9088713
-237.69287 768.68866 5635.7979 8233404
-205.56258 780.76593 5724.3447 8166839
-168.26062 774.15363 5675.8652 5928845
-129.34819 754.60211 5532.519 4085344
-94.21051 750.81873 5504.7808 3162694
-64.028725 804.97119 5901.8105 3227972
-27.568506 820.33893 6014.4819 3424834
10.087996 818.2226 5998.9663 3424320
48.141956 826.26483 6057.9292 3555903
86.570274 830.80914 6091.2466 3621184
125.54754 836.229 6130.9834 3621184
164.51462 839.05737 6151.7207 3555391
201.67723 833.35577 6109.918 3489598
240.99341 836.95251 6136.2881 3621184
279.43915 836.95251 6136.2881 3489855
320.87839 844.83392 6194.0728 3555391
367.06042 862.15479 6321.0635 3555391
412.89401 875.36304 6417.9028 3555389
454.21982 877.51837 6433.7056 3752511
491.61288 872.34393 6395.7681 3620925
529.92218 869.4527 6374.5703 3620927
569.86084 869.4527 6374.5703 3489339
594.31866 847.38019 6212.7402 3555388
633.24341 847.38019 6212.7402 3621438
667.27332 841.20935 6167.498 3621437
700.49146 834.74689 6120.1172 3489852
737.62836 833.38251 6110.1143 3686974
769.24689 826.22577 6057.6431 3752768
798.58521 817.40802 5992.9937 3752768
829.03326 810.46716 5942.1055 3752768
851.34924 796.51447 5839.8086 3621438
873.93195 783.95099 5747.6968 3621181
909.09631 783.2215 5742.3481 3555390
936.91663 776.46124 5692.7842 3686466
957.17493 764.15967 5602.5928 3554626
956.74988 736.80005 5402 1449512
983.44928 731.48499 5363.0317 462105
1027.6533 739.11096 5418.9429 1054247
1062.5725 739.78485 5423.8833 1119786
1078.3367 727.49396 5333.7705 988202
1112.7334 728.13458 5338.4673 922666
1141.1965 724.96838 5315.2539 856614
1169.755 722.04059 5293.7881 790820
1202.3668 721.70728 5291.3442 987173
1227.8699 717.23932 5258.5864 724258
1240.7 705.79559 5174.6846 527135
1277.6162 708.28766 5192.9556 592671
1299.7791 702.68018 5151.8428 396570
1337.451 705.52557 5172.7046 396312
1392.0439 716.95123 5256.4741 593947
1393.092 700.90863 5138.855 2436404
1455.358 715.6958 5247.27 3752006
1557.4285 748.97174 5491.2393 3752773
1652.8215 777.66748 5701.6279 3818564
1688.5439 777.66748 5701.6279 3687234
1750.8896 789.67499 5789.6631 3818819
1814.606 801.8006 5878.5645 3884353
1890.6329 818.77515 6003.0166 3818818
1958.198 831.49438 6096.2705 3752768
2038.2534 848.92914 6224.0972 3687231
2091.741 854.85162 6267.519 3753024
2161.9438 867.26105 6358.5015 3753024
2243.4104 883.65826 6478.7207 3753024
2326.698 900.17706 6599.832 3753024
2377.5884 903.80359 6626.4209 3753024
2470.0837 922.84985 6766.0625 3358522
2518.2993 924.98914 6781.7466 3358266
2565.3274 926.62842 6793.7656 3753024
2588.2412 919.64594 6742.5723 3687231
2630.4854 919.64594 6742.5723 3687231
2671.7212 919.29889 6740.0278 3753024
2691.8103 911.79968 6685.0454 3818817
2763.7275 921.81708 6758.4902 3621438
2817.9353 925.71442 6787.0645 3818817
2857.2297 924.66956 6779.4033 4016196
2895.7502 923.40851 6770.1582 4147782
2900.3931 911.53687 6683.1182 4081989
2930.4834 907.88684 6656.3574 4081732
2963.4094 905.20544 6636.6982 4015942
2945.2937 887.22278 6504.8545 3950405
2946.7039 875.53259 6419.1455 3884613
2995.1479 877.94373 6436.8237 3884355
3013.8726 871.69525 6391.0117 3818563
2978.7458 850.23956 6233.7046 3752513
3039.8013 856.43762 6279.1475 3424060
3050.8474 848.56769 6221.4473 3489597
3061.5735 840.80853 6164.5591 3489340
3041.4053 824.86365 6047.6562 3489341
3022.218 809.57404 5935.5571 3620926
3027.6069 801.15942 5873.8638 3752511
3026.8269 791.33405 5801.8271 3686718
3012.7712 778.31232 5706.3555 3686719
3020.5896 771.1806 5654.0679 3686718
2919.5542 736.74518 5401.5977 3949120
2975.8931 742.35693 5442.7417 4211779
2919.6777 720.08234 5279.4307 4146243
2819.5491 687.59772 5041.2627 3619128
2544.9438 613.75488 4499.8691 2828842
2573.137 613.75488 4499.8691 2697513
2675.9519 631.36108 4628.9526 2829099
2749.8315 641.83594 4705.7515 3092271
2768.5293 639.34534 4687.4907 3553078
2829.0176 646.45648 4739.6274 3750971
3100.6736 701.17236 5140.7881 3685692
3147.3118 704.40186 5164.4658 3751741
3249.1245 719.78857 5277.2769 3685949
3426.6453 751.4682 5509.5425 3620927
3499.2993 759.74786 5570.2466 3555134
3634.687 781.34985 5728.626 3423548
3879.9766 825.92407 6055.4312 3357756
3860.5798 813.83728 5966.8145 3423549
3901.4404 814.56311 5972.1357 3555135
3980.9456 823.26703 6035.9502 3555135
4035.2361 826.64166 6060.6919 3620927
4238.8164 860.2511 6307.1069 3423548
4279.9517 860.57684 6309.4946 3686720
4321.5757 860.99384 6312.5518 3752513
4356.9331 860.16602 6306.4829 3555390
4401.1445 861.08545 6313.2241 3620927
4453.1445 863.49878 6330.9175 3555134
4494.2651 863.7785 6332.9688 3620927
4467.4556 851.11176 6240.0996 3489341
4485.9199 847.21521 6211.5312 3489341
4480.8101 838.97168 6151.0923 3686720
4466.582 829.17621 6079.2744 3752513
4461.0947 821.15515 6020.4663 3818306
4436.5508 809.79022 5937.1426 3752513
4419.9424 800.05078 5865.7358 3555390
4358.4482 782.41425 5736.4297 3620927
4383.5898 780.49158 5722.333 3752513
4338.5708 766.20929 5617.6196 3817793
4302.4282 753.71204 5525.9937 3949122
4308.9346 748.82587 5490.1699 4014915
4337.9087 747.89075 5483.314 3817536
4315.1875 738.12787 5411.7349 3883329
4271.894 725.02551 5315.6724 3817536
4160.3613 700.63397 5136.8408 3817536
4134.6733 690.96271 5065.9341 3751743
4163.3442 690.4538 5062.2031 3883329
4207.6943 692.53314 5077.4482 3883842
4145.7534 677.21838 4965.165 3883586
4116.5103 667.43335 4893.4238 3948865
3890.8086 626.17535 4590.9326 4145730
nan nan nan 16777215
3498.4492 554.82684 4067.8264 3882043
3493.6035 550.05127 4032.8132 3158063
3515.3335 549.49841 4028.7598 3091243
3539.9287 549.39819 4028.0247 3356212
nan nan nan 16777215
nan nan nan 16777215
4443.7661 675.23242 4950.604 3619641
4534.1953 684.19745 5016.3335 3750973
4574.27 685.49316 5025.833 3685694
4762.2021 708.77734 5196.5459 3752000
4870.8945 720.03174 5279.0596 3883586
4983.9067 731.76862 5365.1108 3883586
5046.1475 735.9436 5395.7207 3883329
5097.8804 738.54071 5414.7622 3949122
5232.6904 753.05957 5521.21 3949122
5288.6187 756.10999 5543.5747 3949122
5358.4048 761.08887 5580.0786 4015172
5409.7236 763.39728 5597.0029 4014914
5446.7085 763.6662 5598.9746 4014660
5498.7827 766.03369 5616.3325 3948868
5597.3525 774.80731 5680.6577 3883331
5646.7495 776.7063 5694.5806 3883330
5713.8901 781.00665 5726.1099 3817537
5749.4263 780.96051 5725.7715 3882819
5768.3535 778.67291 5708.9995 3883075
5800.3711 778.16974 5705.3101 3817538
5824.9443 776.68005 5694.3882 3883328
nan nan nan 16777215
nan nan nan 16777215
nan nan nan 16777215
nan nan nan 16777215
nan nan nan 16777215
-4315.3882 651.73645 4569.5454 2304300
-4424.876 672.73505 4716.7739 2370092
-4489.7798 687.19226 4818.1382 2370350
-4601.4204 709.04681 4971.3682 2764594
-4636.4297 719.31061 5043.3311 2895924
-4619.3945 721.58545 5059.2808 3027766
-4673.0239 735.00635 5153.3789 3093559
-4668.1978 739.35571 5183.874 3027766
-4752.0879 757.91553 5314.0029 3027766
-4769.1162 765.99799 5370.6719 2896180
-4781.7852 773.4903 5423.2031 2896180
-4747.9014 773.50562 5423.3105 3027765
-4713.9224 773.50562 5423.3105 3290938
-4674.1313 772.54492 5416.5747 3159608
-4688.6367 780.60999 5473.1216 3225399
-4637.9502 777.86017 5453.8418 3422778
-4537.6616 766.68866 5375.5146 3818049
-4606.3462 784.11359 5497.6865 3752514
-4583.6255 786.12433 5511.7847 3752513
-4583.3765 792.04889 5553.3237 3884099
-4554.9375 793.15546 5561.082 3818306
-4520.0957 793.15546 5561.082 3818306
-4508.3066 797.23193 5589.6641 3686977
-4506.6699 803.18182 5631.3804 3620927
-4452.6499 799.81598 5607.7812 3489339
-4417.5156 799.81598 5607.7812 3423546
-4438.7285 810.09979 5679.8848 3423546
-4412.3984 811.80286 5691.8252 3555132
-4410.1948 818.00854 5735.3354 3423802
-4386.001 820.20392 5750.728 3818304
-4367.7456 823.55536 5774.2266 3752511
-4325.4033 822.38324 5766.0083 3620925
-4273.0259 819.26727 5744.1611 3686718
-4138.1255 800.14203 5610.0674 3620926
-4183.2236 815.79132 5719.79 3818305
-4097.6001 805.99817 5651.127 3949890
-4073.864 808.3136 5667.3613 3949891
-4068.9272 814.4328 5710.2646 3884099
-4035.6006 814.92743 5713.7329 3884099
-3962.1509 807.25629 5659.9478 3884099
-3819.1636 785.15094 5504.9595 3884099
-3721.8457 772.117 5413.5742 3818306
-3640.0825 762.09985 5343.3408 3752511
-3430.5906 724.90692 5082.5684 3620668
-3430.3132 731.63965 5129.7739 3489596
-3399.1958 731.85968 5131.3169 3555390
-3345.4539 727.16638 5098.4102 3489854
-3313.511 727.16638 5098.4102 3621439
-3254.6479 721.20111 5056.5859 3753026
-3128.2173 699.99908 4907.9312 3884355
-2975.303 672.39099 4714.3618 3819075
-2765.064 631.14459 4425.1689 3819331
-2728.1233 629.01978 4410.271 3819334
-2683.2451 625.00256 4382.105 4148039
-2620.5959 616.72009 4324.0342 5003861
-2479.176 589.53345 4133.4194 5201497
-2510.1611 603.20258 4229.2578 5398620
-2494.2625 605.77673 4247.3062 5267290
-2476.2649 607.89105 4262.1309 5201497
-2510.7852 623.08459 4368.6577 5135704
-2460.1851 617.25647 4327.7944 4147783
-2549.8354 646.87921 4535.4897 3490109
-2605.8457 668.53912 4687.3545 3555901
-2740.8313 711.18518 4986.3608 3490365
-2765.8643 725.95544 5089.9199 3621437
-2777.1184 737.41156 5170.2427 3555901
-2761.6846 741.96783 5202.1885 3555901
-2774.095 754.20319 5287.9746 3292473
-2781.3127 765.30554 5365.8169 3029301
-2769.0835 771.26294 5407.5864 3160374
-2767.8682 780.47369 5472.166 3423802
-2776.5654 792.74567 5558.209 3423803
-2754.5498 796.4491 5584.1748 3424059
-2740.0667 802.45361 5626.2749 3555644
-2727.6069 809.21509 5673.6816 3686974
-2760.937 829.91919 5818.8452 3818817
-2754.156 838.95892 5882.2261 4016196
-2749.9998 849.0542 5953.0073 3884867
-2704.751 846.56561 5935.5586 3950403
-2670.8689 847.61475 5942.9146 4147782
-2642.0776 850.33203 5961.9668 4081989
-2600.9795 849.10956 5953.3955 4081989
-2564.2903 849.31183 5954.8135 4082246
-2528.3345 849.76648 5958.0015 4081989
-2495.7512 851.38538 5969.3521 4148039
-2460.0811 851.98444 5973.5522 4016196
-2423.5969 852.31573 5975.875 4081989
-2379.5105 849.94196 5959.2314 4081989
-2325.323 843.82697 5916.3569 4213575
-2242.8938 827.09924 5799.0737 4147782
-2211.3098 828.87939 5811.5547 4147782
-2161.1333 823.6333 5774.7725 4016196
-2124.9526 823.6333 5774.7725 4081989
-2109.2949 831.72577 5831.5117 3950660
-2053.2312 823.89008 5776.5732 3884610
-1974.2194 806.39966 5653.9419 3884867
-1927.5743 801.73248 5621.2183 3884610
-1865.7976 790.48059 5542.3276 3884610
-1834.6082 792.00665 5553.0273 3950659
-1743.1364 767.06458 5378.1499 3818817
-1679.8336 753.77917 5285.002 3884353
-1624.5603 743.63507 5213.8779 3818304
-1579.7418 737.95844 5174.0771 3884097
-1532.2646 730.77594 5123.7183 3884354
-1497.0586 729.26367 5113.1152 3555132
-1406.7185 700.24048 4909.624 3027761
-1451.2687 738.56689 5178.3433 2633260
-1430.1345 744.45416 5219.6211 2435881
-1406.1212 749.08319 5252.0767 2172708
-1442.0038 786.60706 5515.1689 2040356
-1443.6744 806.85272 5657.1182 2172710
-1423.4244 815.55792 5718.1533 3620157
-1398.3818 821.89587 5762.5908 3488571
-1362.2775 821.89587 5762.5908 3422778
-1338.6842 829.64966 5816.9556 3291192
-1314.9166 837.72632 5873.584 3159352
-1261.7483 826.99786 5798.3628 3290938
-1204.391 812.80615 5698.8599 3160122
-1233.6235 857.96954 6015.5156 3160122
-1180.7111 847.04828 5938.9429 3160122
-1145.5253 848.54712 5949.4521 3226170
-1105.4012 846.36584 5934.1582 3422779
-957.04718 758.2807 5316.5635 3028277
-923.73724 758.2807 5316.5635 2765362
-874.32568 744.56866 5220.4238 2436397
-822.88995 728.00012 5104.2559 2370862
-792.97711 729.90259 5117.5947 2502190
-752.93585 722.24982 5063.9385 2567983
-724.44836 725.49414 5086.6855 2502447
-704.20013 737.66791 5172.04 2831413
-667.58801 733.04767 5139.646 3094584
-635.71692 733.42883 5142.3184 3554624
-613.9469 746.12646 5231.3457 3226172
-581.1709 746.12646 5231.3457 2962743
-561.07281 763.37555 5352.2852 2896949
-559.52826 809.66547 5676.8394 3094329
-517.84387 800.21271 5610.563 3291964
-482.69199 800.21271 5610.563 3423806
-445.15439 795.94702 5580.6548 3358269
-407.85736 791.42102 5548.9214 3950668
-363.96692 772.06519 5413.2109 4215901
-332.04791 776.73523 5445.9546 5664389
-297.92731 776.73523 5445.9546 6653338
-273.0029 803.81183 5635.7979 7508651
-237.69287 803.81183 5635.7979 7574700
-200.78683 797.4729 5591.3535 7705515
-162.99538 784.1947 5498.2554 6388623
-124.96073 762.31616 5344.8574 3295055
-89.477219 745.67938 5228.2114 3031105
-61.67318 810.78503 5684.689 3228225
-26.340088 819.59863 5746.4844 3424833
9.6597052 819.28381 5744.2769 3621442
45.73317 820.78754 5754.8203 3621184
82.977791 832.71863 5838.4727 3555391
120.05437 836.17834 5862.7305 3358012
157.91638 842.20593 5904.9917 3160633
194.79852 841.7113 5901.5239 3226426
230.74226 837.96667 5875.2686 3423805
267.1384 836.66919 5866.1719 3358012
307.65195 847.02161 5938.7563 3226425
345.57242 848.77118 5951.0229 3094583
384.69644 852.84821 5979.6084 2962995
422.16055 852.84821 5979.6084 3226167
459.01611 851.71899 5971.6914 3226167
492.95679 845.75909 5929.9043 3160374
519.9389 829.53253 5816.1338 3226167
554.0614 826.07739 5791.9092 3160374
591.19482 827.26019 5800.2021 3357753
627.53485 827.26019 5800.2021 3291960
658.76038 820.88696 5755.5171 3291960
693.17993 818.94873 5741.9277 3226167
724.6604 813.90082 5706.5347 3226167
760.41364 813.90082 5706.5347 3291960
789.82544 807.41815 5661.0825 3357753
814.94183 797.29034 5590.0732 3423546
840.56458 788.47211 5528.2456 3489338
866.19653 780.36017 5471.3701 3357754
888.76526 770.21118 5400.2124 3225915
908.51294 758.4516 5317.7617 3028283
942.3136 758.8407 5320.4897 1317925
977.75165 760.47687 5331.9614 527898
1025.2424 771.06952 5406.23 988709
1061.6047 772.88269 5418.9429 1053993
1075.3318 758.61505 5318.9077 988458
1104.0831 755.48572 5296.9668 922408
1131.6616 751.75995 5270.8442 856614
1161.6998 749.83301 5257.334 790822
1194.9678 750.03961 5258.7822 921637
1208.3223 738.07153 5174.8701 658464
1230.8088 732.16119 5133.4307 527134
1265.5741 733.67004 5144.0098 658463
1292.1445 730.47125 5121.582 526874
1325.8761 731.37775 5127.9375 593177
1392.0439 749.71045 5256.4741 396824
1393.3818 733.08734 5139.9243 1317667
1420.1194 730.27667 5120.2178 3357248
1512.0352 760.36682 5331.1899 3949895
1591.0203 782.79431 5488.4365 3818565
1635.282 787.55005 5521.7808 3818819
1689.585 796.84442 5586.9468 3818817
1765.766 815.87024 5720.3433 3818817
1842.3755 834.33313 5849.793 3884867
1900.1453 843.71051 5915.5405 3884610
1944.9939 847.10144 5939.3159 3753281
2004.0928 856.45508 6004.8975 3687231
2052.7515 861.08447 6037.356 3687231
2103.5149 866.41327 6074.7178 3621438
2144.3696 867.54395 6082.645 3752767
2192.1318 871.3808 6109.5469 3621438
2234.2971 872.89948 6120.1948 3424059
2278.1204 875.0036 6134.9478 3489852
2341.312 884.3537 6200.5044 3424059
2368.1162 879.87885 6169.1294 3489852
2427.0886 887.30798 6221.2173 3555645
2455.2163 883.40387 6193.8447 3555645
2492.418 882.83563 6189.8599 3424059
2534.0115 883.81628 6196.7363 3358522
2567.4653 881.9715 6183.8013 3424059
2606.4915 882.06708 6184.4722 3555645
2633.3469 878.10162 6156.6685 3555645
2667.9346 876.79169 6147.4844 3753024
2703.729 875.91003 6141.3027 3753024
2741.8088 875.78314 6140.4131 3884867
2769.5874 872.41486 6116.7969 3884610
2782.0034 864.36542 6060.3594 3950403
2819.9736 864.36542 6060.3594 3950403
2847.8716 861.31927 6039.0015 3818817
2849.0894 850.3894 5962.3687 3489852
2871.1113 845.87177 5930.6943 3423802
2891.2449 840.92023 5895.9775 3620925
2896.1169 831.71094 5831.4077 3752511
2857.3721 810.36115 5681.7168 3884097
2829.2336 792.50781 5556.541 4015683
2805.7488 776.37616 5443.4365 3949890
2825.0044 772.31659 5414.9736 3884097
2848.7048 769.55408 5395.605 3818047
2852.2869 761.48523 5339.0317 3883327
2855.3 753.45343 5282.7178 3883584
2846.3218 742.47772 5205.7632 3883327
2811.8298 725.17065 5084.4175 4277058
2653.8821 676.7688 4745.0557 3619384
2544.9438 641.79883 4499.8691 2763049
2557.2708 637.84137 4472.1226 2500134
2640.9219 651.56683 4568.3564 2829098
2715.9368 662.89008 4647.7476 2960685
2740.1191 661.69788 4639.3882 3355443
2690.9363 642.99994 4508.291 3882300
2883.3826 681.82819 4780.5288 3817021
3026.73 708.367 4966.6016 3751741
3151.9519 730.16687 5119.4478 3686461
3243.7844 743.87061 5215.5293 3686205
3316.2544 752.90497 5278.8726 3752254
3440.3835 773.3736 5422.3848 3752767
3584.7219 797.94037 5594.6309 3884096
3589.5022 791.26727 5547.8433 3752767
3626.1648 791.68292 5550.7578 3621182
3716.0889 803.60846 5634.3716 3620927
3762.22 805.92841 5650.6377 3489341
3938.6272 835.85223 5860.4438 3357755
3977.5786 836.3219 5863.7368 3489341
4035.4988 840.73492 5894.6777 3489597
4083.5039 843.02087 5910.7056 3555134
4123.6025 843.64819 5915.1035 3555134
4169.3853 845.41693 5927.5049 3555134
4192.0464 842.50751 5907.106 3555134
4222.8345 841.26794 5898.4155 3620927
4225.8389 834.56293 5851.4043 3621183
4221.1362 826.46436 5794.6221 3686976
4190.8188 813.53137 5703.9448 3752513
4187.2104 805.95813 5650.8462 3686720
4167.874 795.50989 5577.5898 3555390
4145.3931 784.64026 5501.3794 3423548
4130.6895 775.40991 5436.6621 3357755
4108.2959 764.89868 5362.9644 3620927
4068.9114 751.42023 5268.4624 3817792
4057.6172 743.30457 5211.5605 3817793
4071.2444 739.84723 5187.3203 3949122
4049.2656 730.02551 5118.4565 3817536
4021.04 719.24066 5042.8403 3685950
4028.4324 714.94531 5012.7241 3685950
3999.4407 704.30914 4938.1504 3685950
3918.2263 684.71033 4800.7363 3751743
3929.0049 681.3634 4777.27 3751743
3959.5781 681.47394 4778.0449 3751743
3931.7708 671.61047 4708.8887 3817279
3852.5408 653.17542 4579.6348 3882816
3723.7488 626.67218 4393.8115 3948866
3621.6963 605.0249 4242.0352 3685437
3539.9902 587.06732 4116.1284 3355702
3493.6035 575.18439 4032.8132 3552824
3511.3984 573.96307 4024.2502 2829614
3607.5964 585.48334 4105.0225 3421495
nan nan nan 16777215
nan nan nan 16777215
4102.7979 651.90778 4570.7466 3685180
4257.1353 671.74225 4709.813 3685437
4373.8398 685.40643 4805.6172 3685437
4459.2085 694.00677 4865.917 3816767
4558.3789 704.62378 4940.3564 3883329
4603.0562 706.73102 4955.1309 3883586
4764.7832 726.66077 5094.8652 3883329
4819.8354 730.16492 5119.4341 3751743
4877.2856 733.9837 5146.209 3751743
4987.9497 745.70782 5228.4106 3620157
5057.9849 751.24457 5267.2305 3554364
5092.0312 751.39886 5268.3125 3620157
5137.9116 753.28619 5281.5449 3620157
5223.1694 760.88562 5334.8271 3620158
5312.2705 768.94482 5391.333 3751744
5367.4741 772.02643 5412.9395 3620156
5427.6035 775.77344 5439.2109 3488570
5468.8457 776.79108 5446.3457 3751742
5515.8696 778.61212 5459.1138 3685949
5517.3149 774.0166 5426.8931 3620412
5543.8413 772.97437 5419.5854 3620157
nan nan nan 16777215
nan nan nan 16777215
nan nan nan 16777215
nan nan nan 16777215
nan nan nan 16777215
nan nan nan 16777215
-4286.7583 680.2146 4569.5454 3027765
-4299.8267 686.87555 4614.2925 3290936
-4344.2231 698.6651 4693.4927 3488827
-4431.4331 717.54791 4820.3433 3685949
-4416.979 720.11517 4837.5898 3554364
-4444.3926 729.59088 4901.2456 3488570
-4496.48 743.2771 4993.187 3488571
-4572.1616 761.08264 5112.8008 3488571
-4575.9824 767.09296 5153.1772 3620157
-4575.9717 772.54193 5189.7822 3620157
-4533.4536 770.84119 5178.3569 3620156
-4517.5488 773.67365 5197.3848 3488571
-4498.8174 776.05963 5213.4136 3488571
-4481.1479 778.66516 5230.917 3620157
-4451.0522 779.13385 5234.0654 3554363
-4443.123 783.51855 5263.5205 3620157
-4436.3477 788.17365 5294.793 3883327
-4405.2236 788.54053 5297.2573 3949377
-4381.3052 790.21252 5308.4897 4212548
-4347.0996 790.04059 5307.3345 4081476
-4315.9878 790.4325 5309.9673 3949890
-4293.7339 792.46545 5323.624 3884096
-4281.4424 796.38324 5349.9434 3686717
-4241.3306 795.14734 5341.6406 3555132
-4222.1299 797.84314 5359.7505 3423546
-4212.4722 802.40002 5390.3628 3555132
-4164.3838 799.65112 5371.896 3752511
-4116.7563 796.94641 5353.7266 3818304
-4083.2134 796.94641 5353.7266 3818304
-4044.0117 795.83282 5346.2456 3752511
-4012.4709 796.22076 5348.8516 3818304
-3995.5022 799.53125 5371.0908 4015683
-3939.9827 795.1181 5341.4443 4213063
-3900.1807 793.82849 5332.7808 4278601
-3823.6392 784.97406 5273.2988 4279110
-3820.6218 791.19104 5315.063 4344648
-3781.699 790.01654 5307.1729 4278855
-3705.6001 780.98602 5246.5078 4213318
-3660.0649 778.29303 5228.417 4147525
-3609.0254 774.37042 5202.0654 3950146
-3535.3677 765.47894 5142.3345 4081476
-3469.2271 758.06647 5092.5391 4015683
-3391.4861 747.95813 5024.6328 4015426
-3398.7466 756.58228 5082.5684 3753025
-3328.1348 747.87054 5024.0449 3818819
-3359.9592 762.23102 5120.5156 3818819
-3222.6182 738.12207 4958.5562 3884612
-3057.7036 707.16656 4750.6035 4345164
-2868.365 669.89838 4500.2432 4542799
-2790.5488 658.19452 4421.6191 4411982
-2695.9741 642.26361 4314.5981 4411469
-2668.9417 642.26361 4314.5981 4083275
-2688.8528 653.67578 4391.2632 4214601
-2530.8911 621.63501 4176.0195 5135961
-2479.176 615.29364 4133.4194 5267803
-2507.1421 628.8028 4224.1714 5267803
-2492.0093 631.67542 4243.4692 5267546
-2471.3354 633.19037 4253.6465 5267290
-2493.9312 645.9455 4339.3325 5070168
-2407.0408 630.31152 4234.3066 4214602
-2341.7402 620.04572 4165.3428 3029814
-2521.4192 675.14508 4535.4897 2831922
-2531.9648 685.69659 4606.3726 3160887
-2570.5415 704.1701 4730.4741 3621695
-2611.3438 723.69147 4861.6147 3687231
-2623.22 735.56268 4941.3628 3621694
-2615.0393 742.02618 4984.7832 3753024
-2636.7732 757.23682 5086.9653 3687231
-2610.5608 758.8819 5098.0166 3818561
-2605.4539 766.77899 5151.0679 3687231
-2581.8049 769.34882 5168.3315 3621181
-2563.8599 773.70538 5197.5977 3621439
-2539.7856 776.30042 5215.0308 3686975
-2529.9521 783.37268 5262.541 3753024
-2490.8086 781.43628 5249.5327 3950403
-2478.925 788.11487 5294.3979 4081989
-2463.9531 793.97931 5333.7939 3884610
-2469.3787 806.66815 5419.0352 3884610
-2453.1821 812.54919 5458.543 4016196
-2448.7268 822.54041 5525.6616 4213575
-2397.5784 816.90881 5487.8296 4213575
-2377.9175 821.99792 5522.0176 4279368
-2346.2 823.00793 5528.8027 4345161
-2347.9548 835.96594 5615.8521 4213575
-2343.4714 847.06329 5690.4014 4147782
-2306.1995 846.46881 5686.4077 4148039
-2248.6621 838.3006 5631.5356 4147782
-2194.0845 830.99298 5582.4448 4213575
-2116.5049 814.59564 5472.2905 4147782
-2076.7644 812.46173 5457.9551 4016196
-1995.7468 793.83765 5332.8423 4016196
-1962.3348 793.83765 5332.8423 4081989
-1813.1892 746.20801 5012.876 4147782
-1832.4546 767.42969 5155.439 4081989
-1799.3176 767.073 5153.043 4016196
-1761.0225 764.46411 5135.5171 3884610
-1729.9397 764.94739 5138.7632 3950403
-1690.7 761.77368 5117.4434 3950403
-1646.9957 756.42688 5081.5244 3950403
-1588.7 744.03558 4998.2822 3884610
-1532.0229 731.91937 4916.8877 4015683
-1497.6274 730.16919 4905.1304 4147269
-1418.9069 706.28223 4744.6626 4081476
-1357.6613 690.25757 4637.0122 3884097
-1355.0778 704.00903 4729.3916 3752767
-1326.3793 704.50439 4732.7192 3751997
-1350.2814 733.59991 4928.1777 3554875
-1119.3395 622.362 4180.9033 3949634
-1169.2383 665.68439 4471.9346 4475465
-994.65668 580.1925 3897.6172 4936530
-970.23694 580.1925 3897.6172 4212807
-1109.4146 680.54803 4571.7856 3686464
-961.81592 605.64362 4068.5925 3752003
-1004.1585 649.52039 4363.3481 3883332
-982.50812 653.30212 4388.7529 4080967
-971.8136 664.79626 4465.9683 3949638
-964.6275 679.44312 4564.3628 3883845
-941.00934 683.05719 4588.6416 3949638
-902.41388 675.68488 4539.1157 4081224
-853.11255 659.55579 4430.7637 4278347
-839.46991 670.83734 4506.5513 4015430
-829.79803 686.18781 4609.6724 3752516
-781.591 669.63019 4498.4414 3818052
-772.98657 687.03271 4615.3481 3818052
-709.33398 654.95941 4399.8862 3752515
-690.07141 662.93695 4453.4775 3489343
-662.16895 662.93695 4453.4775 3818565
-620.37439 648.41681 4355.9346 4608081
-596.91656 652.60791 4384.0894 4608338
-570.63007 653.96161 4393.1831 4476495
-541.65631 652.21674 4381.4614 3358015
-528.27173 670.05878 4501.3208 4015944
-500.06955 670.05878 4501.3208 4739668
-474.82843 674.26355 4529.5674 4739669
-442.10886 667.70831 4485.5308 4345168
-424.47137 684.58746 4598.9214 4213582
-408.08008 706.08124 4743.3125 4213839
-380.29846 709.69543 4767.5918 4477271
-365.1275 739.46521 4967.5791 4543579
-342.47003 758.20831 5093.4917 4083543
-329.47522 804.39429 5403.7598 3689044
-297.92731 810.67529 5445.9546 3886168
-264.24237 812.0141 5454.9482 3755608
-237.91151 839.70679 5640.9824 3886936
-196.80289 815.8045 5480.4116 3623765
-162.15848 814.2583 5470.0244 3689302
-127.88708 814.2583 5470.0244 3491916
-91.555161 796.33618 5349.627 3688267
-58.03809 796.33618 5349.627 3951181
-24.404537 792.55334 5324.2148 4082764
8.9383755 791.23059 5315.3286 4082507
42.000618 786.73615 5285.1362 3753539
75.81781 794.11163 5334.6831 3621441
112.24448 815.94312 5481.3423 3555391
147.73532 822.33612 5524.2896 3620928
182.10675 821.25397 5517.02 3620928
216.90562 822.13727 5522.9536 3621184
251.47987 822.04321 5522.3218 3686977
289.13797 830.83337 5581.3721 3555647
324.47122 831.76703 5587.6445 3686977
357.16943 826.42188 5551.7368 3686719
387.78552 817.63525 5492.71 3489340
412.89828 799.62323 5371.709 3226168
446.55365 799.62323 5371.709 3160375
487.0094 810.94678 5447.7783 3226167
516.95526 804.4328 5404.0186 3423546
549.43988 802.42719 5390.5454 3423546
583.56177 802.90662 5393.7661 3291960
615.31671 800.25525 5375.9546 3226167
648.62671 799.79645 5372.8726 3291960
678.96234 795.89642 5346.6729 3357753
707.73688 790.61914 5311.2212 3357753
740.94958 790.55115 5310.7642 3291960
771.2619 787.5274 5290.4517 3226167
799.51105 782.73297 5258.2437 3160373
821.93231 772.83832 5191.7729 3226169
850.92914 769.64447 5170.3174 3094329
895.6842 780.41504 5242.6719 3028281
939.80701 789.89209 5306.3369 1975596
971.45001 788.591 5297.5967 1449510
1006.3278 789.91492 5306.4902 1317416
1026.5789 780.04022 5240.1543 1316906
1058.4152 779.30774 5235.2334 1185322
1086.9598 776.26843 5214.8159 987943
1120.2843 776.72052 5217.853 987686
1146.3488 772.25616 5187.8623 922150
1178.6978 772.15479 5187.1816 856357
1197.6682 763.52997 5129.2417 593440
1225.5825 760.90881 5111.6333 264474
1254.8881 759.26282 5100.5757 461854
1285.4788 758.45685 5095.1611 527640
1316.8796 758.15637 5093.1426 462103
1366.9457 768.36188 5161.7012 396051
1365.5579 749.8418 5037.2871 1054751
1397.1182 749.8418 5037.2871 2831415
1459.9161 766.237 5147.4268 3555137
1525.1771 783.18823 5261.3018 3686722
1565.3423 786.80798 5285.6187 3686976
1607.7826 791.39771 5316.4512 3555645
1657.741 799.42657 5370.3877 3555645
1705.4905 806.09192 5415.1646 3489852
1761.3525 816.25696 5483.4507 3621438
1804.3097 820.16687 5509.7168 3489852
1845.9738 823.35321 5531.1226 3490108
1895.9696 830.07007 5576.2441 3555902
1936.4603 832.45746 5592.2827 3555645
1975.6724 834.22028 5604.1245 3490108
2033.6362 843.70105 5667.8145 3489852
2092.0103 853.02368 5730.4424 3489852
2139.1011 857.50848 5760.5703 3555645
2226.6565 877.79669 5896.8623 3753024
2285.2913 886.2074 5953.3638 3818817
2306.2197 879.96082 5911.4004 3753024
2326.0278 873.49097 5867.9375 3555645
2333.7705 862.76202 5795.8623 3424059
2360.1726 859.1543 5771.6265 3358266
2396.356 859.16223 5771.6802 3226937
2427.467 857.37848 5759.6973 3226680
2463.5535 857.37848 5759.6973 3424059
2499.8162 857.43915 5760.1045 3358266
2529.0444 855.11945 5744.521 3358266
2570.5669 856.96338 5756.9082 3621438
2615.1807 859.77271 5775.7808 3555645
2651.3679 859.77271 5775.7808 3555645
2680.845 857.6261 5761.3604 3489852
2669.6008 842.68256 5660.9727 3226680
2680.3008 834.96698 5609.1406 3489852
2715.0088 834.83307 5608.2417 3621438
2721.4753 826.12988 5549.7749 3555388
2745.9255 823.03638 5528.9937 3489339
2728.9434 807.75616 5426.3442 3357753
