# .PCD v0.7 - Point Cloud Data file format
VERSION 0.7
FIELDS x y z rgb
SIZE 4 4 4 4
TYPE F F F U
COUNT 1 1 1 1
WIDTH 1266
HEIGHT 1
VIEWPOINT 0 0 0 1 0 0 0
POINTS 1266
DATA ascii
nan nan nan 16777215
nan nan nan 16777215
nan nan nan 16777215
nan nan nan 16777215
nan nan nan 16777215
-2948.4902 648.48053 3164.1267 3357755
-3065.0718 678.6842 3311.4993 3291962
-3012.9937 671.69952 3277.4192 3357755
-3001.3477 673.69458 3287.1536 3489341
-2992.9614 676.45398 3300.6177 3555134
-2974.99 677.07025 3303.6245 3423548
-2951.9407 676.53143 3300.9954 3291962
-2919.3291 673.77802 3287.5608 3291962
-2898.7314 673.77802 3287.5608 3226169
-2880.2073 674.26343 3289.9292 3291962
-2844.3586 670.67084 3272.3999 3489341
-2801.8379 665.44153 3246.8845 3884099
-2779.3894 664.93774 3244.4265 3818563
-2749.2935 662.5835 3232.9395 3818306
-2741.9846 665.72681 3248.2764 3686720
-2736.5576 669.37744 3266.0889 3620927
-2723.1738 671.12207 3274.6016 3489341
-2702.6575 671.12207 3274.6016 3423548
-2690.8833 673.30951 3285.2749 3423548
-2666.4475 672.33813 3280.5352 3621184
-2637.6968 670.25519 3270.3718 3818306
-2594.0684 664.32953 3241.4587 3752513
-2553.5605 659.11591 3216.0198 3423548
-2555.2371 664.79419 3243.7261 3358012
-2534.9138 664.79419 3243.7261 3555391
-2535.0554 670.20453 3270.1245 3686977
-2545.8435 678.54053 3310.7986 3686977
-2504.0242 672.87701 3283.1643 3752770
-2474.0032 670.31628 3270.6699 4344907
-2489.7549 680.21826 3318.9846 4213835
-2463.9402 678.83514 3312.2361 4279627
-2444.1143 679.09253 3313.4917 4411213
-2434.5166 682.22058 3328.7544 4477263
-2406.4919 680.19421 3318.8672 4411213
-2383.9756 679.70312 3316.4709 4016455
-2369.6279 681.55286 3325.4963 3753283
-2364.6736 686.16101 3347.981 3884869
-2362.4424 691.64886 3374.7578 4213834
-2328.4163 687.84332 3356.1895 4082248
-2318.9016 691.27545 3372.9358 4016455
-2293.9858 690.13721 3367.3818 4016455
-2266.2046 688.10779 3357.48 4082505
-2251.6777 690.10272 3367.2136 4016455
-2233.0066 690.85309 3370.875 3950662
-2209.6191 690.14471 3367.4187 4016455
-2188.5212 690.14471 3367.4187 4016455
-2171.5247 691.45068 3373.7908 3687490
-2144.6516 689.60657 3364.7927 3490111
-2119.4539 688.26984 3358.2705 3292732
-2106.825 691.02881 3371.7322 3424318
-2092.3159 693.22083 3382.4277 3490111
-2065.4692 691.32806 3373.1926 3490111
-2052.552 694.10681 3386.7507 3424319
-1979.1841 676.28748 3299.8052 3424318
-1958.5096 676.28748 3299.8052 3621439
-1989.9563 694.47723 3388.5581 3752771
-1973.6666 696.22015 3397.0623 3686978
-1950.4003 695.51306 3393.6123 3752769
-1931.2368 696.26965 3397.304 3489854
-1911.8018 696.94415 3400.595 3555645
-1893.2898 697.97406 3405.6201 3687231
-1862.9935 694.63354 3389.321 3489851
-1841.7582 694.63354 3389.321 3424060
-1818.1644 693.73358 3384.9297 3292219
-1796.5863 693.59058 3384.2319 2963254
-1772.7836 692.57501 3379.2769 3357755
-1762.2046 696.76349 3399.7136 3226425
-1730.6128 692.64447 3379.6157 3358012
-1711.5988 693.51984 3383.887 3424059
-1694.6467 695.26318 3392.3931 3424059
-1668.9895 693.43384 3383.467 3226680
-1641.2808 690.69415 3370.0994 2963508
-1607.6907 685.37573 3344.1494 3160887
-1589.2406 686.45648 3349.4226 3424059
-1590.2975 696.1048 3396.4995 3489852
-1570.4993 696.76221 3399.7073 3555388
-1549.4735 696.88562 3400.3093 3621952
-1526.7192 696.22424 3397.0825 3687488
-1505.7361 696.36334 3397.761 3621695
-1483.887 696.10004 3396.4766 3621695
-1460.6056 695.14758 3391.8291 3687488
-1444.094 697.4364 3402.9971 3819076
-1422.7732 697.4364 3402.9971 3884869
-1398.1589 695.79749 3395 3753540
-1380.1553 697.44843 3403.0557 3753283
-1360.7443 698.42889 3407.8396 3753283
-1344.8389 701.26855 3421.6951 3687490
-1325.6694 702.4707 3427.5605 3621697
-1305.9263 703.40332 3432.1113 3621697
-1285.2319 703.84631 3434.2729 3556161
-1265.8964 705.06116 3440.2004 3753283
-1259.5006 713.65002 3482.1079 3818306
-1234.4403 711.77966 3472.9819 3489598
-1219.6521 715.87134 3492.9463 2765875
-1217.1687 727.4668 3549.5239 2831668
-1182.1481 719.6853 3511.5557 3292219
-1147.2168 711.66406 3472.4177 3423805
-1114.045 704.44543 3437.196 3423548
-1106.2742 713.3205 3480.5 3291962
-1080.6027 710.77826 3468.0957 3356728
-1059.0894 710.92279 3468.801 3159606
-1040.9231 713.36731 3480.7283 3291448
-1018.3344 712.82062 3478.061 3225655
-972.24622 695.44116 3393.2615 2830897
-943.49011 689.95917 3366.5134 3028276
-930.07532 695.70197 3394.5342 3423034
-913.27979 699.12555 3411.2388 3620670
-879.07849 689.06964 3362.1731 3291962
-851.35577 683.7229 3336.0847 3094583
-840.10486 691.66846 3374.8533 3489598
-819.47009 692.09894 3376.9539 3752770
-797.20081 691.13519 3372.2515 3423548
-776.01044 691.07983 3371.9814 3423804
-750.94928 687.47778 3354.4058 3292219
-725.28375 683.09906 3333.0408 3621184
-710.07013 688.59656 3359.8645 3818562
-689.63049 689.20709 3362.8438 3686976
-669.35571 690.02606 3366.8398 3686976
-648.24591 690.00958 3366.7593 3555134
-626.43011 689.21527 3362.8835 3357755
-604.99719 688.80145 3360.8645 3357754
-581.80188 686.27899 3348.5566 3291961
-559.98639 685.25623 3343.5664 3160376
-538.89746 685.07776 3342.6953 3357755
-519.00055 686.46136 3349.4465 3423805
-501.26474 690.94055 3371.3018 3226683
-481.86304 693.41644 3383.3823 3752770
-460.04379 692.4812 3378.8191 4081735
-438.96451 692.62335 3379.5125 4016199
-424.76297 704.18195 3435.9104 4015942
-393.15018 686.56891 3349.9712 3621184
-371.05478 684.52716 3340.0088 3489598
-354.35599 692.79193 3380.3352 3489598
-333.17712 692.79193 3380.3352 3555391
-312.40219 693.68884 3384.7114 3358012
-293.5874 699.3858 3412.5085 3226426
-272.62213 700.45245 3417.7131 3358012
-250.32291 697.98151 3405.6565 3423548
-227.85858 694.54675 3388.8975 3489598
-207.73933 698.28876 3407.1558 3686977
-186.16911 697.45209 3403.0735 3489341
-164.81482 697.31256 3402.3926 3226426
-143.70277 698.30878 3407.2534 3292221
-122.95738 701.74506 3424.0203 3423806
-100.85128 697.22687 3401.9744 3490111
-79.669624 698.39062 3407.6528 3621697
-58.703796 702.99115 3430.1003 3621954
-37.499023 708.3916 3456.4504 3687490
-15.992276 715.0531 3488.9541 3358525
5.9051771 719.69336 3511.5952 3226939
28.020123 722.62592 3525.9041 3424318
50.58815 729.50665 3559.4771 3555904
72.279404 723.40179 3529.6897 3687490
94.266647 722.42572 3524.9272 3753540
116.18878 721.41595 3520.0002 3753283
137.76678 718.93256 3507.8828 3819076
159.23058 716.61847 3496.5918 3950662
180.96629 715.93994 3493.281 3753283
202.48331 714.63593 3486.9185 3884869
223.53702 712.10992 3474.5935 4016712
245.20001 711.80109 3473.0864 4214091
260.73053 695.19141 3392.0427 3884869
281.86725 694.90668 3390.6536 3753283
303.37 695.50098 3393.5535 3753283
324.43494 695.07953 3391.4971 3950662
343.52328 690.73547 3370.301 3950662
369.84247 700.59192 3418.3936 3950662
391.28009 700.6283 3418.571 4016455
406.87906 690.74878 3370.366 4148041
427.99542 690.74878 3370.366 3950662
453.7226 697.84027 3404.9675 4016455
473.64487 695.7677 3394.8547 4082248
496.83945 698.47357 3408.0576 3884869
517.93085 698.12164 3406.3403 3358525
537.47241 695.7912 3394.9692 3621440
556.68927 693.2337 3382.4907 3950149
582.6394 698.94122 3410.3394 3621184
606.23376 701.5188 3422.9163 3423806
621.67505 694.80817 3390.1729 3686721
647.16864 699.40454 3412.6001 3423805
678.56189 709.87891 3463.7075 3423805
696.81104 706.37939 3446.6326 3489598
713.87347 701.92346 3424.8906 3358012
735.33142 701.92346 3424.8906 2962997
756.68359 701.82532 3424.4116 3094838
785.38239 708.35864 3456.2898 3292217
804.71136 706.31732 3446.3296 3226426
829.16864 708.7663 3458.2788 2963254
855.19183 712.3949 3475.9839 3226426
875.1626 710.9267 3468.8201 3226426
894.57733 709.08893 3459.853 3029047
910.74469 704.82501 3439.0481 2963254
932.29138 704.82501 3439.0481 3160633
941.04675 695.37305 3392.9292 3226426
973.90405 703.755 3433.8271 3094840
989.85254 699.82025 3414.6282 2963511
1022.9948 707.95068 3454.2991 3423805
1051.3621 712.50824 3476.5366 3423803
1075.4768 714.05725 3484.095 3226423
1098.0758 714.55841 3486.54 2897715
1115.8441 711.95776 3473.8508 3029044
1143.955 715.92944 3493.2297 3358009
1162.8982 714.12213 3484.4116 3357753
1181.0802 711.92267 3473.6797 3555132
1206.4978 714.08533 3484.2319 3357753
1221.5841 710.16504 3465.1035 3291960
1243.8187 710.46472 3466.5659 3357753
1272.379 714.30536 3485.3054 3357753
1293.254 713.77466 3482.7161 3357753
1301.2622 706.27789 3446.1372 3292216
1330.1212 710.15833 3465.0708 3226423
1348.1678 708.23395 3455.6812 3292473
1357.1382 701.67773 3423.6917 3292473
1377.8014 701.27698 3421.7363 3621437
1413.0085 708.1778 3455.4072 3818817
1429.8278 705.79358 3443.7742 3424060
1438.5269 699.53162 3413.22 3226680
1447.0651 693.37604 3383.1851 3292474
1469.7439 694.07599 3386.6003 2963765
1499.6766 698.13281 3406.3948 3160632
1523.8975 699.4541 3412.8418 3226169
1550.5809 701.85352 3424.5493 3291960
1574.7056 703.04504 3430.363 3357753
1602.4658 705.80573 3443.8333 3291960
1611.927 700.54034 3418.1418 3094581
1624.2836 696.65491 3399.1838 3226167
1641.3896 694.88068 3390.5269 3423546
1662.6324 694.88068 3390.5269 3226167
1696.7865 700.20886 3416.5244 3160374
1724.0608 702.60052 3428.1941 3160374
1738.6578 699.83051 3414.6785 3029045
1760.0519 699.83051 3414.6785 3225140
1781.9155 700.01495 3415.5786 2962225
1801.8131 699.43201 3412.7339 2896432
1813.9709 695.89331 3395.4678 2830639
1866.4548 707.72778 3453.2114 2896432
1899.7852 712.11139 3474.6006 3027761
1927.5914 714.34857 3485.5164 2830639
1945.4038 712.87354 3478.3191 3225397
1973.948 715.32013 3490.2568 3160118
2000.7688 717.09546 3498.9189 2963251
2017.6508 715.30859 3490.2007 2962995
2039.5178 715.30859 3490.2007 2765103
2041.0215 708.24243 3455.7227 2568237
2085.7759 716.17511 3494.4285 2897202
2151.1206 730.93958 3566.4688 3226169
2164.0154 727.76141 3550.9617 3291962
2180.2493 725.75952 3541.1936 3291962
2199.7991 724.89062 3536.9541 3291962
2233.7837 728.74823 3555.7766 3291962
2235.1428 721.99109 3522.8064 3620927
2257.2144 721.99109 3522.8064 3357755
2308.4922 731.24249 3567.9468 3226169
2325.7439 729.64172 3560.1362 3094583
2346.9309 729.29419 3558.4404 3028790
2366.3708 728.41541 3554.1526 3160376
2378.6116 725.3576 3539.2327 3226169
2395.9348 723.89197 3532.0813 3160376
2440.0144 730.46307 3564.1438 3160376
2454.6467 728.17938 3553.001 3226169
2467.3472 725.3689 3539.2876 3292219
2482.9944 723.46692 3530.0076 3028533
2495.9307 720.81561 3517.071 2961971
2517.9661 720.81561 3517.071 2962227
2548.4744 723.22015 3528.8032 2962225
2570.5835 723.22015 3528.8032 2962225
2600.2769 725.33575 3539.126 2765102
2622.4507 725.33575 3539.126 2567467
2625.9204 720.20581 3514.0955 2633260
2635.0188 716.6922 3496.9514 2830639
2704.7732 729.59808 3559.9231 2896432
2729.8027 730.32721 3563.481 3093810
2748.061 729.24768 3558.2136 3093555
2765.3242 727.92365 3551.7532 3093298
2776.8872 725.1322 3538.1328 3224884
2802.2488 725.95972 3542.1704 3027762
2822.5442 725.47198 3539.7908 2896176
2837.6985 723.68085 3531.051 2830126
2854.2122 722.26135 3524.125 2763562
2872.8342 721.39307 3519.8884 2500647
2917.4287 727.01025 3547.2964 2500647
2947.8396 729.03479 3557.1746 2632233
2946.4873 723.23242 3528.863 2632234
2948.1794 718.25824 3504.5925 2631979
2968.6982 717.91034 3502.8953 2632237
2954.1365 709.1463 3460.1331 2566444
2981.616 710.52869 3466.8779 2698031
3011.7705 712.52393 3476.6133 2500651
3010.0237 706.99738 3449.6477 2566188
3051.6985 711.6759 3472.4756 2368809
3079.9844 713.18793 3479.853 2237736
3097.7026 712.24884 3475.2712 2040614
3111.9172 710.52301 3466.8501 1974821
3124.1414 708.36969 3456.3435 1843236
3189.6135 718.23639 3504.4861 1777442
3225.2629 721.29865 3519.4277 1975332
3162.2427 702.40265 3427.2285 2501676
3221.9092 710.8291 3468.3438 2962227
3193.459 699.83221 3414.6868 3159606
3217.1042 700.32227 3417.0779 3093813
3255.3135 703.95532 3434.8044 3028020
3288.2944 706.41736 3446.8176 3028020
3316.9856 707.93182 3454.207 3093813
3341.3745 708.5144 3457.0496 3093813
3366.7822 709.30408 3460.9026 3159863
3383.2358 708.20923 3455.5608 3159863
3408.1172 708.88135 3458.8401 3159606
3433.5251 709.65375 3462.6089 3225399
3445.5627 707.67041 3452.9316 3159606
3470.7888 708.40363 3456.509 3291192
3488.553 707.61414 3452.657 3159606
3506.8538 706.94263 3449.3806 3093813
3516.2764 704.50055 3437.4651 3093813
nan nan nan 16777215
nan nan nan 16777215
nan nan nan 16777215
nan nan nan 16777215
nan nan nan 16777215
nan nan nan 16777215
nan nan nan 16777215
nan nan nan 16777215
-2933.2139 669.23755 3169.0405 3489341
-2905.3809 667.40491 3160.3623 3555134
-2887.3152 667.80609 3162.2622 3489341
-2867.5024 667.80609 3162.2622 3555134
-2843.884 666.91357 3158.0359 3555134
-2809.906 663.56213 3142.1658 3555134
-2757.9873 655.89685 3105.8682 3752513
-2738.1692 655.81091 3105.4612 3949892
-2737.6699 660.38379 3127.1152 4081478
-2711.5818 658.80554 3119.6418 4015685
-2696.364 659.86469 3124.6572 3884099
-2648.8835 652.98608 3092.085 3752513
-2628.5637 652.75092 3090.9712 3686720
-2623.5022 656.32941 3107.9167 3686977
-2604.3364 656.40668 3108.2825 3686720
-2597.4526 659.604 3123.4226 3752513
-2580.8665 660.36725 3127.0369 3818306
-2570.5347 662.7547 3138.3423 3884099
-2555.0752 663.84674 3143.5134 3949892
-2534.5962 663.64154 3142.5417 3950149
-2501.8013 660.18304 3126.1648 3884099
-2475.4258 658.37744 3117.6145 3752770
-2461.6233 659.91357 3124.8889 4213321
-2488.293 672.41125 3184.0688 4279628
-2461.0298 670.41876 3174.634 4345419
-2433.5356 668.33051 3164.7454 4279371
-2413.6938 668.32666 3164.7273 4279627
-2433.2859 679.33203 3216.8411 4213834
-2403.4641 676.6106 3203.9541 4148042
-2380.0378 675.65894 3199.4475 4082248
-2356.7207 674.72217 3195.012 4147528
-2332.7168 673.57129 3189.562 4147784
-2336.959 680.62689 3222.9724 4148041
-2314.1387 679.85498 3219.3171 3884869
-2293.9688 679.85498 3219.3171 3950662
-2287.9417 684.08368 3239.3413 3885126
-2268.0764 684.2135 3239.9561 3753283
-2251.1003 685.22504 3244.7461 3753283
-2230.771 685.22504 3244.7461 3687490
-2201.5935 682.48218 3231.7578 3753283
-2199.4568 688.14868 3258.5906 3819076
-2178.4565 687.96423 3257.7168 4016455
-2161.3298 689.01105 3262.6741 3950662
-2127.646 684.74927 3242.4932 4082248
-2078.3667 675.33777 3197.9268 4016712
-2087.6865 684.96942 3243.5356 3753540
-2056.3469 681.31891 3226.2493 3753283
-2022.9628 676.9118 3205.3804 3687490
-2017.5217 681.86023 3228.8127 3687490
-2013.9054 687.53192 3255.6697 3490368
-1993.5077 687.53192 3255.6697 3490111
-1984.8165 691.61108 3274.9861 3556160
-1967.6617 692.79553 3280.5947 3621697
-1945.1577 692.10168 3277.3091 3687233
-1924.3463 692.00171 3276.8357 3686976
-1889.0687 686.64142 3251.4529 3423804
-1867.9081 686.35132 3250.0793 3423803
-1854.5627 688.95831 3262.4241 3489598
-1833.873 688.86456 3261.9802 3884355
-1815.1328 689.50916 3265.0327 3818563
-1801.2612 692.039 3277.0125 3753026
-1762.6598 685.0166 3243.759 3687234
-1730.9299 680.53198 3222.5229 3555391
-1708.3682 679.58856 3218.0554 3291963
-1686.3419 678.83807 3214.502 3752771
-1673.0446 681.62579 3227.7026 3621184
-1666.6433 687.32574 3254.6936 3621186
-1639.6271 684.55988 3241.5964 3819073
-1628.5372 688.45752 3260.053 3490108
-1607.093 688.0213 3257.9871 3292729
-1579.448 684.88507 3243.136 3358266
-1559.6447 685.11163 3244.209 3555645
-1543.4136 686.93427 3252.8396 3489852
-1530.509 690.30591 3268.8054 3490108
-1510.0291 690.30591 3268.8054 3555645
-1490.8007 690.88605 3271.5525 3621694
-1482.2916 696.51923 3298.2273 3621695
-1459.0026 695.26843 3292.3047 3555902
-1437.2162 694.70819 3289.6516 3621695
-1417.9358 695.3606 3292.741 3555901
-1401.093 697.24524 3301.6655 3555902
-1385.4153 699.7749 3313.644 3555901
-1367.838 701.40753 3321.375 3555904
-1345.5959 700.66156 3317.8425 3687490
-1329.052 702.90576 3328.4697 3753283
-1308.5703 703.10571 3329.4165 3687490
-1276.4255 696.94403 3300.239 3424318
-1255.7484 696.94403 3300.239 3687490
-1251.2263 706.06006 3343.4062 3885126
-1236.6967 709.74335 3360.8474 4016455
-1224.7317 715.05145 3385.9832 3950149
-1205.7126 716.35571 3392.1592 3884356
-1174.8982 710.573 3364.7761 3687233
-1168.2404 719.45569 3406.8384 3226426
-1134.7834 711.85767 3370.8596 3291962
-1111.8895 710.72345 3365.4885 3291962
-1086.5117 707.92706 3352.2468 3226169
-1062.9128 706.20227 3344.0793 3160376
-1039.9886 704.8653 3337.7485 3290933
-1015.8248 702.61609 3327.0979 3094581
-994.7644 702.46423 3326.3787 3489339
-963.04651 694.61884 3289.2285 3423546
-949.08307 699.51624 3312.4192 3620925
-894.13416 673.74915 3190.4043 3752511
-876.67548 675.69928 3199.6387 3489339
-865.89813 683.01093 3234.2615 3686718
-845.30292 682.7431 3232.9932 4015682
-825.68298 683.26917 3235.4844 4081476
-809.96387 687.13098 3253.7715 3818560
-784.66602 682.85638 3233.5298 3752511
-764.52173 682.95886 3234.0151 3752513
-742.78186 681.60284 3227.5938 3752513
-719.32703 678.55316 3213.1528 3752513
-696.56281 675.99805 3201.0535 3752769
-670.71063 670.20587 3173.6257 3818306
-650.8269 670.20587 3173.6257 3621184
-639.13153 678.90375 3214.813 3620927
-622.53424 682.79138 3233.2219 3489341
-603.74841 684.45935 3241.1204 3357755
-583.44177 684.45935 3241.1204 3357755
-564.48871 686.10455 3248.9109 3489341
-541.24292 682.46002 3231.6531 3555390
-525.80408 688.75879 3261.4792 3423805
-500.15198 681.64734 3227.8047 3752770
-482.71997 685.61169 3246.5769 3950149
-462.37915 685.61169 3246.5769 3687747
-446.85263 693.0788 3281.936 3884613
-425.44275 691.70081 3275.4109 3818563
-403.15784 688.68842 3261.1462 4015942
-382.72574 688.68842 3261.1462 3489598
-365.10504 694.03265 3286.4526 3423805
-344.0744 693.14624 3282.2554 3423805
-323.37729 692.86182 3280.9084 3489598
-302.33688 691.7533 3275.6592 3292219
-282.50244 693.44348 3283.6628 3226426
-261.92926 693.44348 3283.6628 3292219
-239.07927 686.90186 3252.6863 3424062
-218.70016 686.90186 3252.6863 3885125
-199.04744 689.41766 3264.5994 3819077
-174.34865 673.03058 3187.0017 3819077
-158.3553 690.35626 3269.0439 3950663
-138.20058 691.99292 3276.7939 3753285
-118.14337 694.77405 3289.9634 3555905
-97.787727 696.6048 3298.6326 3753284
-77.472092 699.7782 3313.6597 3819076
-57.16357 705.36273 3340.104 3621697
-36.011791 700.98322 3319.3657 3490111
-15.278008 703.88904 3333.1257 3358525
5.6569548 710.40619 3363.9863 3292732
26.939077 715.8725 3389.8711 3490111
48.332626 718.17505 3400.7742 3490111
69.772301 719.54425 3407.2581 3753283
91.272331 720.74847 3412.9602 4016455
112.2583 718.20673 3400.9243 3819076
133.40909 717.36218 3396.925 3687747
154.56615 716.77917 3394.1643 3753283
174.95551 713.20764 3377.252 3687490
195.69556 711.68207 3370.0281 3555647
215.71242 708.07983 3352.9705 3555904
235.91653 705.677 3341.5923 3490111
257.96811 708.7417 3356.1045 3621697
273.60046 695.03735 3291.2102 3885126
294.16815 694.91272 3290.6201 3556161
303.4758 669.94696 3172.3997 3424318
331.85468 687.56378 3255.8208 4016455
356.50732 695.867 3295.1389 3819333
376.63354 694.90967 3290.6057 4016455
396.97827 694.43402 3288.3533 4148041
416.53812 692.69995 3280.1421 4082248
437.474 693.30981 3283.0298 4542799
450.97418 682.6098 3232.3623 4213834
465.37518 674.13464 3192.2295 3819076
496.79782 689.99896 3267.3521 3490111
525.12476 700.47827 3316.9746 3556161
544.62402 698.83246 3309.1814 3950150
565.35706 698.83246 3309.1814 3424318
588.67035 701.90906 3323.75 3358012
610.84888 703.46863 3331.1348 3358012
633.98419 705.99054 3343.0769 3489597
654.91998 705.9801 3343.0276 3818563
672.53192 702.49841 3326.5408 3752770
692.23395 701.34369 3321.0728 3686977
713.0415 701.34369 3321.0728 3095097
738.84521 706.11853 3343.6831 3095096
755.47516 702.10443 3324.675 3226681
772.57019 698.72632 3308.6787 3292473
797.26959 702.2226 3325.2346 3029300
818.10321 702.2226 3325.2346 3161143
835.18738 699.08417 3310.373 3358522
855.92792 699.08417 3310.373 3424059
879.758 701.54791 3322.0398 3226425
900.57166 701.54791 3322.0398 3160889
923.68066 703.29565 3330.3159 3095096
936.61151 697.38763 3302.3396 3094839
957.30157 697.38763 3302.3396 3423548
987.3042 704.02814 3333.7844 3489339
1008.7285 704.40326 3335.5605 3028788
1034.4244 707.68542 3351.1025 3094581
1057.3069 708.9505 3357.0933 3160374
1082.489 711.67816 3370.0095 3094581
1104.1959 712.06042 3371.8196 3357753
1117.1471 706.888 3347.3269 3489339
1139.0568 707.4704 3350.0845 3226167
1165.9218 711.05371 3367.0527 3291960
1176.9642 705.03168 3338.5364 3160374
1190.4996 700.68719 3317.9639 3226167
1227.3323 709.96838 3361.9131 3555645
1237.2036 703.60339 3331.7729 3753024
1248.6587 698.33533 3306.8271 3818817
1268.1145 697.64075 3303.5383 3753024
1294.9229 700.94843 3319.2012 3884354
1313.5148 699.77435 3313.6414 4081735
1322.9464 693.83252 3285.5051 4081735
1346.2032 695.21259 3292.04 4081735
1366.829 695.21259 3292.04 4081735
1367.3909 685.15918 3244.4343 3884100
1391.9639 687.25543 3254.3604 3621441
1409.9642 686.09283 3248.8552 3357756
1428.9507 685.43634 3245.7466 3291962
1455.0696 688.17151 3258.6985 3291962
1475.104 687.99316 3257.854 3357753
1494.2142 687.39453 3255.0193 3357753
1515.7209 687.89972 3257.4114 3489339
1541.2776 690.20496 3268.3276 3489339
1554.4524 686.97784 3253.0461 3555132
1564.827 682.61267 3232.3757 3620925
1581.875 681.23297 3225.8423 3226167
1605.9775 682.88776 3233.6782 3094581
1654.6472 694.8175 3290.1692 3028788
1669.9974 692.63434 3279.8313 2897202
1688.2639 691.69916 3275.4028 2896689
1711.9823 692.99323 3281.5308 3094068
1735.9463 694.35486 3287.9785 3028275
1764.2091 697.38385 3302.3215 2896432
1782.3451 696.38593 3297.5962 2633260
1796.7218 693.95892 3286.1035 2435624
1803.0438 688.51111 3260.3066 2501674
1815.387 685.45886 3245.8533 2962224
1865.3406 696.51794 3298.2214 2765102
1900.5256 701.88055 3323.615 2896689
1932.3254 705.89032 3342.6023 2896688
1944.4438 702.70135 3327.5017 2699310
1971.24 704.82819 3337.573 2568237
1987.0155 703.01135 3328.9695 2831665
2007.8726 703.01135 3328.9695 3094583
2059.5659 713.69696 3379.5691 2962997
2082.3889 714.26257 3382.2476 3094583
2103.3303 714.17792 3381.8464 3028790
2124.6738 714.22998 3382.0933 3160376
2156.7856 717.8653 3399.3074 3555134
2156.6938 710.81561 3365.925 3752513
2209.3135 721.10718 3414.6587 3291962
2220.5718 717.83075 3399.1438 3028790
2242.5974 718.06415 3400.249 3160376
2268.3828 719.4856 3406.9802 3160376
2275.1973 714.91956 3385.3584 3357755
2292.4248 713.67963 3379.4871 3752513
2316.1147 714.45587 3383.1628 3357755
2345.4041 716.92957 3394.8767 3094583
2350.2893 711.96625 3371.3738 3291962
2367.1643 710.69098 3365.335 3291962
2412.5801 717.93134 3399.6201 2700081
2440.4243 719.86182 3408.7617 2830898
2446.4097 715.36694 3387.4771 3159605
2470.7173 716.26099 3391.7107 3225397
2499.5139 718.43005 3401.9817 3159604
2519.886 718.1615 3400.71 3028018
2536.3257 716.78613 3394.1973 2896689
2562.751 718.23212 3401.0444 2764846
2591.4314 720.28107 3410.7468 2896689
2619.5857 722.15149 3419.6038 3028018
2646.6519 723.69403 3426.9082 3027762
2669.8042 724.15021 3429.0684 3093298
2693.8667 724.84393 3432.3535 3027505
2714.5295 724.6192 3431.2893 3093298
2727.7302 722.42169 3420.8833 3027505
2745.8318 721.54626 3416.738 2698797
2776.5842 723.98303 3428.2769 2829355
2771.0134 716.98401 3395.1343 2500647
2822.103 724.6405 3431.3901 2434854
2845.7339 725.18378 3433.9629 2303783
2853.8655 721.79895 3417.9346 2435369
2869.7471 720.41003 3411.3577 2500393
2875.4214 716.49817 3392.8337 2303528
2897.105 716.6037 3393.3333 2435626
2877.4685 706.56146 3345.7805 2698542
2898.4309 706.56146 3345.7805 2764335
2920.6345 706.86194 3347.2031 2830128
2952.3362 709.44037 3359.4131 2764335
2978.4414 710.64703 3365.127 2633261
2985.5078 707.32611 3349.4014 2764848
2978.7603 700.80157 3318.5056 2961970
3025.9155 706.96112 3347.6729 3027763
3038.6252 705.04352 3338.5925 2830387
3067.1265 706.7912 3346.8682 2765105
3101.4348 709.84418 3361.325 2764848
3111.9177 707.4397 3349.9392 2764848
3110.9375 702.479 3326.4487 2830641
3127.823 701.59174 3322.2471 2764848
3147.4797 701.33368 3321.0251 2633262
3165.9016 700.8056 3318.5249 2896434
3187.7959 701.04803 3319.6729 3028277
3210.4805 701.46008 3321.624 3225399
3204.4092 695.62439 3293.9902 3159606
3220.8533 694.71991 3289.707 3093813
3239.4131 694.28027 3287.6252 3093813
3257.4404 693.73279 3285.0327 3159863
3257.04 689.29224 3264.0056 3225399
3277.49 689.29224 3264.0056 3291192
3295.1851 688.71643 3261.2788 3356985
3315.6177 688.71643 3261.2788 3356985
3322.5828 685.93604 3248.1128 3422778
nan nan nan 16777215
nan nan nan 16777215
nan nan nan 16777215
nan nan nan 16777215
nan nan nan 16777215
nan nan nan 16777215
nan nan nan 16777215
nan nan nan 16777215
-2751.2817 646.25311 2972.481 3620927
-2789.3916 659.67017 3034.1936 3818306
-2781.5823 662.33722 3046.4609 3818306
-2761.9802 662.21368 3045.8928 3752513
-2737.896 661.00647 3040.3398 3752770
-2717.9407 660.78601 3039.3259 3752770
-2657.5205 650.65527 2992.729 3949892
-2638.7703 650.65527 2992.729 4213064
-2646.5193 657.23608 3022.998 4147271
-2627.0039 657.09216 3022.3359 4081478
-2619.8464 660.05969 3035.9854 3884099
-2591.1228 657.59741 3024.6597 3489341
-2550.6848 652.104 2999.3923 3357755
-2527.4705 650.96497 2994.1533 3686720
-2515.3545 652.68878 3002.0823 3818563
-2497.0908 652.83136 3002.738 3818306
-2489.7788 655.86102 3016.6731 3752513
-2481.2366 658.61041 3029.3191 3818563
-2479.6189 663.25439 3050.6794 4015942
-2449.5532 660.30212 3037.1003 4279114
-2429.8528 660.11957 3036.2605 4344907
-2420.8879 662.87372 3048.9285 4279627
-2418.8611 667.58643 3070.6047 4477006
-2425.7566 674.85693 3104.0461 4740178
-2403.1792 673.97931 3100.0093 4542799
-2376.9526 672.05548 3091.1606 4411469
-2365.5769 674.3335 3101.6384 4345420
-2354.6455 676.77698 3112.8774 4082248
-2335.8008 676.96783 3113.7551 4082248
-2316.4521 677.01453 3113.9702 4148041
-2285.948 673.77405 3099.0652 4411213
-2251.199 669.21619 3078.1011 4740178
-2253.187 675.59473 3107.4397 5003350
-2243.1943 678.46094 3120.6228 4148041
-2226.9614 679.47351 3125.2803 3687490
-2206.7085 679.2666 3124.3286 3556161
-2186.4226 679.04578 3123.313 3555904
-2167.0254 679.09955 3123.5603 3753283
-2150.3147 680.00378 3127.7192 3753283
-2136.5183 681.85468 3136.2327 3753283
-2121.1912 683.24695 3142.6365 3819076
-2101.5781 683.27179 3142.7507 3884869
-2081.1431 683.02734 3141.6265 3950662
-2061.3784 683.00043 3141.5027 4082248
-2031.1086 679.45874 3125.2122 4148041
-2002.4377 676.38812 3111.0889 4016455
-1979.7094 675.28418 3106.011 3950918
-1932.391 665.68726 3061.8696 3950405
-1923.2844 669.19348 3077.9966 3489854
-1930.3906 678.46906 3120.6602 3292219
-1921.0197 682.08386 3137.2869 3423548
-1910.2916 685.28674 3152.0186 3621184
-1901.2405 689.16418 3169.8533 3752514
-1865.3065 683.27631 3142.7715 3752770
-1845.6162 683.27631 3142.7715 3621184
-1814.1229 678.85962 3122.4565 3423805
-1800.5963 681.14313 3132.9597 3291963
-1814.434 693.94269 3191.832 3292219
-1787.5083 691.26355 3179.5093 3818563
-1749.6176 684.23584 3147.1848 3950149
-1729.8995 684.23584 3147.1848 3818820
-1714.4608 685.948 3155.0601 3752770
-1691.2887 684.57001 3148.7217 3752770
-1666.7346 682.59338 3139.6301 4081735
-1638.9453 679.22876 3124.1545 4213321
-1617.8044 678.57147 3121.1313 4213321
-1583.6008 672.35205 3092.5247 4147273
-1563.46 672.02313 3091.0117 3555644
-1544.0938 672.02313 3091.0117 3358266
-1541.6682 679.48962 3125.3545 3753024
-1511.1663 674.61444 3102.9307 3687231
-1500.9297 678.77692 3122.0764 3555645
-1479.7932 678.05499 3118.7556 3621438
-1463.2969 679.46826 3125.2561 3489852
-1447.1403 681.07971 3132.6682 3555645
-1431.4272 682.9472 3141.2578 3555901
-1416.5077 685.25061 3151.8523 3621438
-1397.3878 685.55847 3153.2683 3489852
-1383.2256 688.34216 3166.0723 3226680
-1369.9188 691.63885 3181.2356 3423804
-1356.7003 695.07806 3197.0544 3424061
-1346.0056 699.9328 3219.384 3424317
-1335.7935 705.18994 3243.5647 3555904
-1306.6338 700.45227 3221.7732 3753283
-1287.2418 700.88434 3223.7605 3621697
-1271.0947 703.125 3234.0669 3950662
-1250.215 702.77802 3232.4707 4279627
-1203.8295 687.84607 3163.7905 3950919
-1212.1708 704.20752 3239.0459 4016455
-1196.5305 706.95691 3251.6919 4081991
-1182.2598 710.62476 3268.5623 4081992
-1167.2255 713.95477 3283.8789 3950918
-1142.5879 711.42493 3272.2429 3884614
-1130.0974 716.50415 3295.605 3686721
-1104.2035 713.11627 3280.0222 3489598
-1084.7826 713.8595 3283.4407 3358269
-1053.8129 706.88464 3251.3596 3291962
-1030.8536 705.11426 3243.2163 3357755
-1000.4136 698.05261 3210.7361 3292217
-980.59222 698.26257 3211.7017 3226167
-949.45782 690.25684 3174.8787 3555132
-934.17065 693.67584 3190.6047 3357753
-904.67145 686.46039 3157.4167 3357753
-879.00244 681.89368 3136.4119 3555132
-855.42029 678.77405 3122.063 3357753
-830.32361 674.27844 3101.3853 2897202
-811.48792 674.7735 3103.6624 3620925
-796.89929 678.91119 3122.6938 3884097
-780.89484 682.02063 3136.9958 3752511
-758.71783 679.76038 3126.5999 3752511
-738.57544 679.25159 3124.2595 3818304
-718.64557 678.91577 3122.7151 3818304
-691.96667 672.0069 3090.9373 3884097
-675.92914 675.33209 3106.2314 3686718
-658.65979 677.58722 3116.6042 3686720
-640.48657 679.02197 3123.2034 3555390
-620.74554 678.83252 3122.332 3555134
-603.42877 681.36816 3133.9949 3752513
-584.68958 682.41431 3138.8064 3620927
-564.07019 681.26233 3133.5078 3555134
-544.83868 681.76398 3135.8154 3555134
-526.44537 683.39117 3143.2998 3621184
-508.84094 686.2088 3156.2595 3621184
-489.32886 686.57764 3157.9561 3555391
-466.96066 682.80127 3140.5864 3555648
-449.13623 685.62897 3153.5925 3686977
-429.37799 685.62897 3153.5925 4015942
-407.76712 682.52795 3139.3293 4081735
-388.64111 683.48267 3143.7205 3818820
-372.04083 689.21826 3170.1018 3555648
-351.56851 688.02319 3164.605 3423805
-330.64957 685.75903 3154.1909 3621184
-310.85306 685.6828 3153.8403 3752770
-288.4599 679.4798 3125.3093 3818563
-272.66785 689.05487 3169.3503 3423548
-253.00061 689.57208 3171.7292 3423805
-233.50043 690.67139 3176.7856 3424574
-212.63916 687.57465 3162.542 3424320
-191.32361 682.2215 3137.9197 3424320
-171.2513 680.58307 3130.3838 3686979
-151.63847 680.58307 3130.3838 3424063
-131.88966 679.88208 3127.1594 3358013
-112.92352 683.67499 3144.6052 3358270
-94.620819 693.93671 3191.8047 3358270
-74.646339 694.15216 3192.7957 3161402
-54.058857 686.73798 3158.6936 3095353
-34.882256 699.03436 3215.2515 3226940
-14.737709 699.03436 3215.2515 3226939
5.4226489 701.07831 3224.6531 3358525
25.937414 709.59528 3263.8271 3555904
45.81274 700.82123 3223.4702 3555904
66.119614 701.99799 3228.8828 3819076
87.216454 709.04547 3261.2983 3753283
108.36742 713.77417 3283.0483 3819076
128.69615 712.44232 3276.9221 3555904
148.97667 711.24677 3271.4233 3490111
168.92888 708.96259 3260.917 3358525
184.23239 689.76654 3172.6235 3292219
204.10985 689.76654 3172.6235 3490111
227.43607 700.3869 3221.4727 3687490
247.10425 698.9292 3214.7681 3490111
264.91864 692.84302 3186.7742 3950662
283.80215 690.21014 3174.6641 3621954
298.94333 679.41675 3125.0193 3424318
322.64832 688.21722 3165.4973 4082248
343.16766 689.59674 3171.8428 4082248
363.04025 689.59674 3171.8428 3819076
377.00272 678.95312 3122.8867 3884869
397.23804 680.0993 3128.1584 4082248
423.48914 690.95288 3178.0803 3555904
443.40085 690.95288 3178.0803 3621697
458.08679 683.15961 3142.2346 3687490
474.50787 678.48962 3120.7549 3950661
495.02899 679.81982 3126.8733 4016711
515.39282 680.841 3131.5701 3950662
540.21228 687.45734 3162.0022 4082248
563.89404 692.20892 3183.8577 4411214
580.06403 687.72986 3163.2559 4279628
598.3028 685.91858 3154.9246 3819077
626.54578 695.32544 3198.1921 3819077
646.73517 695.48859 3198.9426 3950150
656.34308 684.60486 3148.8821 3884356
680.86969 689.46332 3171.2288 3423805
711.47046 700.02264 3219.7971 3358012
720.28308 689.1532 3169.8025 3489598
734.92914 684.29871 3147.4739 3489597
767.14044 695.62555 3199.5725 2962997
788.55084 696.83099 3205.1172 2897717
811.32611 699.15271 3215.7959 3489853
820.36346 689.81024 3172.8247 3621440
838.74634 688.58228 3167.1765 3424061
866.40607 694.85089 3196.0095 3029047
882.13885 691.48712 3180.5376 3094838
898.57361 688.81006 3168.2244 3095095
918.42346 688.81006 3168.2244 3424571
941.31458 691.04272 3178.4934 3489339
954.63727 686.30389 3156.697 3028788
974.41498 686.30389 3156.697 3226167
1014.3552 700.22235 3220.7158 3160374
1039.054 703.28168 3234.7874 3160374
1058.5989 702.80237 3232.5828 3423546
1072.3295 698.55334 3213.0391 3357496
1093.6552 699.31738 3216.5535 3160374
1104.6934 693.59479 3190.2319 3160374
1125.7308 694.24213 3193.2095 3358009
1142.2396 692.1228 3183.4614 3424059
1171.7118 697.79633 3209.5571 3621438
1184.5547 693.54218 3189.99 3687231
1203.0392 692.67755 3186.0129 3687231
1221.3956 691.76855 3181.832 3687231
1246.6342 694.72394 3195.4255 3818817
1259.3588 690.72247 3177.0205 4016455
1271.7098 686.6438 3158.2605 4082248
1277.2263 679.05646 3123.3621 4082248
1299.0336 680.22858 3128.7532 3555904
1309.2219 675.37213 3106.4158 3621441
1345.7429 684.04291 3146.2976 3884356
1378.2007 690.4278 3175.6653 4015942
1398.0269 690.39313 3175.5056 4213321
1394.181 678.83325 3122.3354 3620927
1418.7013 681.21387 3133.2852 3291962
1438.4536 681.27136 3133.5496 3357754
1458.7236 681.56921 3134.9194 3423547
1481.665 683.09058 3141.9172 3423545
1500.2393 682.58521 3139.5928 3423546
1521.5072 683.30267 3142.8926 3160374
1545.0917 685.02875 3150.8318 2962995
1570.3341 687.43707 3161.9092 3094581
1589.5585 687.18372 3160.7439 2962995
1602.104 684.0849 3146.4905 2962995
1623.9725 684.99377 3150.6709 3028788
1645.4829 685.73157 3154.0645 3029044
1669.015 687.28436 3161.2068 2897459
1689.5975 687.6004 3162.6604 2897459
1733.8497 697.43011 3207.8728 3028788
1736.3307 690.4248 3175.6514 2568494
1714.4028 673.98248 3100.0239 2897459
1739.1448 676.05023 3109.5347 3226424
1773.1174 681.62067 3135.1562 2699823
1824.2092 693.57782 3190.1541 2634030
1846.061 694.27911 3193.3794 2502701
1874.3298 697.35266 3207.5166 2568494
1892.3428 696.58582 3203.9895 2634030
1933.8314 704.38605 3239.8669 2962994
1957.4832 705.5946 3245.4258 3028790
1975.5807 704.79694 3241.7568 2962997
1995.8912 704.79694 3241.7568 2962997
2014.9811 704.37018 3239.7939 3094583
2042.8833 707.00165 3251.8977 3094583
2062.9756 706.90509 3251.4534 3160376
2052.741 696.52014 3203.6873 3291962
2104.1814 707.06067 3252.1692 3028790
2134.6406 710.4165 3267.6045 2897204
2156.3069 710.81 3269.4143 2897204
2169.5989 708.46161 3258.6128 2962997
2177.1042 704.28491 3239.4019 3160376
2218.0862 710.91504 3269.8975 3357755
2249.5452 714.39948 3285.9243 3555134
2253.4189 709.13977 3261.7322 3752513
2239.9978 698.58093 3213.166 3752513
2229.2744 689.04401 3169.3005 3620927
2321.1438 711.10583 3270.7751 3226169
2341.6362 711.10583 3270.7751 3291449
2366.9099 712.54523 3277.3955 3356983
2330.5022 695.55078 3199.2285 3291190
2350.5464 695.55078 3199.2285 3817534
2406.5974 706.11548 3247.8215 3685948
2464.8943 717.15643 3298.6052 3685948
2466.3257 711.60645 3273.0776 3751741
2488.9258 712.20544 3275.8328 3422776
2497.1152 708.70477 3259.7312 3093811
2559.1179 720.40967 3313.5686 3028275
2581.9624 720.99158 3316.2454 3158835
2606.2773 721.97156 3320.7527 3093298
2621.7266 720.49957 3313.9822 3027505
2643.3335 720.72961 3315.0403 2961712
2673.6934 723.32404 3326.9734 2895919
2694.5378 723.32404 3326.9734 3092527
2716.8501 723.71503 3328.7717 2698026
2703.9448 714.79022 3287.7217 2632233
2744.5603 720.04181 3311.8765 2500647
2757.22 717.93512 3302.1868 2566440
2777.9092 717.93512 3302.1868 2500393
2801.7412 718.74139 3305.8953 2303270
2811.9451 716.06537 3293.5867 2434856
2832.5803 716.06537 3293.5867 2501163
2821.8606 708.19617 3257.3921 2698542
2846.0066 709.12744 3261.6753 2830128
2883.9604 713.46136 3281.6094 2829871
2893.1851 710.67688 3268.802 2764335
2869.0283 699.78943 3218.7244 3027507
2873.3577 695.95355 3201.0813 3159093
2903.7546 698.44098 3212.5222 3027507
2924.1216 698.49817 3212.7854 2961714
2951.7705 700.28217 3220.991 2830641
2973.1841 700.57269 3222.3274 2896434
2993.373 700.57269 3222.3274 3093813
3022.2576 702.59424 3231.6255 2896434
3029.4929 699.58948 3217.8049 2699312
3042.061 697.84772 3209.7937 2699055
3060.8149 697.53864 3208.3718 2830898
3075.2278 696.25073 3202.448 3028020
3097.1589 696.67065 3204.3794 3093813
3100.7942 692.99622 3187.4788 3093813
3110.8831 690.80188 3177.3857 3028020
3114.895 687.29462 3161.2539 3028020
3127.2566 685.66229 3153.7461 2896434
3144.905 685.20245 3151.6309 2699055
3139.1033 679.6709 3126.1882 2830641
3139.1194 675.45984 3106.8191 2699055
3157.5012 675.22821 3105.7537 2699055
3162.7988 672.21844 3091.9102 2896434
nan nan nan 16777215
nan nan nan 16777215
nan nan nan 16777215
nan nan nan 16777215
nan nan nan 16777215
nan nan nan 16777215
nan nan nan 16777215
nan nan nan 16777215
-2715.7634 656.19604 2934.1072 3686720
-2705.8308 658.25183 2943.2993 3818306
-2687.1409 658.19067 2943.0261 3818306
-2663.7849 656.97803 2937.6038 3818306
-2644.8894 656.85626 2937.0593 3884099
-2636.7319 659.41809 2948.5144 3818306
-2618.2583 659.41809 2948.5144 3949892
-2576.9099 653.61597 2922.5708 4147528
-2558.5134 653.59412 2922.4729 4081478
-2539.2051 653.33728 2921.3247 4081735
-2547.4785 660.22504 2952.1223 4015685
-2539.9648 663.09216 2964.9424 3949892
-2504.2974 658.59735 2944.8445 4015685
-2472.4966 655.0603 2929.0291 3884356
-2431.8191 649.10101 2902.3826 4015942
-2411.9268 648.6416 2900.3286 3950149
-2411.3232 653.4021 2921.6145 4081735
-2397.7319 654.68909 2927.3691 4213577
-2382.7388 655.61017 2931.4878 4410957
-2387.9441 662.14636 2960.7136 4542799
-2377.8804 664.51788 2971.3176 4345933
-2379.9304 670.33887 2997.3452 4279884
-2370.657 673.03766 3009.4126 4214604
-2357.176 674.57556 3016.2891 4148810
-2342.353 675.7511 3021.5454 4477006
-2325.7925 676.44049 3024.6282 4411213
-2316.783 679.35547 3037.6621 4279627
-2297.7512 679.35547 3037.6621 3950919
-2269.7034 676.6676 3025.6436 3819076
-2256.2085 678.30957 3032.9856 3950662
-2255.1899 683.76227 3057.3667 4148041
-2233.9624 683.12866 3054.5334 4279627
-2217.5835 683.97949 3058.3379 4148041
-2198.4221 683.97949 3058.3379 3753283
-2177.8508 683.53699 3056.3594 3687490
-2142.0461 678.26306 3032.7776 3621697
-2118.5659 676.83221 3026.3796 3621697
-2098.3989 676.44354 3024.6416 3556161
-2088.4368 679.36737 3037.7153 3621954
-2074.8591 681.15802 3045.7219 4148298
-2046.6357 678.12927 3032.1794 4016455
-2026.2589 677.66803 3030.1167 4016712
-2019.9587 681.95032 3049.2646 3950662
-2000.854 681.95032 3049.2646 3819333
-1975.486 679.79498 3039.6272 3818819
-1948.6091 677.07336 3027.458 3621184
-1924.0104 675.09766 3018.6235 3752770
-1882.3601 667.04022 2982.5959 3621184
-1888.282 675.84814 3021.9795 3358012
-1911.7118 691.16431 3090.4639 3226426
-1865.4932 681.35541 3046.6045 3292219
-1838.0037 678.25507 3032.7419 3489598
-1835.2758 684.32288 3059.8733 3555391
-1816.1047 684.32288 3059.8733 3686977
-1790.0283 681.69312 3048.1145 3752770
-1767.0587 680.20258 3041.45 3292219
-1763.3429 686.17181 3068.1406 3226426
-1788.3053 703.55511 3145.8682 3358012
-1765.5393 702.33936 3140.4321 3621184
-1693.8035 681.3963 3046.7874 3818563
-1678.245 682.83276 3053.2104 3818820
-1660.5126 683.40771 3055.7812 3752770
-1639.9066 682.79956 3053.062 3621184
-1615.7854 680.69623 3043.657 3621184
-1594.9675 679.95081 3040.3242 3555391
-1583.0902 683.04498 3054.1594 3950149
-1570.2117 685.77753 3066.3777 3292220
-1558.7468 689.20288 3081.6936 3226680
-1532.1849 685.9552 3067.1721 3226680
-1494.1183 677.409 3028.9585 3555645
-1474.478 677.10455 3027.5974 3621438
-1453.6914 676.25891 3023.8162 3358266
-1440.7843 679.10498 3036.542 3621438
-1421.7595 679.10498 3036.542 3884610
-1398.6958 677.14966 3027.7991 3950403
-1389.1509 681.77539 3048.4824 3884867
-1370.0511 681.77539 3048.4824 3950403
-1357.7151 685.18872 3063.7449 3819074
-1360.2241 696.29919 3113.4241 3490110
-1340.7175 696.29919 3113.4241 3424317
-1319.6281 695.46497 3109.6938 3687746
-1298.0814 694.36121 3104.7585 3885124
-1282.1545 696.27576 3113.3191 4016455
-1268.845 699.69257 3128.5972 3819076
-1250.4735 700.38165 3131.6782 4016455
-1247.4106 709.80347 3173.8069 4411213
-1232.6641 712.77466 3187.0923 4477006
-1199.908 705.25848 3153.4844 4017225
-1187.3424 709.5564 3172.7021 3819847
-1184.3384 719.81189 3218.5583 4148811
-1167.4921 721.86407 3227.7344 4279627
-1147.2693 721.86407 3227.7344 4213834
-1120.9894 717.98444 3210.3872 4082248
-1089.7086 710.7016 3177.823 3885126
-1063.8732 706.76514 3160.2214 3818307
-1032.5745 698.98114 3125.416 3818563
-1011.0796 697.66107 3119.5134 3818563
-994.92389 700.04565 3130.176 3818563
-979.79785 703.2652 3144.5718 3818307
-958.50385 702.09882 3139.3564 3950406
-928.62457 694.4632 3105.2146 3949892
-903.65759 690.25305 3086.3894 3818562
-879.98151 686.86627 3071.2458 3884353
-866.19244 691.21796 3090.7039 3620669
-837.31897 683.45605 3055.9976 3423546
-818.93915 684.0968 3058.8623 3160374
-794.90802 679.9342 3040.25 3949890
-780.36047 683.87836 3057.8857 4081476
-763.50714 685.9494 3067.1462 3555388
-739.56 681.58972 3047.6523 3555132
-720.46545 681.58972 3047.6523 3686718
-699.48566 679.75751 3039.46 3555132
-681.75995 681.07367 3045.345 3489339
-663.1897 681.5976 3047.6875 3489340
-642.95844 680.3949 3042.3098 3555134
-624.15918 680.68036 3043.5862 3489341
-609.07117 685.15863 3063.6104 3686977
-596.98004 693.40942 3100.5027 3949892
-570.21063 684.59241 3061.0786 3686720
-546.1098 678.47717 3033.7349 3489341
-529.97833 682.17889 3050.2866 3555134
-516.42065 689.59436 3083.4441 3555391
-496.29581 688.47614 3078.4441 3555648
-473.95734 684.07245 3058.7537 3555391
-455.96783 685.83917 3066.6531 3686977
-436.52066 685.47223 3065.0125 3555391
-418.10785 686.77063 3070.8181 3555391
-398.11249 685.46936 3064.9998 3621184
-378.9093 685.46936 3064.9998 3555391
-358.99326 684.1109 3058.9255 3423805
-342.33569 689.15887 3081.4968 3555135
-321.18298 685.22021 3063.8857 3752771
-302.36542 686.07928 3067.7268 3884613
-280.47791 679.61646 3038.8289 3753286
-260.73981 677.79962 3030.7053 4081738
-243.90712 683.84338 3057.7292 4147530
-226.0168 687.69928 3074.9707 3621956
-205.86891 684.76483 3061.8494 3424320
-184.94156 678.36804 3033.2471 3226941
-165.87523 678.1142 3032.1118 3292477
-148.38438 685.06848 3063.2073 3029561
-129.47531 686.56848 3069.9141 2766389
-108.00692 672.65277 3007.6917 3226427
-90.234268 680.73596 3043.835 3489598
-71.422592 683.21246 3054.9082 3094840
-52.664974 688.20862 3077.248 2963254
-33.561974 691.85559 3093.5549 2634289
-14.17989 691.85559 3093.5549 3357756
5.2268023 695.12872 3108.1904 3160890
24.850136 699.33759 3127.0098 3029560
44.718796 703.69598 3146.498 3424574
64.370979 703.02319 3143.4897 3490111
83.921143 701.8125 3138.0762 3490110
103.49952 701.25256 3135.5725 3424318
123.06848 700.81769 3133.6279 3424575
143.14552 702.99762 3143.3755 3424318
162.82166 702.91949 3143.0261 3555904
182.74313 703.80316 3146.9773 3555647
202.55577 704.13641 3148.4673 3424317
222.03047 703.33997 3144.9062 3490111
240.80293 700.63013 3132.7893 3555904
260.44199 700.66016 3132.9236 3687490
278.62106 697.03345 3116.7073 3490111
298.67374 698.26215 3122.2012 3556160
319.35449 700.71777 3133.1814 3884869
335.61212 693.74603 3102.0081 3424318
352.93921 689.62726 3083.5911 3095353
371.6091 688.42352 3078.2087 4148041
390.89502 688.42352 3078.2087 4542799
415.59677 697.51306 3118.8518 3687490
433.80096 695.37091 3109.2732 3621697
453.93283 696.37 3113.7407 3621697
473.32965 696.20569 3113.0059 4082249
492.83359 696.20569 3113.0059 4608849
506.34131 688.0575 3076.5723 4279628
530.82446 694.87427 3107.0527 3819334
563.89404 712.05127 3183.8577 4148042
575.78558 702.22583 3139.9243 4345421
589.63715 695.36108 3109.2295 4016456
608.59961 694.76996 3106.5862 3292733
630.11584 697.04041 3116.7385 3621185
646.95532 694.15649 3103.8433 3621184
667.48773 695.2876 3108.9009 3489598
685.81061 694.11829 3103.6724 3358012
705.2561 694.11829 3103.6724 3358012
722.05634 691.58466 3092.3435 3292219
742.46844 692.55249 3096.6711 3358012
767.15259 697.35449 3118.1426 3292219
788.6156 699.0625 3125.78 3358012
809.00238 699.7569 3128.8848 3423805
826.61243 698.07349 3121.3574 3358012
851.88147 702.78644 3142.4312 3358012
868.138 700.01923 3130.0576 3358012
888.82275 700.86609 3133.8445 3818563
906.77069 699.56488 3128.0264 3686978
921.00854 695.51709 3109.9268 3621439
940.49316 695.51709 3109.9268 3292216
965.90985 699.81482 3129.1438 3423546
986.99915 700.86884 3133.8567 3292217
1006.1462 700.5293 3132.3386 3423802
1025.2838 700.19647 3130.8503 3621181
1042.332 698.47595 3123.1572 3489852
1060.986 697.87494 3120.47 3489852
1080.2609 697.69684 3119.6736 3555389
1093.7335 693.84424 3102.447 3358010
1111.0464 692.51971 3096.5247 3160887
1137.3898 696.77289 3115.5422 3292473
1156.9366 696.78925 3115.6152 3424059
1170.8556 693.47162 3100.7808 3489852
1186.6879 691.37708 3091.4153 3489851
1204.5345 690.50458 3087.5142 3753025
1222.5842 689.77423 3084.2483 3950149
1231.9352 684.23517 3059.4812 4015942
1251.1038 684.23517 3059.4812 4213321
1260.176 678.79681 3035.1641 4081735
1277.1702 677.72375 3030.366 3884356
1304.7189 682.20087 3050.385 3950149
1339.7979 690.42926 3087.1772 4147528
1383.8385 702.97583 3143.2778 3884356
1386.9137 694.65228 3106.0601 3489341
1381.8379 682.53302 3051.8701 3489341
1396.5652 680.39258 3042.2993 3489339
1411.5686 678.44232 3033.5791 3489339
1431.4688 678.86621 3035.4746 3489339
1443.6034 675.64459 3021.0693 3423546
1481.533 684.42273 3060.3198 3028788
1497.9221 683.15277 3054.6411 2831409
1515.6207 682.50439 3051.7422 3028788
1536.262 683.18091 3054.7671 3028788
1555.4011 683.18091 3054.7671 3160374
1573.6001 682.77301 3052.9434 3291960
1578.0377 676.47565 3024.7854 3160374
1602.9548 679.00281 3036.0852 3094581
1626.3359 680.82764 3044.2449 3160374
1645.4093 680.82764 3044.2449 3357753
1663.587 680.46149 3042.6074 3555132
1688.019 682.63269 3052.3159 3555132
1709.1411 683.43182 3055.8892 3160374
1750.4523 692.19678 3095.0806 2699823
1764.7502 690.20465 3086.1729 2765616
1787.8497 691.66064 3092.6833 2897202
1801.843 689.60034 3083.4709 2831666
1828.9946 692.56628 3096.7327 2831409
1859.4261 696.69885 3115.2112 2765615
1877.2435 696.06836 3112.3918 2962997
1897.4045 696.31091 3113.4766 2897204
1917.4746 696.51544 3114.3911 2962997
1936.6957 696.41064 3113.9224 3028790
1960.8502 698.06421 3121.3162 2962997
1981.0308 698.28436 3122.3005 2962997
2003.4165 699.2699 3126.7073 3094583
2026.6973 700.54565 3132.4116 3094583
2067.9468 707.94849 3165.5125 3028790
2084.2229 706.74249 3160.1201 2897204
2086.5088 700.85974 3133.8159 2699825
2099.4058 698.61774 3123.7913 2700082
2144.5542 707.05035 3161.4966 3028790
2164.3621 707.05035 3161.4966 3226169
2184.1196 707.03412 3161.4241 3226169
2203.9268 707.03412 3161.4241 3423548
2227.4583 708.2182 3166.7185 3423548
2233.4597 703.85693 3147.2175 3094840
2257.5454 705.22119 3153.3179 3093813
2279.0037 705.74823 3155.6743 3225398
2294.9468 704.57288 3150.4189 3225397
2314.6851 704.57288 3150.4189 3488569
2353.1521 710.22559 3175.6943 3554362
2435.7014 728.97675 3259.5381 3817534
2423.0042 719.14697 3215.5854 4080706
2406.4438 708.34216 3167.2729 3817534
2432.6382 710.19617 3175.563 3225397
2459.7454 712.28442 3184.9001 3094068
2486.562 714.25555 3193.7139 3224885
2504.8704 713.77081 3191.5464 3159091
2523.4136 713.36005 3189.7097 3159091
2556.6433 717.07507 3206.321 3093298
2570.1409 715.24084 3198.1194 3093298
2590.178 715.24084 3198.1194 3224113
2619.3623 717.74725 3209.3267 3356213
2631.5688 715.59882 3199.72 3356213
2661.3369 718.22217 3211.4502 3027248
2663.2534 713.34619 3189.6479 2829613
2678.8679 712.18451 3184.4536 2829102
2714.6213 716.35443 3203.0989 2632236
2737.4346 717.07343 3206.3137 2369577
2759.0569 717.47223 3208.0969 2435370
2788.9055 719.98907 3219.3506 2435370
2809.0757 719.98907 3219.3506 2566956
2792.4922 710.63586 3177.5291 2632749
2809.8232 709.98474 3174.6174 2895921
2810.6379 705.19867 3153.217 3159093
2805.2759 698.94049 3125.2344 3159093
2824.2314 698.78589 3124.543 3290679
2837.5166 697.23999 3117.6309 3356472
2849.4058 695.37457 3109.2898 3290935
2878.8262 697.78387 3120.0625 3159606
2903.7664 699.08197 3125.8669 3093813
2921.6394 698.67267 3124.0369 3028020
2930.7407 696.18518 3112.9143 3028020
2944.4365 694.8147 3106.7864 3028020
