# .PCD v0.7 - Point Cloud Data file format
VERSION 0.7
FIELDS x y z rgb
SIZE 4 4 4 4
TYPE F F F U
COUNT 1 1 1 1
WIDTH 1272
HEIGHT 1
VIEWPOINT 0 0 0 1 0 0 0
POINTS 1272
DATA ascii
442.00629 645.19989 2256.2134 3028788
459.64081 650.14856 2273.5188 2897202
473.8851 650.14856 2273.5188 2962995
489.64481 652.16699 2280.5769 3094581
502.362 650.13342 2273.4658 2831409
511.30301 643.45984 2250.1287 2436651
525.40076 643.45984 2250.1287 2305065
540.58008 644.74982 2254.6396 2502444
554.38885 644.38104 2253.3501 2502444
568.50677 644.38104 2253.3501 2370858
584.77808 646.7627 2261.6785 2765616
595.00043 642.49976 2246.7712 2765616
611.75073 645.32001 2256.6335 2962995
624.63763 644.0296 2252.1211 3094838
639.04114 644.32526 2253.155 2897202
657.573 648.68073 2268.3857 2897202
671.12097 648.03937 2266.1431 2897202
682.92017 645.77106 2258.2107 2766386
699.40393 647.93445 2265.7761 2831922
716.79767 650.83813 2275.9302 2831922
730.69879 650.51923 2274.8147 2700593
741.37006 647.39197 2263.8792 2634543
751.8584 644.22552 2252.8062 3226680
776.11786 652.75793 2282.6433 3161143
793.9668 655.68756 2292.8882 3358013
809.43536 656.58221 2296.0166 3489598
818.03955 651.97473 2279.9045 3358012
833.49506 652.89215 2283.1128 3292219
853.04596 656.9325 2297.2415 3094840
867.43896 656.9325 2297.2415 2897461
886.66357 660.53192 2309.8284 2962997
883.18927 647.37744 2263.8284 2897204
896.42755 646.69556 2261.4436 2962997
898.37598 638.01685 2231.095 3094583
911.99408 637.76477 2230.2136 3423548
925.96704 637.76477 2230.2136 2962997
937.84882 636.34589 2225.2517 2568239
943.75079 630.97064 2206.4548 2962740
964.77808 635.71692 2223.0522 3489341
981.91406 637.80066 2230.3389 3423548
995.07117 637.27759 2228.5098 3028790
1009.0335 637.27759 2228.5098 2831664
1032.0254 642.90265 2248.1802 3357753
1047.7169 643.88953 2251.6313 3291960
1070.5249 649.16577 2270.0818 3160374
1081.8602 647.43774 2264.0391 3028788
1092.1677 645.14734 2256.0298 3094581
1107.2114 645.67743 2257.8835 3291960
1114.8306 641.91907 2244.7407 3357753
1117.0991 635.21185 2221.2861 3226167
1137.8417 639.04529 2234.6914 2962995
1154.0688 640.28033 2239.0103 3028788
1188.9567 651.71436 2278.9941 3028788
1177.5754 637.8161 2230.3931 2831409
1180.8595 632.09399 2210.3831 2962995
1205.781 637.95227 2230.8691 3489339
1229.6021 643.10083 2248.8733 3621181
1244.8812 643.71576 2251.0237 3093811
1243.7292 635.91577 2223.7478 2502444
1258.8274 636.50519 2225.8088 2897202
1288.0973 644.16888 2252.6082 3357753
1302.6871 644.4046 2253.4326 3357753
1311.6931 641.90271 2244.6836 3291960
1325.1832 641.625 2243.7124 3094581
1334.869 639.53052 2236.3882 3094838
1349.6244 639.88312 2237.6213 3160375
1363.2733 639.70935 2237.0134 3094583
1380.8098 641.34467 2242.7322 3028790
1395.382 641.58411 2243.5693 3160376
1409.2028 641.47675 2243.1938 3291962
1427.1083 643.21252 2249.2639 3160376
1449.1534 646.7619 2261.6758 2897204
1451.3448 641.46747 2243.1616 2831411
1469.7968 643.39258 2249.8936 3028790
1484.0918 643.47882 2250.1951 2962997
1504.5228 646.19885 2259.7068 3028790
1517.286 645.60541 2257.6316 3226169
1530.5231 645.22272 2256.2935 3423548
1541.485 643.89673 2251.6565 3160376
1557.6515 644.74908 2254.6372 2897204
1575.3555 646.2168 2259.7695 3028790
1592.7853 647.54688 2264.4207 3226169
1602.2747 645.65381 2257.8008 3226426
1622.1066 647.92505 2265.7432 3094583
1644.9785 651.36053 2277.7568 3029047
1675.689 657.81409 2300.3245 3357755
1688.7852 657.30194 2298.5334 3555134
1696.6149 654.76587 2289.665 3423548
1710.9602 654.76587 2289.665 2962998
1736.5814 659.0451 2304.6292 2896945
1742.8254 655.96057 2293.8428 2962737
1756.6869 655.77008 2293.1768 2962481
1765.5175 653.71997 2286.0076 2896945
1779.8398 653.71997 2286.0076 2830896
1793.9852 653.6554 2285.7817 2699053
1806.2061 652.89618 2283.127 2830896
1829.6068 656.15845 2294.5347 3093812
1843.9828 656.15845 2294.5347 3422776
1856.684 655.56702 2292.4666 3356985
1885.1777 660.51819 2309.7803 3028020
1894.2131 658.62799 2303.1704 2896691
1905.4581 657.52893 2299.3271 3028020
1920.192 657.64117 2299.7197 3093813
1935.4288 657.92273 2300.7043 2962227
1958.4331 660.82104 2310.8396 2830641
1975.8184 661.79486 2314.2449 2896690
1995.6963 663.58325 2320.4985 3093813
2018.5212 666.31848 2330.0637 3225399
2033.1198 666.31848 2330.0637 3225400
2043.2639 664.86908 2324.9951 3291193
2056.0225 664.28479 2322.9519 3356985
2070.1445 664.14624 2322.4673 3422778
2092.7358 666.7077 2331.4248 3422778
2107.343 666.7077 2331.4248 3159606
2121.9136 666.69629 2331.3848 3159606
2136.5205 666.69629 2331.3848 3159606
2149.1042 666.0694 2329.1924 3159606
2162.4988 665.70038 2327.9021 3028020
2179.4084 666.41119 2330.3877 3094070
2189.8569 665.1499 2325.9773 3094070
2196.8923 662.87567 2318.0244 3093813
2210.5938 662.62933 2317.1628 3159606
2218.4773 660.65369 2310.2542 2962227
2223.5684 657.8775 2300.5461 2962227
2234.9998 657.00085 2297.4805 2764848
2245.6504 655.90735 2293.6567 2830641
2254.6309 654.34302 2288.1863 2764848
2271.4438 655.05731 2290.6841 2764848
2286.3406 655.2135 2291.2302 2764593
2302.9172 655.84607 2293.4424 2699057
2316.0059 655.48364 2292.175 2633007
2326.7815 654.47516 2288.6484 2633008
2335.1013 652.79248 2282.7642 2435629
nan nan nan 16777215
nan nan nan 16777215
nan nan nan 16777215
nan nan nan 16777215
nan nan nan 16777215
nan nan nan 16777215
nan nan nan 16777215
nan nan nan 16777215
nan nan nan 16777215
nan nan nan 16777215
-1991.8694 637.44354 2181.5469 3358012
-1980.0225 638.03033 2183.5552 3292219
-1961.4326 636.43744 2178.1038 3752770
-1947.786 636.43744 2178.1038 4015942
-1946.7323 640.58118 2192.2849 3818820
-1947.8264 645.49554 2209.1035 3752770
-1917.8646 640.11493 2190.6892 3752770
-1908.1777 641.47247 2195.3352 3686977
-1896.9584 642.33087 2198.2729 3621184
-1886.459 643.44739 2202.0942 3621184
-1870.7203 642.78021 2199.8108 3621184
-1851.3113 640.83258 2193.1453 3555391
-1842.9918 642.72321 2199.6157 3358012
-1829.8827 642.95935 2200.4238 3358012
-1813.1383 641.91211 2196.8398 3226426
-1806.0634 644.29834 2205.0063 3094840
-1794.2216 645.00775 2207.4341 3621184
-1772.3805 642.10547 2197.5017 3555391
-1750.0437 638.97687 2186.7944 3489598
-1727.6178 635.76605 2175.8059 3489598
-1714.0533 635.7912 2175.8921 3555391
-1697.6141 634.74176 2172.3005 3489854
-1683.5305 634.56335 2171.6899 3358012
-1664.5608 632.52527 2164.7148 3358012
-1650.1652 632.20618 2163.6228 3423805
-1632.0221 630.43408 2157.5581 3423549
-1616.1763 629.52728 2154.4548 3423803
-1599.0033 628.08386 2149.5149 3489339
-1591.0812 630.28058 2157.0327 3357753
-1566.7474 625.95795 2142.2393 3226167
-1555.2787 626.745 2144.9329 3291960
-1540.5991 626.24054 2143.2065 3226167
-1528.7822 626.90118 2145.4673 3226167
-1514.3954 626.51031 2144.1296 3291960
-1504.313 627.90918 2148.917 3489339
-1490.8495 627.90918 2148.917 3357753
-1473.002 626.04596 2142.5405 3226167
-1454.8745 624.02838 2135.6357 3094838
-1445.4796 625.75378 2141.5405 3358010
-1429.4973 624.63306 2137.7051 3292216
-1416.104 624.63306 2137.7051 3029044
-1401.4415 624.06793 2135.771 3226167
-1394.1484 626.80518 2145.1387 3160374
-1379.8257 626.40436 2143.7671 3028789
-1364.3162 625.45166 2140.5066 2962995
-1365.7889 632.34265 2164.0898 3357753
-1348.0104 630.36926 2157.3364 3291960
-1332.7299 629.53601 2154.4846 3094581
-1320.6738 630.2243 2156.8403 3226167
-1307.983 630.62091 2158.1975 3226167
-1295.2181 630.98969 2159.4595 3226167
-1295.142 637.61292 2182.1267 3357753
-1281.4703 637.61292 2182.1267 3423546
-1264.2632 635.8349 2176.0415 3555132
-1248.4734 634.73865 2172.2898 3423546
-1236.1165 635.38275 2174.4941 3423546
-1225.4065 636.89734 2179.6775 3357753
-1202.6945 632.13757 2163.3879 3620925
-1189.1554 632.14569 2163.4158 3555132
-1183.9156 636.61664 2178.717 3357753
-1170.2653 636.61664 2178.717 3686718
-1156.2856 636.43542 2178.0969 3752511
-1143.554 636.94495 2179.8406 3555132
-1128.5737 636.19922 2177.2883 3357753
-1116.2159 636.9317 2179.7952 3424060
-1109.0521 640.68268 2192.6323 3950147
-1094.9867 640.49091 2191.9761 4015427
-1078.5806 638.90771 2186.5579 3620925
-1072.6333 643.55884 2202.4756 3357753
-1064.3745 646.92639 2214.0002 3489339
-1055.4843 649.99377 2224.498 3555132
-1051.16 655.99298 2245.0293 3357753
-1030.9867 652.12976 2231.8081 3357753
-1009.7716 647.49231 2215.9373 3555132
-1005.4333 653.69824 2237.176 3423546
-994.9162 656.00574 2245.073 2831409
-971.82733 649.97119 2224.4207 2897202
-959.02338 650.73975 2227.051 3818304
-948.47406 653.08356 2235.0723 3818817
-928.91815 649.203 2221.7917 3818817
-918.48877 651.67987 2230.2683 3555645
-906.02081 652.7644 2233.98 3489852
-902.2807 660.26984 2259.6663 3884610
-885.09674 658.01984 2251.9661 3753024
-870.98755 658.01984 2251.9661 3621438
-849.76379 652.55652 2233.2686 3687231
-834.75104 651.75958 2230.5413 3424059
-821.79608 652.56952 2233.3132 3424059
-810.28717 654.57587 2240.1794 3292476
-798.00769 656.01941 2245.1196 3489855
-791.1701 662.06854 2265.822 3818819
-776.974 662.06854 2265.822 3687234
-755.65161 655.88312 2244.6533 3424061
-737.90955 652.62964 2233.5188 3819076
-723.91583 652.62964 2233.5188 3358525
-709.36017 652.11298 2231.7507 3424575
-699.95752 656.40802 2246.4497 3753283
-687.96393 658.39966 2253.2659 4016455
-670.20203 654.83875 2241.0791 3753540
-647.92834 646.62262 2212.9609 3555904
-634.1908 646.75256 2213.4055 3621697
-622.31128 648.82544 2220.4995 3621697
-609.41479 649.90857 2224.2063 3753283
-592.36023 646.50421 2212.5554 3752514
-576.66553 644.45642 2205.5474 3489851
-563.47955 645.1806 2208.0259 3555645
-551.20227 647.00787 2214.2793 3555645
-537.68457 647.43585 2215.7439 3555645
-523.34247 646.86755 2213.7991 3358266
-510.26874 647.87878 2217.2598 3358009
-501.65524 654.76813 2240.8374 3358010
-487.61572 654.76813 2240.8374 3291960
-468.96982 648.39941 2219.0415 3160374
-455.79626 649.43872 2222.5984 3357753
-443.41263 651.70453 2230.3528 3555132
-431.71796 655.16333 2242.1899 3555132
-417.64072 655.11749 2242.0332 4015683
-402.35605 653.10852 2235.1577 4081732
-385.90375 648.99109 2221.0664 3884099
-368.78229 643.39807 2201.9253 3752770
-355.28824 643.94489 2203.7966 3884356
-341.45233 643.89124 2203.613 3819076
-323.99902 636.72418 2179.085 3950661
-311.69254 639.48602 2188.5369 4213833
-299.03323 641.74493 2196.2676 4345677
-285.72397 642.75946 2199.7397 4279883
-272.04074 642.9931 2200.5393 4279627
-257.27145 640.54755 2192.1699 4345420
-242.78285 638.56445 2185.3831 3818820
-229.09074 638.56445 2185.3831 3621184
-214.61766 636.24915 2177.4592 3686977
-200.31854 634.17029 2170.3447 3621184
-186.12082 632.133 2163.3726 3950149
-172.71278 632.6684 2165.2048 4279114
-161.51735 642.09106 2197.4521 4147781
-148.42372 645.02057 2207.478 3555901
-133.42189 639.40723 2188.2673 3687488
-120.51463 643.69568 2202.9438 3884610
-105.82526 638.34387 2184.6282 3818817
-91.792465 635.95074 2176.438 3621181
-78.791801 641.12079 2194.1318 3621438
-64.671036 637.43597 2181.521 3358266
-50.673729 633.31915 2167.4319 3555645
-37.378456 638.17419 2184.0474 3424059
-23.84 642.08691 2197.438 3226680
-10.017204 638.57025 2185.4028 3226680
3.6839144 640.11536 2190.6907 3029301
17.52046 644.20361 2204.6821 3226680
31.273911 642.97894 2200.491 3029301
44.805065 639.33173 2188.0088 3160887
58.512516 639.31964 2187.9675 3095094
72.394386 640.8562 2193.2261 2634543
86.380127 642.67523 2199.4517 2831922
100.21062 642.99768 2200.5549 2963508
114.0104 643.06885 2200.7986 2831922
128.10966 644.63171 2206.1472 2897716
141.93318 644.6377 2206.1677 2963254
155.84663 645.01477 2207.4583 2963511
169.42683 644.06366 2204.2031 2897462
182.29047 640.73718 2192.8188 2634289
196.47487 642.19403 2197.8047 2502703
210.6216 643.34503 2201.7437 2700339
224.41621 643.34503 2201.7437 2765875
238.08488 643.00494 2200.5798 2765617
251.75867 642.71503 2199.5876 2831408
266.65314 645.40985 2208.8103 2897202
280.93631 646.43219 2212.3091 2963251
294.65985 646.13123 2211.2791 2962995
309.03195 647.21552 2214.99 3357753
325.75015 652.909 2234.4749 3291960
335.05371 643.88428 2203.5894 3489341
348.0224 642.33862 2198.2996 3489596
361.60999 642.00934 2197.1726 3358266
376.38336 643.73236 2203.0693 3029301
391.14423 645.31274 2208.478 2897715
404.98102 645.31274 2208.478 2765616
417.13422 642.71863 2199.6001 3555132
432.62323 645.26599 2208.3179 3489339
446.45905 645.26599 2208.3179 3028788
461.64255 647.15527 2214.7837 3160374
482.78317 657.04156 2248.6179 3226167
494.90912 654.44672 2239.7375 3028788
508.44916 653.81323 2237.5696 2634286
514.05646 643.2868 2201.5444 2634030
525.1933 640.04932 2190.4648 2370858
538.93719 640.07306 2190.5459 2370858
553.20038 640.69696 2192.6812 2436651
566.94513 640.70477 2192.708 2502444
580.71375 640.73859 2192.8235 2436651
596.62555 643.08087 2200.8398 2568237
606.23138 638.67389 2185.7576 2765616
621.07404 639.85681 2189.8059 2831409
638.9444 644.04047 2204.1238 2831409
652.47345 643.76373 2203.1768 2831409
662.60016 640.21118 2191.0186 2831409
678.0249 641.81781 2196.5171 2766129
691.78674 641.81781 2196.5171 2700336
705.91742 642.15332 2197.6653 2766129
724.3877 646.34796 2212.021 2766386
748.0293 654.9129 2241.333 3753024
762.50848 655.28802 2242.6167 3358265
776.55914 655.28802 2242.6167 3160633
778.84186 645.53424 2209.2361 3423805
791.38263 644.47498 2205.6108 3160633
807.23389 646.10168 2211.178 3094840
822.45184 647.17517 2214.8518 2962997
837.98828 648.45953 2219.2473 3028533
853.46503 649.65649 2223.3438 3226169
867.39496 649.65649 2223.3438 3357755
874.28644 644.4682 2205.5876 3291962
885.53455 642.60278 2199.2036 3357755
890.88745 636.58215 2178.5989 3884099
902.49695 635.14642 2173.6853 2897204
919.56036 637.53455 2181.8584 1383965
932.19659 636.82831 2179.4414 1383965
938.99738 632.21362 2163.6482 2765874
964.0321 639.83209 2189.7214 3291962
979.51508 640.98627 2193.6711 3094583
990.18927 639.00519 2186.8914 3028788
1006.1357 640.43408 2191.7815 3291960
1023.0228 642.41516 2198.5615 3226167
1042.1976 645.76123 2210.0129 3160374
1056.3862 645.97052 2210.729 3160374
1067.6678 644.4198 2205.4219 3226167
1080.2986 643.71246 2203.0012 3028788
1090.9501 641.85858 2196.6567 3226167
1102.0824 640.33038 2191.4265 3291960
1116.7003 640.83984 2193.1702 2634030
1128.3125 639.63306 2189.0403 2831411
1149.7903 643.98096 2203.9202 3620926
1163.5986 643.98096 2203.9202 3686719
1177.6146 644.0946 2204.3091 3686719
1180.3545 638.10962 2183.8264 3357753
1202.848 642.81842 2199.9417 3094837
1210.0712 639.35242 2188.0796 2962738
1230.3076 642.76251 2199.7502 2239272
1230.432 635.70624 2175.6013 2699823
1250.8645 639.18182 2187.4958 3226167
1271.4539 642.66138 2199.4041 3160374
1284.922 642.50549 2198.8706 3160374
1295.8279 641.08521 2194.01 3160374
1306.7401 639.69794 2189.2622 3028788
1319.4512 639.21088 2187.5955 3028789
1337.9532 641.5105 2195.4653 3160376
1353.4597 642.34155 2198.3096 3291962
1371.9086 644.53833 2205.8276 3291962
1373.4829 638.84247 2186.3345 3291962
1391.2998 640.73932 2192.8262 3226169
1405.0386 640.73932 2192.8262 3094583
1418.0978 640.43243 2191.7759 2831411
1431.8053 640.42145 2191.7383 2962997
1445.5372 640.42145 2191.7383 3094583
1459.6725 640.59845 2192.344 3226169
1473.3967 640.59344 2192.3269 3160376
1489.5193 641.62164 2195.8457 3226169
1505.2804 642.47675 2198.7722 3094583
1519.1368 642.5108 2198.8887 3028790
1533.3712 642.70264 2199.5452 2963254
1546.7144 642.52075 2198.9229 3028790
1558.8003 641.82452 2196.54 3423548
1581.6488 645.53302 2209.2319 3357755
1605.1508 649.44165 2222.6086 3226169
1617.9689 648.99756 2221.0886 3423548
1659.5306 659.99231 2258.7163 3818306
1653.7504 652.13245 2231.8174 3620927
1668.2823 652.34711 2232.552 3226169
1679.0325 651.09161 2228.2554 3094584
1695.5839 652.08801 2231.6653 3094069
1731.2236 660.349 2259.9373 2896947
1745.3828 660.349 2259.9373 2567725
1729.4147 649.04236 2221.2419 2567725
1754.449 653.18134 2235.407 2962226
1768.5941 653.23291 2235.5835 3159604
1772.9896 649.71094 2223.53 3225399
1788.0547 650.12329 2224.9412 3356985
1803.533 650.67828 2226.8406 3620157
1837.5251 657.85297 2251.3948 3093813
1874.839 666.09839 2279.6135 2764848
1854.2318 653.79639 2237.512 3028020
1871.6537 654.9873 2241.5876 3159606
1882.3772 653.83386 2237.6401 3093813
1901.7458 655.67816 2243.9519 2896434
1920.8207 657.39484 2249.8269 2830640
1934.9167 657.39484 2249.8269 3028018
1946.3475 656.49597 2246.7507 3028018
1961.5787 656.88263 2248.074 2830640
1971.9668 655.6535 2243.8674 2830640
1992.8997 657.92285 2251.634 3291190
2012.9366 659.8667 2258.2866 3422776
2019.2484 657.31555 2249.5557 3356984
2045.5664 661.26715 2263.0793 3028018
2059.7451 661.26715 2263.0793 3028019
2072.7678 660.8985 2261.8176 3093813
2081.4585 659.16296 2255.8782 2962227
2095.5923 659.16296 2255.8782 2962227
2105.25 657.76447 2251.092 2764848
2116.1621 656.77393 2247.7019 2764848
2129.8022 656.63751 2247.2351 2764848
2161.2754 661.96478 2265.467 2633262
2161.3401 657.66553 2250.7534 2896434
2161.166 653.34979 2235.9834 3028020
2167.0413 650.90668 2227.6223 2962227
2183.9968 651.80164 2230.6851 2830641
2190.6064 649.61719 2223.2092 2764848
2205.1831 649.80798 2223.8621 2830641
2216.7761 649.12274 2221.5171 2699312
2230.3184 649.01318 2221.1421 2896434
2234.7419 646.26807 2211.7473 2896434
2252.2378 647.31384 2215.3264 2830640
2270.0061 648.42456 2219.1277 2633008
nan nan nan 16777215
nan nan nan 16777215
nan nan nan 16777215
nan nan nan 16777215
nan nan nan 16777215
nan nan nan 16777215
nan nan nan 16777215
nan nan nan 16777215
nan nan nan 16777215
nan nan nan 16777215
-1973.6007 645.06824 2161.5386 3094840
-1960.058 645.06824 2161.5386 3292219
-1914.9946 634.62231 2126.5359 3423805
-1900.9994 634.39819 2125.7847 3555391
-1887.6805 634.39819 2125.7847 3358012
-1881.3486 636.76288 2133.7085 3358012
-1869.3923 637.24426 2135.3215 3423805
-1854.0764 636.57898 2133.0923 3358012
-1843.9886 637.71222 2136.8896 3226426
-1836.9854 639.93652 2144.343 3226426
-1818.5061 638.16626 2138.4111 3226426
-1805.0458 638.14417 2138.3372 2963254
-1788.9154 637.17072 2135.0752 3029047
-1771.9006 635.86523 2130.7007 3029304
-1761.241 636.83783 2133.9597 3160633
-1755.2454 639.52472 2142.9631 3226426
-1741.8191 639.52472 2142.9631 3423805
-1721.2181 636.87006 2134.0676 3358012
-1705.2104 635.88666 2130.7725 3358269
-1678.995 631.05115 2114.5693 3489598
-1668 631.90485 2117.4299 3686977
-1649.3368 629.84393 2110.5239 3555392
-1633.2617 628.74597 2106.845 3358013
-1618.5094 628.14362 2104.8264 3424061
-1604.7935 627.93671 2104.1333 3423804
-1591.01 627.69983 2103.3396 3292473
-1567.1128 623.43549 2089.0503 3160374
-1548.689 621.29517 2081.8782 3160374
-1537.197 621.92291 2083.9817 3226167
-1526.262 622.7887 2086.8828 3029045
-1512.7859 622.62366 2086.3298 3160374
-1499.6339 622.59021 2086.2178 3094581
-1481.0084 620.26379 2078.4224 3029045
-1470.5808 621.36005 2082.0957 2963252
-1464.5306 624.34192 2092.0876 3094838
-1449.1287 623.35504 2088.7805 2963252
-1435.337 623.04907 2087.7554 2963508
-1421.6069 622.76447 2086.8018 2831666
-1407.1302 622.14453 2084.7244 2831666
-1395.6749 622.86127 2087.126 2831409
-1385.0507 623.966 2090.8279 2765616
-1375.8883 625.75671 2096.8284 2699823
-1363.9771 626.3197 2098.7148 2962995
-1362.0219 631.50983 2116.1062 3094581
-1348.1362 631.21594 2115.1216 3160374
-1331.8236 629.76868 2110.272 3423546
-1316.3374 628.68701 2106.6475 2831409
-1300.0452 627.19464 2101.6467 2962995
-1291.2457 629.32355 2108.7803 3291960
-1278.0336 629.32355 2108.7803 3226167
-1264.3782 629.10303 2108.0413 3423546
-1252.3654 629.70374 2110.0542 3423546
-1250.3188 635.3819 2129.0811 3291960
-1239.7911 636.82611 2133.9204 3489339
-1219.2921 633.12415 2121.5156 3489339
-1204.5637 632.37006 2118.9888 3357753
-1202.4248 638.28198 2138.7988 3489339
-1172.9385 629.64685 2109.8635 3752511
-1163.886 631.90894 2117.4436 3752511
-1153.1409 633.29364 2122.0835 3949890
-1134.9344 630.56512 2112.9407 3818561
-1121.4902 630.44928 2112.5525 4015683
-1111.3721 632.2229 2118.4956 3752511
-1107.8203 637.81976 2137.25 3555132
-1105.3375 644.1767 2158.5513 3489852
-1091.8136 644.1767 2158.5513 3884610
-1072.6228 640.79126 2147.2073 3818561
-1050.8219 635.74091 2130.2839 3620925
-1052.8998 645.19281 2161.9561 3357753
-1044.8988 648.63452 2173.4888 3160374
-1030.8861 648.38599 2172.656 3160374
-1015.3475 647.1582 2168.542 3291960
-1002.5078 647.64075 2170.1589 3291960
-988.40887 647.31189 2169.0569 3094581
-977.98553 649.41449 2176.1025 3423546
-965.3913 650.11469 2178.4487 3489339
-948.35388 647.79987 2170.6921 3555388
-933.33484 646.81653 2167.397 3818304
-917.17316 645.00055 2161.312 3950146
-907.52594 647.78009 2170.6257 3819073
-895.95148 649.24762 2175.5432 3555645
-887.30243 652.91315 2187.8259 3687231
-875.23907 654.14191 2191.9434 3621438
-848.38898 644.18219 2158.5698 3424059
-835.45618 644.63849 2160.0986 3358266
-823.26593 645.69214 2163.6294 3292473
-808.59497 644.80292 2160.6497 3160887
-797.77136 647.00366 2168.0239 3358266
-788.43243 650.50555 2179.7583 3423805
-774.23627 650.05273 2178.241 3686977
-754.63007 644.9599 2161.1755 3950405
-750.08167 652.78546 2187.3982 4082248
-738.56561 654.72571 2193.8997 3950662
-719.33276 649.76898 2177.2903 3687490
-706.28534 650.31586 2179.1228 3753283
-692.67645 650.35718 2179.2612 3884869
-676.21875 647.67157 2170.2622 3161403
-659.6076 644.72583 2160.3914 3226939
-648.44397 647.09283 2168.3228 3687490
-634.85876 647.09283 2168.3228 3884869
-619.4353 645.17816 2161.907 3555904
-605.54498 644.81042 2160.6748 3556161
-590.19659 642.83783 2154.0649 3753283
-571.31354 636.83289 2133.9431 3489598
-551.85529 629.88354 2110.6567 3226679
-547.39435 640.13104 2144.9949 3555132
-536.99481 643.77502 2157.2053 3423803
-523.47925 643.77502 2157.2053 3423802
-509.31659 642.95813 2154.468 3423803
-497.28094 644.85498 2160.8242 3094837
-484.56891 645.95636 2164.5146 3029044
-473.56522 649.46405 2176.2686 3291960
-461.0155 650.99658 2181.4038 3620925
-444.20117 646.41675 2166.0574 3555132
-432.21887 648.80151 2174.0483 3555132
-419.00259 649.42896 2176.1509 3621181
-405.00775 648.85126 2174.2151 4081733
-390.93076 648.09717 2171.6882 4081989
-375.20892 644.46356 2159.5125 3753026
-359.57785 640.71973 2146.9673 3818563
-345.30054 639.19092 2141.8445 3884356
-331.34885 638.16553 2138.4087 3818820
-316.41107 635.07465 2128.0515 4015942
-302.08945 633.00287 2121.1091 4213321
-289.1329 633.73242 2123.554 4147528
-275.5137 633.00989 2121.1328 3884612
-262.03436 632.55182 2119.5977 3752770
-252.1841 641.27295 2148.8213 4016196
-238.81209 641.51746 2149.6406 3818817
-223.35414 635.85291 2130.6594 3753025
-210.0049 635.85291 2130.6594 3753024
-195.62019 632.50488 2119.4407 3687232
-181.96504 631.19995 2115.0679 3950403
-168.71349 631.19995 2115.0679 3818560
-157.99959 641.5033 2149.593 3752767
-144.85448 642.93579 2154.3931 3753024
-130.88318 640.61884 2146.6294 3752767
-117.33738 640.09247 2144.8655 3884097
-103.89585 640.07227 2144.7979 3621181
-90.246521 638.57568 2139.783 3555132
-76.766449 637.9635 2137.7317 3291960
-63.610649 640.35681 2145.7515 2963252
-50.367142 642.91351 2154.3184 3160374
-36.666622 639.37286 2142.4543 2699823
-23.293316 640.74365 2147.0476 2962996
-9.8413954 640.74365 2147.0476 3028788
3.5962954 638.21869 2138.5867 3094581
17.224886 646.84381 2167.4885 3161143
30.651136 643.61566 2156.6714 3160887
43.935959 640.30176 2145.5669 3424059
56.535339 630.8916 2114.0347 3489852
69.830078 631.34058 2115.5391 2831922
84.148888 639.42798 2142.6389 3029301
97.573189 639.42798 2142.6389 2963508
111.06508 639.81732 2143.9436 2963252
124.33956 639.00537 2141.2229 2962995
137.76125 639.03442 2141.3203 3094581
151.13322 638.84814 2140.696 2962995
164.40401 638.29944 2138.8574 3094326
177.87732 638.56049 2139.7319 2831666
191.11177 637.98749 2137.812 2634030
205.53482 641.19757 2148.5686 3029047
218.13898 638.68762 2140.158 2962998
233.76736 644.81006 2160.6736 2436654
247.30466 644.81006 2160.6736 2436651
260.03619 642.81818 2153.999 2699823
273.3963 642.50006 2152.9331 2962995
285.36697 639.10016 2141.5403 2897202
300.48004 642.72717 2153.6941 2831666
313.9736 642.72717 2153.6941 2963252
324.72137 637.33795 2135.6355 3620925
332.88281 627.49988 2102.6694 3620924
347.9371 630.90961 2114.095 3094581
367.3172 641.62555 2150.0027 3226167
384.10696 647.21863 2168.7444 3357753
393.41663 640.25616 2145.4141 3226167
408.49637 642.83392 2154.0518 3423546
421.99219 642.83392 2154.0518 3357753
435.13876 642.31842 2152.3245 3423546
449.01804 642.88293 2154.2161 3160374
466.48752 648.40485 2172.7192 3028788
481.39172 650.14905 2178.5637 2962995
495.04111 650.14905 2178.5637 2568237
506.45337 647.28986 2168.9829 2568237
519.3913 646.47894 2166.2659 3094581
529.71692 642.54071 2153.0693 2765616
541.24231 640.21735 2145.2839 2699823
551.79407 636.88269 2134.1101 2502444
570.323 642.69531 2153.5874 2305065
583.81592 642.69531 2153.5874 2502700
588.19562 632.88971 2120.73 2699823
602.3114 633.76166 2123.6519 2765616
617.97272 636.18713 2131.7793 2962995
628.84796 633.68695 2123.4016 3028788
641.1842 632.73224 2120.2024 2897202
650.47894 628.87573 2107.2798 3029301
670.63483 635.46423 2129.3569 2766385
689.93524 641.00085 2147.9094 2700336
714.08124 650.74139 2180.5488 2897715
728.93219 651.80481 2184.1121 3226680
738.9295 648.56879 2173.2686 3029558
751.28308 647.48065 2169.6223 2963254
760.53754 643.80768 2157.3147 3292219
770.10376 640.52234 2146.3059 2963254
784.53333 641.32532 2148.9966 2699825
800.24091 643.12823 2155.0381 3160376
817.88898 646.40509 2166.0183 3160376
835.03076 649.18127 2175.321 2897204
842.94012 644.80597 2160.6599 2765618
851.47241 641.03802 2148.0339 3028790
862.25116 639.05225 2141.3799 3160376
880.95172 642.90863 2154.302 3884099
891.66992 640.91095 2147.6082 4542029
903.89435 640.03925 2144.6873 3423548
923.7251 644.50024 2159.6355 2436910
923.26929 634.88245 2127.4075 2634289
943.38116 639.48035 2142.8145 3357755
957.26965 639.78986 2143.8516 3291962
969.56671 639.04193 2141.3452 3094581
982.36951 638.64307 2140.0088 3028788
998.25293 640.23083 2145.3291 3160374
1012.8217 640.94446 2147.7205 3094581
1032.0356 644.54034 2159.7698 3094581
1041.4919 642.0282 2151.3518 3357753
1053.1594 640.92572 2147.6577 3094581
1065.8441 640.46246 2146.1052 3291960
1073.4325 636.98639 2134.4575 3226167
1089.1554 638.36371 2139.0728 3028788
1105.9703 640.33978 2145.6943 3094581
1124.7472 643.39069 2155.9175 3226167
1135.3495 641.74854 2150.4148 3489339
1148.8125 641.74292 2150.396 3884097
1157.4338 639.06421 2141.4199 3357754
1174.8076 641.22406 2148.6572 3160631
1166.2864 629.36127 2108.9067 3159348
1180.3167 629.79742 2110.3682 2700080
1204.8568 635.76959 2130.3801 2699823
1218.2042 635.76959 2130.3801 3291960
1246.1089 643.28448 2155.5615 3423546
1259.7505 643.35406 2155.7947 3489339
1268.4497 640.92493 2147.655 3555132
1280.6886 640.31659 2145.6165 3555132
1296.2386 641.35907 2149.1099 3620925
1309.7035 641.35907 2149.1099 3620927
1324.3174 641.91608 2150.9763 3620927
1336.2391 641.17004 2148.4763 3555134
1355.7546 644.04626 2158.1143 3423548
1357.1544 638.34491 2139.0098 3226169
1361.5435 634.14722 2124.9438 3291962
1375.8724 634.61566 2126.5134 3094583
1398.6774 638.94708 2141.0276 3226169
1415.0651 640.29254 2145.5359 3357755
1406.7842 630.5556 2112.9087 3357755
1425.7485 633.09839 2121.4292 3160376
1448.0027 637.0415 2134.6421 3226169
1462.595 637.57245 2136.4214 3094583
1481.3076 639.87366 2144.1323 2897204
1501.3038 642.68304 2153.5461 3357755
1514.6888 642.63733 2153.3931 3489341
1524.2418 640.98102 2147.843 3489341
1553.4279 647.5376 2169.8132 3686720
1567.6891 647.81311 2170.7363 3686720
1591.0874 651.82715 2184.1868 3555134
1603.4883 651.30566 2182.4395 3752513
1612.6366 649.48309 2176.3323 3291962
1617.2107 645.86432 2164.2063 3226169
1620.9128 641.96033 2151.1245 3160376
1654.37 649.80804 2177.4211 3028790
1667.3892 649.56531 2176.6077 3357755
1681.0261 649.56531 2176.6077 3555134
1692.4766 648.72711 2173.7991 3292220
1705.1064 648.35083 2172.5381 3422522
1722.1007 649.62683 2176.814 3422778
1736.9026 650.06226 2178.2729 3291192
1749.058 649.50812 2176.4163 3225399
1768.4349 651.62354 2183.5046 3159606
1786.2638 653.14044 2188.5876 3225399
1795.3567 651.46436 2182.9712 3159606
1805.8169 650.30591 2179.0894 3159606
1825.4874 652.45679 2186.2966 3093813
1835.09 651.00397 2181.4285 2962227
1859.6482 654.83899 2194.2791 3159606
1873.396 654.83899 2194.2791 3291192
1883.7988 653.67822 2190.3896 3356985
1905.6217 656.46838 2199.739 3093813
1919.4036 656.46838 2199.739 2765105
1930.4205 655.52936 2196.5925 2896435
1954.897 659.14191 2208.6978 3356985
1968.7352 659.14191 2208.6978 3488571
1981.2781 658.71124 2207.2546 3225400
1987.7922 656.29614 2199.1619 3159606
2002.6232 656.6413 2200.3184 2962227
2018.8452 657.43463 2202.9768 2896434
2032.2782 657.31519 2202.5767 2896434
2043.3589 656.44159 2199.6494 2830641
2056.2703 656.164 2198.719 3094070
2065.0508 654.58057 2193.4133 3093813
2077.033 654.02637 2191.5562 3028020
2088.9346 653.45422 2189.6389 2962227
2094.2271 650.83551 2180.864 2962484
2102.6748 649.22498 2175.4673 3093813
2107.9609 646.66534 2166.8904 3093813
2128.0032 648.63617 2173.4944 3093813
2141.6208 648.63617 2173.4944 3028020
2151.1133 647.39478 2169.3345 2830641
2157.1018 645.12091 2161.7151 2764848
2170.6458 645.12091 2161.7151 2764848
2173.2883 641.90112 2150.926 2830641
2187.7593 642.19312 2151.9045 3028020
2211.7288 645.25256 2162.1565 3159606
nan nan nan 16777215
nan nan nan 16777215
nan nan nan 16777215
nan nan nan 16777215
nan nan nan 16777215
nan nan nan 16777215
nan nan nan 16777215
nan nan nan 16777215
nan nan nan 16777215
nan nan nan 16777215
-1873.1444 625.01965 2051.5164 3160633
-1869.6401 628.16077 2061.8264 3094840
-1860.1824 629.3313 2065.6687 3094840
-1851.6235 630.82465 2070.5703 3029047
-1838.6508 630.82465 2070.5703 3160633
-1827.6328 631.50012 2072.7874 3160633
-1818.4119 632.81061 2077.0889 2963254
-1802.5143 631.79968 2073.7708 2897461
-1807.2416 638.05591 2094.3057 3226426
-1796.0289 638.73474 2096.5337 3424062
-1778.0306 636.99261 2090.8154 3291962
-1763.2112 636.37189 2088.7781 3226169
-1748.5642 635.80457 2086.916 3160376
-1726.1062 632.36719 2075.6333 3160119
-1716.4242 633.59363 2079.6589 3094583
-1703.3945 633.59363 2079.6589 3094326
-1685.2592 631.67987 2073.3774 3094583
-1665.703 629.19965 2065.2366 2831411
-1652.7544 629.19617 2065.2251 2963252
-1638.3265 628.625 2063.3503 3094581
-1622.1356 627.36292 2059.2078 3094581
-1602.099 624.5813 2050.0776 2897202
-1590.0085 624.87756 2051.05 2765616
-1574.2251 623.71552 2047.2357 2765873
-1560.1234 623.20618 2045.564 2699823
-1541.0835 620.6994 2037.3359 2831153
-1528.5244 620.78284 2037.6099 2831409
-1515.7582 620.78284 2037.6099 2962995
-1497.4563 618.49646 2030.1052 2897202
-1483.827 618.11737 2028.8608 2831409
-1480.4581 622.04279 2041.7455 2896944
-1456.4982 617.30957 2026.2095 3093554
-1446.2864 618.37122 2029.694 2896688
-1435.343 619.13611 2032.2047 2962225
-1422.0449 618.88995 2031.3967 3291191
-1417.2184 622.3595 2042.7848 2962738
-1411.076 625.3092 2052.4668 2699566
-1387.3257 620.43854 2036.4796 2831409
-1372.8579 619.6673 2033.9482 2831665
-1361.9127 620.48657 2036.6373 2831409
-1354.2369 622.82483 2044.3124 2962995
-1352.1774 627.81555 2060.6934 2897202
-1344.8198 630.41876 2069.238 3160374
-1330.4779 629.76672 2067.0979 3423546
-1317.8071 629.9007 2067.5376 3489339
-1314.6108 634.61096 2082.9983 3160374
-1295.0377 631.43079 2072.5598 3291960
-1278.7072 629.7832 2067.1519 3291960
-1263.0632 628.44342 2062.7544 3160374
-1250.9023 628.82697 2064.0132 3160374
-1242.8959 631.32874 2072.2249 3423546
-1227.5413 630.11139 2068.2292 3357753
-1236.7551 641.61401 2105.9844 3160374
-1219.3839 639.42389 2098.7957 2568237
-1195.6642 633.82062 2080.4041 2699823
-1179.6567 632.22729 2075.1741 2962995
-1170.6903 634.414 2082.3516 3686718
-1155.6581 633.32581 2078.7798 3884354
-1140.5045 632.14557 2074.906 3686718
-1128.1702 632.51874 2076.1309 3555388
-1116.6683 633.3728 2078.9341 3949890
-1104.3562 633.78198 2080.2771 4147269
-1092.5262 634.48096 2082.5715 3949890
-1083.8105 637.02728 2090.9294 3686718
-1071.2717 637.36139 2092.0259 3489596
-1061.3925 639.30566 2098.4077 3423546
-1047.9969 639.15424 2097.9106 3423546
-1031.0753 636.82104 2090.2524 3620925
-1018.5103 637.15326 2091.3428 3620925
-1019.8392 646.29913 2121.3625 3291960
-1001.0118 642.74426 2109.6943 3423546
-987.4118 642.49567 2108.8782 3357753
-992.97363 654.87769 2149.52 3620925
-972.57062 650.24072 2134.3 3818304
-944.00555 639.94135 2100.4941 3752511
-930.84534 639.94135 2100.4941 3752768
-918.19092 640.29401 2101.6519 3686718
-909.58148 643.51886 2112.2368 3686718
-900.97589 646.84161 2123.1431 3818304
-887.95343 647.04541 2123.812 3555132
-874.64709 647.04541 2123.812 3555388
-859.85193 645.927 2120.1411 3686974
-856.28955 653.34406 2144.4861 3160887
-839.8432 651.0105 2136.8267 3029301
-817.13489 643.66858 2112.7283 3358266
-805.12115 644.64795 2115.9429 3095094
-791.86407 644.64795 2115.9429 3292473
-778.28741 644.3833 2115.0742 3490109
-769.2569 647.93872 2126.7441 3621184
-759.68237 651.15314 2137.2949 3753540
-743.14594 648.40857 2128.2864 4148041
-727.58563 646.43085 2121.7949 3621697
-720.36646 651.92828 2139.8394 3753283
-700.18671 645.6825 2119.3386 3687490
-685.77374 644.61597 2115.8379 3621954
-675.73981 647.70471 2125.9761 3884869
-658.70929 644.07654 2114.0674 4016455
-642.25427 640.87378 2103.5547 3819076
-634.51752 646.41846 2121.7542 3884869
-621.33118 646.52997 2122.1201 3950919
-605.34503 643.66919 2112.7302 3753026
-593.64569 645.3407 2118.2166 3292475
-577.41559 642.0506 2107.4175 3621184
-563.15942 640.85291 2103.4861 3818563
-545.43164 635.55243 2086.0884 3424058
-534.25916 637.81775 2093.5239 3226680
-522.77271 639.81287 2100.0725 3358266
-509.98062 640.27179 2101.5789 3358266
-497.99738 641.79742 2106.5864 3358266
-488.02023 646.06183 2120.5837 3555389
-472.64786 643.22272 2111.2646 3292730
-460.0928 644.16449 2114.356 3291960
-447.18069 644.6474 2115.9409 3555134
-429.91824 638.69684 2096.4094 3752770
-421.35165 645.69714 2119.3867 3752770
-408.07306 645.69714 2119.3867 3950149
-390.14795 638.09772 2094.4429 4213321
-380.49744 643.97363 2113.7295 3884356
-366.76312 643.11237 2110.9026 3818563
-351.32498 639.0874 2097.6912 3950149
-337.14325 637.12378 2091.2461 3752770
-323.41953 635.90198 2087.2356 3489598
-309.24326 633.64984 2079.8435 3686977
-294.96124 630.97345 2071.0586 4015942
-282.73175 632.64349 2076.5403 3884356
-269.72159 632.64349 2076.5403 3358012
-256.96622 633.27142 2078.6013 3555648
-243.94313 633.27142 2078.6013 3555645
-229.97841 630.68903 2070.1252 3292473
-217.54865 632.25909 2075.2786 3753024
-204.54639 632.25909 2075.2786 4016196
-191.38383 631.73004 2073.542 3555645
-177.66469 629.15283 2065.0828 4016196
-166.07901 634.31934 2082.041 3292217
-152.25746 631.09906 2071.4709 3094838
-139.2431 630.93616 2070.9363 3489339
-128.67337 642.95514 2110.3865 3818304
-115.45116 642.95514 2110.3865 3818304
-102.08791 642.06818 2107.4751 3357753
-88.873268 641.99127 2107.2227 2699823
-75.401878 639.70917 2099.7322 2633774
-62.380878 641.09113 2104.2681 2765103
-49.522358 645.33105 2118.1851 2831409
-36.25127 645.33105 2118.1851 3291960
-22.832001 641.1698 2104.5264 3292217
-9.6985598 644.63055 2115.8857 2634286
3.5492656 643.02625 2110.6199 2568493
16.728666 641.32837 2105.0469 2502700
29.914082 641.25647 2104.8108 2897459
43.031052 640.21021 2101.3767 3029044
55.97543 637.68799 2093.0979 2963251
68.777618 634.81085 2083.6543 2897715
81.745621 634.138 2081.4458 3094838
95.264778 637.33752 2091.9478 3226167
108.97469 640.88507 2103.5918 3357753
122.00612 640.10742 2101.0393 2897201
135.06946 639.63226 2099.4797 3094581
148.58315 641.185 2104.5762 3160374
161.41965 639.80035 2100.0315 3094581
174.64948 640.06598 2100.9033 2962997
188.85121 643.60663 2112.5249 3028790
201.61623 642.10791 2107.6055 2962998
213.82281 639.12421 2097.812 2634032
227.16368 639.68011 2099.6367 2568496
242.05585 644.3045 2114.8154 2634030
253.39966 639.49396 2099.0256 2634030
267.11465 640.84698 2103.4668 2831409
281.246 643.0246 2110.6145 2699823
294.46964 643.0246 2110.6145 2502444
308.30652 644.30615 2114.8208 2568237
321.40616 644.00482 2113.8318 2897202
332.06253 639.02551 2097.4883 2962995
342.77197 634.52356 2082.7112 2897202
357.28903 637.14178 2091.3052 3094581
371.22375 638.57306 2096.0032 3423546
383.13327 636.54181 2089.3359 3357753
396.65378 637.23291 2091.6042 3226167
411.52515 639.98059 2100.623 3423546
424.96164 640.39563 2101.9854 3555132
438.13123 640.39563 2101.9854 3094581
454.87601 645.46881 2118.6372 2634030
465.88806 642.35028 2108.4011 2699823
485.64221 651.12457 2137.2012 2897459
495.20795 646.13452 2120.8223 3291960
502.27954 638.2359 2094.8965 3620925
510.70245 632.41309 2075.7839 3423546
526.67163 635.99207 2087.5312 3357753
539.75067 635.99207 2087.5312 3357753
546.42444 628.62317 2063.3442 2962995
560.0329 629.38855 2065.8564 2765616
572.49738 628.86261 2064.1301 2765616
585.42981 628.86261 2064.1301 2962995
600.54523 631.15692 2071.6609 3094581
611.14856 628.71234 2063.637 3489339
624.56256 629.20062 2065.2397 3094581
638.09155 629.78253 2067.1497 2963252
651.19104 629.92584 2067.6201 3226424
670.74078 636.18152 2088.1533 3029045
690.1416 642.05927 2107.4458 2962995
705.35876 643.89722 2113.4785 2897202
715.20129 640.85144 2103.4814 2634030
721.41473 634.7229 2083.3657 3094327
734.06836 634.37793 2082.2332 3554877
752.15021 638.65399 2096.2688 3226169
768.78497 641.57568 2105.8586 2765875
776.33563 636.94568 2090.6616 3160633
792.638 639.53058 2099.146 3094583
807.96948 641.26056 2104.8242 2897204
821.15686 641.26056 2104.8242 2963254
834.90497 641.69147 2106.2388 3094070
847.24323 641.0423 2104.1079 2567982
851.08295 634.08142 2081.26 2304810
861.11487 631.87433 2074.0156 2634288
882.76514 638.13153 2094.5537 2568239
896.79865 638.78003 2096.6824 2502446
917.54712 644.12372 2114.2222 3160376
923.11902 638.81299 2096.7905 3357755
932.49146 636.24438 2088.3596 3357756
950.43402 639.51343 2099.0896 3423547
960.36658 637.37701 2092.0774 3423546
970.71423 635.57007 2086.1462 3423546
990.53259 639.92957 2100.4556 3423546
1002.9405 639.45007 2098.8816 3423546
1015.3486 638.98309 2097.3489 3357753
1028.4891 638.98309 2097.3489 3357753
1044.8319 640.94751 2103.7966 3423546
1056.2391 639.87299 2100.2698 3226167
1068.8007 639.51556 2099.0967 2962995
1081.9094 639.4903 2099.0137 3226167
1100.9685 642.94049 2110.3384 3226167
1114.1904 642.94049 2110.3384 3489339
1132.8431 646.03754 2120.5039 3028788
1135.5118 640.0531 2100.8611 2568237
1150.3414 640.98199 2103.9099 3292217
1160.51 639.32208 2098.4617 3356726
1172.6119 638.75256 2096.5923 2568494
1185.0244 638.36292 2095.3132 2897202
1197.7504 638.14886 2094.6106 3160374
1216.5568 641.14386 2104.4412 3226167
1229.4172 640.97467 2103.886 3226167
1241.8822 640.6051 2102.6729 3423546
1253.9052 640.01758 2100.7444 3620925
1274.4293 643.73645 2112.9509 3818304
1283.3459 641.57593 2105.8594 3818306
1294.87 640.74963 2103.1472 3686720
1307.0782 640.27521 2101.5901 3621183
1327.9606 644.01678 2113.8711 3489341
1329.3571 638.32788 2095.1982 3357755
1330.4451 632.60345 2076.4089 3160376
1345.6046 633.61603 2079.7324 3028790
1357.6067 633.13654 2078.1587 3160376
1368.0117 631.92847 2074.1934 3226427
1380.6648 631.77173 2073.679 3424062
1384.6091 627.67023 2060.2163 2896691
1411.9271 634.14227 2081.4597 2502446
1424.9683 634.14227 2081.4597 2896948
1435.924 633.22266 2078.4414 2896948
1464.2899 639.92834 2100.4514 3094840
1479.6301 640.87262 2103.551 3620927
1497.9646 643.08575 2110.8152 3752513
1522.4875 647.89362 2126.5962 4015685
1535.7614 647.87256 2126.5269 4213064
1560.9825 652.84857 2142.8599 4278857
1564.869 648.89301 2129.8765 3884099
1578.2134 648.89301 2129.8765 3028790
1584.5468 646.03461 2120.4941 2897204
1604.1359 648.58319 2128.8596 3291962
1608.745 645.08313 2117.3711 3818306
1617.4727 643.27814 2111.4468 3818306
1636.3589 645.50989 2118.772 3620927
1642.1056 642.56415 2109.103 3423548
1663.7653 645.84253 2119.8638 3554108
1682.3773 647.89526 2126.6016 3554361
1692.4343 646.64709 2122.5046 3225396
1705.1167 646.4137 2121.7385 3028019
1718.5723 646.47467 2121.9387 3093812
1731.4224 646.30878 2121.394 3225398
1751.4713 648.81207 2129.6108 3225398
1757.8285 646.24396 2121.1814 3093814
1773.5687 647.13806 2124.1162 3093814
1791.1962 648.70227 2129.2505 3093813
1804.325 648.62616 2129.0007 3225399
1815.825 647.97003 2126.8469 3093813
1856.1077 657.51959 2158.1917 3159606
1869.6294 657.51959 2158.1917 3159606
1866.9346 651.85748 2139.6067 2830641
1883.0619 652.80103 2142.7039 2896434
1919.094 660.58295 2168.2466 3291192
1909.424 652.63446 2142.1572 3159606
1921.941 652.32758 2141.1499 2896434
1941.7792 654.49261 2148.2561 3028277
1953.3473 653.85944 2146.178 3028020
1966.7938 653.85944 2146.178 2962227
1980.739 654.02417 2146.7185 3028277
1988.6038 652.19244 2140.7063 3093813
1997.6906 650.78339 2136.0813 2896434
2009.9103 650.40686 2134.8455 2962227
2032.9224 653.50464 2145.0134 2830641
2029.7396 648.19647 2127.5901 3028020
2055.6221 652.17889 2140.6619 3159606
2069.0342 652.17889 2140.6619 3225399
2052.4109 642.77252 2109.7871 3159863
2067.9961 643.50903 2112.2046 3159606
2083.564 644.23077 2114.5735 2962227
2093.48 643.20691 2111.2129 2830641
2096.9312 640.22211 2101.4158 2830641
2108.8333 639.83862 2100.157 2699055
2112.4739 636.96881 2090.7373 3028020
2119.9954 635.29742 2085.2512 3291192
2131.3298 634.7821 2083.5598 3225399
nan nan nan 16777215
nan nan nan 16777215
nan nan nan 16777215
nan nan nan 16777215
nan nan nan 16777215
nan nan nan 16777215
nan nan nan 16777215
nan nan nan 16777215
nan nan nan 16777215
nan nan nan 16777215
nan nan nan 16777215
-1838.3319 630.27625 2027.2999 2897461
-1813.0869 625.94592 2013.3711 2963254
-1806.9325 628.19165 2020.5947 2831668
-1793.5968 627.95496 2019.8334 2700082
-1780.9418 627.95496 2019.8334 2765875
-1768.7449 628.11755 2020.3563 2634289
-1763.3016 630.69824 2028.6572 2634289
-1747.1178 629.44672 2024.6317 2700082
-1734.9827 629.6463 2025.2736 2634289
-1725.6886 630.88739 2029.2656 2634289
-1715.8613 631.95056 2032.6853 2634546
-1691.311 627.56665 2018.5844 2831668
-1674.5038 626.01129 2013.5815 2766132
-1658.6562 624.79395 2009.6659 2700082
-1649.9783 626.27924 2014.4434 2700082
-1635.2643 625.4787 2011.8685 2502960
-1622.6592 625.4787 2011.8685 2699565
-1601.1093 622.00378 2000.6912 2765359
-1587.1448 621.44403 1998.8907 2831409
-1585.4771 625.72845 2012.6718 2634286
-1561.1345 621.06097 1997.6587 2502701
-1539.451 617.38434 1985.8328 2437164
-1520.642 614.81006 1977.5525 2502957
-1508.2521 614.81006 1977.5525 2437165
-1493.1066 613.67755 1973.9097 2305579
-1487.5698 616.50836 1983.015 2239785
-1477.9698 617.68866 1986.8115 2305065
-1457.665 614.37714 1976.16 2436907
-1450.8984 616.76392 1983.8372 2699823
-1441.0424 617.86725 1987.386 2962995
-1430.4983 618.69226 1990.0396 3160374
-1413.7322 616.81702 1984.0081 2897202
-1399.3574 615.96118 1981.2551 3357753
-1386.1331 615.60095 1980.0964 3226167
-1391.4568 623.54608 2005.6521 2831666
-1376.6738 622.54358 2002.4275 2568237
-1361.938 621.54407 1999.2125 2634286
-1347.4183 620.62561 1996.2584 2765616
-1336.2029 621.2262 1998.1902 2897202
-1326.9492 622.75885 2003.1199 2831666
-1332.063 631.12793 2030.0393 2502444
-1320.7277 631.78973 2032.1681 3028788
-1307.9955 631.78973 2032.1681 3555132
-1285.1547 626.85901 2016.3082 3357753
-1272.5217 626.85901 2016.3082 3028788
-1257.4954 625.66815 2012.4777 3357753
-1248.528 627.49823 2018.3643 3291960
-1237.9569 628.55157 2021.7524 2897459
-1225.29 628.55157 2021.7524 3094581
-1218.8928 631.80139 2032.2056 3423546
-1205.496 631.45337 2031.0861 3423546
-1195.7693 633.04089 2036.1924 3686718
-1184.4734 633.82294 2038.7079 3884097
-1167.5084 631.55536 2031.4142 3884097
-1149.2001 628.50323 2021.5968 3555132
-1136.5342 628.50323 2021.5968 3620925
-1129.0189 631.38354 2030.8616 4147269
-1123.1711 635.27283 2043.3716 4081476
-1109.3834 634.70905 2041.558 3752511
-1101.5023 637.5509 2050.699 3686718
-1086.8231 636.47864 2047.25 3949890
-1067.041 632.35669 2033.9917 3752511
-1051.0353 630.40002 2027.698 3489339
-1044.569 634.18726 2039.8798 3555132
-1038.1075 638.07129 2052.3728 3686718
-1027.8885 639.71411 2057.657 3555132
-1008.4446 635.58453 2044.3743 3686718
-997.1955 636.58008 2047.5764 3884097
-986.8631 638.19446 2052.769 3686718
-977.65826 640.59027 2060.4751 3620925
-966.22632 641.57135 2063.6309 3555132
-954.05841 642.0838 2065.2791 3489339
-947.18182 646.22034 2078.5845 3752767
-926.86609 641.17542 2062.3574 4081476
-911.38959 639.38287 2056.5916 4147269
-897.80237 638.8833 2054.9846 3949890
-887.99506 641.09814 2062.1086 3555132
-878.59406 643.67596 2070.4004 3226167
-865.62231 643.67596 2070.4004 3292217
-852.27795 643.39465 2069.4956 3424060
-840.45514 644.271 2072.3145 3490109
-829.28998 645.68689 2076.8687 3358266
-817.02472 646.27777 2078.7693 3226680
-806.40875 648.21356 2084.9956 3555645
-793.89709 648.66418 2086.4451 3226680
-779.67834 647.71167 2083.3813 3424059
-758.46259 640.81506 2061.1982 3621182
-747.26013 642.28625 2065.9304 3358269
-736.70319 644.37384 2072.6453 3753283
-727.0155 647.31036 2082.0906 3819076
-712.65881 646.12103 2078.2651 3490111
-698.0481 644.65302 2073.543 3621697
-682.89484 642.61859 2066.9993 3621697
-670.43573 643.08984 2068.5151 3687490
-657.47589 643.08984 2068.5151 3490111
-642.67938 641.25726 2062.6206 4213834
-625.06055 636.47559 2047.2404 3621954
-617.25226 641.69269 2064.021 3687490
-606.37183 643.87091 2071.0273 3621184
-594.41296 644.97412 2074.5759 3358012
-577.13763 640.229 2059.3132 3489598
-568.43091 644.98956 2074.6257 3621184
-553.09644 642.27661 2065.8994 4015943
-536.10059 637.45813 2050.4006 3819073
-518.04254 631.10907 2029.9785 3160887
-510.48856 637.55896 2050.7249 3358266
-498.14236 638.20245 2052.7947 3424059
-485.06848 637.92297 2051.8958 3029301
-471.68347 637.20801 2049.5959 2963252
-459.37708 637.95087 2051.9856 3160374
-448.26538 640.44348 2060.0029 3226166
-439.61783 646.7088 2080.1555 3489339
-426.19669 646.12006 2078.262 3620925
-413.51379 646.64874 2079.9624 3094581
-398.5614 643.5473 2069.9866 3291960
-384.79547 642.21741 2065.709 3884097
-371.85318 642.21741 2065.709 3752511
-355.62323 636.33472 2046.7871 3555134
-342.44269 635.67242 2044.6567 3489598
-328.81448 634.0954 2039.5841 3423805
-315.16937 632.35681 2033.9921 3226683
-304.07397 635.8031 2045.0771 2963254
-288.85095 630.54224 2028.1555 3423805
-276.14392 630.54224 2028.1555 3358012
-264.86606 633.96301 2039.1583 2963254
-248.48137 624.88763 2009.9673 3555392
-238.03799 630.5824 2028.2847 3489852
-227.42307 636.43933 2047.1237 3687487
-211.92477 628.51361 2021.6302 3753024
-198.96065 627.57373 2018.6071 4213575
-187.09654 630.21143 2027.0913 4213575
-174.39618 630.21143 2027.0913 4279368
-159.73766 622.57941 2002.5428 4016196
-150.4341 636.29645 2046.6639 2896946
-137.8299 637.30811 2049.918 3160374
-125.90837 642.00854 2065.0371 3291960
-113.11801 642.84821 2067.7378 2831409
-100.18925 643.01666 2068.2798 3160117
-88.753899 654.24384 2104.3923 2699052
-74.653786 646.31836 2078.8999 2370088
-61.420189 644.13019 2071.8616 2567723
-48.638229 646.77515 2080.3689 2831665
-35.802773 650.38464 2091.979 3028788
-22.538252 645.86774 2077.4502 3028788
-9.5429316 647.26141 2081.9331 2634030
3.4989789 646.88306 2080.7161 2173479
16.549244 647.42816 2082.4695 2634287
29.587273 647.22498 2081.8159 2963251
42.292362 642.09137 2065.3035 3028788
54.739532 636.36481 2046.8838 2831665
67.073692 631.74774 2032.033 3028788
80.227158 635.08948 2042.7817 3884097
92.042282 628.37488 2021.1841 3357496
105.94917 635.83783 2045.1888 3291960
119.33879 638.9209 2055.1057 3226168
131.84587 637.13873 2049.3733 3028791
144.95566 638.32703 2053.1953 3094583
158.28209 640.19775 2059.2126 2962998
171.48604 641.32849 2062.8496 2765617
185.83852 646.29498 2078.8245 3291960
196.96596 640.12964 2058.9937 3226167
211.24428 644.33313 2072.5142 2436908
224.15182 644.11066 2071.7986 2502444
236.44142 642.23413 2065.7627 2831409
249.38406 642.23413 2065.7627 2765616
261.72232 640.75446 2061.0032 2634030
274.63513 640.75446 2061.0032 2831409
287.86465 641.46021 2063.2732 2831409
