# .PCD v0.7 - Point Cloud Data file format
VERSION 0.7
FIELDS x y z rgb
SIZE 4 4 4 4
TYPE F F F U
COUNT 1 1 1 1
WIDTH 1283
HEIGHT 1
VIEWPOINT 0 0 0 1 0 0 0
POINTS 1283
DATA ascii
4175.5469 770.79395 12511.262 6715013
4253.9336 770.79395 12511.262 7043979
4251.0713 756.33832 12276.623 7043979
4866.5986 850.46332 13804.427 6781317
4953.0874 850.46332 13804.427 6518145
4834.2544 815.81378 13242.008 6582908
5733.1367 951.18213 15439.261 6254455
5922.0796 966.22699 15683.464 6056816
6052.377 971.36853 15766.919 5661798
6228.3521 983.55811 15964.776 5135453
6307.0044 980.23657 15910.862 4805973
6417.2246 981.84827 15937.022 4608594
7076.5425 1066.1364 17305.158 4411215
7006.978 1039.726 16876.473 4410702
6484.3174 947.8678 15385.464 4344909
5686.062 819.00482 13293.805 4607824
6195.5894 879.51257 14275.945 4608080
5945.937 832.06042 13505.718 4542288
5701.6782 786.68396 12769.183 4608594
5702.4902 775.90887 12594.285 4542545
5826.3706 781.94464 12692.256 4476752
5525.0308 731.51837 11873.754 4542290
5148.2231 672.57275 10916.969 4608082
5001.9775 644.89899 10467.778 4410703
4715.6943 600.12036 9740.9463 4279117
4776.7246 600.12036 9740.9463 4213071
4517.8496 560.43634 9096.8096 4213070
4245.0039 520.0296 8440.9414 4213070
4240.7012 513.11017 8328.627 4213070
3964.1565 473.81891 7690.8647 4147534
3834.1548 452.7767 7349.3149 4213070
3801.8623 443.63544 7200.9375 4147277
3697.2593 426.36981 6920.6875 4015948
3740.4587 426.35141 6920.3892 3949899
3673.2917 413.89771 6718.2446 4015691
3394.7048 378.17374 6138.3857 4015691
3294.4355 362.8924 5890.3442 4081229
3234.9158 352.38858 5719.8501 3950151
3225.9968 347.56665 5641.582 4277577
nan nan nan 16777215
3041.2571 320.63669 5204.4644 2171945
2888.2505 301.27518 4890.1948 132362
2925.209 301.92749 4900.7827 197641
2997.8689 306.21289 4970.3423 197641
3044.9104 307.82037 4996.4341 197641
3076.0984 307.80875 4996.2456 263434
3087.3013 305.81769 4963.9272 395020
3104.3262 304.43732 4941.5215 263434
3135.2864 304.43732 4941.5215 263434
3177.6982 305.53842 4959.394 329227
3103.4233 295.50726 4796.5723 1842722
2979.1421 280.95261 4560.3262 3815742
3029.2002 282.95969 4592.9043 4078913
3057.9763 282.95969 4592.9043 2762541
3055.5066 280.09546 4546.4126 1380887
3084.1599 280.11075 4546.6611 1315350
3093.3647 278.37558 4518.4966 1709339
3146.2434 280.56653 4554.0591 1775132
3099.522 273.91605 4446.1108 1643547
3065.1912 268.4693 4357.7012 1249303
3092.4934 268.4693 4357.7012 1446682
3122.5398 268.70544 4361.5342 3223349
3294.0161 281.00244 4561.1348 3881535
3992.2075 337.63388 5480.3564 4079427
4793.9346 401.98117 6524.8198 3751236
5333.8008 443.46838 7198.2261 3751492
5845.2983 481.92105 7822.3765 3751492
6431.459 525.83875 8535.2334 3620164
6810.0264 552.19916 8963.1064 3554627
8709.0205 700.40582 11368.745 3488834
14722.113 1174.3917 19062.322 3488834
14612.228 1156.2461 18767.789 3489089
14787.631 1160.7847 18841.457 3554881
inf inf inf 128
inf inf inf 128
inf inf inf 128
15914.119 1210.5559 19649.326 3686467
16037.229 1210.5559 19649.326 3554881
16041.763 1201.6736 19505.15 3489088
14809.467 1100.9762 17870.666 3291966
14883.443 1098.1731 17825.168 3488318
15366.795 1125.3927 18266.986 3488318
15781.388 1147.2113 18621.139 3356732
15942.824 1150.4419 18673.576 3422525
15745.708 1127.9407 18308.344 3290939
15664.391 1113.9999 18082.062 3356732
15558.439 1098.5201 17830.801 3290939
15670.154 1098.5201 17830.801 3159610
15672.511 1090.9081 17707.244 3159353
15288.93 1056.728 17152.445 3159353
15653.342 1074.3636 17438.699 3093559
15610.535 1063.9989 17270.465 3028023
15472.254 1047.3143 16999.645 2961462
16289.668 1095.1064 17775.391 2830134
16417.145 1096.1819 17792.848 2698548
16283.671 1079.9369 17529.162 2566705
16552.068 1090.3827 17698.717 2369327
16557.922 1083.5098 17587.156 2303534
16645.09 1082.0132 17562.865 2369326
16947.33 1094.4253 17764.334 2369326
17280.828 1108.6808 17995.725 2435119
18274.025 1164.8014 18906.654 2435375
18623.227 1179.4144 19143.85 2631987
19144.66 1204.6783 19553.924 2632242
19046.529 1190.8827 19329.998 2697778
19248.914 1195.9325 19411.963 2697779
19370.535 1195.9325 19411.963 2764084
inf inf inf 128
inf inf inf 128
inf inf inf 128
inf inf inf 128
nan nan nan 16777215
nan nan nan 16777215
nan nan nan 16777215
-14682.068 1040.8849 15343.194 4939379
-13737.779 980.35852 14451.002 4742000
-13808.13 991.91602 14621.367 4413292
-13636.439 986.12488 14536.002 4544622
-13191.665 960.37476 14156.432 4610414
-13006.238 953.28485 14051.922 4544621
-12931.451 954.26276 14066.338 4544621
-12469.746 926.5061 13657.189 4478828
-12319.828 921.69165 13586.223 4544621
-12074.267 909.60504 13408.06 4412778
-11596.577 879.73938 12967.824 4412778
-11054.787 844.55536 12449.191 4347241
-10592.168 814.96246 12012.978 4215655
-10312.818 799.14783 11779.861 4083812
-9976.7656 778.6795 11478.147 3886432
-9734.5693 765.2926 11280.817 3886175
-9379.9258 742.80511 10949.34 3688794
-9258.2539 738.57141 10886.933 3491928
-9144.917 734.9447 10833.474 3162962
-9016.2832 730.02527 10760.958 3294291
-9114.7148 743.55511 10960.396 3425877
-9059.5996 744.66925 10976.818 3425878
-8908.9893 737.89099 10876.903 3491670
-8840.8408 737.89099 10876.903 3557207
-8715.3945 733.07135 10805.859 3360084
-8650.9287 733.3457 10809.903 3359828
-8618.0859 736.32623 10853.838 3294290
-8705.1299 749.67877 11050.661 3294288
-8629.3467 749.11035 11042.283 3359824
-8516.377 745.2785 10985.799 3294287
-8501.082 750.00159 11055.42 3557201
-8369.5361 744.46179 10973.761 3425871
-8300.7812 744.46179 10973.761 3753807
-8236.5391 744.86981 10979.774 3688270
-8037.3662 732.97943 10804.505 3819856
-7938.1509 730.08038 10761.771 3687756
-7670.8965 711.54449 10488.542 3490376
-7429.1143 695.07147 10245.721 3359046
-7282.1724 687.2619 10130.604 3424837
-7020.8462 668.42499 9852.9375 3424582
-6801.0264 653.24054 9629.1113 3292996
-6525.334 632.36981 9321.4648 3227460
-6314.1938 617.43427 9101.3076 3227460
-6155.019 607.35425 8952.7227 3293253
-6020.0996 599.50427 8837.0098 3425096
-5910.4814 594.05157 8756.6338 3425097
-6280.3188 637.13733 9391.7412 3359561
-6259.5156 641.03284 9449.1631 3228231
-5724.0342 591.79169 8723.3223 3096901
-5863.9561 612.10229 9022.7119 3228744
-5807.4263 612.10229 9022.7119 4018260
nan nan nan 16777215
-6747.2285 725.27722 10690.97 3162437
-6293.0942 683.24402 10071.378 3096130
-6154.6445 674.98041 9949.5684 3096386
-6240.2871 691.37543 10191.239 3030336
-6422.8809 718.96185 10597.878 2964541
-6242.6738 706.08942 10408.132 3030078
-6314.1885 721.71722 10638.493 3161664
-6301.8989 727.99731 10731.065 2898748
-6234.6655 727.99731 10731.065 2701113
-6216.5957 733.8006 10816.608 3029822
-6093.7305 727.22546 10719.688 3227457
-6050.7861 730.14783 10762.765 3161664
-6066.0054 740.23376 10911.437 3292993
-6066.4927 748.73126 11036.695 3161663
-6004.8438 749.6676 11050.497 3226944
-5934.7559 749.55981 11048.908 3095614
-5845.4331 746.99152 11011.05 3226944
-5764.9336 745.50281 10989.105 3358786
-5729.1816 749.83472 11052.96 3490372
-5679.8467 752.47314 11091.852 3424323
-5748.6602 771.02325 11365.29 3424578
-5714.3574 776.03497 11439.166 3358784
-5677.3442 780.80133 11509.425 3424577
-5618.458 782.64337 11536.577 3424578
-5585.104 788.13647 11617.548 3556163
-5635.375 805.73102 11876.901 3621700
-5670.3115 821.57465 12110.444 3687492
-5657.1665 830.78693 12246.239 3753542
-5657.8032 842.30444 12416.013 3819335
-5673.1226 856.35925 12623.188 3622213
-5534.3374 847.22064 12488.48 3622213
-5315.1768 825.33917 12165.936 3688006
-5211.0806 820.94812 12101.209 3885385
-5155.8218 824.2348 12149.656 3951178
-5121.6499 831.0415 12249.991 4016714
-5104.9009 840.92542 12395.686 3951177
-5051.4478 844.97516 12455.38 3885642
-4962.4531 843.11334 12427.937 4148813
-4860.5171 838.95856 12366.692 4214863
-4879.9111 855.95074 12617.166 4214863
-4823.4165 859.97235 12676.446 4148813
-4904.7935 889.12122 13106.116 4017483
-4868.7339 897.61194 13231.274 3820104
-4790.8325 898.54901 13245.088 3622726
-4707.8481 898.54901 13245.088 3688007
-4483.9849 871.17822 12841.628 3885129
-4412.5781 872.96863 12868.02 3622213
-4331.9561 872.96863 12868.02 3556419
-4284.2251 879.72266 12967.576 3490627
-4215.8193 882.41003 13007.19 3556164
-4117.75 878.87231 12955.043 3424835
-3981.1743 866.80841 12777.215 3490884
-3908.4023 868.42633 12801.063 3424833
-3989.6484 905.0509 13340.93 3293247
-3971.75 920.27081 13565.278 3293248
-3975.209 941.21313 13873.979 3293504
-3874.5869 937.8974 13825.104 3359041
-3547.3879 878.33002 12947.049 3424834
-3594.1199 910.72607 13424.584 3425090
-3479.4644 902.80042 13307.755 3621443
-3396.0872 902.80042 13307.755 3818819
-3318.8525 904.47443 13332.432 3753282
-3302.7178 923.3161 13610.168 3556160
-3286.7749 943.21161 13903.438 3490367
-3252.2122 958.70154 14131.768 3490110
-3165.083 959.12903 14138.068 3424317
-3243.406 1011.1624 14905.068 3489598
-2980.4592 956.73279 14102.747 3621183
-3076.0715 1017.5917 14999.841 3621183
-2753.8608 939.7113 13851.841 3555134
-2641.2498 930.612 13717.714 3489597
-2623.8174 955.56384 14085.517 3489341
-2536.52 955.92297 14090.81 3358012
-2474.0679 966.00873 14239.479 3226169
-2284.6521 925.42139 13641.2 3226169
-2211.3496 930.53998 13716.65 3160633
-2120.2485 928.27991 13683.337 3160633
-1999.6943 912.39105 13449.126 3160634
-1909.6665 909.64502 13408.648 3160633
-2084.6931 1038.7112 15311.152 3160634
-1821.8339 951.52539 14025.987 3226170
-1733.9569 951.52539 14025.987 3160635
-1833.6401 1059.9457 15624.16 3160635
-1612.241 984.52429 14512.409 2897463
-1479.2736 957.31635 14111.349 2700084
-1409.1483 969.90289 14296.881 2765877
-1316.9659 967.98602 14268.625 2765876
-1216.7657 959.46741 14143.058 2831670
-1134.2731 964.67072 14219.756 2896950
-1047.9175 967.1955 14256.973 2896950
-956.79657 965.38293 14230.254 2896951
-867.25977 964.96021 14224.023 2962744
-791.896 982.01654 14475.442 2896951
-699.82123 980.08154 14446.921 2765365
-597.82764 961.61713 14174.744 2831158
-509.54175 962.60571 14189.317 2765365
-420.63901 962.60052 14189.241 2961974
-328.25647 952.49518 14040.283 3027767
-239.75301 950.36768 14008.922 2961974
-149.34106 933.84875 13765.425 2962231
-61.828541 915.08392 13488.82 3093559
22.721472 916.63171 13511.637 3093817
109.95875 938.67926 13836.628 3093560
186.86684 891.98297 13148.301 3093303
256.15552 848.61871 12509.089 3159353
323.53119 820.72034 12097.852 3290683
402.66101 827.57056 12198.827 3159353
452.37885 781.4295 11518.684 3225145
503.74704 750.44336 11061.932 3225145
572.27081 749.41846 11046.824 3159609
637.3421 744.58124 10975.521 3225658
681.12695 718.23999 10587.237 3160122
713.51099 685.61871 10106.383 3094329
755.9649 667.203 9834.9248 3160379
790.32416 644.9574 9507.0127 3225915
824.09796 625.38562 9218.5146 3357757
831.3479 589.56763 8690.5381 3423550
860.26587 572.57471 8440.0537 3489344
898.58429 563.4444 8305.4678 3621186
914.10876 541.80334 7986.4678 3621186
nan nan nan 16777215
nan nan nan 16777215
nan nan nan 16777215
nan nan nan 16777215
808.84589 376.39481 5548.2583 330780
867.76276 387.17224 5707.1235 593954
886.43311 379.85037 5599.1953 1054249
910.83246 375.44748 5534.2944 922921
958.91974 380.77368 5612.8057 593444
983.54895 376.7377 5553.313 527652
1010.5568 373.85745 5510.8564 527652
1040.3451 372.1622 5485.8677 725032
1069.7683 370.44897 5460.6138 725033
1098.0594 368.46204 5431.3252 725545
1121.7214 365.08789 5381.5889 725545
1148.6593 362.94574 5350.0122 660008
1180.6863 362.48755 5343.2583 725798
1203.5104 359.3071 5296.3765 726054
1292.6849 375.57465 5536.1689 660002
1372.0206 388.20819 5722.394 2239543
nan nan nan 16777215
2142.9109 576.21436 8493.7041 3949902
2197.7446 576.63892 8499.9629 3884363
2282.8997 584.81079 8620.4199 3818825
2139.801 535.4845 7893.3242 3950410
2255.7324 551.74469 8133.0078 4015946
2377.0339 568.57086 8381.0352 4016202
2509.4612 587.27344 8656.7207 4016202
3033.5295 694.89899 10243.178 4082508
3439.3394 771.53644 11372.855 4017230
3510.5938 771.53644 11372.855 4214611
3604.0981 776.32916 11443.502 4214099
3639.8162 768.73041 11331.492 4149076
3987.9697 826.1463 12177.834 4215128
3972.7986 807.55341 11903.764 4149593
4171.3374 832.28613 12268.338 4149595
4251.0713 832.84821 12276.623 4412766
4504.7231 866.85791 12777.943 4675937
4326.9009 818.09979 12059.224 4741733
4334.3213 805.43842 11872.588 4939369
5180.1099 946.36823 13949.967 5399920
5553.5469 997.75781 14707.478 5663093
5645.6938 997.75781 14707.478 5860216
5765.0986 1002.4977 14777.347 5992058
5705.2661 976.41266 14392.839 6189437
6179.0396 1041.041 15345.495 6781574
6275.0967 1041.0266 15345.282 6912904
5879.5913 960.69391 14161.136 6978696
5976.5356 962.01703 14180.64 6912903
6214.6929 985.69897 14529.725 6452349
5549.7256 867.5224 12787.739 6188921
5367.9507 827.16626 12192.868 5991540
5562.2329 845.07739 12456.888 5859439
5373.5249 805.10986 11867.745 5398886
5347.4258 790.2644 11648.915 4872542
5273.5625 768.85486 11333.327 4609111
4916.0693 707.21204 10424.68 4345940
4537.1255 644.14038 9494.9697 4213840
4383.5405 614.28156 9054.835 4213581
3988.1174 551.72906 8132.7778 4147531
4025.3606 549.85614 8105.1699 4476240
3850.4771 519.41479 7656.4487 4410704
3728.7195 496.80093 7323.1079 4344911
3734.0112 491.45859 7244.3594 4344911
3615.2688 470.11569 6929.7534 4279118
3631.6138 466.63712 6878.4775 4081739
3485.1885 442.57056 6523.7236 4081739
3490.6709 438.12854 6458.2461 4081740
3466.0898 430.05814 6339.2842 4081483
3343.5596 410.15515 6045.9038 4015690
3276.5334 397.43054 5858.3359 4146763
3236.5444 388.23099 5722.73 4081481
3225.9968 382.72589 5641.582 4277578
3229.6836 379.01059 5586.8164 4014662
3103.8455 360.33789 5311.5708 2303785
2889.2349 331.86472 4891.8613 198410
2921.4868 332.04691 4894.5469 197640
2988.5352 336.13904 4954.8672 197640
3043.4924 338.80112 4994.1074 263433
3050.8464 336.1637 4955.2305 263433
3069.99 334.86542 4936.0933 329227
3106.522 335.47076 4945.0166 395020
3116.7336 333.24994 4912.2803 263434
3128.3096 331.21698 4882.3135 263433
3150.437 330.32974 4869.2354 1250329
2988.9915 310.39615 4575.4033 3486778
3029.2002 311.5834 4592.9043 4144707
3061.677 311.96048 4598.4624 2828847
3067.4006 309.63004 4564.1104 1249815
3126.4819 312.67889 4609.0522 1578524
3091.1804 306.31915 4515.3062 1973282
3063.1279 300.78656 4433.7529 1841697
3118.1653 303.43918 4472.854 1447451
3146.1892 303.43918 4472.854 1513244
3139.1953 300.09164 4423.5098 3026227
3196.1157 302.85916 4464.3042 3947586
3568.3777 335.20068 4941.0352 4013892
4517.6484 420.72192 6201.6631 3816771
4610.5068 425.70822 6275.1646 3751234
5098.7188 466.8063 6880.9717 3619905
5408.3604 491.00351 7237.6514 3619905
5757.3105 518.33734 7640.5664 3554113
6331.8052 565.35895 8333.6895 3357248
6745.6919 597.38818 8805.8174 3357248
7062.6333 620.38214 9144.7607 3423041
7871.3716 685.85779 10109.906 3423552
8220.5352 710.5636 10474.083 3357502
8375.4775 718.2229 10586.985 3291709
10548.229 897.43573 13228.677 3357502
10737.114 906.38403 13360.58 3357502
12315.245 1031.5614 15205.76 3291966
13417.583 1115.2688 16439.652 3357502
12276.747 1012.6689 14927.275 3225916
14809.467 1212.349 17870.666 3160380
inf inf inf 128
16025.117 1292.3251 19049.555 3290939
16428.551 1315.0652 19384.756 3356732
16550.004 1315.0652 19384.756 3356732
15878.939 1252.5505 18463.258 3356732
15946.09 1248.7504 18407.24 3290939
15873.785 1234.1624 18192.205 3291196
15764.799 1216.9504 17938.494 3159353
16093.87 1233.5586 18183.307 3159353
15992.254 1217.1542 17941.496 3093560
16002.314 1209.4189 17827.475 3093303
15983.365 1199.6135 17682.938 3027510
15746.688 1173.7145 17301.172 2961974
15804.71 1169.9852 17246.201 2895924
15905.964 1169.4852 17238.832 2830388
15985.519 1167.4076 17208.205 2698802
16059.871 1164.9802 17172.424 2764082
16221.962 1168.9073 17230.312 2895668
16373.904 1172.056 17276.727 2829877
16752.383 1191.2726 17559.988 2961463
16964.711 1198.5005 17666.531 2829877
17789.166 1248.5989 18405.008 2698291
18560.244 1294.33 19079.107 2764085
18912.402 1310.4482 19316.701 2895668
19214.457 1322.9121 19500.424 2895667
19248.914 1316.9109 19411.963 2829875
19917.828 1354.1187 19960.426 2698289
inf inf inf 128
inf inf inf 128
inf inf inf 128
inf inf inf 128
nan nan nan 16777215
nan nan nan 16777215
nan nan nan 16777215
nan nan nan 16777215
-8928.7275 695.70795 9392.2783 3227208
-9447.1553 740.98633 10003.551 3358537
-9401.9775 742.36792 10022.202 3292743
-9384.6182 745.97937 10070.958 3161414
-9225.0273 738.2572 9966.707 3161669
-9150.1768 737.25763 9953.2119 3030339
-9016.4287 731.46625 9875.0264 3030082
-9005.8701 735.65765 9931.6123 3161669
-9152.2246 752.81433 10163.232 3161155
-9180.8271 760.45782 10266.422 3292741
-9108.9287 759.82593 10257.891 3292741
-9029.5332 758.55518 10240.735 3358533
-8965.373 758.55518 10240.735 3358532
-8902.2129 758.6405 10241.888 3358532
-8850.2256 759.6861 10256.004 3358276
-8828.3262 763.34869 10305.449 3358276
-8763.7598 763.34869 10305.449 3424069
-8689.6377 762.51019 10294.13 3292482
-8687.2119 767.99756 10368.211 3292482
-8791.6172 783.08313 10571.871 3029824
-8902.9326 799.01807 10786.997 3292739
-8855.5762 800.84717 10811.691 3424324
-8829.4102 804.6358 10862.839 3424068
-8744.6621 803.10309 10842.146 3358532
-8583.0381 794.43091 10725.069 3489861
-8591.5352 801.49225 10820.399 3424070
-8515.1299 800.68243 10809.467 3424070
-8447.4053 800.68243 10809.467 3358277
-8354.1885 798.24664 10776.583 3489863
-8122.2476 782.40802 10562.757 3358532
-8034.0767 780.27216 10533.922 3292482
-7873.3066 770.99164 10408.632 3292483
-7747.0967 764.96863 10327.319 3358275
-7579.3296 754.70624 10188.773 3358274
-7420.1792 745.1347 10059.555 3292737
-7258.3208 735.125 9924.4209 3358274
-7101.978 725.50574 9794.5576 3358274
-6989.3848 720.22693 9723.292 3292738
-6764.3804 703.16998 9493.0186 3358274
-6560.123 687.98627 9288.0332 3424067
-6319.9072 668.72589 9028.0117 3555910
-6022.0508 642.9635 8680.2109 3358274
-5834.2896 628.59332 8486.209 3293250
-5696.8086 619.42584 8362.4453 3358787
-5442.9189 597.31329 8063.9194 3359044
-5475.9702 606.57086 8188.8989 3359301
-5424.6646 606.57086 8188.8989 3162179
nan nan nan 16777215
nan nan nan 16777215
nan nan nan 16777215
nan nan nan 16777215
nan nan nan 16777215
-5505.7983 652.68097 8811.4004 2964797
-5492.6689 657.71948 8879.4219 3227712
-5586.3101 675.77716 9123.2061 3293249
-5633.0908 688.48077 9294.709 3358786
-5575.854 688.604 9296.3721 3555394
-5640.7666 703.97418 9503.875 3621188
-5747.0356 724.88867 9786.2275 3292480
-5801.9512 739.70709 9986.2803 3358272
-5752.6479 741.41656 10009.359 3687237
-5711.9106 744.27985 10048.015 3687750
-5668.0405 746.79431 10081.96 3753030
-5626.5757 749.68585 10120.997 3753031
-5614.1758 756.56006 10213.801 3753030
-5550.8374 756.64923 10215.005 3884616
-5458.3896 752.72632 10162.044 3884616
-5414.8296 755.53192 10199.921 4016202
-5488.8589 775.00787 10462.853 4082252
-5439.3755 777.30426 10493.854 3884872
-5522.6948 798.867 10784.958 3753029
-5517.77 808.0412 10908.812 3687493
-5519.2368 818.39313 11048.567 3555906
-5482.5933 823.28534 11114.614 3621699
-5436.9902 826.9408 11163.963 3555906
-5401.54 832.2558 11235.717 3424320
-5512.3164 860.53888 11617.548 3556163
-5474.3013 866.03992 11691.813 3753285
-5401.0483 866.03992 11691.813 3819078
-5397.6909 877.40143 11845.198 3885128
-5360.6636 883.5304 11927.94 3819078
-5285.9312 883.5304 11927.94 3621955
-5143.4399 872.04218 11772.847 3621699
-5054.3779 869.41016 11737.313 3819077
-4956.5107 865.16345 11679.981 3819334
-4900.6978 868.24005 11721.517 3622212
-4827.5845 868.29871 11722.308 3556421
-4754.3721 868.34094 11722.879 3622214
-4725.2261 876.55914 11833.827 3556677
-4678.2603 881.68097 11902.974 3753800
-4577.2397 876.61639 11834.6 3820105
-4584.6064 892.48474 12048.827 3820106
-4509.6753 892.59528 12050.319 3754056
-4433.2578 892.41034 12047.823 3819849
-4388.2822 898.65796 12132.168 3688263
-4309.1807 898.01404 12123.475 3359042
-4173.1021 885.26031 11951.295 3359042
-4069.5205 879.06018 11867.591 3359299
-3961.2795 871.60388 11766.93 3359042
-3948.3357 885.23102 11950.899 3358529
-3881.7065 887.11572 11976.344 3227200
-3805.6677 886.88184 11973.187 3424322
-3724.804 885.4917 11954.418 3423808
-3674.3342 891.41815 12034.428 3424320
-3598.4236 891.2915 12032.718 3490113
-3541.0251 895.8429 12094.163 3490113
-3573.4658 923.81866 12471.845 3358270
-3495.3262 923.81866 12471.845 3424320
-3364.7681 909.64764 12280.532 3424320
-3263.1501 902.82037 12188.362 3293248
-3223.1079 913.11035 12327.28 3555907
-3172.4031 920.81079 12431.237 3555904
-3121.3318 928.78961 12538.955 3490111
-3067.3118 936.28046 12640.083 3490111
-3006.7896 942.13098 12719.067 3424318
-2942.2856 947.01849 12785.05 3424318
-2848.9946 942.65472 12726.138 3358525
-2791.6545 950.27734 12829.046 3489854
-2711.2766 950.27734 12829.046 3555648
-2588.3667 934.91473 12621.646 3489855
-2521.3271 939.40033 12682.203 3424318
-2434.4912 936.56201 12643.884 3489854
-2355.2734 936.56201 12643.884 3489855
-2373.5652 976.68573 13185.566 3490111
-2290.9534 976.68573 13185.566 3490111
-2270.8718 1004.3409 13558.921 3489854
-2176.1604 999.85632 13498.377 3358525
-2058.5283 984.05212 13285.017 3358269
-1857.4138 925.32684 12492.206 3358011
-1785.8405 928.80847 12539.209 3423806
-1787.7775 972.60217 13130.438 3555649
-1637.7855 933.98029 12609.03 3555649
-1626.6331 974.6322 13157.845 3555650
-1513.3396 955.15759 12894.931 3358270
-1432.5488 955.15759 12894.931 3358270
-1395.0206 985.72699 13307.628 3292221
-1303.9606 979.95264 13229.671 3226684
-1211.5726 972.32855 13126.744 3292478
-1125.0089 968.60864 13076.524 3423807
-1047.0447 972.28979 13126.221 3292221
-985.47876 993.12408 13407.491 3291708
-904.10394 996.01843 13446.565 3160379
-836.38202 1016.0942 13717.594 3094587
-738.85968 1000.4185 13505.967 3028794
-686.6264 1049.9406 14174.53 3160123
-597.81854 1049.9406 14174.53 3160379
-475.27222 980.34778 13235.006 3094586
-391.05118 977.10052 13191.167 3423038
-304.52191 964.79968 13025.103 3357501
-222.39066 962.52759 12994.429 3226172
-138.68263 946.86591 12782.99 3423294
-57.759403 933.39117 12601.077 3489087
20.936596 922.21808 12450.236 3489344
95.954948 894.38373 12074.464 3423551
168.67458 879.10962 11868.259 3489345
236.50214 855.48627 11549.336 3554880
307.14835 850.73901 11485.246 3554880
370.54874 831.53375 11225.97 3489345
430.36807 811.70209 10958.235 3620930
486.33798 791.06598 10679.642 3620930
546.47546 781.38043 10548.884 3555136
609.13995 777.0083 10489.858 3686466
650.19135 748.60333 10106.383 3686722
686.76501 720.54193 9727.5449 3752259
710.08295 684.28107 9238.0117 3621186
759.08984 676.37573 9131.2871 3489600
772.28284 639.9035 8638.9004 3555393
798.59143 618.36444 8348.1162 3686978
812.37097 590.36816 7970.1577 3686979
861.79382 590.01721 7965.4194 3686978
873.2785 565.15247 7629.7378 3621187
nan nan nan 16777215
nan nan nan 16777215
nan nan nan 16777215
764.53888 405.9046 5479.8408 2173235
809.26678 411.18628 5551.145 462620
851.55695 414.84509 5600.5405 857127
884.50848 413.84497 5587.0386 1054506
899.25165 404.72595 5463.9287 922666
957.81366 415.27405 5606.3315 725287
985.42645 412.13205 5563.9136 725289
1013.3644 409.33609 5526.1675 659496
1039.569 406.04788 5481.7754 791082
1069.8046 404.49411 5460.7988 725290
1098.9924 402.6528 5435.9404 725548
1121.6288 398.5939 5381.144 791595
1154.321 398.24121 5376.3828 791594
1187.1555 397.95621 5372.5352 791592
1206.9041 393.4212 5311.311 857640
1292.4786 410.01151 5535.2856 594209
1362.8152 421.02716 5684 2502717
nan nan nan 16777215
2452.1704 719.94568 9719.4951 3489608
2334.282 668.72742 9028.0322 3621705
2061.2139 576.52838 7783.3159 3818825
2132.2554 582.61517 7865.4902 3687496
2223.1868 593.73895 8015.6646 3753032
2377.0339 620.8028 8381.0352 3818824
2473.6321 632.06842 8533.124 3884616
2632.1621 658.34741 8887.8994 4016202
2714.7026 664.92517 8976.7012 3818823
2799.7463 671.83655 9070.0068 3818823
2878.3171 676.95068 9139.0488 3950666
2985.5703 688.47937 9294.6904 3885129
3084.7732 697.74615 9419.7949 3950666
3246.6145 720.56726 9727.8867 3950664
4165.5742 907.48877 12251.387 4016457
4272.7671 913.99902 12339.277 4016714
4364.5088 917.03137 12380.215 3950666
4031.7756 832.32843 11236.698 4015945
4761.4883 966.10223 13042.687 3819338
4753.5566 948.21954 12801.265 3819594
4770.5049 935.81104 12633.745 4016464
4788.1733 923.94635 12473.569 3951696
4866.3242 923.94635 12473.569 4083285
4987.8564 932.0528 12583.009 4280407
5777.4497 1062.8014 14348.156 4083799
5575.2139 1009.8852 13633.771 4214871
5397.1992 962.88715 12999.282 4215129
5671.9702 996.86487 13457.992 4478300
5560.8784 963.02393 13001.129 4938852
4860.6992 829.61584 11200.077 5202024
4712.3589 792.85126 10703.744 5464426
5276.626 875.33191 11817.259 5530475
5428.3477 888.04022 11988.825 5727855
5081.3887 819.93451 11069.376 5793647
5078.7959 808.48157 10914.758 5727341
4372.1221 686.74109 9271.2227 5859183
4238.5063 657.0246 8870.041 5727853
4086.041 625.19324 8440.3066 5727854
3960.6709 598.26801 8076.8076 5858924
3802.5071 567.13098 7656.4487 5793132
3707.8555 546.12445 7372.854 5529960
3626.5691 527.57922 7122.4868 5266788
3478.1677 499.83987 6747.9971 5135202
3502.3018 497.26376 6713.2183 5200737
3512.262 492.76019 6652.4189 5003358
3277.2092 454.39078 6134.4194 4674392
3250.3594 445.44397 6013.6348 4542549
3081.2512 417.42987 5635.4355 4410961
3256.947 436.23337 5889.2891 4213324
3105.0164 411.22507 5551.6689 4147788
3017.0647 395.1503 5334.6543 4410190
3077.5925 398.66135 5382.0547 4475468
3078.0332 394.39713 5324.4863 4606798
3056.9404 387.49484 5231.3032 2830130
2996.8469 375.84769 5074.063 198153
2934.092 364.11478 4915.665 131847
2968.0833 364.5069 4920.959 263433
3037.0552 369.14276 4983.5444 197640
3062.1736 368.40826 4973.6284 263433
3072.0884 365.87787 4939.4673 329226
3117.2979 367.55948 4962.1699 329226
3124.9214 364.81998 4925.1855 329226
3154.283 364.64697 4922.8501 197640
3133.9958 358.79333 4843.8242 855570
3025.4126 343.04047 4631.1553 2697775
3028.0232 340.07492 4591.1196 4013634
3080.3032 342.69104 4626.438 2565932
3129.5227 344.92108 4656.5439 1513500
3158.6973 344.92108 4656.5439 1645086
3184.2419 344.52832 4651.2417 2105637
3171.3591 340.02261 4590.4131 2697774
3204.676 340.50674 4596.9492 3092532
3251.0757 342.35995 4621.9683 3487803
3311.05 345.59732 4665.6738 3487803
3292.4424 340.64771 4598.8521 3488059
3745.6021 384.1712 5186.4331 3422267
4307.5645 438.00949 5913.2671 3290681
4575.1304 461.24951 6227.0146 3290938
4855.2817 485.35464 6552.4414 3422524
4987.8452 494.42563 6674.9033 3488317
5276.7124 518.71082 7002.7607 3488317
5594.4136 545.40656 7363.1616 3488061
5938.646 574.23102 7752.3013 3226173
6412.2578 614.99652 8302.6484 3290682
7178.0977 682.90784 9219.4727 3290683
7595.3799 716.83862 9677.5488 3290682
7219.7031 675.98663 9126.0342 3224890
8245.5801 765.974 10340.893 3159353
9765.6855 900.11182 12151.796 3093304
14709.977 1345.3431 18162.559 3093304
14990.72 1360.4946 18367.109 3159353
15046.822 1355.1832 18295.404 3224889
14854.733 1327.7682 17925.291 3159352
14977.26 1328.6747 17937.529 3290937
15052.104 1325.369 17892.902 3159352
14830.257 1296.1813 17498.859 3093815
14918.356 1294.313 17473.635 2962229
14951.702 1287.7557 17385.111 2962229
14914.943 1275.2993 17216.945 2962230
14998.901 1273.2694 17189.541 2961974
15038.232 1267.5071 17111.748 2896180
14963.426 1252.2742 16906.1 2764852
15027.647 1248.809 16859.316 2764852
15073.939 1243.9125 16793.213 2764339
15151.766 1241.668 16762.912 2764082
15246.358 1240.8188 16751.449 2895668
15332.882 1239.3293 16731.34 2895412
15427.38 1238.5001 16720.145 2698033
15524.63 1237.9016 16712.064 2764082
15679.048 1241.8389 16765.219 2764082
15784.088 1241.8389 16765.219 2698289
15836.479 1237.7242 16709.67 2895669
15904.572 1234.8826 16671.307 2895669
16233.918 1252.2302 16905.506 2829876
16408.805 1257.5157 16976.861 2829877
16738.438 1274.5159 17206.369 2698292
17187.848 1300.3605 17555.279 2698290
18312.498 1376.6373 18585.041 2698288
18428.938 1376.6373 18585.041 2698291
18990.85 1409.705 19031.465 2632498
19046.025 1404.9792 18967.666 2632498
19816.59 1452.7573 19612.686 2566705
20080.742 1463.0503 19751.643 2500913
20311.512 1470.7997 19856.264 2566705
nan nan nan 16777215
nan nan nan 16777215
nan nan nan 16777215
nan nan nan 16777215
-8290.5586 700.33374 8720.9785 3095617
-8230.3477 699.85999 8715.0791 3227203
-8224.5752 704.03992 8767.1299 3029568
-8189.2256 705.72717 8788.1406 3161154
-8144.3179 706.60809 8799.1104 3292482
-8103.8374 707.88763 8815.0439 3226689
-8096.4277 712.09344 8867.417 3160896
-8055.5854 713.39661 8883.6445 3160893
-8057.7017 718.54871 8947.8018 3095100
-8048.6924 722.77393 9000.417 3160894
-8019.4785 725.23163 9031.0215 3292480
-8007.1245 729.2597 9081.1816 3358272
-8091.6221 742.22961 9242.6904 3292480
-8258.6016 763.00677 9501.4209 3358272
-8302.4717 772.62915 9621.2441 3424064
-8260.584 774.35333 9642.7148 3292479
-8181.4058 772.58136 9620.6494 3226686
-8093.4736 769.9505 9587.8877 3226686
-7973.9775 764.25494 9516.9639 3160895
-8158.9482 787.87463 9811.0908 3161151
-8166.0366 794.54529 9894.1572 3358530
-8153.4624 799.39014 9954.4883 3424066
-8096.7964 799.95349 9961.5029 3424066
-8012.9424 797.81854 9934.918 3424066
-7968.8706 799.64221 9957.627 3292480
-7972.7197 806.34131 10041.048 3226687
-7917.3613 807.11102 10050.634 3292481
-7855.8618 807.26221 10052.516 3292480
-7786.2109 806.57141 10043.914 3160895
-7664.3257 800.41425 9967.2412 3226687
-7536.5107 793.53168 9881.5352 3226688
-7381.1655 783.61237 9758.0137 3358274
-7256.2031 776.77979 9672.9307 3424067
-7078.0962 764.09509 9514.9736 3424067
-6903.3755 751.56366 9358.9238 3358274
-6742.9194 740.38367 9219.7041 3226688
-6576.7852 728.38165 9070.248 3095102
-6442.0664 719.68005 8961.8896 3160895
-6339.0566 714.39893 8896.126 3226688
-6219.2554 707.11499 8805.4219 3095102
-6073.0024 696.66614 8675.3076 2963516
-5854.8965 677.71167 8439.2744 3095102
-5726.0068 668.83258 8328.707 3292481
-5417.5098 638.6181 7952.458 3423810
-4961.0137 590.2345 7349.9561 3227202
-4808.7944 577.48468 7191.188 3161665
nan nan nan 16777215
nan nan nan 16777215
nan nan nan 16777215
nan nan nan 16777215
nan nan nan 16777215
nan nan nan 16777215
-5281.811 678.80865 8452.9346 3754313
-5421.5186 703.82074 8764.4004 4083534
-5497.769 721.0224 8978.6064 4083278
-5474.1528 725.34698 9032.458 3885386
-5417.561 725.34698 9032.458 3819593
-5377.3369 727.56134 9060.0332 3819593
-5376.4546 735.20294 9155.1904 3688007
-5402.5669 746.74048 9298.8633 3556678
-5415.7534 756.72345 9423.1768 3687751
-5392.0293 761.71228 9485.3008 3556678
-5365.5742 766.42224 9543.9521 3884616
-5341.1279 771.5285 9607.5381 3950409
-5353.9995 782.20312 9740.4658 3950665
-5307.0938 784.29004 9766.4531 3950409
-5234.7549 782.62317 9745.6963 3884617
-5172.3296 782.41663 9743.124 3884616
-5216.7539 798.56128 9944.167 4081995
-5256.0137 814.29608 10140.106 3950665
-5263.0122 825.35669 10277.839 3950665
-5270.6289 836.78937 10420.206 3884871
-5265.9673 846.5351 10541.565 3753542
-5221.4546 850.04071 10585.22 3621956
-5171.5928 852.75452 10619.014 3687492
-5131.1528 857.11273 10673.285 3555906
-5169.311 874.88873 10894.642 3819078
-5201.479 892.11304 11109.13 3950921
-5126.7959 891.22974 11098.13 3950664
-5130.2759 904.09674 11258.357 3687492
-5068.0151 905.5755 11276.772 3555906
-5022.4038 910.11328 11333.279 3490113
-4950.1162 909.87775 11330.347 3292732
-4877.563 909.586 11326.713 3226682
-4826.6343 913.37756 11373.929 3226682
-4792.9033 920.58606 11463.693 3358268
-4721.0796 920.58606 11463.693 3226683
-4581.4028 907.1507 11296.388 3226940
-4584.9087 922.08966 11482.416 3358269
-4520.8677 923.7038 11502.517 3490370
-4441.0601 922.09656 11482.503 3819592
-4361.9541 920.58447 11463.673 3819849
-4288.7749 920.29364 11460.051 3885642
-4203.833 917.42566 11424.338 3885385
-4158.4023 923.23053 11496.624 3622213
-4086.3723 923.23053 11496.624 3293249
-3986.979 916.9375 11418.259 3292992
-3890.6733 911.13751 11346.034 3358785
-3788.7498 903.78149 11254.433 3424578
-3752.7605 912.17303 11358.929 3293248
-3685.2087 913.06879 11370.083 3292991
-3605.3347 910.88666 11342.91 3292990
-3534.7803 911.01868 11344.555 3095868
-3482.3694 915.92828 11405.691 3424834
-3408.0537 915.16144 11396.143 3556420
-3386.2412 928.76215 11565.507 3490627
-3336.1836 935.04144 11643.7 3292991
-3258.5154 933.68982 11626.869 3030076
-3152.7034 924.02783 11506.552 2964026
-3085.531 925.50348 11524.928 3292991
-3021.0845 927.88702 11554.609 3424320
-2953.4109 929.37219 11573.104 3358525
-2890.7764 932.55774 11612.771 3292732
-2817.0212 932.2276 11608.661 3490111
-2745.0784 932.49573 11611.999 3490367
-2672.3257 932.49573 11611.999 3555904
-2611.6895 936.84204 11666.122 3621697
-2559.6611 944.6153 11762.92 3687490
-2503.1797 951.15741 11844.386 3753283
-2428.9709 951.15741 11844.386 3687490
-2333.3816 942.52112 11736.842 3687490
-2267.7332 945.81042 11777.802 3555904
-2220.1255 957.09833 11918.366 3490111
-2145.4534 957.09833 11918.366 3490111
-2032.3726 939.34631 11697.307 3555904
-1953.9144 936.86688 11666.432 3621954
-2043.4961 1017.8981 12675.481 3753283
-1930.9335 1000.7197 12461.564 3687490
-1852.858 1000.7197 12461.564 3687490
-1757.1444 990.77429 12337.72 3621696
-1665.4966 982.31177 12232.339 3555648
-1529.5083 945.61926 11775.422 3555393
-1452.6733 943.63269 11750.684 3555393
-1483.1716 1014.8779 12637.873 3423807
-1455.2396 1051.9227 13099.178 3489600
-1375.1671 1053.4534 13118.237 3489344
-1278.0839 1041.319 12967.132 3555393
-1134.3407 986.94055 12289.979 3621442
-1054.9913 984.74786 12262.675 3621186
-972.9314 979.4823 12197.104 3555393
-890.53101 972.9469 12115.722 3424063
-808.85321 966.05664 12029.92 3489600
-786.68683 1036.1317 12902.538 3489600
-709.41882 1041.3728 12967.803 3555393
-625.98804 1037.7531 12922.728 3686979
-515.85022 982.20636 12231.025 3490113
-437.63449 978.66284 12186.9 3555650
-361.86569 980.25 12206.664 3621186
-280.97018 965.07849 12017.74 3686979
-205.00757 961.94531 11978.724 3686979
-127.44587 943.35681 11747.248 3818565
-53.28265 933.49219 11624.407 3621443
19.492701 930.85791 11591.604 3686979
91.340179 923.00098 11493.766 3687236
161.85402 914.53577 11388.352 3884616
227.26311 891.23187 11098.157 3818565
295.41629 887.0874 11046.547 3818565
355.17978 864.10516 10760.358 3818822
416.15576 850.93494 10596.354 3818564
470.4404 829.58893 10330.542 3818562
534.69556 828.86206 10321.49 3752770
587.81415 812.89124 10122.612 3686720
614.8009 767.4126 9556.2842 3621184
646.63611 735.52069 9159.1475 3686977
689.86658 720.73297 8975.002 3621184
719.92914 695.45398 8660.2129 3555391
720.8078 647.50238 8063.0908 3555392
757.2597 635.69458 7916.0527 3752771
796.04138 627.17395 7809.9487 3686979
810.55682 601.62872 7491.8442 3752771
811.21991 569.16119 7087.5391 3687236
815.24683 542.30133 6753.0635 3752772
802.05499 507.20312 6315.999 3752520
nan nan nan 16777215
774.48712 445.78186 5551.145 2173493
816.5365 449.78644 5601.0117 265240
839.99768 443.64355 5524.5171 330526
884.50848 448.66431 5587.0386 988713
921.71021 449.73636 5600.3887 856874
956.09631 449.40637 5596.2793 856873
986.96246 447.50375 5572.5864 725289
1015.5233 444.72147 5537.9404 791082
1039.6849 440.26031 5482.3872 791082
1069.0321 438.21005 5456.856 725548
1097.0604 435.763 5426.3838 791341
1120.6364 431.74768 5376.3828 791596
1155.2128 432.08124 5380.5361 791593
1189.0144 432.11432 5380.9478 857641
1210.9078 427.9371 5328.9312 792103
1266.8065 435.67914 5425.3398 726052
1330.8857 445.75656 5550.8296 2765886
nan nan nan 16777215
2296.7332 731.04376 9103.3984 3686988
2308.9766 717.13202 8930.1611 3818827
2052.303 622.33313 7749.6675 3753031
2144.2825 635.19696 7909.8555 3687238
2235.7161 647.32153 8060.8384 3687236
2365.6641 669.81549 8340.9463 3687237
2480.6477 687.19165 8557.3252 3753030
2581.3906 699.97107 8716.4619 3884616
2687.8474 713.73822 8887.8994 4016202
2772.6587 721.31543 8982.2549 4082508
2849.4944 726.5575 9047.5322 4016715
2970.8979 742.73724 9249.0127 3951179
3054.9158 749.13019 9328.6211 3819595
3139.5835 755.43945 9407.1875 3885388
3206.6624 757.36194 9431.1279 3951181
3294.5659 764.04437 9514.3418 3885388
3337.1768 760.17206 9466.1211 3753801
3392.2197 759.21747 9454.2344 3753801
3381.5864 743.84875 9262.8535 3950667
3422.896 740.23181 9217.8135 4016716
3433.6724 730.24139 9093.4062 4082253
3526.8042 737.80579 9187.6025 4213582
4479.6855 922.09802 11482.521 4082250
4722.3994 956.69409 11913.332 4279886
4879.7607 973.19153 12118.768 4214093
4929.1387 967.9776 12053.842 4148300
4803.3223 929.03595 11568.916 4082507
4134.9292 787.86938 9811.0254 4082506
4027.8203 756.21906 9416.8955 4016714
4100.728 758.7926 9448.9434 4082507
4159.9287 758.7926 9448.9434 4147787
4228.9961 760.56714 9471.041 4213581
4137.4805 733.81195 9137.8691 4279374
4341.5884 759.5025 9457.7832 4280146
3930.179 678.2746 8446.2842 4608085
3750.2336 638.62061 7952.4888 4740441
3735.3787 627.75085 7817.1318 4740443
3784.3557 627.75085 7817.1318 4937822
3511.2363 575.00403 7160.2969 4937309
3439.9573 556.22461 6926.4448 4871772
3338.604 533.1109 6638.6187 4871515
3310.8879 522.17975 6502.4971 4937308
3276.3103 510.44534 6356.3735 5003101
3149.5698 484.80634 6037.1011 5068895
3180.6677 483.78326 6024.3608 5068638
3126.2568 469.93066 5851.8604 4871515
3030.8933 450.31476 5607.5908 4805978
2949.5195 433.20309 5394.5063 4608343
2954.1492 428.96756 5341.7627 4871769
2969.1558 426.31683 5308.7544 4739670
3013.1223 427.83694 5327.6836 4410959
2980.4053 418.55463 5212.0947 4344397
2943.491 408.8905 5091.751 4277833
2973.8835 408.68307 5089.1685 2435372
2952.0017 401.37259 4998.1338 198153
2940.8618 395.6608 4927.0068 197640
2964.7734 394.73441 4915.4712 197640
3037.8018 400.29941 4984.7695 263433
3052.3271 398.12042 4957.6357 395019
3083.8374 398.17841 4958.3579 460812
3109.3555 397.4693 4949.5273 329226
3086.6006 390.66431 4864.7876 263690
3169.4204 397.22418 4946.4751 263690
3169.5386 393.3923 4898.7583 527375
3037.0642 373.33487 4648.9907 2895154
3026.6646 368.52209 4589.0596 4540492
3100.4333 373.95172 4656.6724 4277576
3166.3635 378.34351 4711.3613 4343369
3190.8711 377.75031 4703.9746 4408906
3405.5681 399.47745 4974.5342 4277833
3410.6519 396.44562 4936.7798 4080198
3470.1858 399.74048 4977.8096 4080454
4225.4097 482.40143 6007.1533 4145734
4327.7124 489.71893 6098.2759 4145734
4199.4419 471.04535 5865.7407 3948611
4255.6113 473.20459 5892.6289 3751232
4921.8433 542.57947 6756.5269 3619646
4793.1025 523.88135 6523.687 3356731
4660.7544 505.10858 6289.917 3488060
4886.1636 525.09741 6538.8296 3225145
5105.3076 544.08612 6775.2886 3290937
5232.9277 553.08813 6887.3872 3159095
5276.0791 553.08813 6887.3872 3094072
5402.0376 561.6983 6994.6064 3159096
5412.3813 558.24518 6951.6055 3093559
5544.7622 567.3338 7064.7827 3093559
5707.7056 579.38086 7214.7998 3027766
9068.1016 913.25702 11372.428 2830388
13490.614 1348.0603 16786.859 2961974
13762.327 1364.573 16992.486 3093559
13955.698 1373.124 17098.969 3093560
14092.758 1376.0464 17135.359 3093560
14177.2 1373.8258 17107.707 3159352
14284.386 1373.8258 17107.707 3224889
14158.343 1351.5618 16830.463 3093559
14214.186 1346.8613 16771.93 3027509
13909.186 1308.2894 16291.609 2764594
13977.272 1305.116 16252.092 2764594
14049.142 1302.3392 16217.514 2698544
14052.957 1293.3391 16105.439 2830130
14134.312 1291.5526 16083.193 2764593
14130.53 1282.0669 15965.071 2895924
14155.09 1275.2679 15880.405 2830130
14191.269 1269.6034 15809.867 2830387
14315.762 1271.8635 15838.012 2764082
14490.596 1278.5342 15921.079 2764083
14627.466 1281.7869 15961.584 2632496
14765.993 1285.1399 16003.337 2698289
14854.308 1284.1066 15990.47 2698289
15007.153 1288.6284 16046.778 2698289
15060.227 1284.58 15996.364 2566703
15200.117 1287.941 16038.219 2698289
15300.602 1287.941 16038.219 2698289
15526.107 1298.3962 16168.413 2764082
15630.16 1298.6249 16171.261 2764081
15819.213 1305.8673 16261.448 2698291
16120.303 1322.2067 16464.914 2698291
16634.986 1355.7456 16882.562 2632498
17252.869 1397.2186 17399.01 2632498
17577.914 1414.6045 17615.508 2632498
17718.744 1417.0405 17645.844 2632498
18369.689 1459.9897 18180.674 2632499
18819.424 1486.5162 18510.996 2566706
19023.723 1493.4498 18597.338 2369326
nan nan nan 16777215
nan nan nan 16777215
nan nan nan 16777215
nan nan nan 16777215
-8236.2959 749.74481 8663.8984 3423810
-8199.2773 751.32672 8682.1787 3292481
-8175.7456 754.17377 8715.0791 3357761
-8179.3779 759.58185 8777.5732 3226687
-8124.3833 759.58185 8777.5732 3292478
-8089.189 761.44556 8799.1104 3292478
-8082.0811 765.99689 8851.7041 3226429
-8038.6504 767.14471 8864.9688 3292222
-7999.9263 768.76086 8883.6445 3160636
-8036.9097 777.72577 8987.2412 3226172
-7992.3022 778.86597 9000.417 3226429
-7972.6416 782.47083 9042.0742 3226429
-7950.3389 785.86603 9081.3086 3292479
-8039.7954 800.43701 9249.6875 3292222
-8213.8535 823.70349 9518.5498 3292222
-8234.6807 831.8316 9612.4766 3226429
-8161.002 830.46259 9596.6562 3094843
-8018.0327 821.96991 9498.5166 3029306
-7958.521 821.96991 9498.5166 3094843
-7937.0625 825.92957 9544.2744 3095099
-8100.4639 849.33197 9814.708 3095099
-8118.0698 857.68872 9911.2773 3094843
-8082.0596 860.46625 9943.373 3095100
-7993.2505 857.62177 9910.5029 3226429
-7929.2075 857.41083 9908.0654 3160636
-7900.8105 861.08154 9950.4834 3029564
-7891.2573 866.88068 10017.497 3160894
-7851.6982 869.45007 10047.188 3226944
-7766.0029 866.91095 10017.847 3226687
-7598.4219 855.11493 9881.5352 3424068
-7466.4688 847.16779 9789.6992 3687239
-7333.3652 838.9574 9694.8213 3753032
-7137.7104 823.39392 9514.9736 3687239
-6965.9487 810.3479 9364.2158 3687496
-6794.7822 797.14996 9211.7031 3753032
-6601.4375 781.10181 9026.2539 3621446
-6498.2153 775.53198 8961.8896 3555653
-6405.1362 771.08606 8910.5137 3424067
-6283.0293 763.0368 8817.498 3489860
-6146.2915 753.05212 8702.1172 3489860
-5814.4946 718.77594 8306.0283 3489861
-5689.1255 709.62921 8200.3311 3490117
-5637.748 709.62921 8200.3311 3490117
-5055.9614 642.25208 7421.7344 3424837
-4844.6841 621.12628 7177.6094 3424837
-4799.7144 621.12628 7177.6094 3622216
nan nan nan 16777215
nan nan nan 16777215
nan nan nan 16777215
nan nan nan 16777215
-2743.5679 372.49237 4304.4463 4412500
nan nan nan 16777215
nan nan nan 16777215
-5399.2598 755.328 8728.417 3951435
-5469.6592 773.00592 8932.6992 3885643
-5441.5156 776.97858 8978.6064 3885386
-5360.5005 773.40607 8937.3232 3753544
-5329.7378 777.08496 8979.8359 3687238
-5334.3247 786.05139 9083.4502 3555908
-5321.8315 792.66718 9159.9014 3424065
-5352.2749 805.89227 9312.7275 3489858
-5365.5283 816.79205 9438.6826 3490885
-5342.4673 822.34491 9502.8506 3687237
-5310.2432 826.59656 9551.9824 3753030
-5280.9341 831.40424 9607.5381 3819079
-5295.8149 843.35992 9745.6963 3818823
-5173.2412 833.44952 9631.1738 3753285
-5129.8022 836.2049 9663.0146 3753542
-5119.4121 844.47772 9758.6133 3753542
-5194.792 867.2699 10021.995 3819334
-5193.604 877.68036 10142.296 3687749
-5206.9248 890.83087 10294.261 3753285
-5205.5171 901.75995 10420.555 3556163
-5216.4102 915.12451 10574.993 3621699
-5153.2715 915.67841 10581.394 3490114
-5104.6616 918.86188 10618.181 3621699
-5107.3022 931.47662 10763.955 3884871
-5124.7129 947.15881 10945.175 3819078
-5084.7373 952.5163 11007.085 3819079
-5057.2627 960.39502 11098.13 3490113
-5051.3008 972.6358 11239.582 3292734
-4993.7578 975.15015 11268.638 3161148
-4926.8584 975.88348 11277.111 3226940
-4856.2036 975.88348 11277.111 3226683
-4796.7671 978.17108 11303.547 3291964
-4773.2588 987.96368 11416.708 3358012
-4645.8457 976.22095 11281.011 3489598
-4577.9453 976.81384 11287.862 3490111
-4514.373 978.3634 11305.769 3424319
-4512.9673 993.64984 11482.416 3358527
-4418.7578 988.66736 11424.839 3490370
-4347.1582 988.66302 11424.789 3621957
-4274.3574 988.38068 11421.526 3556420
-4192.6714 985.99921 11394.006 3622213
-4125.5054 987.00897 11405.676 3753799
-4049.4148 985.88165 11392.648 3753800
-3962.2942 981.98022 11347.563 3753800
-3859.2622 973.92096 11254.433 3425092
-3783.9919 972.69788 11240.3 3227457
-3718.7207 974.04755 11255.896 3227456
-3672.385 980.50494 11330.517 3359041
-3594.9111 978.73962 11310.116 3490626
-3531.7068 980.86621 11334.69 3556419
-3459.4133 980.50391 11330.504 3622213
-3391.885 981.50543 11342.077 3688006
-3343.26 988.13672 11418.707 3753543
-3313.7798 1000.8403 11565.507 3687750
-3239.7307 1000.3501 11559.843 3556420
-3147.1343 993.97955 11486.227 3622212
-3075.1697 993.97955 11486.227 3556163
-3013.3237 997.32867 11524.928 3753285
-2943.8696 998.26221 11535.716 3753283
-2878.8076 1000.7697 11564.691 3621697
-2812.4968 1002.9613 11590.017 3621697
-2731.8972 1000.0385 11556.241 3621697
-2668.658 1003.4844 11596.062 3555904
-2600.0178 1005.0355 11613.986 3687490
-2538.5977 1009.5472 11666.122 3687490
-2483.0667 1016.738 11749.217 3687490
-2396.637 1011.3293 11686.716 3687490
-2319.3682 1009.5674 11666.355 3753283
-2237.968 1005.8339 11623.212 3621697
-2176.8035 1011.2499 11685.799 3424318
-2091.7144 1005.5417 11619.836 3621697
-2009.8009 1001.0036 11567.395 3555904
-1935.2799 999.94568 11555.169 3621697
-1886.3198 1012.5258 11700.543 3753283
-1819.3458 1016.0629 11741.417 3687490
-1747.6566 1017.1539 11754.023 3753283
-1668.7233 1013.9391 11716.875 3884099
-1599.5658 1016.6418 11748.106 3686978
-1515.9994 1010.0056 11671.419 3686977
-1441.1759 1008.8167 11657.681 3555393
-1369.9888 1010.1822 11673.46 3621185
-1454.8649 1133.2672 13095.806 3489599
-1287.4491 1062.7966 12281.462 3358014
-1209.2272 1061.6775 12268.529 3358013
-1127.4733 1057.0948 12215.573 3489599
-1050.2034 1056.355 12207.022 3489599
-966.97827 1049.0383 12122.473 3489599
-884.22437 1041.0289 12029.92 3555392
-805.23218 1036.3687 11976.065 3621185
-748.50122 1062.3458 12276.252 3555393
-705.84839 1116.5425 12902.538 4015943
-585.5661 1046.0782 12088.269 4015944
-509.82935 1046.0782 12088.269 4081736
-433.98203 1045.8119 12085.189 4147529
-356.33267 1040.1725 12020.021 4016200
-279.05511 1032.8867 11935.829 4081993
-201.15004 1017.0935 11753.326 4015943
-126.33522 1007.7086 11644.875 3884357
-53.132294 1003.0987 11591.604 3752771
19.387161 997.66742 11528.843 3686978
90.502457 985.50989 11388.352 3752771
157.95172 961.74927 11113.779 3884359
226.20625 955.93127 11046.547 3884358
289.70197 937.44031 10832.87 3884358
350.06015 917.74341 10605.257 3884358
409.39691 902.08044 10424.258 3950150
463.29663 880.3952 10173.669 3950150
530.23572 885.73724 10235.4 3884357
558.41437 832.16461 9616.3252 3752770
595.83014 801.45129 9261.4082 3950149
633.63544 776.66669 8975.002 4015942
670.51801 754.88354 8723.2812 3950149
699.49829 728.15784 8414.4443 4015942
720.01587 696.98633 8054.2324 3884356
756.57434 684.40869 7908.8882 3884356
795.98981 675.80304 7809.4429 3950149
798.25958 638.48328 7378.1831 3818819
811.21991 613.33191 7087.5391 3687235
815.63715 584.6673 6756.2969 3818567
841.69379 573.57751 6628.1455 3883849
785.15314 509.89066 5892.1929 3686728
766.10687 475.17966 5491.0796 2172979
816.5365 484.69281 5601.0117 199448
852.73364 485.32172 5608.2793 330526
887.87122 485.32172 5608.2793 922919
923.95978 485.82172 5614.0571 922666
956.09631 484.28329 5596.2793 791080
986.96246 482.233 5572.5864 857131
1015.5233 479.23483 5537.9404 725802
1040.8552 474.96143 5488.5581 791340
1067.3557 471.47757 5448.2988 791340
1096.4792 469.33234 5423.5093 791598
1125.675 467.34613 5400.5566 791595
1155.9215 465.89929 5383.8374 791594
1188.9235 465.61359 5380.5361 923178
1205.5129 459.09329 5305.189 792103
1271.8704 471.36746 5447.0269 923686
1305.9977 471.36746 5447.0269 2831935
nan nan nan 16777215
2045.0947 701.46588 8105.9976 3818830
1977.9623 661.99988 7649.936 3950413
2016.3015 658.86609 7613.7231 3884617
2123.4963 677.85718 7833.1797 3884618
2217.053 691.73499 7993.5493 3884617
2336.2148 712.81226 8237.1133 3950409
2444.6338 729.77142 8433.0898 3884617
2535.2114 740.79974 8560.5312 4016715
2658.6147 760.7641 8791.2354 4148815
2769.8306 776.5014 8973.0928 4017229
2841.5242 780.75317 9022.2256 3885643
2930.2554 789.42932 9122.4844 3754057
3031.1367 800.98395 9256.0078 3819595
3139.0798 813.93591 9405.6777 3885388
3180.6199 809.51007 9354.5342 3885645
3243.0591 810.46722 9365.5947 4016974
