# .PCD v0.7 - Point Cloud Data file format
VERSION 0.7
FIELDS x y z rgb
SIZE 4 4 4 4
TYPE F F F U
COUNT 1 1 1 1
WIDTH 1274
HEIGHT 1
VIEWPOINT 0 0 0 1 0 0 0
POINTS 1274
DATA ascii
3784.3477 776.35077 5964.5063 3423805
3971.1541 806.70764 6197.7305 3489341
4056.0886 815.98254 6268.9873 3357755
4226.0581 842.02246 6469.0454 3423548
4379.8525 864.37537 6640.7769 3357755
4421.4199 864.36768 6640.7183 3357755
4474.855 866.65869 6658.3193 3292475
4525.6401 868.3988 6671.688 3357755
4647.4556 883.61188 6788.5664 3292221
4801.4409 904.60999 6949.8896 3226428
4867.7686 908.86414 6982.5732 3292221
4933.1064 912.85925 7013.2666 3358014
4976.9937 912.84949 7013.1919 3358014
5032.2163 914.90094 7028.9521 3489600
5059.2109 911.82898 7005.3516 3358014
5083.4604 908.31952 6978.3887 3226428
5174.1733 916.64441 7042.3467 3160635
5218.2959 916.64441 7042.3467 3226428
5215.605 908.49011 6979.6997 3160635
5219.9824 901.69238 6927.4741 3423807
5091.147 872.18555 6700.7808 3423808
5139.9907 873.35132 6709.7373 3423807
5130.8921 864.73291 6643.5244 3358012
5067.8779 847.23987 6509.1289 3489598
5053.2124 838.04407 6438.481 3686977
4897.5767 805.80035 6190.7603 3686977
4783.9736 780.92456 5999.646 3621184
4552.1411 737.2876 5664.394 3621441
4720.5757 758.6535 5828.543 3621184
4827.9722 769.95715 5915.3857 3620927
4796.2324 759.06842 5831.7305 3620927
4559.1606 716.09344 5501.5645 3620927
4501.2041 701.68536 5390.8711 3686720
4596.4907 711.20282 5463.9912 3620927
4674.356 717.90393 5515.4741 3620927
4406.8394 671.85101 5161.6611 3751996
nan nan nan 16777215
nan nan nan 16777215
nan nan nan 16777215
nan nan nan 16777215
nan nan nan 16777215
nan nan nan 16777215
4812.5952 697.86243 5361.5005 3553851
5061.127 728.81433 5599.2959 3685694
5145.5918 735.87671 5653.5547 3685436
4663.1562 662.32385 5088.4663 3685693
4723.1846 666.29449 5118.9722 3685949
4865.8315 681.78802 5238.0049 3620157
4928.228 685.90472 5269.6323 3620157
4995.8838 690.69379 5306.4258 3620156
5135.0098 705.23517 5418.1431 3751742
5212.5234 711.17938 5463.811 3751999
5292.6064 717.39417 5511.5581 3751743
5379.4072 724.43317 5565.6367 3883328
5511.7275 737.47205 5665.811 3751489
5628.0659 748.2193 5748.3794 3817282
5748.7261 759.40076 5834.2837 3817282
5783.4175 759.15637 5832.4062 3817283
5819.9595 759.15637 5832.4062 3817283
6095.3462 790.11694 6070.2686 3751489
5833 751.42151 5772.981 3751490
5725.2231 732.99219 5631.3936 3751490
5788.9922 736.61694 5659.2417 3751490
nan nan nan 16777215
nan nan nan 16777215
nan nan nan 16777215
nan nan nan 16777215
nan nan nan 16777215
-4533.3218 654.73383 4800.3145 3423295
-4743.8105 689.70978 5056.748 3423295
-4710.2085 689.42871 5054.6875 3357502
-4684.3608 690.28656 5060.9771 3094330
-4724.9961 701.01984 5139.6699 2962744
-4764.1597 711.68048 5217.8311 3028537
-4749.957 714.46149 5238.2202 3160123
-4742.2485 718.26471 5266.1045 3028537
-4794.5684 731.27698 5361.5063 2502193
-4955.5264 761.15936 5580.5952 2107434
-4920.6602 761.1745 5580.7065 2041641
-4885.6953 761.1745 5580.7065 2173227
-4785.2114 750.89331 5505.3276 2436399
-4885.5073 772.19781 5661.5259 2962743
-4871.2583 775.57672 5686.2988 3752002
-4782.0869 766.98877 5623.3345 3686206
-4839.8823 782.01996 5733.5391 3357755
-4807.1509 782.53937 5737.3472 3686720
-4780.0166 783.98474 5747.9438 3884099
-4816.2876 795.93018 5835.5244 3752513
-4753.9805 791.64288 5804.0913 3686720
-4729.1499 793.57837 5818.2817 3489341
-4682.248 791.8114 5805.3267 3291962
-4617.4834 786.97235 5769.8486 3291962
-4537.4468 779.43365 5714.5767 3423548
-4438.145 768.43933 5633.9697 3423548
-4534.7598 791.4624 5802.7681 3291962
-4498.4033 791.4624 5802.7681 3226426
-4542.3706 805.70984 5907.2261 3226169
-4556.3979 814.8371 5974.1445 3160376
-4571.7441 824.35352 6043.916 3357755
-4564.0425 829.8382 6084.1279 3357755
-4547.7202 833.83466 6113.4287 3291962
-4509.418 833.83466 6113.4287 3291962
-4473.6851 834.31396 6116.9429 3160376
-4455.0366 838.01508 6144.0786 3095097
-4427.4131 840.07782 6159.2017 3226426
-4426.1606 847.22467 6211.6001 3358012
-4398.0562 849.31268 6226.9092 3423805
-4351.4336 847.83014 6216.0396 3423805
-4265.1958 838.53253 6147.8726 3423805
-4188.9419 831.04614 6092.9844 3423805
-4094.7102 819.82263 6010.6968 3292219
-3983.3984 804.93927 5901.5767 3358012
-3888.1257 793.04858 5814.3975 3292219
-3801.3853 782.6897 5738.4492 3226426
-3713.0193 771.79498 5658.5728 3292219
-3619.791 759.66992 5569.6753 3292219
-3521.6714 746.27228 5471.4473 3160633
-3439.3154 735.98444 5396.02 3292219
-3335.209 720.79175 5284.6318 3226425
-3223.1284 703.55383 5158.2485 3226169
-3122.9529 688.59167 5048.5503 3161148
-2847.9375 634.37769 4651.0698 3226939
-2648.0471 595.95007 4369.3296 3293246
-2565.2783 583.35333 4276.9741 3951432
-2568.4021 590.22913 4327.3853 4872534
-2522.4033 585.84265 4295.2251 5069914
-2439.5476 572.70905 4198.9336 4938584
-2420.0964 574.33624 4210.8633 4938584
-2412.9102 578.94208 4244.6318 4938585
-2479.1067 601.45386 4409.6816 3951945
-2470.6802 606.16479 4444.2212 3359295
-2515.1648 624.11255 4575.8086 3293502
-2771.9717 695.76715 5101.1592 3227709
-2771.2913 703.71002 5159.3936 3424318
-2781.9338 714.74951 5240.332 3490111
-2812.4514 731.22015 5361.0898 3556161
-2819.1968 741.83362 5438.9043 3555904
-2848.2913 758.65948 5562.2671 3555905
-2869.0295 773.64899 5672.1655 3687233
-2864.74 782.18097 5734.7192 3555904
-2860.9077 791.05609 5799.7891 3489855
-2860.1177 801.0116 5872.7798 3423805
-2858.6504 811.03442 5946.2646 3424318
-2862.4849 822.84607 6032.8638 3621697
-2838.8025 826.95795 6063.0107 3621697
-2824.7434 834.02271 6114.8076 3753283
-2819.925 844.04761 6188.3071 3621697
-2790.2617 846.81189 6208.5742 3753283
-2762.9722 850.38495 6234.7705 3819333
-2729.8301 852.23328 6248.3223 3819333
-2694.9048 853.57062 6258.1274 3819076
-2652.593 852.57349 6250.8164 3819076
-2622.3445 855.48169 6272.1382 3819076
-2590.5203 857.95654 6290.2837 3819076
-2551.428 858.06366 6291.0684 3885126
-2528.1931 863.59058 6331.5908 3884869
-2492.2698 864.89069 6341.1226 3950919
-2462.0884 868.25763 6365.8081 4016455
-2410.8042 864.17108 6335.8467 4016455
-2363.9207 861.55164 6316.6411 3884869
-2292.6711 849.81122 6230.5645 3819076
-2232.6267 841.8894 6172.4844 3819076
-2175.9358 834.97516 6121.7905 3819076
-2091.8245 817.10187 5990.7495 3687490
-2088.4287 830.68048 6090.3037 3753283
-2051.7566 831.28241 6094.7168 3753283
-2018.9147 833.4884 6110.8901 3753540
-1982.6116 834.32312 6117.0098 3753283
-1950.295 836.90137 6135.9131 3687490
-1911.8516 836.90137 6135.9131 3555904
-1870.4165 835.56488 6126.1143 3555904
-1825.2803 832.48431 6103.5288 3687490
-1786.483 832.2251 6101.6279 3621697
-1731.5385 824.2677 6043.2866 3621697
-1693.8463 824.35095 6043.897 3819076
-1645.8245 819.29572 6006.834 3950662
-1599.7953 815.0191 5975.479 3950662
-1558.4004 812.95502 5960.3457 3753283
-1486.1282 794.2868 5823.4756 3950662
-1435.4144 786.49109 5766.3198 3819076
-1393.1956 783.06744 5741.2188 3819076
-1347.6045 777.51672 5700.5225 3819076
-1296.0631 768.13721 5631.7549 3687490
-1254.5056 764.31549 5603.7349 3490111
-1221.666 765.7381 5614.165 3621697
-1187.879 766.63348 5620.73 3819333
-1167.8259 776.71808 5694.667 3819076
-1173.5897 805.15009 5903.1221 4082248
-1127.7218 798.85748 5856.9868 3950662
-1091.0259 798.85748 5856.9868 3884869
-1052.8958 797.77075 5849.019 3884869
-1017.7975 798.98566 5857.9263 3687490
-978.65271 796.99603 5843.3394 3753540
-939.96051 795.23474 5830.4258 3753283
-907.82983 799.10669 5858.814 3753283
-869.38629 797.51398 5847.1362 3753283
-740.94904 709.59552 5202.5444 3621697
-798.3761 799.77594 5863.7207 3687490
-766.57343 804.9585 5901.7173 3687490
-730.58521 806.0484 5909.7085 3686977
-690.61578 802.62781 5884.6294 3686977
-654.7984 803.91895 5894.0957 3752770
-617.91809 803.98138 5894.5537 3686977
-577.88104 799.68341 5863.0425 3752770
-539.797 797.68805 5848.4131 3686977
-502.97195 797.39801 5846.2866 3621441
-464.50607 794.2569 5823.2563 3489854
-426.8783 792.13538 5807.7021 3686977
-389.75989 790.65179 5796.8252 3884869
-354.32166 792.62189 5811.269 3884612
-320.45105 798.9516 5857.6768 3884613
-289.16019 814.18243 5969.3447 3687490
-252.35649 816.11017 5983.4785 3621697
-216.60553 822.70911 6031.8599 3687233
-182.1499 838.05713 6144.3867 3753284
-145.23276 847.27081 6211.9385 3687747
-107.03148 852.99652 6253.918 3819076
-67.848747 852.99652 6253.918 3884869
-29.092245 865.67981 6346.9082 3950662
10.594439 859.29944 6300.1294 3819076
49.797417 854.67761 6266.2437 3687490
89.283371 856.84662 6282.1455 3687490
128.64297 856.84662 6282.1455 3819076
168.64883 860.14276 6306.312 3819076
209.07079 863.90686 6333.9097 3621697
249.23169 865.56348 6346.0552 3555904
286.56271 858.28839 6292.7163 3556161
325.93289 858.14185 6291.6421 3556160
368.58597 865.73785 6347.334 3555904
409.02341 867.15717 6357.7393 3555904
459.81262 888.3233 6512.9233 3621954
501.99554 890.76752 6530.8438 3490111
539.98383 885.96106 6495.604 3555904
575.23322 877.64948 6434.6665 3490111
621.06128 885.50977 6492.2959 3490367
660.16827 883.40991 6476.8999 3424318
690.95947 871.0697 6386.4253 3621697
728.66376 868.31854 6366.2549 3621698
764.69977 863.96814 6334.3589 3489854
792.33826 851.02765 6239.4824 3555649
819.9043 839.22968 6152.9834 3555904
853.62567 834.50879 6118.3716 3687233
879.10962 822.48688 6030.2305 3621441
907.56073 814.11737 5968.8677 3555903
934.15814 804.81329 5900.6528 3489601
959.50934 795.18481 5830.0596 3424063
988.14795 788.88702 5783.8862 3489347
983.58838 757.46857 5553.5356 3620936
988.19867 735.01764 5388.9316 1252135
1008.282 725.17871 5316.7954 331034
1045.8356 728.13208 5338.4492 988454
1096.5946 739.81165 5424.0801 1119787
1095.4081 716.79749 5255.3472 791337
1128.8661 717.13531 5257.8237 725288
1169.974 722.17578 5294.7793 659750
1200.9019 720.82788 5284.897 593955
1233.5857 720.57806 5283.0654 593442
1264.5873 719.38434 5274.313 527649
1298.6512 719.9491 5278.4541 330014
1325.7827 716.73798 5254.9111 264730
1348.1726 711.18134 5214.1714 462106
1377.8313 709.63123 5202.8062 265495
1407.8588 708.33826 5193.3267 397336
1404.5402 690.70532 5064.0474 2173489
1436.2681 690.70532 5064.0474 3620932
1525.6854 717.84882 5263.0552 3555650
1540.5559 709.51086 5201.9238 3489856
1593.5212 718.69965 5269.293 3555904
1687.8044 745.77216 5467.7808 3555904
1755.3987 760.20935 5573.6299 3621697
1824.6456 774.7851 5680.4951 3555905
1897.1219 790.14813 5793.1323 3490111
1974.9395 807.11725 5917.5449 3490111
2051.676 823.02728 6034.1929 3490111
2112.4436 832.07166 6100.5029 3489855
2180.5293 843.62579 6185.2144 3490111
2248.4727 854.72235 6266.5713 3490111
2324.2712 868.3728 6366.6523 3490111
2434.7246 894.2915 6556.6807 3292732
2511.2161 907.0827 6650.4619 3292733
2616.052 929.52771 6815.022 3489854
2647.2739 925.5155 6785.6055 3555647
2689.7878 925.5155 6785.6055 3489855
2752.9045 932.49426 6836.772 3687233
2795.7393 932.49426 6836.772 3621440
2844.0969 934.30878 6850.0752 3424574
2889.5981 935.14465 6856.2041 3556160
2951.7302 941.25958 6901.0366 3687490
2995.1548 941.31848 6901.4688 3884869
3037.5691 941.06281 6899.5938 3753283
3067.3608 936.9585 6869.5024 3753283
3090.5869 930.98993 6825.7427 3687490
3114.2007 925.2995 6784.0225 3753540
3116.1545 913.41351 6696.8774 3818563
3133.5251 906.30212 6644.7388 3621440
3157.8413 901.35974 6608.5029 3752513
3177.8928 895.34381 6564.396 3555391
3183.2383 885.39117 6491.4258 3358012
3172.9585 871.3985 6388.8359 3226426
3170.0688 859.75867 6303.4966 3226426
3161.9868 847.01453 6210.0596 3292219
3111.8716 823.45734 6037.3457 3358012
3135.0798 819.63568 6009.3262 3489598
3136.5034 810.27704 5940.7114 3423805
3129.1699 798.90204 5857.3135 3423805
3129.2627 789.66473 5789.5884 3489598
3144.8975 784.5163 5751.8413 3620928
3116.814 768.70221 5635.897 3686977
3094.3792 754.61987 5532.6499 3949378
2961.9502 714.32275 5237.2031 3685438
2779.2043 662.90686 4860.2373 2894894
2688.75 634.38068 4651.0913 2434600
2724.3098 635.87891 4662.0762 2566187
2794.5256 645.34869 4731.5059 2763308
2840.8584 649.16217 4759.4648 3289653
2780.3347 628.73236 4609.6797 3487802
2909.28 651.12781 4773.8765 3488058
3069.4182 679.97772 4985.3955 3619644
3236.4231 709.75226 5203.6934 3488827
3361.373 729.80206 5350.6929 3488571
3507.0437 753.91034 5527.4478 3357755
3625.2102 771.69244 5657.8203 3423548
3711.4429 782.39819 5736.312 3357755
3895.7944 813.3844 5963.4937 3291962
3990.3721 825.21643 6050.2427 3291962
4020.437 823.61005 6038.4648 3423548
4067.3789 825.45862 6052.0186 3423294
4137.4463 831.92303 6099.4136 3423293
4224.8911 841.7312 6171.3237 3358014
4348.1982 858.44159 6293.8398 3292222
4435.9238 867.89008 6363.1133 3292221
4444.3643 861.7962 6318.4351 3358014
4509.1729 866.64386 6353.9761 3292221
4572.5684 871.13715 6386.9199 3358014
4584.3057 865.79651 6347.7637 3292221
4628.4077 866.60742 6353.7095 3292221
4668.2158 866.60742 6353.7095 3226428
4723.041 869.37158 6373.9756 3423807
4696.127 857.16998 6284.5166 3489600
4701.2954 850.97827 6239.1211 3489600
4679.0552 839.96857 6158.4009 3292219
4691.2393 835.26807 6123.938 3292219
4714.8071 832.65417 6104.7739 3423804
4738.0918 830.03284 6085.5552 3423805
4779.3384 830.57477 6089.5283 3621184
4615.7905 795.79999 5834.5698 3621184
4535.0952 775.74384 5687.5244 3489598
4508.835 765.23914 5610.5068 3555134
4462.7964 751.5661 5510.2603 3423548
4371.145 730.48053 5355.667 3423548
4425.522 733.93359 5380.9839 3489341
4326.1641 712.03174 5220.4062 3555134
4244.4834 693.34625 5083.4092 3620670
4330.6118 702.14679 5147.9326 3554877
4315.2061 694.47675 5091.6978 3554878
4362.4385 696.92603 5109.6553 3817279
4027.6812 638.75897 4683.1919 3620925
3802.4141 598.672 4389.2861 3752511
3806.2209 594.96838 4362.1323 3159860
nan nan nan 16777215
nan nan nan 16777215
nan nan nan 16777215
nan nan nan 16777215
4534.9902 684.3175 5017.2134 3619388
4566.4248 684.3175 5017.2134 3554107
4414.7998 657.07208 4817.458 3423034
4475.0684 661.51941 4850.0645 3554364
4544.7617 667.29059 4892.377 3685950
4780.5146 697.20306 5111.6865 3685950
4778.1787 692.22498 5075.1885 3751743
4800.811 690.90588 5065.5176 3751743
4873.397 696.74603 5108.3359 3817536
5006.6919 711.13281 5213.8154 3751743
5084.3633 717.48383 5260.3789 3883329
5185.6553 727.06476 5330.6235 3817281
5292.9976 737.36584 5406.1479 3751489
5382.0469 745.00385 5462.1475 3751489
5467.1709 752.00531 5513.4805 3817282
5587.623 763.74786 5599.5732 3619903
5748.9365 780.89404 5725.2842 3685696
5653.3184 763.14429 5595.1479 3685696
5429.7842 728.45233 5340.7969 3751489
5573.7085 743.18103 5448.7832 3619903
nan nan nan 16777215
nan nan nan 16777215
nan nan nan 16777215
nan nan nan 16777215
nan nan nan 16777215
nan nan nan 16777215
-4425.3467 672.8067 4717.2759 1778727
-4575.4307 700.30164 4910.0527 1910570
-4573.5845 704.75757 4941.2944 2041899
-4598.9512 713.49609 5002.563 2173484
-4721.6133 737.5528 5171.2329 2502192
-4677.3135 735.68097 5158.1094 2567985
-4642.105 735.22308 5154.8984 2699571
-4625.9326 737.79486 5172.9302 2896950
-4649.501 746.78589 5235.9692 2896950
-4697.3853 759.83795 5327.4819 2831157
-4723.4204 769.51733 5395.3472 2502192
-4682.0415 768.27429 5386.6318 2699571
-4644.7256 767.68475 5382.4985 3159865
-4623.3408 769.73895 5396.9009 3225145
-4561.0566 764.96387 5363.4214 3093556
-4509.4092 761.91516 5342.0459 2897204
-4373.6162 744.49719 5219.9224 3226169
-4343.0332 744.86102 5222.4736 3357755
-4493.7588 776.56219 5444.7412 3555134
-4468.6445 778.12909 5455.7271 3686720
-4475.9756 785.41351 5506.8008 3686720
-4452.2153 787.31299 5520.1187 3686720
-4418.23 787.41998 5520.8687 3686720
-4403.1523 790.92487 5545.4429 3686720
-4417.5371 799.81989 5607.8086 3489341
-4400.4131 803.10693 5630.8555 3291962
-4395.3184 808.66034 5669.792 3291962
-4361.4375 808.9649 5671.9277 3291962
-4338.4326 811.30835 5688.3584 3357755
-4322.4165 815.00836 5714.3003 3423548
-4294.6724 816.54041 5725.042 3555134
-4260.1426 816.79724 5726.8428 3555134
-4246.3481 821.06781 5756.7852 3489341
-4131.3062 805.66663 5648.8022 3555134
-4128.5298 812.08209 5693.7832 3621184
-4165.3135 826.4585 5794.5811 3555391
-4137.9736 828.25299 5807.1631 3555391
-4086.6714 825.24042 5786.0405 3489598
-4023.5544 819.76672 5747.6631 3621184
-3969.5518 816.06799 5721.7295 3752770
-3909.645 811.07697 5686.7358 3621441
-3782.8987 792.00037 5552.9834 3489598
-3534.5613 746.87665 5236.6055 3686720
-3583.0933 764.22552 5358.2446 3424063
-3518.4497 757.53546 5311.3384 3292476
-3472.2917 754.73572 5291.7085 3292477
-3428.2195 752.33972 5274.9092 3292477
-3355.624 743.57654 5213.4678 3292733
-3292.3276 736.72198 5165.4077 3489856
-3203.6985 724.00629 5076.2539 3621441
-3083.4727 703.82349 4934.7451 3753284
-2884.0413 664.96954 4662.3271 3884870
-2697.676 628.36395 4405.6729 3622724
-2609.6096 614.1347 4305.9067 3819846
-2569.291 610.96234 4283.6641 4280654
-2511.8025 603.59698 4232.0234 4807253
-2437.5601 592.00549 4150.7515 5004631
-2392.9797 587.44568 4118.7812 4938838
-2392.23 593.66357 4162.377 4873045
-2383.5349 598.02502 4192.9565 4938837
-2435.9666 617.99133 4332.9468 4280907
-2342.9653 601.09625 4214.4897 3359551
-2458.6973 637.9776 4473.0776 3161917
-2611.2297 685.36859 4805.3516 3227966
-2630.3147 698.43054 4896.9336 3358525
-2654.0872 713.06024 4999.5073 3292732
-2678.1008 728.10492 5104.9907 3424318
-2665.2 733.35596 5141.8076 3161146
-2691.5188 749.65918 5256.1147 3029047
-2706.0605 763.04547 5349.9707 2831412
-2690.1267 768.06628 5385.1733 3160376
-2674.0071 773.16095 5420.894 3226426
-2700.4949 790.86475 5545.021 3292219
-2670.7236 792.33917 5555.3589 3292219
-2641.8127 794.11121 5567.7832 3292732
-2642.3713 804.90759 5643.4805 3621697
-2631.833 812.57062 5697.2085 3753283
-2666.8782 834.71161 5852.4468 3621697
-2630.8911 834.92761 5853.9609 3687490
-2594.2144 834.92761 5853.9609 3753283
-2557.5156 834.92053 5853.9111 3753283
-2513.4236 832.46436 5836.6904 3884869
-2476.8459 832.46143 5836.6694 3884869
-2442.1179 833.08923 5841.0713 3884869
-2405.5344 833.09369 5841.1025 3884869
-2367.3843 832.54724 5837.271 3884869
-2328.1543 831.5979 5830.6152 3884869
-2291.6238 831.5979 5830.6152 3819076
-2251.177 830.15381 5820.4902 4016455
-2207.4641 827.43781 5801.4478 4016455
-2151.801 820.0766 5749.8354 3885126
-2096.8113 812.72565 5698.2954 3950662
-2059.6802 812.16199 5694.3433 3950662
-2020.6052 810.7984 5684.7827 3950662
-1950.6444 796.77008 5586.4258 3884869
-1946.5297 809.61646 5676.4961 3884869
-1748.3417 740.71814 5193.4263 3819076
-1715.8031 740.71814 5193.4263 3884869
-1813.9852 798.24152 5596.7422 3950662
-1744.5928 782.83807 5488.7437 3753283
-1668.5975 763.79291 5355.2114 3819076
-1629.767 761.32715 5337.9229 3950662
-1611.2838 768.46216 5387.9492 3819076
-1604.7056 781.7019 5480.7773 3884869
-1562.3416 777.70703 5452.7681 3819333
-1530.4139 778.84485 5460.7456 3884869
-1502.4539 782.09985 5483.5679 3819076
-1467.4814 781.77167 5481.2666 3819076
-1406.5706 767.27832 5379.6489 3950662
-1331.1554 743.96716 5216.2061 3819076
-1303.8612 747.05365 5237.8467 3884869
-1270.0216 746.45239 5233.6313 4082248
-1185.2411 715.08545 5013.707 4148041
-1166.1093 722.69635 5067.0693 4148041
-1134.3625 722.69635 5067.0693 4082248
-1101.9917 722.28729 5064.2017 3950662
-1063.3875 717.64734 5031.6689 4016455
-1044.3636 726.34174 5092.6284 4082248
-998.16882 716.09149 5020.7603 4082505
-995.52216 737.43237 5170.3887 4082248
nan nan nan 16777215
nan nan nan 16777215
-827.79321 679.52179 4764.3579 3753283
-842.20435 717.21436 5028.6333 3621697
-792.75842 701.34308 4917.3545 3555904
-791.79535 728.81488 5109.9683 3753283
-755.06476 724.29199 5078.2568 3621697
-727.48224 728.53235 5107.9878 3687490
-621.82928 651.38232 4567.0625 3424318
-608.21979 667.85803 4682.5796 3687490
-647.75183 747.31348 5239.6685 3950149
-606.61523 737.21625 5168.8735 4016199
-545.46722 700.28888 4909.9629 4016198
-521.87421 710.04327 4978.3545 3884612
-517.40851 748.71606 5249.5024 3884871
-480.26862 742.14844 5203.4546 4082249
-447.48459 741.84546 5201.3306 4148043
-414.89667 741.84546 5201.3306 4214092
-377.62741 732.76172 5137.6411 4279885
-346.57074 735.16351 5154.481 4477522
-314.58911 735.8952 5159.6108 4477265
-283.13913 738.18054 5175.6343 4214606
-254.52281 749.40039 5254.3003 4279629
-225.39833 762.23511 5344.2891 4411214
-197.0703 782.71185 5487.8584 4214091
-163.57372 786.97711 5517.7637 4016712
-129.84785 792.12982 5553.8911 3950918
-96.333359 802.81659 5628.8198 3950662
-61.780834 812.20032 5694.6118 3885126
-26.180128 814.62122 5711.5859 3950662
9.6218157 816.07025 5721.7456 4082248
45.470325 816.07025 5721.7456 4016455
81.270851 815.58868 5718.3691 3753283
118.23451 823.50299 5773.8594 3687490
156.13004 832.67889 5838.1943 3490111
193.85645 837.64062 5872.9829 3161146
229.22043 832.43994 5836.519 3358525
266.68268 835.24194 5856.165 3358525
304.60834 838.64197 5880.0039 3358525
341.49643 838.76013 5880.8315 3161146
381.16745 845.0246 5924.7544 2963767
422.22342 852.97528 5980.499 2897974
459.79568 853.16553 5981.8335 3160889
494.37262 848.18817 5946.9351 3095353
531.63196 848.18817 5946.9351 3029560
566.22388 844.211 5919.0503 3029304
601.54449 841.74261 5901.7432 2963767
634.48389 836.4209 5864.4312 3160633
669.76001 834.59369 5851.6196 3292219
706.42224 834.59369 5851.6196 3160633
739.93604 831.05756 5826.8267 3226426
768.3653 822.4118 5766.208 3160633
798.43915 816.22375 5722.8218 3226426
824.37256 806.51678 5654.7632 3226426
855.4823 802.46539 5626.3569 3358012
882.33649 794.90076 5573.3188 3358014
908.65869 787.45105 5521.0869 3160636
937.50031 782.65106 5487.4321 3028795
942.63293 759.0979 5322.293 3028799
972.27875 756.22009 5302.1157 1317927
1012.4273 761.43146 5338.6543 528413
1041.6649 758.36584 5317.1606 988455
1086.7103 766.64221 5375.189 1054251
1108.9688 758.8288 5320.4062 791335
1129.7683 750.50214 5262.0254 659750
1160.1122 748.80829 5250.1489 725030
1189.8461 746.82495 5236.2432 659236
1229.1016 750.76398 5263.8613 659235
1258.0804 748.38397 5247.1743 461856
1293.9359 750.11176 5259.2881 198941
1317.6691 744.90063 5222.7515 395803
1338.5996 738.3963 5177.147 395801
1370.4133 738.06091 5174.7954 330519
1405.0042 739.20215 5182.7969 265238
1435.9695 738.42737 5177.3652 989215
1423.0909 715.63885 5017.5869 3094588
1465.736 721.15344 5056.2515 3621444
1520.7986 732.41498 5135.21 3621699
1561.6427 736.50415 5163.8804 3555906
1621.6163 749.26611 5253.3589 3490113
1686.2573 763.63397 5354.0967 3555905
1737.6654 771.56549 5409.7075 3687491
1809.6312 788.14716 5525.9673 3687490
1913.8723 817.89905 5734.5679 3555904
1965.4697 824.47174 5780.6509 3555904
2022.5894 833.08093 5841.0137 3424318
2075.0273 839.49023 5885.9512 3489598
2128.8313 846.21863 5933.1265 3490111
2181.7317 852.36316 5976.2075 3555391
2243.5701 861.73322 6041.9043 3358012
2323.2961 877.54895 6152.7935 3292219
2465.304 915.98926 6422.3115 3160633
2416.9895 883.61578 6195.3301 3292219
2430.4304 874.48578 6131.3169 3358012
2468.845 874.48578 6131.3169 3358012
2530.4573 882.57666 6188.0449 3226426
2569.2273 882.57666 6188.0449 3291963
2631.4368 890.50885 6243.6602 3226170
2679.6636 893.54614 6264.9551 3489341
2718.9155 893.54614 6264.9551 3489598
2764.176 895.49274 6278.6035 3621184
2803.5134 895.49274 6278.6035 3752770
2833.9773 892.69763 6259.0059 3752770
2864.6338 890.03864 6240.3628 3818563
2896.967 887.96509 6225.8247 3818563
2916.0637 881.94342 6183.605 3621441
2928.1851 873.99774 6127.895 3620928
2959.6831 871.96631 6113.6519 3292219
2984.7925 868.12866 6086.7451 3292219
2976.043 854.66431 5992.3413 3292219
2998.7214 850.4483 5962.7817 3489598
2972.0862 832.52277 5837.0996 3686977
2948.0322 815.74719 5719.4805 3686977
2915.3037 797.00305 5588.0591 3752770
2928.2507 791.04272 5546.269 3621184
2940.8054 785.11743 5504.7246 3489598
2892.4089 763.24573 5351.375 3423548
2925.937 763.24573 5351.375 3620925
2957.0286 762.61737 5346.9692 3817276
2942.6848 750.41656 5261.4253 3949119
2821.6003 711.56763 4989.042 3750971
2646.5542 660.11072 4628.2603 2763818
2644.6594 652.48901 4574.8218 2434598
2698.4509 658.62225 4617.8242 2566440
2741.0234 661.9162 4640.9194 2829356
2803.3667 669.8653 4696.6528 3026992
2741.4653 648.26923 4545.2358 3553336
2818.3728 659.6037 4624.7056 3750717
2986.3428 691.80261 4850.4629 3685437
3135.374 719.0097 5041.2212 3423548
3217.6348 730.51495 5121.8882 3554364
3318.3142 745.93323 5229.9912 3423291
3396.418 756.02484 5300.7471 3489341
3519.585 775.8548 5439.7812 3489341
3629.1021 792.32416 5555.2539 3555134
3757.2737 812.51471 5696.8164 3423805
3791.4849 812.19745 5694.5918 3423806
3840.0137 814.9245 5713.7124 3226428
3893.5005 818.64374 5739.7891 3226427
3967.2722 826.52094 5795.0186 3226428
4074.6045 841.18365 5897.8242 3226428
4128.2036 844.58954 5921.7041 3358013
4155.5015 842.60175 5907.7666 3358013
4200.9814 844.3031 5919.6958 3358014
4238.0698 844.3031 5919.6958 3292222
4297.2988 848.67566 5950.353 3292221
4332.186 848.20691 5947.0664 3358014
4380.7842 850.4079 5962.4985 3358014
4387.6357 844.53625 5921.3301 3358013
4419.8657 843.60687 5914.814 3423806
4413.4912 835.38586 5857.1743 3292221
4256.2793 798.98547 5601.9585 3292220
4210.6704 783.95911 5496.6035 3160635
4347.7397 802.91254 5629.4922 3292220
4402.7485 806.52832 5654.8438 3292221
4433.5767 805.69214 5648.981 3423806
4435.7402 799.70142 5606.978 3489598
4345.7202 777.31604 5450.0264 3423805
4275.9463 758.8728 5320.7148 3423548
4153.8257 731.49658 5128.771 3357755
4171.8267 729.02698 5111.4556 3357755
4114.561 713.54236 5002.8877 3489341
4018.7688 691.66113 4849.4707 3423548
4049.1521 691.66113 4849.4707 3554877
4152.0103 703.94867 4935.623 3620157
4050.2935 681.62665 4779.1157 3620157
4051.408 676.81079 4745.3501 3554364
4014.082 665.69012 4667.3794 3685950
3705.7637 610.11438 4277.7188 3356985
3669.7644 599.84912 4205.7456 3554363
3696.1143 599.84912 4205.7456 2370347
nan nan nan 16777215
3924.6975 627.99213 4403.0659 2896433
nan nan nan 16777215
3854.1235 608.15015 4263.9473 3553851
4034.3555 632.20715 4432.6191 3488058
4084.7891 635.73419 4457.3481 3422265
4255.4795 657.80231 4612.0752 3554364
4366.271 670.3761 4700.2344 3554364
4466.5532 681.17871 4775.9751 3685950
4603.3081 697.36285 4889.4478 3751743
4675.8164 703.66455 4933.6309 3751743
4707.1777 703.73187 4934.103 3620157
4757.8091 706.66052 4954.6367 3620157
4808.8916 709.61774 4975.3706 3554364
4914.8628 720.58423 5052.2607 3488573
4867.0171 709.00311 4971.0615 3422524
5000.6694 723.84094 5075.0942 3422524
5137.4956 738.94763 5181.0127 3488317
5207.2104 744.2724 5218.3467 3554110
5431.7637 771.52393 5409.416 3488317
5181.1411 731.36224 5127.8291 3422524
5256.7012 737.45538 5170.5503 3488317
5398.0234 752.64301 5277.0356 3488317
nan nan nan 16777215
nan nan nan 16777215
nan nan nan 16777215
nan nan nan 16777215
nan nan nan 16777215
nan nan nan 16777215
-4269.082 677.40967 4550.7026 2370349
-4291.519 685.54846 4605.3774 2502192
-4350.3989 699.65839 4700.165 2765364
-4327.3335 700.69189 4707.1079 3225659
-4336.5234 706.99823 4749.4727 3357501
-4484.3208 736.14551 4945.2783 3357501
-4496.792 743.32874 4993.5337 3357758
-4481.2515 745.94977 5011.1411 3225915
-4489.7202 752.63251 5056.0347 3160378
-4521.4272 763.33344 5127.9214 3225915
-4527.854 769.8891 5171.9609 3160122
-4500.6357 770.77716 5177.9268 3226171
-4521.7744 780.0199 5240.0176 3160377
-4452.9033 773.75732 5197.9468 3094583
-4414.083 772.6626 5190.5928 3160633
-4385.3354 773.32794 5195.0625 3291962
-4320.6011 767.60974 5156.6489 3357755
-4318.8091 773.0722 5193.3442 3291962
-4288.3511 773.44733 5195.8643 3620927
-4277.3979 777.37305 5222.2363 3818306
-4247.3086 777.85455 5225.4712 3884099
-4217.1147 778.32434 5228.6274 3818306
-4196.0801 780.50513 5243.2773 3818306
-4171.9316 782.13672 5254.2378 3555134
-4139.6353 782.25439 5255.0283 3555134
-4106.7104 782.25439 5255.0283 3423548
-4002.8188 768.62708 5163.4829 3291962
-4114.5723 796.52362 5350.8862 3423548
-3965.8853 774.04675 5199.8911 3555134
-4032.7083 793.6084 5331.3022 3620927
-3972.5295 788.29492 5295.6074 3489341
-3920.2798 784.47858 5269.9702 3555134
-3878.7292 782.75671 5258.4028 3489598
-3925.9626 799.07611 5368.0332 3818563
-3843.6318 789.07855 5300.8716 4015942
-3810.4202 789.07855 5300.8716 3950149
-3754.5864 784.3526 5269.124 4015942
-3703.624 780.56952 5243.71 4081735
-3666.0291 779.56134 5236.937 4081992
-3605.2063 773.55096 5196.5605 4015942
-3549.9172 768.62927 5163.4976 3818563
-3469.2788 758.07782 5092.6152 3752770
-3400.1301 749.86456 5037.4399 3949892
-3316.0164 738.16602 4958.8516 3753283
-3231.4294 726.13983 4878.062 3621697
-3216.6704 729.72498 4902.1465 3621697
-3172.9551 726.74695 4882.1406 3687490
-3011.7932 696.54865 4679.2744 3687490
-2949.8625 688.93188 4628.1064 3885126
-2968.5476 700.17834 4703.6577 4279626
-2829.0254 673.96051 4527.5317 4148811
-2658.0923 639.65277 4297.0591 4148556
-2624.3867 638.00366 4285.981 3951946
-2545.9941 625.3446 4200.9399 3951689
-2518.8564 625.14166 4199.5767 4478033
-2449.4429 614.33148 4126.9561 4741462
-2415.5967 612.3064 4113.3516 4807510
-2378.3557 609.36774 4093.6104 4741973
-2361.4092 611.6214 4108.75 4741716
-2364.3828 619.14105 4159.2656 4741459
-2381.738 630.63629 4236.4883 4544079
-2386.8711 639.11798 4293.4668 3162427
-2389.6055 647.14343 4347.3799 2570035
-2476.8906 678.51562 4558.1323 2898742
-2512.3091 696.24567 4677.2393 3359038
-2506.1912 702.74731 4720.9155 3555904
-2539.6782 720.64215 4841.1299 3490111
-2549.7781 732.25323 4919.1309 3490368
-2552.9553 742.13611 4985.522 3686721
-2540.8591 747.76892 5023.3618 3686976
-2511.5125 748.40247 5027.6182 3555647
-2534.2917 764.78241 5137.6553 3489598
-2502.1028 764.78241 5137.6553 3555647
-2480.6909 768.11957 5160.0732 3555904
-2460.7454 772.00464 5186.1729 3555904
-2401.2434 763.41779 5128.4878 3753283
-2369.1118 763.41779 5128.4878 3753283
-2398.6201 783.55365 5263.7563 3621697
-2385.489 790.12775 5307.9199 3687490
-2361.1404 793.11963 5328.019 3621954
-2335.687 795.82104 5346.1665 3884869
-2303.969 796.43536 5350.2935 3884869
-2239.0637 785.42639 5276.3374 4016712
-2219.0767 790.08014 5307.6006 4148041
-2206.4775 797.5459 5357.7539 4082248
-2170.4126 796.62939 5351.5967 4016455
-2136.8831 796.62939 5351.5967 3950662
-2101.8665 796.06616 5347.813 4016455
-2067.1538 795.60162 5344.6924 4082248
-2020.2557 790.35461 5309.4443 4016455
-1980.8495 787.91199 5293.0352 3950662
-1943.0667 786.04291 5280.479 3884869
-1902.4543 782.94458 5259.665 3884869
-1841.8093 771.34735 5181.7573 3950662
-1811.2181 772.14636 5187.1245 3950662
-1777.6753 771.69318 5184.0806 3884869
-1730.4968 765.19373 5140.4185 3753283
-1696.8698 764.55365 5136.1182 3753540
-1643.1118 754.64307 5069.541 3819333
-1631.6678 764.15869 5133.4653 3753283
-1578.254 754.0061 5065.2622 3819076
-1543.7809 752.67133 5056.2954 3753283
-1512.2244 752.73248 5056.7061 3753283
-1488.8593 756.96075 5085.1108 3819076
-1458.0483 757.50574 5088.772 3884869
nan nan nan 16777215
-1196.26 649.92108 4366.0396 3819076
nan nan nan 16777215
nan nan nan 16777215
nan nan nan 16777215
-1007.6165 602.54517 4047.7778 5069143
-1099.339 674.36743 4530.2656 4148041
-1070.9554 674.36743 4530.2656 3753283
-978.08728 632.65674 4250.0615 3819076
-1003.2219 667.07544 4481.2793 3950662
-998.20624 682.85095 4587.2559 4082248
-985.31927 694.01752 4662.271 4148041
-934.4671 678.30835 4556.7397 4148298
-893.60931 669.09247 4494.8291 4082504
-865.44781 669.09247 4494.8291 4148041
nan nan nan 16777215
nan nan nan 16777215
-765.81097 656.1106 4407.6196 3885126
-738.19586 656.1106 4407.6196 4016455
-715.81219 660.94098 4440.0693 3884869
-661.61597 635.60046 4269.8364 3884869
-635.8045 636.54193 4276.1611 3358526
-595.95093 622.88928 4184.4458 4016456
-561.69006 614.09485 4125.3662 4542801
-585.40131 670.88995 4506.9043 4805973
-553.98352 667.06012 4481.1763 4411215
-517.46735 656.35449 4409.2583 3621701
-493.32239 661.01807 4440.5869 4148300
-464.83279 660.06958 4434.2153 4740181
-440.50015 665.27869 4469.209 4674645
-418.68991 675.26306 4536.2822 4543316
-397.48654 687.75177 4620.1787 4411731
-366.38947 683.73914 4593.2227 4345937
-337.61151 683.73914 4593.2227 4411729
-308.27878 682.51093 4584.9717 4674901
-276.21872 674.3717 4530.2939 4345936
-252.3665 686.70209 4613.127 4280143
-227.45212 698.95801 4695.46 4280143
-201.98842 712.9165 4789.2305 4214606
-176.04631 729.76257 4902.3989 4213835
-147.08951 738.59137 4961.709 4082505
-117.48302 748.0155 5025.0186 4016968
-87.367897 759.91583 5104.9624 4016455
-56.094128 769.66321 5170.4434 4016712
-23.97065 778.46252 5229.5557 4082248
8.8104963 779.91064 5239.2837 4147785
41.682842 780.78369 5245.1484 4148041
75.411705 789.85815 5306.1089 4082248
109.32613 794.72858 5338.8276 3687490
142.99911 795.97308 5347.188 3621698
178.77766 806.24072 5416.1636 3621697
212.74991 806.38586 5417.1387 3555904
246.87772 806.99963 5421.2617 3687490
279.95734 804.45294 5404.1538 3753283
315.13022 807.82184 5426.7852 3555904
352.06772 814.61743 5472.437 3621697
387.82312 817.7146 5493.2427 3490367
422.31494 817.85968 5494.2178 3358268
456.02789 816.58832 5485.6768 3160889
490.39737 816.58832 5485.6768 3095353
521.79517 811.96417 5454.6128 3160889
554.99579 810.54138 5445.0547 3292732
584.65601 804.41211 5403.8799 3358012
613.85089 798.34888 5363.1479 3292219
649.80005 801.24323 5382.5918 3226426
682.51868 800.06525 5374.6782 3160633
713.57513 797.14105 5355.0342 3226426
741.66553 791.315 5315.896 3226426
758.41101 774.40552 5202.3013 3160633
801.3056 784.48993 5270.0464 3094840
828.0694 778.60883 5230.5381 3029050
855.75708 774.01111 5199.6519 2963257
883.49438 769.79388 5171.3213 2963512
909.90906 764.76337 5137.5273 2963004
966.07086 784.22443 5268.2627 1581354
1000.2761 785.16473 5274.5796 1383464
1032.9099 784.85077 5272.4707 1317673
1061.224 781.37585 5249.1265 1251627
1094.0698 781.34607 5248.9268 988456
1127.2184 781.52802 5250.1489 791078
1158.2694 780.28668 5241.8096 791077
1186.8655 777.50549 5223.126 725284
1218.7316 776.95819 5219.4497 659748
1254.2684 778.71857 5231.2754 330270
1287.5153 779.00372 5233.1909 329757
1315.8013 776.34772 5215.3486 330520
1334.6273 768.37415 5161.7837 330518
1360.708 764.85565 5138.147 330517
1391.4177 764.04163 5132.6787 264723
1399.4061 751.06982 5045.5366 857371
1394.9993 732.16541 4918.5405 2567987
1448.9724 744.05658 4998.4233 3292221
1489.6482 748.76086 5030.0259 3423806
1534.6433 755.39636 5074.6016 3423805
1566.4373 755.39636 5074.6016 3358268
1623.6953 767.43188 5155.4536 3358269
1663.48 770.90021 5178.7534 3292733
1717.6451 780.77264 5245.0742 3292732
1768.625 788.8537 5299.3613 3226938
1824.8087 798.91522 5366.9526 3358269
1879.1816 807.83423 5426.8687 3358524
1926.0656 813.27393 5463.4116 3358526
1980.2549 821.5545 5519.0386 3358268
2016.6384 822.29053 5523.9834 3424318
2079.6458 833.6745 5600.4585 3292732
2155.4988 849.74475 5708.415 3358269
2240.3618 868.7843 5836.3193 3489854
2287.6267 872.86646 5863.7422 3555647
2321.853 871.92316 5857.4053 3687490
2275.4524 841.20264 5651.0308 3555648
2310.8579 841.20264 5651.0308 3292219
2431.6521 871.81696 5856.6919 3292219
2474.8455 874.11255 5872.1128 3160633
2515.1074 875.32062 5880.2285 3094840
2554.8069 876.30096 5886.8145 3292219
2587.5627 874.90558 5877.4404 3226426
2599.0371 866.45465 5820.6689 3226426
2645.0864 869.60455 5841.8291 3292219
2678.0493 868.4248 5833.9043 3358012
2707.1274 866.034 5817.8433 3358268
2716.7686 857.57147 5760.9937 3226426
2693.7117 839.14465 5637.2061 3094840
2786.4998 856.81573 5755.917 3160633
2807.3242 852.19 5724.8423 3423805
2793.3438 837.24908 5624.4717 3358012
2804.1094 830.005 5575.8076 3358012
2810.6296 821.69812 5520.0034 3226426
2781.5415 803.30939 5396.4717 3226426
2765.2434 789.01178 5300.4233 3094840
2775.5298 782.54895 5257.0073 3029047
2769.0042 771.55316 5183.1396 3160633
2801.4783 771.55316 5183.1396 3357756
2844.7363 774.48926 5202.8638 3423804
2842.0369 764.98834 5139.0386 3751487
2845.5671 757.3584 5087.7822 3751485
2779.4175 731.55737 4914.4561 3553849
2578.5757 671.25854 4509.3804 2632233
2622.2341 675.22546 4536.0298 2368547
2669.896 680.12726 4568.959 2500134
2698.5222 680.12726 4568.959 2697513
2747.2197 685.133 4602.5864 2829099
2756.0513 680.19568 4569.4185 3421492
2781.2085 679.34772 4563.7222 3684920
2938.1023 710.36798 4772.1099 3685436
3016.7324 722.03143 4850.4629 3554364
3168.9653 750.90283 5044.415 3554364
3211.385 753.44019 5061.4604 3554364
3297.7024 766.12628 5146.6831 3423548
3392.3796 780.49005 5243.1758 3423548
3427.1619 780.9303 5246.1333 3423548
3462.7358 781.54089 5250.2354 3423548
3541.2798 791.74707 5318.7983 3358012
3586.052 794.28271 5335.8325 3358012
3630.3579 796.66925 5351.8647 3292219
3705.2761 805.66846 5412.3193 3226426
3782.7502 815.05511 5475.377 3226426
3820.1111 815.70758 5479.7603 3226426
3864.0142 817.73297 5493.3667 3160632
3901.8315 818.44611 5498.1572 3094840
3950.4463 821.39185 5517.9463 3094839
3993.0161 823.04034 5529.0205 3160632
4029.7424 823.46649 5531.8833 3291962
3826.5562 775.27795 5208.1621 3226169
3859.1868 775.27795 5208.1621 3160633
4096.7437 816.10077 5482.4014 3160632
4116.8447 813.28601 5463.4927 3094583
4126.3032 808.43268 5430.8887 3160375
3950.7522 767.70776 5157.3071 3094583
4106.9658 791.58881 5317.7354 3094583
4127.1353 789.07507 5300.8486 3094840
4094.4729 776.58112 5216.9165 3160376
4053.9919 762.81384 5124.4307 3291962
4026.615 751.70917 5049.832 3292219
3958.155 733.16797 4925.2759 3357755
3869.0537 711.11975 4777.1602 3291962
3887.4026 709.00745 4762.9702 3357755
3891.981 704.43494 4732.2529 3357755
3875.7122 696.18683 4676.8438 3357499
3782.8953 674.41547 4530.5879 3357242
3920.4226 693.72833 4660.3281 3422778
3890.9067 683.41553 4591.0488 3422777
3856.1763 672.34485 4516.6782 3356985
3720.6555 643.99017 4326.1973 3488571
3546.2056 609.35632 4093.5337 2764847
3398.7278 579.82129 3895.1233 3488571
3555.9316 602.31537 4046.2339 6975600
3618.3337 608.54675 4088.0952 7830652
3656.8364 610.69928 4102.5557 6251621
3686.5295 611.36096 4107.0005 4014404
3818.5645 628.86768 4224.6069 3553850
3879.1001 634.43951 4262.0376 3554108
3990.769 648.24097 4354.7529 3619900
4152.0342 669.85645 4499.9614 3685949
4202.8799 673.48621 4524.3457 3620157
4269.6011 679.59436 4565.3789 3751743
4320.728 683.15564 4589.3027 3751743
4428.4575 695.56006 4672.6333 3751743
4465.2295 696.7298 4680.4912 3751743
4513.8086 699.71454 4700.542 3817279
4645.0366 715.38947 4805.8433 3488317
4649.0869 711.40179 4779.0547 3422524
4714.7036 716.82581 4815.4922 3422524
4866.4893 735.19861 4938.917 3554110
4896.4409 735.04962 4937.9165 3619903
4927.3784 735.04962 4937.9165 3488318
5112.2676 757.87231 5091.2344 3554110
5092.5518 750.26813 5040.1514 3554110
5113.2939 748.68158 5029.4932 3554110
5229.5439 761.01294 5112.3325 3554110
nan nan nan 16777215
nan nan nan 16777215
nan nan nan 16777215
nan nan nan 16777215
nan nan nan 16777215
nan nan nan 16777215
-4332.1289 716.19342 4617.9087 3160122
-4298.3608 715.38855 4612.7192 3225915
-4226.625 708.21112 4566.4399 3291707
-4198.0146 708.21112 4566.4399 3357754
-4286.7915 728.15033 4695.0054 3291962
-4274.5874 731.09406 4713.9858 3226169
-4270.9648 735.5567 4742.7603 3160376
-4247.3569 736.61584 4749.5894 3160376
-4235.3335 739.71313 4769.5605 3226169
-4251.0713 747.73749 4821.3003 3160376
-4247.1704 752.39771 4851.3486 3160376
-4209.5518 751.10883 4843.0381 3094583
-4179.3999 751.14319 4843.2598 3094583
-4243.3179 768.20844 4953.2939 3094583
-4209.8765 767.76935 4950.4629 3094583
-4154.5327 763.2998 4921.6436 3160376
-4143.8872 767.03693 4945.7402 3094583
-4140.6211 772.20673 4979.0742 3226169
-4113.0186 772.8819 4983.4277 3226169
-4076.2944 771.84021 4976.7109 3291962
-3966.3086 756.80353 4879.7568 3357755
-3938.2498 757.28699 4882.874 3555134
-4001.4421 775.4621 5000.0645 3620927
-3995.0212 780.3269 5031.4321 3620927
-3957.6653 779.17859 5024.0278 3620927
-3915.3286 777.02344 5010.1318 3752770
-3718.6299 743.95172 4796.8901 3949892
-3869.6528 780.47327 5032.3755 4015685
-3838.1235 780.47327 5032.3755 3752513
-3795.8796 778.27643 5018.2109 3620927
-3743.6333 773.97498 4990.4756 3686976
-3727.551 777.14075 5010.8882 3752770
-3651.1272 767.6731 4949.8423 3949892
-3586.5312 760.55145 4903.9229 4081478
-3552.2788 759.79694 4899.0576 4081735
-3546.7395 765.22418 4934.0518 3884356
-3506.9277 763.28741 4921.564 3884356
-3488.4158 765.99335 4939.0112 3884356
-3443.3452 762.86371 4918.832 3884613
-3400.7407 760.22882 4901.8428 3818563
-3354.7524 756.78271 4879.6226 3884356
-3322.447 756.38806 4877.0781 3753027
-3266.3096 750.51025 4839.1787 3884356
-3054.7891 708.48492 4568.2056 3819076
-3016.2136 706.15448 4553.1792 3884869
-3046.3999 720.03168 4642.6572 3884869
-2984.0271 712.08875 4591.4424 3819076
-2950.0913 710.84326 4583.4116 3687490
-2875.7778 699.74829 4511.873 3753283
-2822.3896 693.57538 4472.0708 3884612
-2714.0015 673.62738 4343.4492 3622724
-2623.0112 657.63721 4240.3472 3622467
-2570.1772 650.98425 4197.4497 3820359
-2532.6489 648.11041 4178.9199 4149838
-2502.4685 647.0766 4172.2539 4873304
-2429.916 634.94891 4094.0564 4676438
-2386.5815 630.27869 4063.9436 4545109
-2358.1506 629.48627 4058.8337 4545109
-2336.9128 630.61743 4066.1277 4479573
-2313.2454 631.11072 4069.3081 4479829
-2317.7659 639.39111 4122.6987 4873562
-2368.1785 660.66071 4259.8423 4939611
-2308.1077 651.24207 4199.1118 5201756
-2324.97 663.56335 4278.5581 4346704
-2335.873 674.45154 4348.7632 3425088
-2420.8943 707.24976 4560.2417 3359552
-2406.3735 711.40363 4587.0249 3424318
-2393.3159 716.09564 4617.2783 3490111
-2393.0151 724.76611 4673.1841 3687490
-2390.6672 733.02368 4726.4277 3819076
-2362.6917 733.53186 4729.7046 3818820
-2348.6023 738.41888 4761.2153 3818819
-2342.7368 746.0506 4810.4233 3753283
-2320.8157 748.70172 4827.5176 3621697
-2318.1536 757.71783 4885.6519 3490111
-2290.0625 758.55212 4891.0317 3687490
-2271.5181 762.61438 4917.2241 3885126
-2247.998 765.09473 4933.2173 3884869
-2253.5525 777.67755 5014.3496 3687490
-2242.0535 784.64801 5059.2939 3621697
-2215.5674 786.49823 5071.2236 3687490
-2178.4292 784.56586 5058.7642 3490368
-2112.3416 771.99628 4977.7173 3819076
-2081.2478 772.03088 4977.9404 4082248
-2041.7108 768.8869 4957.6685 4148041
-2030.4778 776.46936 5006.5591 3950662
-2004.9137 778.72357 5021.0938 3884869
-1982.3815 782.24585 5043.8052 3884869
-1950.1245 781.98291 5042.1094 3884869
-1902.9562 775.63336 5001.1689 3819076
-1863.7682 772.37842 4980.1816 3753283
-1821.6792 767.79004 4950.5962 3753283
-1777.074 761.96375 4913.0293 3950662
-1744.5043 761.18365 4907.999 3884869
-1715.4493 761.93652 4912.8535 3819076
-1669.1836 754.93292 4867.6953 3753283
-1627.0441 749.56958 4833.1133 3687747
-1582.5916 742.91705 4790.2188 3819076
-1553.7998 743.50098 4793.9839 3753283
-1526.8468 745.00525 4803.6831 3687490
-1477.033 735.19098 4740.4023 3556161
-1436.8127 729.84711 4705.9458 3555904
-1395.0389 723.47369 4664.8511 3621697
-1284.0654 680.1723 4385.6499 3621697
-1235.2974 668.64795 4311.3428 3358525
nan nan nan 16777215
nan nan nan 16777215
-1074.8274 622.63275 4014.6436 4213833
-994.00848 589.61359 3801.7407 4937558
-1046.7858 636.16357 4101.8882 4608593
-1011.2884 630.05927 4062.5286 2963769
-985.83539 630.05927 4062.5286 3095355
-994.76843 652.61823 4207.9854 3687235
-951.66711 641.33905 4135.2588 3621442
-894.18396 619.46515 3994.2192 3621186
-850.57794 606.22211 3908.8298 2634547
-852.57697 625.66101 4034.1692 2897463
-814.90479 616.28564 3973.7185 4147529
-799.24933 623.49463 4020.2009 4608079
-774.06146 623.49463 4020.2009 4674641
-729.57935 607.4306 3916.6226 2766388
-714.61993 615.68384 3969.8379 2766388
-704.30811 628.68073 4053.6401 4081992
-688.85828 637.89227 4113.0347 4410957
-653.23999 628.41766 4051.9438 4608336
-625.08966 625.65155 4034.1084 2832183
-606.32941 632.44684 4077.9233 2700341
-581.96606 633.73846 4086.2517 4542545
-557.4494 634.97437 4094.2205 4279629
-535.84332 639.80475 4125.3662 4542801
-515.77991 647.06 4172.147 3621188
-480.8671 635.46649 4097.3936 2568758
-454.13098 633.9801 4087.8096 4279375
-439.68576 650.50012 4194.3281 4937048
-403.57785 635.03387 4094.604 5200476
-377.31128 634.00446 4087.9666 3358787
-347.06573 625.65234 4034.1133 2964286
-333.96011 649.31299 4186.6738 4740696
-317.21112 669.31976 4315.6743 4938074
-286.59753 661.07458 4262.5107 4872281
-262.3331 667.28503 4302.5547 3754056
-240.73421 682.47455 4400.4946 4082765
-220.68968 706.56995 4555.8579 4279629
-193.78773 712.60767 4594.7886 4213836
-166.92661 720.92859 4648.4404 4016714
-139.00143 727.19995 4688.8774 4148299
-111.51709 739.75684 4769.8423 4279884
-82.925285 751.47162 4845.3774 4016713
-53.391132 763.24597 4921.2964 4016970
-22.638374 765.97607 4938.8999 4083019
8.352396 770.3136 4966.8677 3951434
39.495834 770.79114 4969.9468 4280399
70.14592 765.46405 4935.5986 4082763
102.08699 773.17413 4985.312 3951433
136.50719 791.64893 5104.4346 4214349
170.36992 800.49097 5161.4468 4345679
199.14595 786.4245 5070.7485 4411470
230.48946 784.9726 5061.3867 4477263
262.79651 786.75659 5072.8896 4345677
294.57974 786.75659 5072.8896 4082506
327.38763 789.22675 5088.8169 4016456
360.52997 791.99316 5106.6543 4082506
398.4906 804.03046 5184.269 4082761
429.07977 800.50085 5161.5107 4016455
452.47037 784.97754 5061.4185 4082248
484.18173 784.97754 5061.4185 3819333
511.7496 778.67285 5020.7666 3753283
550.73999 789.47229 5090.3999 3555648
579.85095 785.7027 5066.0942 3687233
614.74506 789.75391 5092.2158 3752770
642.43372 784.60529 5059.0186 3686977
670.10126 779.91626 5028.7842 3555391
697.72394 775.59845 5000.9438 3358012
729.52307 776.09497 5004.145 3292219
757.52631 772.67871 4982.1177 3226426
783.95966 767.99487 4951.917 3094840
810.27423 763.55579 4923.2944 3094842
840.97437 763.4234 4922.4409 3029050
869.5246 761.41779 4909.5088 2831416
902.54688 763.33148 4921.8481 2699831
953.76599 780.00024 5029.3257 2831674
995.96954 788.46558 5083.9092 2963005
1022.9419 784.72217 5059.772 2831676
1054.5237 784.63348 5059.2002 2567993
1086.2212 784.63348 5059.2002 2502202
1116.8076 783.85364 5054.1719 2041651
1144.0865 780.85944 5034.8657 1910577
1177.644 782.19611 5043.4844 2107443
1215.6285 786.3266 5070.1172 2041651
1249.5695 787.69775 5078.958 1515305
1277.5908 785.36182 5063.8965 1515818
1300.3318 779.97186 5029.1426 1449767
1330.6309 779.26318 5024.5732 1515559
1341.5288 767.48792 4948.6479 2173489
1344.8984 752.03497 4849.0098 2766137
1332.7346 728.77069 4699.0054 2963514
1371.0753 733.53229 4729.707 2963258
1448.5387 758.58032 4891.2134 2831926
1478.4702 758.21442 4888.854 2963767
1517.0265 762.19672 4914.5312 3095352
1551.5212 764.02051 4926.291 3161146
1595.9144 770.55243 4968.4077 3029048
1635.9799 774.78491 4995.6978 3094840
1683.2598 782.21088 5043.5796 3029047
1734.2517 791.05646 5100.6147 2897461
1781.4358 797.87646 5144.5889 2897461
1822.9619 801.96497 5170.9512 2963511
1865.2296 806.23126 5198.4595 3094840
1908.8611 810.93048 5228.7593 3029047
1945.6122 812.59747 5239.5078 3226426
1999.5122 821.25269 5295.3154 3226426
2056.0212 830.67944 5356.0977 3226170
2090.5078 831.04871 5358.4785 3094840
2124.8335 831.34344 5360.3789 3094840
2165.7444 834.16522 5378.5737 3094840
2188.3677 829.96484 5351.4902 3226426
2263.5635 845.52924 5451.8467 3160633
2315.0425 851.90326 5492.9453 3029047
2366.9285 858.23816 5533.792 2963254
2408.5566 860.72437 5549.8232 3029047
2443.3008 860.71484 5549.7612 3094840
2404.0476 835.00378 5383.9805 3160633
2437.7798 835.00378 5383.9805 3160633
2509.9048 847.97473 5467.6152 2963254
2508.1858 835.98407 5390.3013 2963254
2484.5752 817.11243 5268.6196 3292219
2561.968 831.51764 5361.5024 3292219
2609.8242 836.08759 5390.9683 3358012
2645.4431 836.67029 5394.7256 3358012
2655.5984 829.28662 5347.1172 3423805
2660.9429 820.60352 5291.1294 3489598
2650.2566 807.25104 5205.0347 3358012
2649.6113 797.24451 5140.5142 2963254
2688.1316 799.12128 5152.6152 2897460
2718.9502 798.69122 5149.8423 2897717
2707.0173 785.86023 5067.1099 3029046
2662.2837 763.91492 4925.6099 3424059
2660.6218 754.68994 4866.1284 3489339
2671.7036 749.24774 4831.0381 3685948
2734.458 758.2561 4889.1226 3817277
2720.3782 745.995 4810.0649 3618871
2586.5566 701.52631 4523.3374 2500133
2581.6133 692.59698 4465.7627 2171169
2663.8914 707.00812 4558.6831 2368548
2685.2671 705.12115 4546.5166 2565927
