# .PCD v0.7 - Point Cloud Data file format
VERSION 0.7
FIELDS x y z rgb
SIZE 4 4 4 4
TYPE F F F U
COUNT 1 1 1 1
WIDTH 1271
HEIGHT 1
VIEWPOINT 0 0 0 1 0 0 0
POINTS 1271
DATA ascii
-536.25305 682.59381 2614.9297 4607050
-514.97345 676.16492 2590.3015 4409414
-497.37076 674.30261 2583.1672 3619898
-474.90421 665.49915 2549.4421 3094837
-466.64383 676.68335 2592.2876 3950147
-448.78763 674.25739 2582.9941 4673870
-429.49979 669.41864 2564.4573 4542027
-408.18561 660.92273 2531.9106 4081476
-393.60617 663.08545 2540.1956 3884097
-379.41635 666.11438 2551.7991 3950146
-363.98947 667.14252 2555.7378 4409671
-345.38416 662.17157 2536.6946 3883327
-327.24646 657.66071 2519.4143 3685691
-310.77051 656.2016 2513.8247 3949120
-294.00439 653.94128 2505.1655 3621181
-278.40558 654.16876 2506.0371 3357753
-263.32324 655.70959 2511.9397 3555132
-247.35045 655.08795 2509.5583 3949890
-233.19543 659.52295 2526.5483 3686974
-216.27505 656.21344 2513.8699 3752767
-201.38184 659.01776 2524.613 3752511
-185.91278 660.25513 2529.3533 3752511
-170.85066 663.3031 2541.0295 3686718
-152.48167 652.8197 2500.8689 3555132
-137.32794 655.27698 2510.2825 3357753
-123.55244 665.797 2550.5833 3357753
-106.37661 658.39679 2522.2341 3292216
-89.816658 652.89136 2501.1436 2962225
-73.896736 650.69458 2492.7278 3093554
-58.138889 649.12994 2486.7339 2962225
-42.948589 655.07629 2509.5137 3225397
-27.066935 651.25604 2494.8789 3160117
-11.421905 650.46777 2491.8591 3029045
4.2032347 652.46533 2499.5115 3291960
19.606262 644.0174 2467.1484 3686718
35.067799 644.09241 2467.4358 4015683
50.047176 637.97522 2444.0017 4213062
66.237297 646.54248 2476.8215 3489339
81.863503 647.39764 2480.0979 3357753
96.337334 640.32074 2452.9868 3818304
112.22286 643.28308 2464.3354 5068371
127.45043 642.21356 2460.238 3884354
143.91339 646.92822 2478.2993 3818304
161.11955 653.74005 2504.3948 3752511
177.20596 655.20282 2509.9983 3752511
197.66879 671.28955 2571.6245 4015683
213.78082 671.28955 2571.6245 3752511
226.22153 660.56927 2530.5564 3752511
243.6118 664.7594 2546.6084 3884097
259.94962 665.73907 2550.3613 3357753
275.18878 663.95447 2543.5249 3160374
291.11472 663.93158 2543.4373 3423546
304.74524 658.94775 2524.3447 3291960
320.6546 659.14008 2525.0815 3292217
338.07175 662.26801 2537.0642 3028275
354.84857 663.91693 2543.3811 3290677
370.60486 663.59686 2542.1548 2896175
385.4267 661.69885 2534.8838 3093554
401.30853 661.69885 2534.8838 2961968
420.86429 667.526 2557.2068 2633260
438.1969 669.52899 2564.8801 3093811
454.86356 670.40869 2568.2502 3291190
474.80145 675.88495 2589.229 3685948
484.43646 666.81763 2554.4932 3620155
497.2641 662.58435 2538.2761 3159861
513.6601 663.22076 2540.7141 3093811
532.65656 667.07568 2555.4817 3225397
541.82275 658.75372 2523.6016 3094068
558.57062 659.86041 2527.8408 3422776
571.36371 656.36285 2514.4421 3225397
587.37549 656.65131 2515.5474 3159604
606.49347 660.30646 2529.5498 3225397
624.336 662.42224 2537.655 3225397
633.74347 655.70551 2511.9241 3225397
659.16595 665.48285 2549.3799 3291190
675.13861 665.48285 2549.3799 3291190
690.86737 665.24805 2548.4802 2962225
696.08344 655.12958 2509.7178 3422776
711.66559 654.99884 2509.217 3620155
730.26135 657.58752 2519.1338 3488312
750.16339 661.21808 2533.042 3554105
766.03369 661.21808 2533.042 3488312
783.17731 662.2948 2537.167 3160630
797.16235 660.71088 2531.0991 3423546
814.87286 662.21625 2536.866 4015683
832.61432 663.68866 2542.5063 4476234
843.09595 659.42761 2526.1829 4410441
862.47644 662.15546 2536.6331 4213062
879.09271 662.70081 2538.7222 4147269
895.23535 662.87616 2539.394 4081476
906.06641 659.18109 2525.2385 3884354
928.18805 663.68597 2542.4961 4147269
942.61383 662.62885 2538.4465 4278855
957.19525 661.71448 2534.9436 4278855
980.06445 666.46576 2553.1453 3949890
996.42719 666.71094 2554.0845 4081476
1011.7612 666.271 2552.3992 3949890
1034.2124 670.45862 2568.4414 4015683
1050.3044 670.45862 2568.4414 4015940
1064.4336 669.22449 2563.7136 4147269
1076.5389 666.77356 2554.3245 4147269
1107.1221 675.67145 2588.4109 4476490
1114.464 670.33301 2567.9602 4278857
1121.6787 665.07123 2547.803 4081478
1137.7249 665.11993 2547.9895 4081479
1156.0516 666.48218 2553.208 4147272
1169.9185 665.27106 2548.5686 3949890
1180.0812 662.01459 2536.0933 4147269
1191.4122 659.49139 2526.4272 4213062
1196.6632 653.71283 2504.2905 3884354
1214.1489 654.68109 2507.9995 3555132
1229.8623 654.68109 2507.9995 3489339
1250.7129 657.38123 2518.3435 3357753
1271.0852 659.76581 2527.4785 3357753
1300.0157 666.47931 2553.197 3686718
1316.0123 666.47931 2553.197 3884097
1315.7872 658.36267 2522.1033 3818304
1331.589 658.36267 2522.1033 3752511
1341.5485 655.508 2511.1675 3620925
1357.2817 655.508 2511.1675 3620925
1376.4297 657.13831 2517.4128 3554875
1392.2021 657.13831 2517.4128 3620155
1397.0074 652.01971 2497.8042 3883327
1414.2063 652.7348 2500.5437 3949120
1444.3427 659.34015 2525.8479 3817534
1462.9625 660.60211 2530.6824 3883327
1480.552 661.37671 2533.6497 3817534
1513.7545 669.03534 2562.989 3488569
1529.8125 669.03534 2562.989 3488569
1535.272 664.44849 2545.4172 3751741
1544.8033 661.70001 2534.8884 3817534
1555.1268 659.34338 2525.8604 3817534
1574.432 660.80396 2531.4556 3751741
1590.2924 660.80396 2531.4556 3488569
1627.5583 669.61066 2565.1929 3751741
1646.5972 670.8194 2569.8235 3555389
1662.626 670.79041 2569.7124 3292217
1664.6569 665.16864 2548.176 3292473
1675.8417 663.27661 2540.928 3620155
1688.2263 661.89075 2535.6189 3488569
1701.7603 660.97699 2532.1184 3028019
1717.6248 660.97699 2532.1184 3028019
1748.0912 666.54468 2553.4475 3291703
1758.4899 664.42896 2545.3425 3357496
1770.8461 663.08429 2540.1912 3555389
1789.5918 664.1347 2544.2153 3489339
1808.7831 665.33057 2548.7964 3292474
1824.0173 665.06268 2547.7703 3489338
1841.0061 665.43359 2549.1912 3620155
1849.7037 662.82703 2539.2058 3422776
1862.236 661.62738 2534.6099 3225397
1874.4197 660.3252 2529.6213 3291190
1904.8763 665.42816 2549.1702 3225397
1906.8531 660.58008 2530.5979 3291190
1921.6096 660.2027 2529.1521 3159604
1950.0204 664.48419 2545.5542 3159604
1969.7668 665.76782 2550.4717 3225397
1983.0568 664.86609 2547.0171 3028018
1992.3171 662.63849 2538.4836 3028018
2029.3463 669.60889 2565.1863 3422776
2055.7566 672.99341 2578.1519 3356983
2056.1694 667.88086 2558.5662 3356983
2073.8687 668.4187 2560.6267 3422776
2106.9482 673.86755 2581.5005 3554362
2101.7727 667.09137 2555.5417 3817534
2138.9158 673.74774 2581.0415 4080706
2164.3589 676.64648 2592.1462 4080706
2187.3196 678.73175 2600.1348 3817278
2199.3386 677.41608 2595.0945 3817021
2218.8599 678.41351 2598.9155 3487800
2222.8555 674.68396 2584.6282 3027505
2236.5388 673.92761 2581.7307 3224884
2256.5349 675.07062 2586.1094 2961969
2272.7378 675.07062 2586.1094 2961712
2285.134 673.94806 2581.8088 3027762
2304.5632 674.90076 2585.4585 3093298
2321.2776 675.05072 2586.0332 2961712
2347.3208 677.8927 2596.9204 2895919
2353.0947 674.8822 2585.3877 2764589
2369.3252 674.89142 2585.4229 2830126
2380.4062 673.44366 2579.8767 3422776
2383.1418 669.67029 2565.4214 3619898
2396.5308 668.92102 2562.551 3685948
2433.324 674.67096 2584.5784 3685948
2446.3325 673.79382 2581.218 3554362
2457.3347 672.37921 2575.7988 3620155
2476.2654 673.13831 2578.7068 3817534
2492.9219 673.27338 2579.2244 4080706
2503.3169 671.7265 2573.2986 4080962
2522.1357 672.44543 2576.0525 3751741
2534.511 671.44812 2572.2319 3554362
2517.7683 662.79816 2539.0952 3356983
2533.6765 662.79816 2539.0952 3291190
2552.0347 663.435 2541.5349 3356983
2573.7385 664.92841 2547.2559 3488569
2585.7712 663.92023 2543.3936 3488569
2581.5017 658.76428 2523.6418 3356983
nan nan nan 16777215
nan nan nan 16777215
nan nan nan 16777215
nan nan nan 16777215
nan nan nan 16777215
nan nan nan 16777215
nan nan nan 16777215
nan nan nan 16777215
nan nan nan 16777215
-2137.9248 621.54895 2325.553 3949120
-2152.4053 630.05267 2357.3699 3751741
-2150.126 633.73407 2371.1443 3685948
-2144.2668 636.40436 2381.135 3817534
-2113.8914 631.78467 2363.8503 3949120
-2108.1189 634.50482 2374.0281 3949120
-2109.9487 639.56805 2392.9724 4541257
-2092.5452 638.83203 2390.2185 4541257
-2065.6157 635.15637 2376.4658 4343622
-2058.1765 637.46387 2385.0994 4147012
-2050.679 639.78687 2393.791 4147269
-2038.8549 640.7843 2397.5229 4081476
-2016.9686 638.61072 2389.3904 3884097
-2004.1832 639.30768 2391.998 3686718
-1979.5582 636.21002 2380.408 3489339
-1981.344 641.61786 2400.6418 3884097
-1975.6516 644.66833 2412.0552 3686718
-1976.1123 649.78906 2431.2146 3489339
-1960.88 649.78906 2431.2146 3357753
-1934.5566 646.0849 2417.3555 3291960
-1908.9802 642.57385 2404.2188 3489082
-1908.9406 647.67108 2423.29 3818817
-1908.502 652.71356 2442.1567 3950403
-1906.9575 657.45636 2459.9021 4016453
-1882.2751 654.23425 2447.8464 4148039
-1874.6344 656.93109 2457.9368 4016196
-1859.2347 656.93109 2457.9368 3818817
-1825.0026 650.22131 2432.832 4081989
-1824.0597 655.35895 2452.0547 4213575
-1807.3881 654.88477 2450.2805 4279368
-1784.3971 652.09314 2439.8354 4213575
-1770.8251 652.72498 2442.1995 4674126
-1762.0483 655.15088 2451.2761 4937555
-1758.1157 659.43628 2467.3101 4871505
-1736.5631 657.13019 2458.6816 4345162
-1703.5736 650.41632 2433.5615 3950403
-1690.6342 651.3053 2436.8877 3950403
-1676.0048 651.55347 2437.8162 4016196
-1660.2878 651.37952 2437.1655 4147012
-1642.8442 650.51874 2433.9448 4147526
-1638.4606 654.86157 2450.1936 4213062
-1608.438 648.9422 2428.0461 4410441
-1583.6736 645.05157 2413.4893 4344648
-1581.2004 650.25299 2432.9504 4147269
-1568.8857 651.46906 2437.5005 3818561
-1546.7399 648.58655 2426.7153 3686718
-1530.4266 648.11688 2424.958 3489595
-1503.502 643.09882 2406.1829 3489339
-1472.7029 636.30518 2380.7642 3489339
-1457.7739 636.29968 2380.7437 3489339
-1454.0892 641.25275 2399.2756 3620925
-1443.9513 643.43365 2407.4355 3620925
-1432.1212 644.89856 2412.9167 3818304
-1406.4954 640.11621 2395.0232 3752511
-1396.3884 642.36963 2403.4546 3686975
-1381.9958 642.67932 2404.613 3884097
-1363.8569 641.23438 2399.2068 3620925
-1348.6388 641.14575 2398.8752 3357754
-1340.6437 644.52771 2411.5291 3619898
-1328.5972 646.01678 2417.1006 3291190
-1296.8303 637.84082 2386.5098 3291190
-1282.6647 638.23224 2387.9741 3225397
-1267.2146 637.98621 2387.0537 3422776
-1250.7618 637.22345 2384.2 3356983
-1241.1882 639.98932 2394.5486 3422776
-1225.176 639.4624 2392.5769 3291190
-1210.1858 639.4624 2392.5769 3291190
-1192.2332 637.87744 2386.6467 3488569
-1183.697 641.35425 2399.6555 3488569
-1177.0245 645.94336 2416.8259 3751741
-1165.4585 647.93152 2424.2644 3883327
-1143.4242 644.07556 2409.8372 4277828
-1140.3275 650.92633 2435.4697 3290933
-1127.2845 652.20844 2440.2668 2896175
-1105.9121 648.64044 2426.917 3291447
-1101.8376 655.25995 2451.6841 3554619
-1091.0522 658.01929 2462.0083 3422775
-1074.0577 657.0592 2458.4163 3555132
-1055.2853 654.96777 2450.5911 3555132
-1045.0162 658.17023 2462.5732 3423546
-1023.3594 654.1889 2447.677 3423546
-1003.1964 651.05591 2435.9546 3423545
-1000.5188 659.34918 2466.9841 3687488
-986.37732 660.22931 2470.2773 3358266
-961.90466 654.11212 2447.3896 3687231
-955.10199 660.00732 2469.4468 4279368
-939.63019 660.00732 2469.4468 4016196
-923.48029 659.52313 2467.635 3884610
-907.05859 658.82495 2465.0229 4213575
-898.22784 663.71167 2483.3066 3621438
-885.93402 666.16663 2492.4922 3292473
-882.58502 675.55634 2527.624 4081989
-856.88318 667.86707 2498.8542 4147782
-843.85553 669.9538 2506.6619 3884610
-828.30414 670.07812 2507.127 4081989
-816.94019 673.66022 2520.5295 4279368
-808.73444 680.03912 2544.3967 3753280
-781.83691 670.6413 2509.2341 3753024
-765.72339 670.29779 2507.949 4147782
-748.62469 669.05945 2503.3157 3884610
-737.55573 673.27228 2519.0781 3818817
-718.96747 670.65533 2509.2869 4345161
-690.30054 658.30975 2463.0952 5068884
-670.5329 654.08057 2447.2715 4674126
-670.28351 669.13837 2503.6108 4608333
-658.70374 673.33569 2519.3154 4081988
-640.57123 670.87634 2510.1138 3884610
-627.25354 673.46283 2519.791 4345162
-619.91144 682.76428 2554.5928 5003092
-596.17175 674.0199 2521.8755 5003093
-580.37146 674.0199 2521.8755 5332057
-562.76532 671.86414 2513.8093 4739919
-547.0755 671.93768 2514.0847 3687232
-530.43524 670.81378 2509.8796 4213576
-518.27808 675.46387 2527.2781 4344648
-498.19479 669.75165 2505.9055 4213061
-478.88843 664.74603 2487.1768 3818304
-460.54517 660.78552 2472.3584 3818304
-443.15189 657.95978 2461.7856 4278855
-430.48254 662.19696 2477.6394 4542027
-418.95517 668.57349 2501.4973 3620925
-400.35873 663.72644 2483.3618 4015940
-383.60077 661.65839 2475.6243 3685948
-372.26483 669.16241 2503.7009 4212292
-352.8728 662.20856 2477.6826 4343878
-336.70331 660.94031 2472.9375 3751741
-317.81143 653.94806 2446.7756 3883327
-304.94116 659.26538 2466.6709 4080707
-287.64264 655.06586 2450.958 3489596
-270.02206 649.6178 2430.5737 3489339
-256.67303 654.40918 2448.501 3423546
-241.33243 654.40918 2448.501 3489339
-228.00507 660.23901 2470.3135 3686718
-213.42618 663.02991 2480.7559 4081476
-195.95271 656.56073 2456.551 4081476
-180.09055 654.84766 2450.1416 4147525
-163.76936 650.99072 2435.7107 3884354
-149.1084 653.61871 2445.5435 3818304
-133.9518 654.42725 2448.5686 4213319
-118.51527 653.90033 2446.5972 4147269
-103.24326 654.25958 2447.9412 3752511
-88.022087 655.12244 2451.1697 3094838
-73.249786 660.39691 2470.9045 2831409
-57.768803 660.39691 2470.9045 3160631
-41.514069 648.31348 2425.6936 3292216
-25.724213 633.72607 2371.1143 3357753
-10.806945 630.13995 2357.6965 3226167
3.9943521 634.84393 2375.2966 3423546
19.12978 643.36816 2407.1904 3555132
33.927044 638.0174 2387.1704 3950147
48.653297 635.01404 2375.9331 4147526
64.330391 642.92072 2405.5164 3555132
80.701729 653.44708 2444.9014 3489339
95.838577 652.21387 2440.2871 3884097
109.8765 644.87036 2412.811 3555132
124.99352 644.87036 2412.811 3028788
139.82281 643.54614 2407.8564 2962995
155.13539 644.48761 2411.3789 3028788
171.17349 648.00848 2424.5525 3029044
186.8887 649.8327 2431.3779 3226424
202.2858 650.35919 2433.3479 3423546
217.53146 650.35919 2433.3479 3620925
234.06516 653.95776 2446.812 3291960
249.65948 654.65076 2449.405 3028788
267.75742 661.44824 2474.8381 3555132
282.16708 658.88904 2465.2627 3423546
296.61871 656.68842 2457.0288 3226167
312.28 657.25085 2459.1333 3291960
332.81064 667.52704 2497.582 2764846
343.88129 658.75818 2464.7729 2830639
358.05374 656.42963 2456.0605 2699053
374.55264 658.38239 2463.3669 2962225
390.39798 659.07721 2465.9668 2830639
405.30548 658.19617 2462.6702 3028018
420.61526 658.00909 2461.9702 3028275
435.69058 657.48138 2459.9956 2764846
449.31799 654.87939 2450.2603 2830639
465.85669 656.55231 2456.5198 2633517
483.6973 659.89453 2469.0247 2435881
496.52258 656.39923 2455.947 2567467
509.99051 653.93817 2446.7388 2830639
528.13928 657.44763 2459.8694 2633260
541.41522 654.86407 2450.2031 2765103
556.76648 654.86407 2450.2031 3028018
564.91357 646.61792 2419.3496 3028275
570.76953 636.24878 2380.553 2830639
596.56683 648.07074 2424.7854 3094068
615.16425 651.67822 2438.283 3028275
630.4408 651.67822 2438.283 2896432
647.61249 653.59076 2445.439 2962225
668.57727 659.1546 2466.2561 3028018
684.02911 659.1546 2466.2561 3554362
694.83502 654.77643 2449.8752 3555388
712.58508 656.98999 2458.1572 3489596
730.11066 658.90723 2465.3308 3489596
745.5567 658.90723 2465.3308 3555132
763.48059 661.05267 2473.3579 3489339
784.40814 665.66162 2490.6025 3620925
797.8512 663.86328 2483.874 3884097
806.03058 657.83783 2461.3293 4147269
820.09851 656.75421 2457.2751 4278855
833.9436 655.5354 2452.7148 3950147
852.9751 658.36383 2463.2976 3949377
868.40839 658.36383 2463.2976 3950147
881.00287 656.24921 2455.3855 3686718
895.10236 655.30902 2451.8677 3094581
916.49878 659.65247 2468.1189 2765616
947.72546 670.80981 2509.8647 4081733
957.74988 666.84064 2495.0139 4213062
961.87164 658.9552 2465.5103 4015683
977.31879 658.9552 2465.5103 3884097
1004.0383 666.43726 2493.5046 3884097
1024.6844 669.72064 2505.7896 4015683
1039.6774 669.26581 2504.0876 4015940
1043.0004 661.42389 2474.7468 3752511
1057.0073 660.48779 2471.2444 3423546
1078.2111 664.0108 2484.426 3620925
1093.7767 664.0108 2484.426 3949890
1097.4507 656.89282 2457.7937 3950147
1112.0908 656.44495 2456.1179 3818304
1126.9255 656.12262 2454.9121 3752511
1137.0404 653.09802 2443.5952 3686718
1158.4384 656.5484 2456.5049 4278855
1161.6356 649.72833 2430.9875 3884097
1183.8158 653.56488 2445.342 3686718
1204.2688 656.36212 2455.8079 3686718
1222.3876 657.83252 2461.3096 3555132
1239.9989 658.99658 2465.665 3489339
1255.4469 658.99658 2465.665 3555132
1269.5222 658.28473 2463.0015 3555388
1269.8384 650.54108 2434.0283 3555132
1290.7928 653.42889 2444.8333 3620925
1310.0802 655.41492 2452.2639 3818304
1323.7887 654.59613 2449.2004 3488826
1339.1337 654.59613 2449.2004 3225397
1337.9031 646.58551 2419.2283 3291190
1354.2087 647.13422 2421.2815 3422776
1379.9852 652.14661 2440.0354 3554362
1397.8517 653.35193 2444.5452 3488569
1401.7289 648.06348 2424.7583 3488569
1423.0306 650.85797 2435.2141 3685948
1439.1998 651.27057 2436.7578 3422776
1466.8016 656.79376 2457.4231 2962225
1478.2924 655.06305 2450.9475 3290678
1496.1932 656.1792 2455.1235 3225141
1517.6604 658.82068 2465.0068 3488569
1533.6746 659.06567 2465.9236 3685948
1546.7211 658.04321 2462.0979 3685948
1565.0776 659.27777 2466.717 3949120
1600.1809 667.47363 2497.3823 3884097
1608.4636 664.43164 2486.0005 3620925
1624.0392 664.43164 2486.0005 3751997
1630.311 660.66144 2471.894 3948863
1650.8718 662.69812 2479.5144 3686205
1684.9569 670.07513 2507.116 2765359
1700.2117 669.89667 2506.448 3094324
1699.0853 663.32617 2481.8643 3225911
1711.4341 662.08783 2477.231 3226424
1723.2009 660.64868 2471.8464 3356983
1739.6814 661.02625 2473.259 3356983
1755.5154 661.15363 2473.7356 3291190
1770.9868 661.14343 2473.6975 3356983
1781.0861 659.14532 2466.2214 3488569
1791.45 657.27863 2459.2371 3422776
1804.4546 656.40436 2455.9661 3488569
1816.3872 655.15826 2451.3037 3356983
1838.9447 657.73328 2460.9382 3291190
1856.0573 658.33411 2463.1863 3225397
1866.9674 656.74329 2457.2341 3291190
1886.7292 658.26672 2462.9341 3291190
1910.8632 661.27844 2474.2026 3291190
1918.6708 658.63721 2464.3203 3422776
1931.1855 657.64117 2460.5935 3291190
1955.9341 660.79395 2472.3899 3356983
1986.9044 665.98267 2491.8037 3356983
1987.6678 661.04443 2473.3271 3291190
2003.0791 661.01648 2473.2224 3225397
2036.2579 666.80713 2494.8884 3356983
2060.1721 669.49884 2504.9597 3488569
2062.4956 665.18652 2488.825 3685948
2092.4785 669.79254 2506.0586 3817534
2110.429 670.5072 2508.7324 3685948
2122.405 669.32715 2504.3171 3422007
2142.769 670.79022 2509.7915 3290677
2150.7466 668.38269 2500.7834 3290677
2175.761 671.26624 2511.5723 3290677
2212.896 677.82086 2536.0969 2895919
2214.6646 673.52643 2520.0291 2501161
2223.8101 671.52045 2512.5234 2764333
2233.2808 669.64001 2505.4878 3027762
2250.6497 670.13763 2507.3496 2961969
2269.4695 671.05737 2510.791 3093298
2295.9148 674.20374 2522.5632 3224884
2317.5776 675.91217 2528.9556 3619385
2320.7832 672.2511 2515.2573 3620155
2325.8699 669.1806 2503.7688 3554362
2333.876 666.98547 2495.5559 3620155
2400.9561 681.58978 2550.1985 3883327
2404.939 678.20709 2537.542 4014913
2410.6765 675.36047 2526.8914 4014913
2401.9485 668.52496 2501.3157 3620155
2424.5508 670.44141 2508.4863 3554362
2445.8364 671.9715 2514.2112 3620155
2461.5886 671.9715 2514.2112 3620155
2464.7803 668.56439 2501.4634 3356983
2480.4526 668.56439 2501.4634 3159604
2473.1345 662.40662 2478.4238 3159861
2487.0225 661.97003 2476.7903 3028018
2502.5403 661.97003 2476.7903 3159604
2518.4033 662.06073 2477.1296 3159604
2531.8867 661.52869 2475.1389 3225397
nan nan nan 16777215
nan nan nan 16777215
nan nan nan 16777215
nan nan nan 16777215
nan nan nan 16777215
nan nan nan 16777215
nan nan nan 16777215
nan nan nan 16777215
nan nan nan 16777215
nan nan nan 16777215
-2108.3638 631.5517 2309.1345 3620155
-2100.2837 633.47821 2316.1785 3620155
-2107.8213 640.17487 2340.6633 3751741
-2078.1865 635.59656 2323.9236 3751741
-2060.9275 634.76526 2320.8843 3817534
-2053.7476 637.04858 2329.2327 3751741
-2039.6255 637.1958 2329.771 3817534
-2030.2499 638.83868 2335.7778 3949120
-2025.6119 642.00702 2347.3621 3949634
-2003.1218 639.52209 2338.2766 3884097
-1988.8359 639.63922 2338.7048 3884097
-1970.4158 638.41852 2334.2417 3884097
-1954.8483 638.11078 2333.1165 4081476
-1962.705 645.50226 2360.1418 4213062
-1932.3783 640.35272 2341.3137 4344648
-1941.9899 648.46045 2370.9578 3686718
-1932.6503 650.31628 2377.7432 3686718
-1917.7531 650.31628 2377.7432 3818304
-1896.845 648.26202 2370.2324 4015683
-1876.624 646.41211 2363.4685 3950404
-1870.3539 649.37628 2374.3064 3884610
-1859.6501 650.83643 2379.645 3884610
-1844.7408 650.83643 2379.645 3950403
-1838.1656 653.80066 2390.4832 4081989
-1819.9038 652.62268 2386.1763 4148039
-1801.8456 651.4989 2382.0674 4147782
-1784.4298 650.59064 2378.7463 4279368
-1767.9117 649.99701 2376.5759 4213575
-1753.0219 649.99701 2376.5759 4016196
-1730.9475 647.31042 2366.7529 4016196
-1736.9987 655.1861 2395.5486 4213575
-1721.99 655.1861 2395.5486 4213575
-1708.748 655.86426 2398.0283 3620668
-1663.8619 644.30084 2355.7493 3489339
-1644.4601 642.48706 2349.1174 3752511
-1629.7421 642.48706 2349.1174 3884097
-1613.4039 641.84259 2346.761 3752511
-1603.6002 643.80963 2353.9529 3752511
-1580.3158 640.35065 2341.3062 3686718
-1558.1682 637.29193 2330.1226 3555132
-1548.0043 639.12305 2336.8174 3752254
-1531.4624 638.33063 2333.9204 3949633
-1516.8397 638.33063 2333.9204 3752254
-1511.7251 642.37091 2348.6926 3488825
-1481.1671 635.57275 2323.8367 3423289
-1467.1938 635.8269 2324.7659 3620155
-1453.76 636.32214 2326.5767 3619898
-1438.6342 636.07935 2325.689 3358010
-1420.6102 634.53711 2320.05 3555132
-1406.6997 634.8194 2321.082 3818560
-1394.9897 636.1109 2325.8042 3818304
-1384.0532 637.78607 2331.9292 3686974
-1364.6948 635.57477 2323.844 3686974
-1352.7283 636.79541 2328.3071 3686718
-1346.356 640.7049 2342.6013 3818560
-1325.1931 637.58441 2331.1919 3949890
-1311.3662 637.96332 2332.5771 3555132
-1307.4232 643.21332 2351.7727 3554362
-1293.1249 643.4303 2352.5662 3225397
-1271.5038 639.96674 2339.9023 3159604
-1255.5275 639.29657 2337.4521 3225397
-1237.9999 637.81146 2332.022 3225397
-1220.2977 636.19977 2326.1292 3225397
-1209.4261 638.15332 2333.272 3356983
-1197.425 639.55133 2338.3835 3356983
-1182.7743 639.55133 2338.3835 3159604
-1162.6189 636.53748 2327.364 3422776
-1148.0372 636.53748 2327.364 3685948
-1140.2479 640.35205 2341.3113 3685948
-1128.2108 641.84937 2346.7859 3751741
-1113.7743 642.00317 2347.3481 3620155
-1096.7616 640.65625 2342.4233 3291190
-1081.0011 640.01416 2340.0757 3554362
-1076.7869 646.28442 2363.0017 3686462
-1066.7069 649.15997 2373.5154 3620668
-1055.4105 651.36591 2381.5811 3423290
-1042.4865 652.61621 2386.1526 3423289
-1030.0822 654.23315 2392.0645 3423289
-1017.1765 655.57446 2396.9688 3949890
-1005.2281 657.5824 2404.3103 3949890
-990.2724 657.65417 2404.5728 3686718
-974.89642 657.44476 2403.8069 3621695
-975.46362 668.14905 2442.9451 4016196
-949.87103 660.99072 2416.7722 4213575
-928.19373 656.3692 2399.8745 4147782
-922.86023 663.34326 2425.3735 3687488
-912.05499 666.55194 2437.1055 3884610
-895.65503 665.71149 2434.0327 4213575
-880.40509 665.71149 2434.0327 4081989
-868.33636 668.15936 2442.9827 4016196
-853.16687 668.2663 2443.3738 4081989
-842.16901 671.70447 2455.9446 4016196
-822.00665 667.82495 2441.76 4016453
-811.2218 671.56152 2455.4219 4542540
-788.73444 665.56738 2433.5056 4674126
-760.14099 654.08276 2391.5146 4805456
-751.09186 659.29193 2410.5608 4608079
-738.849 661.85394 2419.9282 4213575
-726.40857 664.34259 2429.0273 4674126
-708.5116 661.84064 2419.8796 4674126
-694.82654 663.24982 2425.032 4871505
-663.86993 647.8667 2368.7869 5068884
-638.92328 637.77942 2331.9048 5003091
-649.37805 663.38489 2425.5259 3226680
-638.06317 667.44543 2440.3723 4081991
-625.862 670.75549 2452.4749 4871507
-605.87701 665.68011 2433.9177 4410955
-599.71094 675.91742 2471.3484 4278858
-584.22717 675.91742 2471.3484 4871251
-563.64807 669.86194 2449.2078 5332058
-546.73828 667.95026 2442.2183 4476748
-527.02002 662.39868 2421.9199 4016196
-512.96606 663.84827 2427.22 4278855
-492.13223 656.34424 2399.7832 4344904
-477.59171 657.02502 2402.2725 4015940
-465.31049 660.95941 2416.6577 3752511
-450.59503 661.58435 2418.9426 3950147
-434.76807 660.56409 2415.2122 3884097
-422.7543 665.47272 2433.1594 3686718
-407.50443 665.46393 2433.1274 3950147
-389.03915 659.99957 2413.1482 4212549
-377.19849 665.78632 2434.3062 4080706
-360.67209 663.44153 2425.7329 3949376
-348.27051 668.81165 2445.3677 4080963
-331.14151 665.17981 2432.0886 3620412
-313.92984 661.02356 2416.8921 3686205
-296.13528 655.15643 2395.4402 3554362
-278.9549 650.09418 2376.9312 3291704
-266.22339 655.41364 2396.3806 3357753
-249.72411 651.53857 2382.2124 3620925
-239.11786 663.52344 2426.0325 3094581
-220.79063 654.25629 2392.1489 3555132
-205.77991 654.18262 2391.8796 4147526
-190.13551 651.92468 2383.624 4081476
-176.69963 657.49976 2404.0081 3884097
-160.03893 650.99603 2380.2285 3883841
-144.78348 649.45929 2374.6099 3818560
-132.65298 663.19373 2424.8269 4147269
-116.60876 658.38361 2407.2397 4147269
-99.744141 646.82434 2364.9756 3949890
-85.527351 651.39801 2381.6982 3489339
-70.60527 651.39801 2381.6982 3423546
-55.649029 650.99823 2380.2368 3752511
-40.057087 640.14697 2340.5613 3752511
-25.417582 640.77307 2342.8506 4081476
-10.674514 636.93152 2328.8047 3291960
3.9161704 636.93152 2328.8047 3225398
18.454233 635.12054 2322.1833 3423290
33.169331 638.31311 2333.8562 3554618
47.633026 636.19434 2326.1094 3357239
62.562702 639.83392 2339.4167 3554619
77.41291 641.43341 2345.2649 3686205
92.235031 642.3269 2348.532 3094324
106.83921 641.66571 2346.1143 2896688
120.32838 635.27765 2322.7576 2699566
135.39706 637.70752 2331.6418 2765359
151.06464 642.20996 2348.1042 2765103
166.11641 643.52777 2352.9226 2699310
180.57935 642.53558 2349.2947 3094068
195.33441 642.65405 2349.7278 3225654
211.13652 645.95929 2361.8127 3094580
226.40834 647.31537 2366.771 3226167
241.23688 647.31537 2366.771 3160631
256.81241 649.20361 2373.675 3226423
272.73959 651.72552 2382.8958 3357496
285.21472 646.16486 2362.5645 3160374
299.96063 646.04358 2362.1211 3291703
317.68805 652.05334 2384.0945 3160118
331.77664 650.39001 2378.0127 2962225
347.13467 651.25122 2381.1616 3159604
363.49481 653.84399 2390.6416 3159604
377.71893 652.54138 2385.8789 3159604
393.27618 653.55341 2389.5791 3225397
406.16827 650.22461 2377.4082 3159604
421.94363 651.5838 2382.3777 3291190
437.7832 652.94592 2387.3579 3225397
451.08029 650.55115 2378.6021 3093811
470.0632 656.2475 2399.4294 2699053
480.68689 650.28229 2377.6189 2830639
494.61359 649.0097 2372.9661 3093811
509.5405 649.08557 2373.2434 2962225
524.29266 648.9408 2372.7141 2830896
538.16235 647.74188 2368.3306 2896432
553.50903 648.33734 2370.5076 2567467
562.90118 642.10931 2347.7361 3093811
578.63098 643.24371 2351.8838 3620155
597.6015 647.83502 2368.6709 2962225
612.44202 647.83502 2368.6709 2896432
629.57001 650.19751 2377.3091 2896432
650.30353 656.08838 2398.8477 2896432
671.12958 661.80438 2419.7471 3093811
675.34259 651.2475 2381.1479 3291190
690.99133 651.9364 2383.6667 3488569
707.97491 653.8288 2390.5859 3488569
722.41052 653.3385 2388.7932 3488569
737.69147 653.617 2389.8118 3554362
752.66431 653.617 2389.8118 3555388
770.21576 655.81256 2397.8391 3489339
787.02557 657.30469 2403.2949 3489339
800.98749 656.40692 2400.0125 3555132
808.23907 650.14447 2377.1152 3489339
828.81714 654.63452 2393.532 3619899
842.13837 653.33508 2388.7808 3620925
858.51031 654.40637 2392.6978 3686718
874.04529 654.81396 2394.188 3686718
891.91986 656.93091 2401.9282 3555132
913.78894 661.87091 2419.9905 3423546
928.8006 661.76385 2419.5989 3621182
935.43811 655.78949 2397.7549 3949890
950.46088 655.78949 2397.7549 4410441
956.56335 649.73065 2375.6021 4147269
978.39868 654.37994 2392.6011 3752511
998.61926 657.82526 2405.1982 3884097
1023.8671 664.43048 2429.3489 3620925
1039.0876 664.43048 2429.3489 3160374
1045.2756 658.73804 2408.5356 3291960
1059.6974 658.32281 2407.0173 3555132
1067.2578 653.71643 2390.1753 4213062
1080.5369 652.69202 2386.4294 4278855
1077.4114 641.92151 2347.0496 3686718
1092.1163 641.92151 2347.0496 3686718
1128.4242 654.4505 2392.8591 4015683
1135.6726 650.01831 2376.6538 3949890
1160.0553 655.38098 2396.2612 4213062
1161.7234 647.93787 2369.0471 4015683
1184.3789 652.2403 2384.7781 3949890
1205.8809 655.80829 2397.8235 3884097
1208.7273 649.26764 2373.9089 3686718
1222.6556 648.76624 2372.0757 3620925
1235.0563 647.47595 2367.3582 3555132
1243.3855 644.10718 2355.041 3620925
1257.3436 643.69922 2353.5493 3357753
1274.7427 645.04181 2358.4583 2831666
1284.1265 642.34424 2348.5952 3291704
1291.2229 638.57666 2334.8198 3225397
1305.9803 638.63977 2335.0505 3093811
1319.0603 637.89032 2332.3103 3225397
1336.5294 639.25653 2337.3057 3488569
1359.8777 643.37463 2352.3625 3356983
1380.33 646.04901 2362.1409 3422776
1402.2419 649.34265 2374.1833 3554362
1441.2565 660.40369 2414.6257 3356983
1443.6797 654.64246 2393.561 3290934
1438.9027 645.76837 2361.1147 3356726
1449.9327 644.09674 2355.0027 3225397
1478.6343 650.22968 2377.4268 3422776
1493.5295 650.22968 2377.4268 3356983
1507.1359 649.67413 2375.3953 3225397
1524.0536 650.54285 2378.5715 3356983
1535.677 649.15668 2373.5034 3554362
1554.8131 650.94238 2380.0325 3620155
1581.4103 655.78821 2397.7502 3422776
1596.546 655.83472 2397.9202 3159604
1629.0497 662.9483 2423.9294 3028018
1633.5701 658.64764 2408.2051 3291190
1644.1281 656.83783 2401.5879 3356983
1650.9852 653.59576 2389.7339 3291190
1665.3921 653.37384 2388.9226 3159604
1679.0516 652.8653 2387.0632 3093811
1692.6483 652.34161 2385.1484 3291190
1713.6428 654.65308 2393.5999 3225397
1722.4683 652.31604 2385.0549 3225397
1734.0273 651.04547 2380.4094 3422776
1750.0516 651.4588 2381.9207 3422776
1763.1882 650.79932 2379.5093 3422776
1784.4136 653.11127 2387.9626 3356983
1806.8943 655.84064 2397.9419 3422776
1810.3755 651.68555 2382.7498 3291190
1828.5447 652.84253 2386.98 3159604
1858.7952 658.25903 2406.7844 3225397
1873.8744 658.25903 2406.7844 3290934
1886.0082 657.23267 2403.0315 3356983
1900.4241 657.01141 2402.2227 3357240
1914.5995 656.71124 2401.125 3488569
1931.2777 657.26752 2403.1589 3356983
1940.4709 655.28741 2395.9192 3291190
1966.8013 659.08057 2409.7878 3159604
1984.2793 659.87195 2412.6816 3291190
1994.8223 658.36267 2407.1631 3291190
2011.3361 658.83179 2408.8784 3225397
2036.1234 661.98383 2420.4031 3488569
2051.2881 661.98383 2420.4031 3422006
2057.2605 659.03912 2409.6365 3290677
2082.0793 662.13086 2420.9407 3356470
2112.4641 666.935 2438.5061 3488056
2142.5642 671.58093 2455.4929 3488056
2172.7151 676.17645 2472.2954 3488056
2189.3752 676.53809 2473.6177 3093298
2191.9907 672.58533 2459.1653 3093298
2192.2805 667.979 2442.3232 3290677
2206.8176 667.74756 2441.4771 3159091
2242.3367 673.8244 2463.6958 3290677
2266.5212 676.43549 2473.2427 3948607
2265.658 671.58636 2455.5127 3949376
2270.6628 668.53033 2444.3391 3751741
2271.2192 664.21442 2428.5588 3488569
2302.4763 668.87445 2445.5974 3620155
2332.6497 673.16016 2461.2671 3554362
2354.4026 674.97559 2467.9048 3422776
2365.7183 673.79449 2463.5864 3488569
2374.6155 671.94452 2456.8223 3488569
2387.1836 671.15039 2453.9187 3620155
2409.4355 673.07147 2460.9429 3554362
2415.3606 670.43646 2451.3083 3356983
2416.093 666.40234 2436.5586 3094068
2419.698 663.2063 2424.8728 2830639
2430.4412 661.99438 2420.4419 2896432
2443.5713 661.4436 2418.428 3094068
2459.2102 661.57458 2418.9067 3159604
2471.8525 660.90265 2416.4502 3093811
nan nan nan 16777215
nan nan nan 16777215
nan nan nan 16777215
nan nan nan 16777215
nan nan nan 16777215
nan nan nan 16777215
nan nan nan 16777215
nan nan nan 16777215
nan nan nan 16777215
nan nan nan 16777215
-2042.8574 625.87335 2237.3904 3488569
-2043.6002 630.42688 2253.6685 3488569
-2032.1082 631.2431 2256.5864 3488569
-2015.2552 630.39398 2253.5508 3554362
-1999.8335 629.98364 2252.084 3554362
-1990.3917 631.46466 2257.3784 3620155
-1980.5428 632.83679 2262.2837 3554362
-1968.0792 633.38727 2264.2512 3554362
-1957.9734 634.70996 2268.9797 3554875
-1969.6893 643.17767 2299.2505 3752511
-1938.2426 637.57208 2279.2114 3686718
-1928.3783 639.0354 2284.4424 3752511
-1922.5774 641.87714 2294.6013 4344648
-1914.4663 643.98462 2302.1353 4410441
-1886.8569 639.51556 2286.1589 4410441
-1888.7507 645.05426 2305.9587 4081476
-1879.6442 646.89227 2312.5295 4081476
-1874.7073 650.20514 2324.3726 4147270
-1853.8634 648.00964 2316.5239 4147269
-1843.0238 649.30414 2321.1514 3950660
-1830.9231 650.17133 2324.2515 3884610
-1816.361 650.17133 2324.2515 3950403
-1796.1285 648.12524 2316.937 4279368
-1781.3242 648.02045 2316.5625 4279368
-1770.2139 649.2688 2321.0251 4147782
-1751.9724 647.9007 2316.1343 4016453
-1737.4612 647.9007 2316.1343 4345161
-1723.839 648.23505 2317.3296 4213575
-1709.3201 648.23505 2317.3296 4016196
-1686.262 644.96881 2305.6536 4016196
-1674.1353 645.86346 2308.8516 3883841
-1660.3502 646.12836 2309.7986 3818304
-1645.8788 646.12836 2309.7986 3686718
-1620.8444 641.94495 2294.8435 3489339
-1594.1239 637.01282 2277.2122 3686718
-1577.405 636.02441 2273.6787 3818304
-1560.9153 635.11115 2270.4141 3884097
-1539.1876 632.03027 2259.4004 3620925
-1517.4934 628.90619 2248.2322 3555132
-1503.2125 628.82452 2247.9404 3357753
-1489.1284 628.82452 2247.9404 3357753
-1475.223 628.9007 2248.2126 3686975
-1462.1274 629.32684 2249.7361 3687231
-1448.0321 629.32684 2249.7361 3686974
-1434.0863 629.39246 2249.9707 3621181
-1436.5396 636.72803 2276.1941 3752511
-1413.443 632.77258 2262.054 3620925
-1392.7778 629.83649 2251.5579 3555132
-1388.4083 634.28479 2267.46 3686718
-1374.202 634.28479 2267.46 3752768
-1356.5315 632.66919 2261.6843 3752511
-1342.3284 632.65369 2261.6289 3620925
-1326.5361 631.88086 2258.8662 3752511
-1318.3059 634.73224 2269.0596 3752511
-1310.6954 637.94751 2280.5535 3686975
-1290.557 635.06873 2270.2625 3554362
-1278.4432 636.11871 2274.0159 3422519
-1273.1807 640.63971 2290.1777 3356983
-1259.2949 640.87531 2291.0198 3225397
-1247.6219 642.25543 2295.9536 3028018
-1231.6488 641.42828 2292.9966 3028018
-1214.9618 640.20538 2288.625 3225397
-1188.98 633.99719 2266.4316 3356983
-1179.5696 636.58191 2275.6716 3422776
-1163.9763 635.85236 2273.0637 3422520
-1150.7362 636.40607 2275.0432 3356726
-1132.749 634.31555 2267.5698 3488312
-1112.1439 630.68726 2254.5994 3883327
-1107.4794 636.12164 2274.0264 3817534
-1096.6243 638.09558 2281.0828 3751484
-1083.278 638.65295 2283.0752 3817277
-1067.4893 637.76599 2279.9045 3817534
-1060.3958 642.12042 2295.4709 3620668
-1046.014 642.12042 2295.4709 3423802
-1028.5259 640.18701 2288.5593 3686718
-1027.1719 648.38324 2317.8594 3555132
-1016.1631 650.63275 2325.9011 3358009
-1005.1634 652.95361 2334.1978 3686718
-995.92853 656.50635 2346.8982 4147269
-975.57416 652.72595 2333.384 3884354
-970.5072 659.21442 2356.5791 3686717
-968.09778 667.73633 2387.0435 3621438
-950.93524 666.19025 2381.5164 3818561
-932.32013 663.56097 2372.1172 4673870
-908.10992 656.7998 2347.9473 3950402
-911.49915 670.10632 2395.5156 3818560
-899.84528 672.61389 2404.4797 3686974
-886.2807 673.75433 2408.5569 3949890
-852.58087 659.3623 2357.1077 4147269
-852.07739 670.58856 2397.2397 4279625
-831.19458 665.8913 2380.4478 4345161
-810.15961 660.89825 2362.5984 4279368
-803.26672 667.47058 2386.0935 4279368
-784.48541 664.22626 2374.4956 4476747
-761.01733 656.81152 2347.989 4542540
-747.57104 657.9245 2351.9678 4542540
-735.45093 660.27277 2360.3625 4608335
-720.66254 660.27277 2360.3625 4608333
-711.67804 665.70178 2379.7703 4608333
-695.06116 664.07098 2373.9404 4608590
-675.80377 659.79089 2358.6399 5068884
-655.60046 654.37537 2339.2803 4608333
-637.00214 650.35071 2324.8928 4016196
-622.11932 650.01996 2323.7104 4279368
-621.89514 665.35626 2378.5352 4081989
-611.98407 670.82745 2398.0935 4147783
-589.12402 662.02258 2366.6179 4410698
-574.29645 662.02258 2366.6179 4477004
-560.7395 663.52618 2371.9929 4147782
-538.16534 654.15106 2338.4783 4608590
-521.29047 651.3725 2328.5457 4476747
-504.44229 648.46844 2318.1641 3621438
-493.78601 653.58789 2336.4651 4147782
-479.2059 653.66779 2336.7507 4279368
-464.54092 653.6333 2336.6274 3687231
-451.46033 655.89838 2344.7249 3818817
-436.77728 655.90948 2344.7644 4016196
-424.52277 659.69525 2358.2979 3226423
-409.43857 659.19812 2356.5208 3357753
-392.22299 655.104 2341.885 3686718
-378.60846 656.93994 2348.4482 3686718
-365.71243 660.2215 2360.1792 3818561
-350.01175 658.50299 2354.0359 3884097
-335.73355 659.42725 2357.3398 3620925
-321.07422 659.6535 2358.1487 3226167
-303.48557 653.59296 2336.4834 3620925
-290.63086 657.63 2350.915 3949377
-273.75543 652.51428 2332.6272 3357753
-262.95905 662.1286 2366.9968 3686717
-249.55212 665.92596 2380.5718 4410697
-235.18036 667.46783 2386.0835 4278855
-217.72861 659.88422 2358.9736 4081732
-198.61028 645.77728 2308.5435 4081476
-184.77251 647.97247 2316.3911 4147269
-170.50015 648.888 2319.6638 3818304
-154.47507 642.68195 2297.4783 3686718
-140.66484 645.36212 2307.0596 3686461
-126.64433 647.58105 2314.9917 3686718
-111.96188 646.55139 2311.311 4147269
-97.480812 646.55139 2311.311 4278855
-82.78669 644.89185 2305.3784 4410441
-67.908661 640.79553 2290.7346 4344648
-53.676453 642.23071 2295.8652 3752511
-39.355 643.25806 2299.5378 3620925
-24.942675 643.12897 2299.0764 3949890
-10.422479 636.06378 2273.8196 3555132
3.7673709 626.69269 2240.3193 3226167
17.974283 632.69836 2261.7888 3555388
32.210728 633.99023 2266.407 3752254
46.500423 635.21906 2270.7998 3686461
60.326069 631.01807 2255.782 3883583
74.140297 628.31512 2246.1194 3620155
89.028542 634.12451 2266.887 2962225
102.4305 629.20538 2249.302 2896689
117.31103 633.46021 2264.5122 2764846
132.22273 636.94714 2276.9773 2764846
147.08673 639.54742 2286.2729 2896688
161.78027 641.0108 2291.5042 2896946
176.41078 642.00623 2295.0627 3094325
191.71561 645.12067 2306.1963 3225910
205.47974 642.97748 2298.5347 3225654
220.27455 644.12897 2302.6511 3225654
235.18941 645.46844 2307.4395 3225654
249.64626 645.46844 2307.4395 3093811
263.9104 644.9975 2305.7561 3028018
277.81262 643.73688 2301.2495 3159604
292.73059 644.83813 2305.1863 3225397
307.19513 644.88397 2305.3501 3422776
321.37311 644.35114 2303.4453 3620155
336.90094 646.45422 2310.9636 3488569
351.39182 646.47626 2311.0422 3356983
365.92291 646.56763 2311.3689 3291190
381.15298 647.84003 2315.9175 3422776
395.18216 647.05286 2313.1035 3225397
411.36499 649.7229 2322.6484 3291190
425.91711 649.7229 2322.6484 3291190
441.73996 651.59735 2329.3494 3422776
456.51672 651.85822 2330.2817 3488569
470.07996 650.42371 2325.1538 3093811
481.98795 646.85413 2312.3931 2962225
497.18423 647.7771 2315.6926 3028018
511.07773 646.9986 2312.9094 3028018
525.76001 647.23389 2313.7507 2830639
542.34338 649.73413 2322.6887 2896432
553.46844 645.73541 2308.394 3159604
564.28735 641.59235 2293.5833 3620155
582.00323 645.30219 2306.8452 2699053
598.21838 647.2085 2313.6599 2896432
614.41742 649.00769 2320.0916 2962225
629.71521 649.79364 2322.9014 2962225
644.26892 649.79364 2322.9014 2962225
654.41058 645.44202 2307.3452 3028018
669.59796 646.14758 2309.8674 3159604
681.76379 643.96918 2302.0801 3291190
698.81812 646.40295 2310.7803 3422776
713.29584 646.40295 2310.7803 3291190
729.23438 647.70044 2315.4185 3356727
744.74207 648.57202 2318.5344 3159604
755.49493 645.34869 2307.0115 3159604
767.81744 643.56207 2300.6245 3028275
783.57788 644.66962 2304.584 2962738
805.70892 650.88367 2326.7981 3159348
820.28705 650.88367 2326.7981 3225654
828.12646 645.63 2308.0171 3160374
847.99994 649.77771 2322.8445 3686718
864.67194 651.37372 2328.55 3489339
878.75055 650.99561 2327.1982 3620925
891.77759 649.86353 2323.1511 3686718
905.22375 649.06824 2320.3081 3686718
916.46948 646.74524 2312.0039 3884354
940.72388 653.53186 2336.2649 3949890
954.31512 652.81622 2333.7065 4278855
964.33008 649.71265 2322.6118 4278855
989.93964 657.05194 2348.8486 3620925
1000.5765 654.38397 2339.311 3555132
1015.1193 654.31067 2339.0491 3555132
1034.9694 657.61169 2350.8496 3489339
1040.4064 651.79059 2330.0403 3423546
1049.3586 648.30237 2317.5703 3686718
1060.8446 646.45331 2310.9602 3423546
1075.3235 646.45331 2310.9602 3291960
1101.0842 653.14551 2334.8838 3818304
1112.2673 651.12842 2327.6731 3884353
1125.1539 650.14789 2324.1677 3950147
1133.1383 646.39587 2310.7549 3949890
1143.4342 644.04053 2302.335 3686718
1162.1578 646.43164 2310.8828 3555132
1175.8971 646.02557 2309.4312 3620925
1190.516 646.10681 2309.7214 3620925
1204.3521 645.76624 2308.5042 3291960
1219.4117 646.08209 2309.6333 3752511
1225.3937 641.63733 2293.7439 3555132
1239.7646 641.63733 2293.7439 3160374
1249.975 639.50861 2286.1343 3423033
1266.496 640.6203 2290.1082 3751741
1272.6954 636.54462 2275.5383 3159604
1294.3727 640.21478 2288.6584 3159604
1308.5913 640.15582 2288.4478 3422776
1311.7012 634.7226 2269.0251 3488569
1334.8267 638.98761 2284.2717 4278085
1349.1383 638.98761 2284.2717 4212292
1363.3412 638.93665 2284.0894 3554362
1383.1359 641.4801 2293.1819 3488056
1399.6357 642.45886 2296.6809 3356726
1417.1144 643.86249 2301.6985 3291190
1433.115 644.573 2304.2385 3488569
1445.2943 643.56775 2300.645 3356983
1459.6261 643.53143 2300.5151 3225397
1475.7643 644.28448 2303.207 3356983
1498.3025 647.78986 2315.7383 3620155
1512.8113 647.78986 2315.7383 3620155
1539.4821 652.94812 2334.1782 3225397
1550.8789 651.59216 2329.3308 3159604
1558.8927 648.85327 2319.5398 3685948
1573.0328 648.69141 2318.9612 3620155
1593.9203 651.28955 2328.249 3488569
1601.8372 648.58875 2318.594 3291190
1623.9482 651.63202 2329.4734 3093811
1642.687 653.28003 2335.3645 3028018
1657.3186 653.28003 2335.3645 3291190
1666.1488 651.01312 2327.2607 3291190
1678.4188 650.11798 2324.0608 3422776
1693.1609 650.18756 2324.3096 3554362
1702.5266 648.20892 2317.2363 3422776
1719.0229 648.95569 2319.9058 3488569
1733.131 648.7959 2319.3347 3291190
1744.62 647.6665 2315.2971 3225140
1759.126 647.6665 2315.2971 3225141
1780.1763 650.05615 2323.8398 3225141
1801.8993 652.65082 2333.1152 3159091
1825.8488 656.00354 2345.1008 3027249
1839.5435 655.64783 2343.8291 3027505
1891.7235 668.90594 2391.2246 2895663
1871.9373 656.70874 2347.6216 2830126
1881.9136 655.06152 2341.7332 3027249
1890.5356 652.97205 2334.2637 3093298
1905.5148 653.09351 2334.6978 2896176
1934.6578 658.03064 2352.3472 3225397
1950.4531 658.38739 2353.6226 3356983
1964.6023 658.18744 2352.9077 3291190
1978.1088 657.77667 2351.4392 3554362
1972.5665 651.08466 2327.5164 3553849
1998.9293 654.94434 2341.3142 3093298
2035.7422 662.14685 2367.062 3290677
2056.6257 664.10144 2374.0493 3422263
2075.6182 665.42169 2378.769 3619642
2087.4614 664.44757 2375.2866 3751228
2110.127 666.90759 2384.0808 4080193
2137.7734 670.89618 2398.3394 3882814
2117.7712 659.98004 2359.3159 3422263
2143.3303 663.31525 2371.2388 3159091
2186.5732 672.03979 2402.4275 3356470
2207.1111 673.71436 2408.4138 3290677
2215.0388 671.54315 2400.6521 3159604
2234.3755 672.83673 2405.2764 3093812
2236.0366 668.82599 2390.9387 3422519
2240.7083 665.76318 2379.9897 3488825
2256.0635 665.89417 2380.458 3620155
2301.52 674.84973 2412.4727 3094067
2282.6133 664.93903 2377.0435 3028018
2310.6418 668.74072 2390.634 3028018
2324.0183 668.28015 2388.9875 3159604
2331.0898 666.02411 2380.9226 3225397
2349.7666 667.09143 2384.738 3225397
2357.0759 664.93848 2377.0415 3093811
2370.6748 664.57568 2375.7446 2962225
2385.5593 664.57568 2375.7446 3028275
2392.9614 662.50403 2368.3389 3159604
2397.5281 659.67773 2358.2354 3094068
2417.7458 661.1662 2363.5564 3093811
nan nan nan 16777215
nan nan nan 16777215
nan nan nan 16777215
nan nan nan 16777215
nan nan nan 16777215
nan nan nan 16777215
nan nan nan 16777215
nan nan nan 16777215
nan nan nan 16777215
nan nan nan 16777215
-2002.1794 627.0769 2192.8389 3620155
-1994.8068 629.08453 2199.8594 3751741
-1982.3678 629.51123 2201.3516 4014913
-1960.3807 626.89062 2192.1875 4080706
-1946.0421 626.69617 2191.5076 3949120
-1943.6666 630.37891 2204.3857 3751741
-1929.365 630.21869 2203.8254 3488569
-1923.8947 632.96167 2213.4175 3554105
-1910.027 632.96167 2213.4175 3555389
-1905.9463 636.2287 2224.842 3686718
-1896.5875 637.7691 2230.2285 3620925
-1890.3468 640.38855 2239.3887 3752511
-1868.6531 637.77301 2230.2424 4344648
-1878.1782 645.85345 2258.499 4213062
-1866.9277 646.85822 2262.0125 4147269
-1840.9052 642.72083 2247.5444 4147269
-1827.3386 642.90198 2248.178 4081476
-1821.0682 645.67291 2257.8677 4081476
-1798.3523 642.61072 2247.1594 4081476
-1789.9987 644.67273 2254.3701 4081732
-1776.8542 645.02844 2255.614 3621438
-1771.2297 648.14166 2266.5007 3424059
-1761.2751 649.70789 2271.9775 3555645
-1742.1229 647.87903 2265.5823 3753280
-1724.0488 646.42444 2260.4956 3884867
-1709.4668 646.26587 2259.9412 4081989
-1685.1829 642.40625 2246.4443 3950660
-1667.1395 640.88062 2241.1094 4016196
-1654.2533 641.32843 2242.6753 4016452
-1640.2023 641.32843 2242.6753 3950403
-1628.0255 642.06763 2245.2603 3687231
-1616.2394 642.9751 2248.4336 3753024
-1592.1891 638.97668 2234.4514 3752511
-1560.915 631.98254 2209.9937 3752511
-1549.511 632.98022 2213.4824 3620925
-1533.9858 632.29724 2211.094 3489339
-1517.6685 631.27228 2207.5098 3489339
-1499.5983 629.49268 2201.2866 3489339
-1480.3929 627.1991 2193.2661 3555132
-1469.38 628.36591 2197.3464 3489339
-1453.6288 627.50946 2194.3513 3423803
-1441.1458 628.06085 2196.2795 3423803
-1426.0314 627.46503 2194.196 3555132
-1413.3252 627.92761 2195.8137 3555132
-1395.4115 626.06287 2189.293 3358010
-1383.8922 627.05853 2192.7747 3489339
-1370.1539 627.05853 2192.7747 3423290
-1355.4485 626.61151 2191.2114 3291960
-1345.937 628.58105 2198.0986 3094838
-1328.6221 626.90918 2192.2522 3160374
-1320.3132 629.49634 2201.2993 3160118
-1313.353 632.78784 2212.8096 3291704
-1299.8658 632.97131 2213.4512 3423033
-1278.3251 629.19476 2200.2449 3357240
-1264.5399 629.19476 2200.2449 3357239
-1254.3088 630.98267 2206.4971 3356983
-1241.9359 631.72101 2209.0789 3356983
-1228.8594 632.11395 2210.4531 3356983
-1221.3096 635.3913 2221.9136 3225397
-1213.1495 638.42297 2232.5151 3028018
-1189.9121 633.49835 2215.2942 3620155
-1176.7531 633.88641 2216.6511 3883327
-1165.1862 635.15167 2221.0757 3817534
-1147.7635 633.21704 2214.3103 3751484
-1130.9567 631.57867 2208.5813 3818048
-1117.623 631.86359 2209.5774 3752511
-1105.3187 632.74481 2212.6589 3686718
-1095.0378 634.82135 2219.9207 3752511
-1077.9412 632.9494 2213.3745 3949890
-1061.9049 631.6593 2208.863 3884097
-1055.4565 636.11371 2224.4399 3423803
-1045.2129 638.36938 2232.3276 3818561
-1031.4009 638.47723 2232.7048 4081476
-1024.7971 643.11151 2248.9106 4213062
-1010.707 643.11151 2248.9106 3818304
-1009.7576 651.59113 2278.5632 3686718
-1001.5697 655.57611 2292.4983 3818304
-988.7934 656.62988 2296.1833 3884097
-971.43488 654.62695 2289.1792 3949890
-959.96436 656.59125 2296.0483 3818304
-949.2132 659.11487 2304.873 3752511
-943.93182 665.57318 2327.4573 3028788
-928.18262 664.73737 2324.5347 2831409
-909.78949 661.95142 2314.7922 3291960
-895.00305 661.7417 2314.0591 4213319
-882.77502 663.448 2320.0256 3949890
-872.17102 666.45221 2330.5312 3686718
-853.37878 663.1955 2319.1426 3752511
-838.30859 662.76849 2317.6494 4081476
-829.95673 667.73163 2335.0054 4279111
-811.20599 664.35651 2323.2026 4081476
-790.34644 659.0993 2304.8188 3950403
-777.065 660.0838 2308.2615 4016196
-757.00244 655.23615 2291.3096 3950146
-741.73688 654.43341 2288.5024 4016196
-723.48901 650.91595 2276.2021 4148039
-706.20056 648.13751 2266.4861 4213577
-696.17847 652.05078 2280.1707 4213831
-682.90576 653.01971 2283.5588 3819073
-666.42609 650.89789 2276.1389 3950403
-657.66968 656.39148 2295.3496 3884867
-646.14734 659.30847 2305.5503 3424059
-629.78912 657.31165 2298.5674 4147782
-615.38794 657.31165 2298.5674 4542540
