# .PCD v0.7 - Point Cloud Data file format
VERSION 0.7
FIELDS x y z rgb
SIZE 4 4 4 4
TYPE F F F U
COUNT 1 1 1 1
WIDTH 1279
HEIGHT 1
VIEWPOINT 0 0 0 1 0 0 0
POINTS 1279
DATA ascii
476.75183 617.83997 1576.4742 2501161
489.67416 621.70636 1586.3396 2106403
497.32327 618.85693 1579.0691 1777438
503.39133 614.1897 1567.1602 2566954
512.04926 612.80048 1563.6155 3158835
525.80908 617.45447 1575.4906 2961969
536.50342 618.40363 1577.9124 2764846
542.07544 613.52094 1565.4539 2962482
551.84424 613.47736 1565.3425 3422776
555.46326 606.71796 1548.0953 3159604
566.67682 608.34357 1552.2432 3356983
579.59375 611.7121 1560.8383 3422776
589.59625 611.94391 1561.4298 3159604
602.65961 615.29315 1569.9757 2764846
615.62341 618.43488 1577.9921 2699053
625.51001 618.43488 1577.9921 2501674
634.48529 617.54779 1575.7288 2435881
640.29974 613.65875 1565.8054 2699053
654.04858 617.37646 1575.2915 2962225
666.08118 619.38776 1580.4235 3751741
676.33557 619.71082 1581.2478 3422776
685.71002 619.22986 1580.0206 3159604
695.66443 619.27887 1580.1458 3291190
706.98761 620.52802 1583.3329 3356983
718.49091 621.89838 1586.8295 3422776
723.43073 617.62775 1575.9327 3356983
730.82642 615.54065 1570.6072 3488569
740.284 615.22253 1569.7955 3620155
751.44128 616.30676 1572.5621 3422776
756.24762 612.22162 1562.1384 3356983
760.06964 607.45416 1549.9738 3422776
767.71021 605.82025 1545.8048 3028018
777.3952 605.82025 1545.8048 3159604
783.83716 603.3241 1539.4357 3225397
796.86664 605.89746 1546.0018 2370088
808.08533 607.04871 1548.9393 3093811
823.12903 611.01196 1559.0519 4146499
830.28064 609.09265 1554.1545 3093811
834.73541 605.26227 1544.3811 3093811
842.72217 604.05151 1541.2917 3422776
838.3692 594.12335 1515.9591 3093811
847.12231 593.60144 1514.6273 2830126
860.47668 596.2796 1521.4609 3158834
880.08783 603.18719 1539.0863 3158835
888.71613 602.49939 1537.3313 2830126
902.67474 605.40131 1544.7357 2895919
907.54565 602.2113 1536.5962 2961712
914.31195 600.33282 1531.8031 2699053
927.75128 602.82928 1538.1731 2304295
944.60913 607.47296 1550.0217 2765103
956.68713 608.97937 1553.8656 3356983
968.68292 610.40369 1557.4999 3356983
979.21997 610.88965 1558.7397 3159604
991.08972 612.18909 1562.0554 3159604
1003.356 613.70569 1565.9252 3159604
1011.5787 612.74365 1563.4705 3159604
1016.4507 609.78979 1555.9335 3225397
1035.1394 615.10229 1569.4888 3159604
1044.9838 615.10883 1569.5054 3094068
1057.2788 616.54431 1573.1682 2962225
1068.4783 617.32025 1575.1481 3093811
1078.1372 617.20013 1574.8416 3093811
1081.4053 613.45679 1565.29 2962225
1089.9697 612.75824 1563.5077 2962225
1096.0369 610.68073 1558.2067 3028018
1099.7769 607.35468 1549.72 3817534
1108.3287 606.72101 1548.1031 4080706
1112.0546 603.47931 1539.8317 3817534
1136.6818 611.53839 1560.3951 3817534
1147.2706 611.9718 1561.5011 3883327
1160.7633 613.93378 1566.5072 3751740
1170.578 613.93378 1566.5072 3489594
1178.1149 612.74902 1563.4843 3489337
1173.8184 605.48004 1544.9366 4213062
1190.4409 609.0321 1554.0001 4673615
1202.1531 610.03473 1556.5585 4213064
1215.9087 612.04993 1561.7003 3949892
1225.6932 612.04993 1561.7003 3818306
1244.3628 616.45154 1572.9314 3752513
1256.8097 617.72546 1576.182 3884356
1259.0502 614.0022 1566.6818 3884099
1284.4546 621.54547 1585.9292 4080708
1298.3 623.42261 1590.7188 4080706
1295.578 617.37628 1575.291 3422776
1315.899 622.31897 1587.9027 2633259
1327.1124 622.9126 1589.4174 2633260
1343.0311 625.68945 1596.5028 2764846
1349.5096 624.05981 1592.3446 2765102
1354.5068 621.77411 1586.5125 2633260
1358.7993 619.2005 1579.9457 2895663
1389.6095 628.66077 1604.0845 3290677
1388.9823 623.86511 1591.8478 3422519
1399.3054 624.02106 1592.2457 3356982
1413.1993 625.75592 1596.6724 3291446
1422.6178 625.4986 1596.0159 3423032
1433.7802 626.00635 1597.3114 3883584
1444.1718 626.17285 1597.7362 3619898
1462.2941 629.66583 1606.6489 3224886
1468.5996 628.05762 1602.5454 3290680
1473.965 626.07178 1597.4784 3356474
1454.5535 613.65979 1565.808 3224886
1492.0182 625.24872 1595.3783 3290936
1497.6523 623.43317 1590.7457 3356985
1507.865 623.53491 1591.0054 3817536
1519.5535 624.2417 1592.8087 3620157
1525.3961 622.55334 1588.5009 3685950
1533.2412 621.69879 1586.3204 3751743
1541.842 621.15985 1584.9451 3620157
1549.2198 620.13812 1582.3381 3620157
1556.174 618.96094 1579.3344 3620157
1562.3756 617.50116 1575.6097 3751743
1565.5569 614.87354 1568.905 3751743
1563.5815 610.26599 1557.1486 3949122
1571.9072 609.71124 1555.7329 4080708
1580.1659 609.13739 1554.2688 3883329
1581.1488 605.78314 1545.7101 3817536
nan nan nan 16777215
nan nan nan 16777215
nan nan nan 16777215
nan nan nan 16777215
nan nan nan 16777215
nan nan nan 16777215
nan nan nan 16777215
nan nan nan 16777215
nan nan nan 16777215
nan nan nan 16777215
nan nan nan 16777215
nan nan nan 16777215
nan nan nan 16777215
nan nan nan 16777215
-1371.2495 614.82019 1544.213 3752256
-1360.7634 614.45392 1543.2931 3883842
-1353.1803 615.40271 1545.676 3752514
-1348.7445 617.80676 1551.7142 3884356
-1339.4059 617.98364 1552.1584 3621441
-1329.6812 617.98364 1552.1584 3555390
-1312.6439 614.56 1543.5596 3752769
-1303.7677 614.93481 1544.501 3949892
-1301.1293 618.27936 1552.9012 4081478
-1283.588 614.53931 1543.5076 4081478
-1268.5294 611.94012 1536.9792 3555134
-1264.6744 614.74713 1544.0295 3423548
-1255.1517 614.82117 1544.2155 3686720
-1240.9125 612.56805 1538.5564 3686977
-1233.6392 613.7453 1541.5132 3686720
-1215.5712 609.52826 1530.9215 3686977
-1202.8759 607.95966 1526.9817 4015685
-1186.1443 604.30951 1517.8137 3818306
-1171.597 601.72217 1511.3153 3160375
-1161.053 601.16541 1509.917 2436654
-1161.1078 606.13251 1522.3926 2634289
-1152.8615 606.8125 1524.1006 3160376
-1148.9309 609.79449 1531.5901 3291961
-1136.4861 608.26971 1527.7604 3423546
-1127.0642 608.35065 1527.9637 3423546
-1111.866 605.28845 1520.2726 3291960
-1092.3566 599.80603 1506.5027 3489339
-1082.9178 599.80603 1506.5027 3357753
-1078.6654 602.70386 1513.7809 3357753
-1065.7257 600.75604 1508.8888 3226167
-1053.2687 599.04779 1504.5983 3620925
-1048.316 601.61548 1511.0474 3489339
-1038.8489 601.61548 1511.0474 3160374
-1028.2611 600.96063 1509.4026 3555132
-1018.5822 600.82965 1509.0736 3489339
-1012.7507 602.98688 1514.4919 3423803
-998.16296 599.9223 1506.7947 3160887
-990.30548 600.88287 1509.2073 3159604
-983.07324 602.245 1512.6284 3488569
-974.22711 602.63525 1513.6086 3422519
-962.60193 601.29724 1510.2482 3356983
-954.8349 602.36664 1512.9341 3357240
-949.19342 604.81183 1519.0754 3423546
-940.42627 605.2948 1520.2886 3423546
-924.10925 600.87848 1509.1963 3357753
-913.35645 600.02625 1507.0558 3818304
-912.49072 605.71948 1521.3551 3818304
-903.02228 605.7619 1521.4617 3555132
-905.82697 614.1261 1542.4697 2897202
-897.92859 615.33612 1545.5088 2765616
-894.27393 619.51233 1555.998 2897202
-887.20984 621.3927 1560.7208 2765616
-876.73822 620.90173 1559.4877 2502444
-867.82886 621.51855 1561.037 2436651
-863.22992 625.27173 1570.4636 2699823
-852.96149 624.9574 1569.6742 2502444
-843.12701 624.9574 1569.6742 2436651
-836.66766 627.48871 1576.0319 2371115
-824.57318 625.80371 1571.7998 2304295
-814.72534 625.80371 1571.7998 2436908
-802.21631 623.73462 1566.6029 3489339
-791.19147 622.78253 1564.2115 3226167
-771.80774 615.14435 1545.0271 3226167
-762.33099 615.30841 1545.4392 3291960
-750.57056 613.60974 1541.1729 3160374
-737.57666 610.8454 1534.2296 3226167
-725.70642 608.95081 1529.4711 2962995
-717.75488 610.33777 1532.9546 3160374
-707.42279 609.71063 1531.3795 3226167
-697.91461 609.78607 1531.5691 3160374
-687.33112 608.91101 1529.3712 3094581
-682.23444 612.9408 1539.4926 2962995
-671.20917 611.68329 1536.3342 3226167
-656.54633 607.026 1524.6367 3555132
-644.21252 604.41638 1518.0822 2831409
-633.91315 603.66583 1516.1971 3028788
-625.16357 604.39081 1518.0179 3357753
-622.32568 610.94165 1534.4714 3291960
-603.91156 602.16687 1512.4324 3358010
-591.37476 599.06616 1504.6443 3028274
-585.00769 602.21619 1512.5562 2633516
-581.54449 608.50842 1528.36 3291190
-572.44232 609.01215 1529.6252 3422519
-562.86237 609.01611 1529.6351 3159604
-550.46808 605.92224 1521.8645 3356983
-540.63647 605.58997 1521.0299 3093811
-535.56165 610.66962 1533.7882 2501674
-522.7663 606.97083 1524.498 3225397
-514.09509 608.01184 1527.1128 3291190
-507.30768 611.36261 1535.5287 3685948
-497.87253 611.59033 1536.1007 3554362
-488.20844 611.54028 1535.975 2896432
-478.40381 611.30872 1535.3933 3291190
-463.74994 604.74396 1518.905 3225397
-457.55984 609.17255 1530.028 2699053
-448.57114 609.98486 1532.0684 3620155
-447.6712 622.07269 1562.4287 4212292
-439.46432 624.32043 1568.0742 4541257
-429.70264 624.41168 1568.3033 3883327
-421.36035 626.61798 1573.845 2501931
-410.31372 624.81201 1569.309 2567723
-400.48151 624.81201 1569.309 3290933
-393.94714 630.08661 1582.5569 3620155
-383.79361 629.69562 1581.5748 3488569
-370.04688 623.23224 1565.3411 3423033
-358.82404 620.78333 1559.1903 3291960
-344.07373 611.92389 1536.9385 3160374
-334.44431 611.92389 1536.9385 3291960
-325.41019 613.04535 1539.7551 3291960
-315.76312 613.04535 1539.7551 3291960
-304.88327 610.57642 1533.5541 3226167
-294.57751 609.13391 1529.931 3621182
-284.47321 608.02502 1527.1459 3291960
-274.36856 606.83826 1524.1652 3357753
-263.01459 602.70294 1513.7787 3291960
-255.0876 606.40503 1523.077 3029045
-245.51768 606.3374 1522.9072 3094581
-234.4512 602.41895 1513.0654 2699823
-225.50337 603.84351 1516.6433 2699823
-216.41949 605.01312 1519.5811 2370858
-206.75577 604.59467 1518.53 2173479
-199.76131 612.31787 1537.928 4344648
-187.91791 605.2074 1520.0691 3686718
-178.3942 605.2074 1520.0691 2699823
-168.67593 604.51013 1518.3177 3489339
-159.63885 606.31671 1522.8552 3291960
-150.23051 606.85321 1524.2028 3028788
-141.22919 609.21826 1530.1429 3028788
-131.7496 609.7146 1531.3894 3357753
-121.48129 606.35205 1522.944 3554361
-112.89027 611.50177 1535.8782 2896432
-103.91029 615.30792 1545.438 2567467
-94.279335 615.64551 1546.2859 3093811
-85.101967 619.36151 1555.6193 3751741
-75.471565 620.31525 1558.0146 3356983
-65.272194 616.18109 1547.6311 2962738
-55.497345 615.31122 1545.4463 2634287
-45.241711 607.61652 1526.1199 3094837
-36.242584 617.19537 1550.1786 3094581
-26.74622 622.22003 1562.7988 3423546
-16.954802 622.22003 1562.7988 3291960
-7.1373367 619.95782 1557.1168 3029044
2.6180556 619.85669 1556.8629 3226167
12.180604 610.25348 1532.7429 3094581
22.037142 617.35303 1550.5746 4081476
32.032345 622.80432 1564.2662 4542284
41.803322 622.3631 1563.1581 4343878
51.328331 619.1225 1555.0189 3751741
61.407646 622.53522 1563.5905 3093811
70.877975 619.68463 1556.4307 2764846
80.210693 616.46588 1548.3464 2699053
89.911568 616.46588 1548.3464 3159604
100.53014 622.1452 1562.6108 2699309
110.05004 620.62067 1558.7817 2238502
119.8468 620.77869 1559.1787 2567467
130.1245 623.21631 1565.301 2435881
140.36989 625.1684 1570.204 2633260
150.63345 626.94025 1574.6544 3093811
160.48122 626.87024 1574.4785 3356983
170.7171 628.23657 1577.9103 3620411
180.3799 627.45978 1575.9592 3488569
189.54738 625.13013 1570.1079 3159604
199.222 624.62036 1568.8275 3159604
209.05118 624.62036 1568.8275 2830896
218.52455 623.60492 1566.2771 3225397
227.02101 620.00885 1557.245 3093811
236.77765 620.00885 1557.245 2830639
247.47104 622.36469 1563.1621 3159604
258.13904 624.4798 1568.4746 3028018
268.16089 624.9339 1569.6151 3093811
278.98828 627.16681 1575.2234 3554362
285.93082 620.81232 1559.2631 3751741
294.08035 617.41174 1550.722 3093811
303.79376 617.40698 1550.7101 3028018
313.70688 617.79578 1551.6866 3093811
323.63062 618.18152 1552.6554 2896432
330.58344 613.03546 1539.7303 2501931
341.00018 614.42261 1543.2144 3620155
351.40253 615.70801 1546.4429 4212292
359.54495 613.07098 1539.8196 4080706
369.19238 613.07098 1539.8196 2567467
379.36624 613.92291 1541.9592 2435881
389.0271 613.92291 1541.9592 2830896
400.42032 616.59045 1548.6593 2370088
410.07071 616.5116 1548.4613 2172709
417.59927 613.32019 1540.4454 2632490
429.26846 616.21674 1547.7206 3751228
436.93524 613.36676 1540.5625 3224884
449.59998 617.50452 1550.9551 1843231
456.84332 614.17859 1542.6016 2106403
469.9946 618.76862 1554.13 2566954
478.93622 617.74261 1551.5531 2303782
489.03525 618.22052 1552.7535 2764846
493.9006 612.19269 1537.6136 2633260
503.53427 612.19269 1537.6136 2830895
511.96658 610.75958 1534.0142 2830895
527.26172 617.41553 1550.7316 2764846
537.27399 617.75647 1551.5878 3093811
538.88049 608.59198 1528.5699 3291190
544.98822 604.74243 1518.9011 3093811
562.25354 613.19336 1540.127 2699310
571.20056 612.44025 1538.2355 2830639
576.00226 607.34137 1525.4288 3028018
591.60138 613.60791 1541.1682 2962225
603.85126 616.25525 1547.8173 2896432
615.14624 617.85974 1551.8472 2764846
620.84277 613.8786 1541.848 2830639
623.6557 607.21185 1525.1035 3291190
634.3006 608.25677 1527.728 3422776
650.01068 614.05566 1542.2927 2764846
664.85254 618.8764 1554.4009 3093811
673.08545 617.49487 1550.9309 3817534
682.12634 616.88342 1549.395 3356983
684.43054 610.28223 1532.8152 2830639
692.07764 608.56183 1528.4941 2962225
696.01556 603.67139 1516.2111 2765103
706.54535 604.55292 1518.4252 3422776
723.9176 611.18793 1535.0901 3488569
733.38159 611.05981 1534.7682 3422776
743.71063 611.64636 1536.2415 3620155
747.05383 606.54608 1523.4313 3817534
754.61774 604.95807 1519.4427 2764846
763.90668 604.77527 1518.9836 3028018
770.45941 602.45752 1513.1622 3093811
782.08191 604.11212 1517.318 3028018
790.79236 603.50464 1515.7922 3291190
803.31134 605.78357 1521.5161 4080706
811.79211 604.99957 1519.547 3093811
814.89148 600.26965 1507.6671 2962225
823.53613 599.6861 1506.2014 3751741
828.01007 596.11316 1497.2275 3028018
838.47089 596.88214 1499.1588 2830639
850.42188 598.68311 1503.6823 3159604
862.38489 600.45306 1508.1277 3028274
873.03003 601.27692 1510.197 3225140
882.70349 601.42108 1510.5591 3224884
892.16754 601.42108 1510.5591 3290420
904.47296 603.31635 1515.3193 2698284
908.12311 599.4588 1505.6305 2369319
911.58423 595.55707 1495.8307 2829869
928.0882 600.16919 1507.4148 3356214
947.8313 606.76196 1523.9735 3225397
956.50775 606.20959 1522.5861 3028018
965.34607 605.76953 1521.4808 2962482
978.50977 608.02588 1527.1479 2962225
989.88239 609.13629 1529.937 3028275
999.96484 609.43921 1530.6978 3225397
1012.025 610.93011 1534.4425 3028018
1021.6387 610.93011 1534.4425 2238758
1032.0212 611.38556 1535.5864 2567467
1047.1254 614.60394 1543.6698 3159604
1057.0704 614.76294 1544.0692 3093811
1065.8756 614.26221 1542.8115 3028018
1076.0195 614.53503 1543.4968 3028018
1087.6407 615.63922 1546.2701 3093811
1086.8549 609.76312 1531.5114 3291190
1086.1021 604.00824 1517.0571 3554362
1099.3669 606.08105 1522.2634 3554362
1118.3467 611.24182 1535.2255 3488569
1128.0782 611.3031 1535.3793 3620155
1139.4871 612.2644 1537.7937 3619899
1144.769 609.94519 1531.9688 3620155
1159.6305 612.7262 1538.9535 4146499
1160.5974 608.18018 1527.5356 4015427
1173.4916 609.90765 1531.8745 3883585
1190.8287 613.89758 1541.8956 3949892
1204.2676 615.82971 1546.7485 3950406
1215.0411 616.37891 1548.1279 3949893
1224.7406 616.37891 1548.1279 3752770
1236.9441 617.62921 1551.2683 3752770
1255.4062 621.96069 1562.1475 4015172
1266.4589 622.58276 1563.7098 4278087
1272.5336 620.76685 1559.1488 3949121
1279.5726 619.44543 1555.8301 3883327
1295.5931 622.45917 1563.3994 3488571
1302.6141 621.13635 1560.077 3225396
1315.4574 622.58881 1563.725 3225397
1324.7117 622.3338 1563.0845 3159604
1335.5836 622.83685 1564.3479 3357239
1345.3846 622.83685 1564.3479 2961712
1349.265 620.1156 1557.5132 2566956
1349.9576 615.97894 1547.1234 2764335
1369.8999 620.62219 1558.7856 3027507
1384.5114 622.80176 1564.2599 3422265
1391.7429 621.6543 1561.3778 3553594
1403.7981 622.66235 1563.9097 3685436
1405.921 619.28137 1555.418 3751231
1426.9919 624.23584 1567.8618 3619645
1441.8065 626.40442 1573.3086 3553851
1439.446 621.13232 1560.0669 3422265
1449.2202 621.13232 1560.0669 3356472
1464.8617 623.63013 1566.3405 3356984
1474.1226 623.39636 1565.7533 3291192
1483.313 623.13617 1565.0997 4146757
1492.76 622.98639 1564.7236 4146501
1499.5698 621.74518 1561.6061 3554620
1503.4865 619.32825 1555.5356 3423034
1510.1487 618.06616 1552.3657 3554364
1517.3771 617.05048 1549.8147 3685950
1524.1965 615.88251 1546.8811 3686207
1525.6719 612.58344 1538.5951 3685950
1534.7052 612.34155 1537.9874 3685950
1529.2715 606.36627 1522.9797 3751743
1525.3888 601.07635 1509.6932 4014915
1542.3341 604.00824 1517.0571 3949122
1557.2523 606.11523 1522.3491 3883329
nan nan nan 16777215
nan nan nan 16777215
nan nan nan 16777215
nan nan nan 16777215
nan nan nan 16777215
nan nan nan 16777215
nan nan nan 16777215
nan nan nan 16777215
nan nan nan 16777215
nan nan nan 16777215
nan nan nan 16777215
nan nan nan 16777215
nan nan nan 16777215
nan nan nan 16777215
-1330.583 605.92517 1498.4171 4146242
-1333.0286 611.35229 1511.838 3818048
-1323.5564 611.35229 1511.838 3818561
-1321.1456 614.63745 1519.962 3686464
-1309.5917 613.68573 1517.6085 3621184
-1299.5339 613.42639 1516.9672 3555134
-1290.3037 613.55664 1517.2893 3423548
-1280.697 613.50861 1517.1704 3226169
-1266.2072 611.10303 1511.2216 3226169
-1255.54 610.52008 1509.78 3160376
-1247.557 611.24341 1511.5687 3160377
-1242.257 613.30225 1516.6602 3423805
-1235.3203 614.57874 1519.8168 3686720
-1215.4268 609.37878 1506.9578 3555134
-1205.9852 609.37878 1506.9578 3620927
-1193.7825 607.9726 1503.4802 3884099
-1182.089 606.80542 1500.5939 4081478
-1174.8673 607.93341 1503.3834 3555134
-1155.8641 602.9342 1491.0205 3160376
-1135.7015 597.24365 1476.9481 2699825
-1134.0197 601.25812 1486.8757 2831411
-1125.1611 601.50256 1487.4802 3291962
-1115.9786 601.57642 1487.6628 3291961
-1110.9105 603.88812 1493.3796 3357753
-1102.6934 604.5127 1494.9242 3489339
-1096.2753 606.1427 1498.9551 3686718
-1083.2029 604.0899 1493.8785 3818304
-1073.8433 604.0899 1493.8785 3752511
-1053.5931 597.90955 1478.595 3555131
-1048.8066 600.47302 1484.9342 2371115
-1045.5723 603.97888 1493.604 2502444
-1029.4291 600.02393 1483.8236 2831666
-1016.3853 597.81989 1478.3733 2962995
-1007.1229 597.81989 1478.3733 3160374
-1003.1461 600.98663 1486.2043 3423290
-993.83459 600.98663 1486.2043 3554106
-977.69745 596.82001 1475.9006 3225397
-973.73492 600.07666 1483.954 3291190
-964.4375 600.07666 1483.954 3356983
-955.56799 600.34552 1484.6189 3356983
-948.04187 601.47192 1487.4044 3422776
-941.54425 603.27972 1491.875 3291704
-932.1972 603.27972 1491.875 3291960
-921.73346 602.54968 1490.0697 2962996
-914.85864 604.17499 1494.0889 2897202
-907.17621 605.29492 1496.8584 3423546
-906.79742 611.3623 1511.8628 3357753
-895.67554 610.2384 1509.0835 3620925
-890.78107 613.37866 1516.8491 3686718
-892.78241 621.38617 1536.6512 3094581
-884.55939 622.37445 1539.0951 3094838
-869.54987 618.55688 1529.6545 2634030
-867.22375 623.77716 1542.564 2173478
-856.41168 622.9425 1540.5 2634031
-856.07935 629.79858 1557.4546 4015684
-847.71802 630.83789 1560.0248 4147270
-837.34558 630.38739 1558.9106 3752513
-827.39508 630.24768 1558.5652 2831411
-819.86481 631.97015 1562.8248 2700082
-802.45728 626.02863 1548.1317 4015683
-780.86066 616.63373 1524.8987 3884098
-768.40942 614.31738 1519.1707 3686719
-759.91852 615.14899 1521.2269 3950148
-744.51843 610.33759 1509.3287 3686720
-733.00189 608.62701 1505.0985 3424061
-720.76892 606.26923 1499.2678 3687233
-708.82269 604.09357 1493.8876 3358009
-698.63092 603.37488 1492.1105 3357497
-690.47229 604.4165 1494.6863 3291960
-683.81848 606.82214 1500.6351 3028788
-675.86633 608.12665 1503.8612 3028788
-666.31854 608.01196 1503.5776 3291960
-656.89819 608.01196 1503.5776 2305065
-646.81183 607.3866 1502.0311 2370858
-634.66138 604.77588 1495.575 2436908
-628.49792 607.87744 1503.245 3094581
-619.61926 608.40735 1504.5553 3357753
-608.32391 606.54395 1499.9473 3160374
-598.92627 606.54395 1499.9473 3291960
-587.97168 604.94208 1495.9858 3160374
-577.43359 603.72369 1492.973 3029045
-569.43115 605.16003 1496.5249 3620925
-560.45941 605.59698 1497.6056 3423547
-551.39429 605.94629 1498.4694 3422519
-541.54041 605.4259 1497.1825 3751741
-532.30518 605.59094 1497.5905 3817534
-525.30804 608.35382 1504.423 3159604
-515.83258 608.2951 1504.2778 3422776
-505.38516 607.06671 1501.2401 3488569
-497.89209 609.40778 1507.0294 3291190
-487.133 607.76459 1502.9658 3488569
-478.03632 608.17151 1503.972 3751741
-470.41324 610.50726 1509.7483 3291190
-459.90851 609.12225 1506.3234 3356983
-451.69147 610.77271 1510.4047 3028018
-442.3121 610.88843 1510.6909 2962225
-433.2626 611.47479 1512.1409 4212292
-425.71378 614.25262 1519.0104 3817791
-424.88489 627.07526 1550.72 3751741
-413.88931 625.14221 1545.9396 3751998
-403.95972 624.76508 1545.0071 3686975
-391.97214 621.10846 1535.9645 3160374
-384.84131 625.15735 1545.9772 2830896
-370.50769 617.41266 1526.825 2962995
-359.26721 614.5484 1519.7418 3160374
-347.62659 610.82513 1510.5343 3752511
-339.97443 614.09778 1518.6274 3620925
-331.28482 615.63104 1522.4191 3357753
-321.76752 615.67139 1522.5189 3226167
-310.86514 612.98315 1515.871 3291960
-299.77185 609.73706 1507.8436 3621182
-288.94278 606.83472 1500.6664 4408901
-280.34055 608.57117 1504.9604 3619642
-267.03915 599.87244 1483.449 2238245
-257.22565 598.66394 1480.4604 2961968
-247.45006 597.4566 1477.4747 3290677
-241.10909 604.77045 1495.5614 3356726
-232.11469 605.75104 1497.9865 3028018
-221.96205 603.66418 1492.8259 3226167
-212.60904 603.66418 1492.8259 3555132
-203.1149 603.24518 1491.7896 3423546
-193.76839 603.24518 1491.7896 3094581
-185.60403 607.11206 1501.3522 3094581
-175.98831 606.39099 1499.569 2634030
-165.84422 603.66528 1492.8285 3160374
-156.67603 604.3783 1494.5917 3949890
-147.92522 606.89435 1500.8138 3884097
-138.03569 604.763 1495.5432 3949890
-128.43912 603.6983 1492.9102 3226167
-120.26029 609.65344 1507.637 3356983
-111.71448 614.60486 1519.8815 3290934
-101.26865 609.05194 1506.1494 3357497
-91.80793 608.8913 1505.7521 4015682
-82.474968 609.63818 1507.5991 3752254
-74.143616 618.93951 1530.6007 3554875
-64.866325 621.93475 1538.0078 4212805
-54.366348 612.20679 1513.9512 4542027
-44.742443 610.31714 1509.2782 3884097
-35.368664 611.74091 1512.7991 2897202
-25.922375 612.49384 1514.661 3686718
-16.578951 617.9505 1528.155 3555132
-7.0242515 619.68549 1532.4456 3818561
2.5710781 618.2627 1528.9271 3422519
12.12923 617.19159 1526.2783 3291191
21.723345 618.08807 1528.4952 3159604
31.362659 619.32855 1531.5629 3093811
40.652527 614.70386 1520.1262 2962225
50.559353 619.39301 1531.7223 3620155
60.37011 621.59692 1537.1724 3093811
69.598419 618.02228 1528.3325 2764846
78.579628 613.38348 1516.8611 2699053
88.2668 614.6618 1520.0222 2370088
98.616333 619.85437 1532.8633 2567211
108.6015 622.03845 1538.2642 2830639
118.2392 622.03845 1538.2642 3093811
127.98638 622.57098 1539.5812 2830639
137.42351 621.62634 1537.2451 2633260
147.05482 621.62634 1537.2451 2501674
156.80392 622.09357 1538.4006 3225653
165.95547 620.27338 1533.8993 3685948
175.74014 620.88928 1535.4224 3554362
186.95724 626.23932 1548.6527 3028018
195.88451 623.76971 1542.5455 3028018
205.31693 623.06531 1540.8037 3554362
216.0206 626.10883 1548.33 3686205
222.47881 617.11456 1526.0878 4475720
230.5163 613.06171 1516.0652 4278341
239.87268 612.69836 1515.1667 3488569
252.68521 620.85461 1535.3367 3291189
264.18988 625.31696 1546.3717 3422776
274.36215 626.42151 1549.1034 3356983
283.39026 624.92743 1545.4086 3093811
291.61331 621.81549 1537.7129 3028018
299.3511 617.901 1528.0326 2962225
308.01431 616.08008 1523.5295 3093811
315.80942 612.68445 1515.1323 2896432
321.91608 606.30695 1499.3612 2896432
332.97491 609.3537 1506.8956 3225397
348.35419 619.92096 1533.0278 3291190
354.30487 613.59253 1517.3781 3225397
363.67188 613.35669 1516.7948 2896432
373.64145 614.12323 1518.6904 3094067
383.15652 614.12323 1518.6904 2962224
393.38913 615.24548 1521.4656 2633004
404.51593 617.67993 1527.486 2829869
414.66534 618.54401 1529.6227 2501417
425.71994 620.68866 1534.9264 1974817
432.23288 616.26337 1523.9828 1974817
441.7811 616.26337 1523.9828 1974817
450.94061 615.73254 1522.6702 2172196
462.41803 618.32318 1529.0767 2632747
472.07492 618.42371 1529.3253 2237989
481.16907 617.79773 1527.7772 2895406
490.66711 617.70471 1527.5471 2830639
500.49368 618.02081 1528.3289 2633260
509.08655 616.83026 1525.3846 2633260
516.87549 614.72748 1520.1847 2896432
526.9209 615.33582 1521.6891 3094068
531.72662 609.91254 1508.2776 3093811
540.96362 609.67267 1507.6843 2962225
555.40302 615.20355 1521.3619 2962225
566.79718 617.23157 1526.3772 2633260
574.82471 615.58704 1522.3103 3225397
582.80933 613.95093 1518.2643 3751741
590.87439 612.45074 1514.5544 3817534
601.52924 613.63989 1517.4951 3554362
609.66357 612.2608 1514.0847 3422776
618.22083 611.34216 1511.813 3225397
631.33289 614.88739 1520.5802 3291190
639.24536 613.33844 1516.7496 3356983
641.48944 606.47583 1499.7788 3225397
651.11053 606.685 1500.2961 3751741
655.86749 602.42053 1489.7502 3028018
670.96967 607.64453 1502.6689 2699053
680.3844 607.64453 1502.6689 3093811
681.70453 600.5141 1485.0358 3225654
691.00879 600.5141 1485.0358 3620155
707.41632 606.60516 1500.0986 3620155
716.06427 605.96997 1498.5278 3291190
723.71143 604.5152 1494.9303 3159604
717.59918 591.75122 1463.3658 2435881
734.78339 598.27789 1479.5057 2699053
748.84424 602.13049 1489.033 2764846
758.02051 602.00897 1488.7324 2765103
768.19684 602.67493 1490.3795 2896432
774.75726 600.52234 1485.0562 3291190
790.53198 605.47809 1497.3114 3751741
801.42267 606.62067 1500.1371 3159604
801.4187 599.58588 1482.7405 2962225
805.4082 595.66589 1473.0465 3225397
811.47363 593.3526 1467.3258 2896432
819.07587 592.20227 1464.4812 3093811
827.15594 591.41907 1462.5444 3488569
842.90009 596.07288 1474.0529 3093811
856.65955 599.23749 1481.8788 3159604
866.99036 599.96161 1483.6696 3159604
874.48254 598.72681 1480.616 3291190
885.37732 599.82312 1483.327 3225397
897.39581 601.65009 1487.8451 3028018
900.99023 597.84973 1478.447 2962482
918.05334 602.97284 1491.1161 3028018
929.95184 604.63483 1495.2261 3028018
940.70715 605.52777 1497.4343 2962225
950.08905 605.52777 1497.4343 2699053
962.42566 607.39246 1502.0457 2962225
967.13873 604.45648 1494.785 3159604
977.08826 604.81812 1495.6793 3225397
992.63934 608.6073 1505.0498 3356983
1004.6128 610.15234 1508.8706 3291190
1014.754 610.5661 1509.8938 2962225
1024.2723 610.60083 1509.9797 2896432
1033.9825 610.74835 1510.3446 2830639
1043.8014 610.95679 1510.86 2962225
1053.5446 611.11761 1511.2576 3028018
1064.1649 611.77972 1512.8951 3093811
1067.9989 608.56335 1504.941 3028018
1074.0514 606.65613 1500.2247 3093811
1088.8527 609.68085 1507.7046 3488569
1101.5497 611.48541 1512.1672 3356983
1113.2266 612.69775 1515.1652 3225397
1123.158 612.93701 1515.7568 3225397
1134.4347 613.90027 1518.1389 3422777
1148.1667 616.1651 1523.7399 3422777
1144.9653 609.38025 1506.9613 3488571
1154.4069 609.38025 1506.9613 3554365
1156.0902 605.31805 1496.9158 3685951
1172.191 608.80951 1505.5498 4080452
1201.6853 619.14575 1531.1108 4212037
1206.797 616.85522 1525.4464 4080707
1216.3544 616.85522 1525.4464 4014655
1227.8011 617.80591 1527.7975 3685691
1237.3733 617.80591 1527.7975 3356983
1249.7074 619.17438 1531.1815 3488570
1245.4642 612.37122 1514.3578 3949120
1254.9521 612.37122 1514.3578 3817535
1278.6808 619.26801 1531.4132 3422779
1282.7927 616.63245 1524.8955 3422778
1292.5724 616.74023 1525.162 3291192
1292.2362 612.05499 1513.5758 3488826
1294.4138 608.62012 1505.0814 3751486
1301.1632 607.3689 1501.9873 3685435
1327.7151 615.31293 1521.6323 3553849
1337.2487 615.31293 1521.6323 3422263
1350.0081 616.78674 1525.2771 3685434
1359.553 616.78162 1525.2644 3751227
1372.3427 618.23822 1528.8666 3619641
1383.1144 618.77191 1530.1863 3619641
1394.1216 619.40283 1531.7466 3619644
1394.079 615.14935 1521.2279 3553851
1401.3883 614.17566 1518.8201 3159093
1416.1365 616.45337 1524.4526 2961714
1434.6595 620.33276 1534.0461 3159093
1447.8397 621.8656 1537.8368 3093556
1462.7473 624.1153 1543.4001 3750973
1453.4199 616.06293 1523.4871 4606283
1450.5391 610.8302 1510.5469 4672332
1459.1487 610.47272 1509.6628 3750973
1472.61 612.1366 1513.7776 3290679
1479.6731 611.1366 1511.3047 3422265
1487.9254 610.63739 1510.0701 3554108
1493.7863 609.16919 1506.4395 3356986
1503.2246 609.16919 1506.4395 2896690
1509.5098 607.89948 1503.2993 3028020
1513.3107 605.65112 1497.7394 3422778
1526.3297 607.09705 1501.3149 3620414
1532.4012 605.77875 1498.0551 3817536
nan nan nan 16777215
nan nan nan 16777215
nan nan nan 16777215
nan nan nan 16777215
nan nan nan 16777215
nan nan nan 16777215
nan nan nan 16777215
nan nan nan 16777215
nan nan nan 16777215
nan nan nan 16777215
nan nan nan 16777215
nan nan nan 16777215
nan nan nan 16777215
nan nan nan 16777215
-1296.6873 599.59009 1460.2458 2501674
-1302.3051 606.46674 1476.9933 2830638
-1293.0511 606.46674 1476.9933 3488057
-1289.1365 608.98895 1483.1359 3422520
-1280.9918 609.53503 1484.4658 3488312
-1269.5776 608.52197 1481.9987 3554362
-1266.155 611.35272 1488.8926 3488314
-1254.217 610.08331 1485.8011 3028276
-1240.7333 608.03741 1480.8185 3159863
-1234.4397 609.51086 1484.407 3488828
-1225.6465 609.76318 1485.0214 3555134
-1217.0947 610.14032 1485.9399 3489341
-1207.7732 610.1344 1485.9255 3357755
-1194.2606 607.99481 1480.7147 3226169
-1184.1836 607.58435 1479.7151 3357755
-1174.9126 607.58435 1479.7151 3357755
-1167.4491 608.52643 1482.0094 3226169
-1158.1639 608.52643 1482.0094 3357755
-1140.9259 604.31409 1471.7506 3423548
-1131.7048 604.31409 1471.7506 4278857
-1120.3213 603.14972 1468.915 4739665
-1108.0739 601.49725 1464.8906 4147271
-1091.1229 597.24261 1454.5288 3291961
-1091.0592 602.23761 1466.6937 2897202
-1089.0056 606.20984 1476.3676 3160631
-1085.3374 609.34357 1483.9995 3555388
-1062.1541 601.48035 1464.8494 3488826
-1045.9462 597.4646 1455.0693 2699053
-1036.9019 597.50623 1455.1708 1777695
-1037.1068 602.9256 1468.3691 1514779
-1022.1139 599.52759 1460.0936 1975330
-1009.1756 597.2843 1454.6302 2633260
-991.25818 592.02625 1441.8248 3159604
-986.34888 594.51202 1447.8788 3356983
-982.93463 597.95349 1456.2601 3291190
-973.33881 597.66376 1455.5544 3093811
-963.4032 597.15796 1454.3225 3225397
-956.48914 598.53314 1457.6718 3225397
-947.83325 598.83441 1458.4055 3093811
-939.55347 599.38153 1459.7379 3159347
-930.67249 599.55206 1460.1532 3225397
-921.97974 599.84845 1460.8751 3291447
-910.8092 598.52258 1457.646 3423289
-901.67664 598.52258 1457.646 3357497
-905.16199 606.98395 1478.2529 3357753
-896.10284 607.12115 1478.587 3226167
-884.60699 605.59314 1474.8657 2962995
-875.90112 605.96301 1475.7665 3423546
-881.12598 616.08112 1500.4082 3423546
-874.91382 618.33447 1505.896 3291960
-868.48126 620.47943 1511.1199 3489341
-859.01367 620.47943 1511.1199 3160376
-856.28784 625.4035 1523.1119 3226426
-838.96057 619.65387 1509.1093 3489598
-828.02643 618.54889 1506.4182 3950149
-822.91803 621.82062 1514.3862 3621184
-809.41241 618.74951 1506.9067 3358012
-794.88409 614.81482 1497.3242 3621184
-786.38538 615.50549 1499.0063 4147014
-777.40637 615.83246 1499.8026 3884357
-763.41986 612.1521 1490.8395 4016452
-749.75177 608.6391 1482.2838 4016197
-740.37177 608.56262 1482.0977 3950147
-726.12805 604.43561 1472.0466 3884611
-719.90839 606.96771 1478.2133 3818819
-711.50024 607.69647 1479.9882 4147528
-695.66699 602.01898 1466.1611 3753025
-680.28107 596.58179 1452.9194 3292730
-669.50403 595.09381 1449.2957 2897972
-669.93317 603.66254 1470.1639 2700336
-662.47211 605.26147 1474.0579 3028788
-651.06598 603.25012 1469.1595 3094581
-641.86127 603.25012 1469.1595 2634030
-639.58099 609.85272 1485.2396 2634286
-630.27551 609.85272 1485.2396 2831409
-623.25873 612.10046 1490.7137 2963252
-609.60291 607.79724 1480.2336 2831666
-600.3288 607.79724 1480.2336 2831409
-592.12048 608.89325 1482.9028 3028788
-583.85876 609.96838 1485.5212 3160374
-571.53448 606.76544 1477.7207 3884097
-562.27612 606.76544 1477.7207 3620925
-547.59351 600.81403 1463.2266 3686974
-538.29211 600.66467 1462.8629 3422776
-535.88342 608.33478 1481.5427 3356983
-523.66364 604.94141 1473.2784 3817534
-508.6286 598.11572 1456.655 3356983
-507.50354 607.69659 1479.9885 3422776
-496.05856 605.047 1473.5355 3422776
-485.46832 603.35913 1469.4249 2962225
-475.93185 602.94092 1468.4065 3422776
-468.75635 605.55634 1474.776 4014913
-462.43286 609.3996 1484.136 3883327
-453.95883 610.50848 1486.8365 3685948
-446.41284 612.93811 1492.7537 3356984
-438.52722 614.99536 1497.7639 3093555
-427.68054 612.89917 1492.6588 4080963
-415.77429 609.15686 1483.5448 4080706
-416.19672 623.71936 1519.0104 3817535
-405.64642 622.1347 1515.1511 3686205
-395.64417 621.33478 1513.203 3292217
-386.4303 621.76404 1514.2485 3686718
-375.59436 619.53937 1508.8304 3226167
-365.47119 618.40588 1506.0699 3094581
-355.17969 616.91998 1502.4512 3226167
-345.60577 616.63342 1501.7533 3620925
-334.54636 613.6062 1494.3809 3423546
-324.27032 611.883 1490.184 3094581
-311.91196 606.01172 1475.885 2765616
-301.73865 604.15674 1471.3676 3226167
-294.08301 607.38477 1479.229 3686718
-284.81519 607.38477 1479.229 4146243
-271.18179 597.76184 1455.7932 3159604
-263.99005 602.16241 1466.5105 2633004
-254.8019 602.16241 1466.5105 3554362
-244.74136 600.02368 1461.3018 3423289
-236.26648 601.75714 1465.5234 3555132
-227.41216 602.62537 1467.6379 3752511
-218.50504 603.42096 1469.5756 3555132
-209.25656 603.30237 1469.2867 2831409
-199.03188 600.22888 1461.8015 2699823
-190.61452 602.5722 1467.5085 3291960
-182.91884 607.55005 1479.6316 3291960
-173.15799 605.83392 1475.4521 2699823
-162.57401 600.88196 1463.392 3160374
-154.59369 605.53632 1474.7274 3423546
-146.67653 611.04565 1488.1449 3357753
-135.91209 604.63617 1472.535 3423546
-126.42931 603.41016 1469.5492 3028788
-118.39569 609.45105 1484.2614 3423289
-110.06476 614.86108 1497.4369 3358009
-100.8422 615.83423 1499.8069 3620925
-91.277298 614.70178 1497.0491 3686718
-81.741562 613.52899 1494.1927 4805456
-72.48703 614.4364 1496.4027 4936785
-62.933334 612.70081 1492.1758 4278856
-53.573528 612.57666 1491.8734 4870993
-44.196342 612.15924 1490.8568 3423546
-34.954945 613.90295 1495.1034 3357753
-25.515274 612.1662 1490.8738 3949890
-16.156134 611.47168 1489.1823 3621182
-6.8531241 613.90631 1495.1116 3752768
2.5299418 617.74683 1504.465 4015683
11.945063 617.18793 1503.1036 3423546
21.247902 613.87781 1495.0422 3225141
30.565037 612.87988 1492.6118 3291190
40.056717 615.02948 1497.847 3620155
49.668762 617.86035 1504.7413 3620155
59.501419 622.09454 1515.0532 3093811
69.218758 624.12378 1519.9954 3422776
77.816109 616.78503 1502.1226 3159604
87.227371 616.78503 1502.1226 2501674
97.376091 621.49176 1513.5853 2764846
107.03898 622.53754 1516.1322 3028018
116.08704 620.12842 1510.265 2962225
125.75253 621.13214 1512.7095 3356983
135.23012 621.13214 1512.7095 3159604
143.27771 614.99402 1497.7607 2699053
151.5696 610.59479 1487.0468 2962225
163.94006 622.18402 1515.2712 2895663
174.96053 627.66138 1528.6108 3093811
183.14557 622.92627 1517.0789 3422776
192.01901 620.88422 1512.1057 3093811
201.49283 620.88422 1512.1057 3160373
211.86234 623.52039 1518.5258 3357496
219.82433 619.14886 1507.8795 3686718
226.93785 612.84644 1492.5304 3818306
236.10077 612.35815 1491.3413 3818560
245.35349 612.13116 1490.7885 3423546
256.38138 616.18726 1500.6666 3423289
265.80133 616.22852 1500.7671 3291190
275.3288 616.50775 1501.4473 3093811
284.78201 616.60773 1501.6907 2962225
294.19016 616.60687 1501.6886 3028018
302.64444 614.66876 1496.9685 3159604
311.78174 614.19263 1495.809 2962225
320.16013 612.29297 1491.1825 2962225
330.52826 614.19849 1495.8231 2764846
339.99039 614.36163 1496.2206 2962225
351.5618 618.22534 1505.6302 2896432
358.4472 613.862 1495.0038 2567467
367.81387 613.862 1495.0038 3159861
377.40369 614.22522 1495.8883 3423033
388.18991 616.47076 1501.3572 3027249
400.51929 621.00275 1512.3943 2764333
409.68195 620.52869 1511.2399 2106403
418.75452 619.94269 1509.8127 2106403
426.53192 617.50757 1503.8822 2172196
437.23013 619.31488 1508.2837 2106403
442.43335 613.42688 1493.9441 2172196
453.63101 615.92206 1500.0208 2895919
463.20386 616.15448 1500.5869 2566954
470.41714 613.30139 1493.6384 2961969
482.26093 616.47888 1501.377 3356983
493.34952 618.58783 1506.5131 3028018
502.13068 617.77881 1504.5427 3028018
510.98959 617.09338 1502.8735 3028018
522.0614 619.05695 1507.6555 3028018
529.44659 616.65674 1501.8101 2962225
538.4162 616.15363 1500.5847 2962225
547.36737 615.64685 1499.3506 2830639
558.15826 617.19165 1503.1128 2830639
567.77014 617.40302 1503.6276 3685948
573.30219 613.24341 1493.4973 3422776
582.65936 613.24341 1493.4973 2830896
590.93762 612.12579 1490.7754 2962225
602.56793 614.46112 1496.4628 2962225
612.20215 614.72058 1497.0947 3225397
622.09985 615.23285 1498.3423 3159604
631.00897 614.76672 1497.207 3291190
640.7782 615.13989 1498.116 3356983
648.74707 613.79895 1494.8502 3422776
650.33618 606.54602 1477.1863 3291190
655.12738 602.44116 1467.1893 2699053
663.47137 601.67175 1465.3156 2896432
680.86603 609.01898 1483.2091 3488569
687.8717 607.00079 1478.2939 3685948
687.37415 598.50311 1457.5986 3488569
699.20276 600.82001 1463.2412 3356983
703.86322 596.99713 1453.9309 3291190
707.10858 592.08698 1441.9728 2699053
716.77216 592.60724 1443.2397 2962225
732.57343 598.12567 1456.6794 3291447
741.78448 598.19385 1456.8453 3620155
750.91205 598.19385 1456.8453 3422776
754.58374 593.89972 1446.3875 3093811
763.86932 594.07355 1446.8108 2962225
776.09717 596.5047 1452.7317 3028018
787.14117 597.98016 1456.325 3094068
793.19788 595.67645 1450.7145 3159604
796.10675 591.08777 1439.5392 2830639
802.03589 588.81915 1434.0143 3291190
815.45081 592.03571 1441.8479 3751741
827.84534 594.44904 1447.7253 3028018
843.18054 598.89886 1458.5624 2896432
852.71216 599.17517 1459.2354 3159604
860.22906 598.04492 1456.4828 3291190
869.35425 598.04492 1456.4828 3159604
882.12476 600.52649 1462.5262 3028018
894.35498 602.59296 1467.5591 3028018
904.69513 603.35687 1469.4194 2830639
914.99854 604.08112 1471.1833 2962225
925.03503 604.61652 1472.4872 2896432
933.04956 603.8327 1470.5784 2699053
941.92322 603.61487 1470.0477 2764846
955.74438 606.54102 1477.1742 3685948
953.37775 599.23639 1459.3845 3488569
966.13159 601.48407 1464.8585 3291190
985.88226 608.00452 1480.7384 3291190
997.84204 609.64343 1484.7299 3422776
1006.0175 608.9613 1483.0686 3356983
1011.6695 606.7782 1477.7518 3225397
1023.4691 608.28845 1481.4299 2764846
1029.3306 606.27399 1476.5238 2764846
1044.2762 609.59833 1484.6199 3028018
1045.4426 604.8913 1473.1564 2962225
1056.1908 605.76215 1475.2773 2699053
1069.4547 608.04822 1480.8448 2896432
1080.2957 608.9292 1482.9905 3093811
1094.8153 611.85114 1490.1064 3225397
1104.895 612.26324 1491.1101 3356983
1114.5551 612.43787 1491.5354 3028018
1123.6522 612.3028 1491.2065 2699053
1134.708 613.22852 1493.4609 3356983
1146.9498 614.77484 1497.2269 3488568
1156.083 614.64331 1496.9065 3488568
1161.0449 612.31409 1491.2339 3685947
1173.9321 614.16821 1495.7495 3883327
1186.7623 615.9635 1500.1217 4014912
1196.4833 616.12946 1500.5259 3751741
1215.3094 620.94495 1512.2535 3422776
1224.3611 620.73041 1511.7311 3291190
1227.7292 617.65991 1504.2532 3488569
1237.1538 617.65991 1504.2532 3817534
1242.3384 615.55896 1499.1366 3751741
1252.3036 615.84064 1499.8225 3422776
1259.3038 614.67084 1496.9736 3291190
1267.8052 614.24561 1495.938 3225397
1251.8324 602.05609 1466.2515 2830639
1274.4159 608.45221 1481.8287 3027247
1284.1294 608.65576 1482.3243 3356470
1286.5204 605.41046 1474.4209 3422263
1315.6492 614.70416 1497.0547 3488057
1323.2915 613.89819 1495.0919 3488058
1332.6211 613.88092 1495.0498 3422266
1341.988 613.88092 1495.0498 3488059
1348.698 612.67389 1492.1102 3422265
1358.0465 612.67389 1492.1102 3356472
1368.6511 613.23669 1493.4808 3488058
1378.0082 613.23669 1493.4808 3685437
1389.9684 614.38727 1496.283 3685437
1402.6504 615.83936 1499.8195 3553851
1415.7566 617.45715 1503.7594 3488058
1440.27 623.99567 1519.6833 3553851
1436.8518 618.42657 1506.1202 3882816
1426.1921 609.8335 1485.1927 4146245
1411.9833 599.84424 1460.8647 3882816
1441.144 608.28937 1481.4321 2895921
1447.6665 607.13214 1478.6139 2830128
1449.9158 604.20898 1471.4948 3027507
1468.4978 608.086 1480.9368 3356472
1472.1285 605.76196 1475.2769 3290679
1477.743 604.27826 1471.6633 3224886
1489.6577 605.37311 1474.3298 3224629
1486.2185 600.25336 1461.8612 3224629
1497.9495 601.28577 1464.3755 3225398
nan nan nan 16777215
nan nan nan 16777215
nan nan nan 16777215
nan nan nan 16777215
nan nan nan 16777215
nan nan nan 16777215
nan nan nan 16777215
nan nan nan 16777215
nan nan nan 16777215
nan nan nan 16777215
nan nan nan 16777215
nan nan nan 16777215
nan nan nan 16777215
nan nan nan 16777215
nan nan nan 16777215
-1284.0367 607.03516 1456.2745 2633262
-1268.2826 603.87836 1448.7013 3093814
-1260.3185 604.4118 1449.9812 3159863
-1252.4514 605 1451.3921 3357498
-1250.4507 608.45117 1459.6714 3620927
-1234.8368 605.28046 1452.0649 3884098
-1221.6344 603.25348 1447.2023 3752513
-1212.5673 603.25348 1447.2023 3357755
-1205.2465 604.12885 1449.3022 3357755
-1196.7893 604.4436 1450.0573 3423548
-1188.3903 604.79272 1450.8949 3357755
-1177.8585 604.05347 1449.1215 3357755
-1168.7793 604.05347 1449.1215 3357755
-1156.0002 602.12628 1444.4982 3094583
-1147.281 602.30005 1444.915 2962997
-1136.6532 601.46667 1442.9158 3160376
-1127.6129 601.46667 1442.9158 3357755
-1120.3031 602.39722 1445.1481 3291962
-1122.8508 608.68658 1460.2362 3423548
-1104.6401 603.73389 1448.3547 3818306
-1094.6112 603.20789 1447.0928 3620927
-1072.4626 595.93848 1429.6536 3226168
-1074.985 602.37109 1445.0854 3028532
-1068.827 604.00763 1449.0115 2962738
-1058.1912 603.12 1446.8821 2896688
-1048.1841 602.57849 1445.583 2699311
-1035.6985 600.59027 1440.8134 2172966
-1025.2677 599.76923 1438.8435 2041123
-1018.8293 601.28973 1442.4912 2304552
-1013.6274 603.57379 1447.9707 2501931
-982.59692 590.38031 1416.3196 2436394
-967.80884 586.79431 1407.7168 3159604
-957.32373 585.77539 1405.2723 3554362
-951.33282 587.51288 1409.4407 3291190
-955.88171 595.85309 1429.4487 3290934
-952.46808 599.34058 1437.8152 3488569
-941.58801 598.15149 1434.9626 3620668
-932.59747 598.15149 1434.9626 3357497
-926.11719 599.77722 1438.8627 2897459
-911.39148 596.04236 1429.9028 3554106
-909.61987 600.78937 1441.2909 3489083
-905.11066 603.8053 1448.5261 3423546
-898.36884 605.37781 1452.2986 3357753
-891.81812 607.11273 1456.4606 3357753
-886.26776 609.57147 1462.3591 3555132
-876.74274 609.31927 1461.754 3555132
-868.75574 610.14191 1463.7275 3292216
-860.03735 610.46295 1464.4978 3094840
-854.51166 613.08154 1470.7798 3226427
-849.0719 615.81958 1477.3484 3950149
-839.81586 615.81958 1477.3484 4081735
-828.13153 614.01923 1473.0293 4015942
-808.32764 606.09003 1454.0072 4476493
-807.94147 612.70563 1469.8779 4344907
-804.27966 616.96112 1480.0868 3621184
-790.77856 613.68005 1472.2156 3621184
-780.82758 613.10913 1470.8459 3621184
-764.12451 607.15948 1456.5728 3489084
-762.63995 613.30457 1471.3147 3555645
-745.21503 606.62408 1455.2883 3687487
-728.39832 600.27936 1440.0674 3358522
-719.37585 600.27936 1440.0674 3095094
-714.67303 603.92963 1448.8243 3160886
-705.41217 603.77258 1448.4476 3687230
-698.95575 606.04303 1453.8944 4147781
-686.52814 603.12769 1446.9005 3819074
-672.67236 598.86279 1436.6691 3226680
-660.96686 596.42261 1430.8149 3029301
-657.45563 601.41101 1442.7821 3291960
-653.41266 606.04529 1453.8998 3357753
-644.15924 605.90961 1453.5742 3226167
-635.271 606.11835 1454.0751 3094581
-626.16077 606.11835 1454.0751 3028788
-623.0274 611.98938 1468.1597 2765873
-612.46747 610.63196 1464.9032 2831409
-602.10437 609.4325 1462.0258 2962995
-593.1377 609.63129 1462.5026 2897202
-580.08649 605.57227 1452.765 2370858
-574.60303 609.41003 1461.9718 3094581
-562.45612 606.19055 1454.2483 3489339
-553.80219 606.69159 1455.4503 3555132
-540.62067 602.16644 1444.5945 3884097
-531.56989 602.16644 1444.5945 3488569
-525.92529 606.09192 1454.0117 3225397
-516.81543 606.09192 1454.0117 3488569
-505.33893 603.2666 1447.2338 3159604
-499.90088 607.67841 1457.8176 3554362
-491.06281 608.04443 1458.6958 3225397
-482.34244 608.57281 1459.9634 3225397
-470.79184 605.48169 1452.5479 4278341
-460.89935 604.44336 1450.0568 3817535
-453.36557 606.51862 1455.0354 3357496
-444.30154 606.5899 1455.2064 3620925
-436.59808 608.56067 1459.9342 4542027
-428.61673 610.22009 1463.9152 4147269
-418.6235 609.02521 1461.0486 3949890
-406.8967 605.19843 1451.8682 3555132
-403.47055 613.82495 1472.5631 3423546
-396.47983 617.3053 1480.9125 3620925
-386.88861 616.80652 1479.7159 3291960
-377.42398 616.48999 1478.9567 3620925
-367.85147 615.97699 1477.726 3357753
-358.16547 615.24249 1475.9639 3094581
-348.75522 614.95532 1475.2749 3423546
-341.68369 618.88855 1484.7107 3686718
-330.99139 616.30017 1478.5012 3818304
-317.69394 608.57233 1459.9622 3620925
-307.76843 607.03705 1456.2789 3291960
-298.56503 606.87573 1455.892 3489339
-288.41861 604.72705 1450.7373 3555132
-279.99136 606.16034 1454.1758 3555132
-270.50903 605.3291 1452.1818 2831409
-260.0751 602.23639 1444.7623 3489339
-251.99254 604.56195 1450.3413 3620925
-242.34645 603.17004 1447.0022 3357753
-233.49905 603.73505 1448.3575 3686718
-224.91345 605.04999 1451.5121 3423546
-215.44377 603.99731 1448.9867 3555132
-206.49631 604.38037 1449.9056 3686718
-196.58733 601.85498 1443.8473 3160374
-187.37424 601.31927 1442.5621 3291960
-178.99748 603.54919 1447.9117 3291960
-170.92003 607.08038 1456.3829 2699823
-161.80783 607.1272 1456.4954 2962995
-153.09659 608.77405 1460.446 2962995
-143.84467 608.34357 1459.4135 3555132
-134.89508 609.22021 1461.5165 3686718
-125.2224 606.72095 1455.5208 3423546
-116.77647 610.23969 1463.9622 4081475
-107.60429 610.23969 1463.9622 3950147
-98.825302 612.67731 1469.8099 3818304
-89.906631 614.66089 1474.5686 3686718
-80.703712 614.93304 1475.2214 4410443
-70.450981 606.24176 1454.3711 4607820
-61.915993 611.94543 1468.0542 3884354
-53.022476 615.47766 1476.5281 3357753
-43.582958 612.82556 1470.1656 2897202
-34.339474 612.24719 1468.7782 2897202
-25.302094 616.26532 1478.4176 4146756
-15.846865 608.86963 1460.6754 4278341
-6.7002048 609.3175 1461.7499 2830896
2.4581113 609.3175 1461.7499 2764846
11.720583 614.78082 1474.8563 3488826
20.932043 613.93109 1472.8177 3356983
30.114336 613.00757 1470.6023 2830639
39.863052 621.3457 1490.6053 3554362
48.909256 617.64673 1481.7317 3554362
58.172638 617.43317 1481.2192 3488569
67.841087 620.98608 1489.7427 3028018
77.210342 621.27222 1490.4291 3949120
86.499512 620.92169 1489.5883 3422776
95.781342 620.59186 1488.797 2962225
104.55367 617.31238 1480.9296 2962225
114.50754 620.97498 1489.7161 2830639
123.90161 621.27856 1490.4443 2699053
132.24901 616.65906 1479.3622 2764846
141.44781 616.35468 1478.632 2896432
150.30151 614.67627 1474.6056 3159604
158.384 610.22107 1463.9175 3224628
169.79689 618.38251 1483.4967 2830383
179.3127 619.14642 1485.3293 3093811
188.69664 619.4021 1485.9427 3093811
197.3577 617.37244 1481.0736 3159604
203.84457 609.02924 1461.0582 3488569
211.66508 605.21643 1451.9114 3028018
220.7128 605.08215 1451.5894 3093811
232.77029 612.88336 1470.3042 3883327
240.48581 609.09326 1461.2119 3159347
250.57768 611.37927 1466.696 3028018
261.36807 615.14758 1475.7362 3028018
269.54785 612.724 1469.922 3883327
278.02649 611.11749 1466.068 3554362
288.13162 613.07452 1470.7629 3356983
296.42722 611.17932 1466.2163 3159604
304.30762 608.56769 1459.951 3356983
311.05411 603.9071 1448.7703 3093811
320.59958 604.79077 1450.8903 2106916
329.68985 604.79077 1450.8903 2567467
344.07532 614.24377 1473.568 2764846
352.87994 613.50012 1471.7839 2830639
362.1011 613.50012 1471.7839 2962225
372.53204 615.49884 1476.5789 2764846
384.42853 619.76349 1486.8097 2830896
393.74387 619.76349 1486.8097 2896689
404.77731 622.4054 1493.1476 2896431
414.84851 623.48169 1495.7297 2896432
423.03012 621.73334 1491.5354 2699053
431.34106 620.24652 1487.9685 2633259
