# .PCD v0.7 - Point Cloud Data file format
VERSION 0.7
FIELDS x y z rgb
SIZE 4 4 4 4
TYPE F F F U
COUNT 1 1 1 1
WIDTH 1287
HEIGHT 1
VIEWPOINT 0 0 0 1 0 0 0
POINTS 1287
DATA ascii
36.907261 584.54218 1118.125 3225397
43.462624 578.55151 1106.6659 3356983
51.404861 590.13074 1128.8148 3291190
58.348167 588.82819 1126.3232 3620155
64.816307 583.52887 1116.1866 3093811
72.540344 589.46729 1127.5458 2830639
80.000481 592.39746 1133.1508 2501674
86.600159 588.99768 1126.6476 2699053
93.431396 587.56671 1123.9103 2896432
100.88538 589.97803 1128.5227 2633260
108.32484 591.9942 1132.3793 2699053
115.41741 591.98322 1132.3583 2699053
122.86846 593.70569 1135.6531 2962482
129.97035 593.64484 1135.5367 2765103
136.97231 593.15747 1134.6045 2962225
145.35753 598.41296 1144.6572 3291190
152.08371 596.66528 1141.3143 3225397
158.45177 593.73273 1135.7048 2830639
166.16838 595.88824 1139.8279 2370088
173.21423 595.55975 1139.1996 2830895
181.50403 599.36511 1146.4785 3751741
187.36771 595.17413 1138.4619 3488569
195.09415 596.9906 1141.9365 2370088
202.246 596.98254 1141.9211 2830896
208.56262 594.59387 1137.3521 3159861
217.38199 599.26239 1146.282 2501674
224.02159 597.81549 1143.5144 2764846
230.83679 596.91229 1141.7867 2830639
238.65259 598.57306 1144.9635 2764846
246.66942 600.6264 1148.8911 2764846
253.23521 599.13031 1146.0294 2633260
260.59479 599.54291 1146.8186 2765102
267.8685 599.74115 1147.1979 2699053
274.48276 598.49115 1144.8068 2041123
281.65533 598.49115 1144.8068 1777951
289.05869 598.9693 1145.7214 1975330
296.78592 600.07922 1147.8445 2435881
304.42651 600.96552 1149.5399 2567467
311.02408 599.79956 1147.3096 2370088
318.55777 600.45068 1148.5551 2370088
324.80444 598.70068 1145.2076 2106916
335.52509 605.09485 1157.4385 1909537
342.36557 604.3689 1156.0499 2172709
348.59717 602.62054 1152.7056 2435881
354.80832 600.90839 1149.4305 2567467
362.46088 601.65704 1150.8627 2567467
370.21078 602.53491 1152.5419 2567467
376.15652 600.49908 1148.6476 2633260
384.32938 602.0282 1151.5726 2501674
393.16901 604.52631 1156.351 2501674
401.91968 606.79962 1160.6995 2370088
409.60339 607.40997 1161.8669 2238502
416.66962 607.09924 1161.2726 2238502
426.4968 610.75299 1168.2616 2172709
433.81635 610.75299 1168.2616 2238502
441.53656 611.30786 1169.3229 2238502
449.80115 612.58582 1171.7675 2041124
457.59769 613.19562 1172.9338 2106917
467.23447 616.21313 1178.7058 1909539
477.3443 619.75092 1185.473 2370089
483.33401 617.91302 1181.9574 2435370
489.9982 616.9798 1180.1724 2041126
499.48349 619.57373 1185.134 2435881
506.90872 619.57373 1185.134 2830638
512.64172 617.53522 1181.2347 3554106
520.8457 618.48895 1183.0591 3554107
529.10901 619.48541 1184.9651 3422265
537.72412 620.86047 1187.5953 3290423
547.51099 623.53247 1192.7064 2961458
551.59326 619.72333 1185.4202 2764592
558.83868 619.52197 1185.035 2369833
566.46887 619.74683 1185.4652 2370089
572.66412 618.41644 1182.9203 2304295
579.90045 618.2298 1182.5634 2962225
586.66132 617.54742 1181.2581 3423033
590.99622 614.36017 1175.1614 3224628
591.42279 607.23853 1161.5389 2567210
598.7002 607.23853 1161.5389 1843231
602.16614 603.41913 1154.2332 1448473
606.13055 600.18396 1148.0448 1448216
612.039 598.92706 1145.6406 1514265
615.7821 595.60486 1139.2859 1645853
619.45123 592.28821 1132.9417 1711646
624.4231 590.27808 1129.0967 1711647
631.49725 590.27808 1129.0967 1777440
638.36475 590.08704 1128.7313 1843748
643.71167 588.51001 1125.7147 2238504
652.20001 589.80811 1128.1978 2501673
659.71899 590.21112 1128.9686 2501674
666.90503 590.31091 1129.1594 2567467
674.00592 590.33398 1129.2036 2633259
680.89099 590.16956 1128.889 2896432
693.49298 594.91272 1137.9619 3225654
702.41211 596.43219 1140.8684 3356983
710.40808 597.14502 1142.2319 3225397
724.61877 603.0155 1153.4611 2633260
731.29041 602.55804 1152.5861 2501674
736.44098 600.86853 1149.3542 2962225
744.20892 601.32654 1150.2303 3225397
746.38263 597.29895 1142.5264 3093811
753.77161 597.48181 1142.8761 2962225
761.2583 597.73798 1143.3661 2896432
769.47784 598.55939 1144.9374 2699310
773.07977 595.80695 1139.6724 2830639
777.89539 594.03156 1136.2765 2830639
784.35229 593.53052 1135.318 2962482
791.51495 593.56763 1135.389 3225397
797.15601 592.47327 1133.2957 3422776
801.69824 590.58868 1129.6908 3225397
808.77612 590.58868 1129.6908 3159604
817.84283 592.02838 1132.4447 2896432
829.84387 595.54913 1139.1793 2566954
836.98114 595.54913 1139.1793 2435112
847.32758 597.81335 1143.5103 2040354
852.63031 596.5108 1141.0188 2171939
865.26569 600.31732 1148.2999 3027505
874.92273 602.01184 1151.5413 3159091
874.89624 597.07001 1142.0884 3093298
883.18738 597.83868 1143.5588 3159091
891.30109 598.47583 1144.7776 3027505
899.69092 599.28687 1146.3289 2830126
906.57709 599.09125 1145.9547 2961712
911.96936 597.91931 1143.713 2896431
922.43347 600.06506 1147.8174 2567723
932.19995 601.72723 1150.9968 2699053
935.83429 599.43597 1146.6141 3225653
939.50165 597.20068 1142.3384 3817534
940.52057 593.32843 1134.9314 3225654
952.37286 596.29724 1140.6102 3159604
959.72003 596.42206 1140.849 3422520
966.25128 596.04175 1140.1216 3554106
965.07458 590.9472 1130.3766 3487799
975.71692 593.11127 1134.5161 3224884
987.05652 595.66492 1139.4008 3027248
994.63501 595.92847 1139.9048 3093298
1001.7768 595.92834 1139.9047 3422263
1010.7589 597.01538 1141.9839 3290677
1018.477 597.3457 1142.6157 3027505
1023.8257 596.29144 1140.5991 3159091
1031.6589 596.68872 1141.3591 3093298
1042.5834 598.8562 1145.5051 3356470
1049.0364 598.4433 1144.7152 3422263
1056.1482 598.40918 1144.65 3159091
1063.9662 598.77295 1145.3458 2961712
1073.1771 599.91058 1147.5219 3159091
1079.3363 599.33838 1146.4274 3290677
1086.1099 599.11267 1145.9957 3290677
1090.8112 597.75439 1143.3975 3290677
1097.412 597.44781 1142.8112 3422263
1107.9465 599.27313 1146.3026 3619642
1114.7629 599.07666 1145.9268 2961712
1122.6613 599.46045 1146.6609 2830126
1129.8455 599.46045 1146.6609 2501161
1130.7003 596.12347 1140.278 2369575
1134.1465 594.1861 1136.572 2040610
1142.3671 594.75861 1137.6671 1974817
1150.4106 595.23242 1138.5735 2303268
1155.2061 594.03009 1136.2736 2566183
1157.5465 591.58783 1131.6021 2369321
nan nan nan 16777215
nan nan nan 16777215
nan nan nan 16777215
nan nan nan 16777215
nan nan nan 16777215
nan nan nan 16777215
nan nan nan 16777215
nan nan nan 16777215
nan nan nan 16777215
nan nan nan 16777215
nan nan nan 16777215
nan nan nan 16777215
nan nan nan 16777215
nan nan nan 16777215
nan nan nan 16777215
nan nan nan 16777215
nan nan nan 16777215
nan nan nan 16777215
-986.34943 604.68164 1143.0221 3949120
-979.88782 605.11377 1143.839 3685948
-969.49475 603.10657 1140.0448 3225397
-957.09894 599.81445 1133.8218 3291190
-937.63049 592.00757 1119.0645 3093811
-926.69684 589.51239 1114.3479 2567724
-914.78912 586.35492 1108.3794 2238502
-903.68353 583.66736 1103.2991 3092785
-894.05261 581.89807 1099.9546 3224884
-886.54559 581.49426 1099.1914 3093298
-883.53229 584.05487 1104.0316 2698540
-876.13501 583.73492 1103.4269 2632747
-867.7467 582.74438 1101.5544 2566697
-860.72675 582.66425 1101.403 2633004
-847.61023 578.42242 1093.3846 3028018
-847.10028 582.78448 1101.6302 3883327
-846.19403 586.94336 1109.4917 3687232
-843.09106 589.63477 1114.5792 3555132
-845.21863 596.05988 1126.7245 3686974
-838.98975 596.65033 1127.8407 3752511
-832.74951 597.2428 1128.9606 3489339
-824.83789 596.63635 1127.8142 3620925
-814.01837 593.89795 1122.6378 3686461
-808.08661 594.70886 1124.1708 4542027
-799.21893 593.35443 1121.6105 4147012
-792.81464 593.82098 1122.4924 4278599
-783.98505 592.46313 1119.9257 4673613
-776.96832 592.46313 1119.9257 4542540
-765.80627 589.27332 1113.896 3687487
-756.7218 587.63818 1110.8052 2700593
-754.76465 591.5589 1118.2164 3555645
-751.56476 594.57001 1123.9082 3752511
-744.55725 594.59723 1123.9597 3489339
-737.65179 594.70728 1124.1677 3423546
-728.69739 593.15161 1121.2271 3818304
-720.19849 591.94006 1118.9369 4147269
-714.28149 592.8476 1120.6525 4147525
-707.08594 592.70148 1120.3762 4213319
-698.86499 591.68433 1118.4535 3752511
-692.46338 592.20245 1119.4329 3620925
-688.16968 594.55237 1123.8749 3555132
-684.62811 597.60736 1129.6497 3752511
-676.09052 596.31964 1127.2156 3686718
-667.72913 595.1618 1125.0269 3160375
-660.62396 595.11084 1124.9305 3555132
-653.99414 595.49164 1125.6504 3489339
-646.63202 595.20673 1125.1118 3489339
-637.36224 593.1402 1121.2054 3620925
-627.90015 590.84662 1116.87 3818304
-623.2569 593.08698 1121.1049 3489339
-623.2804 599.86981 1133.9264 3423547
-618.5849 602.21497 1138.3594 3489596
-610.06134 600.8446 1135.769 3883584
-600.31799 598.22632 1130.8197 3949120
-592.35303 597.33887 1129.1422 4212036
-585.27856 597.33887 1129.1422 3883071
-577.56213 596.6756 1127.8884 2962225
-576.16681 602.60712 1139.1007 4146499
-571.46777 605.18878 1143.9807 3883584
-556.36194 596.67511 1127.8875 3751998
-549.02655 596.38318 1127.3356 3554876
-539.8288 594.03412 1122.8953 3554105
-531.81409 592.94214 1120.8311 3685948
-526.98657 595.42194 1125.5187 3422776
-521.8053 597.56403 1129.5677 3422776
-517.96222 601.31848 1136.6648 4080706
-513.0816 603.9563 1141.651 3488569
-505.92877 603.9563 1141.651 3685948
-495.73279 600.2713 1134.6853 3620155
-488.31357 599.89038 1133.9653 3488569
-482.04327 600.93054 1135.9315 3554362
-477.39255 604.05109 1141.8302 3554362
-470.23859 604.05109 1141.8302 3422776
-461.48718 601.96729 1137.8912 3225397
-455.07895 602.92255 1139.6969 3949377
-443.78836 597.33661 1129.1379 4015940
-437.81253 598.83923 1131.9783 3752767
-432.14865 600.82501 1135.7321 3226424
-424.8544 600.57269 1135.255 3488313
-419.54318 603.1626 1140.1508 4015683
-414.29065 605.92816 1145.3784 3752511
-410.45538 610.90057 1154.7777 3356983
-399.85214 605.79749 1145.1315 3094067
-390.83395 602.95343 1139.7552 2896689
-384.03125 603.48486 1140.7599 2502701
-377.49286 604.45972 1142.6027 3620925
-370.76184 605.1579 1143.9224 3818304
-363.59479 605.1579 1143.9224 3686718
-353.4328 600.07288 1134.3103 4607820
-345.57513 598.77185 1131.851 4805199
-336.91556 595.9978 1126.6072 3686718
-331.92685 599.73767 1133.6766 3357753
-324.82404 599.73767 1133.6766 3489339
-317.7236 599.74219 1133.6852 3752511
-310.6207 599.74219 1133.6852 3949890
-305.35367 603.36981 1140.5424 3489339
-297.29532 601.52356 1137.0525 3291960
-286.27808 593.45288 1121.7965 4147269
-279.26593 593.48737 1121.8618 3949890
-272.62384 594.33051 1123.4554 3686718
-265.58505 594.33051 1123.4554 3818304
-256.77789 590.26538 1115.7714 3555132
-248.2794 586.70239 1109.0361 3489339
-241.94696 588.20001 1111.8671 3160374
-235.40227 589.25494 1113.8613 3686718
-228.86987 590.40625 1116.0376 3818304
-221.11171 588.36841 1112.1854 3620925
-213.12752 585.5769 1106.9087 3357753
-206.66191 586.91034 1109.4293 3686718
-199.67633 586.80847 1109.2367 3357753
-192.72662 586.80847 1109.2367 3226167
-185.15474 584.84326 1105.5219 4015940
-178.15416 584.59998 1105.062 5068627
-170.57085 582.34747 1100.8041 4739406
-164.74367 586.15344 1107.9985 3621182
-157.80173 586.15344 1107.9985 3423802
-151.02104 586.78015 1109.1831 3226167
-145.12692 591.078 1117.3074 3489339
-137.23929 587.28076 1110.1295 3620925
-130.5797 588.61377 1112.6492 3291960
-123.61448 588.64172 1112.7021 3226424
-116.40437 587.43719 1110.4252 3488055
-111.29026 597.32935 1129.1243 2764589
-104.32965 597.98114 1130.3562 2698796
-97.332298 598.50177 1131.3405 2764590
-89.408775 592.96191 1120.8685 2962481
-82.21479 591.72833 1118.5366 2830639
-75.283699 592.33325 1119.6802 2435881
-68.480881 594.17548 1123.1625 3488569
-61.868439 598.2807 1130.9225 3225397
-54.782856 598.2807 1130.9225 2896432
-47.301201 593.31262 1121.5314 3159604
-40.085289 590.52582 1116.2635 3028018
-33.149216 591.55481 1118.2087 3422776
-26.193808 592.69788 1120.3694 3093811
-19.21174 593.85376 1122.5543 2633260
-12.059694 588.05615 1111.5952 2830639
-5.0867419 587.07935 1109.7488 2962225
1.8832115 592.43781 1119.8778 3356983
8.9091406 593.07336 1121.0791 3093811
15.833464 589.36652 1114.0721 3028275
22.80834 589.23395 1113.8215 2699053
29.685143 587.22345 1110.0211 2370088
36.48555 584.75177 1105.349 2896432
43.410904 584.75177 1105.349 2962225
50.347881 584.88684 1105.6042 3225397
57.308002 585.22552 1106.2445 3554362
64.141037 584.33344 1104.5581 3291190
71.4729 587.7168 1110.9537 3159604
78.696152 589.68585 1114.6758 3554362
85.419373 587.89252 1111.2859 2830639
92.482994 588.53571 1112.5017 2896432
99.497444 588.79779 1112.9971 2830639
106.77339 590.47156 1116.161 2699053
113.38599 588.49677 1112.4281 2699309
120.27641 588.10901 1111.6952 3028018
127.31264 588.43774 1112.3165 3225397
135.2636 592.74072 1120.4504 2501674
142.41666 593.29523 1121.4985 2567467
150.01414 595.56189 1125.7832 2830639
157.6396 597.73108 1129.8837 3028018
164.13217 595.60278 1125.8605 2896432
171.18604 595.60278 1125.8605 2699053
177.89941 594.46509 1123.7098 2830639
183.88721 591.0816 1117.3141 3554362
190.95274 591.28357 1117.6959 3949120
198.77945 593.74475 1122.3483 2764846
205.92647 594.07703 1122.9763 2435881
213.62132 595.91553 1126.4517 2567467
220.99696 596.77441 1128.0752 2699053
228.02376 596.66724 1127.8727 2764846
236.11514 599.26855 1132.7898 2435881
243.32137 599.53699 1133.2972 2501674
250.72949 600.27356 1134.6896 2633260
257.90973 600.43896 1135.0023 2764846
265.48907 601.49976 1137.0074 2830639
271.87238 599.86603 1133.9193 2764846
278.97672 599.86603 1133.9193 3028018
284.51614 596.58466 1127.7166 2633260
291.36603 596.14343 1126.8826 2633260
298.4263 596.14343 1126.8826 2764846
304.9606 595.11713 1124.9425 2370088
312.62643 596.29529 1127.1696 2172709
320.67737 598.13983 1130.6562 2172709
329.64053 601.56927 1137.1389 1909537
337.57681 603.01941 1139.88 2304295
340.21271 595.13733 1124.9806 2304295
348.40234 597.0932 1128.6779 2830639
356.69995 599.15271 1132.5709 2567467
364.10355 599.65948 1133.5288 2435881
369.58774 597.04614 1128.5889 2501674
378.23538 599.54541 1133.3131 2435881
387.08035 602.25952 1138.4436 2501674
395.02078 603.49353 1140.7762 2501674
402.96579 604.69055 1143.0389 2567467
410.65472 605.4682 1144.5089 2699053
418.72849 606.77679 1146.9825 2633260
426.20163 607.18561 1147.7554 2633260
432.97589 606.60168 1146.6516 2435881
441.85361 608.93567 1151.0635 2304295
449.5961 609.65533 1152.4238 2370088
458.85461 612.37549 1157.5658 2238504
466.59012 613.01007 1158.7653 2830642
472.57242 611.35712 1155.6406 3685435
477.24246 608.08203 1149.4498 3619642
483.31335 606.66266 1146.7668 3093299
493.93555 610.91406 1154.8032 2370089
510.12982 621.8349 1175.4468 3488315
517.5943 621.95502 1175.6738 3291449
524.86987 621.84796 1175.4714 3028021
530.35529 619.65216 1171.3208 3225656
539.00616 621.16449 1174.1794 3093813
546.89795 621.77289 1175.3295 2896434
553.58929 621.01855 1173.9036 2830384
558.84302 618.69238 1169.5065 2633262
568.03827 620.73358 1173.3649 2238761
576.08496 621.48358 1174.7826 2238761
582.17798 620.13361 1172.2307 1778210
582.72937 612.98785 1158.7233 1382938
586.96051 609.84119 1152.7751 1711645
591.11884 606.69629 1146.8303 1975074
596.92773 605.3006 1144.1921 1777438
602.85992 604.06158 1141.8501 1251093
607.65717 601.72778 1137.4385 1119507
608.80988 595.88098 1126.3864 1053716
614.10876 594.17975 1123.1705 1514267
617.68445 590.86865 1116.9116 2040867
623.65106 589.89331 1115.068 1777438
631.04034 590.27026 1115.7805 1777438
637.96851 590.21246 1115.6713 1646624
645.75049 590.93719 1117.0411 2633262
658.06256 595.7475 1126.134 2633263
662.55847 593.45477 1121.8002 2435885
667.57861 591.67487 1118.4355 2501677
675.23151 592.24103 1119.5059 2699054
686.93988 596.31604 1127.2087 3225397
695.32062 597.44891 1129.3502 3620155
703.18036 598.11578 1130.6108 3685948
709.86316 597.77826 1129.9728 3488569
720.71429 600.92291 1135.917 3356983
726.19904 599.57532 1133.3698 3488569
733.29993 599.57532 1133.3698 3291190
742.0871 600.9408 1135.9509 3159604
749.20416 600.9408 1135.9509 3094068
753.21674 598.47412 1131.2881 2764846
757.79382 596.49774 1127.5522 3028275
765.65082 597.11584 1128.7206 3159604
770.08154 595.07501 1124.8628 3159604
778.70923 596.28491 1127.1499 3093811
785.77118 596.28491 1127.1499 2830896
789.93512 594.10535 1123.0299 3028018
795.88885 593.2984 1121.5046 3291190
799.9881 591.13531 1117.4158 3159604
807.39154 591.43024 1117.9731 2962225
817.36963 593.58966 1122.0552 3225397
824.47803 593.64612 1122.1619 3423033
828.11816 591.22552 1117.5862 2830895
835.12024 591.22552 1117.5862 2961712
847.86395 595.25659 1125.2061 3159091
857.24731 596.88141 1128.2775 3093298
864.92694 597.3031 1129.0746 2830383
874.77521 599.20343 1132.6667 3027505
886.13617 602.10095 1138.1439 3027505
896.76038 604.45563 1142.595 2764333
903.91913 604.45563 1142.595 2501161
901.9278 598.38507 1131.1199 2369575
910.59204 599.4234 1133.0826 2501161
917.71265 599.43756 1133.1093 3093298
925.91687 600.15369 1134.463 3093298
921.40607 592.68024 1120.3361 3224628
932.64465 595.37372 1125.4275 3224884
939.1076 595.00104 1124.723 2896175
935.49805 588.29968 1112.0555 2962225
948.92792 592.33368 1119.6809 3554362
953.08435 590.56238 1116.3326 3488569
961.0423 591.15521 1117.4532 3225653
970.98541 592.95172 1120.8492 3291447
978.4054 593.19275 1121.3048 3291446
985.0907 592.98804 1120.9178 3422263
989.34229 591.3316 1117.7867 3685435
1003.2443 595.42603 1125.5264 3290677
1010.296 595.42603 1125.5264 3093298
1022.3032 598.32629 1131.0087 3553849
1030.1276 598.75537 1131.8198 3553849
1033.2979 596.49194 1127.5413 3553849
1042.8943 597.9436 1130.2854 3159091
1049.2488 597.5296 1129.5028 2961712
1060.1166 599.67413 1133.5565 3093298
1063.9506 597.83783 1130.0853 3356470
1073.9712 599.479 1133.1876 3422263
1081.5149 599.72516 1133.653 3422263
1081.2034 595.64069 1125.9321 3356470
1088.1239 595.56744 1125.7937 2830126
1105.1173 600.97284 1136.0115 2369575
1110.9225 600.26379 1134.6711 2303782
1116.2415 599.30267 1132.8544 2501161
1119.4388 597.22186 1128.921 2501161
1122.8945 595.30414 1125.296 2106403
1128.4583 594.52094 1123.8154 2106660
1135.4993 594.52094 1123.8154 2172196
1140.2297 593.3186 1121.5427 2369575
1144.2827 591.7807 1118.6356 2500137
nan nan nan 16777215
nan nan nan 16777215
nan nan nan 16777215
nan nan nan 16777215
nan nan nan 16777215
nan nan nan 16777215
nan nan nan 16777215
nan nan nan 16777215
nan nan nan 16777215
nan nan nan 16777215
nan nan nan 16777215
nan nan nan 16777215
nan nan nan 16777215
nan nan nan 16777215
nan nan nan 16777215
nan nan nan 16777215
nan nan nan 16777215
nan nan nan 16777215
-979.33594 607.45483 1134.8945 3817534
-972.22534 607.45483 1134.8945 3225397
-958.81104 603.48706 1127.4817 3159604
-947.68134 600.90906 1122.6653 3290677
-932.44757 595.67078 1112.8787 2961199
-920.34381 592.3681 1106.7084 2303526
-904.91144 586.85669 1096.4115 2237732
-894.69958 584.67236 1092.3306 3027505
-887.63391 584.52625 1092.0576 2895919
-880.40869 584.27203 1091.5826 2830126
-872.89282 583.81934 1090.7368 2895919
-865.97345 583.76166 1090.6292 2632747
-862.34125 585.93658 1094.6925 2501161
-856.57574 586.6853 1096.0913 2238502
-851.02277 587.59277 1097.7867 2501674
-845.14038 588.28583 1099.0815 2699309
-842.29498 591.12152 1104.3794 2699053
-835.9903 591.55652 1105.192 2961969
-835.55664 596.18774 1113.8445 2765616
-832.14703 598.75574 1118.6422 2567981
-822.1748 596.60516 1114.6244 3357753
-815.54004 596.86041 1115.1012 3620925
-809.20569 597.34174 1116.0005 3884610
-801.89771 597.10651 1115.561 4805456
-796.15344 598.04181 1117.3083 4016196
-788.76831 597.75018 1116.7635 4081989
-781.20532 597.31732 1115.9548 4937554
-770.70386 594.60956 1110.896 5002321
-759.60931 591.39069 1104.8823 4015683
-752.6355 591.35034 1104.8069 3095094
-741.29156 587.84369 1098.2555 3292473
-737.91821 590.65125 1103.5009 3489339
-734.83215 593.74408 1109.2791 3423546
-727.53827 593.4635 1108.7549 3291960
-727.83722 599.43085 1119.9036 3094837
-719.38141 598.23401 1117.6675 2831666
-708.48438 594.9635 1111.5573 2765873
-700.85046 594.39557 1110.4962 2896946
-695.56104 595.82452 1113.1659 3028788
-687.66949 595.03094 1111.6832 3291960
-679.55969 594.03015 1109.8136 3423546
-675.42542 596.5199 1114.4651 3489339
-665.26312 593.68219 1109.1635 3752511
-660.11871 595.30988 1112.2043 3818304
-652.56934 594.78027 1111.215 3686718
-644.21106 593.49402 1108.8119 3620925
-636.2464 592.54626 1107.0413 3686975
-629.42181 592.65118 1107.2372 3620925
-624.68323 594.74438 1111.1479 3686718
-617.06403 594.11133 1109.9652 3686718
-608.72681 592.76465 1107.4492 3686974
-601.94318 592.91718 1107.7343 3818304
-597.80267 595.70721 1112.9468 3686975
-591.66364 596.54803 1114.5176 3950147
-583.94507 595.7973 1113.115 3884354
-582.0921 601.08539 1122.9948 3752511
-576.75745 602.86365 1126.317 5068371
-569.70074 602.86365 1126.317 4278855
-558.72302 598.66241 1118.4679 3818561
-553.00342 600.06006 1121.079 3686974
-544.20734 598.1123 1117.4401 3489339
-537.58057 598.52905 1118.2188 3489596
-530.57599 598.53064 1118.2217 3290933
-524.38452 599.46179 1119.9613 3093811
-518.19653 600.42218 1121.7556 3817534
-511.16833 600.42218 1121.7556 4343878
-508.42929 605.5304 1131.2992 3356983
-502.07062 606.41125 1132.9448 3488569
-489.92969 600.23322 1121.4026 3620155
-482.7865 600.08752 1121.1304 3356983
-475.83948 600.18488 1121.3123 3488569
-469.2428 600.73376 1122.3376 3356983
-462.42841 601.01624 1122.8655 3422776
-457.19751 603.39734 1127.3141 3291190
-451.32065 604.9873 1130.2845 3093811
-440.47787 599.86517 1120.715 3685948
-437.09775 604.90466 1130.1301 4014913
-427.30887 601.09503 1123.0127 4014913
-422.65845 604.50702 1129.3872 3422776
-419.45251 610.13635 1139.9044 3686718
-412.31415 610.14148 1139.9139 3817278
-404.27997 608.79785 1137.4037 3554362
-394.43454 604.62952 1129.6161 3225397
-386.18991 602.80756 1126.2122 2567980
-381.7962 607.04065 1134.1207 2699566
-374.41721 606.59772 1133.2932 3489339
-366.99823 606.07166 1132.3104 3160374
-360.21344 606.59277 1133.2841 3818304
-352.73267 605.93933 1132.0632 4805199
-342.4346 600.32013 1121.5649 4015683
-335.33591 600.19171 1121.325 3226167
-327.15222 598.07428 1117.3691 3094581
-319.50623 596.86877 1115.1168 3226167
-312.80099 597.40601 1116.1206 3686718
-305.80814 597.40601 1116.1206 3555388
-299.08145 597.93811 1117.1147 3160374
-291.90411 597.57324 1116.433 3620925
-282.98572 593.53864 1108.8953 4015683
-274.0752 589.31781 1101.0096 4147269
-268.00922 591.15338 1104.439 3620925
-261.909 593.00885 1107.9054 3884097
-254.81851 592.66193 1107.2573 3818304
-246.57652 589.54254 1101.4294 3357753
-239.74713 589.71826 1101.7577 3423546
-233.75391 592.02203 1106.0618 3752511
-226.9286 592.2948 1106.5714 3752511
-219.13986 589.99097 1102.2672 3620925
-211.59073 588.20325 1098.9272 3094581
-204.94069 588.87872 1100.1892 3686718
-198.25368 589.49127 1101.3336 3555132
-191.53813 590.06012 1102.3964 3620925
-184.89903 590.91583 1103.9951 4213062
-177.89839 590.6377 1103.4755 4804942
-170.42384 588.70007 1099.8555 5002578
-162.86012 586.27808 1095.3306 4344648
-155.79881 585.53131 1093.9353 4213062
-148.89861 585.349 1093.5947 3555132
-142.37552 586.70319 1096.1248 3094581
-136.04677 589.03607 1100.4832 3423546
-128.74123 587.16309 1096.9839 3292216
-121.99918 587.7937 1098.1621 3226168
-115.10417 587.71875 1098.0221 3423033
-108.78491 590.76086 1103.7056 2765359
-102.467 594.22382 1110.1753 2830639
-95.41188 593.60461 1109.0186 2896689
-88.323196 592.66296 1107.2592 2172709
-81.484032 593.37775 1108.5946 2765103
-74.594315 593.82336 1109.4271 3225397
-67.574799 593.22107 1108.3019 3291190
-60.643742 593.34625 1108.5358 3094068
-53.698425 593.34625 1108.5358 3028018
-46.489346 589.9989 1102.282 2896432
-39.719868 592.03589 1106.0876 2896689
-32.694649 590.31628 1102.875 3159861
-26.078922 597.04999 1115.4554 3291190
-18.992355 593.9884 1109.7355 2896689
-11.875265 585.8847 1094.5956 2896432
-5.0139675 585.49738 1093.8719 2962225
1.8289651 582.1507 1087.6194 3225397
8.6907396 585.35004 1093.5967 2962225
15.564846 586.19312 1095.1718 3027248
22.570559 589.96027 1102.2098 2764077
29.415939 588.7533 1099.9548 2500905
36.358978 589.58801 1101.5144 2370088
43.08083 587.14197 1096.9445 3028018
49.400745 580.64471 1084.8058 2962225
56.563454 584.42694 1091.8721 3488569
63.489513 585.21173 1093.3383 3225397
70.828453 589.27875 1100.9365 3620155
77.726158 589.27875 1100.9365 4212292
84.188408 586.24646 1095.2714 2830639
92.092995 592.95789 1107.8103 2567467
98.804695 591.58636 1105.2478 3159604
105.42249 589.86902 1102.0394 3356983
112.06492 588.49219 1099.467 2830639
118.95342 588.49219 1099.467 2962225
124.784 583.54492 1090.2241 3291190
132.4839 587.39911 1097.4249 2435881
139.36473 587.42078 1097.4653 2633260
147.85274 593.89606 1109.563 2830639
154.21661 591.64062 1105.3492 3159604
161.26439 592.09015 1106.1891 3028018
168.67126 593.76666 1109.3213 3028018
174.64041 590.44965 1103.1241 3159604
182.10919 592.26233 1106.5107 3225397
189.78639 594.59503 1110.8689 3620155
196.74632 594.59503 1110.8689 3488569
203.66345 594.47003 1110.6354 2370088
210.86432 595.15417 1111.9136 2501674
218.51326 597.01886 1115.3972 2764846
225.43109 596.83221 1115.0486 2567467
232.10512 596.03076 1113.5513 2567467
239.46458 596.98486 1115.3337 2633260
247.08302 598.51221 1118.1873 2830639
254.36472 599.16211 1119.4015 2501674
260.16022 596.37036 1114.1857 2238502
270.73019 604.38306 1129.1556 2435881
274.29123 596.73926 1114.8749 2764846
279.92593 593.87439 1109.5226 3817534
285.72717 591.49323 1105.0739 2962225
294.50247 595.23578 1112.0659 2633260
301.56754 595.42853 1112.426 2764846
308.22525 594.82648 1111.3013 2304295
316.60129 597.49384 1116.2847 2370088
324.82047 599.75629 1120.5115 3159604
329.47369 595.47803 1112.5186 2896688
337.42871 597.22095 1115.7748 2764846
344.69339 597.69604 1116.6625 2830639
351.68964 597.69604 1116.6625 2764590
358.96118 598.15479 1117.5195 2370088
362.92477 593.18927 1108.2426 2501674
370.33395 593.93616 1109.6379 3422776
378.31937 595.56262 1112.6766 3028018
388.72342 600.86884 1122.5901 3028018
396.84784 602.52533 1125.6849 2962225
404.16147 602.91449 1126.412 2830639
412.41727 604.67169 1129.6948 2764846
420.63245 606.3111 1132.7577 2699053
427.91998 606.58099 1133.262 2633260
436.01758 607.97168 1135.8601 2764846
446.298 612.3125 1143.9701 2962225
453.46533 612.3125 1143.9701 3356983
461.98517 614.11041 1147.329 3159604
468.51102 613.24316 1145.7089 2435369
474.19058 611.31116 1142.0992 2567212
475.58554 603.99518 1128.4309 2764847
486.80237 609.18451 1138.1261 2172196
495.14575 610.68011 1140.9203 2764333
503.95081 612.69452 1144.6837 3027504
514.58728 616.84766 1152.443 2830126
523.95398 619.38489 1157.1832 3158834
530.4043 618.45233 1155.4409 3093042
538.73877 619.71216 1157.7947 2961714
548.33057 622.36578 1162.7523 2896690
552.88721 619.30957 1157.0425 2699312
563.42371 622.94415 1163.8329 2501676
571.52954 623.83264 1165.4929 2370089
578.41248 623.3808 1164.6487 1975075
579.88226 617.17896 1153.0619 1843231
584.51807 614.45795 1147.9783 1777437
590.97565 613.69476 1146.5525 1843230
595.9502 611.42841 1142.3184 1974816
600.53076 608.81647 1137.4385 1711389
601.00439 602.151 1124.9856 1382681
604.41956 598.55304 1118.2635 1185303
604.48773 591.76105 1105.5742 1382683
612.66119 592.96765 1107.8285 2698542
617.09558 590.56891 1103.3469 2106148
628.04102 594.38544 1110.4773 1514524
634.86298 594.25861 1110.2404 1843747
642.04712 594.46985 1110.635 1909536
651.18115 596.46259 1114.3579 1975329
656.86475 595.28607 1112.1599 2041123
661.5188 593.21106 1108.2832 2106915
669.12183 593.79608 1109.3762 2304295
677.85803 595.36438 1112.3063 2106916
689.08105 599.06274 1119.2158 1975330
700.41705 602.78381 1126.1678 2633260
704.13074 599.93628 1120.8478 3159604
713.40118 601.8327 1124.3909 3356983
723.4201 604.31726 1129.0327 3356983
726.96606 601.39886 1123.5803 3159604
737.62231 604.36206 1129.1165 3225397
744.15497 603.92255 1128.2953 3422776
743.57269 597.77148 1116.8033 3093811
754.40662 600.82721 1122.5123 3225397
764.42291 603.18127 1126.9104 3685948
762.15747 595.88995 1113.2881 3225397
769.13263 595.88995 1113.2881 3093811
774.59155 594.72583 1111.1133 3159604
781.02496 594.32404 1110.3625 3028018
788.93127 595.04016 1111.7006 3159604
794.31604 593.85858 1109.493 3093811
801.68634 594.16919 1110.0732 2765103
810.37714 595.44464 1112.4562 2830639
818.93738 596.60321 1114.6207 2962225
826.23474 596.8299 1115.0443 3028018
833.55975 597.07275 1115.4979 3027249
840.54871 597.07275 1115.4979 3027505
847.68933 597.17957 1115.6975 3027505
854.28064 596.90088 1115.1769 3093298
862.97931 598.08728 1117.3933 2764333
875.09351 601.60254 1123.9608 2764333
880.38434 600.40826 1121.7296 2764333
894.80109 605.40741 1131.0695 2369575
900.49951 604.47565 1129.3286 2172196
903.28735 601.61981 1123.9932 2237989
909.63763 601.1626 1123.1389 2764333
909.95679 596.75708 1114.9082 3027505
916.72894 596.61835 1114.649 2764589
923.66705 596.58905 1114.5942 2961712
930.06952 596.21667 1113.8986 3356470
933.71185 594.09369 1109.9323 3619642
941.18713 594.42291 1110.5472 3751228
945.29834 592.63818 1107.213 3750972
949.53241 590.95599 1104.0701 3158835
960.79095 593.63824 1109.0813 3290420
969.31073 594.60199 1110.8818 3487800
975.94568 594.40399 1110.512 3488056
979.83569 592.54877 1107.0459 3685435
990.42609 594.74323 1111.1458 3751228
998.63062 595.48438 1112.5304 3422263
1006.4472 595.98547 1113.4666 3422263
1015.7791 597.37079 1116.0548 3488056
1029.9188 601.54535 1123.854 3224884
1036.9601 601.54535 1123.854 3159091
1037.2826 597.67401 1116.6213 3027505
1046.8182 599.12756 1119.3369 2830126
1056.7098 600.7641 1122.3944 2566954
1063.7622 600.77551 1122.4158 2632747
1070.3298 600.51483 1121.9287 3093298
1073.2743 598.23804 1117.675 3224884
1081.2983 598.80365 1118.7318 3093298
1091.7256 600.68433 1122.2454 2303782
1098.3846 600.48083 1121.8652 2040610
1108.899 602.37433 1125.4027 2040610
1109.7072 599.00446 1119.1069 2172196
1114.3104 597.71277 1116.6936 2237989
1118.1973 596.05511 1113.5968 2237475
1124.484 595.68945 1112.9136 2237475
1128.3247 594.04047 1109.8328 2434854
1133.129 592.91595 1107.7318 2631978
nan nan nan 16777215
nan nan nan 16777215
nan nan nan 16777215
nan nan nan 16777215
nan nan nan 16777215
nan nan nan 16777215
nan nan nan 16777215
nan nan nan 16777215
nan nan nan 16777215
nan nan nan 16777215
nan nan nan 16777215
nan nan nan 16777215
nan nan nan 16777215
nan nan nan 16777215
nan nan nan 16777215
nan nan nan 16777215
nan nan nan 16777215
nan nan nan 16777215
-958.26215 601.30396 1110.4734 2962225
-957.53821 605.24414 1117.7499 3225397
-949.617 604.65948 1116.6703 3093811
-938.39886 601.95129 1111.6688 2830895
-922.49371 596.17358 1100.9987 2633517
-911.9491 593.79926 1096.6138 2764846
-899.43188 590.0946 1089.7722 2699053
-890.8233 588.91742 1087.5981 2896176
-882.46893 587.8913 1085.7031 2895919
-875.66669 587.8913 1085.7031 3027249
-867.30719 586.83759 1083.7572 2895919
-859.80566 586.35242 1082.8612 2698540
-856.30048 588.60657 1087.0242 2237989
-850.65356 589.41284 1088.5132 2171939
-842.89392 588.75641 1087.3008 2566441
-842.54938 593.31091 1095.712 2961455
-837.60571 594.67493 1098.2311 2830639
-829.07251 593.49207 1096.0465 2699309
-827.21173 597.10577 1102.7202 2239272
-825.60706 600.96674 1109.8506 2239529
-819.17883 601.35236 1110.5627 3226167
-811.44818 600.78033 1109.5063 3489595
-804.49683 600.78033 1109.5063 3555645
-798.47876 601.48346 1110.8048 4081989
-789.91455 600.26404 1108.5529 4081989
-775.17542 594.289 1097.5183 3555645
-767.86841 593.95581 1096.903 3095094
-756.18378 590.19995 1089.9667 4081989
-755.10919 594.73218 1098.3367 5134677
-740.28784 588.42108 1086.6815 4344904
-737.00647 591.25055 1091.907 3357753
-732.0918 592.81055 1094.7878 2962995
-726.85553 594.13702 1097.2377 3160374
-722.22424 595.98822 1100.6564 3226423
-719.03687 599.07812 1106.3627 3093811
-711.68982 598.7287 1105.7174 2699823
-704.76215 598.7287 1105.7174 3291960
-695.54059 596.76056 1102.0828 2897458
-690.21594 598.12994 1104.6117 2831409
-683.06927 597.93219 1104.2465 3423546
-674.07526 596.09674 1100.8568 3489339
-666.16956 595.19568 1099.1927 3686718
-659.27716 595.19061 1099.1833 3686718
-653.15479 595.88794 1100.4712 3620927
-646.22723 595.85773 1100.4154 4278856
-638.58002 595.15619 1099.1198 4870992
-630.4176 593.95386 1096.8994 4147269
-623.95526 594.34454 1097.6208 3357753
-617.4082 594.66217 1098.2075 3555132
-610.52759 594.66217 1098.2075 3620925
-603.56641 594.58282 1098.0609 3818304
-598.65961 596.54883 1101.6917 3884097
-593.33685 598.1413 1104.6326 3687231
-587.83252 599.58612 1107.3008 4081733
-581.4527 600.1618 1108.364 3949633
-576.07159 601.79474 1111.3798 3818047
-573.51868 606.45831 1119.9923 3949633
-563.79047 603.55597 1114.6323 4212549
-556.07184 602.75909 1113.1606 4212292
-545.44012 598.74432 1105.7462 4014657
-541.66119 602.24536 1112.2119 3685692
-534.69281 602.24536 1112.2119 3554105
-531.66357 606.74072 1120.5138 3159604
-524.38452 606.44159 1119.9613 3159604
-516.24884 605.13013 1117.5394 3685948
-508.01566 603.66687 1114.837 3422776
-501.49261 604.22321 1115.8645 3225397
-493.26947 602.71802 1113.0847 3554362
-487.80905 604.59369 1116.5487 3620155
-479.24124 602.6167 1112.8976 3949120
-470.60532 600.49426 1108.978 3554362
-463.50064 600.2915 1108.6035 3422776
-457.63065 601.70587 1111.2156 3422776
-450.38333 601.32513 1110.5125 3422776
-444.59027 602.90448 1113.4291 2896432
-440.47787 606.84961 1120.715 3159604
-434.34491 608.09381 1123.0127 3356983
-420.90784 598.98462 1106.1901 3883326
-414.9967 600.45972 1108.9142 3554619
-411.54276 605.60089 1118.4088 3028788
-407.15076 609.51587 1125.6389 3094838
-398.14868 606.54584 1120.1539 3555132
-389.59143 604.159 1115.746 3555389
-381.32892 602.15039 1112.0365 3818304
-376.27371 605.22583 1117.7162 4015683
-372.94159 611.24207 1128.8268 3620925
-364.13751 608.34912 1123.4841 3357753
-357.09851 608.34912 1123.4841 3818304
-347.64633 604.15527 1115.7391 3489339
-340.20767 603.36041 1114.2711 3423546
-331.75867 600.70282 1109.3632 3226167
-325.04288 601.1369 1110.1648 2831666
-316.81036 598.72351 1105.7079 3028788
-309.89636 598.74988 1105.7565 3884097
-303.11209 599.03369 1106.2806 3686718
-296.27829 599.23071 1106.6445 3884097
-289.33536 599.21112 1106.6083 4344648
nan nan nan 16777215
-270.88263 589.23486 1088.1844 5002578
-262.73822 586.27478 1082.7178 4936785
-259.17789 593.65771 1096.3524 3884354
-251.95332 592.82111 1094.8074 3884354
-244.15273 590.54431 1090.6027 3949890
-237.14568 590.11115 1089.8027 3884353
-230.47369 590.51068 1090.5406 3818304
-223.88226 591.14746 1091.7166 3620925
-215.93387 588.12848 1086.1411 3555132
-208.0489 585.09131 1080.5322 2831409
-201.7865 586.56647 1083.2565 3160374
-195.77293 588.89282 1087.5527 3489339
-189.6698 591.10773 1091.6432 3686718
-182.83606 591.12634 1091.6775 3357753
-175.7482 590.29279 1090.1382 3291960
-167.8363 586.51227 1083.1564 3291960
-160.59093 584.84039 1080.0688 4344648
-154.88364 588.86932 1087.5093 4410441
-148.36249 590.03241 1089.6572 3423546
-141.24483 588.8208 1087.4198 3094325
-134.05606 587.17505 1084.3804 3160374
-127.59586 588.71509 1087.2245 3488313
-121.71812 593.2677 1095.6322 3685692
-114.53508 591.62219 1092.5933 3291190
-107.68964 591.62219 1092.5933 3159604
-101.17742 593.57709 1096.2035 2830639
-94.662582 595.80023 1100.3091 3159604
-87.522278 594.12665 1097.2185 2896432
-80.503647 593.06427 1095.2565 2764846
-73.354401 590.75189 1090.9861 3028018
-66.410835 589.79102 1089.2115 3291190
-59.84803 592.37872 1093.9905 2962225
-52.718998 589.30652 1088.3168 2633260
-45.663986 586.27179 1082.7123 2633260
-38.928452 586.99554 1084.0488 2764846
-32.1427 587.10791 1084.2563 3093811
-25.19696 583.57501 1077.7319 3422776
-18.424713 582.94464 1076.5679 3291190
-11.706326 584.27448 1079.0237 3422776
-4.9242406 581.71484 1074.2966 3356983
1.8054299 581.35052 1073.6239 3291190
8.5293474 581.16876 1073.2881 3225397
15.441637 588.3241 1086.5024 3488825
22.225101 587.69452 1085.3397 3751998
29.042078 588.03845 1085.9749 2896432
35.947659 589.70538 1089.0533 2435881
42.411037 584.74353 1079.8899 3093811
48.861904 580.99817 1072.9731 2962225
55.685654 582.05646 1074.9275 3225397
62.697773 584.64276 1079.7039 3093811
69.323135 583.47028 1077.5385 3028018
75.86261 581.84698 1074.5406 2633517
83.760155 590.05542 1089.6998 2699053
91.234505 594.27008 1097.4833 2633516
97.634285 591.38513 1092.1554 2764846
104.6618 592.43121 1094.0874 3291190
110.97201 589.53815 1088.7445 3356983
117.2524 586.83087 1083.7448 3356983
124.34324 588.25409 1086.3732 3620155
131.61459 590.33929 1090.2241 2633260
138.92186 592.37189 1093.9778 3159861
146.24745 594.28778 1097.516 3356983
151.67024 588.64667 1087.0981 2962225
157.32884 584.36627 1079.1932 3291190
164.09032 584.36627 1079.1932 3620155
171.72496 587.35272 1084.7086 3159604
178.53372 587.39465 1084.7859 3159604
188.01273 595.89661 1100.4872 2699053
195.13936 596.6051 1101.7957 2633260
202.12305 596.84314 1102.2351 2567467
209.44606 598.0343 1104.4349 2238502
215.72978 596.27661 1101.189 2567467
222.56129 596.09503 1100.8536 2699053
229.45831 596.09467 1100.8529 2699053
236.63748 596.80585 1102.1663 2633260
243.53806 596.79401 1102.1444 2830639
251.17154 598.52924 1105.349 3093811
258.0994 598.53503 1105.3597 2699053
263.5144 595.12384 1099.0601 2435881
269.03323 592.11493 1093.5033 2106916
278.90161 598.59076 1105.4626 3620155
285.48355 597.87006 1104.1317 3291190
291.71194 596.46057 1101.5287 2699053
298.61337 596.46057 1101.5287 2962482
306.29938 597.99237 1104.3575 2567467
313.21851 597.99237 1104.3575 2633260
318.849 595.58527 1099.9121 3028018
325.37436 594.91614 1098.6765 2962225
331.84241 594.17212 1097.3025 3028018
342.05417 600.02557 1108.1124 2501930
348.99683 600.02557 1108.1124 2304808
353.9624 596.69269 1101.9574 2633773
359.40933 594.2832 1097.5076 2568493
368.24408 597.46088 1103.376 3752511
374.6951 596.7251 1102.0172 3226681
385.17853 602.32172 1112.3529 2502701
394.32028 605.65863 1118.5154 2700079
399.48074 602.87067 1113.3667 2568494
407.5347 604.47015 1116.3206 3093811
415.72241 606.21069 1119.5349 2962225
422.91269 606.46307 1120.0011 2633260
431.24545 608.31897 1123.4285 2501674
439.37827 609.83759 1126.233 2238502
450.09164 614.83344 1135.4592 2238505
456.30768 613.62579 1133.229 2435882
464.63016 615.24457 1136.2185 2566955
467.90143 610.22675 1126.9517 2501162
473.1716 607.92627 1122.7032 2632749
483.73383 612.39282 1130.9519 2501163
491.08792 612.7276 1131.5702 2303784
501.29059 616.55646 1138.6412 3356472
509.3031 617.62183 1140.6088 3619644
515.52802 616.52002 1138.574 3356473
524.68866 618.91125 1142.99 2764335
533.27405 620.56854 1146.0507 2303784
540.79102 620.95502 1146.7644 2303784
548.40259 621.4386 1147.6575 2501420
557.13141 623.1593 1150.8352 2501418
564.82428 623.69208 1151.8192 2567469
578.73584 630.9917 1165.2999 2633518
579.62579 624.08887 1152.5519 2699055
583.79218 620.84027 1146.5525 3488827
585.81543 615.41931 1136.5411 3619387
594.30713 616.84216 1139.1689 2699055
597.19269 612.48163 1131.116 1909796
599.09344 607.22522 1121.4086 1646624
601.75208 602.84991 1113.3284 1448989
604.30835 598.47351 1105.2461 1646367
608.36957 595.66974 1100.0682 1909539
616.2403 596.61713 1101.8177 2172454
623.87823 597.3205 1103.1168 1778209
629.5307 596.12842 1100.9153 1777953
635.28308 595.05573 1098.9342 2041125
643.0838 595.90417 1100.5011 2304297
649.0069 595.01306 1098.8555 2106919
655.05066 594.25024 1097.4467 1909540
661.93524 594.25806 1097.4612 2041125
673.90283 598.78217 1105.8162 2304298
681.32623 599.21759 1106.6204 2567470
691.5481 602.08069 1111.9078 2896434
702.19415 605.25232 1117.7651 2830639
708.75946 604.87872 1117.0751 2567467
715.7583 604.87872 1117.0751 2764846
725.92371 607.52881 1121.9692 3028018
732.09155 606.81464 1120.6503 2896688
730.68127 599.89227 1107.8663 2370088
737.84564 600.07391 1108.2017 2501674
745.72028 600.82428 1109.5875 2962225
752.04926 600.32703 1108.6692 3093811
755.80548 597.80402 1104.0096 3225397
762.78241 597.85095 1104.0964 3225397
769.16748 597.43744 1103.3328 3291190
774.38751 596.13434 1100.9263 3225397
780.64758 595.64789 1100.0278 3028018
790.89191 598.18335 1104.7103 2370088
796.28821 597.03992 1102.5986 2699053
804.05914 597.68127 1103.7831 2830639
813.94995 599.87396 1107.8325 3028018
821.26654 600.14862 1108.3396 3028018
828.29419 600.20905 1108.4513 3027505
833.97888 599.30353 1106.7791 2961968
840.47003 598.98773 1106.1958 2896176
846.90204 598.63525 1105.5448 3027249
854.76031 599.28851 1106.7512 2830126
863.16089 600.30841 1108.6348 2764333
871.00214 600.92609 1109.7754 2764333
882.47125 604.01709 1115.4839 2698540
889.88354 604.30463 1116.0149 2566697
896.87573 604.30463 1116.0149 2435368
900.31927 601.93213 1111.6334 2435112
903.26917 599.26855 1106.7144 2764333
909.45312 598.77478 1105.8025 2895662
915.70172 598.33063 1104.9823 2961712
920.99921 597.27649 1103.0355 3093298
924.77838 595.26068 1099.3127 3093298
931.48029 595.14209 1099.0938 3290677
932.96722 591.71777 1092.7698 3027505
940.58026 592.20038 1093.661 2764333
947.11438 592.00159 1093.2939 2895919
958.3562 594.72711 1098.3274 2961969
964.93677 594.54181 1097.9851 2764333
970.82428 593.93506 1096.8646 2830126
975.27472 592.46393 1094.1477 2830126
986.9837 595.39191 1099.5551 3159091
994.6463 595.85535 1100.4109 3290677
1001.4607 595.80768 1100.323 3290677
1012.9584 598.52795 1105.3467 3224884
1021.0369 599.20477 1106.5966 3027505
1027.2865 598.80627 1105.8606 3027505
1035.2012 599.3772 1106.915 2961712
1042.8765 599.80292 1107.7012 2632747
1051.6414 600.84546 1109.6266 2632747
1064.0236 603.92749 1115.3184 2698540
1071.0547 603.9519 1115.3635 3224884
1070.3744 599.65588 1107.4297 3093555
1086.5624 604.80438 1116.9379 2895919
1091.2142 603.5069 1114.5416 2698540
1096.6516 602.65753 1112.973 2632747
1097.799 599.4762 1107.0979 2435368
1105.5394 599.9126 1107.9038 2435368
1113.7012 600.57068 1109.1191 2895919
1121.9244 601.25354 1110.3802 3027762
1121.3584 597.24683 1102.9807 2961712
1125.6381 595.85419 1100.4088 2895407
nan nan nan 16777215
nan nan nan 16777215
nan nan nan 16777215
nan nan nan 16777215
nan nan nan 16777215
nan nan nan 16777215
nan nan nan 16777215
nan nan nan 16777215
nan nan nan 16777215
nan nan nan 16777215
nan nan nan 16777215
nan nan nan 16777215
nan nan nan 16777215
nan nan nan 16777215
nan nan nan 16777215
nan nan nan 16777215
nan nan nan 16777215
nan nan nan 16777215
nan nan nan 16777215
-949.32672 606.96008 1108.1646 3291190
-939.32593 604.99066 1104.5688 3291190
-922.93219 598.84387 1093.3463 3159861
-912.24768 596.33734 1088.77 3028018
-903.34271 594.96509 1086.2646 3093811
-893.68451 593.07214 1082.8086 2896432
-886.00128 592.47095 1081.7109 3028275
-876.03613 590.32275 1077.7888 2896176
-869.28351 590.32275 1077.7888 2435881
-858.82434 587.78601 1073.1573 2764589
-852.68384 588.18835 1073.8918 2830126
-851.1283 591.78485 1080.4583 2304551
-845.74048 592.75323 1082.2263 2369831
-839.91486 593.42792 1083.458 2699053
-838.875 597.52234 1090.9335 2699053
-835.78192 600.20953 1095.8397 2961968
-829.51001 600.63965 1096.625 3357753
-824.4516 601.96277 1099.0408 3357753
-820.09656 603.82623 1102.4429 3489339
-810.05841 601.50134 1098.1982 3620669
-805.93652 603.56732 1101.9702 3226936
-799.90717 604.22809 1103.1766 3226680
-787.73151 600.21722 1095.8538 3818817
-781.81738 600.94879 1097.1895 3819074
-767.20673 594.9494 1086.236 3753024
-757.88849 592.98346 1082.6466 3160887
-751.42126 593.23285 1083.1019 3029301
-745.90051 594.24078 1084.9423 3884867
-738.58093 593.82104 1084.1759 3819074
-731.78821 593.82104 1084.1759 3489852
-725.9505 594.60327 1085.604 3423803
-720.01007 595.31531 1086.9041 3818304
-711.9024 594.23199 1084.9261 3489339
-710.94397 599.15283 1093.9104 3226167
-707.59039 602.13123 1099.3483 3555132
-700.92151 602.3194 1099.6918 3620925
-690.27515 599.05927 1093.7396 2831409
-683.35242 598.99786 1093.6274 2897202
-675.62585 598.22339 1092.2135 3686718
-668.78284 598.22339 1092.2135 3555132
-661.68475 597.99292 1091.7927 3423546
-654.8338 597.98334 1091.7751 3357753
-644.81775 595.05261 1086.4244 3357755
-638.2771 595.3009 1086.8777 4147269
-632.65076 596.41638 1088.9143 4870992
-622.95947 593.68231 1083.9226 4015683
-617.02997 594.51251 1085.4382 3555132
-610.90381 595.16956 1086.6379 3620925
-603.97827 595.05383 1086.4266 3094581
-598.65973 596.53687 1089.1343 3884354
-596.5788 601.31744 1097.8624 3949890
-590.36584 601.99597 1099.1013 3948863
-582.97083 601.47101 1098.1429 3949120
-573.98285 599.27045 1094.1251 3422776
-564.74548 596.75299 1089.5289 3488569
-561.77991 600.88245 1097.0682 3949120
-559.21429 605.54724 1105.5851 4014913
-550.44177 603.5235 1101.8903 3817791
-537.99847 597.37256 1090.66 3883327
-538.79053 605.94843 1106.3175 3488569
-532.17175 606.30463 1106.9679 3225397
-525.61102 606.73718 1107.7577 3028275
-518.67059 606.73718 1107.7577 3028018
-511.8768 606.91113 1108.0752 3028018
-504.99506 606.98407 1108.2084 2962225
-494.56754 602.73773 1100.4556 3028018
-489.4653 604.95312 1104.5004 3685948
-483.54474 606.20618 1106.7881 3620155
-474.67435 603.74365 1102.2922 2501674
-468.27197 604.39398 1103.4795 3488569
-461.65567 604.78345 1104.1907 3883327
-452.42816 601.7121 1098.583 3488569
-443.78082 599.32928 1094.2325 2896432
-435.23999 597.01776 1090.0123 2962225
-431.2251 600.93976 1097.173 3291190
-421.81882 597.35388 1090.626 3488569
-417.88773 601.53119 1098.2528 3883584
-412.67783 603.97687 1102.7179 3620412
-405.81342 604.04303 1102.8387 3226167
-396.63358 600.60535 1096.5624 3094581
-390.39417 601.57751 1098.3373 2897202
-384.2243 602.69366 1100.3751 3160374
-378.95923 605.29578 1105.126 4081476
-372.20865 605.57788 1105.641 3884097
-365.90259 606.60754 1107.521 3884097
-358.96362 606.60754 1107.521 3884097
-351.33728 605.4231 1105.3584 2962995
-343.22614 603.33881 1101.553 3094581
-336.64435 603.91241 1102.6003 3489339
-327.03305 598.96161 1093.5613 3160374
-323.96738 606.0437 1106.4915 3357753
-315.06503 602.2782 1099.6166 3620925
-308.1756 602.2782 1099.6166 3884097
-299.90112 599.50946 1094.5615 3818304
-291.30426 595.9516 1088.0657 4081476
-283.15198 593.15454 1082.959 4344648
-279.6221 600.14111 1095.7147 4344648
-269.46326 592.89368 1082.4827 5134164
-261.6738 590.61987 1078.3313 4410441
-255.06819 590.96857 1078.9679 3884097
-248.13919 590.56653 1078.2339 3818304
-241.30354 590.37036 1077.8757 3752511
-234.4528 590.12494 1077.4276 3818304
-227.4175 589.3866 1076.0796 3752511
-220.82748 589.79242 1076.8206 3555132
-214.07906 589.78748 1076.8115 3620925
-207.39043 589.95227 1077.1123 3423546
-200.52121 589.59711 1076.464 3423546
-193.75375 589.52698 1076.3358 3489339
-187.29541 590.42609 1077.9774 3291960
-180.54155 590.42609 1077.9774 3423546
-172.85915 587.27148 1072.2179 3226167
-166.14137 587.27148 1072.2179 2568238
-160.08626 589.71252 1076.6747 3489339
-154.1109 592.67511 1082.0836 3884354
-147.02573 591.4458 1079.8392 3358010
-140.20892 591.22961 1079.4445 2765873
-132.56693 587.33545 1072.3347 2961968
-126.3424 589.64087 1076.5438 3883327
-119.59751 589.64087 1076.5438 3685948
-112.98738 590.34485 1077.8292 2304295
-106.82533 593.62842 1083.8241 2896432
-100.03483 593.62842 1083.8241 3225397
-92.579163 589.39368 1076.0925 3554362
-85.696571 588.42865 1074.3307 3488569
-79.263359 590.64777 1078.3822 2699310
-72.36216 589.4682 1076.2286 3093811
-65.619255 589.4682 1076.2286 3422776
-58.887417 589.5791 1076.431 3159604
-52.211491 590.35077 1077.84 2699053
-45.226505 587.33807 1072.3395 2699053
-38.47839 586.88696 1071.5159 2633260
-31.376236 579.70398 1058.4015 2764846
-24.680534 578.19324 1055.6432 3159604
-18.230219 583.4295 1065.2034 3028018
-11.534232 582.31091 1063.1611 3291190
-4.8749042 582.51477 1063.5332 3488312
1.7930433 584.00708 1066.2579 3159091
8.4901056 585.15295 1068.35 2764590
15.267322 588.37756 1074.2373 3488569
21.993252 588.2572 1074.0176 3685948
28.721071 588.23193 1073.9714 2896432
35.33527 586.33087 1070.5006 3356983
41.656086 580.94489 1060.667 3751741
48.543209 583.85205 1065.9749 2830639
55.059055 582.13062 1062.8319 3028018
62.009853 584.88318 1067.8574 2962225
68.70031 584.88318 1067.8574 3159604
75.779541 587.89923 1073.364 3620155
