# .PCD v0.7 - Point Cloud Data file format
VERSION 0.7
FIELDS x y z rgb
SIZE 4 4 4 4
TYPE F F F U
COUNT 1 1 1 1
WIDTH 1275
HEIGHT 1
VIEWPOINT 0 0 0 1 0 0 0
POINTS 1275
DATA ascii
1287.1177 636.70282 2226.5 3357753
1306.0938 639.1626 2235.1016 3752511
1317.851 638.07483 2231.2979 3752511
1328.9213 636.68097 2226.4236 3028788
1348.5035 639.35168 2235.7629 3028788
1365.9441 640.96259 2241.396 3160374
1382.0697 641.92987 2244.7786 3160374
1394.3837 641.12512 2241.9644 3226167
1399.5125 637.06567 2227.7688 3094581
1420.4198 640.198 2238.7222 3160374
1447.0336 645.8158 2258.3672 3291960
1440.4697 636.66095 2226.3535 3160374
1458.2471 638.33679 2232.2139 3094581
1475.8442 639.90277 2237.6899 3028789
1489.2103 639.62201 2236.7083 3357755
1503.0424 639.54474 2236.4377 3357755
1528.3453 644.30469 2253.083 3028790
1550.4202 647.62909 2264.7083 2765618
1558.046 644.91235 2255.208 2831411
1572.1306 644.89392 2255.1436 2765875
1595.3228 648.57849 2268.0281 2699825
1630.2434 656.92413 2297.2122 2765875
1653.2483 660.36407 2309.2415 3226169
1647.9962 652.55554 2281.9355 3291962
1655.8036 650.00793 2273.0269 3160374
1674.7067 651.82239 2279.3718 2962995
1687.2021 651.13324 2276.9622 3094581
1701.7223 651.23059 2277.3025 3160374
1717.7985 651.91681 2279.7021 3028531
1728.725 650.65356 2275.2844 2634030
1755.6061 655.36664 2291.7659 2831153
1765.1965 653.60114 2285.592 2896945
1779.4352 653.57129 2285.4878 3028275
1790.318 652.31915 2281.1091 3093811
1815.3987 656.21912 2294.7468 2896689
1829.7252 656.20087 2294.6831 2698797
1838.5204 654.21466 2287.7375 2830126
1848.335 652.6192 2282.1582 2830126
1861.3549 652.17114 2280.5916 2764589
1875.6433 652.17114 2280.5916 2896175
1890.1256 652.23798 2280.8252 2830383
1898.0618 650.06183 2273.2153 2699309
1915.4677 651.13721 2276.9758 2764846
1924.4656 649.35968 2270.76 3093811
1944.7415 651.38574 2277.845 3159604
1982.4641 659.18341 2305.1128 2830639
1996.9062 659.18341 2305.1128 3028018
2003.4717 656.60187 2296.0854 3159604
2016.9479 656.30597 2295.0505 3291190
2031.3271 656.30597 2295.0505 3422776
2069.7102 664.0069 2321.9802 3356983
2065.6797 658.08813 2301.2827 3028018
2075.3174 656.57568 2295.9939 3093811
2085.1594 655.14832 2291.0024 3159605
2104.885 656.82452 2296.864 3422778
2131.1372 660.50085 2309.7197 3159606
2150.7568 662.08569 2315.262 3028020
2177.5032 665.82861 2328.3506 3028020
2198.6838 667.83105 2335.353 3356985
2221.5154 670.3053 2344.0051 3356985
2249.8784 674.40503 2358.3416 2962484
2264.6543 674.40503 2358.3416 2699055
2260.7908 668.89032 2339.0571 2830641
2274.9067 668.73187 2338.5029 2896434
2290.5947 669.03461 2339.5618 2962227
2308.1899 669.88708 2342.5427 3028020
2316.1438 667.94824 2335.7627 3093813
2321.1658 665.19354 2326.1299 3028020
2335.0195 664.98853 2325.4128 3159606
2340.613 662.44806 2316.5291 3159606
2355.1267 662.44806 2316.5291 2830641
2364.2244 660.93396 2311.2344 2764848
nan nan nan 16777215
nan nan nan 16777215
nan nan nan 16777215
nan nan nan 16777215
nan nan nan 16777215
nan nan nan 16777215
nan nan nan 16777215
nan nan nan 16777215
nan nan nan 16777215
nan nan nan 16777215
-1954.0465 625.33936 2140.1223 3489341
-1935.3586 623.63818 2134.3003 3489341
-1927.7568 625.5105 2140.708 3489341
-1908.6578 623.65228 2134.3486 3555134
-1891.77 622.49554 2130.3899 3423548
-1896.9634 628.63983 2151.4177 3226169
-1918.4814 640.32074 2191.3936 2897204
-1912.5292 642.9353 2200.3416 3489341
-1893.5599 641.18018 2194.335 3555134
-1880.266 641.33502 2194.865 3291962
-1866.5144 641.33502 2194.865 3029047
-1850.0051 640.38043 2191.5979 3160376
-1849.1051 644.85516 2206.9119 3226169
-1842.7422 647.47778 2215.8875 3226169
-1813.635 642.08795 2197.4417 3226169
-1805.8049 644.20612 2204.6907 3291962
-1806.2104 649.31757 2222.1838 3226426
-1779.4983 644.68414 2206.3267 3094583
-1762.5253 643.53418 2202.3911 2963254
-1755.9802 646.20349 2211.5264 2897461
-1729.124 641.38129 2195.0232 3029047
-1713.8232 640.80243 2193.0422 3094840
-1693.6991 638.39612 2184.8069 3094840
-1680.2915 638.50293 2185.1724 3094840
-1666.6008 638.50293 2185.1724 3094840
-1651.999 638.151 2183.968 3160634
-1631.7528 635.5946 2175.2192 3160888
-1609.8116 632.32941 2164.0444 3292216
-1597.1731 632.69379 2165.2915 3292473
-1598.0955 638.48236 2185.1021 3423802
-1585.405 638.88525 2186.481 3160631
-1571.3438 638.73804 2185.9771 3094581
-1527.9478 626.55896 2144.2961 3028788
-1533.63 634.46771 2171.3625 2962995
-1496.6146 624.69574 2137.9197 3028788
-1482.3669 624.33649 2136.6902 2962995
-1473.1221 626.09705 2142.7153 3094581
-1459.5143 626.01849 2142.4465 2897202
-1437.5785 622.33331 2129.8347 2831409
-1424.0823 622.26685 2129.6072 2897459
-1414.295 623.83514 2134.9744 3028532
-1396.4774 621.85742 2128.2058 2962738
-1379.2292 620.09747 2122.1829 2962738
-1364.0375 619.23694 2119.2378 2962482
-1349.7759 618.78589 2117.6941 2896688
-1336.1338 618.61267 2117.1013 2896689
-1322.8694 618.61267 2117.1013 2896432
-1310.5577 619.06262 2118.6411 2830639
-1301.3569 621.00635 2125.2932 2896432
-1287.5438 620.76648 2124.4724 2896432
-1272.2405 619.79565 2121.1499 2961968
-1258.3824 619.51581 2120.1921 3093554
-1253.469 623.68048 2134.4451 3290933
-1249.3052 628.31207 2150.2959 3093555
-1237.0424 628.92694 2152.4001 2896431
-1218.3181 626.23413 2143.1846 3160118
-1205.5093 626.55585 2144.2854 3159861
-1194.7227 627.94757 2149.0486 3226167
-1184.7136 629.78448 2155.335 3291960
-1177.2577 633.03656 2166.4648 3357753
-1163.6842 633.03656 2166.4648 3291960
-1147.5588 631.63202 2161.658 3423546
-1130.5199 629.68512 2154.9949 3357753
-1126.1237 634.81812 2172.5618 3291960
-1111.6099 634.30334 2170.8 3686718
-1094.3224 632.17358 2163.5112 3620925
-1081.7144 632.72748 2165.407 3555132
-1069.5015 633.5296 2168.1521 3686974
-1058.3633 634.99719 2173.1746 3818304
-1055.6627 641.63129 2195.8789 3686718
-1054.465 649.36609 2222.3499 3291960
-1037.6278 647.54797 2216.1277 3686718
-1025.0516 648.37561 2218.9602 4147269
-1009.8713 647.55627 2216.156 3818304
-996.5907 647.9491 2217.5005 3357753
-983.05341 648.1839 2218.304 3489339
-974.06952 651.4707 2229.5527 3225911
-961.83533 652.64783 2233.5811 3094325
-947.84125 652.64783 2233.5811 3160117
-929.58868 649.67163 2223.3955 3225910
-917.63678 651.07532 2228.1995 3291960
-900.46008 648.758 2220.2688 3357753
-896.0025 655.6756 2243.9431 3423546
-884.01862 657.21832 2249.2229 3489339
-871.96198 658.7561 2254.4856 3752511
-856.42773 657.67389 2250.782 3752511
-838.05432 654.33875 2239.3679 3555132
-829.13306 658.39575 2253.2524 3423546
-822.00067 664.03839 2272.5635 3686717
-805.11615 661.86304 2265.1187 3424059
-783.95111 656.02759 2245.1477 3292472
-761.3241 648.73309 2220.1836 3160887
-747.414 648.73309 2220.1836 3226679
-735.3114 650.33173 2225.6548 2963509
-722.72412 651.5553 2229.842 3160632
-704.78436 647.90649 2217.3547 3292474
-683.73926 641.19879 2194.3987 3752513
-675.37555 646.35229 2212.0356 3621184
-661.52039 646.35608 2212.0486 3621440
-646.62067 645.31769 2208.4949 3555904
-633.81458 646.36896 2212.0925 3621697
-623.42413 649.98572 2224.4705 3687490
-609.48718 649.98572 2224.4705 3358525
-592.59546 646.76093 2213.4341 3358525
-575.18024 642.79651 2199.8667 3424318
-561.3974 642.79651 2199.8667 3490111
-547.05353 642.138 2197.613 3555647
-532.16028 640.784 2192.979 3621184
-518.5885 640.99152 2193.6895 3686977
-513.42639 651.888 2230.9807 3292219
-495.34814 646.53595 2212.6643 3094840
-480.93289 645.79443 2210.1265 3423549
-468.37192 647.57269 2216.2124 3358266
-454.54849 647.66083 2216.5139 3357754
-441.49908 648.89203 2220.7275 3423546
-428.38513 650.10553 2224.8806 3029045
-416.06857 652.65137 2233.5933 2963251
-405.9668 658.96954 2255.2161 3226680
-388.32303 653.05963 2234.9905 3423802
-373.58936 651.78473 2230.6272 3291960
-361.12885 654.5307 2240.0249 3357753
-347.09439 654.5307 2240.0249 3686718
-332.20987 652.86011 2234.3076 4147269
-315.38242 647.0564 2214.4453 3949634
-302.03555 648.18805 2218.3181 3621181
-287.13058 645.92377 2210.5691 3687230
-273.08148 645.453 2208.958 3818817
-259.2417 645.453 2208.958 3884355
-245.72023 646.29028 2211.8235 4147783
-233.49117 650.83014 2227.3604 4213320
-218.21072 646.901 2213.9136 4279113
-203.34991 643.76703 2203.188 4147783
-189.91476 645.01862 2207.4714 4147526
-176.25455 645.64233 2209.606 4213322
-161.20421 640.84619 2193.1919 3555900
-147.69583 641.85724 2196.6521 3687231
-134.99028 646.92346 2213.9905 3555645
-121.16336 647.16077 2214.8025 3884866
-107.28694 647.16077 2214.8025 3950403
-92.730576 642.45007 2198.6809 4147782
-78.796715 641.16083 2194.2688 3621438
-65.307747 643.71179 2202.999 3555645
-51.614071 645.07153 2207.6523 3753024
-37.567039 641.39392 2195.0664 3950403
-23.637932 636.64459 2178.8125 3424059
-10.15381 647.2785 2215.2053 3621439
3.7251387 647.2785 2215.2053 3160374
17.544201 645.07648 2207.6694 3291960
31.347149 644.48468 2205.644 3357753
44.921669 640.99548 2193.7029 3094581
58.636524 640.67456 2192.6045 3028788
71.40097 632.06213 2163.1299 2699823
85.753914 638.01624 2183.5068 3226424
99.253708 636.85773 2179.542 3094581
112.2974 633.40674 2167.7317 3028788
125.68879 632.45013 2164.4578 3357753
137.42574 624.16559 2136.1052 2897202
153.42368 634.98676 2173.1389 2765873
167.6488 637.30463 2181.0715 2766386
181.65935 638.51886 2185.2271 2766386
195.53677 639.12781 2187.311 2897459
209.8597 641.01776 2193.7791 2897459
223.60442 641.01776 2193.7791 2963508
237.26266 640.7843 2192.98 2832179
250.15002 638.60834 2185.5332 2568750
264.49283 640.18103 2190.9155 2437164
278.48825 640.79926 2193.0312 2699567
291.18552 638.51263 2185.2058 2831409
306.31082 641.51654 2195.4861 2568493
320.73663 642.86029 2200.0847 2634030
335.08441 643.9433 2203.7913 2831409
351.47891 648.7182 2220.1326 2897202
364.77448 647.62769 2216.4004 2831409
378.35898 647.11121 2214.6331 3160374
391.27933 645.53564 2209.241 3094838
402.1116 640.74054 2192.8303 3226167
416.71616 642.07452 2197.3958 3357753
431.66132 643.83124 2203.4077 3423546
442.60202 639.69147 2189.24 3160374
456.40811 639.81738 2189.6709 2897202
471.55695 641.76331 2196.3306 2699823
486.93198 643.89807 2203.6365 3029045
496.26224 638.14215 2183.9377 3555132
512.89703 641.83588 2196.5791 2897202
528.83704 644.48999 2205.6621 3094581
544.61029 646.81067 2213.6045 3028788
565.85803 655.35663 2242.8516 3094581
580.31256 655.81134 2244.4077 2568237
586.79022 647.44318 2215.769 2568237
600.67273 647.44318 2215.769 2370858
614.88214 647.7876 2216.9478 2305065
629.66687 648.70953 2220.103 2370858
641.88098 647.00049 2214.2539 2502444
654.30212 645.56799 2209.3516 2568237
667.61975 645.0611 2207.6167 2502444
681.62225 645.22302 2208.1709 2765616
695.45703 645.22302 2208.1709 2765616
708.3866 644.39941 2205.3523 2765616
723.55774 645.60754 2209.4868 2765616
737.23663 645.46368 2208.9946 2765616
750.70978 645.14838 2207.9155 2765616
764.06409 644.74426 2206.5325 2699823
777.30457 644.26013 2204.8755 2765616
793.3764 646.09863 2211.1675 2568493
807.51971 646.33044 2211.9609 3029045
820.9895 646.02448 2210.9138 3423546
828.44226 641.07251 2193.9666 3291960
846.74689 644.5426 2205.8423 3423546
855.27295 640.57745 2192.2722 3423546
867.81818 639.7002 2189.27 3094584
883.4809 641.11249 2194.1033 2963254
897.29578 641.16125 2194.27 2897718
925.42212 651.28033 2228.9011 2963254
939.38684 651.28033 2228.9011 3358012
947.9046 647.55927 2216.1663 3423805
957.89905 644.93982 2207.2017 3291962
965.10486 640.54407 2192.158 3620927
976.03174 638.70679 2185.8701 3555134
989.6684 638.66907 2185.741 2371117
1003.3628 638.66907 2185.741 1186586
1016.7986 638.50677 2185.1855 2041895
1043.2428 646.40887 2212.2292 3028790
1052.3961 643.53052 2202.3787 3094583
1062.792 641.47681 2195.3501 3094583
1082.1606 644.82202 2206.7986 2963254
1091.1913 642.00049 2197.1423 3160633
1103.7273 641.28595 2194.697 3358266
1116.906 640.95789 2193.5742 3029301
1129.5665 640.34399 2191.4731 3094837
1143.1061 640.23724 2191.1079 3029044
1150.8091 636.90283 2179.6963 2962995
1164.8676 637.12262 2180.4487 3292217
1178.5288 637.12262 2180.4487 3094838
1197.5194 639.97076 2190.1958 2370859
1202.8679 635.54645 2175.0544 2765616
1233.8196 644.59735 2206.0295 3555132
1237.0839 639.14294 2187.3628 3555132
1243.9203 635.63342 2175.3521 3357753
1259.2844 636.51025 2178.353 3291959
1266.976 633.5318 2168.1597 3226167
1280.5602 633.5318 2168.1597 2897202
1302.6753 637.70807 2182.4521 2502444
1315.3317 637.21521 2180.7654 2436907
1315.8641 630.91937 2159.219 3029045
1344.0156 637.8595 2182.9705 3226167
1360.3898 639.12665 2187.3071 3094838
1372.5374 638.40265 2184.8293 3094581
1385.6272 638.12689 2183.8855 2962995
1392.1667 634.86938 2172.7373 2897202
1411.5284 637.46564 2181.6226 2962995
1426.6586 638.11938 2183.8599 2962995
1444.399 639.91718 2190.0125 2962995
1458.1201 639.91718 2190.0125 3226169
1474.4309 641.04303 2193.8657 3291962
1501.4763 646.77228 2213.4729 3094583
1515.3445 646.77228 2213.4729 2831411
1519.8638 642.81824 2199.9409 2765618
1532.8315 642.47638 2198.771 2831411
1548.6047 643.30609 2201.6104 3028790
1576.4247 649.08124 2221.375 3160376
1595.0388 650.99805 2227.9351 3291962
1590.704 643.59656 2202.6045 3160376
1607.4775 644.78925 2206.6865 3160374
1621.3032 644.78925 2206.6865 2897202
1635.6791 645.00629 2207.4292 2897202
1651.9288 645.95245 2210.6672 3226167
1666.0145 646.04358 2210.9792 3357753
1688.4895 649.35968 2222.3279 3423546
1700.7949 648.74243 2220.2156 3291960
1713.3794 648.24084 2218.4988 3423546
1732.5648 650.22455 2225.2878 3620925
1750.9218 651.86823 2230.9131 3619898
1773.2155 654.93988 2241.4253 3225654
1773.5278 649.90814 2224.2051 3093811
1785.1852 649.07996 2221.3706 3028275
1801.912 650.09344 2224.8391 2962225
1810.5435 648.19324 2218.3359 2896688
1827.2041 649.1745 2221.6943 2896432
1849.4099 652.09625 2231.6934 2764846
1868.376 653.84033 2237.6621 2699053
1881.1952 653.42334 2236.2351 2633260
1897.2281 654.12054 2238.6213 3093811
1931.6804 661.11151 2262.5466 3422776
1943.7543 660.39746 2260.103 3554362
1924.7638 649.21588 2221.8357 2896432
1951.5719 653.53156 2236.6055 2764846
1964.9448 653.31879 2235.8772 2962225
1984.9626 655.30261 2242.6667 3028018
1999.0138 655.30261 2242.6667 2962225
2014.3882 655.73352 2244.1414 2765103
2021.5759 653.51178 2236.5378 2765103
2038.921 654.58173 2240.1995 2896432
2049.9031 653.60803 2236.8672 3159606
2070.9729 655.84241 2244.5139 3159606
2089.6226 657.28522 2249.4517 3159606
2109.4846 659.08752 2255.6199 3159606
2125.106 659.54968 2257.2014 3356985
2158.6636 665.53571 2277.6877 3422778
2182.6289 668.505 2287.8499 3225399
2195.2585 667.98645 2286.075 3159606
2209.2134 667.87512 2285.6941 3093813
2230.3376 669.91876 2292.688 3159606
2237.5088 667.77197 2285.3411 2896691
2251.8271 667.77197 2285.3411 2896434
2264.8779 667.39838 2284.0625 3159606
2279.1882 667.39838 2284.0625 3093813
2284.1501 664.6781 2274.7527 3159606
2296.9194 664.24927 2273.2852 3159606
2306.071 662.78601 2268.2773 3028020
2306.2595 658.78033 2254.5686 2699055
nan nan nan 16777215
nan nan nan 16777215
nan nan nan 16777215
nan nan nan 16777215
nan nan nan 16777215
nan nan nan 16777215
nan nan nan 16777215
nan nan nan 16777215
nan nan nan 16777215
nan nan nan 16777215
nan nan nan 16777215
-1904.1869 626.68066 2099.9243 3620927
-1895.5294 628.17169 2104.9207 3620927
-1873.2568 625.14001 2094.7617 3752513
-1859.2274 624.83582 2093.7424 3423548
-1864.089 630.92108 2114.1335 3094583
-1852.7734 631.5791 2116.3384 3226169
-1843.9822 633.11322 2121.479 3160376
-1844.2285 637.7951 2137.1675 3028790
-1834.082 638.92511 2140.9539 3028790
-1819.4259 638.48914 2139.4929 2831411
-1807.8357 639.13049 2141.6421 2897204
-1801.9626 641.81787 2150.6472 2897204
-1788.881 641.95892 2151.1196 2962997
-1774.2716 641.54956 2149.748 2897204
-1760.8027 641.54956 2149.748 2765618
-1756.2463 644.82178 2160.7129 2765875
-1742.7087 644.82178 2160.7129 2962997
-1708.9099 637.2663 2135.3953 2963254
-1695.5311 637.2663 2135.3953 2963254
-1680.3605 636.58752 2133.1208 2831926
-1659.778 633.83118 2123.8848 2831668
-1646.1266 633.69849 2123.4402 2700339
-1628.2601 631.9278 2117.5068 2897461
-1614.4232 631.70477 2116.7595 2897459
-1600.4154 631.41058 2115.7737 2634030
-1578.4479 627.94489 2104.1606 2634286
-1578.2744 633.16412 2121.6494 2700079
-1564.9816 633.16412 2121.6494 2831409
-1546.3448 630.98346 2114.3425 2831409
-1545.303 636.00677 2131.175 2699824
-1510.6732 627.17334 2101.5752 2699823
-1487.5415 623 2087.5908 2634287
-1468.7341 620.57977 2079.481 2634030
-1448.3932 617.4624 2069.0352 2634030
-1435.4299 617.4624 2069.0352 2436651
-1428.3385 620.01117 2077.5757 2370858
-1417.8219 621.10638 2081.2456 2634030
-1397.1884 617.74878 2069.9949 2831153
-1378.8713 615.36218 2061.9976 2962225
-1381.0969 622.18488 2084.8596 2830639
-1368.0347 622.18488 2084.8596 2699053
-1343.7007 617.00909 2067.5161 2830639
-1333.7355 618.39459 2072.1589 2896176
-1321.9421 618.95154 2074.0251 2698797
-1306.5897 617.83655 2070.2888 2830382
-1291.7084 616.92413 2067.2314 2961968
-1278.2944 616.70123 2066.4846 2831409
-1269.7076 618.82635 2073.6057 2831665
-1263.2581 622.04785 2084.4004 2765616
-1250.1987 622.04785 2084.4004 3160374
-1240.8663 623.92188 2090.6799 3423546
-1217.911 618.91302 2073.896 3292217
-1219.5966 626.45306 2099.1616 3160631
-1218.5813 632.75507 2120.2788 3291960
-1199.3357 629.62543 2109.792 3160374
-1191.6567 632.56598 2119.6453 3291960
-1169.5481 627.82678 2103.7649 3291960
-1155.9084 627.5777 2102.9302 3291960
-1146.2203 629.49292 2109.3479 3160374
-1143.6642 635.41528 2129.1929 3094581
-1130.3241 635.41528 2129.1929 2962995
-1119.3888 636.78326 2133.7769 3160374
-1104.9662 636.17651 2131.7437 3555132
-1087.0011 633.49042 2122.7429 3818304
-1070.8383 631.80121 2117.0825 3686718
-1060.3457 633.45691 2122.6306 3620925
-1054.6067 638.03064 2137.9565 3884097
-1035.4512 634.50067 2126.1282 4015683
-1026.2937 637.08521 2134.7886 3949890
-1021.8641 642.71155 2153.6418 3884097
-1013.9045 646.23859 2165.4604 3489339
-1005.9282 649.85046 2177.5632 3028788
-988.38898 647.29883 2169.0132 3357753
-972.43408 645.72821 2163.75 3423546
-956.40265 644.06152 2158.1653 3160374
-946.23431 646.35205 2165.8406 3225911
-932.30151 646.10046 2164.9976 3160374
-918.66937 646.05286 2164.8379 3489083
-905.18951 646.11237 2165.0374 3489339
-902.59998 654.06543 2191.687 3423546
-888.86835 654.06543 2191.687 3489339
-870.3573 650.49335 2179.7175 3555132
-853.61511 648.15045 2171.8667 3423546
-842.59863 650.1496 2178.5657 3620925
-828.4458 649.75482 2177.2427 3620925
-813.30389 648.55792 2173.2322 3357753
-798.43225 647.53961 2169.8198 3423546
-784.83765 647.53961 2169.8198 3423803
-770.75537 647.13013 2168.4478 2831922
-753.5014 643.99518 2157.9431 3029302
-745.10016 648.4502 2172.8711 3094839
-733.78717 650.48969 2179.7053 3160634
-722.69958 652.81018 2187.481 3555392
-706.7558 650.74908 2180.5745 3620928
-688.94098 646.84998 2167.509 3490111
-673.24152 644.82007 2160.707 4082248
-655.90851 641.11023 2148.2759 3885125
-644.92761 643.5838 2156.5645 3884869
-632.20752 644.39044 2159.2676 3424574
-618.85321 644.5719 2159.8755 3490111
-604.4693 643.66498 2156.8367 3555904
-583.13361 635.1449 2128.2869 3687490
-570.99011 636.47229 2132.7349 3621954
-562.42017 641.9422 2151.0637 3687490
-551.00037 644.34802 2159.1255 3950406
-540.33398 647.7782 2170.6194 3424061
-526.73438 647.7782 2170.6194 3226426
-509.71588 643.46216 2156.157 3621184
-495.05612 641.96997 2151.1567 3423805
-487.99365 650.52167 2179.8125 3226426
-473.29715 649.09637 2175.0364 3291962
-454.58163 641.91125 2150.9602 3358266
-443.82947 645.87573 2164.2446 3292473
-430.6568 646.45679 2166.1914 3160887
-415.745 644.37982 2159.2319 3095350
-402.34579 644.58661 2159.9248 3095094
-388.81317 644.58661 2159.9248 3095094
-376.54007 646.74994 2167.1738 3489852
-362.96207 646.74994 2167.1738 3555388
-350.28955 648.42615 2172.7905 3423803
-334.98523 645.16907 2161.8767 3818563
-321.63132 645.55225 2163.1606 3950149
-308.4494 646.32965 2165.7654 3818563
-293.10779 642.44476 2152.7478 3884356
-279.42413 641.99432 2151.2385 3818306
-265.79312 641.62543 2150.0022 3686720
-252.32269 641.62543 2150.0022 3687233
-239.17438 642.49066 2152.9016 3884356
-229.53574 653.45093 2189.6279 3752770
-211.44949 640.22687 2145.3159 3752512
-196.72969 636.09229 2131.4614 3555132
-183.37543 636.09229 2131.4614 3686718
-170.07855 636.30701 2132.1809 3818050
-157.37886 638.98303 2141.1479 3687230
-143.89191 638.66339 2140.0769 3555645
-130.55376 639.00653 2141.2266 3489852
-117.88422 643.07556 2154.8616 3753024
-104.74229 645.28693 2162.2715 3687231
-91.049461 644.2572 2158.821 3489852
-76.713425 637.52283 2136.2549 3555645
-64.453911 648.84589 2174.197 3621695
-50.929993 650.09802 2178.3928 3687231
-37.376709 651.755 2183.9451 3621181
-23.351286 642.33832 2152.3911 3094581
-9.900157 644.56946 2159.8674 3226167
3.620748 642.55823 2153.1279 2897202
16.999168 638.36761 2139.0857 3094581
30.401205 638.36761 2139.0857 2962738
44.070576 642.26361 2152.1409 2765616
57.372627 640.23511 2145.3435 3094581
70.411667 636.59869 2133.1584 2897202
83.776566 636.59869 2133.1584 2897202
97.342659 637.91724 2137.5767 2962995
110.97984 639.32623 2142.2981 3094838
123.25181 633.41522 2122.491 3291960
135.05191 626.46667 2099.2073 2962995
149.81699 633.28448 2122.0527 2897202
163.74026 635.72247 2130.2222 2962995
177.31158 636.52954 2132.9265 2962995
190.6344 636.39392 2132.4722 3028788
204.39224 637.63318 2136.6248 2963251
217.77885 637.63318 2136.6248 2897203
231.6078 638.85327 2140.7131 2897203
245.02005 638.85327 2140.7131 3094581
257.00006 635.31281 2128.8494 2568494
271.49356 638.0285 2137.9495 2634287
284.70068 637.60797 2136.5403 2963252
297.3392 636.00891 2131.1821 2634030
313.47839 641.71338 2150.2971 2436651
327.77771 643.33667 2155.7363 2699823
341.82263 644.35193 2159.1384 2831409
354.60196 642.99493 2154.5913 2765616
366.23337 639.7323 2143.6587 2634286
376.99036 635.22711 2128.5625 2765616
398.85074 649.09979 2175.0479 3555132
410.29868 645.67017 2163.5557 3555132
416.49368 634.45789 2125.9849 3028788
429.69733 634.28625 2125.4097 2831409
445.73282 638.17932 2138.4548 3489339
459.55173 638.76434 2140.415 3160374
472.9621 638.76434 2140.415 3226167
483.74094 635.30823 2128.8342 3555132
501.20898 640.5871 2146.5229 3357753
513.95453 639.71191 2143.5903 3226167
529.83887 642.68872 2153.5652 3029045
547.83051 648.01025 2171.397 3160374
564.8725 651.97791 2184.6921 2765616
576.64648 649.82123 2177.4653 2568237
584.69855 643.66699 2156.8433 2634030
601.03918 646.70911 2167.0371 2831409
615.04321 647.15833 2168.5422 2568237
627.17505 645.66071 2163.5239 2568237
638.16791 643.07861 2154.8718 2436651
651.0423 642.46039 2152.8 2502444
661.74487 639.76752 2143.7766 2699823
675.72852 640.29077 2145.53 2765616
690.60645 641.62445 2149.999 2831409
703.52692 641.12335 2148.3198 2962995
717.59082 641.66345 2150.1296 2962995
731.57697 642.11536 2151.644 2962995
745.05768 642.11536 2151.644 2765616
759.8266 643.20587 2155.2981 2568493
774.76813 644.40186 2159.3057 2634030
792.57861 647.90198 2171.0342 3489339
800.99615 643.73523 2157.072 3620925
812.20361 641.91174 2150.9617 3291960
822.00458 639.05426 2141.3867 3094581
829.19305 634.29016 2125.4229 3028788
849.42627 639.49756 2142.8721 2897204
859.97589 637.36597 2135.7292 2897461
871.63739 636.11108 2131.5244 3028790
886.02814 636.85577 2134.0198 3028790
901.91193 638.63556 2139.9836 2700082
915.31964 638.63556 2139.9836 2568496
924.12286 635.4693 2129.374 3028790
946.42169 641.54138 2149.7207 3489341
960.854 642.18549 2151.8789 4213064
973.43945 641.59448 2149.8984 4278857
993.4624 645.85461 2164.1738 2568239
1007.0216 645.85461 2164.1738 1910309
1007.2354 637.40924 2135.8743 2699825
1024.645 639.92468 2144.3032 3160376
1038.0797 639.92468 2144.3032 3160376
1051.7568 640.0722 2144.7976 3094583
1066.0012 640.55682 2146.4216 3160376
1076.2775 638.67468 2140.1147 3029301
1090.0873 638.90997 2140.9031 3094838
1102.6188 638.39923 2139.1919 3095094
1115.5724 638.1424 2138.3311 3160631
1128.9696 638.1424 2138.3311 3094581
1141.7827 637.81598 2137.2373 3094581
1153.7651 637.03857 2134.6323 3094581
1159.9989 633.14124 2121.573 3094581
1178.3229 635.85651 2130.6714 3028788
1202.4714 641.61877 2149.98 2962996
1226.719 647.30573 2169.0361 3423547
1237.6084 645.89642 2164.3137 3752513
1236.3558 638.24963 2138.6904 3620925
1220.7281 623.42535 2089.0164 3160374
1267.0465 640.21594 2145.2793 2897202
1278.2428 639.09369 2141.5188 2634287
1282.203 634.41449 2125.8394 2568237
1278.9801 626.3139 2098.6956 2634030
1319.6134 639.63599 2143.3359 3291960
1331.9985 639.13531 2141.6582 3160374
1339.8549 636.49316 2132.8047 3291960
1351.0934 635.49408 2129.4568 3094581
1368.9529 637.59827 2136.5078 3094581
1382.3389 637.59827 2136.5078 3423546
1401.0144 640.01471 2144.605 3291960
1410.7396 638.33539 2138.9778 3291960
1422.0785 637.41089 2135.8799 3160376
1430.187 635.06927 2128.0334 2962997
1447.3513 636.75494 2133.6819 3094583
1461.5421 637.11353 2134.8835 3028790
1474.6937 637.01672 2134.5591 2962997
1490.9573 638.25378 2138.7043 3160376
1514.2384 642.44623 2152.7527 3291962
1521.4316 639.79926 2143.8831 3160376
1536.0541 640.29547 2145.5459 3226425
1553.6687 642.01953 2151.3228 3094840
1562.0284 639.92236 2144.2957 2963252
1574.226 639.41986 2142.6118 3028788
1599.8779 644.34454 2159.1138 2897202
1613.8372 644.51703 2159.6917 2831409
1613.9868 639.21729 2141.9329 3291960
1649.8406 648.02899 2171.4597 3226167
1664.3645 648.38696 2172.6594 2831409
1672.1157 646.12219 2165.0703 2962995
1693.9857 649.30554 2175.7373 3423546
1707.6173 649.30554 2175.7373 3685948
1717.2113 647.78235 2170.6333 3488569
1729.5465 647.30908 2169.0476 3291190
1741.5685 646.72687 2167.0967 3225397
1759.371 648.28369 2172.3132 3093811
1795.8961 656.66248 2200.3894 2962225
1809.6821 656.66248 2200.3894 2501674
1801.0045 648.57288 2173.2822 2699053
1819.6327 650.3642 2179.2847 3028018
1839.6655 652.6272 2186.8677 3159604
1855.29 653.30432 2189.1367 3225397
1867.5292 652.78821 2187.4072 3291190
1880.2191 652.4361 2186.2273 3291190
1893.9165 652.4361 2186.2273 3028018
1912.3495 654.05573 2191.6545 2765103
1917.8937 651.27551 2182.3384 2896432
1931.8418 651.36823 2182.6492 3028275
1945.6633 651.41736 2182.8137 3028018
1964.6683 653.18903 2188.7505 2962225
1979.0061 653.39526 2189.4414 2896432
1997.3737 654.91998 2194.5505 2896432
2011.1233 654.91998 2194.5505 3093814
2024.4899 654.79614 2194.1355 2764848
2036.9663 654.38794 2192.7678 2699312
2053.9431 655.42139 2196.2307 2830641
2083.7312 660.50195 2213.2551 3291192
2097.5979 660.50195 2213.2551 3291192
2108.7114 659.64069 2210.3691 3093813
2134.8069 663.44672 2223.1226 3093813
2164.6399 668.35736 2239.5774 3159606
2174.1572 666.97247 2234.937 3028277
2181.0195 664.79614 2227.6443 2896434
2190.8804 663.55554 2223.4873 2765105
2223.7993 669.27014 2242.6362 2699055
2230.7058 667.13348 2235.4766 2633519
2239.4551 665.57123 2230.2415 2567469
2252.4124 665.27112 2229.2358 2370090
2266.3789 665.27112 2229.2358 2830641
2260.7275 659.54761 2210.0571 2896434
nan nan nan 16777215
nan nan nan 16777215
nan nan nan 16777215
nan nan nan 16777215
nan nan nan 16777215
nan nan nan 16777215
nan nan nan 16777215
nan nan nan 16777215
nan nan nan 16777215
nan nan nan 16777215
nan nan nan 16777215
-1863.5521 626.1153 2055.1125 3752513
-1850.6763 626.1153 2055.1125 3686720
-1834.4222 624.96448 2051.3352 3555134
-1820.7467 624.68195 2050.408 3357755
-1812.2129 626.17212 2055.2991 3226169
-1806.845 628.78528 2063.8765 3226169
-1792.3361 628.23212 2062.0608 3226169
-1784.6953 630.09583 2068.178 2897204
-1777.0037 631.96863 2074.3252 3028790
-1767.1558 633.09662 2078.0276 2963254
-1754.0006 633.04761 2077.8667 3029047
-1739.353 632.45526 2075.9226 2897204
-1720.3927 630.27393 2068.7627 2765618
-1709.3031 630.9649 2071.0308 2568239
-1700.2404 632.42035 2075.8079 2568239
-1691.1002 633.86926 2080.5637 2634032
-1678.7129 634.11407 2081.3672 2634032
-1665.6725 634.11407 2081.3672 2699567
-1652.4532 634.04541 2081.1418 2699823
-1635.182 632.40857 2075.7693 2634286
-1616.8259 630.32257 2068.9224 2568237
-1602.2693 629.69611 2066.866 2568237
-1583.238 627.28644 2058.9568 2370858
-1582.7847 632.25842 2075.2764 2370858
-1559.6965 628.19617 2061.9426 2436651
-1545.0511 627.49487 2059.6409 2436651
-1544.1062 632.39294 2075.7178 2699823
-1531.6432 632.6167 2076.4524 2699823
-1524.7976 635.18451 2084.8806 2370858
-1498.4225 629.59094 2066.5208 2305065
-1465.7908 621.24799 2039.1367 2305065
-1442.0531 616.56122 2023.7531 2239272
-1428.3094 616.10217 2022.2465 2173479
-1413.5718 615.20233 2019.2927 2239272
-1397.4313 613.67017 2014.2637 2568237
-1382.1067 612.47162 2010.3297 2568237
-1375.0508 614.94897 2018.4611 2634030
-1364.1293 615.72742 2021.0164 2765360
-1346.6406 613.52856 2013.799 2831409
-1333.29 613.19122 2012.6917 2962995
-1315.0873 610.59454 2004.1687 3094582
-1292.3375 605.81635 1988.485 3226167
-1301.6702 616.13098 2022.3408 2897202
-1301.2778 621.99988 2041.6045 2831409
-1285.1427 620.38562 2036.306 2765873
-1265.6239 617.08923 2025.4863 2765873
-1254.3807 617.802 2027.8258 2831666
-1256.197 625.02716 2051.541 2699823
-1256.7158 631.74945 2073.6057 2502444
-1232.4828 626.03937 2054.8635 2831409
-1216.9873 624.69391 2050.4473 3423546
-1208.3584 626.88214 2057.6296 3028788
-1196.6781 627.51727 2059.7144 2897202
-1184.5237 627.91504 2061.02 3226167
-1181.0629 632.98077 2077.6475 2699823
-1160.0109 628.62665 2063.3557 2765616
-1148.0745 629.16986 2065.1387 3160374
-1133.7639 628.40942 2062.6428 3291960
-1128.4641 632.68347 2076.6716 3423546
-1123.759 637.39459 2092.135 3555132
-1115.2495 640.03357 2100.7969 3357753
-1104.8234 641.62244 2106.0122 3489339
-1087.0771 638.94733 2097.2314 3555132
-1055.726 628.11243 2061.6677 3884353
-1046.7793 630.50378 2069.5171 3884097
-1043.9418 636.68097 2089.7927 3555132
-1032.8895 637.94159 2093.9304 3620925
-1016.7215 636.03424 2087.6699 3489339
-1003.6416 636.03424 2087.6699 3357753
-997.74445 640.6463 2102.8081 3094581
-988.30804 643.0788 2110.7922 3291960
-976.81812 644.22296 2114.5479 3686718
-957.17401 639.94684 2100.5122 3555132
-943.32379 639.47913 2098.9771 3620925
-928.92633 638.62207 2096.1638 3489339
-917.12286 639.54932 2099.2073 3423546
-902.39398 638.43378 2095.5459 3489339
-890.57379 639.3736 2098.6306 3423546
-894.42188 651.75897 2139.2834 3357753
-883.89661 653.888 2146.2717 4081476
-870.44952 653.888 2146.2717 4213062
-842.46552 642.79645 2109.8655 3752511
-827.72821 641.61951 2106.0024 3489339
-819.18976 645.28723 2118.0413 3357753
-806.61322 645.84265 2119.8643 3291960
-793.34546 645.854 2119.9014 3291960
-783.15002 648.4093 2128.2888 3423546
-768.33459 647.16187 2124.1943 3489339
-756.883 648.75372 2129.4192 2831409
-743.54156 648.75372 2129.4192 3489083
-733.34662 651.54926 2138.5952 3160118
-719.10406 650.78583 2136.0894 3292215
-698.58319 644.20386 2114.4851 3292473
-688.15942 646.85852 2123.1985 3095094
-679.50085 651.30969 2137.8088 3489853
-664.72809 649.96161 2133.384 3818307
-643.56616 642.18274 2107.8513 3358012
-630.3598 642.18274 2107.8513 3489854
-613.62378 638.50995 2095.7959 3490367
-600.49298 638.50995 2095.7959 3556161
-587.00372 638.1203 2094.5168 3490368
-578.74536 643.52917 2112.2708 3885126
-559.25555 636.4104 2088.9045 3555391
-545.75049 635.92401 2087.3081 3489341
-540.46735 645.22931 2117.8511 3884356
-526.64154 644.54791 2115.6145 3489598
-515.1178 646.72137 2122.7485 3094840
-494.49713 637.2865 2091.78 3358012
-478.13156 632.97083 2077.6147 3818563
-467.97751 636.86688 2090.4028 3358012
-460.13538 644.22412 2114.5518 3094839
-445.77936 642.62732 2109.3103 3292473
-432.46799 642.4848 2108.8425 3292473
-421.37381 645.73108 2119.498 3095094
-406.59048 643.35132 2111.6868 3358266
-393.42368 643.45532 2112.0281 3095094
-383.3541 648.80835 2129.5986 3226680
-365.7048 641.25665 2104.8115 3424059
-353.32645 642.72815 2109.6414 3555645
-343.1839 648.53931 2128.7153 3489852
-330.05487 648.94824 2130.0579 4016196
-316.70938 648.94824 2130.0579 3884610
-302.02719 646.08875 2120.6721 3555901
-285.72815 639.34821 2098.5474 3686717
-272.58008 639.34821 2098.5474 3620668
-259.24353 638.88361 2097.0225 3555131
-245.61086 637.60083 2092.8118 3489338
-230.42599 631.9165 2074.1541 3489339
-219.01863 636.53125 2089.3013 3949890
-205.92851 636.53125 2089.3013 3423546
-194.51686 642.07166 2107.4866 3357753
-179.35832 635.15039 2084.7688 3752510
-166.30887 635.19727 2084.9226 3357755
-153.06622 634.45129 2082.4741 3226680
-139.39026 631.60297 2073.125 4148038
-126.4015 631.60297 2073.125 4016196
-114.57746 638.08948 2094.4158 3555902
-101.4553 638.08948 2094.4158 3884610
-88.655495 640.41809 2102.0591 2963765
-75.683418 642.09772 2107.572 3029301
-63.129765 648.78741 2129.53 3686718
-50.03075 651.95599 2139.9302 3686718
-36.681244 652.98529 2143.3086 3489339
-22.928535 643.88062 2113.4243 3094838
-9.6860199 643.79706 2113.1499 2239272
3.5473716 642.68317 2109.4937 2502444
16.605032 636.58862 2089.4895 2634030
30.123566 645.74707 2119.5505 3290933
43.09874 641.21729 2104.6821 3422776
56.728931 646.27209 2121.2737 2634286
69.555145 641.98737 2107.21 2502444
82.270477 638.20953 2094.8098 2502444
95.409019 638.30255 2095.1152 2699823
108.60464 638.7088 2096.4487 2831409
120.91548 634.38531 2082.2576 2765873
134.09955 635.03931 2084.4041 2962995
147.159 635.03931 2084.4041 3291960
160.19635 634.95178 2084.1167 3160374
173.97519 637.59485 2092.7922 3160374
187.23033 638.0827 2094.3936 3028788
200.82303 639.58173 2099.3137 3028788
214.53644 641.2572 2104.8132 3028788
227.06267 639.39569 2098.7031 2765616
239.7943 638.28467 2095.0564 2962995
253.27702 639.18439 2098.0098 2765616
266.42169 639.18439 2098.0098 2831666
279.22635 638.40698 2095.458 2831409
291.09396 635.6532 2086.4192 2831409
307.245 642.08771 2107.5393 2700079
321.0575 643.30621 2111.5388 2633516
333.92444 642.60858 2109.249 2961968
346.37323 641.19 2104.5928 2764846
359.20102 640.55139 2102.4966 2699310
370.62503 637.54315 2092.6226 2634030
385.7854 640.94812 2103.7988 2831409
398.12112 639.59021 2099.3418 2897459
409.10663 636.21948 2088.2778 2962995
420.31696 633.39636 2079.0115 2962995
436.96692 638.69385 2096.3994 3226167
449.08328 637.24896 2091.657 3160374
460.50302 634.92554 2084.0308 3094581
478.1524 641.0827 2104.2405 3094581
491.33615 641.0827 2104.2405 3423546
504.24152 640.729 2103.0796 3357753
519.35229 643.12433 2110.9419 2765616
531.71039 642.0766 2107.5029 2436651
552.11285 650.55847 2135.343 2765873
566.28967 651.47675 2138.3572 3226424
576.43024 647.81647 2126.343 3555132
586.71082 644.4754 2115.3765 3423546
597.70703 642.05066 2107.4177 3291960
608.02252 639.01538 2097.4548 3555132
617.19739 634.935 2084.0618 3028788
633.68781 638.39362 2095.4141 2634030
646.25922 637.84387 2093.6096 2699823
660.19562 638.63635 2096.2109 2699823
673.96936 639.24371 2098.2043 3160374
686.60718 638.771 2096.6528 3160374
696.42017 635.73743 2086.6956 3029045
710.89417 636.99207 2090.8137 3028788
723.258 636.34473 2088.689 3160374
732.59204 633.10205 2078.0454 3028788
754.24158 640.42975 2102.0974 2831409
767.41187 640.42975 2102.0974 2831409
781.65649 641.31122 2104.9905 2765616
790.97693 638.19031 2094.7468 2765616
802.65161 637.03986 2090.9707 3094581
817.23724 638.19965 2094.7773 3555131
830.83679 638.56476 2095.9758 2962998
843.96869 638.56476 2095.9758 2765618
849.20923 632.68542 2076.678 3029047
864.56818 634.40826 2082.333 3028790
878.90417 635.34045 2085.3926 2962997
892.0611 635.40552 2085.6062 2962997
907.21454 636.87024 2090.4138 2634032
921.06384 637.39075 2092.1223 2305067
934.17163 637.39075 2092.1223 2634032
956.09045 643.3194 2111.582 2765618
969.32013 643.3194 2111.582 2568239
985.69568 645.37903 2118.3425 2436653
999.69336 645.84784 2119.8813 2897204
1018.9417 649.65204 2132.3677 3423548
1016.4775 639.69354 2099.6809 3160376
1035.7 643.46307 2112.0537 3291962
1044.2054 640.56311 2102.5352 3291962
1056.2025 639.85083 2100.197 3226681
1070.1738 640.33716 2101.7935 3226680
1080.7218 638.78827 2096.7095 3029558
1091.6803 637.51636 2092.5347 3160887
1104.9736 637.62201 2092.8813 3226680
1122.3541 640.05585 2100.8701 3292473
1131.6506 637.87671 2093.7173 3160886
1136.0887 633.04028 2077.8428 3029301
1154.4216 635.96808 2087.4526 3160374
1167.082 635.74023 2086.7048 3226167
1187.1986 639.53412 2099.1577 3160374
1213.3179 646.44305 2121.835 3357753
1207.3756 636.30524 2088.5593 2897202
1202.3207 626.84747 2057.5159 2962995
1221.4871 630.08459 2068.1411 3160374
1232.9446 629.31891 2065.6279 2765616
1255.057 633.95117 2080.8325 2634030
1270.5387 635.17334 2084.844 2831409
1289.4325 638.05896 2094.3157 3291960
1305.9042 639.70013 2099.7024 3357753
1314.3635 637.42267 2092.2271 3423546
1326.0255 636.72815 2089.9475 3752511
1342.774 638.4657 2095.6506 3752511
1365.203 642.84442 2110.0232 3620925
1366.3228 637.20135 2091.5007 3686718
1379.5522 637.2594 2091.6912 3620925
1396.8538 639.17957 2097.9939 3620928
1413.2262 640.64288 2102.7969 3555389
1424.4379 639.76117 2099.9028 3357498
1420.0376 631.94806 2074.2576 3160376
1435.9386 633.22913 2078.4626 3094583
1452.3607 634.71497 2083.3396 3094583
1477.2202 639.82886 2100.125 3358012
1488.6647 639.0932 2097.7104 3094841
1492.412 635.09497 2084.5869 3159607
1505.4725 635.09497 2084.5869 3291192
1515.0757 633.64893 2079.8406 2962225
1544.2188 640.33014 2101.7703 2962482
1557.5415 640.39368 2101.9788 3554363
1557.9999 635.21118 2084.9683 3489852
1579.4397 638.59808 2096.0852 3555389
1594.7667 639.47803 2098.9734 3949890
1607.9175 639.47803 2098.9734 4213062
1633.028 644.19592 2114.459 4344648
1646.2756 644.19592 2114.459 3950147
1638.7247 636.12225 2087.9587 3620155
1680.8882 647.32184 2124.7192 3422776
1685.3192 643.92853 2113.5815 3291190
1689.39 640.45166 2102.1692 3159604
1706.9332 642.09644 2107.5679 3422776
1722.5175 642.98468 2110.4834 3620155
1739.4829 644.37115 2115.0342 3685948
1754.13 644.88428 2116.7185 3554362
1773.6594 647.17114 2124.2246 3488569
1791.9719 648.98322 2130.1726 3291190
1807.1086 649.62695 2132.2854 3225397
1817.9099 648.71405 2129.2891 3225654
1837.6055 650.96527 2136.6782 3093811
1864.8704 655.84583 2152.698 3225397
1881.0652 656.79126 2155.801 3093811
1879.8997 651.70483 2139.1057 3093811
1891.7129 651.1579 2137.3105 3028018
1904.5648 650.97369 2136.7058 2962225
1915.8911 650.27423 2134.4099 3093811
1930.8673 650.81464 2136.1838 3159604
1955.87 654.70392 2148.9497 3225396
1962.7936 652.5296 2141.813 2962227
1967.9597 649.80457 2132.8684 2764848
2015.7708 661.10223 2169.9512 2764848
2036.543 663.44025 2177.6252 3225399
2041.5944 660.65985 2168.499 3422778
2042.4312 656.56134 2155.0464 3093813
2056.042 656.59607 2155.1604 3159606
2078.7671 659.52203 2164.7644 2896691
2097.5864 661.17896 2170.2029 2764848
2115.0225 662.38123 2174.1492 2896434
2128.6443 662.38123 2174.1492 2896434
2141.3435 662.09601 2173.2129 2962227
2156.1514 662.46234 2174.4153 3028020
2170.198 662.59143 2174.8391 3093813
2183.824 662.59143 2174.8391 2896434
2195.7769 662.08691 2173.1831 2896434
2201.7961 659.81061 2165.7114 2962227
2213.8508 659.35962 2164.2312 3028020
nan nan nan 16777215
nan nan nan 16777215
nan nan nan 16777215
nan nan nan 16777215
nan nan nan 16777215
nan nan nan 16777215
nan nan nan 16777215
nan nan nan 16777215
nan nan nan 16777215
nan nan nan 16777215
nan nan nan 16777215
-1792.097 614.4245 1976.3124 3094840
-1781.3262 614.98077 1978.1017 3028790
-1774.7437 617.00098 1984.5997 3094583
-1774.0576 621.11414 1997.8297 3094583
-1749.9902 617.04144 1984.7299 3160376
-1739.3746 617.68762 1986.8081 3094583
-1723.6564 616.51782 1983.0457 3028790
-1713.6831 617.40094 1985.8862 3094583
-1703.0247 618.04828 1987.9684 3028790
-1701.6063 622.08325 2000.9469 2962997
-1692.5403 623.36139 2005.0581 2897204
-1682.7125 624.3761 2008.3219 2897204
-1665.3713 622.59717 2002.6 2699825
-1653.4849 622.84595 2003.4 2634032
-1647.2217 625.23297 2011.0779 2568239
-1637.2905 626.25372 2014.3615 2568495
-1636.3702 630.76385 2028.8683 2370861
-1619.7145 629.23157 2023.9396 2370858
-1607.8431 629.5484 2024.9589 2502444
-1594.2896 629.20642 2023.8588 2502444
-1579.5991 628.40668 2021.2863 2502444
-1570.9597 630.02069 2026.4779 2370858
-1565.4119 632.91095 2035.7745 2305065
-1564.6387 637.79498 2051.4841 2041893
-1551.9873 637.87793 2051.751 2502444
-1534.0936 635.78961 2045.0338 2765616
-1512.6476 632.18152 2033.4282 2897202
-1499.9073 632.18152 2033.4282 2699823
-1477.2861 627.98108 2019.9174 2502444
-1448.405 621.02417 1997.5402 2239272
-1430.7671 618.80853 1990.4136 2107686
-1423.0322 620.87469 1997.0596 2305065
-1400.2317 616.34607 1982.493 2436651
-1389.2532 616.98669 1984.5536 2502701
-1363.2827 610.92053 1965.0417 2765873
-1353.8604 612.22711 1969.2444 2831409
-1353.5609 617.72107 1986.9158 2962995
-1336.9163 615.78833 1980.6992 2962995
-1326.4691 616.70081 1983.634 3489339
-1314.041 616.70081 1983.634 3357753
-1292.9833 612.61206 1970.4827 3094581
-1281.8566 613.19525 1972.3583 3094581
-1273.6101 615.18091 1978.7452 3028788
-1265.6945 617.367 1985.7769 3291960
-1255.0684 618.26129 1988.6534 3291960
-1238.7306 616.33167 1982.4468 3291960
-1227.3577 616.85822 1984.1403 3423546
-1215.7391 617.27087 1985.4678 3226167
-1222.5657 627.15399 2017.2571 2831409
-1216.4741 630.54773 2028.173 2831409
-1199.5245 628.32544 2021.0251 3489339
-1182.1284 625.8194 2012.9644 3620925
-1158.8156 620.09314 1994.5458 3291960
-1147.3075 620.62781 1996.2655 3226167
-1135.4749 620.99677 1997.4523 3423546
-1128.1812 623.88397 2006.7389 3489339
-1115.6083 623.88397 2006.7389 3291960
-1113.0204 629.53156 2024.9044 3291960
-1098.7854 628.64563 2022.0549 3423546
-1091.8456 631.96161 2032.7208 3620925
-1082.6102 634.01147 2039.3143 3555132
-1069.8334 634.01147 2039.3143 3489339
-1049.5543 629.51184 2024.8412 3752511
-1036.868 629.51184 2024.8412 4015683
-1037.2761 637.56024 2050.729 3555132
-1027.832 639.67896 2057.5439 3094581
-997.07477 628.41858 2021.3247 3357753
-983.10614 627.586 2018.6465 3291960
-982.02814 635.06781 2042.7119 3357753
-973.96527 638.17047 2052.6919 3555132
-958.98004 636.75989 2048.1545 4015683
-943.24274 634.80475 2041.866 3752767
-930.69861 634.97455 2042.4121 3555132
-916.20929 633.80341 2038.645 3949890
-896.04321 628.61664 2021.9615 3752511
-895.47064 637.224 2049.6475 3357753
-881.41315 636.34619 2046.824 3357753
-870.53931 637.7749 2051.4194 3423546
-863.45154 642.06183 2065.2085 3291960
-850.51239 642.06183 2065.2085 3489339
-838.09875 642.46472 2066.5044 3555388
-827.71344 644.45941 2072.9204 3686718
-810.93207 641.45844 2063.2676 3357753
-797.75208 641.25507 2062.6135 3226167
-783.99835 640.57617 2060.4299 3291960
-772.38239 641.65057 2063.8857 3160374
-766.10229 647.26978 2081.96 3423546
-755.47455 649.34668 2088.6404 3226167
-738.04565 645.5481 2076.4221 3028788
-721.41357 642.32263 2066.0474 3686718
-707.84381 641.75562 2064.2236 3949890
-691.80603 638.88837 2055.001 3292472
-676.34778 636.45764 2047.1825 3358266
-665.03302 637.90753 2051.8459 3555645
-653.99506 639.68518 2057.564 3555390
-642.03375 640.6131 2060.5486 3423805
-627.2337 638.68854 2054.3582 3292219
-612.41064 636.65936 2047.8313 3358012
-599.24225 636.30042 2046.6766 3357756
-585.74719 635.57129 2044.3314 3160633
-572.96429 635.59943 2044.422 3358012
-564.02258 639.98761 2058.5366 4015942
-548.12292 636.50122 2047.3226 3489598
-533.04962 633.83038 2038.7317 3029047
-516.32648 629.01837 2023.254 3094840
-503.65021 629.01837 2023.254 3489598
-496.17853 635.68646 2044.7019 3489598
-474.90195 624.55273 2008.89 3160633
-464.92404 628.07654 2020.2244 3950149
-456.10901 633.41241 2037.3875 3423805
-448.94833 641.41925 2063.1416 3094840
-434.25632 638.82166 2054.7864 3226680
-422.16125 640.00226 2058.584 3292473
-411.42188 643.37744 2069.4402 2963765
-394.21582 636.53064 2047.4172 2963508
-381.37509 636.50885 2047.3473 3029301
-370.8591 640.50061 2060.1868 3095094
-360.49472 645.05157 2074.825 3489083
-347.49088 645.04327 2074.7983 3160374
-333.7175 643.55042 2069.9966 2831409
-320.25665 642.56403 2066.8237 3226167
-308.58386 645.23303 2075.4087 3555132
-295.58075 645.23303 2075.4087 3291960
-280.24927 639.91638 2058.3076 3357753
-265.32794 635.06848 2042.7144 3291960
-250.61177 630.24524 2027.2002 3291960
-241.13535 638.78748 2054.6765 2765617
-228.14505 638.45984 2053.6226 2831410
-212.88361 631.35724 2030.777 3291961
-200.19026 631.45221 2031.0824 3160374
-187.99776 633.24707 2036.8556 3291960
-175.37798 633.75934 2038.5032 3686717
-163.67281 637.91675 2051.8757 3620927
-150.81717 637.91675 2051.8757 3687231
-137.77783 637.06732 2049.1436 3950149
-124.93932 637.06732 2049.1436 4081734
-112.46557 639.14038 2055.8115 3950405
-100.07795 642.30237 2065.9822 4147527
-87.212303 642.88007 2067.8403 3489852
-75.221146 651.23035 2094.6992 3160630
-62.229561 652.61835 2099.1638 3160374
-48.709866 647.72766 2083.4329 2897459
-36.002625 654.01514 2103.6565 3028788
-22.726154 651.25238 2094.77 3358010
-9.6407852 653.8985 2103.2815 2239272
3.5134027 649.54974 2089.2935 2173479
16.561537 647.90912 2084.0164 2699823
29.696331 649.61066 2089.4895 3159861
42.893841 651.22321 2094.6763 2962482
55.713097 647.68274 2083.2883 2830895
68.542961 645.58636 2076.5452 2305065
81.553162 645.58636 2076.5452 2305065
93.604767 639.04199 2055.4951 2700080
106.24586 637.61829 2050.9158 3226167
118.9151 636.65259 2047.8096 3028788
131.74527 636.65259 2047.8096 3028788
145.30809 639.87897 2058.1873 3555132
157.58878 637.39355 2050.1929 3291960
170.96016 639.36182 2056.5237 3226167
183.79834 639.19983 2056.0027 3160374
196.67982 639.19983 2056.0027 2962995
209.10805 637.81726 2051.5557 2897459
221.93965 637.75397 2051.3521 2897202
235.58501 639.9079 2058.2803 2831409
249.84009 643.40851 2069.54 2897202
262.82056 643.44318 2069.6516 3358010
275.97632 643.88354 2071.0681 2634030
288.53619 642.95648 2068.0862 2436651
301.5723 643.12476 2068.6274 2831666
314.98868 644.05676 2071.6252 2896945
327.27808 642.70172 2067.2668 2962225
339.81076 641.90955 2064.7188 2962224
352.32422 641.14044 2062.2449 2896689
367.41745 644.95422 2074.512 2830639
379.01346 642.57819 2066.8694 2568237
390.86804 640.78308 2061.0955 2634030
407.116 646.07483 2078.1165 3226167
417.0737 641.36572 2062.9695 3094581
425.90155 635.25433 2043.3121 2897202
437.87537 634.05518 2039.4548 2897202
451.31287 634.98328 2042.4402 3028275
465.10059 636.33948 2046.8024 3160118
481.17352 640.66547 2060.717 3160118
493.57104 639.99963 2058.5754 3160374
511.51846 646.3808 2079.1006 2831409
519.63171 640.32672 2059.6274 2765616
533.95227 642.02972 2065.1052 2700080
545.40955 640.29083 2059.512 2568237
558.03339 639.97009 2058.4805 2568494
576.10919 645.77515 2077.1526 3423546
583.10272 639.17572 2055.9253 3028788
594.51672 637.60242 2050.8647 2962995
607.99329 638.26086 2052.9827 2699823
618.95386 636.3056 2046.6934 2699823
630.5141 635.03357 2042.6019 2568237
646.09827 637.78436 2051.45 2765616
659.20453 638.02954 2052.2385 2831409
673.08826 639.00336 2055.3708 3357753
685.96576 639.00336 2055.3708 3489339
696.40759 636.77625 2048.2073 3160374
706.85022 634.63037 2041.3051 3226167
715.01086 630.54846 2028.1754 3423546
729.12805 631.7702 2032.1051 3160374
745.39996 634.78497 2041.8022 2963252
756.32037 633.21753 2036.7607 3291960
764.81018 629.70099 2025.4495 3226167
780.60284 632.21375 2033.5319 3160374
793.78143 632.56268 2034.6543 3357753
809.40057 634.81482 2041.8982 3160376
817.50989 631.19836 2030.266 2962997
828.69092 630.0282 2026.502 3028790
842.18982 630.62891 2028.4343 3094583
856.75885 632.0011 2032.848 3028790
876.37885 637.00458 2048.9417 2897204
889.41577 637.14758 2049.4016 2962997
902.50433 637.32294 2049.9658 3489341
918.55023 639.55261 2057.1375 3423805
931.86359 639.84418 2058.0754 3226169
945.23938 640.17023 2059.124 3094840
959.60205 641.14679 2062.2651 3028790
980.86932 646.64935 2079.9644 2962996
994.04938 646.74585 2080.2749 2962998
1004.8783 645.33008 2075.7209 3028791
1018.3754 645.64203 2076.7244 3226170
1032.5857 646.39258 2079.1384 3291963
1042.3895 644.40039 2072.7305 3094839
1050.8572 641.64136 2063.856 3094837
1063.4866 641.45966 2063.2715 3423802
1076.6387 641.59375 2063.7029 3358010
1087.9294 640.62866 2060.5986 3358265
1102.6772 641.698 2064.0381 3292473
1119.1543 643.73718 2070.5974 3226680
