# .PCD v0.7 - Point Cloud Data file format
VERSION 0.7
FIELDS x y z rgb
SIZE 4 4 4 4
TYPE F F F U
COUNT 1 1 1 1
WIDTH 1265
HEIGHT 1
VIEWPOINT 0 0 0 1 0 0 0
POINTS 1265
DATA ascii
-840.89362 641.88428 3978.8865 3818823
-811.79041 638.60052 3958.5317 1976619
-795.13428 645.21002 3999.5024 1910826
-774.87421 649.2301 4024.4219 3555651
-741.11511 641.83002 3978.5503 3884616
-708.47723 634.91962 3935.7144 4081995
-681.93665 633.17206 3924.8818 2371378
-658.97382 634.73993 3934.6006 1581864
-634.94373 635.36176 3938.4551 3095102
-623.64392 649.2876 4024.7781 3818825
-594.02197 644.50769 3995.1487 3885388
-568.54535 644.00281 3992.0188 3556423
-543.53412 644.00281 3992.0188 1319461
-518.26733 643.68536 3990.0513 3096129
-502.39871 655.59985 4063.9062 3951438
-485.19031 666.94482 4134.231 4082765
-457.47211 664.30774 4117.8843 3161663
-443.74176 682.88171 4233.02 3030078
-433.08105 708.84119 4393.9365 3489601
-422.9631 739.27362 4582.5801 3424065
-398.56979 747.37042 4632.77 3358273
-372.01794 752.37366 4663.7837 3358272
-344.41824 755.92999 4685.8286 3423807
-317.37668 761.48828 4720.2832 3292478
-287.89203 761.72473 4721.749 3358014
-259.31967 764.70569 4740.2271 3358014
-228.96733 762.52985 4726.7397 3358014
-200.93057 768.5647 4764.1484 3358270
-171.65742 771.15112 4780.1807 3490114
-144.00116 783.62939 4857.5308 3555907
-113.00153 779.72607 4833.335 3490114
-82.894096 781.37482 4843.5552 3358271
-52.571133 781.72296 4845.7134 3160892
-22.255058 783.26526 4855.2734 3292736
8.1257105 779.5213 4832.0659 3358528
38.191132 775.27924 4805.77 3358527
67.984528 771.68964 4783.519 3358272
97.263527 766.24408 4749.7632 3358272
126.24776 761.57202 4720.8022 3160893
157.20204 768.30176 4762.5186 3160893
187.61006 770.64056 4777.0161 3226943
219.06128 776.03131 4810.4321 3226686
248.4879 773.81342 4796.6836 3160893
275.59338 765.62573 4745.9302 3226686
306.66998 768.99048 4766.7876 3160636
336.42496 768.73816 4765.2236 3160636
363.87408 763.68756 4733.916 3160636
392.56921 761.81622 4722.3159 3029050
418.89664 755.93439 4685.856 2963257
447.40054 754.49353 4676.9243 2897464
477.83597 756.2868 4688.0405 2897464
509.00446 758.96545 4704.645 2766135
533.73792 752.28101 4663.2095 2634549
567.12244 757.85077 4697.7354 2568756
597.02563 758.44843 4701.4399 2568757
630.7287 763.59015 4733.3125 2503222
655.79608 758.28479 4700.4258 2503736
683.4129 756.25665 4687.8535 2437942
712.58203 756.0426 4686.5269 2306358
739.87006 753.92871 4673.4233 2503481
783.35681 767.85382 4759.7417 2503480
803.19513 758.42731 4701.3091 2569531
832.65033 758.42731 4701.3091 2569787
872.15454 767.26794 4756.1099 2371639
901.83344 767.16614 4755.479 2568760
912.42542 751.35345 4657.46 2831932
957.58282 764.10229 4736.4868 2897724
981.58557 759.71167 4709.2705 2831930
1006.1054 755.96594 4686.0518 2700600
1022.1738 746.26233 4625.9014 2700600
1046.9989 743.31073 4607.605 2634549
1076.5017 743.74927 4610.3232 2634549
1129.7184 760.12054 4711.8052 2634549
1170.9485 767.79828 4759.3975 2634806
1200.6494 767.72272 4758.9292 2503474
1235.4469 770.83075 4778.1948 2766390
1274.3252 776.27759 4811.9585 2898232
1309.8914 779.50159 4831.9434 2963256
1346.4156 783.13727 4854.48 3094842
1374.6035 781.87061 4846.6284 3095098
1412.817 786.23798 4873.7007 2963512
1455.9076 793.07727 4916.0957 2963513
1489.486 794.55884 4925.2798 2897720
1534.3093 801.85718 4970.5205 2766390
1574.5797 806.53302 4999.5049 2897976
1613.6229 810.41016 5023.5381 2766390
1649.5438 812.60077 5037.1172 2569011
1689.4417 816.63147 5062.1025 2240046
1733.2162 822.35309 5097.5693 2371632
1778.9174 828.76508 5137.3159 2371632
1818.9915 832.37427 5159.6885 2371632
1851.4586 832.43732 5160.0791 2371632
1882.5536 831.89178 5156.6978 2502705
1912.6287 830.92163 5150.6836 2568498
1945.4485 831.15619 5152.1382 2634291
1992.5421 837.3819 5190.7295 2568755
2024.4059 837.10986 5189.0435 2568498
2051.4946 834.9032 5175.3647 2568497
2087.9043 836.49939 5185.2593 2436912
2123.0129 837.53363 5191.6704 2371119
2155.5403 837.53363 5191.6704 2765877
2186.7815 837.0412 5188.6177 2897720
2198.7856 829.30774 5140.6802 2765877
2220.3862 825.36487 5116.2388 2765877
2253.3892 825.71222 5118.3921 2765877
2288.408 826.7782 5124.9995 2765877
2340.2075 833.79346 5168.4858 2897463
2371.8628 833.53802 5166.9023 2963256
2400.9314 832.3927 5159.8027 2897720
2440.5818 834.89771 5175.3306 2963256
2477.9487 836.5661 5185.6729 3029049
2517.4465 838.90143 5200.1489 3094842
2563.0183 843.17523 5226.6411 3094842
2581.6482 838.58978 5198.2168 3029049
2618.198 839.86688 5206.1338 2963256
2653.3342 840.66473 5211.0791 3094842
2679.1208 838.51685 5197.7651 3094842
2697.998 834.28418 5171.5273 3029049
2739.324 837.01111 5188.4312 3029049
2775.3313 838.06805 5194.9829 2897463
2820.6558 841.88147 5218.6211 2766134
2863.7944 844.96246 5237.7197 2897463
2890.6877 843.2348 5227.0103 2963256
2923.4365 843.2348 5227.0103 2963256
2964.6567 845.65112 5241.9888 2831927
3000.063 846.37445 5246.4722 2897463
3044.3645 849.56421 5266.2451 2897463
3078.9497 850.0033 5268.9668 2831670
3120.1135 852.23004 5282.7695 2897463
3158.7549 853.72821 5292.0566 2765877
3149.2139 842.30817 5221.2661 2897463
3165.1572 837.8689 5193.7485 3029049
3197.6975 837.8689 5193.7485 2963256
3270.5264 848.31909 5258.5264 2831927
3276.3047 841.34235 5215.2798 2963256
3282.9614 834.72693 5174.272 2963513
3345.9434 842.422 5221.9722 2831670
3364.2688 838.83362 5199.7285 2766134
3337.1372 824.08875 5108.3281 2897206
3369.1428 824.08875 5108.3281 2765364
3426.2754 830.17694 5146.0679 2699571
3448.5911 827.79431 5131.2988 2699571
3471.1133 825.50488 5117.1069 2831157
3496.3074 823.88684 5107.0771 2831414
3522.0898 822.43567 5098.0815 2896950
3547.8533 821.00604 5089.2197 2897207
3564.2708 817.45856 5067.2295 2502192
3583.2937 814.56592 5049.2988 2304814
3608.3069 813.07367 5040.0488 2436399
3644.283 814.05627 5046.1396 2896950
3654.9971 809.42749 5017.4468 2963000
3698.9526 812.17633 5034.4863 2962743
3721.7051 810.26257 5022.6235 2963000
3753.0237 810.23041 5022.4238 2962743
3787.7817 810.93494 5026.791 2896950
3825.9363 812.34906 5035.5571 2831157
3860.8093 813.04901 5039.896 2831157
3880.9856 810.66772 5025.1348 2765364
3922.3196 812.70862 5037.7856 2765364
3961.0081 814.17316 5046.8643 2699571
3986.5459 812.93286 5039.1758 2896950
4026.9722 814.72418 5050.2798 3028536
4060.1887 815.04034 5052.2397 2896950
4083.5525 813.3891 5042.0039 2633778
4107.3887 811.85651 5032.5039 2633778
4123.3315 808.79907 5013.5518 2699571
4167.6895 811.31934 5029.1738 2567985
4224.1494 816.14001 5059.0562 2699571
4278.4658 820.47784 5085.9453 2699571
4317.6396 821.86908 5094.5693 2633778
4356.3062 823.14398 5102.4722 2699571
4395.6865 824.5343 5111.0903 2567985
4444.5767 827.67535 5130.561 2502192
4490.7769 830.27405 5146.6699 2436399
4534.0337 832.29541 5159.1997 2370606
4552.5054 829.77063 5143.5488 2633778
4584.7314 829.77063 5143.5488 2831157
4653.0259 836.25281 5183.731 2765364
4685.6294 836.27545 5183.8706 2699572
4734.9033 839.25238 5202.3242 2699572
4788.4937 842.94843 5225.2349 2765365
4835.8828 845.51013 5241.1143 2699572
4886.3716 848.57556 5260.1162 2831158
4937.0786 851.63739 5279.0962 2633779
4990.771 855.17029 5300.9951 2633779
5049.4204 859.50006 5327.8345 2765365
5104.7896 863.21832 5350.8833 2699829
5138.3145 863.21832 5350.8833 2699829
5110.3423 852.95398 5287.2568 2765365
5282.4395 875.99988 5430.1133 2765365
5367.7783 884.45551 5482.5273 2765365
5427.4253 888.59735 5508.2017 2831158
5498.9756 894.62317 5545.5547 2831158
5538.228 895.35205 5550.0723 2831158
5603.311 900.22156 5580.2578 2831158
5676.313 906.2951 5617.9062 2831158
5751.8579 912.69727 5657.5918 2765365
5822.0098 918.17059 5691.519 2567986
nan nan nan 16777215
nan nan nan 16777215
nan nan nan 16777215
nan nan nan 16777215
nan nan nan 16777215
nan nan nan 16777215
-3916.2463 699.4726 4174.5913 2634292
-4049.7197 728.17523 4345.8945 2634036
-4027.2932 729.04443 4351.082 2765365
-4008.6128 730.60834 4360.4155 2568754
-3986.3735 731.54053 4365.9795 2634035
-3958.7588 731.49243 4365.6924 2699827
-3922.2056 729.78052 4355.4751 2634034
-3922.8723 735.01837 4386.7358 2765878
-3940.6372 743.5564 4437.6924 2831413
-3912.8337 743.5564 4437.6924 2963000
-3919.5972 750.17218 4477.1768 3028793
-3918.9597 755.4566 4508.7153 3094842
-3913.9146 759.96204 4535.6045 3094842
-3914.991 765.73065 4570.0327 3029049
-3893.2456 767.08771 4578.1318 2897463
-3909.4238 775.99243 4631.2769 2963256
-3880.6038 776.03168 4631.5112 2963256
-3852.2542 776.16626 4632.3145 2963256
-3827.0061 776.93262 4636.8882 3029049
-3786.407 774.57031 4622.7896 2897463
-3743.0796 771.60931 4605.1177 2963256
-3700.1101 768.67651 4587.6143 2963256
-3674.1055 769.24988 4591.0361 2963256
-3643.0742 768.77155 4588.1812 3029049
-3614.4895 768.80585 4588.3862 2963256
-3589.1855 769.54419 4592.7925 2963513
-3546.7622 766.59436 4575.1875 3029049
-3501.9172 763.06866 4554.1455 3029306
-3473.384 763.06866 4554.1455 3029049
-3440.0938 762.01489 4547.8564 3029049
-3406.9402 760.97406 4541.6445 2963256
-3382.5784 761.89606 4547.147 2897463
-3349.5735 760.8703 4541.0249 2897464
-3311.0859 758.57092 4527.3018 2897464
-3237.8127 748.19354 4465.3677 2897721
-3209.1047 748.02313 4464.3506 3226429
-3180.6233 747.90295 4463.6333 3292222
-3149.1516 747.07129 4458.6699 2897978
-3071.7732 735.23694 4388.04 2766135
-2981.916 720.17487 4298.147 2964027
-2938.3081 716.11005 4273.8872 3688264
-2826.856 695.28369 4149.5913 4083022
-2757.1606 684.4364 4084.8525 4412500
-2696.2429 675.58527 4032.0271 4281171
-2665.2083 674.12512 4023.3127 4214864
-2630.3503 671.66083 4008.6052 4083278
-2599.1172 670.0835 3999.1917 3820363
-2545.936 662.76196 3955.4951 3622727
-2533.1343 665.9115 3974.2922 3359298
-2522.2058 669.62085 3996.4304 3096383
-2497.2539 669.64417 3996.5693 2570038
-2484.8206 673.05884 4016.949 2503733
-2510.8953 687.08069 4100.6343 2964283
-2470.1772 682.92639 4075.8403 2832440
-2485.541 694.35217 4144.0317 3029562
-2519.5105 711.27161 4245.0103 3029819
-2544.6279 726.02643 4333.0698 3095355
-2561.4885 738.71826 4408.8174 3358527
-2517.2009 733.85974 4379.8208 3292734
-2501.4231 737.29749 4400.3379 3358527
-2488.5732 741.68451 4426.5205 3358527
-2467.3589 743.64935 4438.2471 3161148
-2455.2273 748.42761 4466.7646 2897976
-2439.9907 752.35876 4490.2266 2963769
-2430.5706 758.19592 4525.064 3029562
-2422.0022 764.43982 4562.3286 3095612
-2393.7375 764.54187 4562.938 3292734
-2355.4048 761.39197 4544.1387 3358527
-2323.3967 760.23438 4537.23 3358527
-2315.6594 767.0882 4578.1348 3226941
-2287.6521 767.31494 4579.4883 3095355
-2261.1243 768.04999 4583.875 3095355
-2232.6252 768.12579 4584.3276 3029819
-2181.4817 760.3114 4537.6895 3029562
-2151.9922 759.93713 4535.4561 3161148
-2128.2747 761.61865 4545.4917 3292734
-2119.0107 768.58807 4587.0864 3161148
-2096.9456 771.04224 4601.7334 3161148
-2065.7627 770.16553 4596.501 3292734
-2014.2889 761.59216 4545.3335 3095612
-1976.9988 758.21252 4525.1631 3161405
-1942.3064 755.7453 4510.438 3095355
-1905.7246 752.45923 4490.8262 3226941
-1870.1737 749.48779 4473.0923 3226941
-1841.6515 749.28564 4471.8857 3292734
-1805.1753 745.79108 4451.0293 3226941
-1768.9598 742.29626 4430.1719 3161148
-1724.2891 735.08557 4387.1367 3161148
-1698.5925 735.86108 4391.7651 3226941
-1682.7177 740.98712 4422.3584 3095355
-1647.6722 737.70184 4402.751 2832183
-1582.5524 720.61023 4300.7451 2569011
-1571.2839 727.87231 4344.0869 2634804
-1544.0668 727.87231 4344.0869 3029306
-1520.0576 729.41168 4353.2739 3292992
-1404.7157 686.37976 4096.4507 4016716
-1356.5677 675.18982 4029.667 4279888
-1318.3733 668.62347 3990.4778 4543059
-1277.8591 660.60406 3942.6162 4674646
-1213.7676 639.8396 3818.6899 2766135
-1210.4697 650.93207 3884.8921 2108462
-1150.6259 631.44806 3768.6074 3489858
-1125.3634 630.52301 3763.0867 4016202
-1080.2191 618.1806 3689.4248 3489858
-1063.509 621.92633 3711.78 3226686
-1061.3958 634.56647 3787.2188 1713190
-1028.3835 628.88885 3753.3337 2371120
-1000.4615 626.13135 3736.8762 3489601
-993.39868 636.60895 3799.4084 3292222
-979.96332 643.41699 3840.0405 3489601
-967.14929 650.98596 3885.2136 2502706
-911.53906 629.39606 3756.3608 1450018
-888.92072 630.04565 3760.2375 2897465
-867.01514 631.24945 3767.4221 3818566
-856.05164 640.71027 3823.8862 4015945
-834.41937 642.50098 3834.5735 4476496
-791.6745 627.65918 3745.9949 2436913
-765.56201 625.5 3733.1084 1779240
-750.21173 632.27502 3773.5432 3818566
-741.99658 645.7002 3853.667 4213324
-703.47675 632.76965 3776.4951 4015945
-671.77472 625.28503 3731.8254 2963257
-652.72668 629.46356 3756.7637 1318432
-635.97278 636.24994 3797.2661 1844776
-623.14679 647.64612 3865.2808 3818823
-606.66229 656.00775 3915.1846 3884874
-576.08997 649.19849 3874.5454 3950412
-533.51965 627.67468 3746.0872 2634294
-509.03815 626.43036 3738.6609 1318947
-495.84399 639.62646 3817.418 3358274
-479.03033 649.25439 3874.8794 3884618
-467.86795 667.97876 3986.6299 3752773
-439.43726 662.77045 3955.5459 2964027
-421.89658 674.34595 4024.6304 2569012
-413.96176 703.7226 4199.9565 2700342
-405.5517 736.22491 4393.9365 2963770
-380.35446 740.76697 4421.0444 3095355
-355.21518 746.14417 4453.1367 3094585
-330.29749 752.94324 4493.7148 2831926
-303.88831 757.29272 4519.6733 2765877
-276.65488 760.27081 4537.4473 2371119
-247.13599 756.93127 4517.5161 2371118
-214.87544 743.24445 4435.8306 2897463
-187.73856 745.84644 4451.3599 3029049
-162.27441 757.16144 4518.8901 2963256
-133.31796 753.52039 4497.1592 3029305
-105.11124 753.3009 4495.8496 3029562
-77.319908 756.98743 4517.8516 2897976
-49.323799 761.76953 4546.3921 2897976
-20.77919 759.5744 4533.291 2897976
7.5950274 756.75897 4516.4878 2503218
36.277946 764.89166 4565.0254 2897976
65.023895 766.59698 4575.2031 2766390
93.170029 762.35083 4549.8613 2700341
120.39376 754.31506 4501.9023 2634805
149.72107 760.00806 4535.8789 2897976
177.4626 757.11902 4518.6367 2832183
205.77327 757.11902 4518.6367 2700598
235.01129 760.11847 4536.5381 2897977
263.28241 759.68079 4533.9258 3029050
290.32669 756.13306 4512.7524 3094842
318.62524 756.19189 4513.1035 3094843
345.04434 752.1441 4488.9453 3160636
371.73352 749.25092 4471.6782 3029050
399.9743 749.67133 4474.1875 2963257
428.00055 749.66095 4474.1255 2963257
456.03235 749.66095 4474.1255 2963257
483.66516 749.04309 4470.438 2766392
510.16818 746.83893 4457.2832 2568756
537.52551 746.04938 4452.5708 2634549
565.52142 746.18018 4453.3516 2700343
589.18921 740.85645 4421.5786 2766137
617.46198 741.5412 4425.6655 2701115
638.9978 734.42419 4383.1895 2701115
664.75031 732.54034 4371.9463 2898496
679.05322 718.68768 4289.271 2898239
712.68671 725.5697 4330.3442 2832446
742.04999 727.75903 4343.4106 2766653
769.992 728.44891 4347.5278 2701117
800.50012 731.43634 4365.3574 2963518
831.0686 734.27966 4382.3271 2766139
864.75354 739.60669 4414.1196 2700603
900.85858 746.60919 4455.9121 2897724
927.60052 745.664 4450.271 2963516
957.83435 747.49915 4461.2236 2897723
986.11615 747.75 4462.7207 2700344
1018.3369 750.89154 4481.4697 2634549
1048.3705 752.29498 4489.8462 2634806
1078.2505 753.51776 4497.1436 2700342
1117.1036 760.78925 4540.5415 2568756
1145.7533 760.92328 4541.3413 2634804
1178.1646 763.48834 4556.6504 2700597
1208.4126 764.56354 4563.0669 2832183
1238.9564 765.77173 4570.2778 2766647
1270.8698 767.75269 4582.1006 2832183
1281.0431 756.8028 4516.7495 2700597
1333.2803 770.63916 4599.3276 2503475
1377.1565 779.15973 4650.1802 2634804
1408.4901 780.37799 4657.4512 2700597
1445.1647 784.44592 4681.729 2832440
1493.3171 794.45825 4741.4849 3095355
1523.0239 794.45825 4741.4849 3095355
1553.8649 795.03845 4744.9478 3226941
1583.8564 795.17053 4745.7358 3095355
1614.5709 795.65399 4748.6211 2766647
1653.9896 800.33167 4776.5386 2700597
1692.1232 804.23236 4799.8184 2700597
1719.9537 803.18555 4793.5708 2634804
1746.7052 801.67932 4784.5815 2700084
1777.3324 801.97272 4786.3325 2634548
1818.5743 806.96655 4816.1367 2700084
1848.7489 806.96655 4816.1367 2765877
1881.874 808.23376 4823.6997 2766134
1916.0258 809.89484 4833.6133 2634548
1959.084 815.21033 4865.3374 2700084
2007.9365 822.73724 4910.2593 2765877
2065.6003 833.59277 4975.0474 2765877
2099.9272 834.84778 4982.5376 2831670
2078.2339 814.12079 4858.8345 2766134
2067.4573 798.20697 4763.8579 2831670
2097.9602 798.4566 4765.3477 2765877
2153.7341 808.18207 4823.3911 2700084
2193.5056 811.71667 4844.4863 2568498
2220.5154 810.49664 4837.2051 2502705
2263.4517 815.04443 4864.3472 2502962
2293.9282 815.04443 4864.3472 2634291
2313.8442 811.34137 4842.2466 2831670
2364.7173 818.44861 4884.6641 2897463
2412.1001 824.18182 4918.8809 2897720
2436.8066 822.11975 4906.5742 2963256
2457.3899 818.73547 4886.376 2897463
2488.8423 819.01117 4888.0215 2963256
2518.177 818.59174 4885.5181 2765877
2529.946 812.54089 4849.4053 2700084
2568.8518 815.24554 4865.5474 2831670
2608.5322 818.12988 4882.7617 2897463
2622.9495 813.11566 4852.8359 2897463
2666.6467 817.18915 4877.1475 2831670
2695.4634 816.66199 4874.001 2436912
2726.0005 816.66199 4874.001 2502705
2756.7173 816.71515 4874.3184 2765877
2794.8765 818.948 4887.6445 2634291
2830.5505 820.41211 4896.3828 2765877
2866.9612 822.05609 4906.1938 2831670
2897.7 822.05609 4906.1938 2831670
2950.9854 828.38513 4943.9673 2765877
2940.9155 816.98291 4875.916 2831670
2964.7581 815.13898 4864.9111 2766134
2997.8545 815.85095 4869.1606 2766134
3066.3506 826.08533 4930.2417 2831670
3057.5759 815.50629 4867.1035 2831670
3074.7725 811.99469 4846.1455 2765877
3125.323 817.27374 4877.6523 2765877
3161.8523 818.81964 4886.8784 2765877
3168.2092 812.59717 4849.7412 2831413
3201.5513 813.34839 4854.2246 2765364
3260.1125 820.43201 4896.5015 2831157
3254.1333 811.29291 4841.9575 2765364
3267.0515 806.99048 4816.2793 2765364
3282.9546 803.49731 4795.4316 2765364
3297.4751 799.73224 4772.9609 2831157
3312.8188 796.23267 4752.0747 2896950
3343.5012 796.44922 4753.3672 2896950
3371.2952 795.98004 4750.5669 2962743
3389.2058 793.20587 4734.0103 3028536
3408.5354 790.80914 4719.7061 3094329
3426.95 788.24316 4704.3916 3094329
3452.9502 787.45081 4699.6631 3028793
3490.2888 789.23578 4710.3159 3094329
3496.9583 784.11401 4679.748 3094329
3525.9531 784.04163 4679.3164 3094329
3595.3604 792.88263 4732.0811 3094329
3627.2358 793.36993 4734.9893 3028536
3652.1863 792.3468 4728.8833 3094329
3684.5886 792.94379 4732.4463 3028536
3703.9702 790.75165 4719.3628 2962743
3719.3755 787.75201 4701.4604 3094329
3763.3208 790.79663 4719.6313 3028536
3786.594 789.48383 4711.7964 3028536
3839.3484 794.29041 4740.4829 3094329
3854.6262 791.32947 4722.8115 2963000
3871.3679 788.71191 4707.1895 3094329
3920.4199 792.66669 4730.7925 3160122
3972.4949 797.16888 4757.6621 3028536
4014.2039 799.53918 4771.8086 2765364
4053.2131 801.34082 4782.561 2633778
4094.9602 803.6532 4796.3618 2699571
4100.8066 798.93768 4768.2188 2897207
4170.2407 806.58917 4813.8843 2962743
4218.3076 810.02759 4834.4058 3028536
4248.5967 810.02759 4834.4058 2963000
4251.4517 804.83405 4803.4097 2896950
4325.418 813.08099 4852.6289 2831157
4361.8179 814.20038 4859.3096 2765621
4392.2632 814.20038 4859.3096 2633779
4428.5508 815.27588 4865.7285 2634036
4463.8018 816.14728 4870.9292 2633779
4501.1929 817.39551 4878.3784 2699572
4566.4297 823.64923 4915.7026 2699572
4610.0142 825.94006 4929.3745 2633779
4666.9434 830.57532 4957.0386 2567986
4746.2983 839.11395 5007.999 2831158
4772.8647 838.2691 5002.957 2896951
4809.0684 839.11688 5008.0166 2831415
4857.3555 842.04846 5025.5122 2896951
4925.2993 848.32776 5062.9888 2831158
5000.0444 855.69073 5106.9326 2831158
5049.4873 858.65753 5124.6387 2765365
5128.2485 866.54077 5171.6875 2765365
5163.3164 866.9884 5174.3589 2831158
5207.8569 869.01099 5186.4307 2831158
5264.3857 872.99658 5210.2173 2831158
5305.7593 874.43542 5218.8042 2765622
5373.9185 880.24402 5253.4712 2765365
nan nan nan 16777215
nan nan nan 16777215
nan nan nan 16777215
nan nan nan 16777215
nan nan nan 16777215
nan nan nan 16777215
-3733.9734 691.72296 3980.2942 2831158
-3883.8567 724.3266 4167.9009 2831158
-3864.2734 725.55261 4174.9556 2831158
-3838.1157 725.55261 4174.9556 2896693
-3795.9497 722.50555 4157.4224 2962743
-3771.5847 722.828 4159.2778 2831157
-3762.4324 726.09076 4178.0522 2896694
-3736.2554 726.09076 4178.0522 3028536
-3733.8862 730.75012 4204.8628 3028793
-3716.3411 732.4845 4214.8428 3028792
-3715.8794 737.63495 4244.4795 3225658
-3721.0354 743.98279 4281.0059 3160635
-3714.5981 748.08807 4304.6284 3423807
-3610.1479 732.37006 4214.1846 3094842
-3638.072 743.47229 4278.0688 2831670
-3617.3125 744.71661 4285.2285 2897463
-3651.2188 757.31799 4357.7393 2897463
-3626.0205 757.75775 4360.2695 2831670
-3603.7986 758.83093 4366.4448 2897463
-3547.7566 752.74475 4331.4238 2897463
-3489.9167 746.1803 4293.6509 2766134
-3463.0159 746.1803 4293.6509 2831670
-3438.4822 746.69446 4296.6094 2831670
-3392.0198 742.41705 4271.9966 2831670
-3343.1946 737.55035 4243.9927 2831670
-3316.6045 737.55035 4243.9927 2765877
-3294.6289 738.58484 4249.9453 2963256
-3268.6125 738.72284 4250.7393 2897463
-3234.3 736.97278 4240.6694 2831670
-3209.1921 737.30853 4242.6011 2831927
-3198.387 740.96332 4263.6313 2831927
-3171.9575 741.02954 4264.0127 2897463
-3136.3333 738.93054 4251.9346 2963257
-3106.3953 738.14679 4247.4248 2963257
-3068.9663 735.55414 4232.5063 2897721
-3022.2927 730.68127 4204.4668 2963514
-2991.4121 729.5744 4198.0977 2766392
-2944.4988 724.50299 4168.916 2766135
-2904.748 721.11896 4149.4438 2765878
-2878.7507 721.11896 4149.4438 2569269
-2792.0615 705.7774 4061.1655 2240304
-2717.0396 693.12994 3988.3901 1779753
-2718.1128 699.84015 4027.0015 1845289
-2688.1357 698.60663 4019.9036 1977130
-2655.4656 696.64307 4008.6052 1911336
-2628.1521 696.06085 4005.2551 2042666
-2602.8679 696.01001 4004.9626 2239531
-2575.4998 695.39557 4001.427 2305324
-2533.1343 690.67993 3974.2922 2305066
-2506.2041 690.12091 3971.0754 2305323
-2469.4175 686.80939 3952.0205 2370860
-2474.1194 695.08667 3999.6492 2370860
-2461.5935 698.6438 4020.1177 2436909
-2439.4507 699.51685 4025.1414 2963254
-2411.8682 698.83191 4021.2002 3358269
-2450.896 717.63647 4129.4048 3424320
-2444.0586 723.26935 4161.8174 3358527
-2426.0374 725.67841 4175.6797 3358527
-2400.7009 725.9281 4177.1162 3490113
-2357.3459 720.67456 4146.8867 3490113
-2331.3643 720.67456 4146.8867 3292734
-2332.0505 729.01105 4194.856 3161148
-2312.947 731.2807 4207.916 3161148
-2306.2437 737.56842 4244.0967 3161148
-2285.8994 739.58942 4255.7256 2897976
-2278.2981 745.82959 4291.6328 2832183
-2255.7588 747.27032 4299.9233 3029562
-2238.6831 750.57776 4318.9546 3161405
-2217.9954 752.74023 4331.3979 3161148
-2195.3455 754.2821 4340.27 3161148
-2173.1646 756.02582 4350.3037 3095355
-2147.3831 756.54529 4353.293 3095355
-2118.6304 756.01788 4350.2583 3095355
-2083.4348 753.14771 4333.7427 3095355
-2058.4226 753.93152 4338.2529 3161148
-2040.1105 757.22314 4357.1934 3161148
-2016.6584 758.67047 4365.5215 3095355
-1993.3738 760.22137 4374.4458 3161148
-1957.0231 756.76306 4354.5459 3161148
-1909.3568 748.76947 4308.5493 3095355
-1869.9901 743.8479 4280.23 3095355
-1842.2455 743.47357 4278.0762 3161148
-1801.7281 737.85736 4245.7593 3292734
-1761.3256 732.12054 4212.7485 3226941
-1741.2845 734.80151 4228.1753 3226941
-1712.926 734.00116 4223.5698 3292734
-1673.5957 728.40045 4191.3428 3358527
-1642.3007 726.17419 4178.5322 3555906
-1616.1208 726.17419 4178.5322 3161148
-1588.2208 725.38849 4174.0112 3095355
-1540.2246 715.24426 4115.6396 2766390
-1513.4899 714.79614 4113.061 2503218
-1454.8979 699.02618 4022.3179 2569011
-1432.8373 700.56158 4031.1531 3226685
-1391.3898 692.50323 3984.7837 3950408
-1325.9323 671.98206 3866.7014 4081995
-1278.5101 660.00751 3797.7979 4148045
-1249.7373 657.38873 3782.729 3687494
-1219.0992 653.66864 3761.3228 1911083
-1192.7018 652.12048 3752.4143 2766135
-1169.1919 652.12048 3752.4143 3818566
-1140.9675 649.43707 3736.9736 3621444
-1113.8638 647.29248 3724.6335 3423808
-1079.5175 640.7572 3687.0283 2634292
-1061.0735 643.58148 3703.2795 1318432
-1054.5029 653.89478 3762.6238 1910569
-1023.4214 649.13281 3735.2231 2897464
-995.45862 646.17255 3718.1892 2963257
-978.73749 650.54254 3743.3345 2963257
-964.84045 657.05017 3780.7808 2502706
-931.11169 650.04022 3740.4441 1450275
-903.35535 646.94537 3722.6362 1845033
-880.28314 647.13019 3723.6992 3423808
-861.83588 650.81744 3744.9167 3292222
-830.48322 644.69293 3709.675 3489858
-802.15912 640.63434 3686.3213 3029050
-779.06317 640.63434 3686.3213 1581604
-758.1073 642.44794 3696.7568 2107691
-734.33466 641.91351 3693.6819 2700085
-712.94037 643.49109 3702.7593 2305327
-693.99286 647.4574 3725.5823 2765877
-665.75739 642.73315 3698.3979 1976106
-642.91541 643.06287 3700.2954 1778727
-621.82599 645.23572 3712.7983 2107180
-604.00983 651.10608 3746.5771 2172716
-579.21979 649.62946 3738.0806 1975850
-555.79956 649.62946 3738.0806 2041386
-529.4895 646.10321 3717.7898 1844263
-510.85596 652.05054 3752.0122 1975849
-493.05096 659.68036 3795.915 1975592
-472.38675 664.06396 3821.1394 1843750
-453.87222 672.099 3867.3743 1647397
-433.15643 677.5968 3899.0098 1844519
-414.82907 687.71136 3957.2107 1976874
-396.84427 699.71594 4026.2869 2502705
-379.0452 713.69989 4106.7529 2569011
-353.4205 713.91278 4107.978 2569011
-333.24243 726.02545 4177.6763 2700853
-312.24481 738.26544 4248.1074 2634549
-289.44785 748.13574 4304.9028 2568756
-264.66803 754.38281 4340.8496 2634549
-236.78989 752.21826 4328.3945 2634549
-208.65051 748.55664 4307.3247 2700342
-181.03915 745.98279 4292.5146 2831928
-154.40044 747.2179 4299.6216 2766390
-126.59086 742.11121 4270.2368 2766391
-99.66243 740.8172 4262.791 2898233
-73.588875 747.25677 4299.8452 2897976
-46.90686 751.38721 4323.6123 2832183
-19.876383 753.59741 4336.3301 2832183
7.3068972 755.1297 4345.1475 2963769
34.590874 756.448 4352.7329 3029818
61.749569 755.07202 4344.8154 2831672
88.513115 751.18445 4322.4458 2766136
115.48666 750.48322 4318.4106 2700342
142.1658 748.49805 4306.9878 2766135
169.15042 748.49805 4306.9878 3029307
197.22536 752.659 4330.9307 2832185
224.19632 752.10999 4327.7715 2700599
249.70369 747.29932 4300.0898 2897464
276.01083 745.58594 4290.231 3094842
300.62994 740.02155 4258.2124 3226429
326.60138 738.42175 4249.0068 2897463
351.60226 735.03418 4229.5142 2897463
377.65845 734.17285 4224.5581 2897463
404.12659 734.17285 4224.5581 2897463
431.43576 735.60681 4232.8091 2831927
458.41354 736.34235 4237.0415 2700342
485.57309 737.27325 4242.3984 2700342
511.44006 736.24695 4236.4927 2568757
535.98688 733.51514 4220.7734 2634550
556.38672 725.63184 4175.4116 2700344
585.19183 728.92633 4194.3687 2766137
604.87354 721.06183 4149.1147 2635064
630.72321 720.89514 4148.1558 2898237
651.68713 715.37842 4116.4116 2897981
678.08765 716.02246 4120.1177 2766651
705.8877 718.04291 4131.7437 2897981
733.28766 719.52783 4140.2881 2897725
761.66754 721.83997 4153.5923 2897724
792.71881 726.44733 4180.104 2831931
823.86127 730.84094 4205.3857 2963517
853.52606 733.69196 4221.791 2963004
883.93964 736.99597 4240.8027 2831930
916.6557 741.97083 4269.4292 3029308
948.81055 746.22223 4293.8921 2634550
962.45813 736.0849 4235.5601 2634548
988.99524 736.0849 4235.5601 2634549
1018.3584 738.1333 4247.3472 2634549
1056.9113 746.56866 4295.8857 2568756
1086.1964 748.20123 4305.2798 2700853
1114.0671 748.80408 4308.7485 2569011
1147.641 753.12091 4333.5884 2700597
1179.7092 756.27301 4351.7261 2569268
1206.9741 756.27301 4351.7261 2569011
1238.4155 758.83209 4366.4517 2766390
1273.5671 763.50482 4393.3394 2371632
1302.5197 764.34222 4398.1577 2437425
1350.2843 775.95538 4464.9819 2371632
1381.2743 777.65308 4474.751 2240046
1409.3099 777.65308 4474.751 2240046
1436.662 777.2832 4472.6226 2305839
1478.3556 784.53833 4514.3696 2437425
1504.3217 783.33142 4507.4248 2569011
1536.1067 785.14307 4517.8496 2700854
1562.8921 784.38007 4513.459 2569268
1589.4209 783.51764 4508.4966 2503218
1626.1699 787.63562 4532.1919 2437425
1663.4091 791.8454 4556.416 2502962
1691.5214 791.64185 4555.2446 2634291
1722.9089 792.95239 4562.7856 2568498
1755.6418 794.82928 4573.5854 2700084
1792.031 798.27454 4593.4102 2700084
1818.947 797.4577 4588.71 2634291
1840.8336 794.49573 4571.666 2700084
1845.0635 784.12048 4511.9653 2765877
1882.5004 787.95795 4534.0469 2700084
1920.6511 791.97565 4557.1655 2634291
1951.0137 792.7113 4561.3984 2634291
1968.4125 788.23444 4535.6377 2634291
1996.8295 788.23444 4535.6377 2568498
2040.7953 794.28601 4570.4595 2634291
2072.5813 795.4953 4577.418 2568498
2101.2349 795.48566 4577.3623 2568498
2120.4863 791.96478 4557.103 2436912
2148.0723 791.60895 4555.0552 2568498
2177.1794 791.81555 4556.2441 2634291
2211.3059 793.81879 4567.771 2700341
2243.2551 794.99915 4574.563 2765877
2269.1104 794.01733 4568.9136 2963256
2300.2046 794.87042 4573.8223 2963256
2328.4736 794.7381 4573.061 2963256
2357.1252 794.7381 4573.061 3029306
2381.1582 793.19965 4564.2085 3029049
2402.6514 790.86151 4550.7544 2765877
2434.2161 791.85468 4556.4692 2700084
2475.7026 796.01489 4580.4077 2897463
2504.7764 796.1344 4581.0957 2700341
2523.0964 792.87195 4562.3228 2568755
2561.5691 795.94452 4580.0029 2700084
2596.2449 797.78229 4590.5776 2568498
2625.0063 797.78229 4590.5776 2436912
2635.6345 792.33099 4559.21 2634291
2670.5723 794.22638 4570.1162 3094842
2699.2056 794.22638 4570.1162 3029049
2739.2222 797.54071 4589.1875 2700084
2738.4373 789.02997 4540.2153 2831670
2760.4604 787.19843 4529.6763 2765877
2792.3938 788.20142 4535.4478 2765877
2834.4109 792.00189 4557.3164 2765877
2850.9802 788.68677 4538.2407 2831927
2873.1118 786.96075 4528.3086 2831670
2906.7561 788.39093 4536.5381 2831670
2944.8503 790.98865 4551.4858 2831670
2971.9575 790.61377 4549.3286 2831157
3001.7256 790.94708 4551.2466 2896950
3035.208 792.24365 4558.7075 2896950
3040.0464 786.10919 4523.4087 2896950
3067.4854 785.87823 4522.0796 2765364
3087.0764 783.6593 4509.3115 2962743
3109.2239 782.12354 4500.4746 2962743
3114.3318 776.3678 4467.355 2831157
3134.239 774.37091 4455.8647 2831414
3161.2568 774.15063 4454.5972 2896950
3200.928 777.00574 4471.0259 3028793
3205.6716 771.40637 4438.8062 3094329
3228.2681 770.16248 4431.6484 3094329
3260.4089 771.19733 4437.6035 3028536
3288.9976 771.38171 4438.6641 2962743
3315.6213 771.10583 4437.0767 2831157
3344.5483 771.36584 4438.5728 3028536
3382.009 773.57349 4451.2759 3028536
3415.8582 774.92566 4459.0566 3028536
3448.2759 775.9339 4464.8584 3028536
3475.1943 775.69836 4463.5029 3094586
3483.8945 771.4325 4438.9565 3094329
3520.3247 773.32581 4449.8511 3094329
3543.7412 772.35315 4444.2539 3094329
3579.2412 774.00861 4453.7798 3094329
3607.1458 774.00861 4453.7798 3094329
3633.7561 773.73303 4452.1943 3160122
3670.2422 775.54858 4462.6411 3094329
3705.3572 777.04913 4471.2754 3160122
3731.6262 776.68591 4469.1855 3225915
3739.7632 772.58228 4445.5728 3291708
3776.0806 774.31793 4455.5601 3225915
3841.446 781.9411 4499.4248 3028536
3874.4832 782.92053 4505.0605 2896950
3919.9414 786.3775 4524.9526 2962743
3970.0376 790.70868 4549.875 2896950
4017.6069 794.47839 4571.5664 2831157
4046.2493 794.47839 4571.5664 2896950
4077.3503 794.9577 4574.3247 2831157
4078.677 789.66589 4543.8745 2831414
4107.7686 789.78558 4544.5635 2699571
4158.561 794.04736 4569.0864 2699572
4198.8999 796.26843 4581.8667 2699572
4219.4385 794.72992 4573.0137 2699572
4281.6973 801.01715 4609.1919 2699572
4339.9473 806.47516 4640.5981 2699572
4391.584 810.63995 4664.563 2831158
4445.8462 815.23108 4690.981 2831158
4480.5312 816.19543 4696.5303 2765365
4511.332 816.44452 4697.9634 2765365
4545.0308 817.21112 4702.375 2633779
4592.0566 820.34894 4720.4302 2765365
4651.269 825.60968 4750.7012 2765622
4712.9141 831.23254 4783.0562 2765365
4735.1777 829.88239 4775.2871 2765365
4801.2583 836.1803 4811.5264 2633779
4868.21 842.55035 4848.1807 2568243
4918.5986 845.99261 4867.9883 2633779
4960.9321 848.01556 4879.6284 2567986
5019.791 852.82123 4907.2812 2633779
nan nan nan 16777215
nan nan nan 16777215
nan nan nan 16777215
nan nan nan 16777215
nan nan nan 16777215
nan nan nan 16777215
nan nan nan 16777215
-3712.887 717.27289 3984.4275 3028281
-3702.7798 720.16235 4000.4783 3028794
-3674.4736 719.52753 3996.9519 2963256
-3651.2375 719.88361 3998.9297 2963512
-3629.0532 720.45337 4002.095 3029049
-3610.5369 721.76447 4009.3777 3028792
-3572.4421 719.15259 3994.8689 3029049
-3551.1497 719.90997 3999.0764 3029049
-3536.1887 721.97101 4010.5254 3029049
-3531.8384 726.24329 4034.2576 2897463
-3524.9941 730.06067 4055.4631 2765877
-3499.5857 730.06067 4055.4631 2765877
-3477.7046 730.80194 4059.5808 2765877
-3454.2703 731.22546 4061.9333 2700084
-3433.126 732.14349 4067.0332 2700084
-3407.0374 732.013 4066.3081 2765877
-3394.1201 734.73169 4081.4106 2700084
-3373.3643 735.7821 4087.2454 2831670
-3336.3979 733.28564 4073.3777 2831670
-3282.6614 727.0365 4038.6641 2831670
-3257.3579 727.0365 4038.6641 2897463
-3228.2249 726.17511 4033.8789 2765877
-3156.3926 715.61926 3975.2417 2897463
-3110.0452 710.71942 3948.0232 2831670
-3091.8857 712.23425 3956.438 3029049
-3101.0605 720.12115 4000.2493 3160635
-3083.5637 721.8924 4010.0886 3029049
-3052.6917 720.53577 4002.5527 3029049
-3022.0264 719.20587 3995.165 2897463
-2999.4998 719.80688 3998.5034 2897463
-2975.959 720.17255 4000.5349 2897463
-2950.3015 720.02783 3999.7312 3029050
-2911.5059 716.64679 3980.9495 3094843
-2901.6101 720.38226 4001.7 2897464
-2866.1052 717.76953 3987.1863 2897464
-2841.1243 717.76953 3987.1863 2766135
-2828.6377 720.95404 4004.8762 2766136
-2798.7402 719.71826 3998.0112 2766391
-2765.5967 717.61774 3986.3433 2766391
-2714.6614 710.82037 3948.584 2569011
-2678.0435 707.68146 3931.1472 2503218
-2642.8203 704.85608 3915.4526 2766646
-2589.0723 696.99084 3871.7615 2831927
-2567.7927 697.80023 3876.2573 2568755
-2564.5801 703.58154 3908.3726 2634546
-2542.3748 704.21362 3911.8835 2766133
-2500.8115 699.44379 3885.3875 2831926
-2475.2891 699.11078 3883.5374 2963512
-2425.7258 691.9137 3843.5579 3095098
-2443.1421 703.86908 3909.9697 3029562
-2427.4517 706.43201 3924.2065 3226941
-2400.8442 705.83777 3920.9058 3161148
-2369.9062 703.94501 3910.3914 3161148
-2365.8225 710.07263 3944.4304 3226941
-2345.573 711.42639 3951.9504 3161148
-2339.3354 717.10443 3983.4917 3226941
-2342.7939 725.90918 4032.4016 3292734
-2332.0254 730.44952 4057.6233 3424320
-2290.2598 725.27405 4028.8735 3424577
-2273.342 727.93958 4043.6804 3095355
-2251.7991 729.16742 4050.5012 3029562
-2226.7129 729.26288 4051.0315 3161148
-2217.5039 734.62036 4080.792 3095355
-2189.5261 733.81262 4076.3049 3029562
-2170.0527 735.86951 4087.7312 2897976
-2147.915 737.0614 4094.3521 2832183
-2123.2322 737.39807 4096.2222 2897976
-2099.1848 737.96643 4099.3794 2898233
-2077.8257 739.50568 4107.9297 3029562
-2059.1328 742.04425 4122.0317 3161148
-2040.8619 744.80139 4137.3472 3095355
-2018.9331 746.2774 4145.5464 3161148
-1979.0858 741.08203 4116.6865 3292734
-1951.3821 740.35687 4112.6582 3226941
-1934.5376 743.78741 4131.7148 3161148
-1911.2975 744.81866 4137.4434 3161148
-1890.4443 746.82129 4148.5679 3161148
-1861.2977 745.55774 4141.5488 3095355
-1826.5398 741.979 4121.6689 3029562
-1797.4221 740.62164 4114.1289 3029562
-1766.4497 738.44946 4102.0625 3029562
-1740.4915 738.34021 4101.4556 2832183
-1710.0222 736.2854 4090.041 3029562
-1678.3848 733.65729 4075.4424 3161148
-1646.7395 730.94464 4060.3735 3292734
-1618.4326 729.65192 4053.1926 3226941
-1583.1947 725.14343 4028.1479 3161148
-1550.0715 721.47314 4007.7595 3226941
-1526.6832 722.28766 4012.2842 2963769
-1479.3097 711.59174 3952.8689 2832183
-1442.1301 705.51868 3919.1333 2700597
-1430.1384 711.77124 3953.8657 2437682
-1386.5284 702.23053 3900.8677 1977131
-1324.2754 682.7359 3792.5754 1713190
-1295.9077 680.31787 3779.1436 1515811
-1271.476 679.91455 3776.9031 1384482
-1244.8136 678.28046 3767.8257 1516324
-1211.0765 672.65387 3736.5701 2042667
-1190.098 674.03137 3744.2222 1647655
-1159.4822 669.89636 3721.2522 1120541
-1129.4493 665.93524 3699.2485 726040
-1110.1689 668.28088 3712.2786 726039
-1074.2434 660.49268 3669.0151 1449762
-1061.5315 666.94867 3704.8782 1844264
-1054.3955 677.27496 3762.2405 1515299
-1019.8438 670.06085 3722.166 791575
-990.26886 665.85541 3698.8049 594196
-966.75421 665.62097 3697.5027 725525
-939.50684 662.74188 3681.5095 1844006
-931.11169 673.35126 3740.4441 1910056
-903.79645 670.47272 3724.4541 1712420
-880.46161 670.47272 3724.4541 857111
-854.30334 668.26422 3712.1858 725526
-825.88434 664.1142 3689.1326 856342
-798.61737 660.6781 3670.0454 1316636
-775.271 660.37787 3668.3777 1909029
-752.28748 660.37787 3668.3777 1777443
-726.58099 657.91229 3654.6812 1119512
-702.34479 656.66089 3647.7297 856340
-675.16742 652.48291 3624.5212 1119513
-652.45868 652.48291 3624.5212 1711906
-638.59174 661.64398 3675.4104 2237993
-618.04309 664.30841 3690.2114 1909028
-591.41437 660.39087 3668.4495 1185305
-572.64124 665.2829 3695.6248 1250843
-549.74762 665.59845 3697.3777 1579808
-524.56726 663.05133 3683.2283 2106153
-504.2121 666.64948 3703.2158 2172715
-489.86511 678.92163 3771.3875 1711908
-461.03867 671.35315 3729.3447 1053978
-440.60883 675.85614 3754.3589 1055003
-423.88065 686.86536 3815.5146 1515298
-406.03342 697.26886 3873.3057 2239021
-387.62186 707.96429 3932.7185 2897464
-367.56216 716.89716 3982.3403 2963514
-345.52151 722.98602 4016.1638 2831928
-322.4664 727.74213 4042.5835 2963514
-299.1911 732.76953 4070.511 2831929
-274.66077 735.37384 4084.9775 2897721
-249.63655 737.05511 4094.3169 3095100
-224.49455 738.73389 4103.6426 3029051
-199.12906 740.01636 4110.7666 2963515
-173.50302 740.56775 4113.8296 2963769
-147.65028 740.17511 4111.6484 2897976
-121.66711 738.82452 4104.146 3358527
-95.901482 738.42499 4101.9268 3095612
-70.127449 737.64459 4097.5918 2963769
-44.722603 742.08893 4122.2798 2832183
-18.953466 744.37561 4134.9819 2963769
7.0242496 751.95166 4177.0669 3029562
32.56842 737.76093 4098.2378 2897976
58.7995 744.78265 4137.2432 2700342
84.677109 744.40021 4135.1187 2700342
110.39573 743.12665 4128.0444 2700599
136.19809 742.79333 4126.1929 2766392
160.30322 734.7868 4081.7166 2963514
185.51633 733.36328 4073.8088 2963514
213.73868 742.74109 4125.9023 2897721
239.08823 741.18945 4117.2832 2897721
264.05856 738.87903 4104.4487 3095101
287.66418 733.49878 4074.5615 3095355
313.58649 734.42126 4079.686 2897975
338.62189 733.28418 4073.3696 2832183
363.97562 732.94745 4071.4993 2832183
389.30392 732.60706 4069.6084 2832183
411.5137 726.80066 4037.3538 2963513
437.36523 727.72626 4042.4956 2832440
462.72385 727.77515 4042.7671 2700854
489.57465 730.04425 4055.3718 2832183
506.25476 717.6712 3986.6401 2437426
531.2323 717.6712 3986.6401 2371378
555.06989 716.20032 3978.4695 2831929
582.73022 719.57642 3997.2234 2897721
606.00226 717.47864 3985.5703 2897723
630.09698 716.48248 3980.0366 2897723
655.05005 716.50098 3980.1394 2766137
680.88855 717.45105 3985.417 2766394
706.14008 717.7373 3987.0071 2766137
735.89062 722.42072 4013.0234 2569015
764.04437 725.27887 4028.9004 2568759
795.7594 731.22662 4061.9399 2963517
821.43573 731.42877 4063.0627 3094589
849.92371 734.04712 4077.6077 2963773
874.43481 733.17816 4072.7808 3029309
899.95209 733.17816 4072.7808 2766137
926.70728 734.159 4078.229 2766136
952.1853 734.10236 4077.9146 2766135
978.74451 734.86053 4082.1262 2766135
1012.8608 741.10962 4116.8398 2700342
1034.0222 737.80469 4098.481 2635060
1054.6202 734.26764 4078.8325 2634804
1093.9695 743.64435 4130.9199 2569011
1115.1504 740.52289 4113.5806 2766390
1144.2147 742.65924 4125.4478 2897976
1170.0619 742.65924 4125.4478 2897976
1201.4196 746.08124 4144.457 2766390
1242.0665 755.005 4194.0283 2306096
1274.4421 758.63544 4214.1948 2305839
1304.4642 760.74585 4225.9185 2437425
1334.6016 762.83826 4237.5415 2569011
1357.8804 761.00531 4227.3594 2634804
1376.2494 756.5434 4202.5737 2634804
1396.4559 753.24023 4184.2246 2305839
1423.1796 753.50928 4185.7192 2437425
1461.0952 759.58704 4219.481 2174253
1487.4001 759.51996 4219.1084 1845288
1516.5923 760.90375 4226.7954 2174253
1557.9789 768.25323 4267.6216 2305326
1589.2144 770.43353 4279.7329 2436912
1622.6611 773.59583 4297.2993 2502705
1657.8901 777.49054 4318.9346 2502705
1686.475 778.19446 4322.8447 2502705
1703.5294 773.63959 4297.5425 2568498
1723.3524 770.46429 4279.9038 2502705
1743.5056 767.53168 4263.6133 2700084
1770.2185 767.53168 4263.6133 2700084
1805.411 771.15356 4283.7329 2568498
1811.6193 762.47064 4235.4995 2502705
1838.7808 762.7298 4236.939 2634548
1876.4888 767.29395 4262.293 2700341
1897.5453 765.01697 4249.644 2700084
1943.5139 772.70746 4292.3647 2700084
1967.3103 771.49316 4285.6191 2897463
1991.5461 770.48151 4279.9995 2700084
2023.2875 772.36182 4290.4448 2634548
2052.2009 773.12756 4294.6982 2700341
2089.0349 776.81873 4315.2026 2765877
2126.7285 780.73114 4336.936 2765877
2130.7017 772.32208 4290.2236 2963256
2152.4949 770.50134 4280.1099 3029049
2179.676 770.63049 4280.8271 2963256
2208.1221 771.19806 4283.98 3029049
2230.4409 769.63788 4275.313 2963513
2266.8315 772.91266 4293.5044 2897463
2292.405 772.46558 4291.021 2765877
2319.2896 772.46558 4291.021 2765877
2356.6328 775.90906 4310.1494 2897463
2370.5698 771.65552 4286.521 3029049
2412.5867 776.5351 4313.627 2963513
2439.6128 776.5351 4313.627 2897720
2468.9163 777.25201 4317.6094 3029049
2504.8894 780.03033 4333.043 3094842
2536.1592 781.30011 4340.0967 3160892
2529.1792 770.88464 4282.2388 3094842
2577.7822 777.45142 4318.7173 3160635
2561.7495 764.59039 4247.2744 3029049
2589.9705 765.0661 4249.917 3095099
2616.5974 765.0661 4249.917 3094842
2657.5984 769.22656 4273.0283 3029049
2672.5874 765.85004 4254.272 2963256
2697.7312 765.42145 4251.8911 2963256
2734.3618 768.22858 4267.4844 2963256
2772.8235 771.49072 4285.6055 2897463
2791.8792 769.34265 4273.6733 2963256
2815.3979 768.45361 4268.7349 3028536
2834.0498 766.2655 4256.5796 3028793
2852.6409 764.10181 4244.5605 2962743
2851.0342 756.61792 4202.9878 2962743
2886.4731 759.01239 4216.2891 2962743
2912.8958 759.01404 4216.2979 3028536
2938.2007 758.72699 4214.7036 3160379
2940.7207 752.61371 4180.7446 3028536
2960.1504 750.89795 4171.2134 3028793
3005.4392 755.71442 4197.9688 2896950
3034.3564 756.36646 4201.5908 2831157
3051.2224 754.02911 4188.6069 2699571
3081.2742 754.96234 4193.791 2831157
3107.7085 755.00092 4194.0054 2962743
3133.9854 755.00092 4194.0054 2831414
3136.9556 749.43292 4163.0752 3028536
3165.4885 750.01343 4166.2998 2896950
3218.7383 756.3927 4201.7368 2896950
3252.6082 758.15137 4211.5059 2963000
3274.6174 757.13928 4205.8838 2831157
3277.9788 751.86615 4176.5918 2765364
3321.2419 755.75635 4198.2017 2831157
3347.6128 755.77155 4198.2861 2896950
3371.9614 755.33362 4195.8535 2831157
3402.177 756.20654 4200.7026 2699571
3428.4956 756.20654 4200.7026 2896950
3450.3228 755.22339 4195.2412 2896950
3506.5237 761.72217 4231.3418 2633778
3514.7102 757.77142 4209.3955 2567985
3537.01 756.89978 4204.5537 2436399
3582.8792 761.04742 4227.5933 2436399
3609.366 761.04742 4227.5933 2436399
3651.6655 764.35718 4245.979 2633778
3678.8347 764.47491 4246.6333 2502192
3718.1384 767.09454 4261.1851 2370607
3755.8455 769.34973 4273.7124 2502192
3790.7119 770.99518 4282.853 2567985
3805.1812 768.49817 4268.9819 2567985
3827.4133 767.59277 4263.9526 2765364
3876.4849 772.04529 4288.6865 2765365
3909.2644 773.21423 4295.1797 2765365
3965.2808 778.93164 4326.9399 2765365
4009.2307 782.21729 4345.1914 2699572
4044.2197 783.72205 4353.5503 2765365
4094.1675 788.08612 4377.7925 2699572
4130.541 789.79645 4387.2935 2765365
4160.5166 790.2691 4389.9189 2831415
4188.9204 790.43878 4390.8618 2962744
4233.9517 793.72339 4409.1074 2633779
4275.0659 796.23596 4423.0645 2699572
4335.5576 802.30188 4456.7607 2567986
4378.1489 804.99896 4471.7427 2633779
4441.6802 811.48737 4507.7856 2567986
4470.5449 811.60028 4508.4131 2567986
4529.2402 817.09332 4538.9268 2502193
4565.3647 818.47131 4546.5815 2502193
4619.2305 822.99323 4571.7002 2502193
4654.2778 824.1272 4577.9995 2896951
4721.4624 830.90302 4615.6392 3028537
nan nan nan 16777215
nan nan nan 16777215
nan nan nan 16777215
nan nan nan 16777215
nan nan nan 16777215
nan nan nan 16777215
nan nan nan 16777215
-3531.4856 705.84729 3789.7593 3094585
-3516.0242 707.51404 3798.708 2897463
-3478.0376 704.63989 3783.2764 2897719
-3470.0632 707.84839 3800.5032 2897463
-3449.0061 708.41406 3803.5405 2897463
-3436.0728 710.66779 3815.6409 2897463
-3412.1663 710.66779 3815.6409 2831670
-3384.7402 709.92944 3811.6768 2765877
-3363.5498 710.49792 3814.7288 2700084
-3344.2803 711.48315 3820.0186 2700084
-3308.1582 708.87134 3805.9956 2634291
-3274.7029 706.79724 3794.8599 2700084
-3261.842 709.17041 3807.6013 2765877
-3245.3354 710.78003 3816.2434 2700084
-3260.1091 719.31519 3862.0696 2700084
-3235.0286 719.11884 3861.0154 2700084
-3210.8384 719.11884 3861.0154 2634291
-3211.1667 724.65192 3890.7231 2831670
-3198.3579 727.28235 3904.8459 2831670
-3146.5764 721.02289 3871.2385 2831670
-3121.7192 720.88373 3870.4912 2897463
-3054.8699 710.96948 3817.2605 2831670
-2999.0554 703.48712 3777.0872 2831670
-2952.2693 698.02039 3747.7358 2897463
-2914.3901 694.58875 3729.311 2831670
-2890.0149 694.34607 3728.0083 3029049
-2881.4348 697.92529 3747.2253 3095099
-2866.1499 699.92603 3757.9673 3226428
-2846.1714 700.8042 3762.6821 3029049
-2832.063 703.15436 3775.3005 2897463
-2820.2913 706.12921 3791.2729 2897463
-2798.5728 706.64313 3794.032 2831671
-2772.4834 706.05267 3790.8618 2765879
-2765.3042 710.30939 3813.7166 2568499
-2706.8713 701.36017 3765.6675 2634035
-2710.2192 708.4021 3803.4763 3029307
-2682.6746 707.42255 3798.2168 3029564
-2660.6096 707.8833 3800.6909 3160893
-2625.7188 704.90918 3784.7224 3293249
-2615.6365 708.60181 3804.5486 3227713
-2560.3113 699.9928 3758.3259 3161663
-2526.209 697.08014 3742.6877 2898748
-2499.5769 696.19366 3737.928 2832954
-2493.7004 701.12598 3764.4102 3030076
-2480.3474 704.03021 3780.0034 3227712
-2450.6777 702.31464 3770.792 3293248
-2425.0649 701.73938 3767.7036 3227455
-2426.6465 709.09955 3807.2209 3293505
-2393.623 706.39331 3792.6909 3293505
-2377.6042 708.70142 3805.0835 2964540
-2366.2983 712.47546 3825.3464 3161148
-2326.9131 707.78558 3800.1663 3029562
-2287.707 703.05383 3774.761 2963769
-2278.7017 707.60144 3799.1775 2897976
-2262.4946 709.98517 3811.9758 2832183
-2234.8115 708.77991 3805.5049 3161148
-2224.3525 713.07043 3828.541 3161405
-2190.8564 709.98883 3811.9954 3029562
-2186.1687 716.27814 3845.7634 2963769
-2160.5667 715.77881 3843.0823 2963769
-2133.0598 714.63013 3836.915 2963769
-2115.2947 716.75604 3848.3293 2963769
-2097.7065 718.99182 3860.3333 2963769
-2076.1475 719.90277 3865.2244 2963769
-2055.2009 721.05011 3871.3845 3095355
-2040.7711 724.53851 3890.1143 3095355
-2016.8513 724.70129 3890.988 3161148
-1998.1141 726.75305 3902.0042 3095355
-1977.651 728.22015 3909.8811 3095355
-1953.9976 728.53448 3911.5686 3292734
-1916.8953 723.77887 3886.0356 3095355
-1924.97 736.1781 3952.6082 3029562
-1886.7549 730.96704 3924.6296 3029562
-1872.3658 734.97095 3946.1267 3161148
-1838.626 731.38434 3926.8701 3226941
-1796.8094 724.44421 3889.6079 3292734
-1795.1897 733.74268 3939.5322 3292734
-1778.3232 736.98187 3956.9236 3226941
-1739.0427 730.89227 3924.228 3358527
-1712.667 730.12946 3920.1323 3226941
-1684.2933 728.48035 3911.2781 3161148
-1663.7773 730.23132 3920.6792 3095355
-1624.6641 723.75006 3885.8809 3095355
-1584.0562 716.39569 3846.3945 3161148
-1559.9574 716.39569 3846.3945 3358527
-1542.713 719.5929 3863.5608 3424320
-1520.4287 720.50378 3868.4514 3358527
-1492.9785 718.95648 3860.1438 3358527
-1450.9677 710.23096 3813.2954 3226941
-1414.927 704.18451 3780.8315 3161148
-1385.7129 701.38751 3765.8142 2963512
-1368.6013 704.72534 3783.7356 2502705
-1317.2854 690.25793 3706.0586 2239533
-1286.9841 686.48065 3685.7778 1581603
-1256.7001 682.57452 3664.8057 1581090
-1234.3435 682.909 3666.6016 1580834
-1209.3018 681.74243 3660.3379 1844518
-1180.3053 678.25818 3641.6306 2238249
-1168.799 684.88531 3677.2124 1843492
-1137.1989 679.7677 3649.7356 1448736
