# .PCD v0.7 - Point Cloud Data file format
VERSION 0.7
FIELDS x y z rgb
SIZE 4 4 4 4
TYPE F F F U
COUNT 1 1 1 1
WIDTH 1274
HEIGHT 1
VIEWPOINT 0 0 0 1 0 0 0
POINTS 1274
DATA ascii
238.46306 638.73022 1975.299 3291190
250.94496 639.00024 1976.1339 3488569
264.6553 642.22589 1986.1095 3817534
279.1333 646.94092 2000.6909 3488569
288.56393 640.05542 1979.3971 3488569
300.96548 640.05542 1979.3971 3620155
315.22803 643.85657 1991.1523 3751741
324.90149 638.35181 1974.1287 3817534
336.15125 636.23431 1967.5803 3817534
347.85522 635.09595 1964.0598 3093811
358.02594 631.3316 1952.4185 3225397
365.84427 623.80493 1929.142 3554362
374.43323 618.03168 1911.288 3159604
386.53302 618.23163 1911.9061 3488569
395.94971 614.25702 1899.6146 3356983
410.68628 618.52661 1912.8185 2830639
427.44064 625.5069 1934.4053 2962225
440.75992 627.21399 1939.6846 3554362
455.63953 630.99036 1951.363 3291447
468.93726 632.43579 1955.8333 3094581
480.7301 631.8299 1953.9594 3818561
493.80121 632.89233 1957.245 3160630
510.85776 638.88757 1975.7855 2963252
521.21143 636.41467 1968.1379 2962996
534.19543 637.1936 1970.5469 3028788
546.41364 637.04443 1970.0857 3029045
560.68231 639.23975 1976.8746 3094581
568.86652 634.55304 1962.3809 3752511
581.16144 634.55304 1962.3809 3949889
597.54095 638.92041 1975.8872 3292216
606.96722 635.82678 1966.3201 3818818
615.74036 632.18567 1955.0596 4608334
625.23694 629.41473 1946.4905 4674126
631.4259 623.48389 1928.1492 4608333
639.86755 619.95831 1917.2461 4082246
649.6037 617.79376 1910.5521 3489339
667.29248 623.13391 1927.0668 3489338
682.67383 626.16779 1936.4491 3291960
696.4129 627.61572 1940.9269 3226167
711.80151 630.47504 1949.7694 3555132
727.06976 633.13293 1957.9891 3620925
741.93933 635.36133 1964.8805 3489339
759.21625 639.5448 1977.8181 2830639
756.24762 626.81354 1938.4462 2831153
763.9234 623.16779 1927.1715 2765361
770.01935 618.36682 1912.3243 2765618
786.03711 621.55865 1922.1952 3094583
802.84149 625.26678 1933.6627 3028790
820.25708 629.33362 1946.2396 3357755
832.63873 629.47571 1946.679 3423548
845.63763 630.07349 1948.5276 3160633
863.25665 634.04767 1960.818 3422264
874.99957 633.65503 1959.6038 2830640
884.76721 631.86261 1954.0605 2896433
899.54584 633.6488 1959.5845 2896432
916.87152 637.15704 1970.4338 3422776
931.49664 638.72021 1975.2681 3422776
944.59875 639.21185 1976.7883 3356983
953.06506 636.59424 1968.6932 3225397
960.76581 633.53864 1959.2439 2896689
976.24323 635.62354 1965.6915 2830639
990.09698 636.61255 1968.7499 2830639
1002.4232 636.60706 1968.7329 3159861
1011.2908 634.43201 1962.0066 3356983
1021.0305 632.84961 1957.1129 3422776
1025.0703 627.81396 1941.5399 3356983
1033.827 625.7514 1935.1615 2501674
1045.7987 625.65997 1934.8788 2699053
1061.8757 627.9986 1942.1111 2830895
1076.2571 629.29291 1946.1136 2764846
1091.8706 631.27045 1952.2292 3225397
1104.0189 631.22302 1952.0826 3554362
1119.4386 633.02649 1957.66 3751741
1129.0361 631.53418 1953.045 3620155
1155.5681 639.44482 1977.5089 2962225
1160.8071 635.52991 1965.402 3028018
1172.3416 635.1076 1964.0959 3028018
1199.7136 643.18494 1989.0753 3028018
1215.8027 645.10938 1995.0269 3488569
1216.5642 638.94458 1975.9619 3488569
1229.6554 639.31439 1977.1055 3291190
1248.1589 642.46259 1986.8414 3028018
1260.7014 642.51062 1986.9901 3028018
1273.1505 642.51062 1986.9901 3291446
1282.0934 640.7583 1981.571 3291191
1291.4453 639.24213 1976.8821 3423032
1300.1239 637.42456 1971.2611 3554876
1311.7751 637.08484 1970.2107 3357753
1323.5167 636.79504 1969.3143 3423546
1345.1937 641.2467 1983.0813 3555132
1357.6183 641.2467 1983.0813 3555132
1348.7249 631.26886 1952.2244 3358010
1354.6416 628.33984 1943.1664 3555389
1364.0214 627.05505 1939.1931 3423803
1373.457 625.81842 1935.3688 3357240
1386.0066 626.00989 1935.9608 3422776
1398.4969 626.17145 1936.4606 3422776
1407.824 624.92615 1932.6094 4014913
1419.4025 624.69299 1931.8882 4014913
1443.0623 629.73584 1947.4834 3093811
1471.2263 636.64319 1968.8448 3093811
1491.2473 639.94135 1979.0444 3356983
1524.2355 648.70386 2006.1428 3356727
1532.2533 646.78265 2000.2014 3092785
1544.785 646.78265 2000.2014 3027248
1554.2836 645.52283 1996.3053 2961968
1566.2561 645.30243 1995.6238 3027505
1582.2947 646.7475 2000.0927 2961969
1600.5203 649.0567 2007.234 3027762
1609.9619 647.79553 2003.3339 2896689
1622.5087 647.79364 2003.328 2567724
1633.5197 647.18335 2001.4406 2962482
1647.6866 647.82318 2003.4194 3159604
1655.6801 646.04443 1997.9185 3225397
1665.634 645.05157 1994.848 3225141
1685.2516 647.78809 2003.3108 3159604
1697.8029 647.78809 2003.3108 3094068
1700.4696 644.04437 1991.7332 3290677
1710.0338 642.94843 1988.344 3224884
1729.9774 645.74274 1996.9855 3356470
1742.489 645.74274 1996.9855 3356470
1763.2051 648.76141 2006.3209 3422263
1774.7579 648.38977 2005.1715 3356470
1792.3578 650.21692 2010.8221 3159091
1810.9659 652.3819 2017.5173 2566954
1815.7271 649.56311 2008.8002 2566954
1818.6625 646.13464 1998.1974 2895919
1838.5415 648.73151 2006.2283 3159092
1851.4868 648.86316 2006.6355 3093301
1860.1704 647.50958 2002.4495 2962227
1881.8015 650.65088 2012.1641 3093813
1898.9072 652.19598 2016.9425 3159606
1907.2863 650.74335 2012.45 3291192
1918.2535 650.18701 2010.7295 3093813
1932.6318 650.78656 2012.5836 2962227
1949.9204 652.35193 2017.4247 3159606
1963.2604 652.58466 2018.1444 3225399
1964.2969 648.75092 2006.2885 3291192
1982.4203 650.57343 2011.9244 3225399
1994.903 650.53345 2011.8008 3159606
2008.5889 650.88385 2012.8845 3356985
2020.3544 650.61145 2012.0422 3356985
2031.948 650.28748 2011.0402 3488571
2044.5479 650.28748 2011.0402 3225399
2035.7653 643.52826 1990.1371 3093813
nan nan nan 16777215
nan nan nan 16777215
nan nan nan 16777215
nan nan nan 16777215
nan nan nan 16777215
nan nan nan 16777215
nan nan nan 16777215
nan nan nan 16777215
nan nan nan 16777215
nan nan nan 16777215
nan nan nan 16777215
nan nan nan 16777215
-1672.3256 612.07025 1857.0604 2831409
-1670.2626 615.59814 1867.7643 2502444
-1652.0798 613.19275 1860.4662 2765359
-1620.9187 605.90186 1838.3451 3094324
-1603.7114 603.75989 1831.8463 3554362
-1609.009 610.12067 1851.1454 4015426
-1600.2546 611.20679 1854.4407 3949890
-1594.9813 613.64807 1861.8477 3160373
-1576.2754 610.91925 1853.5681 2831409
-1557.2817 608.03748 1844.8248 2765616
-1536.2395 604.30688 1833.5059 2831409
-1524.2789 604.11938 1832.937 2897458
-1512.7949 604.11938 1832.937 3094838
-1505.1846 605.6781 1837.6661 3357753
-1493.59 605.6452 1837.5665 3489339
-1500.8038 613.29785 1860.785 2831666
-1489.1455 613.29785 1860.785 3029044
-1469.1211 609.82513 1850.2487 3292217
-1460.5354 611.08319 1854.0656 3226167
-1468.4453 619.31836 1879.0516 2962995
-1451.8513 617.26855 1872.8325 2897202
-1437.0144 615.93854 1868.7971 2962995
-1410.8751 609.70239 1849.8762 2962995
-1399.2119 609.67053 1849.7795 3357753
-1388.1667 609.90967 1850.5051 3818304
-1385.5284 613.87762 1862.5441 4213062
-1367.9843 611.25262 1854.5796 3752511
-1357.8687 611.93036 1856.636 2962995
-1336.3569 607.43976 1843.0111 2634030
-1311.5389 601.3548 1824.5491 3028788
-1315.2656 608.36609 1845.8218 3357753
-1309.2042 610.93414 1853.6134 3094581
-1296.2336 610.29517 1851.6748 3226167
-1278.4618 607.36371 1842.7805 3226167
-1272.4757 610.02893 1850.8671 3226167
-1260.479 609.83521 1850.2792 3226167
-1249.7494 610.25665 1851.5579 3292217
-1243.6875 612.98651 1859.8403 3028788
-1231.4373 612.68909 1858.938 2962995
-1218.1938 611.88721 1856.505 3489339
-1209.7384 613.49786 1861.3918 3094581
-1199.8293 614.39557 1864.1156 2963252
-1202.651 621.89404 1886.8666 3028788
-1196.2997 624.75098 1895.5345 2830639
-1192.4225 628.97009 1908.3357 3093811
-1208.3391 643.82135 1953.3953 4015683
-1179.4265 634.84619 1926.1642 3818304
-1135.8229 617.69617 1874.1299 3686718
-1123.5698 617.41534 1873.2777 3423546
-1111.8331 617.41534 1873.2777 3555132
-1098.5225 616.53198 1870.5975 3357753
-1084.3788 615.15698 1866.4258 3160374
-1068.0759 612.51373 1858.406 3555132
-1059.2158 614.1275 1863.3022 3489339
-1050.3784 615.79065 1868.3483 3555132
-1042.6505 618.14893 1875.5035 3752511
-1039.1438 623.09216 1890.5016 3884097
-1025.0548 621.73083 1886.3712 3818304
-1010.816 620.24591 1881.8658 4147269
-994.29718 617.31024 1872.9589 4278855
-982.31689 617.15594 1872.4907 3489339
-988.11133 628.30011 1906.3029 3423546
-989.19281 636.68359 1931.7388 4015683
-980.56256 638.94635 1938.6044 3949890
-968.46088 638.97565 1938.6931 3884097
-947.99744 633.41852 1921.8324 4081476
-931.50073 630.40295 1912.6831 4015683
-920.09113 630.79645 1913.877 3752511
-910.52979 632.48419 1918.9977 3686975
-906.04413 637.79004 1935.0959 3752511
-893.92017 637.79004 1935.0959 3752767
-880.78961 637.06207 1932.8872 3752511
-885.11835 649.11774 1969.465 4081476
-878.59778 653.44537 1982.5951 4542027
-857.8916 647.1955 1963.6326 3555132
-831.56104 636.45892 1931.0571 3489339
-828.07819 643.15057 1951.3602 3686718
-815.85229 643.15057 1951.3602 3555132
-778.37 622.93762 1890.0327 3423546
-766.52832 622.93762 1890.0327 2831409
-755.28546 623.43182 1891.5321 3160117
-743.43433 623.43182 1891.5321 3686462
-732.151 623.91559 1892.9999 3093811
-718.81537 622.63751 1889.1223 2962482
-707.0459 622.69611 1889.2999 3094581
-703.37164 630.00745 1911.483 3423546
-699.12103 637.047 1932.8414 3489339
-678.92487 629.54877 1910.0913 3357753
-660.76617 623.70459 1892.3599 3489339
-648.89648 623.69165 1892.3206 3357753
-640.10065 626.68768 1901.4106 3423546
-632.91193 631.40063 1915.7101 2962995
-618.7923 629.24774 1909.178 3226167
-606.64166 629.0517 1908.5833 3489340
-592.823 627.08337 1902.6112 3357755
-584.57739 631.05035 1914.6472 3160376
-575.77789 634.57312 1925.3356 3818049
-567.80176 639.17352 1939.2935 3686463
-555.53033 639.03412 1938.8705 3160376
-541.28247 636.56421 1931.3766 3620927
-529.94818 637.48608 1934.1737 3029047
-521.82928 642.40955 1949.1118 2765362
-497.40656 627.01672 1902.4091 3291960
-484.84387 626.18561 1899.8875 3620925
-483.60901 640.3111 1942.7449 4673870
-471.63477 640.57959 1943.5596 4147269
-462.70602 645.10834 1957.3 3555901
-453.13528 648.96417 1968.999 3226680
-439.76849 647.44714 1964.3962 3292730
-427.51797 647.53357 1964.6583 3226167
-417.01453 650.34967 1973.2026 3226167
-402.85037 647.45447 1964.4185 3949890
-387.62247 642.61328 1949.7299 3884097
-374.37134 640.84076 1944.3519 3423546
-358.07425 633.55963 1922.2606 3291960
-343.77267 629.42535 1909.7169 3357753
-328.91083 623.93011 1893.0441 3357497
-313.93039 617.79034 1874.4155 3818560
-301.73862 616.87445 1871.6367 3950403
-286.88452 610.22174 1851.4518 3818817
-276.74872 613.46716 1861.2987 3555901
-266.52774 616.80109 1871.4141 3555645
-256.1554 620.07538 1881.3485 3160887
-241.7697 613.48193 1861.3435 3161143
-231.46062 617.08862 1872.2865 3292219
-219.73018 617.08862 1872.2865 3358267
-208.25639 617.8501 1874.5969 3292729
-196.76196 618.6377 1876.9866 3424059
-185.33446 619.74921 1880.3589 3292473
-175.20689 625.65369 1898.2733 3424316
-162.66768 623.17908 1890.7653 3686717
-151.37698 625.47449 1897.7297 3620925
-138.55585 621.29858 1885.0598 3620925
-127.41509 624.58154 1895.0205 3489339
-115.13178 622.36298 1888.2892 3489339
-103.06673 620.95123 1884.0059 3489339
-91.23011 620.72833 1883.3297 3423033
-80.695656 630.61548 1913.3279 3291190
-69.855232 641.14447 1945.2736 3751997
-57.342339 637.52942 1934.3053 3422776
-45.133873 636.26843 1930.4794 3356983
-33.111603 637.6701 1934.7321 3488569
-21.128227 641.87238 1947.4819 3620155
-8.9559269 643.9776 1953.8694 3817534
3.2948205 645.77094 1959.3104 3817534
15.625079 648.03418 1966.1774 3685948
27.881031 646.5788 1961.7616 3685948
40.485458 651.6228 1977.0653 3883327
52.33493 644.9989 1956.9681 3422776
64.393723 642.97968 1950.8417 3422776
76.597351 642.82031 1950.358 3488569
88.73848 642.25232 1948.6349 4015170
100.71825 640.79517 1944.2136 4146499
111.81303 634.62946 1925.5065 3620155
123.60378 633.23004 1921.2606 3159604
135.85036 634.20715 1924.2252 3422776
147.93922 634.34857 1924.6544 3225397
159.68338 633.10211 1920.8724 3225397
171.75946 633.25409 1921.3335 3291190
184.59358 635.99786 1929.6584 3159604
196.6548 635.90509 1929.3768 3028018
208.92831 636.46979 1931.0902 3093811
223.51595 643.63635 1952.8341 2962225
235.48758 642.91705 1950.6516 2699310
244.66196 635.00854 1926.6567 2895662
256.97928 635.61755 1928.5045 3224628
269.33456 636.2616 1930.4585 3027249
282.45505 638.5802 1937.4933 3026992
294.59406 638.5802 1937.4933 3224371
308.29007 641.82172 1947.3282 3093042
315.21783 631.26221 1915.29 3027506
327.12573 631.08478 1914.7516 3356469
340.36783 633.40271 1921.7845 3028018
347.45453 624.49884 1894.7695 2896432
358.08899 622.34918 1888.2474 3685948
369.8898 622.29938 1888.0962 3883327
380.77213 620.75519 1883.411 3817534
390.8642 618.05426 1875.2163 3817534
398.40891 611.60046 1855.6351 3356983
417.44382 622.65125 1889.1639 3488569
431.8811 626.42401 1900.6107 3488569
442.71298 624.90521 1896.0026 3554105
454.05927 624.17279 1893.7804 3094324
467.12976 625.78766 1898.6799 3489339
480.50348 627.71832 1904.5376 3423546
500.96362 638.58868 1937.519 3818304
513.10278 638.58868 1937.519 4015683
519.1452 631.17627 1915.0293 3686718
531.68829 631.82373 1916.9938 4015940
543.69885 631.82373 1916.9938 4344904
550.97797 626.44421 1900.672 3950402
562.75653 626.2998 1900.2339 4081733
575.29425 626.98883 1902.3242 4344908
589.52417 629.4566 1909.8118 4015942
601.5954 629.5672 1910.1473 4476493
615.53619 631.59186 1916.2902 4871251
624.23529 628.26337 1906.1914 4739665
630.53839 622.69379 1889.2928 4739408
639.33325 619.74487 1880.3456 3818563
650.04254 618.72479 1877.2509 3028790
672.51239 628.73602 1907.6255 3094584
686.20044 630.33087 1912.4645 3291963
696.37793 628.7016 1907.521 3489595
704.95276 625.70477 1898.4285 3423289
718.99463 627.57935 1904.116 2897202
731.05011 627.68713 1904.4431 3226425
746.59308 630.73785 1913.6991 3358267
756.33673 628.87018 1908.0325 3160889
769.70923 630.03088 1911.5542 2305324
779.23035 628.05194 1905.5499 2700339
801.48096 636.23767 1930.386 3620927
806.98444 631.08331 1914.7473 3357755
815.31744 628.26038 1906.1823 3291962
831.04877 631.13745 1914.9116 3094583
848.97675 635.57733 1928.3823 3160633
862.58655 636.70514 1931.8042 3554620
876.4411 637.9798 1935.6718 3422777
890.60577 639.44244 1940.1095 3028018
908.64404 643.60938 1952.7522 2830639
912.77423 637.94513 1935.5665 3159604
923.11426 636.71265 1931.827 3422776
939.31537 639.50238 1940.2913 3225397
952.19794 639.9903 1941.7717 2896689
955.49261 634.10309 1923.9095 2830639
967.54645 634.10309 1923.9095 2699053
978.12231 633.1463 1921.0066 3028018
991.86584 634.23834 1924.3199 2699053
1003.9101 634.23071 1924.2968 2633260
1015.9664 634.23071 1924.2968 2830639
1016.2552 626.97083 1902.2698 2633260
1038.5323 633.28754 1921.4349 2041123
1040.9418 627.48315 1903.8241 2501674
1056.1693 629.44965 1909.7905 3225397
1068.1349 629.44965 1909.7905 2896432
1073.7445 625.74567 1898.5526 3422776
1084.1755 624.90192 1895.9924 3488569
1096.8856 625.37573 1897.4302 3554362
1127.0994 635.71191 1928.7906 3093811
1129.6169 630.37311 1912.5925 2962225
1141.5999 630.37311 1912.5925 2962482
1156.293 631.854 1917.0857 2830639
1178.8153 637.53882 1934.3337 2962225
1196.1499 640.33081 1942.8047 3356983
1205.1927 638.67236 1937.7729 3422776
1217.3334 638.67236 1937.7729 3488569
1225.8722 636.80127 1932.0958 3291190
1237.9774 636.80127 1932.0958 2962225
1249.1537 636.32806 1930.6603 3028018
1261.2499 636.32806 1930.6603 3093811
1279.0133 639.16016 1939.2529 3225397
1274.9647 631.14136 1914.9235 3291190
1275.7443 625.63995 1898.2317 3488313
1288.5859 626.10089 1899.6302 3817277
1300.8647 626.28241 1900.181 3817533
1306.5714 623.32526 1891.2089 3422775
1314.8625 621.64319 1886.1052 3554106
1327.7775 622.15759 1887.6661 3620155
1335.0104 620.02405 1881.1927 3225140
1347.0168 620.12543 1881.5004 3028018
1357.9094 619.71667 1880.2603 3159604
1377.1212 623.07904 1890.4618 3488569
1393.407 625.07147 1896.5068 3488569
1408.691 626.58453 1901.0978 3093811
1436.4877 633.59125 1922.3566 3028018
1453.6733 635.84015 1929.1798 3159604
1474.8344 639.77649 1941.1228 3291190
1493.3958 642.52985 1949.4768 3620155
1522.7173 649.83063 1971.6279 3685948
1539.6 651.74823 1977.4459 3291446
1551.9893 651.74823 1977.4459 3159605
1564.774 651.9129 1977.9457 2896432
1573.9622 650.58844 1973.9271 2501930
1577.9443 647.1496 1963.4934 2501673
1594.9663 649.07043 1969.3213 2370345
1599.7948 646.03766 1960.1198 2501674
1612.713 646.29315 1960.8949 2764589
1630.0802 648.31421 1967.0269 3159091
1636.3362 645.91895 1959.7595 3290677
1640.6628 642.80341 1950.3068 2895919
1656.7626 644.3125 1954.8855 2764590
1665.585 642.99011 1950.8733 2895919
1677.8077 642.99011 1950.8733 3093298
1680.9594 639.53888 1940.402 3027505
1696.1445 640.68256 1943.8721 2961712
1719.4523 644.85632 1956.5354 3093555
1743.6483 649.3017 1970.0231 4080193
1737.3225 642.39868 1949.0789 4409158
1740.0548 638.91809 1938.5184 3948607
1778.4528 648.49066 1967.5624 3290677
1790.7802 648.49066 1967.5624 3093298
1798.6888 646.90155 1962.7408 2895919
1808.8684 646.14514 1960.4458 2961714
1820.7532 646.00391 1960.0173 2896691
1837.2429 647.48743 1964.5186 3028277
1852.64 648.56879 1967.7993 3093813
1864.9689 648.56879 1967.7993 3159606
1875.418 647.91937 1965.829 2962227
1889.368 648.48004 1967.5302 2962227
1903.8552 649.21661 1969.7648 3093813
1914.9409 648.7912 1968.4741 3093813
1924.843 647.9729 1965.9913 3159606
1940.0991 648.95581 1968.9735 3159606
1953.1576 649.19586 1969.7019 3291192
1965.4984 649.19586 1969.7019 3422778
1977.0928 648.95087 1968.9586 3488571
1982.0455 646.54242 1961.6511 3488571
1991.0145 645.46564 1958.3843 3356985
1999.6205 644.28516 1954.8025 3422778
nan nan nan 16777215
nan nan nan 16777215
nan nan nan 16777215
nan nan nan 16777215
nan nan nan 16777215
nan nan nan 16777215
nan nan nan 16777215
nan nan nan 16777215
nan nan nan 16777215
nan nan nan 16777215
nan nan nan 16777215
nan nan nan 16777215
-1634.8132 609.65466 1815.4042 2896432
-1628.0354 611.38068 1820.5439 2896432
-1608.8014 608.42035 1811.7288 3159604
-1588.8333 605.13831 1801.9557 3356983
-1563.2174 599.64288 1785.5918 3356983
-1558.509 602.14612 1793.0457 3356727
-1551.4099 603.75531 1797.8374 3225397
-1540.2117 603.78107 1797.9142 3225397
-1534.712 606.05762 1804.6931 3422519
-1523.405 606.05762 1804.6931 3290677
-1515.9236 607.59094 1809.2589 3422776
-1505.1818 607.83063 1809.9728 3619899
-1486.2795 604.75366 1800.8103 3489339
-1474.9969 604.75366 1800.8103 3423546
-1464.4485 605.05701 1801.7136 3291960
-1457.6143 606.91156 1807.236 3226167
-1461.0328 613.09753 1825.6565 3160374
-1440.4746 609.24036 1814.1705 3291960
-1428.6213 609.03271 1813.5524 3357753
-1417.7717 609.25317 1814.2087 3423546
-1422.3701 616.16913 1834.8029 3094581
-1402.6021 612.55634 1824.0448 3094581
-1381.475 608.28583 1811.3281 3489339
-1371.5378 608.91241 1813.1941 3357753
-1363.2557 610.29034 1817.2972 3094581
-1345.4126 607.37531 1808.6169 3357753
-1334.0811 607.37531 1808.6169 3884097
-1322.099 607.0766 1807.7275 3949890
-1306.4977 605.09656 1801.8313 2634030
-1299.6713 607.18134 1808.0394 2634030
-1294.5293 610.09674 1816.7207 3028788
-1295.4987 615.96954 1834.2086 3291960
-1283.9716 615.9527 1834.1583 3028788
-1271.9375 615.69012 1833.3763 3094581
-1243.9744 607.64191 1809.4108 3160374
-1241.7126 612.11536 1822.7317 3160374
-1230.2926 612.11536 1822.7317 3423546
-1233.2495 619.33545 1844.2313 3686718
-1212.8541 614.85364 1830.8855 3686718
-1194.322 611.23987 1820.1246 3555132
-1185.0977 612.36591 1823.4778 2897202
-1187.3873 619.52142 1844.7852 3357753
-1184.7607 624.22729 1858.7981 3818304
-1171.236 623.2276 1855.8212 2962225
-1172.9012 630.37158 1877.0942 3094324
-1143.817 620.96674 1849.089 3555132
-1122.3578 615.55133 1832.9631 3752767
-1107.2737 613.55658 1827.0232 3752511
-1097.7363 614.62567 1830.2067 3555132
-1088.426 615.84583 1833.8401 3686718
-1072.9987 613.59406 1827.1348 3686718
-1047.3169 605.36639 1802.6349 3818304
-1031.5067 602.7276 1794.7772 3884097
-1029.5087 608.19019 1811.0435 3686718
-1022.3637 610.70007 1818.5173 3620925
-1010.9702 610.70007 1818.5173 3555132
-1006.4662 614.90936 1831.0515 3686718
-997.89349 616.70123 1836.3872 4147269
-999.20221 624.71283 1860.244 3884097
-979.68274 619.73785 1845.4297 3555388
-958.41791 613.52673 1826.9344 3489339
-954.44568 618.36908 1841.3538 3489339
-946.61853 620.80182 1848.5979 3620925
-940.3634 624.3385 1859.1293 3555132
-935.07983 628.61707 1871.8698 3620925
-936.69482 637.70087 1898.9192 3423546
-916.86438 632.23053 1882.6299 3555132
-894.83136 625.07904 1861.3344 3620925
-887.3465 628.03534 1870.1375 3555132
-882.02234 632.62048 1883.791 3489339
-869.39966 632.02435 1882.0157 3752511
-857.00348 631.57867 1880.6886 3686718
-845.53656 631.81494 1881.3922 3555132
-836.88293 634.1897 1888.4639 3620925
-834.72626 641.62677 1910.6094 3752511
-818.51483 638.31946 1900.7611 4081476
-819.4624 648.49353 1931.0571 4213062
-785.51971 630.94794 1878.8105 4278855
-765.86078 624.51605 1859.658 3357753
-759.1261 628.58722 1871.7809 2436651
-745.71796 627.17358 1867.5714 3028275
-728.82379 622.73627 1854.3582 3619898
-714.38214 620.28461 1847.0577 2830639
-704.73047 621.97986 1852.1057 2961969
-694.71484 623.40521 1856.3501 2896432
-689.41498 629.18286 1873.5546 3027761
-675.12946 626.81799 1866.5126 3356726
-660.07538 623.64362 1857.0601 3357496
-649.25891 624.43091 1859.4044 3423546
-637.35083 624.17798 1858.6511 3226167
-635.26929 633.71796 1887.0591 3357753
-623.44623 633.71796 1887.0591 3620925
-598.19482 619.8045 1845.6281 3620925
-589.54572 622.88361 1854.797 4476237
-581.49567 626.73224 1866.2572 4147528
-571.50244 628.6015 1871.8234 3424062
-560.34625 629.2431 1873.7339 3489598
-550.17859 631.04602 1879.1027 3423805
-546.97601 641.09125 1909.0149 3160633
-533.18939 638.9032 1902.4994 3620670
-518.44415 635.44 1892.1869 3818563
-507.96463 637.16559 1897.3252 3094840
-496.74722 638.02606 1899.8875 2832178
-482.84958 635.40167 1892.0728 3490109
-470.98352 635.38599 1892.026 4542540
-458.90625 635.07721 1891.1066 3424059
-453.37021 644.04431 1917.8083 2832179
-441.47031 644.2132 1918.3113 3095094
-431.40277 647.14032 1927.0275 3226680
-422.51508 652.05682 1941.6676 3291960
-409.00748 649.92358 1935.3154 3357753
-396.88211 649.92358 1935.3154 3949890
-386.01703 652.05243 1941.6545 2634030
-366.71884 639.61121 1904.6077 2765616
-350.7561 632.34625 1882.9744 3160374
-335.84741 626.54205 1865.6908 3423546
-319.17545 616.91101 1837.012 3094581
-307.66599 616.91101 1837.012 3687232
-296.43317 617.48724 1838.7279 4345418
-282.06253 611.30957 1820.3322 3753281
-269.87149 609.53406 1815.0452 3555901
-261.3689 616.29962 1835.1914 3753024
-249.24879 614.76532 1830.6227 2963508
-234.76357 606.96814 1807.4045 2502187
-225.53648 612.66418 1824.366 2436651
-214.2691 613.13019 1825.7535 2699823
-202.42107 611.89343 1822.0709 3357753
-193.32457 619.32361 1844.196 3489339
-181.32004 617.7901 1839.6296 3818304
-168.81068 614.21167 1828.9739 3423546
-158.63509 619.22162 1843.8925 3291960
-146.72113 617.70013 1839.3618 3094581
-135.50479 619.10663 1843.5499 3028788
-124.34336 621.04944 1849.3352 3226167
-112.33947 618.75134 1842.4921 3555132
-100.91786 619.50134 1844.7253 4015170
-88.903114 616.33337 1835.2919 3554618
-78.285103 623.34564 1856.1729 3225654
-66.948341 626.08325 1864.3247 3225654
-55.574535 629.55835 1874.6727 3225397
-43.789619 628.99078 1872.9827 3554362
-32.137917 630.6217 1877.8391 3685948
-20.725578 641.54565 1910.368 3488569
-8.7781687 643.13098 1915.0887 4409671
3.2201633 643.07251 1914.9146 4475464
15.109337 638.49341 1901.2792 4278085
27.022251 638.51263 1901.3363 3422776
38.771042 635.82843 1893.3435 3685948
50.480015 633.90198 1887.6069 3685948
62.182167 632.63751 1883.8417 3620155
74.025139 632.98053 1884.8632 3949120
85.932472 633.7038 1887.0168 3949120
99.383881 644.26166 1918.4557 3817534
110.3493 638.16455 1900.2999 3093811
121.84217 636.00824 1893.8789 3291190
132.66682 631.05609 1879.1327 3620155
143.25316 625.87006 1863.6898 3159604
155.55122 628.38068 1871.1658 2501674
167.1777 628.01636 1870.0811 3159604
179.93323 631.66345 1880.9412 3225397
192.2504 633.41785 1886.1654 3225397
204.14488 633.65704 1886.8777 2962482
217.71423 638.7843 1902.1453 3028018
229.23412 637.6781 1898.8513 3291190
240.85809 636.95642 1896.7023 3093811
252.75734 636.99622 1896.8209 3159604
269.06195 647.63635 1928.5045 3422776
277.07617 638.26434 1900.597 2896432
287.40286 634.77222 1890.1982 2962225
297.85941 631.83185 1881.4426 2896689
309.03094 630.57434 1877.698 3093811
318.21298 625.49841 1862.5831 2830896
331.20334 628.00256 1870.0399 2699309
341.8475 626.039 1864.1929 3028018
350.49194 620.66394 1848.1873 3751741
360.50192 617.97357 1840.1759 3751741
371.90662 617.7666 1839.5596 3291190
382.16885 615.73145 1833.4995 3685948
391.80008 612.82806 1824.8539 3488569
407.44394 619.22723 1843.9091 3093811
421.51508 622.94922 1854.9923 3422776
433.45975 623.41321 1856.3739 3422776
444.84363 623.06738 1855.3441 3093812
454.1366 619.88519 1845.8683 3291961
470.6398 626.45837 1865.4418 2699823
483.61264 628.12769 1870.4125 3291960
496.88492 630.09778 1876.2789 3555132
510.87354 632.8642 1884.5166 3357752
517.07599 626.07806 1864.3092 4015939
533.28491 631.44 1880.2759 4278856
541.83057 627.6925 1869.1167 4016197
552.13721 626.10052 1864.3761 4081990
560.47992 622.39355 1853.3376 3621439
573.35333 623.76624 1857.4252 3555390
590.08954 629.20306 1873.6147 4410699
600.58032 627.89819 1869.7292 4344649
610.48285 626.04022 1864.1965 4279114
620.78168 624.65063 1860.0586 4542029
632.16718 624.38562 1859.2695 3949890
641.23474 621.88214 1851.8148 2962740
654.46625 623.43427 1856.4365 3029047
674.86047 631.63599 1880.8595 3028788
680.99652 626.44043 1865.3882 3488312
693.96106 627.59552 1868.8279 3423546
701.50134 623.88824 1857.7885 3554618
712.78693 623.57849 1856.8661 3225910
729.40002 627.86462 1869.6292 3685948
741.479 628.17401 1870.5504 3751741
756.50067 630.92798 1878.7511 3817534
770.26068 632.56146 1883.6152 3159091
787.7417 637.15533 1897.2946 2897204
799.62885 637.15533 1897.2946 3226169
804.66638 631.7774 1881.2804 3094326
813.92993 629.82489 1875.4663 3160376
826.93304 630.78046 1878.3118 3028790
844.26678 634.96625 1890.7761 3028020
862.13202 639.43042 1904.0692 3093812
874.31189 639.61359 1904.6146 3488569
892.92047 644.43134 1918.9609 3291190
904.94336 644.43134 1918.9609 3356983
908.07397 638.18201 1900.3518 3356983
918.30151 637.01746 1896.8842 3093811
925.19293 633.59802 1886.7018 2962481
935.41205 632.51501 1883.4769 2633260
944.77991 630.8905 1878.6395 2370088
959.06036 632.54614 1883.5696 2962225
981.45386 639.44733 1904.1198 2699053
995.06439 640.52917 1907.3412 2567467
1000.2261 636.2113 1894.4836 2501674
1008.5515 633.9834 1887.8494 2435881
1019.0912 633.18298 1885.4659 2896432
1026.9242 630.73846 1878.1868 3356983
1036.2534 629.25787 1873.778 3620155
1037.6714 623.06018 1855.3228 3751741
1039.9153 617.49036 1838.7371 3554362
1049.5151 616.36255 1835.3787 3883327
1057.6721 614.42096 1829.5973 4278085
1079.9578 620.64062 1848.1178 3028018
1106.6193 629.21643 1873.6544 2896432
1119.1885 629.68353 1875.0454 3028018
1133.8468 631.30402 1879.871 2962225
1147.9659 632.59418 1883.7126 2830639
1157.0181 631.09418 1879.2461 2830639
1169.0964 631.25854 1879.7354 2962225
1183.0593 632.42694 1883.2147 3093811
1194.8582 632.42694 1883.2147 3159604
1206.6045 632.39941 1883.1327 3225397
1225.3467 636.00348 1893.8647 3159604
1235.1797 634.95856 1890.7532 2962225
1244.0413 633.43884 1886.2279 2962225
1250.4718 630.72162 1878.1366 3356983
1248.665 623.93896 1857.9396 3356983
1261.3407 624.45142 1859.4653 3422776
1272.0939 624.01141 1858.1553 3356983
1274.5668 619.55444 1844.8834 3225397
1284.7181 618.87646 1842.8646 3093811
1296.2643 618.87646 1842.8646 3093811
1307.3461 618.65674 1842.2103 3356983
1319.1902 618.79846 1842.6323 3291190
1330.8038 618.83057 1842.7279 3225397
1343.603 619.40857 1844.4491 3225397
1364.4209 623.64197 1857.0552 2896433
1373.8303 622.6333 1854.0516 2962225
1397.9778 628.26501 1870.8213 2830639
1414.5789 630.4397 1877.2972 2896432
1419.8324 627.56311 1868.7313 2962225
1440.5597 631.51697 1880.5049 3488825
1471.0724 639.66156 1904.7576 3751741
1496.9512 645.67639 1922.6682 3949120
1518.5824 649.77765 1934.8809 3751484
1532.7704 650.65442 1937.4917 3093298
1544.7394 650.58282 1937.2786 2764333
1564.0956 653.5993 1946.2609 2501161
1573.4253 652.41168 1942.7244 2435368
1584.7202 652.0509 1941.65 2435368
1589.651 649.09698 1932.8539 2566954
1598.119 647.62103 1928.4591 3027248
1601.0359 643.93475 1917.4821 2895919
1597.0793 637.55939 1898.4978 2764076
1608.974 637.55939 1898.4978 2435368
1619.2841 636.93604 1896.6417 2566954
1635.2042 638.51251 1901.3359 2632747
1647.8276 638.78809 1902.1566 2369575
1661.1421 639.32568 1903.7574 2501161
1671.4845 638.71991 1901.9536 2764333
1679.2958 637.16235 1897.3157 2764333
1695.9733 638.9671 1902.6897 2895919
1697.5421 635.09412 1891.1569 3027762
1714.6926 637.06396 1897.0226 3290677
1739.4447 641.81146 1911.1594 3224884
1762.4672 645.86017 1923.2156 3224885
1759.0615 640.23505 1906.4652 3290679
1779.9231 643.45856 1916.0642 3028276
1804.4229 647.94537 1929.4248 2962227
1809.1951 645.33569 1921.6538 2896434
1811.0093 641.71234 1910.8644 2830898
1830.9961 644.53369 1919.2656 2896434
1843.1802 644.58942 1919.4315 2896434
1856.402 645.00488 1920.6687 2962227
1865.1346 643.86542 1917.2756 3225399
1878.1667 644.21521 1918.3171 3159606
1892.8904 645.13702 1921.0621 3159606
1905.0627 645.18317 1921.1996 3291192
1922.0626 646.85345 1926.1732 3356985
1915.0682 640.47815 1907.1891 3620157
1916.6545 637.03381 1896.9329 3883329
1944.2885 642.23608 1912.4238 3817536
1955.0623 641.83948 1911.2429 3554364
nan nan nan 16777215
nan nan nan 16777215
nan nan nan 16777215
nan nan nan 16777215
nan nan nan 16777215
nan nan nan 16777215
nan nan nan 16777215
nan nan nan 16777215
nan nan nan 16777215
nan nan nan 16777215
nan nan nan 16777215
nan nan nan 16777215
-1588.3597 603.32355 1763.8191 3356983
-1577.3088 603.32355 1763.8191 3422776
-1577.5565 607.67578 1776.5428 3554362
-1566.426 607.67578 1776.5428 3685948
-1547.3364 604.5661 1767.4517 3620155
-1525.2021 600.21338 1754.7266 3422776
-1526.603 605.12653 1769.0901 2962225
-1514.9994 604.91901 1768.4834 3028275
-1514.5413 609.19147 1780.9739 3028018
-1502.2448 608.73035 1779.6257 2831666
-1486.8491 606.99695 1774.5583 2897459
-1489.1958 612.53534 1790.7498 3489595
-1465.3044 607.28369 1775.3965 3686718
-1451.6353 606.22052 1772.2883 3818304
-1442.9156 607.22388 1775.2217 3686718
-1439.5121 610.49738 1784.7919 3620925
-1426.437 609.68835 1782.4266 3489339
-1414.0529 609.16425 1780.8944 3291960
-1403.9412 609.61853 1782.2224 3357753
-1384.7385 606.10095 1771.9387 3752511
-1374.3929 606.43463 1772.9142 3686718
-1371.0524 609.88977 1783.0154 3160631
-1356.1204 608.203 1778.0842 3094581
-1344.2705 607.88214 1777.1462 3094581
-1332.1022 607.41064 1775.7678 3028788
-1333.979 613.38953 1793.2469 3094581
-1322.7438 613.38953 1793.2469 3291960
-1295.2833 605.80103 1771.062 3357753
-1287.4675 607.34857 1775.5862 2831409
-1276.3429 607.34857 1775.5862 2700080
-1270.859 610.05627 1783.5022 3094581
-1259.6847 610.05627 1783.5022 3489339
-1272.2367 621.64948 1817.395 2568237
-1249.2559 615.93304 1800.683 2634030
-1232.5675 613.24316 1792.819 3291960
-1223.0193 614.08887 1795.2915 3555132
-1206.5927 611.46448 1787.6191 3555132
-1195.5209 611.53009 1787.8109 3555132
-1184.3413 611.54126 1787.8436 3489339
-1172.2362 611.07019 1786.4663 3620925
-1162.8964 612.04541 1789.3174 3620925
-1151.3019 611.84137 1788.7209 3752511
-1143.9474 613.90875 1794.765 3884097
-1132.7241 613.92041 1794.7991 3488312
-1114.603 610.15631 1783.7947 3291703
-1096.569 606.36407 1772.708 3686718
-1085.9038 606.61066 1773.429 3686718
-1080.1564 609.63788 1782.2791 3620925
-1070.9489 610.75513 1785.5452 3752511
-1059.2538 610.46222 1784.6891 3949890
-1045.412 608.91284 1780.1594 4015683
-1024.3398 603.07312 1763.087 3949890
-1011.5834 602.05542 1760.1116 3752511
-1003.6752 603.93237 1765.5989 3752511
-992.95404 604.13983 1766.2053 3620925
-993.64478 611.37341 1787.3528 3620925
-967.72101 602.20972 1760.5629 3818304
-961.28674 605.10291 1769.0211 3884097
-956.32617 609.00214 1780.4204 3686974
-945.99036 609.52985 1781.9633 3555388
-937.25281 611.1123 1786.5896 3555132
-933.80054 616.22083 1801.5243 3555132
-922.89709 616.47717 1802.2737 3423546
-907.09052 613.42395 1793.3477 3555132
-899.72711 616.07562 1801.0997 3357753
-903.02112 626.18475 1830.6539 3489339
-901.04462 632.85229 1850.1465 3884097
-889.45288 632.85229 1850.1465 3884097
-862.59094 621.84393 1817.9636 3620925
-861.28906 629.21393 1839.5098 3291960
-845.78729 626.26941 1830.9014 3357753
-833.6795 625.7915 1829.5042 3226167
-824.55835 627.57349 1834.7137 3555132
-814.05054 628.33545 1836.9414 3884097
-806.69421 631.58673 1846.4467 3620925
-796.76154 632.88617 1850.2455 3423546
-766.01141 617.44403 1805.1003 2962995
-760.39551 622.10217 1818.7184 3094581
-758.85919 630.29041 1842.6567 3357753
-736.4895 621.16064 1815.9658 3094581
-726.46149 622.31671 1819.3456 3357753
-710.12988 618.02362 1806.7949 3489595
-698.58685 617.82654 1806.2185 3094838
-687.33929 617.88849 1806.3998 3291448
-675.91852 617.79425 1806.1243 3225397
-668.14868 621.09064 1815.7612 3028018
-656.29706 620.64111 1814.447 3488056
-643.89984 619.65076 1811.5516 3357497
-632.30731 619.41309 1810.8568 3291960
-625.57159 624.01147 1824.3003 3094838
-623.2713 633.28766 1851.4193 3489339
-614.10883 635.81104 1858.7964 3818304
-593.71338 626.57727 1831.8013 4015683
-572.47272 616.06982 1801.0828 4344651
-568.98175 624.62531 1826.0948 3555391
-556.68585 623.6676 1823.2949 3686977
-553.41656 632.99438 1850.5619 3950406
-541.8222 632.99438 1850.5619 3358269
-530.47003 633.28345 1851.4069 3094583
-516.44885 630.32794 1842.7665 3357755
-504.63675 629.99518 1841.7937 3686463
-491.18762 627.55524 1834.6605 3620671
-483.01523 631.90167 1847.3672 2765360
-478.3739 641.1944 1874.5345 3423289
-466.67456 641.25653 1874.7162 4147269
-454.92886 641.25653 1874.7162 3489340
-444.20349 642.73273 1879.0321 3423802
-435.65128 647.51947 1893.0261 3358009
-421.3425 643.77856 1882.0895 3489339
-410.11914 644.67224 1884.702 3686717
-400.03745 647.46667 1892.8716 3949890
-387.97168 647.1225 1891.8655 3686718
-376.40417 647.61389 1893.3021 3160374
-358.75055 637.32526 1863.2231 3029045
-344.10294 631.86426 1847.2579 3160374
-329.62192 626.33972 1831.1069 3094581
-314.99326 620.1261 1812.9415 3291960
-301.23874 615.23291 1798.6361 3358266
-289.05646 613.29517 1792.9712 3555645
-276.3837 610.11816 1783.6831 3358266
-263.45569 606.086 1771.8951 3686718
-254.00864 610.05951 1783.5116 3818304
-242.8344 610.05951 1783.5116 2502444
-230.82785 607.86774 1777.1041 2041893
-219.81027 608.19025 1778.0468 2634029
-208.88284 608.80981 1779.858 3357753
-197.24347 607.30713 1775.4652 3226167
-186.53503 608.66266 1779.428 3226167
-175.58882 609.3653 1781.4821 3489339
-163.63562 606.4314 1772.9048 3226167
-153.08191 608.6344 1779.3453 2962995
-141.9451 608.68298 1779.4874 3028788
-131.56863 612.27832 1789.9984 3028788
-120.13378 611.1593 1786.7269 2634030
-108.8363 610.58099 1785.0363 2502701
-97.726852 611.04596 1786.3955 2896432
-86.442039 610.39288 1784.4862 3225397
-75.532768 612.59137 1790.9137 3094067
-64.385277 613.28802 1792.9503 2830896
-53.895458 621.86768 1818.033 2896432
-43.060009 629.98895 1841.7755 3291190
-31.45801 628.73578 1838.1117 3620155
-20.113132 634.14172 1853.9161 3685948
-8.4797773 632.79883 1849.9902 3685948
3.1058588 631.75616 1846.9419 3620155
14.695395 632.52539 1849.1908 3751998
25.86269 622.4541 1819.7473 3883327
37.120975 620.06555 1812.7644 3817534
49.028873 627.10504 1833.3444 3685948
61.112827 633.29657 1851.4453 3685948
73.568054 640.74628 1873.2246 4014913
84.952126 638.10034 1865.4893 3817534
96.699333 638.49219 1866.6346 3751741
107.9649 635.96234 1859.2386 3356983
117.62143 625.3703 1828.2728 3356983
129.36754 626.78223 1832.4006 3488569
140.50583 625.25909 1827.9478 3356983
152.38457 627.01227 1833.0731 3356983
164.25331 628.48151 1837.3684 3291190
175.5298 627.64044 1834.9097 3356983
187.11166 627.92773 1835.7494 3159604
199.12254 629.53802 1840.4572 3028018
210.32253 628.54865 1837.5647 3422776
220.75096 625.47589 1828.5815 3225397
233.82367 629.82898 1841.3077 3685948
246.83086 633.60449 1852.3455 3751741
258.43637 633.60449 1852.3455 3488569
270.58966 634.88977 1856.103 3093811
282.21875 634.88977 1856.103 3028275
290.51932 627.69824 1835.0786 3028018
297.91583 619.17529 1810.1616 3685948
309.40976 619.48096 1811.0553 3685948
319.95114 617.92542 1806.5078 3225397
332.95227 621.06433 1815.6844 3291190
343.66302 619.86481 1812.1775 3488569
352.16278 614.88147 1797.6088 3488569
363.58078 615.14447 1798.3777 3356983
374.84821 615.14447 1798.3777 3422776
385.6218 614.35785 1796.0778 3488569
398.32977 616.61017 1802.6625 3291190
410.86938 618.4848 1808.1431 3290933
422.19797 618.4848 1808.1431 3422776
431.73169 615.92419 1800.6571 3817534
444.11865 617.46088 1805.1497 3751998
456.37067 618.73828 1808.8842 3620925
466.87622 617.64337 1805.6831 3752511
480.30353 620.37402 1813.6663 3949890
491.66669 620.37402 1813.6663 4015683
504.5004 622.18756 1818.9681 3818304
516.05676 622.38049 1819.5321 3752511
530.46936 625.93536 1829.9248 3818561
536.51514 619.67609 1811.6257 4015683
547.60223 619.3783 1810.7551 3489339
559.57526 620.07422 1812.7898 3423547
572.39105 621.6579 1817.4196 3555133
585.28979 623.26801 1822.1268 3621181
595.31036 621.81024 1817.865 3949890
607.70538 622.84082 1820.8779 4476234
619.11371 622.84082 1820.8779 4146499
626.06329 618.43634 1808.0013 2962226
643.78381 624.6391 1826.1351 3159349
656.58398 625.93457 1829.9224 3093557
669.89758 627.6665 1834.9858 3291191
680.94177 627.24969 1833.7672 3554105
691.82184 626.69794 1832.1542 3554362
704.2406 627.5354 1834.6024 3422520
714.55176 626.49792 1831.5695 3488313
728.55188 628.67657 1837.9388 3817277
739.10461 627.85895 1835.5485 3751740
752.09161 629.10254 1839.1841 2962226
771.08929 635.2605 1857.1869 2699055
791.18469 642.12622 1877.2589 3225399
798.82208 638.82806 1867.6167 3225399
799.92993 630.47876 1843.2074 3356728
811.04639 630.14325 1842.2266 3225142
827.328 633.77399 1852.8409 2962227
841.27429 635.53998 1858.0039 3356984
849.11456 632.70789 1849.7242 3356983
867.03809 637.36438 1863.3375 3225397
870.33282 631.28619 1845.5681 2962225
892.51801 638.88989 1867.7975 3225653
904.2204 638.88989 1867.7975 2962225
915.53802 638.62158 1867.0129 2501674
927.23535 638.62158 1867.0129 2764846
934.77466 635.79333 1858.7446 2699053
956.55017 642.59845 1878.6395 3488569
968.47882 642.70361 1878.9468 3093811
980.32672 642.75323 1879.0919 2370088
987.80084 639.96808 1870.9495 2699053
997.55896 638.71057 1867.2732 3422776
1000.2488 633.00909 1850.605 3291190
1005.6691 629.14648 1839.3125 3093811
1017.8818 629.57251 1840.558 3159604
1025.7087 627.30676 1833.9341 3620155
1034.075 625.41736 1828.4104 3488569
1048.363 627.11176 1833.364 3356983
1044.8613 618.24316 1807.4366 3422776
1046.8217 612.76202 1791.4124 2962225
1072.4218 621.08801 1815.7535 2896432
1083.2955 620.80005 1814.9116 3093811
1097.667 622.50165 1819.8864 3093811
1111.3351 623.7735 1823.6046 3159604
1131.7198 628.75098 1838.1564 2896432
1143.2365 628.75098 1838.1564 2699053
1152.8826 627.73254 1835.1788 2896432
1167.7504 629.54932 1840.4901 2896689
1179.2816 629.54932 1840.4901 3028018
1195.9608 632.27081 1848.4465 3093812
1208.3951 632.71765 1849.7528 2764846
1205.0929 624.99445 1827.1741 2764846
1204.4701 618.79321 1809.0447 2962225
1213.8186 617.78259 1806.0901 3028018
1230.9318 620.70599 1814.6367 2896432
1238.519 618.81635 1809.1123 3028018
1248.2402 618.01746 1806.7769 3225397
1253.833 615.20728 1798.5613 3159604
1259.9952 612.72424 1791.302 3028018
1276.1621 615.10712 1798.2683 3422776
1286.8674 614.83887 1797.4841 3291190
1301.4199 616.39752 1802.0408 3291190
1327.2427 623.22137 1821.9904 3356983
1330.8973 619.60834 1811.4276 2961712
1355.2161 625.59534 1828.9307 2501418
1360.5198 622.77783 1820.6937 2895662
1372.8705 623.20612 1821.9458 2764333
1387.7197 624.7522 1826.4658 2764589
1416.5182 632.50153 1849.1211 2961968
1438.2999 637.01752 1862.3235 3159348
1464.0282 643.19464 1880.3823 3028018
1485.3904 647.37024 1892.5898 2896432
1503.1078 649.90387 1899.9968 2830639
1528.6732 655.76422 1917.1296 3028018
1534.7383 653.23334 1909.7305 3817021
1533.1494 647.50891 1892.9952 3619642
1538.4358 644.75385 1884.9408 2501161
1546.1733 643.06024 1879.9895 2566954
1567.9094 647.17023 1892.005 2895919
1560.438 639.2533 1868.8599 2566954
1565.8264 636.68335 1861.3464 2566954
1572.2656 634.57544 1855.1841 2501161
1579.2885 632.73224 1849.7955 2566954
1591.4875 632.97467 1850.5043 2632747
1604.3927 633.49243 1852.0178 2435368
1615.098 633.14032 1850.9885 2501161
1631.6565 635.07141 1856.634 2698540
1646.014 636.12463 1859.7131 2764333
1659.0831 636.66852 1861.3032 2764333
1671.8851 637.10309 1862.5736 2698540
1689.1324 639.21381 1868.7444 3422263
1701.3044 639.38812 1869.254 3817021
1708.1843 637.58472 1863.9817 3882814
1729.495 641.15558 1874.4211 3948609
1742.2156 641.5152 1875.4725 4146757
1761.6632 644.33051 1883.7031 3093813
1799.6276 653.83569 1911.4916 2501676
1779.3929 642.21033 1877.5048 2633519
1797.3585 644.4342 1884.0062 2765105
1805.8656 643.25989 1880.5731 2830641
1817.365 643.15973 1880.2803 2896434
1828.2493 642.8446 1879.359 3028020
1837.3461 641.909 1876.6238 3159606
1848.175 641.58667 1875.6814 3093813
1859.1658 641.32416 1874.9139 3093813
1891.5028 648.38208 1895.548 3291192
1896.4904 646.03558 1888.6877 3620157
1890.601 640.03583 1871.1476 3949122
1902.3243 640.03583 1871.1476 4014915
1908.5374 638.19324 1865.7609 3620157
nan nan nan 16777215
nan nan nan 16777215
nan nan nan 16777215
nan nan nan 16777215
nan nan nan 16777215
nan nan nan 16777215
nan nan nan 16777215
nan nan nan 16777215
nan nan nan 16777215
nan nan nan 16777215
nan nan nan 16777215
nan nan nan 16777215
-1562.4885 604.31 1735.0901 3488569
-1551.9421 604.43634 1735.4528 3488569
-1543.0527 605.21448 1737.6869 3620155
-1544.6193 610.13367 1751.8109 3685948
-1520.9679 605.09082 1737.332 3751741
-1506.7443 603.75305 1733.491 3488569
-1497.8224 604.53571 1735.738 3028018
-1490.1312 605.83008 1739.4545 2962225
-1485.845 608.53802 1747.2295 3028018
-1480.4745 610.83887 1753.8357 3093811
-1469.1099 610.68243 1753.3866 2897202
-1451.0665 607.7265 1744.8995 2765873
-1441.0693 608.12115 1746.0327 3621182
-1433.7843 609.67511 1750.4943 3555389
-1422.573 609.57062 1750.1942 3358009
-1411.1022 609.35236 1749.5675 3226168
-1400.1405 609.35236 1749.5675 3094581
-1397.405 612.96063 1759.9276 3160374
-1392.1755 615.52374 1767.2867 3357240
-1372.7893 611.81848 1756.6483 3423032
-1364.2791 612.93976 1759.8678 3225654
-1347.1742 610.18646 1751.9625 3159861
-1330.8712 607.75409 1744.9788 2962996
-1313.7852 604.9209 1736.844 3028788
-1307.9874 607.28143 1743.6216 3028275
-1297.6061 607.53564 1744.3516 3028531
-1286.0414 607.23541 1743.4895 3160631
-1273.4161 606.42499 1741.1627 3357753
-1257.7272 604.12903 1734.5703 3094324
-1244.3364 602.90649 1731.0603 3028788
-1239.0129 605.60565 1738.8101 3226167
-1239.8071 611.36938 1755.3588 3291960
-1230.3082 612.11517 1757.5001 2962995
-1219.297 612.11517 1757.5001 2765615
-1212.9352 614.47052 1764.2629 3357755
-1203.6243 615.36157 1766.8212 3818305
-1178.0488 607.87653 1745.3302 3555134
-1168.49 608.59332 1747.3883 3489340
-1158.8285 609.26971 1749.3303 3489341
-1147.3369 608.98761 1748.5204 3620925
-1136.3618 608.97687 1748.4894 3620925
-1126.0326 609.31531 1749.4613 3686718
-1113.6741 608.55164 1747.2686 3686974
-1102.0183 608.16064 1746.1459 3751484
-1086.7657 605.75684 1739.2443 3620669
-1075.8756 605.76068 1739.2552 3620926
-1067.1454 606.9931 1742.7938 3752769
-1056.2262 606.9931 1742.7938 4015684
-1041.4974 604.78094 1736.4423 3949892
-1037.5802 608.86639 1748.1722 3949892
-1026.6273 608.86639 1748.1722 4015683
-1012.0979 606.72229 1742.0162 3489339
-995.74878 603.42877 1732.5598 3423546
-984.28961 603.05865 1731.4971 3620925
-970.94482 601.51208 1727.0566 3291960
-955.1203 598.37708 1718.0555 3555388
-940.06818 595.6601 1710.2545 3884097
-947.87555 607.53198 1744.3409 3752511
-930.21002 603.16382 1731.7991 3357753
-912.23364 598.48853 1718.3756 3226167
-914.34955 607.04102 1742.9314 3226167
-904.89709 608.0271 1745.7626 3291960
-901.50891 613.16199 1760.5057 3555132
-890.47876 613.16199 1760.5057 3686718
-879.91473 613.487 1761.4388 3423546
-887.51947 626.6485 1799.2283 3489339
-873.16473 624.4444 1792.8998 3423546
-857.67682 621.36188 1784.0492 3423546
-847.01166 621.73804 1785.1294 3620925
-832.00354 618.89374 1776.9628 3160374
-824.58813 621.69678 1785.0109 3094581
-813.90729 622.08105 1786.1143 3028788
-802.91467 622.2345 1786.5547 3357753
-790.82556 621.53046 1784.5333 3752511
-778.18286 620.36493 1781.1869 3489339
-763.63324 617.62317 1773.3147 2962995
-751.68695 616.93713 1771.3448 2765616
-742.47461 618.50793 1775.8551 2436908
-729.84851 617.23956 1772.2133 2831409
-713.25226 612.52246 1758.6696 3094581
-699.07495 609.76727 1750.7589 3620925
-691.2019 612.5108 1758.6361 3620925
-680.69031 612.96722 1759.9465 3555132
-672.78699 615.82611 1768.1549 3620669
-663.19098 617.20538 1772.1151 3423546
-648.71545 614.01312 1762.9495 3226167
-638.48193 614.79486 1765.1941 3160631
-627.41986 614.7923 1765.1868 3292217
-616.21344 614.64569 1764.7659 3358009
-606.38879 615.89728 1768.3593 2963252
-602.91656 623.76733 1790.9559 3555132
-604.60217 637.37341 1830.0215 3686461
-580.90833 624.23328 1792.2936 3489338
-567.04211 621.34381 1783.9973 3094583
-555.86481 621.34381 1783.9973 3752513
-551.21826 628.79364 1805.3873 3621184
-539.90698 628.79364 1805.3873 2962997
-529.48309 629.84937 1808.4185 3555134
-517.44885 628.99359 1805.9613 3752513
-505.5065 628.21393 1803.7228 2962996
-495.64023 630.03748 1808.9586 2633776
-488.79938 635.88226 1825.74 3028790
-475.25235 633.07397 1817.677 3291447
-465.62741 635.48059 1824.5868 3357753
-458.75101 641.85394 1842.8859 3291960
-449.05688 644.51221 1850.5183 3423546
-438.16519 645.54706 1853.4895 3620925
-426.17667 644.97821 1851.8563 3884354
-414.45016 644.78516 1851.3021 3423802
-399.97327 640.17896 1838.0767 3291960
-391.5929 645.34668 1852.9142 3686718
-379.97754 645.336 1852.8835 3423546
-363.7146 637.18274 1829.474 3489339
-346.95462 627.59973 1801.9592 3094581
-334.29633 625.04102 1794.6128 3160374
-321.11234 621.28723 1783.8348 3160374
-307.99582 617.39783 1772.6678 3357753
-296.50201 616.59204 1770.3541 3423546
-280.82428 606.68481 1741.9086 3949890
-267.03915 600.23029 1723.3765 3752510
-259.72162 608.38196 1746.7814 2502444
-248.43874 607.55347 1744.4027 3752511
-238.19316 609.30231 1749.424 3489339
-226.11952 606.31805 1740.8555 2831409
-213.64178 601.89276 1728.1498 3160374
-201.54811 598.13483 1717.36 3094581
-191.65477 600.85126 1725.1593 3028788
-180.84612 600.85126 1725.1593 3159604
-170.01836 600.78375 1724.9655 2961968
-158.2606 597.19775 1714.6694 3028018
-147.83127 598.46729 1718.3145 3159348
-137.70758 601.27087 1726.3641 3027761
-126.95623 601.57812 1727.2463 2962225
-116.1345 601.57812 1727.2463 2501418
-105.41001 602.13367 1728.8414 2764589
-94.81002 603.60895 1733.0773 2764846
-84.963631 610.88434 1753.9663 2896432
-73.974495 610.88434 1753.9663 2896432
-63.211246 613.07532 1760.257 2764846
-52.738358 619.60364 1779.001 2896432
-41.618259 619.98938 1780.1085 3028018
-30.551558 621.74432 1785.1472 2830639
-19.301399 619.63641 1779.0951 3356983
-8.1489248 619.18872 1777.8097 3356983
3.0031998 622.00452 1785.8943 3488569
14.179185 621.42609 1784.2336 3488569
25.417974 622.89679 1788.4563 3685948
36.272846 616.93774 1771.3467 3883327
47.35498 616.73065 1770.7521 3093555
58.616833 618.49847 1775.8279 3093555
69.930855 620.16486 1780.6124 3027762
81.430862 622.79523 1788.1647 3225142
94.306793 634.03992 1820.4503 3554105
103.95386 623.49207 1790.1654 3290934
114.86904 621.86389 1785.4906 3225397
126.10439 622.10413 1786.1804 3488313
137.26984 621.98846 1785.8483 3027761
