# .PCD v0.7 - Point Cloud Data file format
VERSION 0.7
FIELDS x y z rgb
SIZE 4 4 4 4
TYPE F F F U
COUNT 1 1 1 1
WIDTH 1285
HEIGHT 1
VIEWPOINT 0 0 0 1 0 0 0
POINTS 1285
DATA ascii
739.79156 589.23737 1213.9338 3489341
746.15363 588.2569 1211.9139 3357755
754.58478 588.91101 1213.2616 3094583
763.18488 589.68262 1214.8512 3094583
771.66949 590.35059 1216.2274 3028790
779.65369 590.62646 1216.7958 2962997
788.71057 591.70178 1219.011 2962997
793.64807 589.69568 1214.8781 3028790
800.94067 589.46088 1214.3944 3028790
808.15295 589.17194 1213.7992 3094583
816.86517 589.97174 1215.4469 3029047
826.24139 591.23193 1218.0431 2634032
832.11884 589.98834 1215.4811 2173481
837.81 588.63635 1212.6958 2173481
848.47687 590.77325 1217.0981 2370860
853.24078 588.79852 1213.0298 2634289
859.39508 587.80969 1210.9927 2502703
865.39557 586.73389 1208.7762 2634032
872.96887 586.73389 1208.7762 2699825
875.70966 583.51373 1202.1422 2897204
889.64929 587.74707 1210.8636 3226169
899.61035 589.30261 1214.0684 3159350
905.62268 588.26709 1211.9349 3159606
908.47614 585.21393 1205.6449 2896434
921.87488 588.94806 1213.3379 3291192
931.10675 589.98083 1215.4656 3356985
944.73505 593.76001 1223.2513 3225399
951.4483 593.16724 1222.0302 3291192
960.46149 594.00629 1223.7588 3291192
970.6842 595.57428 1226.9891 3291192
980.38788 596.8017 1229.5177 3422778
986.7796 596.00946 1227.8856 3356985
996.68103 597.33295 1230.6123 3554364
1003.5812 596.85126 1229.6199 3620157
1010.445 596.35547 1228.5984 3685950
1017.1641 595.78229 1227.4176 3488314
1018.3484 592.00018 1219.6259 3356985
1024.1205 590.92163 1217.4038 3159606
1045.407 598.74469 1233.5208 3291192
1048.0289 595.84155 1227.5397 3159606
1055.7198 595.84155 1227.5397 2962227
1064.5474 596.47839 1228.8517 2567469
1075.3558 598.20807 1232.4152 2633262
1083.0773 598.20807 1232.4152 2106918
1089.277 597.37347 1230.6958 2106918
1096.9877 597.37347 1230.6958 2238504
1104.9965 597.53473 1231.028 2106918
1109.7177 595.92822 1227.7183 2106918
1112.7911 593.46503 1222.6437 2238504
1119.5892 593.00836 1221.7029 2370090
1127.1802 592.9751 1221.6343 2764848
1134.8341 592.9751 1221.6343 2962227
1143.202 593.34564 1222.3977 2633262
1148.7708 592.26813 1220.1779 2764848
1161.8037 595.02771 1225.863 2830898
1170.531 595.56036 1226.9604 3028020
1178.2183 595.56036 1226.9604 2962227
1188.2539 596.73969 1229.39 2896434
1195.364 596.44409 1228.7811 2830898
1206.0287 597.91461 1231.8105 2830641
1212.2631 597.1839 1230.3052 2896434
1219.9714 597.1839 1230.3052 2304297
1236.0304 601.24597 1238.6738 2699055
1244.5355 601.60583 1239.4152 2896434
1258.4006 604.53625 1245.4523 2896434
1271.499 607.06439 1250.6608 2633262
1276.5519 605.74377 1247.9401 2567469
nan nan nan 16777215
nan nan nan 16777215
nan nan nan 16777215
nan nan nan 16777215
nan nan nan 16777215
nan nan nan 16777215
nan nan nan 16777215
nan nan nan 16777215
nan nan nan 16777215
nan nan nan 16777215
nan nan nan 16777215
nan nan nan 16777215
nan nan nan 16777215
nan nan nan 16777215
nan nan nan 16777215
nan nan nan 16777215
nan nan nan 16777215
-1080.6432 611.22369 1243.2668 2765875
-1071.7596 610.60034 1241.9989 2897204
-1063.8412 610.52173 1241.8391 3028790
-1049.0581 606.47351 1233.6047 3028790
-1035.6115 603.14343 1226.8312 3226169
-1027.3469 602.80426 1226.1412 3094583
-1021.8174 604.07684 1228.7297 2897204
-1008.6867 600.84106 1222.1479 2699825
-998.65863 599.41785 1219.2532 3028790
-991.01953 599.41785 1219.2532 3160376
-979.25916 596.9057 1214.1432 2699825
-965.53723 593.14917 1206.5022 2502446
-959.58502 594.14404 1208.5259 2568239
-950.03943 592.91223 1206.0203 2634032
-946.06415 595.16498 1210.6024 2831411
-938.42383 595.1297 1210.5308 2831411
-930.49457 594.90924 1210.0823 2831411
-922.46228 594.61865 1209.4912 2634032
-912.53918 593.09436 1206.3907 2765618
-905.46887 593.41425 1207.0414 2897204
-895.48981 591.8172 1203.7928 2699825
-888.56635 592.22949 1204.6316 2634032
-881.30994 592.42511 1205.0294 2897204
-873.94281 592.54907 1205.2815 2962997
-867.62384 593.39197 1206.9961 3159862
-861.27502 594.22919 1208.699 3159606
-850.48676 591.99103 1204.1465 2370090
-835.11023 586.49054 1192.9581 1777953
-825.41241 584.91492 1189.7532 1646367
-814.60205 582.51489 1184.8715 1843490
-807.17853 582.51489 1184.8715 2369834
-811.67511 591.19714 1202.5317 2897204
-810.11902 595.59229 1211.4717 3160376
-805.22076 597.59015 1215.5354 3028790
-795.92505 596.33142 1212.9751 3094583
-794.3562 600.89343 1222.2545 3160376
-786.65759 600.8623 1222.1912 2962997
-776.54395 598.96777 1218.3375 2568496
-767.54004 597.90002 1216.1656 2831668
-759.92035 597.90002 1216.1656 2831668
-752.98627 598.44482 1217.2739 2107945
-745.63916 598.66925 1217.7303 2042152
-738.00964 598.66925 1217.7303 2371117
-727.70416 596.47577 1213.2687 2634289
-716.27191 593.30267 1206.8145 2831668
-714.4353 598.09497 1216.5623 2963254
-707.10352 598.34058 1217.0619 3029047
-699.38104 598.25745 1216.8928 3160633
-692.44464 598.85236 1218.1028 3489598
-685.68329 599.61346 1219.651 3489598
-680.52832 601.81244 1224.1238 3424062
-677.69977 606.14221 1232.9309 3292219
-668.62939 604.92474 1230.4545 2897461
-661.6413 605.58478 1231.797 2831925
-646.52643 598.73431 1217.8627 3160377
-638.5152 598.37732 1217.1366 4016452
-633.62469 600.97156 1222.4135 3555645
-624.11316 599.19281 1218.7954 3292473
-616.79486 599.50171 1219.4237 3753024
-611.56213 601.87085 1224.2427 2897715
-606.38086 604.35156 1229.2886 2897715
-596.60498 602.25793 1225.03 3226680
-592.84894 606.26575 1233.1821 3621181
-583.68878 604.78009 1230.1602 3226167
-570.77997 599.31848 1219.051 2897202
-562.76324 598.91516 1218.2306 2700079
-549.7132 593.07043 1206.342 2370858
-544.0498 595.14313 1210.558 3094837
-536.36908 595.03632 1210.3408 3226167
-527.99567 594.14709 1208.5321 2897459
-521.95428 595.89435 1212.0861 2699823
-517.29486 599.29419 1219.0016 3160632
-506.65634 595.76532 1211.8236 3489598
-501.32736 598.46735 1217.3197 2042153
-494.65564 599.62518 1219.6748 4147527
-487.93771 600.76251 1221.9882 6055525
-480.24625 600.71832 1221.8983 4345163
-469.61658 596.93787 1214.2086 3029303
-466.17035 602.31433 1225.1447 2963508
-460.90778 605.48468 1231.5934 2173992
-454.59146 607.3551 1235.3979 2173992
-447.48434 608.21558 1237.1482 2502957
-438.55902 606.59143 1233.8446 2700336
-431.08438 606.95154 1234.577 3095094
-422.6488 605.9472 1232.5342 3095094
-412.43747 602.31213 1225.1403 3160887
-403.78363 600.85681 1222.1801 2700336
-396.54272 601.48846 1223.4648 2897715
-388.83279 601.41962 1223.3248 3029301
-380.37592 600.16937 1220.7817 3358266
-369.76794 595.40411 1211.0889 3555645
-363.5188 597.60492 1215.5654 3160887
-356.39313 598.42804 1217.2397 3292473
-348.76675 598.42804 1217.2397 3621438
-339.58722 595.70349 1211.6979 3884609
-330.9404 593.81018 1207.8468 3950150
-321.50232 590.37531 1200.86 3490108
-311.81357 586.3045 1192.5797 2963508
-304.14032 585.91656 1191.7906 3424059
-297.18002 586.91718 1193.8259 3358266
-289.61316 586.74054 1193.4667 3292473
-280.82614 584.01709 1187.927 3621438
-273.30878 583.85773 1187.6028 3094837
-266.922 586.17212 1192.3105 3029045
-259.59949 586.50586 1192.9893 3095094
-252.12506 586.50586 1192.9893 3095094
-245.54059 588.63934 1197.329 2634543
-239.26639 591.67468 1203.5031 2766129
-234.34183 598.35364 1217.0884 3095094
-225.80019 595.93549 1212.1698 3818817
-218.14334 595.76562 1211.8242 3160887
-210.71428 596.22791 1212.7645 2963508
-203.209 596.5011 1213.3202 2766129
-195.84875 597.23779 1214.8187 3029301
-187.89439 596.14911 1212.6042 2831922
-180.34857 596.3194 1212.9507 2305578
-174.36833 601.90906 1224.3203 2963508
-166.95029 602.82153 1226.1764 3029301
-159.71158 604.50079 1229.592 3160634
-152.62076 606.93842 1234.5503 3094840
-145.91383 611.24438 1243.309 3358012
-138.81892 614.31909 1249.5632 3094840
-130.59561 612.46936 1245.8007 2765875
-122.19142 609.4823 1239.7249 2831668
-113.68983 605.57092 1231.7688 2897461
-105.78582 604.50458 1229.5999 3292219
-98.553307 607.40942 1235.5084 2897462
-91.450874 611.67944 1244.194 2569006
-83.122017 607.77789 1236.2579 2699823
-75.227814 606.57922 1233.8197 2699823
-67.464767 606.28461 1233.2205 2436651
-59.640446 605.29193 1231.2013 2568493
-51.915001 605.1568 1230.9265 2502701
-44.207954 605.2265 1231.0682 2700079
-36.511055 605.49396 1231.6122 2699823
-28.82646 606.16333 1232.9739 2502444
-21.069004 605.23004 1231.0754 2568237
-13.355934 605.23004 1231.0754 2370858
-5.6306157 603.9162 1228.403 2765616
2.0696168 605.05835 1230.7262 3028788
9.7525949 603.33221 1227.2151 2962995
17.327763 599.39862 1219.2139 2897204
25.038017 601.11517 1222.7056 2436650
32.626545 599.78967 1220.0094 2831409
40.050716 596.51941 1213.3575 2897458
48.01432 601.04523 1222.5634 2634286
55.848557 602.92914 1226.3953 2634030
63.42461 601.90704 1224.3163 2568237
71.095329 601.90704 1224.3163 2831665
78.530045 600.10358 1220.6479 2765616
86.666634 603.50775 1227.5721 2502444
94.201828 602.51044 1225.5436 2568237
101.60219 600.86609 1222.1989 2568237
109.58549 602.65802 1225.8438 2699823
117.67893 604.78131 1230.1627 2700079
125.452 605.09827 1230.8075 2897201
132.74083 603.17816 1226.9017 3028788
139.62138 599.7146 1219.8567 3028788
147.04147 598.80774 1218.0121 2962995
154.65456 598.73743 1217.8691 2897202
162.35112 598.98181 1218.3662 3028788
169.51819 597.3385 1215.0236 2831409
177.6586 599.11877 1218.6448 2765616
185.30449 599.15332 1218.7151 2962995
192.47351 597.70435 1215.7677 2831409
197.33246 589.46509 1199.0085 2568237
205.0302 589.99915 1200.0948 2699823
214.44463 595.26056 1210.797 2699823
221.701 594.37683 1208.9994 2041893
228.08965 591.30194 1202.7449 2173479
237.75961 596.6582 1213.6398 2502446
247.58357 602.05695 1224.6212 2370860
254.79227 600.96277 1222.3955 2173738
263.29822 602.90277 1226.3417 2239788
271.1774 603.33838 1227.2277 2371117
278.64249 602.854 1226.2424 2634289
286.51959 603.26312 1227.0746 2502703
295.58026 606.0777 1232.7997 2502703
303.642 606.75293 1234.1731 2436910
311.39337 606.78973 1234.2479 2042152
318.61832 605.82379 1232.2832 1910566
327.24438 607.50464 1235.7021 2173738
334.90707 607.36066 1235.4093 2239531
341.0809 604.58417 1229.7617 2173738
349.45737 605.74841 1232.1298 2107945
356.76794 605.05463 1230.7186 2173738
362.98495 602.57477 1225.6744 2436910
371.6203 604.12909 1228.8361 2568239
381.02844 606.85114 1234.3728 2502446
389.99753 608.77948 1238.2953 2765618
399.16296 610.93317 1242.6759 2634032
408.17444 612.77325 1246.4188 2239274
415.23657 611.67279 1244.1804 2699825
425.09747 614.65967 1250.2559 2699825
431.58942 612.75537 1246.3824 2502446
441.51337 615.70477 1252.3817 2568239
448.15646 614.05579 1249.0276 2765619
455.98203 614.05579 1249.0276 3423293
466.4245 617.52051 1256.075 4081223
474.71301 618.06573 1257.1841 3883845
482.12054 617.46497 1255.962 2831413
490.00931 617.48987 1256.0127 2962997
496.73508 616.07159 1253.1279 2436653
503.49252 614.73621 1250.4115 2502446
513.50421 617.354 1255.7363 2502446
520.69348 616.55078 1254.1025 2370860
529.87616 618.0968 1257.2473 2305067
536.87183 617.08374 1255.1866 2107688
540.55255 612.34467 1245.5471 2107688
547.54456 611.43823 1243.7034 1910309
556.09979 612.2785 1245.4124 2634032
559.82654 607.8526 1236.4099 3160376
564.16193 604.19946 1228.9791 2700082
568.14862 600.27618 1220.999 2568239
573.10815 597.47144 1215.2939 2831667
579.79272 596.51501 1213.3485 2897204
590.13776 599.30066 1219.0146 2962997
592.98639 594.49951 1209.2489 3094583
597.74579 591.711 1203.5769 3028790
606.45898 592.85718 1205.9082 2765618
608.64502 587.67279 1195.3629 2765618
616.13434 587.67279 1195.3629 3423548
621.7887 585.94366 1191.8457 3752513
629.25598 585.94366 1191.8457 2897204
636.80603 586.01978 1192.0006 2436910
646.66174 588.19135 1196.4177 2831411
655.85846 589.72064 1199.5283 2831411
666.67664 592.65674 1205.5005 2634032
674.1214 592.56171 1205.3073 2962997
678.51538 589.81683 1199.724 3028790
688.20911 591.68866 1203.5314 3028790
697.78973 593.42358 1207.0604 3028790
705.00769 593.13361 1206.4706 3094840
712.5672 593.13416 1206.4717 3357755
715.61407 589.41779 1198.9124 3423548
723.12567 589.41779 1198.9124 3291962
731.6228 590.21283 1200.5295 3226169
737.61127 588.98859 1198.0393 3160376
744.8678 588.79132 1197.6381 3094583
753.06592 589.3349 1198.7437 3028790
761.14264 589.77362 1199.6361 2897204
769.79419 590.64484 1201.4082 2831668
778.05188 591.19989 1202.5372 2962997
782.12201 588.5929 1197.2345 3094583
784.84253 585.02948 1189.9862 2897461
789.66779 583.08716 1186.0355 2634032
796.33313 582.52722 1184.8965 2897204
808.07629 585.65778 1191.2642 2831411
817.91565 587.36383 1194.7344 2436653
825.29358 587.28729 1194.5789 2370860
834.83124 588.73529 1197.5242 2436653
842.19708 588.63953 1197.3293 2634032
848.39026 587.73303 1195.4855 2765618
856.10144 587.88495 1195.7944 2699825
862.75031 587.31097 1194.627 2699825
869.79871 587.01648 1194.028 3094583
878.75653 588.00476 1196.0381 3029046
887.12103 588.58252 1197.2134 3093813
894.4472 588.46765 1196.9796 3028020
897.89679 585.82532 1191.605 2830641
904.80023 585.46143 1190.8649 3225399
920.19812 590.55499 1201.2255 3751743
928.89789 591.30212 1202.7452 3620157
938.62787 592.68774 1205.5636 3225399
946.83441 593.09698 1206.3961 3093813
957.54907 595.05841 1210.3857 2567469
958.73615 591.11469 1202.3639 2699055
955.93018 584.78973 1189.4985 3291192
982.81482 596.58533 1213.4916 3488571
992.18549 597.65015 1215.6575 3488571
998.6546 596.96423 1214.2623 3422778
1005.776 596.67578 1213.6755 2896434
1015.9175 598.1698 1216.7145 3159606
1023.5406 598.1698 1216.7145 2962227
1032.3579 598.86255 1218.1235 2764848
1041.1481 599.52954 1219.4802 2896434
1046.0051 597.93835 1216.2438 2962227
1053.5477 597.89441 1216.1543 2896434
1062.7501 598.78619 1217.9683 2765105
1065.4062 596.0033 1212.3076 2501676
1073.0018 596.0033 1212.3076 2304297
1082.8578 597.25012 1214.8438 2172711
1090.4692 597.25012 1214.8438 2106662
1096.582 596.43506 1213.1859 2106405
1102.2988 595.41724 1211.1156 2106406
1109.9995 595.47772 1211.2386 1975589
1111.371 592.16498 1204.5002 1975332
1114.4342 589.79224 1199.6741 1975332
1115.1434 586.21387 1192.3954 2435883
1132.5439 591.39905 1202.9423 2633262
1145.4486 594.18353 1208.6062 2896434
1155.3246 595.37067 1211.0209 3094070
1163.2576 595.54767 1211.3809 2896434
1171.8104 596.03754 1212.3773 2764848
1180.8402 596.76221 1213.8513 2764848
1189.9825 597.534 1215.4213 2699312
1195.8315 596.65289 1213.629 2830641
1205.1003 597.47839 1215.3081 2567469
1218.3081 600.23419 1220.9136 2764848
1226.1475 600.32721 1221.1028 2830898
1236.0077 601.40234 1223.2897 2633262
1248.1151 603.5509 1227.66 2501676
1257.5743 604.40045 1229.3879 2370090
nan nan nan 16777215
nan nan nan 16777215
nan nan nan 16777215
nan nan nan 16777215
nan nan nan 16777215
nan nan nan 16777215
nan nan nan 16777215
nan nan nan 16777215
nan nan nan 16777215
nan nan nan 16777215
nan nan nan 16777215
nan nan nan 16777215
nan nan nan 16777215
nan nan nan 16777215
nan nan nan 16777215
nan nan nan 16777215
nan nan nan 16777215
-1049.2705 601.00226 1207.173 2963254
-1057.7952 610.284 1225.8163 2897204
-1047.3245 608.66223 1222.5588 3028790
-1036.7793 606.97302 1219.1659 2897204
-1028.5229 606.60858 1218.4338 2831411
-1017.9488 604.86151 1214.9247 2699825
-1007.5163 603.17285 1211.5328 2568239
-990.1712 597.28876 1199.7141 2634032
-979.2016 595.18988 1195.4983 3094583
-970.25171 594.29578 1193.7024 3028790
-959.65668 592.37225 1189.8389 2634032
-955.15051 594.2066 1193.5233 2436653
-947.67267 594.2066 1193.5233 2700082
-937.34277 592.40399 1189.9026 3028790
-925.74823 589.76691 1184.6057 2962997
-924.36426 593.64465 1192.3945 2765618
-917.77069 594.21259 1193.5353 2502446
-906.72302 591.88226 1188.8546 2700082
-899.27448 591.88226 1188.8546 2897204
-890.03564 590.69415 1186.4681 2962997
-882.40393 590.56146 1186.2017 2765618
-871.82867 588.43994 1181.9403 3094583
-864.42346 588.43994 1181.9403 3160376
-859.68774 590.27289 1185.6219 3160633
-852.29529 590.29767 1185.6718 3225142
-847.80493 592.35059 1189.7953 2896177
-837.01947 590.00256 1185.0791 2501933
-826.25403 587.62683 1180.3071 2107174
-818.85907 587.62683 1180.3071 2041382
-811.17969 587.42084 1179.8934 2041639
-808.18103 590.6319 1186.3431 2502189
-803.60022 592.73553 1190.5685 2831411
-804.14087 598.69153 1202.5317 3226169
-799.48688 600.8562 1206.8796 3094583
-789.3717 598.91864 1202.9879 3094583
-783.9632 600.54919 1206.2631 2962997
-777.32397 601.25964 1207.6899 2897204
-768.4079 600.20551 1205.5726 2897461
-760.64191 600.03766 1205.2356 2963511
-753.5946 600.43915 1206.042 2700339
-745.09595 599.68066 1204.5184 2436910
-737.23816 599.42773 1204.0104 2634289
-720.2774 591.69159 1188.4717 2897461
-711.06915 590.22906 1185.5339 3094840
-704.39502 590.86115 1186.8036 3094840
-696.84705 590.76593 1186.6123 3292219
-694.17444 594.84644 1194.8085 3358012
-687.38348 595.44843 1196.0176 3292219
-680.67877 596.13916 1197.405 3358012
-677.14087 599.64972 1204.4563 3029047
-669.59271 599.64807 1204.453 2831925
-662.04645 599.64807 1204.453 2766132
-646.18829 592.03284 1189.157 2502703
-645.28381 598.1001 1201.3438 3029047
-641.75146 601.84613 1208.868 3423549
-636.58038 604.12653 1213.4484 3950403
-628.44714 603.61682 1212.4247 3621438
-618.7464 601.5708 1208.3149 3687231
-610.71259 601.11469 1207.3988 4147782
-603.14783 601.11469 1207.3988 3818817
-598.30981 603.8667 1212.9265 3292473
-590.74463 603.90161 1212.9967 3292473
-581.74188 602.44873 1210.0784 3686974
-575.38702 603.73584 1212.6637 3028788
-565.90649 601.73383 1208.6425 2962995
-554.93158 598.06702 1201.2772 2897202
-546.19025 596.73956 1198.611 2634030
-536.79419 594.64984 1194.4136 2765616
-525.77332 590.67566 1186.431 2568237
-524.79956 598.03674 1201.2164 2568493
-519.49634 600.60663 1206.3783 2897202
-508.75595 596.87341 1198.8798 3620925
-501.54575 597.23193 1199.6 3555391
-496.9104 600.71423 1206.5945 2502957
-489.35074 600.71423 1206.5945 2831922
-486.92355 607.11365 1219.4484 3489852
-478.74664 606.43378 1218.0828 3226936
-466.53857 600.54291 1206.2504 3095094
-458.17734 599.49133 1204.1382 3292730
-454.55035 604.70264 1214.6056 3095351
-445.03055 602.11859 1209.4153 3358266
-435.33319 599.2005 1203.5541 3029301
-429.12808 601.07123 1207.3115 3029301
-422.94446 603.03961 1211.2653 3226680
-417.37979 605.97864 1217.1686 2831922
-410.06866 606.44415 1218.1036 2700336
-402.80829 607.00385 1219.2279 2634543
-394.47598 605.93872 1217.0884 2897715
-386.85056 605.93872 1217.0884 3292473
-376.38245 601.39661 1207.9651 3753024
-367.00507 598.44666 1202.0398 4081989
-357.72165 595.52948 1196.1804 3621438
-351.00137 596.84583 1198.8245 3226680
-343.40866 596.70386 1198.5393 3489852
-334.10614 593.51819 1192.1405 3160886
-325.48853 591.4314 1187.949 3160634
-317.10172 589.67596 1184.4231 3160886
-307.83719 586.16528 1177.3715 3424059
-299.25311 583.80963 1172.6399 3621438
-291.65836 583.31403 1171.6444 3358266
-285.27121 585.27039 1175.574 3292473
-277.38873 584.18127 1173.3864 3687231
-270.03708 584.18127 1173.3864 3095094
-264.42883 588.05829 1181.1738 2765616
-256.64667 587.18494 1179.4196 3029558
-249.43318 587.59937 1180.252 3095094
-242.54602 588.83136 1182.7266 3029045
-237.0014 593.50311 1192.1102 3621182
-230.66118 596.42169 1197.9724 3160630
-221.88618 593.02911 1191.1582 2897459
-214.42322 593.02911 1191.1582 3160374
-208.37404 597.08026 1199.2953 2765872
-201.80571 599.8913 1204.9415 2568493
-193.26105 596.81757 1198.7676 2634030
-185.01651 594.45953 1194.0314 2502701
-176.89323 592.3089 1189.7115 2305578
-171.30206 598.82043 1202.7906 3292473
-165.68109 605.82239 1216.8547 3095094
-158.13805 606.13257 1217.4777 3029048
-150.82773 607.41144 1220.0465 2963254
-143.69511 609.58075 1224.4037 3029047
-136.03337 609.62335 1224.4894 2765875
-128.03131 608.05487 1221.3389 2568496
-120.61386 609.23999 1223.7194 2897461
-112.82954 608.60699 1222.4479 2765875
-104.74325 606.13446 1217.4816 3160633
-96.759598 603.91406 1213.0217 3029048
-88.921028 602.29785 1209.7754 2766129
-81.499771 603.47046 1212.1306 2569007
-74.056221 604.70203 1214.6044 2436907
-66.47747 604.98523 1215.1732 2634030
-58.619892 602.47607 1210.1333 2831666
-50.881622 600.6297 1206.4247 2963508
-42.989426 596.00507 1197.1356 3029044
-35.699295 599.53674 1204.2294 2634030
-28.273087 602.06366 1209.3049 2568237
-20.714376 602.58606 1210.3542 2502444
-13.11979 602.06567 1209.309 2502444
-5.5386567 601.58362 1208.3408 2765616
2.0279572 600.39478 1205.9528 2634030
9.548008 598.16339 1201.4709 2436910
17.155624 600.9668 1207.1018 2831411
24.79878 602.91882 1211.0227 2765617
32.386215 602.91882 1211.0227 3160375
39.562458 596.71698 1198.5656 2897460
47.071842 596.71698 1198.5656 2568239
55.025543 601.57452 1208.3224 2502444
62.536625 601.0033 1207.175 2568237
70.152626 601.45496 1208.0823 2568237
77.657928 600.96191 1207.092 2502444
85.672279 604.14612 1213.4878 2370858
93.026955 602.53851 1210.2588 2502444
100.6096 602.53851 1210.2588 2436651
108.16261 602.37347 1209.9272 2502444
116.0497 603.96869 1213.1313 2699823
123.56123 603.53339 1212.2571 2765616
131.23605 603.90002 1212.9934 3291962
138.74242 603.49365 1212.1772 3489340
145.24513 598.99042 1203.1321 3160375
152.4897 597.84009 1200.8214 2831411
160.09537 598.14697 1201.4379 3094583
167.11369 596.33044 1197.7892 3160374
174.04314 594.36652 1193.8445 2634030
182.65128 598.06104 1201.2654 2765616
188.95081 594.20319 1193.5165 2897202
196.42857 594.20319 1193.5165 2897202
204.8446 596.9375 1199.0085 2436651
212.39381 597.04169 1199.2178 2107686
219.00653 594.59613 1194.3057 1976100
225.88777 593.01715 1191.1342 2107686
233.44536 593.258 1191.6178 2568237
239.25668 589.18353 1183.434 2568238
251.10104 599.76428 1204.6864 2305067
260.00287 602.90424 1210.9933 2371117
266.9902 601.55255 1208.2783 2502703
275.76205 604.18518 1213.5663 2502703
283.37457 604.20471 1213.6055 2436910
291.77234 605.85376 1216.9177 2436910
299.30042 605.65887 1216.5264 2502703
306.5787 604.98083 1215.1643 2765875
313.19308 603.05725 1211.3007 2700339
320.19864 601.96002 1209.0968 2502703
329.15604 604.49823 1214.1949 2239531
337.43335 605.70087 1216.6106 2042152
345.9866 607.33478 1219.8925 2173738
353.5538 607.20459 1219.631 2173738
359.9678 605.14124 1215.4866 2436910
367.0643 604.28699 1213.7708 2765618
375.78058 606.0799 1217.3719 2305067
384.80203 608.28387 1221.7988 2436653
394.46939 611.40295 1228.0638 2568239
401.73828 610.75635 1226.7651 2634032
408.01456 608.65332 1222.5409 2699825
415.67416 608.65332 1222.5409 2634032
425.34891 611.5506 1228.3605 3028790
433.20038 611.77014 1228.8014 2305067
446.00604 618.85614 1243.0343 2765618
453.62637 618.62744 1242.575 3160376
462.99774 620.75421 1246.8468 2634032
471.22409 621.30072 1247.9445 2699825
479.04288 621.30072 1247.9445 2962997
484.0098 617.66138 1240.6345 3028790
492.591 618.67657 1242.6736 1910309
499.83807 618.01044 1241.3357 1910309
505.69913 615.67743 1236.6495 2107688
513.69019 615.96887 1237.235 2502446
518.09448 612.01477 1229.2927 2897204
531.19458 618.2981 1241.9135 2239274
534.68439 613.37543 1232.0258 2239274
540.02814 610.68927 1226.6304 2436653
544.46527 607.06775 1219.3562 2041895
551.17542 606.04565 1217.3032 1910309
557.03375 604.12781 1213.4509 2305067
564.61951 604.10974 1213.4147 2568239
565.94922 597.48749 1200.1132 2502446
573.46826 597.48749 1200.1132 2173481
581.49518 598.00964 1201.1621 2634032
584.16925 593.08398 1191.2684 3226169
590.1283 591.57574 1188.2389 2699825
593.21094 587.25745 1179.5652 2239274
600.60126 587.25745 1179.5652 2634032
608.61023 587.85498 1180.7654 2700082
618.34454 590.08466 1185.2439 3094583
626.18701 590.47742 1186.0328 3555134
627.68469 584.94818 1174.9269 3357755
640.8526 590.29675 1185.6699 2568239
649.40625 591.32123 1187.7277 2502446
657.2027 591.64075 1188.3695 2502446
660.11359 587.60425 1180.2617 2765618
670.39612 590.14636 1185.3679 3226169
680.24414 592.25452 1189.6023 3226169
687.29987 591.91217 1188.9147 3226169
696.32404 593.25421 1191.6104 3160376
703.72601 593.20044 1191.5023 3226169
709.84613 592.07855 1189.2489 3291962
717.04254 591.86847 1188.8268 3357755
724.04291 591.50244 1188.0917 3357755
731.48663 591.50244 1188.0917 3291962
737.79858 590.59637 1186.2719 3226169
744.65253 590.138 1185.3511 2962997
752.23016 590.25653 1185.5891 3028790
760.76892 591.11951 1187.3225 2896947
766.85419 590.07788 1185.2303 2436397
773.20099 589.25555 1183.5786 2436396
778.64502 587.7674 1180.5895 2436653
778.09406 581.82446 1168.6525 2305067
780.16254 577.93274 1160.8356 2897460
795.82196 584.08795 1173.1989 3489341
803.17242 584.08795 1173.1989 3226169
813.0708 585.92401 1176.8868 2436653
824.77588 589.0174 1183.1002 2765618
831.43805 588.48639 1182.0336 2831668
838.84387 588.48639 1182.0336 2765618
845.09497 587.68335 1180.4207 2699825
852.01892 587.35815 1179.7675 2634032
857.19446 585.84357 1176.7253 2962997
863.4118 585.06079 1175.153 2897204
872.99982 586.55591 1178.1561 2830898
881.58679 587.35907 1179.7693 3028020
887.91907 586.65918 1178.3635 3028020
895.30194 586.65918 1178.3635 2962227
907.46399 589.76526 1184.6024 3817536
916.89551 591.06073 1187.2045 3817536
934.32251 597.448 1200.0339 3093813
942.1051 597.61542 1200.3702 3028020
940.38446 591.79974 1188.6888 2896434
946.86548 591.19623 1187.4767 2764848
955.25928 591.78723 1188.6637 3093813
966.6474 594.20972 1193.5294 3356985
976.1886 595.46826 1196.0575 3093813
980.10901 593.30524 1191.7128 2962227
993.95081 597.13538 1199.406 2830641
1001.7072 597.27948 1199.6954 2830641
1009.2205 597.27759 1199.6917 2962227
1014.5604 595.99902 1197.1235 3093813
1022.6721 596.35553 1197.8396 2764848
1031.098 596.88873 1198.9106 2633519
1041.3359 598.45557 1202.0577 2962227
1044.5491 595.99182 1197.109 2896434
1052.9475 596.50061 1198.131 2633262
1058.3685 595.32745 1195.7747 2304297
1063.42 593.96442 1193.0367 2304297
1069.1163 592.97797 1191.0554 2238504
1084.2238 597.18884 1199.5134 2106918
1089.2053 595.80292 1196.7296 1975589
1094.4023 594.55292 1194.2189 1909539
1093.0497 589.78583 1184.6437 1777953
1097.2928 588.08215 1181.2217 1843746
1108.0078 589.84637 1184.7654 2370090
1117.2892 590.82916 1186.7394 2567469
1125.527 591.25079 1187.5862 2567469
1137.7831 593.76373 1192.6338 2567469
1147.0499 594.69421 1194.5027 2764848
1157.2308 596.08337 1197.293 2830641
1166.3606 596.91681 1198.9669 2764848
1174.6088 597.29114 1199.7189 2699055
1181.4755 596.96277 1199.0593 2699055
1189.3976 597.16846 1199.4724 2765105
1198.1343 597.77795 1200.6967 2830641
1206.7876 598.33856 1201.8226 2830641
1216.3873 599.3584 1203.8712 2567469
1226.9552 600.83984 1206.8468 2567469
1239.0685 603.05536 1211.2969 2370090
nan nan nan 16777215
nan nan nan 16777215
nan nan nan 16777215
nan nan nan 16777215
nan nan nan 16777215
nan nan nan 16777215
nan nan nan 16777215
nan nan nan 16777215
nan nan nan 16777215
nan nan nan 16777215
nan nan nan 16777215
nan nan nan 16777215
nan nan nan 16777215
nan nan nan 16777215
nan nan nan 16777215
nan nan nan 16777215
nan nan nan 16777215
nan nan nan 16777215
-1047.5133 611.91724 1213.9014 3029047
-1036.1661 609.71552 1209.5337 2897204
-1023.3007 606.5813 1203.316 2831411
-1010.4487 603.40857 1197.0222 2765618
-1002.429 603.09576 1196.4016 2634032
-994.81671 603.02521 1196.2616 2634032
-986.69177 602.64044 1195.4983 2502446
-975.16901 600.15863 1190.575 2239274
-963.7771 597.71973 1185.7367 1976102
-954.98804 596.86963 1184.0504 1976102
-946.99701 596.50903 1183.335 2370860
-942.7749 598.5354 1187.3549 2765618
-931.53491 596.10321 1182.5299 3094583
-923.08936 595.43451 1181.2034 3357755
-918.37109 597.17871 1184.6636 2962997
-906.95795 594.5625 1179.4735 3028790
-897.19122 592.99146 1176.3569 3226169
-888.29089 591.97174 1174.3341 3357755
-883.86725 593.9433 1178.2452 2699825
-875.19403 593.06836 1176.5095 2436653
-865.76501 591.66211 1173.7198 3028790
-857.48608 591.02435 1172.4547 3160376
-849.90656 590.86188 1172.1323 3291962
-848.88959 595.29865 1180.934 3423548
-839.59601 593.95831 1178.275 2897460
-831.05249 593.12946 1176.6307 2963253
-824.06763 593.4082 1177.1837 2305067
-817.33258 593.87354 1178.1068 2173481
-810.40253 594.20435 1178.7631 2107688
-801.28644 592.92365 1176.2224 2370860
-799.32477 596.96228 1184.2341 2962997
-791.90515 596.96228 1184.2341 3357755
-785.25085 597.54462 1185.3894 3226169
-777.48242 597.28217 1184.8688 3160376
-773.05896 599.60919 1189.485 3028790
-768.27521 601.69934 1193.6313 3160119
-760.79675 601.69934 1193.6313 3555391
-750.62958 599.55176 1189.3711 3423805
-743.1778 599.55176 1189.3711 2831668
-734.53662 598.58252 1187.4484 2568496
-727.62897 599.02051 1188.3173 3160633
-715.72192 595.30933 1180.9551 3358012
-706.73499 593.97479 1178.3076 2897718
-699.03326 593.70361 1177.7698 3094840
-694.73853 596.3512 1183.022 3358012
-684.68634 594.06049 1178.4777 3292219
-676.71558 593.54535 1177.4558 3292219
-669.48169 593.67249 1177.7079 3160633
-664.35034 595.6875 1181.7053 2963254
-659.92059 598.38422 1187.0549 2634289
-652.48334 598.38422 1187.0549 2634289
-640.5733 594.23499 1178.8239 2700082
-633.37494 594.41077 1179.1726 3226683
-628.28302 596.59088 1183.4974 3160890
-623.74738 599.35767 1188.9861 3029301
-620.73975 603.67737 1197.5553 3687487
-614.20642 604.63196 1199.449 3884610
-606.5816 604.5224 1199.2317 3950403
-597.44397 602.88354 1195.9806 4016196
-587.39258 600.26923 1190.7944 3226680
-584.81073 605.31921 1200.8124 3226937
-577.28723 605.31921 1200.8124 3489595
-572.72626 608.46655 1207.0559 2831409
-562.80115 605.92297 1202.0101 2765616
-548.88531 598.95569 1188.1886 2897459
-538.83789 596.07611 1182.4762 3160374
-531.19263 595.81061 1181.9496 2897459
-524.4068 596.51532 1183.3474 2239272
-516.99274 596.51532 1183.3474 2699823
-518.42584 606.8717 1203.8922 3094581
-506.78601 602.00488 1194.2375 3621181
-499.99939 602.84369 1195.9015 3687231
-494.40961 605.17291 1200.5221 2634799
-486.64246 604.86768 1199.9166 2239785
-481.22574 607.5202 1205.1787 2634543
-473.67493 607.5202 1205.1787 3226680
-464.64053 605.58667 1201.3429 3292473
-455.88705 603.96155 1198.1191 2831922
-448.35544 603.9278 1198.0521 2634543
-441.405 604.68915 1199.5625 3160887
-433.88937 604.68915 1199.5625 3950403
-427.3996 606.14404 1202.4486 4081989
-420.61768 607.22937 1204.6017 3292473
-413.66266 608.09991 1206.3286 2831667
-406.52603 608.73083 1207.5803 2831923
-401.59467 612.75055 1215.5544 3160632
-391.89252 609.5058 1209.1176 2831924
-381.8125 605.53369 1201.2379 3424061
-370.53723 599.46814 1189.2053 4015942
-361.79306 597.3327 1184.969 4015941
-352.69571 594.51239 1179.3741 3358268
-343.88351 592.06238 1174.5139 2765874
-338.60236 595.71747 1181.7648 3687233
-329.30994 592.32098 1175.027 3884355
-321.1713 590.89197 1172.1921 3950149
-313.83173 590.90057 1172.2092 3950148
-306.2233 590.3913 1171.1989 3884610
-297.15036 586.96411 1164.4001 3424059
-289.58237 586.41199 1163.3048 3621438
-282.23193 586.28326 1163.0494 3950403
-274.80258 585.97937 1162.4467 3818817
-269.05017 589.33221 1169.0979 3095094
-263.74548 593.88086 1178.1213 2699823
-255.285 591.38086 1173.162 2831922
-247.4982 590.33954 1171.0962 3358266
-239.99956 589.94287 1170.3093 3358266
-233.76685 592.73108 1175.8405 3687487
-225.9948 591.67065 1173.7368 3358266
-217.88174 589.61609 1169.661 2766129
-210.68062 589.97217 1170.3674 2897715
-206.71899 599.75269 1189.7697 2634543
-198.52769 597.53442 1185.3691 2239785
-190.8663 596.80054 1183.9133 2700336
-184.42789 599.98602 1190.2325 2700592
-175.45189 594.83673 1180.0176 2502957
-169.93187 601.46667 1193.1699 3226680
-163.90358 606.82507 1203.7997 3292473
-155.96165 605.27368 1200.722 2831413
-148.51239 605.57397 1201.3177 2897461
-140.4361 603.21289 1196.634 2897461
-134.33737 609.55896 1209.223 2897461
-125.82301 605.04742 1200.2732 2700082
-118.31063 605.08679 1200.3513 2897461
-110.70139 604.60242 1199.3905 2897461
-103.16611 604.48114 1199.1498 2897461
-95.407173 602.92719 1196.0671 2897462
-87.650871 601.1264 1192.4949 2700336
-80.584778 604.16467 1198.5221 2831922
-73.278587 605.84247 1201.8503 3226680
-65.624001 604.69409 1199.5723 3358266
-57.925018 602.78668 1195.7885 3160887
-49.939701 596.89026 1184.0913 2766129
-42.403488 595.2406 1180.8188 2897458
-35.111088 597.03967 1184.3877 2634030
-27.843094 600.3291 1190.9131 2502700
-20.38681 600.48102 1191.2145 2765616
-12.92775 600.67926 1191.6078 2699823
-5.4568448 600.11694 1190.4923 2634030
2.0019586 600.11694 1190.4923 2962995
9.4910851 602.04041 1194.308 2699822
16.986967 602.50763 1195.2349 2568240
24.439663 601.62579 1193.4855 2765616
32.210854 607.16064 1204.4653 2765872
39.385376 601.48224 1193.2007 2765872
46.757221 600.14825 1190.5544 2568237
54.154728 599.46552 1189.2 2502444
61.585598 599.27246 1188.817 2634030
69.224937 600.93085 1192.1068 2436651
76.808807 601.83142 1193.8934 2239272
84.245697 601.52283 1193.2812 2502444
91.709717 601.44244 1193.1218 2436651
99.347984 602.43079 1195.0824 2370858
106.93045 602.96594 1196.144 2370858
114.42751 602.98096 1196.1738 2568237
122.71539 606.90521 1203.9586 2765616
130.61838 608.5816 1207.2843 3094581
138.04921 607.99506 1206.1207 3094838
145.22366 606.39893 1202.9542 3094837
151.67242 602.07953 1194.3856 2568237
159.33946 602.77502 1195.7653 2699823
166.18385 600.43573 1191.1246 2765616
172.82524 597.59552 1185.4904 2699823
180.02435 596.83844 1183.9885 2239272
186.76152 594.67047 1179.6877 2568237
194.59879 596.03699 1182.3986 2765616
202.64676 597.92499 1186.1439 2502444
211.65274 602.40613 1195.0334 2239272
218.76653 601.37946 1192.9968 2107687
225.32167 598.93567 1188.1489 1778723
232.04095 597.07056 1184.449 2041896
238.71796 595.21564 1180.7693 2370860
247.40445 598.33209 1186.9515 2239531
257.03873 603.49188 1197.1874 2173738
264.57431 603.57129 1197.345 2173738
271.72958 602.8028 1195.8203 2305324
279.80066 604.05243 1198.2994 2305324
287.63812 604.74585 1199.6749 2436910
295.68912 605.84119 1201.8479 2502703
302.84839 605.10059 1200.3787 2634289
310.44205 605.2428 1200.6608 2568752
317.96457 605.2428 1200.6608 2305324
325.42068 605.11926 1200.4158 1910566
333.97794 607.00275 1204.1521 2042152
341.52231 607.00275 1204.1521 2107945
349.45425 607.67664 1205.489 2239531
357.04352 607.73883 1205.6123 2700082
364.59708 607.73883 1205.6123 2831411
373.2337 609.50757 1209.1211 2370860
380.93799 609.71368 1209.53 2173481
388.85889 610.25171 1210.5973 2436653
396.97046 611.06262 1212.2059 2436653
406.07864 613.34839 1216.7404 2305067
412.63483 611.76636 1213.6021 2370860
421.71097 613.90997 1217.8545 3291962
431.09662 616.42004 1222.8339 3291962
444.87396 625.01245 1239.8792 3620927
450.52484 622.08875 1234.0792 3620927
458.71585 622.71204 1235.3157 2568239
467.2662 623.79431 1237.4626 2568495
474.24811 622.78162 1235.4537 2831411
483.27866 624.44849 1238.7604 2502446
491.88367 625.52155 1240.889 2107688
495.54074 620.36688 1230.6635 2042152
502.51022 619.45337 1228.8513 2239274
510.39261 619.6759 1229.2927 2107688
515.80341 616.93561 1223.8566 2502446
523.30347 616.73785 1223.4644 2700082
532.3429 618.33386 1226.6304 3028533
537.67761 615.64246 1221.2914 2897203
543.98224 614.1217 1218.2744 2107946
548.11462 610.22461 1210.5435 2042152
552.74573 606.98145 1204.1099 2041896
558.85944 605.43182 1201.0358 2239274
558.83734 597.36456 1185.0322 2370860
565.69751 596.7691 1183.851 2041895
571.17737 594.75189 1179.8492 2173481
578.51801 594.69891 1179.7441 2502446
580.54358 589.25256 1168.9398 2502446
587.98303 589.36853 1169.1699 2436653
598.84418 592.86908 1176.1143 2305067
603.79645 590.50586 1171.4261 2305067
614.9726 594.21313 1178.7805 2502446
623.62219 595.42017 1181.1749 2765618
625.85968 590.54846 1171.5107 2962997
632.36639 589.77148 1169.9692 2765618
643.68555 593.4491 1177.2648 2568239
650.63763 593.06274 1176.4984 2634032
658.57391 593.57214 1177.5089 2765618
665.95142 593.57214 1177.5089 3160376
675.04584 595.08575 1180.5116 3094583
682.44214 595.08575 1180.5116 3357755
687.94385 593.45148 1177.2695 3423548
697.07971 594.95349 1180.2493 3028790
703.11646 593.8067 1177.9742 3226169
711.14978 594.35242 1179.0568 3489341
717.90436 593.82916 1178.0188 3620927
723.55988 592.41669 1175.2168 3489341
730.42438 592.01263 1174.4152 3291962
736.50275 590.98572 1172.3781 3028790
744.25006 591.30518 1173.0117 2963254
755.63489 594.47998 1179.3099 3027763
761.93671 593.63318 1177.63 2567469
769.08069 593.45245 1177.2715 2238247
774.08881 591.64264 1173.6813 1646110
778.09406 589.10767 1168.6525 1580574
786.02551 589.56482 1169.5593 2238247
793.4325 589.62372 1169.6763 2896434
800.76086 589.62372 1169.6763 3159606
809.9823 591.00507 1172.4164 2436910
818.1593 591.6062 1173.609 2436653
830.41339 595.11859 1180.5768 3226169
838.83533 595.84692 1182.0215 3423548
840.66876 591.92334 1174.2382 2897204
845.73022 590.32117 1171.0597 2370860
851.63147 589.32751 1169.0886 2699825
861.64539 591.17261 1172.7488 3160376
869.04315 591.20667 1172.8164 3028533
875.17426 590.38574 1171.1879 3422778
881.65778 589.81421 1170.0541 3159606
889.44507 590.11713 1170.6549 2896434
901.43988 593.18378 1176.7385 3225399
916.89551 598.45959 1187.2045 3356985
936.39789 606.27045 1202.6995 3225399
936.53516 601.51892 1193.2734 2962227
931.94824 593.83228 1178.025 2830641
941.60571 595.27173 1180.8805 2567469
949.43726 595.54327 1181.4192 2896434
961.35175 598.35187 1186.9908 2962227
966.76233 597.1004 1184.5082 2896434
974.53217 597.31403 1184.932 2896434
982.60956 597.71155 1185.7205 2764848
987.15247 595.96918 1182.264 2764848
998.23071 598.16888 1186.6278 2896434
1004.2913 597.35168 1185.0066 3093813
1012.3817 597.74487 1185.7866 2896434
1017.6305 596.4668 1183.2512 2435883
1023.7761 595.72906 1181.7877 2699055
1032.8394 596.68744 1183.689 2896691
1042.2891 597.85388 1186.0029 2896434
1052.4968 599.43549 1189.1405 2962227
1056.63 597.55957 1185.4191 2699055
1061.3181 596.02142 1182.3678 2238504
1072.1726 597.9436 1186.1809 2106918
1078.2588 597.1983 1184.7024 1975332
1083.509 596.00342 1182.332 1909539
1090.4768 595.76306 1181.8552 1909539
1096.2046 594.85309 1180.05 2106918
1103.5979 594.85309 1180.05 2501676
1110.7361 594.71643 1179.7789 2501676
1116.5071 593.85443 1178.069 2370090
1124.1133 593.97345 1178.3051 2370090
1132.2394 594.36377 1179.0793 2567469
1144.631 596.97375 1184.257 2896434
1151.4019 596.63757 1183.59 2830641
1158.4156 596.43073 1183.1797 2699055
1165.8225 596.42749 1183.1733 2567469
1174.0037 596.81812 1183.9481 2633262
1181.2715 596.74231 1183.7977 2699055
1189.7803 597.29047 1184.8853 2699055
1201.823 599.59497 1189.4568 2830641
1216.6115 603.23242 1196.6726 2567469
1223.9707 603.16431 1196.5375 2304297
nan nan nan 16777215
nan nan nan 16777215
nan nan nan 16777215
nan nan nan 16777215
nan nan nan 16777215
nan nan nan 16777215
nan nan nan 16777215
nan nan nan 16777215
nan nan nan 16777215
nan nan nan 16777215
nan nan nan 16777215
nan nan nan 16777215
nan nan nan 16777215
nan nan nan 16777215
nan nan nan 16777215
nan nan nan 16777215
nan nan nan 16777215
nan nan nan 16777215
-1033.2679 611.05798 1197.3932 2765618
-1025.3304 610.79858 1196.8849 2634289
-1009.5312 605.8175 1187.1243 2831411
-998.70062 603.76636 1183.105 2765875
-990.22913 603.12134 1181.8411 2765618
-982.48901 602.91547 1181.4376 2699825
-977.98743 604.70886 1184.9519 2568239
-970.56329 604.70886 1184.9519 1844516
-954.23529 599.11859 1173.9974 1976102
-939.76654 594.6178 1165.178 2568239
-932.46637 594.6178 1165.178 3094583
-920.72882 591.76587 1159.5895 3094583
-902.03461 584.36182 1145.0809 3620927
-899.56909 587.43677 1151.1064 4410443
-893.54285 588.21735 1152.636 4278857
-894.13983 593.40625 1162.804 3423548
-887.1405 593.5976 1163.1788 3357498
-876.71198 591.47858 1159.0266 3226169
-878.1452 597.39368 1170.6174 2634032
-869.13977 596.24725 1168.371 3226169
-857.38898 593.18195 1162.3644 3160376
-847.90588 591.64642 1159.3555 2897204
-842.19324 592.73816 1161.4948 3160376
-836.87665 594.13 1164.2222 3291962
-829.14624 593.81757 1163.61 3029047
-821.8559 593.81757 1163.61 2962997
-810.61432 590.93719 1157.9657 2568239
-805.86365 592.7793 1161.5754 2699825
-799.58307 593.51947 1163.0258 3291962
-793.83466 594.67181 1165.2838 2962740
-786.51642 594.65863 1165.2581 2699825
-779.27643 594.70502 1165.3489 4015428
-771.97516 594.70502 1165.3489 4081478
-770.17792 598.9856 1173.7369 3291962
-767.80548 602.89709 1181.4016 3226426
-759.99915 602.57642 1180.7732 3555391
-751.50934 601.70215 1179.0601 3489598
-736.78448 595.76892 1167.4336 3423805
-724.74829 591.91241 1159.8767 3423805
-716.52917 591.12695 1158.3375 3621441
-704.3548 587.02899 1150.3074 4410700
-697.14777 587.02899 1150.3074 3686977
-689.60254 586.74121 1149.7435 3292219
-687.19434 590.86432 1157.8229 2831668
-679.38605 590.38275 1156.8793 2634289
-672.49384 590.69543 1157.4919 2963254
-667.18042 592.41681 1160.8651 3094840
-661.48981 593.83759 1163.649 2963511
-660.534 599.58789 1174.9171 3423805
-655.48145 601.70709 1179.0698 3292219
-647.25928 600.93195 1177.5508 3292219
-640.27844 601.30469 1178.2812 3358012
-632.33795 600.77441 1177.2421 3423805
-622.15399 598.07489 1171.9523 3358012
-613.54602 596.84399 1169.5403 3095350
-610.46356 601.02344 1177.7301 3226680
-605.19604 603.1275 1181.8531 3424059
-596.90851 602.23682 1180.1078 3489852
-589.72083 602.44727 1180.5201 3555645
-579.24615 599.26263 1174.2797 3226680
-572.38922 599.7868 1175.3069 3226680
-565.03937 599.80145 1175.3356 3555132
-557.93127 600.07648 1175.8745 4015683
-549.96844 599.42737 1174.6025 4015683
-539.1391 595.59393 1167.0907 3160374
-534.45203 598.53375 1172.8514 3291960
-527.88116 599.4165 1174.5813 3028788
-521.46564 600.50317 1176.7106 2436651
-514.89514 601.43988 1178.5461 2699823
-509.00525 603.21051 1182.0157 3357753
-500.94638 602.42505 1180.4766 3555132
-494.36551 603.41998 1182.4263 3687231
-488.18735 604.94427 1185.4132 3292473
-481.23572 605.54248 1186.5853 3226937
-475.54663 607.77295 1190.9561 3095094
-467.10745 606.50372 1188.469 3095094
-459.30637 606.0354 1187.5513 3226680
-451.17105 605.10333 1185.7249 2634543
-441.7569 602.39624 1180.4202 2963508
-436.80371 605.78369 1187.058 4016196
-430.1409 606.87634 1189.1991 4476747
-426.38364 612.17914 1199.5902 4081989
-418.49734 611.63776 1198.5293 3753281
-407.14297 605.91522 1187.3158 3029304
-400.73618 607.4798 1190.3816 2568496
-393.96805 608.54559 1192.4701 3160633
-386.43481 608.44794 1192.2787 3621184
-374.85577 601.85065 1179.3511 3686977
-365.9281 599.33057 1174.4128 3818820
-359.48077 600.85284 1177.3958 4015941
-352.02615 600.71997 1177.1354 3423804
-341.59818 595.3988 1166.7084 3226170
-334.57715 595.91315 1167.7163 3358010
-324.3129 590.54486 1157.1969 3819073
-316.18042 588.90149 1153.9767 4147272
-310.34671 591.56305 1159.1921 4213575
-302.34427 590.11926 1156.3629 3884610
-294.74789 589.41656 1154.986 3161143
-287.46194 589.31488 1154.7866 2963508
-278.10934 584.86182 1146.0607 3160887
-270.99496 585.00427 1146.34 3753024
-265.42612 588.58185 1153.3503 3094837
-259.95514 592.58282 1161.1903 2765616
-253.22069 593.85101 1163.6754 3161144
-244.26276 589.82526 1155.7869 3160887
-236.67415 588.96118 1154.0936 3292730
-230.45627 591.56116 1159.1884 3555645
-221.82861 587.94336 1152.0991 3621438
-212.99248 583.51099 1143.4138 2700336
-205.37932 582.23724 1140.9177 2634543
-197.72537 580.75183 1138.0071 3555645
-195.59241 595.97784 1167.8431 3029301
-188.50458 596.703 1169.264 2766386
-181.05629 596.29962 1168.4735 2831922
-175.27666 601.58942 1178.8391 2437164
-167.6692 600.7951 1177.2827 2831922
-162.39792 608.68396 1192.7412 3095094
-154.7995 608.19073 1191.7748 2502704
-146.5267 604.86383 1185.2555 2634289
-137.78687 599.1507 1174.0604 2963254
-130.85616 601.10364 1177.8872 2897461
-123.86281 602.98505 1181.574 3029047
-116.58468 603.63123 1182.8402 3094840
-109.64488 606.23578 1187.944 2502703
-101.36465 601.26855 1178.2104 2831668
-93.982796 601.26855 1178.2104 2897205
-86.644638 601.57196 1178.8049 2371371
-79.434357 602.9024 1181.4121 2634543
-72.051895 603.06531 1181.7312 3292473
-64.301193 599.83032 1175.3921 2897715
-56.881981 599.25061 1174.2562 2831922
-49.293224 596.44733 1168.7631 2437164
-41.853798 594.78809 1165.5116 2502957
-34.731125 597.88007 1171.5706 2897202
-27.458921 599.36542 1174.4812 2897202
-20.069765 598.45099 1172.6892 2765616
-12.666278 595.80621 1167.5067 2502700
-5.3666887 597.49878 1170.8234 2568237
1.9819801 601.47339 1178.6118 2305065
9.3663492 601.47339 1178.6118 2370858
16.801584 603.29987 1182.1909 2699826
24.208376 603.29987 1182.1909 2699822
31.573189 602.49878 1180.6211 2699823
38.928066 601.84821 1179.3463 2831409
46.092323 598.92828 1173.6245 2436651
53.445446 598.92828 1173.6245 2502444
60.683903 597.79871 1171.4111 2568237
68.273544 599.99915 1175.723 2436651
75.718643 600.62445 1176.9484 2568237
83.200134 601.40179 1178.4716 2502444
90.322708 599.66962 1175.0771 2634030
97.953278 601.31696 1178.3052 2897202
105.58972 602.76691 1181.1465 2831409
112.98997 602.76691 1181.1465 2568237
120.43893 603.01074 1181.6243 2831409
127.6676 602.18732 1180.0107 2962995
133.73932 596.29559 1168.4657 2634030
141.23116 597.01862 1169.8824 2765873
148.968 598.65491 1173.0889 2831409
156.31778 598.65491 1173.0889 2502444
163.36836 597.56067 1170.9446 2436651
169.30663 592.66656 1161.3545 2239272
176.74228 593.20166 1162.403 2173479
184.29291 594.06494 1164.0946 2239272
191.70844 594.44354 1164.8365 2305321
199.21042 595.05267 1166.0302 2897201
206.51595 595.05267 1166.0302 2831412
213.14189 593.16138 1162.3241 2765618
221.46483 595.96173 1167.8114 2502447
229.19875 597.04846 1169.941 1976102
236.87637 597.92584 1171.6603 1647137
244.65916 599.008 1173.7808 1844516
252.21964 599.49847 1174.7419 2239274
259.9884 600.44226 1176.5913 2502446
267.96558 601.802 1179.2557 2436653
275.49765 602.11609 1179.8711 2173738
283.1951 602.76556 1181.1439 1976359
291.07532 603.76123 1183.0948 2173738
298.08194 602.94031 1181.4863 2173738
305.55887 603.08746 1181.7747 2173738
313.61618 604.34601 1184.2408 2107945
322.98538 608.01611 1191.4325 1713187
328.8284 605.03229 1185.5856 1976359
336.61487 605.67712 1186.8492 2107945
344.05084 605.67712 1186.8492 2502703
350.53107 604.03021 1183.6219 2436910
359.50003 606.65125 1188.7579 2239274
369.31549 610.56525 1196.4277 1844516
375.99805 609.24725 1193.845 2107945
381.50494 606.11279 1187.7029 2239274
390.24704 608.13983 1191.6749 1515551
398.01987 608.6087 1192.5938 1844516
408.37939 612.94263 1201.0863 2831411
417.50696 615.30426 1205.7139 2831411
426.32401 617.13226 1209.296 2436653
437.68311 622.51215 1219.838 3028790
445.27783 622.44507 1219.7067 3028791
451.22659 620.11829 1215.1472 2370606
461.42892 623.61737 1222.0038 2765364
469.08514 623.61737 1222.0038 2830900
475.71848 622.2793 1219.3818 2699571
483.72717 622.75427 1220.3125 2633777
490.65146 621.83997 1218.521 2239019
497.8735 621.32538 1217.5126 2634033
503.96289 619.43414 1213.8066 2700082
510.92117 618.65112 1212.2723 2699825
516.56305 616.32056 1207.7054 2765618
521.12305 612.78503 1200.7775 2765874
530.33875 614.74683 1204.6217 2897462
537.88605 614.74683 1204.6217 2766133
540.65161 609.35742 1194.0609 2305069
543.91144 604.66461 1184.8651 1976361
547.12128 600.04327 1175.8094 1713190
552.64075 598.04419 1171.8921 2173740
561.49774 599.66187 1175.062 2371119
564.84918 595.43396 1166.7773 1976361
569.72595 592.90155 1161.8149 1779238
575.93268 591.79962 1159.6556 1910567
581.64893 590.22736 1156.5748 2634033
588.28931 589.62012 1155.3849 2699825
593.74707 587.85669 1151.9293 2699825
604.46173 591.27789 1158.6333 2765618
614.43713 593.90332 1163.778 2699825
619.52167 591.79523 1159.647 2634032
626.19495 591.23596 1158.5511 2897204
632.59851 590.43793 1156.9873 2765618
647.34332 597.35492 1170.5415 3226169
655.13525 597.77295 1171.3607 3291962
659.87262 595.42542 1166.7606 3226169
669.23456 597.25665 1170.3489 2370860
674.9743 595.85052 1167.5935 2765618
682.28961 595.85052 1167.5935 3226169
690.40485 596.54156 1168.9478 3160376
696.38232 595.3905 1166.6921 3291962
702.64478 594.50452 1164.9559 3226169
711.50201 595.80951 1167.5132 3291962
718.81689 595.80951 1167.5132 3489341
720.85767 591.48206 1159.0333 3357755
728.82593 592.05597 1160.158 2962997
738.46045 593.95886 1163.8867 2962997
