# .PCD v0.7 - Point Cloud Data file format
VERSION 0.7
FIELDS x y z rgb
SIZE 4 4 4 4
TYPE F F F U
COUNT 1 1 1 1
WIDTH 1270
HEIGHT 1
VIEWPOINT 0 0 0 1 0 0 0
POINTS 1270
DATA ascii
1826.6165 667.63776 2620.1909 2568498
1843.804 667.91711 2621.2874 2436912
1861.9319 668.52924 2623.6897 2436912
1878.3704 668.52924 2623.6897 2371119
1899.7135 670.25983 2630.4814 2371119
1921.4275 672.09033 2637.6655 2371119
1948.7943 675.85004 2652.4209 2502705
1973.7062 678.70203 2663.6135 2502705
1978.927 674.79169 2648.2671 2502705
1998.3146 675.737 2651.9771 2371376
2013.7004 675.32465 2650.3586 2502705
2027.0876 674.25421 2646.1577 2502705
2047.7283 675.59418 2651.4167 2634547
2064.5547 675.66449 2651.6924 2765364
2090.9294 678.83344 2664.1292 2502192
2116.4753 681.68524 2675.3215 2370606
2133.4131 681.74146 2675.542 2304813
2155.0652 683.29163 2681.6257 2239020
2173.4509 683.7901 2683.582 2173227
2188.366 683.19745 2681.2561 2107434
2206.0691 683.47754 2682.3555 2107434
2223.127 683.55511 2682.6599 2304813
2240.3926 683.69482 2683.2083 2173227
2257.2039 683.69482 2683.2083 2041641
2278.3828 685.00806 2688.3621 2107434
2285.6875 682.16125 2677.1895 2502192
2290.1719 678.52032 2662.9004 2831414
2303.6892 677.58899 2659.2454 2831414
2313.2229 675.50763 2651.0769 3028280
2324.3638 673.922 2644.854 3094073
2337.4504 672.91888 2640.9172 3028537
2353.9963 672.91888 2640.9172 3028536
2353.7732 668.15863 2622.2351 3094329
2362.0752 665.86749 2613.2437 3094586
2395.4131 670.61707 2631.8835 2896950
2397.3318 666.56573 2615.9839 2831157
2413.6487 666.54553 2615.9045 2699571
2427.9958 665.98535 2613.7061 2567985
2435.031 663.44049 2603.7185 2633778
2465.8328 667.36176 2619.1079 2699571
2484.9563 668.09143 2621.9714 2633778
2499.7317 667.65015 2620.2397 2567985
2514.2468 667.14557 2618.2595 2436399
2523.5879 665.28357 2610.9519 2370606
2545.0876 666.63025 2616.2371 2370606
2566.0759 667.8266 2620.9321 2370606
2587.2805 669.0636 2625.7869 2239020
2607.3269 669.98743 2629.4124 2173227
2658.9285 678.95721 2664.615 1975848
2648.2842 672.01971 2637.3884 1844262
2649.2458 668.09521 2621.9863 1778469
2700.3857 676.79517 2656.1299 1844262
2778.1956 692.0318 2715.927 2370606
nan nan nan 16777215
nan nan nan 16777215
nan nan nan 16777215
nan nan nan 16777215
nan nan nan 16777215
nan nan nan 16777215
nan nan nan 16777215
nan nan nan 16777215
nan nan nan 16777215
-2311.717 656.40332 2514.5972 3094842
-2298.2063 657.04486 2517.0549 3160635
-2295.0583 660.67841 2530.9746 3292221
-2285.7419 662.57446 2538.2383 3423807
-2251.6597 657.26788 2517.9092 3423807
-2224.4712 653.91278 2505.0564 3292221
-2215.8953 656.02045 2513.1306 3226428
-2199.354 655.7832 2512.2217 3489600
-2184.4385 656.0307 2513.1699 3423807
-2170.6567 656.62488 2515.446 3555393
-2159.5977 658.05737 2520.9336 3489600
-2146.2549 658.80981 2523.8164 3358014
-2126.6116 657.62524 2519.2783 3226428
-2111.0129 657.68298 2519.4995 3292221
-2098.2705 658.63818 2523.1589 3226428
-2088.7454 660.62543 2530.7717 3160635
-2084.4092 664.29681 2544.8362 3226428
-2061.696 662.12292 2536.5083 3226428
-2038.2252 659.66998 2527.1116 3226428
-2026.7751 661.09973 2532.5886 3094842
-2010.2596 660.88666 2531.7725 3094842
-1998.832 662.3562 2537.4021 3160635
-1982.1227 662.08502 2536.3633 3292221
-1966.2399 662.08783 2536.374 3292221
-1971.54 669.28174 2563.9329 3292221
-1939.4563 663.79871 2542.9282 2897463
-1914.868 660.81165 2531.4849 3029049
-1898.5995 660.66962 2530.9409 3094842
-1871.1989 656.61896 2515.4233 3029049
-1857.1403 657.22101 2517.7297 3094842
-1833.9475 654.57324 2507.5864 3226428
-1813.355 652.81573 2500.8538 3160633
-1801.0787 654.04761 2505.573 3160634
-1784.8301 653.84601 2504.8005 3094841
-1772.0897 654.93738 2508.9814 2963255
-1756.37 654.93738 2508.9814 2963256
-1738.792 654.23804 2506.3025 2963256
-1721.7301 653.72205 2504.3257 3094842
-1704.8534 653.26746 2502.5842 3029050
-1687.5953 652.65692 2500.2454 2963257
-1671.1356 652.34662 2499.0566 3029047
-1654.6306 652.01263 2497.7771 2765876
-1637.6899 651.4989 2495.8091 2963255
-1620.5763 650.90582 2493.5371 3029048
-1605.9174 651.29675 2495.0347 2897463
-1589.5896 651.0119 2493.9434 2897462
-1570.0043 649.37396 2487.6687 2963257
-1558.123 650.92163 2493.5977 2963253
-1552.166 655.00067 2509.2239 2963254
-1538.0258 655.67462 2511.8057 2700082
-1514.9919 652.5318 2499.7661 2634289
-1499.264 652.50305 2499.656 2700339
-1482.9695 652.22455 2498.5889 2634289
-1468.4078 652.71027 2500.4497 2568496
-1462.8115 657.2345 2517.7815 2502703
-1451.4116 659.22156 2525.3936 2831668
-1420.5729 652.32605 2498.9778 2832697
-1410.6293 654.97882 2509.1401 2701111
-1394.2109 654.65118 2507.885 2700855
-1380.541 655.62128 2511.6013 2700598
-1365.3275 655.87225 2512.5627 2700596
-1349.3884 655.77643 2512.1958 2700595
-1334.3773 656.1347 2513.5684 2700082
-1316.9954 655.32178 2510.4541 2831925
-1301.2665 655.32178 2510.4541 2831925
-1286.1902 655.6543 2511.728 2700339
-1272.3995 656.65869 2515.5757 2634289
-1269.1635 663.20355 2540.6482 3160632
-1253.3425 663.25488 2540.8447 3291962
-1231.2825 659.96344 2528.2356 3094839
-1209.7345 656.8642 2516.3628 2963253
-1194.1794 656.9801 2516.8069 2963253
-1186.1471 661.29321 2533.3298 3094840
-1175.2013 664.0769 2543.9939 3029048
-1153.1021 660.54797 2530.4749 2963255
-1136.455 660.0874 2528.7107 2831668
-1124.6962 662.49329 2537.9272 2765875
-1111.647 664.19708 2544.4543 2700084
-1099.3934 666.43292 2553.0195 2569267
-1084.907 667.36121 2556.5754 2569268
-1070.184 668.16949 2559.6721 2897975
-1065.1229 675.12671 2586.3242 2963770
-1050.5608 676.18359 2590.373 3095612
-1040.4114 680.15826 2605.5996 3292734
-1024.2927 680.29529 2606.1245 3226941
-1010.1545 681.77332 2611.7866 3226941
-999.98767 686.02454 2628.0725 3555906
-991.09308 691.30554 2648.3032 3358527
-974.50055 691.30554 2648.3032 2963769
-941.52271 679.48047 2603.0029 2963769
-925.47052 679.6687 2603.7241 3161148
-910.2489 680.4848 2606.8503 3029818
-894.56842 680.98132 2608.7524 3029819
-878.22382 680.98132 2608.7524 3161404
-861.99146 681.07001 2609.0923 3226941
-848.6861 683.51953 2618.4761 3292990
-829.95007 681.60565 2611.1443 3161661
-816.17084 683.76746 2619.4258 3160635
-797.16797 681.55188 2610.9382 3029049
-776.67877 677.94617 2597.1252 3160635
-760.89783 678.38385 2598.8018 3423807
-744.78644 678.53949 2599.3982 3489600
-723.35291 673.74506 2581.0312 3358271
-717.82196 683.88196 2619.8645 3226428
-701.63483 684.10345 2620.7129 2831670
-675.77319 674.6767 2584.6001 3029047
-660.98431 676.11322 2590.1035 2897204
-646.06946 677.49005 2595.3779 3028790
-629.61237 677.27899 2594.5693 2831668
-610.55988 674.19086 2582.739 2699825
-595.16144 675.07916 2586.1421 2765875
-587.28558 684.78882 2623.3386 3292476
-565.96649 678.93115 2600.8984 3489084
-547.68085 676.4729 2591.4812 3292219
-531.4444 676.4729 2591.4812 3292219
-514.27563 675.24866 2586.7915 2897461
-496.29611 672.8457 2577.5859 3160633
-479.72623 672.25647 2575.3286 3226426
-463.36786 671.9328 2574.0889 3094840
-448.96899 674.52985 2584.0378 3029048
-430.77933 671.4129 2572.0972 2963513
-412.6409 668.13666 2559.5461 2897463
-395.95099 667.03552 2555.3281 2897463
-379.91129 666.98334 2555.1279 3029049
-363.80197 666.79883 2554.4211 2963256
-347.21442 665.68054 2550.1372 3094842
-330.03705 663.26892 2540.8987 3029306
-314.96497 665.05835 2547.7537 3160635
-298.55011 664.05206 2543.8987 3094842
-281.33563 661.05353 2532.4116 2897463
-264.74301 659.245 2525.4834 2765877
-248.45435 658.0116 2520.7583 2568498
-235.04974 664.7674 2546.6389 2765877
-219.99318 667.49475 2557.0872 2502705
-201.68089 659.9964 2528.3621 2239533
-183.55505 651.8819 2497.2764 2305326
-167.64127 650.84314 2493.2969 2239533
-152.05847 651.00787 2493.928 2239533
-136.43324 651.00787 2493.928 2436912
-120.48896 649.28857 2487.3416 2502705
-104.59908 647.39514 2480.0881 2568498
-88.318069 641.99786 2459.4119 2897463
-73.052521 643.26086 2464.2502 3094842
-57.42358 641.14337 2456.1384 3292221
-42.071308 641.6955 2458.2534 2634291
-26.67638 641.85895 2458.8796 2831670
-11.390826 648.69794 2485.0791 3292221
4.1925535 650.80737 2493.1599 3818565
19.943695 655.1012 2509.6091 2897463
35.934265 660.00696 2528.4023 3029049
51.800446 660.32501 2529.6208 2897463
68.139359 665.10846 2547.9456 2897463
84.624176 669.22986 2563.7341 3094842
99.932693 664.21771 2544.5334 3029049
116.43221 667.41193 2556.7698 3029049
133.34836 671.93274 2574.0886 2963256
148.80782 668.92993 2562.5852 2765877
165.10269 669.90161 2566.3076 2634291
181.20087 669.97357 2566.5833 2568498
197.40443 670.39178 2568.1853 2568498
214.561 673.73938 2581.0095 2371119
232.47839 678.83936 2600.5469 2568498
248.62077 678.42767 2598.97 2502705
264.56027 677.54712 2595.5964 2042154
280.43826 676.62006 2592.0452 2370863
296.50287 676.22009 2590.5129 1976874
314.67355 680.41565 2606.5854 2174253
330.43756 679.25 2602.1201 2174253
349.6221 684.89465 2623.7439 2503218
364.8241 682.58099 2614.8806 2700597
377.87842 676.62073 2592.0476 2437425
394.89078 677.94672 2597.1272 2240046
409.73636 675.59503 2588.1184 2240046
424.76816 673.71783 2580.927 2240046
440.51425 673.0697 2578.4441 2437425
456.66901 673.0697 2578.4441 2437425
465.62952 662.82861 2539.2117 2371889
482.42609 664.05042 2543.8923 2240046
499.97836 666.20099 2552.1309 2240302
513.93457 663.5752 2542.0718 2502706
529.86145 663.5752 2542.0718 2502705
546.24915 664.13538 2544.218 2502705
558.60022 659.89532 2527.9749 2436912
572.37775 657.52771 2518.9048 2305326
585.53632 654.59521 2507.6707 2897463
606.43939 660.24762 2529.3242 2963256
622.28644 660.24762 2529.3242 2502706
642.07556 664.32642 2544.9497 2700084
659.01306 665.32855 2548.7886 2634291
674.98199 665.32855 2548.7886 2568498
683.51776 658.17096 2521.3689 2897463
703.47101 662.08252 2536.3535 3423807
726.97827 669.09229 2563.207 3489600
744.76532 670.64813 2569.1672 3423807
758.73352 668.77203 2561.9802 3292221
776.37982 670.1485 2567.2534 3358014
794.06927 671.50568 2572.4524 3292221
814.07343 674.72723 2584.7939 3226428
835.74158 679.17542 2601.8342 3160635
843.78619 672.59393 2576.6216 3489600
853.65771 667.68842 2557.8291 3423807
879.20636 674.99963 2585.8374 3292221
895.41602 675.00604 2585.8621 3160635
914.38892 677.05841 2593.7244 3226428
930.66669 677.07825 2593.8003 3292221
946.9176 677.07825 2593.8003 3423807
959.70544 674.64368 2584.4739 3160635
975.13934 674.11926 2582.4648 3423807
991.31927 674.11926 2582.4648 3621185
1001.8597 670.34589 2568.0095 3292220
1018.2924 670.57202 2568.8757 3094842
1033.738 670.15112 2567.2634 3094842
1045.5145 667.401 2556.728 3094843
1063.5918 668.69519 2561.686 3292221
1068.6769 661.90405 2535.6699 3423807
1098.7501 670.56207 2568.8376 3029306
1114.3821 670.28375 2567.7715 2963256
1124.1078 666.51154 2553.3206 2765877
1145.593 669.71967 2565.6106 2634291
1152.7413 664.57373 2545.8972 2568498
1158.188 658.60059 2523.0146 2831670
1215.6616 681.97491 2612.5588 3226428
1201.6423 665.15405 2548.1204 3095099
1214.4153 663.41046 2541.4409 3094842
1231.3776 663.97095 2543.5879 2963256
1239.8224 659.98303 2528.3108 2634291
1254.9886 659.6286 2526.9529 2634291
1270.8208 659.6286 2526.9529 2897463
1276.5881 654.46863 2507.1858 3160635
1289.2916 652.94684 2501.356 2963256
1309.2684 655.10089 2509.6079 2831670
1311.7278 648.54291 2484.4851 2831670
1331.9691 650.82733 2493.2363 2700084
1352.392 653.14642 2502.1206 2831670
1360.8923 649.7204 2488.9958 2568498
1374.9061 648.97437 2486.1379 2436912
1390.8191 649.13141 2486.7395 2634291
1402.6957 647.422 2480.1912 2700341
1417.2283 646.96246 2478.4307 2897463
1435.8157 648.34387 2483.7227 2897463
1446.4342 646.13593 2475.2642 2700084
1461.9243 646.12793 2475.2336 3160635
1495.9655 654.23291 2506.283 3555393
1509.5903 653.33374 2502.8381 2963513
1529.751 655.25256 2510.189 2765877
1532.7715 649.86517 2489.5505 2239533
1556.1975 653.15076 2502.1372 2436912
1573.8282 653.96277 2505.2478 2502705
1597.2825 657.15448 2517.4751 2502705
1610.5291 656.12537 2513.5325 2568498
1623.269 654.91174 2508.8833 2568498
1643.2036 656.59625 2515.3364 2502705
1667.4708 659.96356 2528.2361 2700084
1679.8965 658.62488 2523.1077 2765877
1684.7141 654.35608 2506.7546 2568498
1713.0359 659.211 2525.3533 2436912
1731.0887 660.06165 2528.6118 2502705
1746.2745 659.81348 2527.6611 2436912
1768.4729 662.19562 2536.7869 2436912
1783.9821 662.05292 2536.2402 2436912
1799.542 661.93134 2535.7744 2436912
1822.3927 664.47021 2545.5007 2502705
1836.9746 663.97644 2543.6089 2436912
1862.2152 667.31042 2556.3811 2436912
1890.8175 671.78198 2573.511 2568498
1901.7799 669.96368 2566.5454 2568498
1909.4132 667.01294 2555.2415 2568755
1933.5883 669.84174 2566.0781 2502705
1952.485 670.81042 2569.7891 2568498
1967.5006 670.44067 2568.3728 2568498
1986.4714 671.41388 2572.1008 2502705
2006.3966 672.69135 2576.9946 2371119
2033.2452 676.25104 2590.6316 2436656
2052.5015 677.24927 2594.4556 2371119
2071.0964 678.01526 2597.3899 2370863
2088.6094 678.41791 2598.9324 2239277
2106.73 679.01007 2601.2009 2173484
2123.1279 679.04236 2601.3245 2107434
2139.9207 679.19934 2601.9258 2107434
2158.5549 679.93396 2604.7402 2107434
2177.3862 680.71924 2607.7485 2107434
2196.043 681.43872 2610.5046 2041641
2211.189 681.06604 2609.0771 2107434
2239.9331 684.85663 2623.5981 2173227
2252.1294 683.56921 2618.6665 2370606
2251.0833 678.31018 2598.5198 2765107
2267.5659 678.37067 2598.7515 3028536
2273.1399 675.19012 2586.5671 3160122
2282.949 673.30359 2579.3401 3160378
2281.0276 668.0083 2559.0544 3028793
2289.0891 665.69006 2550.1736 3028279
2302.9124 665.06781 2547.7898 2962743
2323.1282 666.28766 2552.4629 2896950
2339.1201 666.28766 2552.4629 2633778
2341.0859 662.31952 2537.2615 2502192
2356.1768 662.09302 2536.3938 2304813
2373.0337 662.36249 2537.4263 2370606
2392.4421 663.33594 2541.1553 2502192
2408.45 663.35986 2541.2468 2502192
2424.051 663.27203 2540.9106 2567985
2435.5916 662.08167 2536.3503 2502192
2452.8513 662.45135 2537.7666 2502192
2481.8394 665.96332 2551.2205 2436399
2508.0149 668.68048 2561.6296 2436399
2513.821 665.96686 2551.2341 2370606
2527.8481 665.45166 2549.2603 2370606
2554.7595 668.31335 2560.2231 2370606
2579.0793 670.46564 2568.4683 2107434
2610.8403 674.51373 2583.9758 1910055
2633.325 676.13007 2590.168 2041641
2661.4116 679.15613 2601.7605 2239020
nan nan nan 16777215
nan nan nan 16777215
nan nan nan 16777215
nan nan nan 16777215
nan nan nan 16777215
nan nan nan 16777215
nan nan nan 16777215
nan nan nan 16777215
nan nan nan 16777215
-2242.5479 651.96545 2439.3577 3226428
-2228.9263 652.4519 2441.1777 3094842
-2223.3901 655.32819 2451.9395 3094842
-2208.0281 655.32819 2451.9395 2963256
-2188.4531 654.06909 2447.2285 2897720
-2173.8167 654.27869 2448.0127 3160635
-2161.4812 655.18866 2451.4175 3292221
-2159.7854 659.35986 2467.0242 3555393
-2140.4778 658.17578 2462.5938 3686979
-2121.2573 657.00134 2458.1997 3423807
-2099.8347 655.1228 2451.1711 3094842
-2101.1689 660.36877 2470.7991 2897463
-2085.6887 660.36877 2470.7991 2963256
-2060.2107 657.17969 2458.8669 3160635
-2044.8052 657.17969 2458.8669 3226428
-2032.0605 658.04138 2462.0911 3094842
-2021.4767 659.62134 2468.0024 3226428
-2006.0139 659.62134 2468.0024 3160635
-1985.2461 657.86334 2461.425 3160635
-1974.8208 659.53198 2467.6682 3094842
-1958.5627 659.26361 2466.6641 3226428
-1941.3113 658.65387 2464.3828 3160635
-1928.8008 659.65582 2468.1316 3423807
-1905.8 657.05725 2458.4089 3489600
-1894.6145 658.52307 2463.8933 3291964
-1887.3102 661.37305 2474.5566 3160635
-1868.9673 660.36987 2470.8032 3095099
-1835.2421 653.86951 2446.4819 3226684
-1814.6595 651.98163 2439.4182 3226941
-1791.2567 649.03973 2428.4111 3292734
-1777.3253 649.50879 2430.166 3292221
-1759.2144 648.44525 2426.1868 3292221
-1742.345 647.82489 2423.8655 3094842
-1737.1318 651.56567 2437.8618 3095099
-1718.4683 650.2829 2433.0625 3226428
-1698.0939 648.32416 2425.7336 3029049
-1685.2238 649.22095 2429.0889 3029049
-1671.0745 649.63684 2430.645 3094842
-1655.6506 649.5603 2430.3586 2963256
-1639.771 649.30182 2429.3916 2897463
-1625.0255 649.49182 2430.1025 2897464
-1603.1714 646.81738 2420.0959 2963255
-1594.4119 649.42548 2429.8542 3160635
-1575.4347 647.88196 2424.0791 3160634
-1553.368 645.02545 2413.3914 2897462
-1542.7555 646.91577 2420.4641 3094841
-1522.8207 644.89581 2412.9062 3094840
-1510.3374 646.02258 2417.1223 2831925
-1504.7955 650.17139 2432.645 2765875
-1489.5542 650.17139 2432.645 2568496
-1466.8927 646.89899 2420.4014 2502703
-1451.728 646.89899 2420.4014 2634289
-1438.2368 647.65253 2423.2207 2568496
-1426.0509 649.01611 2428.3228 2502703
-1418.329 652.46283 2441.2185 2634289
-1407.2865 654.44037 2448.6177 2568496
-1391.6262 654.29041 2448.0566 2436910
-1375.2235 653.78418 2446.1626 2765875
-1354.0811 650.98785 2435.7 2700082
-1343.7098 653.36517 2444.5947 2897461
-1329.5754 653.94641 2446.7695 3029047
-1314.2457 653.94641 2446.7695 3095098
-1299.8491 654.4162 2448.5273 3160890
-1269.7921 646.91888 2420.4756 2766132
-1263.2551 651.36761 2437.1208 2634546
-1254.4241 654.72803 2449.6938 2700082
-1248.8898 659.91364 2469.0962 2831668
-1236.0715 661.33221 2474.4038 3358012
-1215.1379 658.38971 2463.3943 3094840
-1196.1249 656.4256 2456.0454 3292219
-1180.7371 656.4256 2456.0454 3226426
-1169.093 658.53436 2463.9355 2831925
-1155.0494 659.33002 2466.9126 2897461
-1139.8445 659.47522 2467.4558 2831668
-1125.0337 659.85559 2468.8792 2897461
-1109.6953 659.93286 2469.1682 2634289
-1089.6299 657.1615 2458.7988 2700083
-1082.2073 662.0448 2477.0701 2897463
-1073.9583 666.55725 2493.9536 2700084
-1059.2894 667.15979 2496.208 2634291
-1045.1182 668.09833 2499.7195 2765877
-1027.9747 667.1366 2496.1211 2765877
-1009.4203 665.21539 2488.9329 2569011
-1021.5507 683.77252 2558.3652 3161148
-999.91327 679.95868 2544.0955 3292734
-971.15186 671.09827 2510.9441 3161148
-973.2525 683.62402 2557.8098 3358527
-958.81439 684.75769 2562.0513 3095355
-936.74945 680.39032 2545.7107 2832440
-912.7431 674.43719 2523.4368 2963769
-898.06555 675.28876 2526.623 3095355
-897.52753 686.99377 2570.4177 2963769
-881.42303 686.99377 2570.4177 2963769
-851.18713 675.77454 2528.4404 3161148
-833.25415 674.08252 2522.1096 3292221
-819.98248 676.16895 2529.916 3226428
-802.4704 674.77197 2524.6892 3358014
-784.29218 672.74731 2517.114 2634291
-776.6911 679.89868 2543.8711 2897463
-766.62531 685.14691 2563.5076 3423807
-744.26239 679.39441 2541.9844 3621185
-717.58685 669.36749 2504.4683 3687492
-696.93152 664.63342 2486.7556 3884614
-678.99762 662.33765 2478.1658 3950408
-663.47119 662.33765 2478.1658 2503218
-664.67432 679.4389 2542.1509 3358014
-652.37225 683.23572 2556.3567 3489344
-630.37854 676.81805 2532.3447 3358012
-614.09821 676.36157 2530.637 3226426
-596.6969 674.61365 2524.0969 2897718
-575.91296 668.84198 2502.502 3358012
-558.18311 666.39349 2493.3408 3686977
-545.81281 670.38684 2508.2822 3292219
-532.02472 672.82391 2517.4006 3292219
-515.88678 672.34741 2515.6177 3423805
-498.85074 670.63348 2509.2048 3029047
-483.12982 670.63348 2509.2048 3423805
-466.36899 669.14148 2503.6226 3226426
-450.62329 669.05273 2503.2905 2897461
-434.09363 667.75177 2498.4229 2700083
-417.76578 666.67548 2494.3958 2831670
-401.92715 666.32654 2493.0903 2831670
-385.22391 664.45807 2486.0994 2831670
-369.51151 664.21313 2485.1831 2963256
-354.0195 664.36047 2485.7341 3160635
-339.22754 665.89532 2491.4768 3226428
-322.1373 662.84924 2480.0798 3094842
-305.84439 661.2182 2473.9773 3160635
-290.34454 661.21906 2473.9805 3094842
-275.3959 662.54614 2478.9458 3094842
-259.43771 661.45789 2474.874 3094842
-242.5955 657.83417 2461.3157 2963256
-227.6312 659.15637 2466.2629 2897463
-210.69244 654.53735 2448.9805 2831927
-195.9994 656.71716 2457.1365 2436912
-178.51193 649.10754 2428.6646 2173740
-163.73146 650.84009 2435.147 2371119
-148.47452 650.84009 2435.147 2502705
-131.93423 644.57031 2411.6885 2502705
-116.18412 641.03839 2398.4736 2568755
-102.26192 648.04071 2424.6731 2765877
-87.435616 650.75751 2434.8381 3094842
-71.834091 647.63348 2423.1494 3489600
-55.961449 639.73578 2393.5999 3226428
-40.964806 639.73578 2393.5999 2700084
-26.399593 650.36438 2433.3672 2897463
-11.153795 650.36438 2433.3672 3226428
4.0406442 642.20129 2402.8247 3160635
19.29999 649.09259 2428.6086 2502705
34.7001 652.55511 2441.564 2700084
50.197647 655.17059 2451.3499 2700084
65.723053 656.83899 2457.5923 2634291
81.70623 661.58063 2475.3333 2831670
96.859169 659.1593 2466.2739 2897720
112.78476 661.93903 2476.6743 2831670
129.12042 666.16205 2492.4749 2502705
145.1217 667.93475 2499.1074 2568498
160.79965 668.01892 2499.4224 2700084
176.33723 667.55676 2497.6934 2700084
191.82158 666.98486 2495.5535 2568498
209.30769 672.93494 2517.8159 2436912
225.08258 672.93494 2517.8159 2107947
239.26796 668.4939 2501.1997 1976361
256.91434 673.67419 2520.582 2042154
271.81107 671.4621 2512.3052 2305070
287.47574 671.28528 2511.6438 2174253
303.39029 671.68018 2513.1211 2174253
319.27151 671.96582 2514.1899 2042666
334.51096 670.93738 2510.342 2174252
349.06567 668.68964 2501.9321 2042667
366.30823 671.56281 2512.6821 1976874
381.65137 670.86041 2510.054 1779751
395.24942 667.26752 2496.6111 1845288
411.87878 668.87085 2502.6101 1911081
428.80762 670.82507 2509.9219 1713702
441.00739 665.5047 2490.0154 2042924
456.25266 664.98657 2488.0769 2240046
469.06506 661.07404 2473.438 2108460
485.75262 662.69849 2479.5159 2108717
501.28757 662.69849 2479.5159 2239533
515.81671 661.40881 2474.6904 2173740
530.95569 660.95361 2472.9873 2173740
546.42865 660.92804 2472.8916 2239533
559.95026 658.60876 2464.2141 2568497
574.96808 658.12665 2462.4102 2831926
590.09747 657.79407 2461.1658 2831668
607.14514 659.56226 2467.7815 2765876
623.04828 660.03027 2469.5325 2831669
640.37982 661.95203 2476.7229 2765877
656.34357 662.40247 2478.4082 2831927
673.12335 663.63654 2483.0256 3029306
686.88104 661.90277 2476.5386 3292221
702.39728 661.90277 2476.5386 3292221
718.77893 662.70062 2479.5237 3226428
734.59247 662.95203 2480.4644 3160635
753.11511 665.58716 2490.324 3226428
771.698 668.1676 2499.9788 3160635
787.36115 668.1676 2499.9788 2963256
807.86932 672.19897 2515.0623 2765877
828.76611 676.39331 2530.7556 3029049
842.60364 674.77692 2524.7078 3292221
849.68677 667.91064 2499.0173 3358014
866.86517 669.08478 2503.4104 3292221
886.42743 672.02454 2514.4097 3226428
900.65417 670.88721 2510.1543 3094842
915.2821 670.08264 2507.144 3226428
930.97302 670.07031 2507.0979 3160635
959.74957 679.32056 2541.708 2436912
963.36365 670.74933 2509.6384 2831670
976.42743 668.92706 2502.8203 3160635
988.65399 666.59796 2494.106 3160635
1004.2803 666.59796 2494.106 3160635
1014.7021 663.19629 2481.3784 2963256
1027.5096 661.43311 2474.7812 3029049
1046.5736 663.68988 2483.2251 3423807
1057.9059 661.04919 2473.345 3029049
1075.7434 662.49115 2478.74 3160635
1090.2703 661.88208 2476.4612 3423807
1110.9396 664.96674 2488.0027 3160892
1126.5277 664.96674 2488.0027 2963256
1138.4614 662.83905 2480.0417 2897463
1147.8204 659.28986 2466.7622 2963513
1160.0214 657.44556 2459.8618 2897463
1172.1002 655.58142 2452.887 3029049
1196.7516 660.70648 2472.0627 2897463
1208.6669 658.75922 2464.7769 2568498
1210.4894 651.4295 2437.3523 2437169
1224.4729 650.74536 2434.7927 2305326
1244.8588 653.43872 2444.8701 2436912
1251.4875 648.93323 2428.0125 2634548
1262.6719 646.86969 2420.2917 2634548
1270.0566 642.93176 2405.5576 2568498
1285.4785 643.10699 2406.2134 2568498
1303.3662 644.4975 2411.416 2371119
1320.7556 645.61249 2415.5879 1976361
1328.6367 642.10718 2402.4724 2371119
1345.8298 643.13019 2406.3003 2502705
1361.1124 643.22772 2406.665 2700084
1376.1908 643.22772 2406.665 2700084
1387.0342 641.26965 2399.3389 2568498
1403.9728 642.14142 2402.6006 2568498
1433.5847 648.72968 2427.2507 2831670
1458.4224 653.04175 2443.3848 3029049
1479.9119 655.7807 2453.6326 2831670
1495.2847 655.7807 2453.6326 2436912
1488.9597 646.36169 2418.3909 2305326
1508.5028 648.24866 2425.4512 2436912
1524.4917 648.58588 2426.7129 2634291
1539.4397 648.47803 2426.3093 2568498
1554.7704 648.53186 2426.5107 2371119
1569.9733 648.53186 2426.5107 2436912
1591.1348 650.96973 2435.6321 2371119
1612.5599 653.46802 2444.9797 2436912
1625.9014 652.67444 2442.0103 2371119
1645.531 654.39624 2448.4526 2568498
1663.4875 655.427 2452.3093 2765877
1681.2607 656.36737 2455.8276 2568498
1696.6471 656.36737 2455.8276 2502705
1721.9865 660.18304 2470.1042 2502705
1737.2058 660.08557 2469.7395 2502705
1754.2555 660.6792 2471.9604 2371119
1781.4598 665.05322 2488.3262 2502705
1799.9746 666.13556 2492.376 2502705
1807.981 663.34375 2481.9302 2502705
1824.5029 663.69733 2483.2532 2568498
1841.8518 664.34314 2485.6694 2502705
1857.9951 664.547 2486.4321 2568498
1877.3441 665.88446 2491.4363 2436912
1896.9232 667.28082 2496.6606 2568498
1915.1786 668.19244 2500.0718 2765877
1939.0054 671.0174 2510.6414 2634548
1949.5405 669.23413 2503.9692 2568498
1974.481 672.38483 2515.7578 2502705
1989.0282 671.97449 2514.2224 2502705
2003.6042 671.58014 2512.7471 2371119
2023.8959 673.0929 2518.407 2371119
2038.2832 672.63373 2516.689 2502706
2055.0854 672.97253 2517.9565 2502192
2066.1887 671.45404 2512.2751 2239020
2091.4458 674.52338 2523.7593 2239020
2110.6694 675.61536 2527.845 2173227
2129.5542 676.5835 2531.4673 2173227
2152.1001 678.69183 2539.3557 2239020
2180.9219 682.73395 2554.4792 2041641
2196.9265 682.73395 2554.4792 2239020
2184.2688 673.89099 2521.3931 2502192
2201.6536 674.37726 2523.2124 2633778
2219.5947 675.02576 2525.6389 2568242
2234.9521 674.88495 2525.1121 2765364
2236.063 670.47424 2508.6091 2765364
2240.749 667.1897 2496.3198 2699571
2256.3892 667.1897 2496.3198 2831157
2279.2817 669.31927 2504.2878 2699828
2299.3049 670.58307 2509.0164 2633778
2297.9268 665.63037 2490.4856 2370606
2313.5303 665.63037 2490.4856 2107434
2324.1655 664.21045 2485.1729 2304813
2341.2568 664.64215 2486.7881 2502192
2354.7742 664.06036 2484.6113 2502192
2365.4187 662.68134 2479.4517 2370606
2380.9531 662.68134 2479.4517 2370606
2397.7773 663.03802 2480.7861 2304813
2413.3203 663.03802 2480.7861 2304813
2442.0247 666.6308 2494.2288 2304813
2457.8042 666.67218 2494.3835 2436399
2466.8403 664.89545 2487.7358 2370606
2485.2344 665.6474 2490.5493 2304813
2504.2532 666.55634 2493.9502 2173227
2524.5981 667.80475 2498.6211 2107434
2542.2388 668.3269 2500.5747 2041898
2560.634 669.03967 2503.2417 2173227
nan nan nan 16777215
nan nan nan 16777215
nan nan nan 16777215
nan nan nan 16777215
nan nan nan 16777215
nan nan nan 16777215
nan nan nan 16777215
nan nan nan 16777215
nan nan nan 16777215
nan nan nan 16777215
-2207.4531 661.23358 2417.6599 2963256
-2200.4756 663.69763 2426.6694 2700084
-2173.7344 660.19354 2413.8574 2502705
-2167.3994 662.88159 2423.6855 2765877
-2152.2144 662.88159 2423.6855 2831670
-2130.1409 660.74481 2415.873 2765877
-2116.1113 661.09064 2417.1375 2568498
-2100.9673 661.09064 2417.1375 2437169
-2085.9204 661.1214 2417.25 2634291
-2063.2083 658.70557 2408.4167 2765877
-2045.0123 657.70642 2404.7637 2897463
-2028.1125 657.11243 2402.592 2963256
-2000.7129 653.08215 2387.8562 3029049
-1985.7522 653.08215 2387.8562 3094842
-1982.0724 656.82043 2401.5242 3160635
-1960.8815 654.76868 2394.0225 3160635
-1945.9109 654.77838 2394.0579 3292221
-1929.6509 654.35089 2392.4949 3160635
-1910.6278 652.97247 2387.4551 3292221
-1896.0182 653.09247 2387.8938 3423807
-1875.2756 651.08514 2380.5544 3424064
-1859.9568 650.94373 2380.0374 3424321
-1845.5139 651.10913 2380.6421 3424320
-1833.7595 652.23346 2384.7532 3687749
-1811.3365 649.55048 2374.9434 3687492
-1792.1857 648.00616 2369.2969 3226941
-1775.0992 647.18872 2366.3081 3292734
-1762.7527 648.10022 2369.6406 3292734
-1747.906 648.10022 2369.6406 3095354
-1720.7727 643.50537 2352.8406 3029562
-1706.2041 643.57056 2353.0789 3029819
-1691.8512 643.71887 2353.6211 3029049
-1678.4454 644.23334 2355.5022 2897720
-1667.0176 645.52283 2360.217 2963256
-1657.9354 647.75183 2368.3669 3094840
-1632.5312 643.58661 2353.1377 2963254
-1611.8524 641.22534 2344.5042 2634289
-1596.7466 641.05798 2343.8923 2765875
-1584.9761 642.23907 2348.2107 2765875
-1569.0281 641.73358 2346.3625 2831668
-1551.3636 640.51001 2341.8887 2897718
-1539.03 641.48499 2345.4534 3094840
-1525.0906 641.80292 2346.616 2963254
-1510.4474 641.828 2346.7078 2897461
-1504.4962 645.58331 2360.4382 3094840
-1489.7073 645.58331 2360.4382 3094840
-1475.4375 645.81055 2361.269 2765875
-1464.4437 647.49078 2367.4126 2700082
-1449.6112 647.49078 2367.4126 2502703
-1430.0925 645.37604 2359.6804 2371117
-1414.1539 644.84967 2357.7556 2371117
-1398.0328 644.22797 2355.4827 2371117
-1386.3925 645.67987 2360.7913 2436910
-1378.7614 649.05048 2373.115 2568496
-1358.2251 646.35321 2363.2532 2568496
-1342.9796 646.14197 2362.4807 2305324
-1328.6268 646.36035 2363.2793 2765875
-1314.7506 646.81805 2364.9529 2963254
-1300.7059 647.20251 2366.3584 2831668
-1286.6263 647.57819 2367.7319 2765875
-1276.4396 649.9447 2376.3848 3094583
-1266.973 652.73822 2386.5986 3226426
-1244.3922 648.76141 2372.0581 2700082
-1250.5591 659.85718 2412.6274 2305324
-1225.2009 654.3866 2392.6255 2568496
-1215.6632 657.33508 2403.406 2831668
-1201.7872 657.9823 2405.7725 2831925
-1180.1918 654.36578 2392.5496 2897461
-1164.8434 654.16461 2391.814 2831668
-1151.2172 654.93787 2394.6411 2765875
-1137.0696 655.43109 2396.4443 2897461
-1121.1931 654.92755 2394.6033 2897461
-1106.2263 654.94897 2394.6816 2897462
-1093.3191 656.20709 2399.2817 2634547
-1083.4001 659.31885 2410.6592 2963255
-1075.837 663.9726 2427.6746 3489598
-1059.6449 663.35779 2425.4268 3292221
-1040.2546 660.69391 2415.687 3160635
-1029.4683 663.49664 2425.9346 3226428
-1016.9764 665.26776 2432.4102 3292220
-1000.2574 664.2854 2428.8184 2897976
-985.04016 664.2854 2428.8184 2766390
-978.58307 670.28571 2450.7573 2964026
-962.7901 669.98077 2449.6423 2305839
-944.32788 667.7785 2441.5901 2569011
-938.85358 674.83911 2467.4058 3226941
-929.50183 679.30249 2483.7251 3161148
-910.02423 676.3916 2473.0823 3292734
-890.2937 673.18866 2461.3713 3226941
-878.13361 675.69806 2470.5464 3358527
-862.65491 675.69806 2470.5464 3226941
-852.70215 680.10553 2486.6614 3226941
-831.2605 675.34314 2469.2485 3687492
-811.76788 672.01355 2457.0747 3950664
-796.37354 672.01355 2457.0747 4082506
-780.92981 671.97101 2456.9192 3819078
-767.15002 673.38739 2462.0979 4147530
-746.09357 668.34351 2443.656 3950151
-732.32001 669.7489 2448.7947 3358272
-716.97754 669.7489 2448.7947 3424066
-697.79181 666.08032 2435.3811 3687237
-689.19751 672.5838 2459.1597 3950664
-673.79016 672.5838 2459.1597 4016457
-661.63269 675.90387 2471.2988 3161148
-645.0257 674.72852 2467.0015 3292734
-627.80524 672.83813 2460.0896 3358014
-610.85992 671.15479 2453.9348 3095097
-595.48529 671.15479 2453.9348 3094585
-582.18536 673.55511 2462.7112 3291963
-566.75568 673.55511 2462.7112 3292220
-549.17572 670.9281 2453.106 3358013
-534.27704 671.51984 2455.2695 3226426
-519.11456 671.8053 2456.3132 3226426
-503.39722 671.36804 2454.7146 3226426
-487.39017 670.50482 2451.5583 2963254
-470.75415 668.69202 2444.9302 3292219
-456.51025 670.26935 2450.6975 3292219
-438.94968 666.91736 2438.4417 3226426
-423.2258 666.21497 2435.8733 2897462
-405.65213 662.43903 2422.0676 2897463
-390.18036 661.93561 2420.2268 2765877
-375.77298 663.2702 2425.1064 2831670
-358.76584 659.93506 2412.9124 2766134
-343.64819 659.93506 2412.9124 2765877
-327.8056 658.47882 2407.5879 3160635
-311.63889 656.19965 2399.2544 3226428
-299.72104 663.08936 2424.4453 3358014
-284.53113 663.08936 2424.4453 3226428
-267.14359 657.67896 2404.6633 3094842
-255.26588 665.99731 2435.0776 3358014
-240.37743 667.01862 2438.8118 3621186
-223.34563 661.82739 2419.8311 3094842
-207.36162 659.21094 2410.2646 3094842
-190.51729 653.2337 2388.4102 2568498
-175.61607 653.46777 2389.2661 2568498
-159.46997 648.68164 2371.7666 2700084
-142.62965 639.79779 2339.2847 3029049
-127.81191 638.99091 2336.3345 2897463
-113.26014 639.47705 2338.1118 2371119
-97.876228 634.71118 2320.6865 2502705
-84.195259 641.25244 2344.6033 2700084
-69.398506 640.2644 2340.9907 2831670
-55.03772 643.84705 2354.0898 2831670
-40.156803 641.74048 2346.3877 2700084
-25.675755 647.28162 2366.6477 2700084
-10.851201 647.47418 2367.3518 2634291
3.9580989 643.75085 2353.7383 2107947
18.72146 644.31738 2355.8096 2042154
33.573994 646.10052 2362.3291 2042154
48.401646 646.46014 2363.644 1976361
63.672543 651.18439 2380.9172 2173740
79.022377 654.76923 2394.0247 2568498
94.216942 656.12903 2398.9963 2568498
109.70473 658.87573 2409.0391 2436912
125.19321 660.96161 2416.6658 2502962
140.37883 661.17102 2417.4314 2634291
156.14702 663.81628 2427.1033 2568498
171.33328 663.73773 2426.8159 2568498
186.07983 662.1073 2420.8547 2436912
200.89589 660.95148 2416.6284 2502705
217.08435 664.15625 2428.3462 2502705
231.87567 662.94684 2423.9241 2239533
249.59813 669.75122 2448.803 2371119
264.94064 669.75122 2448.803 2502705
279.64636 668.22961 2443.2395 2371632
294.80026 667.88123 2441.9658 2503219
309.60782 666.82135 2438.0906 2371632
325.16296 667.39557 2440.1899 2371632
339.93921 666.3913 2436.5181 2371632
354.99173 665.99164 2435.0569 2042924
367.98083 661.91333 2420.1455 1845288
385.90933 666.69104 2437.614 1911081
400.97281 666.34381 2436.3445 2240046
414.00818 662.77533 2423.2971 1911081
428.10782 661.10284 2417.1819 1976874
442.09698 659.37976 2410.8821 1976874
457.18933 659.36163 2410.8157 1911081
472.31833 659.39587 2410.9407 2240303
487.42361 659.39587 2410.9407 2305326
500.88239 657.23535 2403.0413 2107947
515.20056 656.29572 2399.6057 2042154
532.20703 658.73682 2408.5312 2042154
548.40314 660.06787 2413.3979 2305325
562.39459 658.74518 2408.5618 2568497
574.23511 655.03802 2395.0073 2700083
590.67261 656.62994 2400.8279 2568497
605.57648 656.48029 2400.2808 2502705
621.29803 657.20288 2402.9226 2634290
639.37109 660.3197 2414.3186 2831668
654.98816 660.8147 2416.1284 2831670
671.66547 662.33282 2421.6792 2568498
688.90729 664.32825 2428.9751 2436913
706.94653 666.98981 2438.7063 2502705
720.24689 665.16223 2432.0242 2634291
732.19647 662.18878 2421.1526 2765877
749.19763 663.81189 2427.0872 2766134
764.07635 663.52728 2426.0464 2897463
782.90027 666.61298 2437.3286 2963256
796.08411 664.87012 2430.9563 2897463
810.50482 664.20636 2428.5293 2897463
830.00702 667.65454 2441.137 3094842
843.76959 666.44458 2436.7129 3621186
858.07043 665.69525 2433.9731 3423807
873.70953 665.99213 2435.0586 3094842
888.44342 665.60071 2433.6274 3094842
906.6214 667.75909 2441.5193 3029049
922.21979 667.97754 2442.3179 2634291
936.72308 667.40857 2440.2375 2436912
953.41711 668.39368 2443.8394 2831670
961.58423 663.46429 2425.8162 3094842
974.00079 661.57477 2418.9075 3160892
987.12085 660.21356 2413.9307 2897463
1011.1402 666.07324 2435.3552 2963256
1031.4502 669.3515 2447.3416 3094842
1033.0638 660.57861 2415.2651 3226428
1052.1019 663.03998 2424.2649 3358014
1057.3885 656.88843 2401.7729 3226428
1083.7822 663.83801 2427.1826 3292221
1098.9894 663.83801 2427.1826 2897463
1103.0259 657.18268 2402.8486 3029049
1114.4122 655.02649 2394.9651 2963256
1125.9517 653.01648 2387.616 2897463
1136.8207 650.67548 2379.0564 3029306
1149.7545 649.56152 2374.9836 2765877
1163.4137 648.88062 2372.4941 2568498
1177.3386 648.36322 2370.6023 2634548
1189.1577 646.71356 2364.5706 2371119
1202.5375 645.94269 2361.7522 2436912
1214.2627 644.31268 2355.7925 2436912
1225.1837 642.30023 2348.4343 2568755
1249.0017 647.01654 2365.6785 2568498
1264.1859 647.20209 2366.3569 2897463
1273.5839 644.45538 2356.3142 2897720
1281.6112 641.08612 2343.9951 2897463
1300.7515 643.289 2352.0496 2502705
1313.5748 642.35364 2348.6294 2634291
1327.4841 641.96393 2347.2048 2634291
1340.8627 641.3291 2344.8835 2568498
1354.6293 640.89154 2343.2837 2568498
1369.356 640.91278 2343.3613 2568498
1389.6617 643.51703 2352.8833 2765877
1410.7009 646.40271 2363.4341 2897463
1426.5894 646.89282 2365.2261 2634291
1450.1407 650.81195 2379.5554 2436912
1458.0931 647.72174 2368.2568 2502705
1465.7262 644.55341 2356.6726 2502705
1475.9709 642.58527 2349.4766 2634291
1494.9226 644.40942 2356.146 2568498
1509.6583 644.39819 2356.105 2305326
1525.9644 645.05096 2358.4917 2502705
1544.8422 646.76794 2364.7695 2831927
1561.002 647.3252 2366.8071 2502705
1571.407 645.508 2360.1628 2634291
1594.2042 648.7677 2372.0813 2634291
1609.066 648.7677 2372.0813 2700084
1623.7164 648.68323 2371.7725 2634291
1638.2355 648.54834 2371.2791 2634291
1661.3507 651.78833 2383.1255 2436912
1674.4827 651.08875 2380.5676 2371120
1694.5504 653.07465 2387.8286 2371119
1709.511 653.07465 2387.8286 2305326
1723.7358 652.79608 2386.8101 2371119
1743.104 654.45337 2392.8696 2305326
1767.6962 658.02698 2405.9358 2239533
1775.1266 655.20575 2395.6206 2107947
1790.2823 655.2594 2395.8167 2173740
1806.4706 655.68677 2397.3794 2173740
1833.6255 660.05493 2413.3506 2436912
1846.6039 659.29022 2410.5544 2502705
1863.4893 659.92139 2412.8623 2436912
1886.7928 662.79712 2423.3767 2502705
1906.1042 664.23572 2428.6367 2502449
1923.9667 665.15057 2431.9817 2371375
1941.2783 665.86212 2434.5833 2371119
1967.6033 669.63 2448.3599 2502962
2012.1119 679.48029 2484.3752 2700340
2025.9017 678.88525 2482.1997 2700084
2032.3423 675.85535 2471.1213 2568241
2033.2401 671.04193 2453.5222 2370606
2050.3489 671.61084 2455.6023 2304814
2069.7065 672.90234 2460.3245 2502192
2080.3103 671.34979 2454.6477 2502192
2099.738 672.64673 2459.3899 2567985
2113.6582 672.17334 2457.6589 2502192
2128.6763 672.05341 2457.2205 2633778
2147.3572 673.08325 2460.9858 2699571
2154.0444 670.36591 2451.0505 2765364
2166.5459 669.48358 2447.8245 2436399
2180.7761 669.14423 2446.5835 2370606
2193.0928 668.2265 2443.228 2304813
2203.896 666.86359 2438.2449 2436399
2219.1724 666.86359 2438.2449 2502192
2234.2449 666.80267 2438.0222 2502192
2241.9011 664.54431 2429.7651 2436399
2260.1733 665.44202 2433.0474 2370606
2262.3386 661.61725 2419.063 2239020
2274.1963 660.65906 2415.5593 2436399
2287.5925 660.15747 2413.7256 2370606
2303.3293 660.33362 2414.3694 2304813
2316.1841 659.6864 2412.0032 2370606
2328.2493 658.82422 2408.8508 2304813
2353.3376 661.63464 2419.1265 2239020
2370.6362 662.23309 2421.3145 2239020
2385.2161 662.06915 2420.7151 2173485
2401.0432 662.25134 2421.3813 2173228
2421.2161 663.62244 2426.3943 2173227
2435.1975 663.28986 2425.1785 2107435
2452.3374 663.81647 2427.1038 2041642
2472.5867 665.17303 2432.064 2173227
2489.9343 665.73724 2434.1267 2173227
nan nan nan 16777215
nan nan nan 16777215
nan nan nan 16777215
nan nan nan 16777215
nan nan nan 16777215
nan nan nan 16777215
nan nan nan 16777215
nan nan nan 16777215
nan nan nan 16777215
nan nan nan 16777215
-2148.0579 658.10376 2352.6086 3029306
-2133.3181 658.10376 2352.6086 3094842
-2122.3442 659.27356 2356.7905 3358014
-2113.8542 661.23682 2363.8088 3094842
-2107.3359 663.84882 2373.1462 2765877
-2075.6506 658.51361 2354.0737 2700084
-2066.0164 660.14789 2359.916 2634291
-2037.2756 655.65668 2343.8608 2897463
-2021.2009 655.20624 2342.2505 3160635
-2007.9456 655.66974 2343.9075 3160635
-1993.2603 655.66974 2343.9075 3160892
-1976.1869 654.87842 2341.0786 3094842
-1956.8888 653.33246 2335.552 3160635
-1937.0841 651.59277 2329.333 3160635
-1928.7205 653.70441 2336.8818 3160635
-1913.8179 653.61517 2336.5627 3292221
-1894.5055 652.00696 2330.8135 3292221
-1879.0688 651.7179 2329.7803 3226428
-1868.4519 653.10907 2334.7534 3292221
-1852.0187 652.47302 2332.4797 3292477
-1834.934 651.59552 2329.3428 3358527
-1810.2836 647.99585 2316.4746 3424320
-1795.5956 647.93292 2316.2495 3226942
-1771.6815 644.51251 2304.0222 3029562
-1755.7576 643.96661 2302.0708 2897720
-1741.5909 644.06146 2302.4099 2963769
-1737.0243 647.73779 2315.552 3226171
-1722.5166 647.73779 2315.552 3028793
-1696.2502 643.2785 2299.6108 2831670
-1673.1769 639.96399 2287.7622 2700084
-1652.425 637.48792 2278.9104 3094842
-1638.147 637.48792 2278.9104 3029047
-1625.0848 637.96521 2280.6167 2831925
-1610.4775 637.83905 2280.1658 2436911
-1594.5293 637.1748 2277.7913 2568497
-1581.8534 637.81799 2280.0906 2700084
-1567.8567 637.93549 2280.5105 2568754
-1552.6361 637.55261 2279.1418 2700082
-1542.6068 639.31409 2285.4387 2831668
-1528.2878 639.31409 2285.4387 2897461
-1514.3868 639.49054 2286.0696 3029047
-1498.2621 638.72247 2283.3237 3160633
-1485.4781 639.37744 2285.6653 3029047
-1473.2354 640.28033 2288.8931 2897461
-1459.7651 640.66241 2290.2588 3094840
-1448.4603 642.01178 2295.0825 2963254
-1434.436 642.17072 2295.6509 2700082
-1420.438 642.34485 2296.2732 2700082
-1409.1276 643.75024 2301.2974 2568496
-1392.6934 642.81982 2297.9712 2371117
-1377.8068 642.59167 2297.1558 2371117
-1359.4785 640.73669 2290.5244 2436910
-1348.8192 642.49518 2296.8105 2436910
-1337.1411 643.80096 2301.4785 2436910
-1322.7772 643.828 2301.5752 2436910
-1307.8671 643.58685 2300.7131 2436910
-1294.6416 644.17859 2302.8284 2371117
-1278.2106 643.17065 2299.2253 2634289
-1263.8053 643.17065 2299.2253 2831668
-1253.313 645.18506 2306.4265 2765875
-1247.2614 649.55908 2322.0627 3029047
-1240.3419 653.57916 2336.4338 2897718
-1229.8661 655.79865 2344.3684 2502703
-1211.0441 653.56781 2336.3933 2831668
-1190.1575 650.15442 2324.1912 2831668
-1177.8201 651.38458 2328.5889 2766132
-1163.7209 651.65918 2329.5703 2831668
-1150.8159 652.61786 2332.9973 2765875
-1154.8511 663.33124 2371.2961 2634289
-1135.3662 660.63843 2361.6697 3029047
-1111.46 655.26776 2342.4705 3029047
-1095.9141 654.74829 2340.6133 2963255
-1080.687 654.40765 2339.3958 3029049
-1066.6345 654.77881 2340.7224 2766134
-1053.967 656.02234 2345.168 3423550
-1040.1389 656.56836 2347.1199 3489600
-1027.6479 657.98633 2352.1887 3160635
-1014.0438 658.72229 2354.8198 3095099
-1002.5571 660.87592 2362.5186 3095099
-988.84863 661.60748 2365.1338 3226428
-978.89459 664.91156 2376.9453 3161148
-960.40851 662.43274 2368.084 2963769
-945.50116 662.3833 2367.9072 3029562
-930.66553 662.3833 2367.9072 3095355
-914.14594 661.16541 2363.5535 3358527
-902.52887 663.5116 2371.9407 3424320
-888.90631 664.43726 2375.2498 3621699
-871.23798 662.31885 2367.6768 3621699
-857.07678 662.83936 2369.5376 3621956
-843.83636 664.10278 2374.0542 3621956
-824.34113 660.40076 2360.8201 3621699
-818.75409 667.90924 2387.6616 3621444
-800.36847 665.06232 2377.4841 4016458
-783.14575 663.09198 2370.4407 4081995
-768.29425 663.09198 2370.4407 3753286
-754.49207 664.0155 2373.7422 3884616
-740.20929 664.54474 2375.634 3687237
-728.6723 667.61133 2386.5967 3819079
-713.71948 667.61133 2386.5967 3884615
-694.4516 663.48859 2371.8584 3621700
-678.01416 661.94891 2366.3545 3753030
-662.46216 661.22424 2363.7639 4147787
-643.8587 657.35101 2349.9177 3621699
-634.28424 662.73047 2369.1482 3292734
-623.40106 666.96741 2384.2947 3424318
-607.55157 665.96869 2380.7244 3358525
-589.60638 662.56464 2368.5557 3226939
-578.17334 666.49176 2382.5942 3095353
-566.67676 670.55176 2397.1082 3226939
-549.29681 667.68158 2386.8477 3095610
-533.9353 667.17273 2385.0288 2634802
-515.10291 662.17279 2367.1548 3029047
-503.64117 666.63239 2383.0972 3160634
-489.29767 667.43359 2385.9612 3226426
-474.40002 667.50562 2386.2185 3358012
-456.35437 663.00867 2370.1428 3226426
-441.39246 662.84009 2369.5403 2897461
-427.54578 664.39288 2375.0911 2831668
-412.20096 663.64557 2372.4197 2765876
-395.82828 661.12567 2363.4114 2765877
-380.66046 660.50049 2361.1765 2897720
-365.99695 660.73511 2362.0154 3292221
-348.25974 655.20679 2342.2524 3423807
-332.58646 653.24591 2335.2427 3358014
-317.81839 652.96442 2334.2363 3358014
-304.87982 656.5957 2347.2175 3029049
-290.52719 657.39545 2350.0764 2700084
-274.53214 654.3656 2339.2454 3094842
-259.12463 652.47357 2332.4817 3094842
-245.87967 656.1261 2345.5388 2831670
-229.22856 650.57593 2325.698 3029049
-215.20235 652.22772 2331.6028 3292221
-200.35063 651.43597 2328.7725 3358014
-185.35287 650.00775 2323.6667 3160635
-169.84349 646.38885 2310.7297 3094842
-154.43564 642.51788 2296.8918 2831670
-139.88 641.76141 2294.1875 3094842
-125.29252 640.66876 2290.2815 3094842
-110.77001 639.66858 2286.7061 2568498
-96.169113 637.85144 2280.2102 2568755
-82.130882 639.78326 2287.116 2765877
-67.808701 639.85223 2287.3625 2700084
-53.477665 639.85223 2287.3625 2765877
-39.19384 640.62396 2290.1213 2831670
-25.262455 651.37433 2328.552 2568498
-10.673355 651.37433 2328.552 2173740
3.8267725 636.57397 2275.6433 2042154
18.286102 643.67444 2301.0264 1976361
32.981998 649.17084 2320.675 2107947
47.62693 650.60773 2325.8115 2107947
62.364914 652.34467 2332.021 2305326
77.166534 653.96149 2337.8008 2436912
92.735008 660.5246 2361.2627 2568498
107.10522 657.92108 2351.9556 2502705
122.01219 658.84576 2355.2612 2436912
137.04001 660.15302 2359.9343 2371119
151.83098 660.1759 2360.0161 2371375
166.58347 660.04211 2359.5381 2371376
180.64941 657.43176 2350.2063 2371376
195.85727 659.05725 2356.0173 2502961
210.55061 658.84503 2355.2585 2503218
227.43105 665.05609 2377.4622 2634548
242.3266 665.05609 2377.4622 2568755
255.01729 659.35541 2357.083 2568498
270.22876 660.43964 2360.959 2437682
285.18851 660.828 2362.3472 2569011
300.58047 662.13019 2367.0024 2305839
315.82663 663.00372 2370.1252 2437425
330.67618 663.00372 2370.1252 2437425
344.36252 660.77167 2362.146 2437425
359.1582 660.76447 2362.1204 2437425
372.93048 658.94958 2355.6323 2240046
387.93375 659.36523 2357.1182 2108460
402.58881 659.18018 2356.4565 2108460
417.08075 658.75055 2354.9209 2174253
431.52011 658.27014 2353.2034 2042667
446.61554 658.78918 2355.0588 2108460
459.45544 656.05438 2345.2825 2371376
473.67419 655.39685 2342.9319 2173740
488.18054 655.16492 2342.1028 2107947
502.12784 654.21808 2338.718 1976361
516.1745 653.45074 2335.9749 2042154
531.56604 654.38141 2339.3018 2173740
544.8526 652.74017 2333.4348 2107947
558.85931 652.02502 2330.8782 2239532
572.29028 650.69165 2326.1116 2502703
587.45959 651.35199 2328.4722 2568497
602.99432 652.37555 2332.1313 2568498
618.5874 653.41235 2335.8376 2502705
634.79022 655.03046 2341.6221 2371119
650.21021 655.78589 2344.3225 2371119
665.28259 656.1651 2345.6782 2371119
683.98236 660.0282 2359.4883 2239533
700.34351 661.51898 2364.8174 2436912
715.28992 661.63928 2365.2476 2436912
726.11987 658.02435 2352.3247 2502705
739.25739 656.60278 2347.2429 2634291
758.89294 660.89557 2362.5889 2765877
772.53369 659.90332 2359.0417 2897720
788.98138 661.30103 2364.0383 2963256
800.45941 658.55853 2354.2344 3029049
818.42407 661.15552 2363.5181 3029049
833.40588 661.29327 2364.0105 3094842
852.83673 664.89478 2376.8855 3292221
859.36865 658.48889 2353.9856 3489600
873.60565 658.1037 2352.6084 2897463
887.71924 657.63977 2350.95 2897463
904.17859 658.90045 2355.4565 2700084
924.36346 662.79187 2369.3679 2700341
934.09283 659.18188 2356.4629 2765877
950.80145 660.5329 2361.2922 2765877
950.34875 650.10297 2324.0071 2700341
963.66351 649.26361 2321.0066 2634291
975.38928 647.39447 2314.3247 2897463
997.91919 652.64606 2333.0984 3160635
1010.0091 651.01685 2327.2742 2963256
1030.1047 654.52069 2339.7998 2831670
1042.3558 653.0119 2334.406 2700341
1060.6721 655.29199 2342.5569 2634291
1078.5532 657.24451 2349.5371 2897463
1086.7209 653.30511 2335.4543 2831670
1098.5262 651.62811 2329.4595 2765877
1113.0974 651.61438 2329.4102 3029049
1116.775 645.30621 2306.8596 2766134
1131.8771 645.67639 2308.1829 2634291
1149.5759 647.49982 2314.7014 2700084
1158.9658 644.65613 2304.5356 2634548
1169.2896 642.39545 2296.4541 2502705
1184.1869 642.67188 2297.4424 2436912
1193.5129 639.95441 2287.7278 2568498
1234.2979 653.96924 2337.8284 3094842
1255.931 657.62726 2350.905 3292221
1250.022 646.94598 2312.7214 2897463
1257.9374 643.58234 2300.697 2634291
1270.4926 642.64178 2297.3347 2568498
1286.4758 643.43695 2300.1772 2568498
1300.2252 643.10956 2299.0068 2765877
1308.7711 640.24377 2288.7622 2634291
1326.9429 642.09802 2295.3909 2634291
1345.0612 643.8869 2301.7859 2831670
1353.53 641.06763 2291.7075 2765877
1370.3475 642.22021 2295.8276 2700084
1382.4252 641.15051 2292.0037 2634291
1394.9008 640.28552 2288.9114 2634548
1412.7769 641.89178 2294.6536 2765877
1429.7664 643.06689 2298.8545 2634291
1445.4772 643.64929 2300.9363 2502705
