# .PCD v0.7 - Point Cloud Data file format
VERSION 0.7
FIELDS x y z rgb
SIZE 4 4 4 4
TYPE F F F U
COUNT 1 1 1 1
WIDTH 1288
HEIGHT 1
VIEWPOINT 0 0 0 1 0 0 0
POINTS 1288
DATA ascii
414.79416 615.23761 1136.2057 2304555
421.04572 613.97321 1133.8706 1975592
428.40109 614.33356 1134.5361 2634032
437.04541 616.50049 1138.5378 3356728
443.82092 616.00378 1137.6206 3488570
452.85559 618.60895 1142.4318 2963253
463.27979 623.00171 1150.5442 2370860
470.48831 623.00171 1150.5442 2501933
478.07318 623.49249 1151.4506 2567726
485.28738 623.49249 1151.4506 2305324
491.98181 622.83453 1150.2355 2634032
497.83759 621.14905 1147.1228 2634288
503.7832 619.62219 1144.303 2502703
511.11258 619.81616 1144.6613 2831411
516.276 617.41455 1140.226 4147271
523.67657 617.71729 1140.785 3423805
529.64819 616.34912 1138.2583 2305324
533.07446 612.0946 1130.4012 1845029
534.6275 605.82898 1118.83 1844259
538.8891 602.755 1113.1531 1844516
543.03876 599.63605 1107.3931 2107945
549.34369 598.94562 1106.1179 2173481
555.80127 598.43677 1105.1783 1910309
562.2879 597.97131 1104.3187 1844773
566.77667 595.41846 1099.6041 1976102
577.13306 599.01685 1106.2496 2305067
586.37329 601.38525 1110.6234 2107689
595.08704 603.16443 1113.9092 1844517
602.04462 603.14301 1113.8696 1778722
607.36853 601.50415 1110.843 2436651
614.50464 601.67682 1111.1619 2765616
623.39911 603.54797 1114.6174 2634287
631.41437 604.53583 1116.4419 2633003
637.94324 604.0946 1115.627 2435624
642.9696 602.25555 1112.2307 2764845
648.41772 600.84674 1109.6289 2896689
653.72644 599.33997 1106.8463 2502187
660.46228 599.15955 1106.5131 2173224
667.24219 599.0224 1106.2599 2370860
673.00037 597.98035 1104.3353 2436910
678.58289 596.80487 1102.1646 2700082
686.15021 597.38123 1103.2289 2831411
692.86517 597.21124 1102.915 2765618
698.03491 595.72595 1100.172 3028790
701.40411 592.74811 1094.6726 3225913
709.75629 593.99823 1096.9813 2699055
717.9978 595.13263 1099.0763 2567212
720.34326 591.40479 1092.1918 2633262
728.53705 592.50342 1094.2207 2699055
736.09619 593.07025 1095.2675 2830641
743.39606 593.41962 1095.9127 2699055
752.08173 594.85864 1098.5703 2830641
758.78967 594.72156 1098.3171 2830641
766.50409 595.36865 1099.5122 2699055
774.29462 596.06287 1100.7942 2633262
783.14465 597.55316 1103.5465 2567468
790.82086 598.12964 1104.6111 2896433
798.71478 598.85931 1105.9586 2633003
807.71167 600.3963 1108.7971 2435880
813.45837 599.51172 1107.1635 2830383
821.40948 600.25305 1108.5325 2830641
827.54028 599.66272 1107.4424 2633262
834.55621 599.71851 1107.5453 3159606
840.39288 598.93274 1106.0942 2896434
847.32288 598.93274 1106.0942 2633006
854.61218 599.18463 1106.5594 2633262
859.83679 597.99652 1104.3652 2764849
866.38715 597.74207 1103.8953 2699054
874.46069 598.53418 1105.3582 2435882
881.86444 598.85895 1105.958 2633260
888.11102 598.39911 1105.1088 2633260
894.37958 597.96094 1104.2996 2764846
900.01611 597.11029 1102.7285 2830639
906.23285 596.6546 1101.887 2896689
911.71753 595.72742 1100.1747 3028018
918.04846 595.36292 1099.5016 3356983
918.30707 591.09528 1091.6201 2896432
926.58063 592.0116 1093.3124 2699053
940.10437 596.24438 1101.1294 2699052
948.09851 596.9339 1102.4028 2435881
953.07849 595.72943 1100.1785 2501677
962.02502 597.00385 1102.532 2567469
971.53296 598.60596 1105.4907 2633262
979.17029 599.04102 1106.2942 2830641
989.49567 601.10297 1110.1021 3028020
993.755 599.47668 1107.0988 3028020
1001.6962 600.07861 1108.2104 3027763
1004.6387 597.69843 1103.8147 3225399
1013.1315 598.63025 1105.5355 3883329
1021.3068 599.3631 1106.889 3817536
1027.3563 598.84698 1105.9359 3028020
1036.1039 599.8999 1107.8804 2764848
1043.0452 599.8999 1107.8804 2764848
1050.1989 600.0213 1108.1045 2699055
1046.1036 593.75641 1096.5347 2633262
1058.619 596.93964 1102.4135 2435883
1069.4513 599.13867 1106.4746 2041125
1074.9487 598.33997 1104.9995 1975589
1084.4089 599.7431 1107.5908 2041382
1091.2897 599.71088 1107.5312 2107175
1096.9156 598.99384 1106.207 2172711
1102.7618 598.40533 1105.1202 2304297
1108.9756 598.02234 1104.413 2304297
1117.2563 598.75189 1105.7603 2304297
1127.2708 600.39581 1108.7961 2238504
1134.974 600.79608 1109.5354 2304297
nan nan nan 16777215
nan nan nan 16777215
nan nan nan 16777215
nan nan nan 16777215
nan nan nan 16777215
nan nan nan 16777215
nan nan nan 16777215
nan nan nan 16777215
nan nan nan 16777215
nan nan nan 16777215
nan nan nan 16777215
nan nan nan 16777215
nan nan nan 16777215
nan nan nan 16777215
nan nan nan 16777215
nan nan nan 16777215
nan nan nan 16777215
nan nan nan 16777215
nan nan nan 16777215
-936.58435 598.81311 1093.2902 3291962
-929.7345 598.81311 1093.2902 3752256
-920.10016 597.00629 1089.9913 3357755
-914.47528 597.79358 1091.4287 3226169
-906.09827 596.77997 1089.5781 3489084
-893.10333 592.68646 1082.1044 3423548
-884.9826 591.78973 1080.4672 3423548
-875.58423 590.01825 1077.2329 3291962
-868.33154 589.67639 1076.6086 3686720
-861.40582 589.55286 1076.3832 4147528
-853.97784 589.08093 1075.5215 3950149
-851.58655 592.10352 1081.04 3884613
-847.09265 593.70093 1083.9565 4542543
-838.86493 592.6861 1082.1036 4476750
-829.29651 590.69965 1078.4769 3226426
-823.94409 591.70837 1080.3186 2831925
-823.1991 596.06989 1088.2817 3226426
-817.09283 596.5899 1089.2312 3358012
-813.5932 599.0379 1093.7006 3226426
-808.47412 600.32495 1096.0504 2963254
-801.26709 600.07037 1095.5856 3160633
-797.61279 602.495 1100.0125 3752770
-792.4527 603.81458 1102.4216 3555391
-783.72394 602.41425 1099.865 3292219
-776.18195 601.90948 1098.9434 3423805
-767.15503 600.23376 1095.8839 3160633
-760.28894 600.23376 1095.8839 3160633
-753.83661 600.56329 1096.4856 3621184
-746.96674 600.56329 1096.4856 3621184
-738.14178 598.97675 1093.589 3555391
-730.56891 598.38605 1092.5105 3358012
-724.07153 598.6734 1093.035 3555391
-718.33759 599.60345 1094.7332 3555391
-709.6535 598.06525 1091.9248 3620927
-702.59467 597.88007 1091.5867 3620925
-696.40192 598.43555 1092.6008 3555132
-689.76361 598.61536 1092.9291 3620925
-685.36768 600.76428 1096.8525 3423546
-681.30756 603.25415 1101.3984 3752511
-673.84753 602.75378 1100.4849 3884353
-669.00018 604.60419 1103.8633 3949892
-659.89001 602.60059 1100.2052 3818563
-647.00726 597.07324 1090.1135 3489855
-644.26306 600.88385 1097.0708 3753281
-639.75702 603.11566 1101.1456 4608333
-633.9754 604.18054 1103.0898 3884610
-627.95111 605.0351 1104.65 3687488
-615.20551 599.36047 1094.2896 3621695
-608.45135 599.46094 1094.4729 2897715
-602.23096 600.0954 1095.6313 3226680
-595.36646 600.0954 1095.6313 2963251
-593.95178 605.65253 1105.7773 3029045
-585.11346 603.68164 1102.179 4015683
-578.02509 603.49066 1101.8303 3752511
-572.17877 604.6076 1103.8695 3291960
-565.28461 604.6311 1103.9124 3423546
-558.29138 604.54779 1103.7604 3489339
-551.20123 604.3562 1103.4105 3160374
-544.28802 604.3562 1103.4105 3094581
-535.40814 602.14441 1099.3723 3160374
-526.27936 599.59137 1094.7111 3226167
-518.12286 598.0932 1091.9758 3028788
-512.02405 598.96216 1093.5623 3423802
-504.59305 598.27509 1092.3079 3620925
-499.52026 600.40356 1096.194 3752511
-495.41373 603.76904 1102.3385 3884097
-492.1958 608.32788 1110.6619 3357753
-483.09818 605.64636 1105.766 3686718
-475.77228 605.1402 1104.8419 3752511
-468.85013 605.1402 1104.8419 3424059
-462.99017 606.53174 1107.3826 3226680
-458.79544 610.1803 1114.0439 2305578
-452.509 611.1167 1115.7537 2766129
-440.66177 604.45483 1103.5906 3292473
-434.95746 606.14111 1106.6693 3226680
-429.54196 608.29095 1110.5945 3555645
-422.60858 608.32672 1110.6598 4410954
-413.98511 605.89008 1106.2111 3884610
-397.34674 591.44061 1079.8297 3621438
-391.91379 593.45837 1083.5137 2766129
-384.34335 592.25348 1081.3138 3095094
-380.44366 596.76337 1089.5479 3292473
-372.95187 595.70044 1087.6072 3884610
-368.21115 599.07397 1093.7665 3160887
-359.43423 595.88409 1087.9425 3292473
-351.802 594.50525 1085.425 3226680
-342.91556 590.91077 1078.8624 3818560
-334.0603 587.22662 1072.136 4477004
-324.6467 582.38959 1063.3048 3753024
-315.65759 578.12738 1055.5229 3753281
-308.51678 577.14038 1053.7209 3753281
-304.42209 581.93311 1062.4713 3358266
-298.06732 582.52319 1063.5487 3489852
-294.1611 588.03503 1073.6119 3621438
-287.52444 588.21881 1073.9475 3555645
-280.01007 586.57281 1070.9423 3226680
-272.60709 585.08502 1068.226 3095094
-267.60239 588.79926 1075.0072 3358266
-261.27686 589.72394 1076.6956 3687231
-254.15306 588.84827 1075.0968 3555902
-247.74861 589.63696 1076.5367 3687231
-240.73169 588.97125 1075.3213 3687231
-233.95688 588.87665 1075.1486 4279625
-227.22363 588.88416 1075.1622 4345417
-221.07074 590.44208 1078.0067 4016196
-214.44446 590.79413 1078.6494 3423803
-207.84691 591.25079 1079.4832 2963251
-201.71562 593.10907 1082.876 3291961
-194.69836 592.40106 1081.5833 3028788
-189.37776 596.99042 1089.9624 3357753
-182.8131 597.85474 1091.5404 3686718
-175.69339 596.90051 1089.7982 3160374
-169.43233 598.90424 1093.4565 2831409
-162.58148 598.90424 1093.4565 2699823
-155.2618 597.10114 1090.1646 2699823
-148.64351 597.95374 1091.7211 2634030
-141.80353 597.95374 1091.7211 3094581
-133.84958 593.01825 1082.7101 3160374
-127.40417 594.59619 1085.5911 2962995
-120.02845 591.76544 1080.4229 2699823
-113.37223 592.35571 1081.5005 2634030
-106.5963 592.35571 1081.5005 2436651
-99.721542 591.76929 1080.4298 3160374
-92.757088 590.52643 1078.1606 3423546
-85.66864 588.23682 1073.9805 3357753
-78.810089 587.27014 1072.2155 3160374
-71.813873 585.00189 1068.0741 3160374
-65.412422 587.61029 1072.8364 2962995
-58.7435 588.13818 1073.8003 3094581
-52.219666 590.44318 1078.0087 3160374
-45.37923 589.32147 1075.9607 3489339
-38.503654 587.27228 1072.2194 3028788
-31.948181 590.27118 1077.6947 2239272
-25.196091 590.27118 1077.6947 2831409
-18.380466 588.23792 1073.9824 2699823
-11.651005 588.20624 1073.9246 2897202
-4.9187932 587.75916 1073.1083 3160374
1.8071382 588.5979 1074.6396 2831409
8.5807314 591.39911 1079.7539 2699823
15.312083 590.1026 1077.3868 2502444
22.203222 593.87329 1084.2712 2502444
29.002512 593.99603 1084.4954 2436651
35.818848 594.35504 1085.1509 3028788
42.291142 589.80145 1076.837 3094581
48.836601 587.38086 1072.4176 3357753
54.75452 578.91083 1056.9534 3094581
62.488247 589.39539 1076.0957 2568494
69.896423 595.06635 1086.4495 2502700
76.335976 592.21606 1081.2456 2897202
82.984848 591.32208 1079.6133 2634287
89.748955 591.32208 1079.6133 3028788
96.785461 592.99097 1082.6603 3686718
103.99295 595.42023 1087.0956 2831409
110.87016 595.77606 1087.7452 2765873
117.70713 595.88696 1087.9478 2765616
124.52345 595.88696 1087.9478 1844514
131.39993 596.15979 1088.4459 2239272
138.39172 596.9032 1089.8031 2239272
145.19939 596.81976 1089.6508 2239272
152.25891 597.73267 1091.3175 2370858
159.198 598.1145 1092.0146 2436651
165.8455 597.41455 1090.7367 2370858
173.05353 598.70923 1093.1006 2370858
180.65996 601.23126 1097.7051 3094581
187.47734 601.03864 1097.3534 3423546
193.75897 599.20282 1094.0017 3160374
199.59799 596.17047 1088.4653 2765616
205.37544 593.16064 1082.9701 2962995
213.08063 595.73285 1087.6664 2962995
219.53879 594.76733 1085.9036 2699822
227.33447 597.37445 1090.6636 3357499
233.49005 595.64545 1087.5067 3226426
238.8792 592.11469 1081.0604 3160633
245.42311 591.56207 1080.0515 2634546
252.26442 591.73676 1080.3704 2700082
259.95511 593.84253 1084.2151 2963254
266.74805 593.84253 1084.2151 2502703
276.36703 599.97772 1095.4165 1976359
279.53064 592.14093 1081.1083 2371117
286.10983 591.73907 1080.3746 2305324
294.33469 594.68073 1085.7455 2831668
301.41968 595.23859 1086.7639 3621184
307.1701 593.19446 1083.0319 2239531
312.60678 590.64594 1078.3788 2371117
320.94745 593.57593 1083.7283 2371117
329.59821 596.94623 1089.8817 2502703
337.33377 598.55573 1092.8203 2963254
344.18063 598.55573 1092.8203 2502703
352.86041 601.68115 1098.5266 2371117
360.45892 602.8786 1100.7128 2634289
368.40222 604.5968 1103.8499 2371117
376.05765 605.78802 1106.0247 2107945
388.47589 614.4696 1121.8752 1844516
398.30231 618.81598 1129.8107 2700082
405.92706 619.64966 1131.3328 2896949
410.98096 616.59766 1125.7605 2502449
417.36002 615.60321 1123.9449 2107434
424.40189 615.60321 1123.9449 2765621
435.69193 621.66473 1135.0118 4277577
438.26495 615.29346 1123.3794 3290682
447.78265 618.7193 1129.6342 2567214
459.04102 624.40625 1140.0172 2961972
466.5867 624.94629 1141.0031 3159350
474.08215 625.40363 1141.8381 3290935
481.60275 625.88007 1142.708 2897203
487.89639 624.77142 1140.6838 2896949
495.02405 624.74731 1140.6399 2633779
500.20639 622.30383 1136.1786 2765363
507.32492 622.30383 1136.1786 4213064
514.38348 622.23126 1136.0461 3752513
521.9408 622.75586 1137.0039 3489085
526.5033 619.74103 1131.4996 3489084
527.16766 612.27893 1117.8756 2962997
530.86829 608.49274 1110.9629 2568239
535.73877 606.12811 1106.6456 2765618
542.41351 605.83911 1106.1179 2634032
548.29022 604.67731 1103.9968 2305067
552.48846 601.71643 1098.5909 2173481
560.48145 602.91046 1100.771 2173481
566.33264 601.7995 1098.7426 1976102
573.70782 602.31525 1099.6842 2634030
578.77289 600.42218 1096.2279 2765616
584.48639 599.23828 1094.0664 2831408
593.15814 601.07965 1097.4283 2831666
603.3963 604.44794 1103.578 2831411
612.90436 607.01685 1108.2682 2963251
618.63538 605.82928 1106.1 3094581
624.88287 605.16827 1104.8932 3357753
634.14752 607.41168 1108.9891 3094581
639.85101 606.23242 1106.8361 2962739
643.07343 602.75293 1100.4833 2962738
648.73334 601.60767 1098.3923 2764847
655.70685 601.69183 1098.546 2699312
663.17725 602.22552 1099.5204 2634032
670.03448 602.19708 1099.4685 2568238
672.52698 598.28638 1092.3285 2633518
677.69989 596.81494 1089.642 3093810
682.63354 595.16425 1086.6282 3159349
687.80444 593.75092 1084.0479 2896434
695.41132 594.44763 1085.3198 3093813
701.45227 593.80518 1084.1469 2896178
707.88452 593.50305 1083.5953 2567469
711.96692 591.25531 1079.4915 2764848
720.8299 592.9826 1082.645 3093813
727.61304 592.9826 1082.645 2633262
733.02344 591.87421 1080.6213 2501676
744.66498 595.77136 1087.7367 2764848
752.01477 596.19537 1088.5107 2962227
761.16235 598.02417 1091.8497 2830641
768.53815 598.44073 1092.6104 2764848
776.83685 599.56232 1094.6581 2633262
784.71179 600.34003 1096.078 2567469
791.81543 600.51929 1096.4053 2764848
799.30688 600.98706 1097.2593 2634289
807.44794 601.93115 1098.9829 2634289
813.7691 601.51404 1098.2214 2568496
821.11072 601.85181 1098.8381 2502702
828.16913 601.97827 1099.069 2634289
832.69641 600.27789 1095.9645 2831668
837.71417 598.95599 1093.551 2436910
841.27826 596.62463 1089.2946 2370090
848.54315 596.93427 1089.8599 2369833
857.80847 598.63501 1092.965 2435883
868.34399 601.18811 1097.6263 2699055
874.50452 600.69598 1096.7279 2699055
877.46008 598.02722 1091.8553 2764847
883.50085 597.48621 1090.8676 2830640
890.33551 597.48621 1090.8676 3094068
895.23511 596.19757 1088.5148 3291190
900.5152 595.17987 1086.6567 3225398
902.98804 592.33588 1081.4644 3291190
906.88788 590.4635 1078.0458 3422776
917.22565 592.77942 1082.274 3159604
926.44806 594.34576 1085.1339 2764846
936.1087 596.16846 1088.4617 2567467
943.94318 596.81012 1089.6332 2764846
953.04297 598.23682 1092.238 2699056
960.5575 598.65527 1093.002 2699055
969.54938 599.98193 1095.4242 2896691
976.41254 599.98193 1095.4242 3686720
977.90527 596.70496 1089.4412 3423805
988.93634 599.25323 1094.0938 3226169
996.7251 599.81525 1095.1199 3291705
1007.1367 601.93719 1098.994 3817793
1004.9682 596.56262 1089.1813 4277831
1008.1025 594.38708 1085.2094 3883329
1029.4292 602.89532 1100.7433 2962227
1034.0083 601.54706 1098.2817 2830641
1040.8894 601.54706 1098.2817 2435883
1045.3792 600.17413 1095.7751 2435883
1052.8887 600.54163 1096.446 2435883
1055.1702 597.94165 1091.6991 2304297
1061.5522 597.6839 1091.2285 2172710
1070.4038 598.81104 1093.2864 2304297
1075.4178 597.79053 1091.4232 2172711
1083.0564 598.23267 1092.2305 2370090
1090.5206 598.57361 1092.8529 2370090
1097.7438 598.77875 1093.2274 2370090
1105.2024 599.10895 1093.8303 2435883
1114.2175 600.27374 1095.9569 2435883
1122.2858 600.91711 1097.1316 2633262
nan nan nan 16777215
nan nan nan 16777215
nan nan nan 16777215
nan nan nan 16777215
nan nan nan 16777215
nan nan nan 16777215
nan nan nan 16777215
nan nan nan 16777215
nan nan nan 16777215
nan nan nan 16777215
nan nan nan 16777215
nan nan nan 16777215
nan nan nan 16777215
nan nan nan 16777215
nan nan nan 16777215
nan nan nan 16777215
nan nan nan 16777215
nan nan nan 16777215
nan nan nan 16777215
-932.87286 603.22662 1088.9576 2765618
-921.45587 600.23401 1083.5552 2765618
-912.86938 599.05426 1081.4255 2765618
-905.31433 598.53882 1080.495 2765875
-892.96136 594.81964 1073.7811 2765618
-885.05493 594.02844 1072.3528 3028790
-872.80627 590.28839 1065.6012 3094840
-872.7804 594.82086 1073.7833 3621184
-865.44733 594.40503 1073.0326 4213321
-858.72449 594.40503 1073.0326 4147528
-849.09088 592.37439 1069.3668 3884613
-841.25482 591.57544 1067.9246 3752514
-834.95929 591.85565 1068.4304 4739408
-829.97101 593.07452 1070.6307 4542286
-823.19653 593.02655 1070.5442 3884356
-815.88129 592.58496 1069.7469 3160633
-812.42004 594.9585 1074.0317 3226426
-814.22668 601.26166 1085.4104 3489598
-809.87872 603.08801 1088.7073 3358012
-808.13129 606.89819 1095.5856 2963254
-799.32782 605.42932 1092.934 2897461
-788.53455 602.41498 1087.4923 2897461
-783.24719 603.591 1089.6154 2897461
-777.71698 604.59894 1091.4349 2831925
-769.29669 603.35809 1089.1949 2963254
-763.45978 604.13934 1090.6052 3160633
-754.05896 602.08905 1086.9039 2963254
-751.24823 605.31122 1092.7207 3423805
-742.7381 603.95825 1090.2783 3621184
-734.44141 602.75531 1088.1067 3621184
-727.66376 602.78815 1088.166 3423805
-719.07794 601.30963 1085.4969 3950149
-711.00665 600.23718 1083.561 4213321
-703.02435 599.21997 1081.7246 3686720
-699.24951 601.80408 1086.3895 3291960
-694.18573 603.31873 1089.1238 3686717
-687.72394 603.63635 1089.6973 3686975
-680.89667 603.63635 1089.6973 3687231
-675.38788 604.81714 1091.8287 3621438
-669.52356 605.70038 1093.4232 3687231
-662.72003 605.74347 1093.501 3884609
-654.81781 604.77264 1091.7485 3884610
-644.7417 601.75244 1086.2964 3489852
-639.276 603.01672 1088.5786 3753024
-638.31378 608.60211 1098.6615 4016196
-631.43036 608.60211 1098.6615 4081989
-621.51068 605.64343 1093.3204 3753281
-611.87231 602.896 1088.3607 3555645
-605.7002 603.54047 1089.524 3160887
-601.89966 606.58966 1095.0286 3029301
-595.03894 606.58966 1095.0286 2700593
-589.71454 608.17407 1097.8888 3357497
-581.80878 607.10229 1095.954 3686718
-574.42523 606.55621 1094.9683 3423546
-568.12958 607.15979 1096.0577 3423546
-560.63672 606.48279 1094.8357 3357753
-554.81549 607.61993 1096.8884 3489339
-546.99976 606.57373 1094.9999 3818304
-532.76611 598.29382 1080.0527 3357753
-527.18848 599.64642 1082.4945 2831409
-521.68317 601.11768 1085.1505 3160374
-515.25049 601.54523 1085.9222 3028788
-507.77866 600.7547 1084.4951 3094581
-500.98395 600.7547 1084.4951 2765616
-495.53326 602.38855 1087.4446 3620925
-494.54565 609.56897 1100.4069 3752767
-487.20413 609.01007 1099.3979 3226167
-479.44385 607.90411 1097.4015 2962995
-469.44049 603.88062 1090.1382 3028788
-464.21664 605.97729 1093.9232 3161144
-458.84512 607.94116 1097.4684 3818817
-453.49023 609.98718 1101.1619 3950659
-446.70627 610.14453 1101.4459 3884610
-437.78683 607.34418 1096.3906 3753024
-431.55466 608.242 1098.0115 3292473
-425.22308 609.02667 1099.4279 3358266
-418.33481 609.02667 1099.4279 3489852
-409.09634 605.54785 1093.1478 3621438
-397.34674 598.17029 1079.8297 3424059
-389.88242 597.09998 1077.8976 2766129
-382.13721 595.5542 1075.1072 3160887
-375.02545 594.95789 1074.0306 3884610
-371.0607 599.42358 1082.0922 3819074
-365.01309 600.62811 1084.2667 3818817
-357.79205 599.91089 1082.9719 4082246
-348.2197 595.14722 1074.3724 4542797
-341.47833 595.12964 1074.3407 5266263
-332.17538 590.55725 1066.0865 4674383
-322.56436 585.23828 1056.4846 4016196
-316.15237 585.62213 1057.1775 3950146
-310.56931 587.59058 1060.7311 3884867
-302.52902 584.89465 1055.8643 3753024
-297.24005 587.5163 1060.5969 3555645
-291.71094 589.77222 1064.6694 3621438
-285.04047 589.77222 1064.6694 3555645
-278.1788 589.36725 1063.9384 3095094
-271.52609 589.39587 1063.99 3029301
-264.96429 589.6283 1064.4095 3226680
-259.60922 592.62738 1069.8235 3489852
-253.38844 593.75677 1071.8624 3423803
-246.22879 592.68774 1069.9326 3292473
-239.25041 592.00751 1068.7046 2897715
-231.56985 589.50055 1064.179 3095093
-226.36293 593.32874 1071.0897 3818304
-219.54803 593.04736 1070.5817 4081476
-213.35007 594.4671 1073.1447 3028788
-207.39905 596.68982 1077.1571 2765616
-200.46361 596.13452 1076.1548 3160374
-193.70032 596.07037 1076.0389 3620925
-187.20375 596.85199 1077.45 3357753
-181.02956 598.7583 1080.8912 2107943
-173.64061 596.63885 1077.0652 2831409
-167.86734 600.12402 1083.3567 3160374
-160.62022 598.41199 1080.266 3028788
-153.85204 598.41199 1080.266 2962995
-147.74414 601.09839 1085.1156 2370858
-140.09372 597.46552 1078.5575 3160374
-133.05846 596.22089 1076.3107 3291960
-126.01994 594.82806 1073.7963 2897202
-118.72867 592.0177 1068.723 2173479
-111.04324 586.78864 1059.2833 2370858
-105.17952 591.13312 1067.1261 2634030
-98.679047 592.24585 1069.1349 2568237
-91.573021 589.62164 1064.3976 2831409
-84.946564 589.91559 1064.9282 2831409
-78.245926 589.70056 1064.54 3291960
-71.200829 586.60754 1058.9564 3489596
-64.786957 588.61377 1062.5781 2634030
-58.063934 587.94904 1061.3782 2502700
-51.690998 591.11584 1067.095 3226424
-44.72979 587.49701 1060.5621 3291960
-38.085041 587.49701 1060.5621 2897202
-31.480751 588.25311 1061.927 3160374
-24.843105 588.62408 1062.5967 3423546
-18.201086 589.12512 1063.5012 2436651
-11.547152 589.59637 1064.3519 2634287
-4.8913307 591.12805 1067.1169 2699825
1.8044962 594.42493 1073.0686 2765615
8.5266075 594.35553 1072.9432 3555132
15.188723 592.00879 1068.7069 3291960
21.875031 591.75262 1068.2444 3225910
28.569593 591.78741 1068.3073 2699823
35.465183 595.18262 1074.4364 2634030
41.982441 592.15833 1068.9768 2765616
48.426899 589.08057 1063.4208 3028788
54.495373 582.72681 1051.9509 3028788
62.028694 591.71796 1068.1819 2962995
68.906227 593.31122 1071.0581 2634030
75.483971 592.26953 1069.1776 2634030
82.158905 592.09808 1068.868 2831409
88.792145 591.67456 1068.1035 2897202
95.484146 591.67456 1068.1035 3818304
102.42534 593.11761 1070.7085 2568237
108.93903 592.05981 1068.7991 2305065
115.76461 592.7215 1069.9934 2568493
123.30853 596.78723 1077.333 3291960
130.77274 600.06531 1083.2506 3291960
136.94182 597.37024 1078.3855 3226167
144.24609 599.64771 1082.4968 2765616
151.15417 600.14758 1083.3992 2568237
158.04282 600.53064 1084.0907 2436651
164.82959 600.51105 1084.0553 2502444
171.32027 599.45685 1082.1523 2831409
178.19731 599.78345 1082.7418 2634030
185.78786 602.39954 1087.4645 2502444
192.22951 601.23706 1085.366 2568237
198.78693 600.50391 1084.0424 2699823
205.29411 599.6723 1082.5411 2962995
211.38879 597.72754 1079.0305 3028788
218.18922 597.83704 1079.2281 2765616
224.29955 596.1059 1076.1031 2962998
230.94325 595.85193 1075.6447 3489598
237.03867 594.23792 1072.731 2831668
242.93517 592.22803 1069.1027 2634289
249.4825 591.86987 1068.4562 2634546
256.36725 592.31018 1069.251 2436910
263.66202 593.65118 1071.6718 2502703
268.96225 590.54626 1066.0667 3094840
273.41473 585.77551 1057.4545 3226683
279.89743 585.47723 1056.916 2568496
289.70166 591.9801 1068.655 2305324
299.05811 597.2948 1078.2493 2700082
306.37939 598.39972 1080.2439 2239531
311.87827 595.97443 1075.8657 2173738
317.02353 592.99023 1070.4786 2173738
326.14148 597.40668 1078.4513 2436910
334.15601 599.66376 1082.5258 2831668
341.12622 599.99414 1083.1222 2173994
349.51953 602.76587 1088.1257 1976359
356.91373 603.74146 1089.887 2502703
364.74677 605.40887 1092.897 2173738
372.42191 606.75745 1095.3315 2042152
383.81393 614.00348 1108.4121 2239531
392.22433 616.30676 1112.5701 2568496
399.90167 617.39783 1114.5398 3160376
408.39764 619.69373 1118.6843 2831411
418.21152 623.87805 1126.238 1910309
425.05533 623.56653 1125.6755 2699825
431.22665 622.29456 1123.3794 2699572
438.26495 622.29456 1123.3794 2765364
446.56805 624.06201 1126.5701 2831413
455.43066 626.54425 1131.051 2897463
462.45471 626.45978 1130.8986 3093559
469.57159 626.50171 1130.9742 3160122
478.6203 629.0816 1135.6315 3225914
485.1908 628.37628 1134.3583 3357501
490.94858 626.65399 1131.2491 2765364
497.64682 626.16406 1130.3647 2567985
503.92804 625.17053 1128.5712 3489086
510.25732 624.26324 1126.9333 3686719
516.73737 623.56274 1125.6687 3752513
521.65454 621.02039 1121.0792 3358012
523.90771 615.41644 1110.9629 2765620
528.1449 612.25928 1105.2635 2831411
534.4646 611.56696 1104.0137 2831411
541.52924 611.7337 1104.3147 2699825
544.36096 607.17499 1096.0852 2502446
550.66211 606.55133 1094.9594 2173481
558.98218 608.13953 1097.8264 2239274
564.37402 606.54205 1094.9426 2107688
571.33673 606.651 1095.1393 2041895
576.37335 604.73639 1091.683 2107688
580.29028 601.70575 1086.212 2305067
587.2995 601.91455 1086.589 2831668
595.77081 603.59998 1089.6315 2897204
604.42761 605.43292 1092.9404 2634032
612.97058 607.112 1095.9716 3094584
621.91345 609.14563 1099.6427 3555134
628.88959 609.22949 1099.7941 3620927
631.4726 605.10187 1092.3428 3752513
633.64142 600.67004 1084.3424 3555134
638.85773 599.19061 1081.6716 2831411
647.49554 600.91754 1084.7892 3555134
658.19342 604.50061 1091.2574 2568239
667.89838 607.10748 1095.9634 2370858
668.88403 601.81622 1086.4115 2963251
671.16168 597.78235 1079.1294 3028788
676.0954 596.17102 1076.2206 3160376
679.80817 593.52551 1071.4449 2699825
688.3125 595.07428 1074.2407 2699825
696.40076 596.23682 1076.3394 2700082
699.41742 593.07648 1070.6343 2305068
703.10046 590.53595 1066.0481 2633262
709.98279 590.70502 1066.3533 2962227
717.70471 591.56293 1067.902 2962227
723.50726 590.83759 1066.5927 2567469
734.50397 594.32849 1072.8944 2633262
741.22595 594.32849 1072.8944 2830641
751.6908 597.30255 1078.2633 3028020
762.12091 600.19629 1083.4872 3093813
770.79956 601.67181 1086.1508 2633262
778.80518 602.60071 1087.8276 2501676
787.26801 603.86426 1090.1086 2764591
795.98016 605.29559 1092.6925 2568496
802.82623 605.29559 1092.6925 2765618
809.57672 605.22418 1092.5636 2765618
816.6969 605.42804 1092.9315 2502446
821.94806 604.25439 1090.8129 2305067
826.10101 602.2995 1087.2838 2370860
831.68768 601.41327 1085.6841 2568239
837.74359 600.87805 1084.7179 2305067
844.53973 600.87805 1084.7179 2173738
853.09021 602.11633 1086.9532 2502702
861.43835 603.19324 1088.8973 2765617
867.07416 602.36902 1087.4094 2765362
868.37567 598.57007 1080.5514 2831154
874.59845 598.19568 1079.8756 2765104
881.3642 598.19568 1079.8756 2896432
885.57379 596.474 1076.7676 3028018
892.32007 596.474 1076.7676 2830639
896.75092 594.93787 1073.9945 2896432
896.05322 590.04749 1065.1663 3159604
904.46332 591.18243 1067.2152 3291190
918.81598 596.15662 1076.1946 2830640
926.56299 596.80353 1077.3624 2764847
935.35205 598.10736 1079.7162 2633259
943.10834 598.73676 1080.8524 2830639
951.84967 599.97821 1083.0935 2764847
963.5354 603.04486 1088.6294 2830641
973.8252 605.20081 1092.5215 3422778
978.18213 603.66541 1089.7496 3423291
984.60931 603.41998 1089.3066 3423548
988.94623 601.90576 1086.5731 3291962
994.93243 601.40912 1085.6766 3160633
997.86255 599.08453 1081.4802 3094583
1003.7995 598.58435 1080.5771 3226169
1008.6393 597.44092 1078.5131 3423804
1026.8481 604.17883 1090.6765 3423034
1032.9817 603.76984 1089.9381 2567469
1039.2664 603.45386 1089.3677 2435883
1045.3556 603.02924 1088.6013 2435883
1051.447 602.61145 1087.847 2172711
1054.0546 600.21521 1083.5212 1974819
1062.6411 601.23248 1085.3577 2304297
1067.6267 600.2124 1083.5162 2896434
1072.7899 599.30438 1081.8771 3093813
1082.9617 601.18817 1085.2777 2501676
1091.7985 602.31201 1087.3065 2501676
1099.2212 602.64679 1087.9108 2567469
1106.0135 602.63379 1087.8873 2764848
1113.8926 603.20941 1088.9265 2962484
nan nan nan 16777215
nan nan nan 16777215
nan nan nan 16777215
nan nan nan 16777215
nan nan nan 16777215
nan nan nan 16777215
nan nan nan 16777215
nan nan nan 16777215
nan nan nan 16777215
nan nan nan 16777215
nan nan nan 16777215
nan nan nan 16777215
nan nan nan 16777215
nan nan nan 16777215
nan nan nan 16777215
nan nan nan 16777215
nan nan nan 16777215
nan nan nan 16777215
nan nan nan 16777215
-931.22479 608.93555 1087.0338 2502446
-915.52246 603.07837 1076.5779 2699825
-902.909 599.18402 1069.626 2699825
-896.92944 599.66675 1070.4877 2568239
-891.52533 600.54431 1072.0543 2305324
-876.6933 595.03625 1062.2217 2831668
-863.422 590.51135 1054.144 3292219
-866.86774 597.43793 1066.5089 3423805
-860.18567 597.43793 1066.5089 3555391
-852.63275 596.82825 1065.4207 3753027
-845.13715 596.24951 1064.3875 3621184
-834.81848 593.65393 1059.754 3358012
-824.74615 591.1933 1055.3615 3094840
-821.33057 593.50323 1059.485 4147528
-815.96283 594.42865 1061.137 4344907
-810.08398 594.99377 1062.1459 3818820
-812.42004 601.65198 1074.0317 3029047
-807.27222 602.83282 1076.1396 2963254
-804.52313 605.83997 1081.5078 3292219
-795.99426 604.50873 1079.1313 3226426
-793.68555 607.91901 1085.2192 2766132
-784.01489 605.70068 1081.2592 2700082
-777.24048 605.70068 1081.2592 2700339
-768.83331 604.41711 1078.9678 2831668
-763.62921 605.65118 1081.1708 2897718
-757.28174 605.99243 1081.7799 3160633
-749.66748 605.31689 1080.5741 3358012
-743.05121 605.44226 1080.7979 3489598
-736.77197 605.84711 1081.5205 3423805
-729.18024 605.1701 1080.312 3358012
-720.80981 603.82819 1077.9165 3621184
-713.84406 603.64868 1077.5961 4476493
-707.12921 603.67993 1077.6519 4542286
-698.27533 601.8681 1074.4175 3621441
-691.54376 601.8681 1074.4175 3226936
-687.8797 604.56403 1079.2301 3358266
-682.51556 605.80457 1081.4446 3555645
-675.87537 605.92596 1081.6613 3687231
-671.43085 608.03815 1085.4318 3753024
-665.04712 608.41943 1086.1125 3687231
-658.71246 608.85413 1086.8884 3753024
-650.55536 607.59558 1084.6418 3753024
-641.12006 605.10419 1080.1943 3292473
-634.35229 605.10419 1080.1943 3292473
-630.4256 607.84344 1085.0844 4081989
-629.87421 613.93237 1095.9539 3884610
-618.69122 609.67883 1088.3607 3753280
-608.77405 606.59161 1082.8496 3226680
-590.23932 594.75146 1061.7133 2831922
-587.57971 598.82019 1068.9766 2963508
-587.47931 605.62103 1081.1169 2831922
-584.28833 609.35724 1087.7866 3028788
-578.06189 609.97864 1088.8959 2962995
-570.11066 608.77313 1086.7439 2699823
-558.40021 603.47583 1077.2875 3357753
-550.40961 602.1181 1074.8638 3423546
-543.76239 602.21466 1075.0361 2897202
-536.88428 602.05469 1074.7505 3291960
-529.58228 601.40918 1073.5983 3423546
-525.82141 604.82031 1079.6876 3489339
-518.47766 604.14539 1078.4828 3357753
-511.14221 603.46252 1077.2638 2699823
-505.45761 604.73651 1079.538 2765873
-498.95383 605.05157 1080.1005 3028788
-492.40472 605.3197 1080.579 3226167
-489.68225 610.36493 1089.5854 3752513
-482.23221 609.57684 1088.1786 3555134
-476.27057 610.67456 1090.1382 3357754
-467.79385 608.53253 1086.3143 3029047
-459.15375 606.11145 1081.9924 2700082
-448.94901 601.52155 1073.7988 3423805
-448.69717 610.3302 1089.5234 3950405
-443.35971 612.38647 1093.1942 3687231
-436.05145 611.74243 1092.0446 3621438
-426.03723 607.22113 1083.9734 3621438
-417.71194 604.99957 1080.0076 3029557
-409.61514 603.0412 1076.5116 2766129
-403.47754 603.94995 1078.1338 3424315
-396.23981 603.21484 1076.8215 3160887
-386.58008 598.70325 1068.7677 3029301
-381.30566 600.94391 1072.7677 3424059
-375.02545 601.65143 1074.0306 3687231
-367.31509 600.04846 1071.1692 3490109
-360.89389 600.53107 1072.0306 3819074
-352.15173 597.09662 1065.8997 3687488
-344.82303 595.97229 1063.8926 3687488
-339.58743 598.49255 1068.3916 4213832
-330.29037 593.81232 1060.0367 4411211
-321.46542 589.80615 1052.8853 3621695
-314.86877 589.80615 1052.8853 3358266
-307.90897 589.11133 1051.6449 3489851
-301.67783 589.81073 1052.8934 3753024
-295.81442 591.27649 1055.51 3555645
-290.26266 593.44647 1059.3837 3424059
-284.5585 595.39911 1062.8694 3555645
-277.07529 593.63361 1059.7178 3424059
-270.99435 594.85962 1061.9064 3292473
-264.45126 595.1073 1062.3485 3424059
-257.96628 595.50195 1063.053 3226680
-251.9769 597.09192 1065.8914 3358265
-245.69382 598.05359 1067.608 3226167
-239.09116 598.26941 1067.9933 3028788
-231.61172 596.24054 1064.3715 3291960
-223.51279 592.44922 1057.6035 3489339
-218.15918 595.92548 1063.8091 3752511
-211.49408 595.92548 1063.8091 3423546
-206.92766 602.03131 1074.7089 2765616
-200.21873 602.10492 1074.8402 3752255
-193.20491 601.23474 1073.2869 4278855
-184.25179 594.04932 1060.4598 3423546
-179.30594 599.72955 1070.5999 2699823
-171.87067 597.20123 1066.0864 2897458
-166.04485 600.28699 1071.595 3357753
-160.20303 603.57251 1077.4601 3884097
-151.49594 595.87714 1063.7228 3226167
-145.96155 600.52698 1072.0233 2831666
-139.83713 603.08075 1076.5822 3423546
-132.05435 598.37878 1068.1885 3160374
-125.29961 598.08179 1067.6583 3028788
-118.05069 595.25952 1062.6202 2962995
-110.6575 591.32898 1055.6036 2568237
-104.18143 592.11108 1056.9999 2370858
-96.739578 587.13782 1048.1218 2765616
-90.0457 586.31042 1046.6449 3423546
-83.58419 586.98492 1047.8489 3226167
-77.361954 589.59796 1052.5135 2436651
-70.642784 588.5578 1050.6567 2436651
-63.929546 587.3584 1048.5156 2765616
-57.557392 589.37689 1052.1189 2765616
-51.162292 591.6521 1056.1805 2041893
-44.544994 591.6521 1056.1805 1976100
-37.792091 589.53674 1052.4043 2239272
-31.307325 591.59412 1056.077 4015683
-24.70031 591.82489 1056.489 4805199
-18.014299 589.6391 1052.587 3226167
-11.404276 588.85229 1051.1824 2568750
-4.8398509 591.48706 1055.8859 2240041
1.7817351 593.53027 1059.5333 2371371
8.4459143 595.35419 1062.7892 3621694
15.069143 593.95587 1060.2931 4345161
21.634098 591.81909 1056.4786 4082245
28.423262 595.38007 1062.8354 2634543
35.082256 595.38007 1062.8354 2634800
41.446728 591.17914 1055.3362 2634799
47.897377 589.19421 1051.7928 3028531
54.478565 589.10101 1051.6265 3028788
61.430832 592.6076 1057.8862 2765616
68.11274 593.07715 1058.7244 2831409
74.727257 592.92859 1058.4592 2765616
81.599304 594.68109 1061.5876 2634287
88.792145 598.33112 1068.1035 3160374
95.484146 598.33112 1068.1035 4278855
100.91891 590.96893 1054.9609 3160374
107.58334 591.26996 1055.4983 2700079
114.12276 590.88885 1054.818 2173479
121.66611 595.46301 1062.9835 2962995
129.72543 601.95648 1074.5753 3357753
135.86324 599.33289 1069.8918 3160374
143.05066 601.36847 1073.5256 2765616
150.43571 604.01483 1078.2496 2502444
157.19128 604.01483 1078.2496 2436651
163.10431 600.91071 1072.7084 2502444
169.38208 599.34296 1069.9097 2765616
176.50842 600.78278 1072.48 2370858
183.75365 602.5069 1075.5577 2370858
190.72804 603.25232 1076.8884 2502444
197.29549 602.70367 1075.9091 2831409
204.04396 602.72601 1075.949 2831409
210.76891 602.67969 1075.8662 2831409
216.86444 600.89215 1072.6753 2634030
222.58788 598.21216 1067.8911 2699825
229.08737 597.71338 1067.0007 2963254
234.31406 594.01617 1060.4006 2436653
239.67148 590.84509 1054.7399 2239274
247.31328 593.32465 1059.1661 2370860
253.69667 592.73444 1058.1125 2239531
260.07013 592.15167 1057.0723 1581344
265.89377 590.37701 1053.9043 2173738
269.81058 584.55719 1043.5151 2963254
276.6546 585.20465 1044.6709 3489341
283.81235 586.47046 1046.9305 2963511
292.02795 589.81561 1052.9021 2371117
299.32361 591.19598 1055.3663 2371117
304.3414 588.11499 1049.8662 2239531
314.10889 594.14844 1060.6368 2107688
321.25259 595.07184 1062.2853 2107688
330.07645 599.00684 1069.3097 1910309
337.17508 599.71661 1070.5768 1976102
345.4328 602.42017 1075.403 2107945
354.28009 606.02869 1081.8447 2568496
362.64551 608.69305 1086.601 2502703
371.59412 612.21997 1092.897 2239531
382.88705 619.41174 1105.7354 2436910
390.8479 621.05334 1108.6658 2700082
398.00552 621.38348 1109.2551 2634032
406.22018 623.32434 1112.7198 2699825
414.65192 625.5271 1116.6521 2897204
423.93716 628.92303 1122.7142 2699825
430.48682 628.216 1121.4521 3028791
437.78052 628.60004 1122.1377 3094328
445.47833 629.54303 1123.821 2962998
453.76691 631.2785 1126.9191 3226171
461.31891 631.95178 1128.121 3488317
469.2843 633.16254 1130.2823 3357244
476.38388 633.18652 1130.3251 3357501
482.86377 632.39819 1128.9178 3291708
490.58484 633.23462 1130.411 3094329
493.18039 627.52557 1120.2196 2699828
500.27179 627.617 1120.3828 2436398
507.43631 627.79639 1120.703 2436142
513.04633 626.07385 1117.6281 2633262
516.8963 622.27887 1110.8535 2502703
519.14325 616.68048 1100.8596 2699825
527.77917 618.71881 1104.4983 2962997
533.73193 617.59955 1102.5002 2897204
538.91193 615.6261 1098.9774 2831668
543.77997 613.35059 1094.9153 2765618
549.00525 611.52972 1091.6648 2305067
555.15082 610.76617 1090.3018 2370860
560.82697 609.51093 1088.061 2370860
567.96869 609.85968 1088.6835 2041895
576.28052 611.44147 1091.5072 2041895
580.29028 608.47522 1086.212 1844516
581.29486 602.46301 1075.4795 1976102
585.9986 600.37872 1071.7587 2962997
597.43396 605.16016 1080.2943 2568239
603.87604 604.83331 1079.7108 2765618
612.47473 606.6499 1082.9536 3291962
622.73523 610.0545 1089.0314 3226169
627.50671 608.06647 1085.4824 3686720
630.44928 604.3678 1078.8798 3884099
633.23737 600.60101 1072.1555 2897204
646.22253 606.4834 1082.6564 3357755
653.93842 607.34961 1084.2028 3423548
659.62848 606.33594 1082.3932 3357755
662.8064 603.05719 1076.5402 3291962
669.09564 602.64679 1075.8076 3160376
672.12439 599.33722 1069.8995 3357755
670.10577 591.63666 1056.153 3094583
677.77667 592.55798 1057.7976 2239274
693.79681 600.69019 1072.3147 3489341
693.91528 595.03076 1062.2119 3884355
694.7218 590.06329 1053.3442 3225399
703.30865 591.73535 1056.3291 3093813
712.66089 594.01416 1060.3971 2830641
717.46893 592.49823 1057.6909 2633262
728.45026 596.0614 1064.0518 2501676
738.61694 598.89941 1069.1179 2699055
745.93927 599.40076 1070.0129 2962227
755.37415 601.57568 1073.8955 2896434
763.96674 603.0473 1076.5225 2633262
771.94128 604.00958 1078.2402 2633262
780.2464 605.21155 1080.386 2830641
789.08856 606.80579 1083.2319 2634032
795.87531 606.80579 1083.2319 2765618
802.23651 606.48407 1082.6576 2962997
812.90631 609.39764 1087.8588 2699825
819.19775 609.00787 1087.163 2370860
823.76501 607.35333 1084.2094 2305067
828.51538 605.85968 1081.543 2568239
835.46631 605.98639 1081.7692 2831411
840.52289 604.74811 1079.5587 2634032
846.55316 604.22461 1078.6241 2568239
851.22815 602.74969 1075.9912 2568238
857.46967 602.39844 1075.3643 2699822
863.51306 601.91467 1074.5006 2699822
867.8089 600.22961 1071.4926 2700080
873.82507 599.75116 1070.6384 2830382
882.76044 601.26837 1073.3469 2699053
891.85693 602.87158 1076.2087 2501674
891.36212 598.01581 1067.5406 2370088
892.37946 594.23938 1060.7992 2567467
899.86682 594.79535 1061.7916 3093811
914.96295 600.33557 1071.6816 3225397
922.81354 601.07556 1073.0027 3225397
928.24799 600.24255 1071.5156 3225398
935.60651 600.65674 1072.255 3028019
944.71448 602.18011 1074.9745 2962227
952.1698 602.63605 1075.7883 2830641
959.15308 602.78882 1076.061 3028020
969.10614 604.79279 1079.6384 3357241
983.21777 609.34631 1087.7671 3489085
987.66174 607.88684 1085.1617 3423548
992.52881 606.70605 1083.0538 3226169
998.70758 606.33752 1082.396 3160376
1005.136 606.12463 1082.016 3160376
1008.6393 604.16241 1078.5131 3489341
1005.6207 598.34583 1068.1296 3620926
1024.2565 605.40527 1080.7318 3094840
1036.9185 608.86438 1086.9067 2370090
1039.5941 606.45264 1082.6014 2370090
1048.8771 607.90161 1085.1881 2435626
1055.676 607.90161 1085.1881 2896434
1039.0901 594.52173 1061.3032 3291192
1057.8589 601.41187 1073.603 3488571
1069.3502 604.10364 1078.4082 3422778
1078.0488 605.19385 1080.3544 2830641
1084.5118 605.02332 1080.0499 2896434
1094.6147 606.87292 1083.3517 2764848
1100.5012 606.3764 1082.4653 2830641
1107.0396 606.24298 1082.2272 2764848
nan nan nan 16777215
nan nan nan 16777215
nan nan nan 16777215
nan nan nan 16777215
nan nan nan 16777215
nan nan nan 16777215
nan nan nan 16777215
nan nan nan 16777215
nan nan nan 16777215
nan nan nan 16777215
nan nan nan 16777215
nan nan nan 16777215
nan nan nan 16777215
nan nan nan 16777215
nan nan nan 16777215
nan nan nan 16777215
nan nan nan 16777215
nan nan nan 16777215
nan nan nan 16777215
-918.7113 607.4364 1072.4266 2568239
-910.12256 606.1911 1070.228 2568239
-896.26514 601.39203 1061.7554 3028790
-894.3454 604.59137 1067.4037 3423291
-889.11719 605.58533 1069.1586 3292219
-877.87451 602.4668 1063.6528 3423805
-866.71234 599.35632 1058.1613 3292219
-856.8175 597.08093 1054.144 3160633
-846.52252 594.48926 1049.5685 3423805
-842.26666 596.13135 1052.4675 3621184
-835.36053 595.90869 1052.0745 3555391
-829.33313 596.31433 1052.7906 3160633
-821.61798 595.50317 1051.3586 3226426
-816.63538 596.67554 1053.4283 3292219
-814.06799 599.64606 1058.6727 3752770
-808.5061 600.44141 1060.077 3752770
-806.70935 604.06934 1066.4821 3358012
-800.44513 604.38464 1067.0388 3752770
-797.78229 607.44745 1072.4462 3950149
-791.95599 608.13318 1073.6567 3094840
-788.94147 611.00812 1078.7325 2963254
-778.05774 607.78577 1073.0435 3686977
-770.6568 607.25153 1072.1002 3752770
-766.27948 609.11139 1075.3838 2765875
-759.9306 609.4231 1075.9342 2897461
-750.6131 607.3385 1072.2538 3292219
-745.46356 608.61902 1074.5145 3226426
-738.73138 608.61902 1074.5145 3226426
-733.56989 609.92493 1076.8201 3094840
-724.9646 608.36523 1074.0664 3226426
-714.87592 605.51978 1069.0428 3686977
-708.27856 605.60571 1069.1946 4213321
-700.17505 604.39319 1067.0538 4279114
-689.7442 601.12897 1061.2909 3555390
-682.67755 600.76166 1060.6425 3226936
-680.82159 605.01776 1068.1565 3095094
-671.87946 602.9986 1064.5917 3687487
-671.81311 608.98462 1075.16 3950403
-668.86462 612.453 1081.2833 3950660
-662.09009 612.453 1081.2833 3555645
-653.49255 610.74921 1078.2754 3226680
-645.73322 609.80145 1076.6022 3095094
-637.44128 608.32544 1073.9962 3226936
-630.16547 607.79791 1073.0649 3753024
-626.32806 610.61121 1078.0317 3621438
-621.03564 612.05188 1080.5752 3555645
-615.62274 613.40424 1082.9628 3358266
-608.1734 612.73499 1081.7812 4016196
-599.55579 610.86029 1078.4716 4476747
-583.27478 601.04614 1061.1447 3226680
-581.01801 605.62372 1069.2263 2700336
-581.78003 613.49158 1083.1169 2962995
-574.99402 613.49158 1083.1169 2897459
-563.31543 608.20917 1073.7909 2699823
-556.15283 607.73376 1072.9517 3357753
-549.50543 607.81677 1073.0981 3357753
-541.91644 606.84735 1071.3866 2502444
-533.62268 605.05444 1068.2213 2897202
-525.40625 603.30487 1065.1324 3357753
-516.7915 601.047 1061.1461 3620925
-513.20697 604.65686 1067.5193 3291960
-507.0842 605.33197 1068.7113 2699823
-501.30573 606.44165 1070.6704 2765873
-498.27689 610.95294 1078.635 3752511
-492.38098 612.02448 1080.5269 3620925
-486.37897 612.99219 1082.2354 3686974
-483.7583 618.30908 1091.6223 3884097
-476.91898 618.30908 1091.6223 3489339
-466.3591 613.41541 1082.9825 3028787
-458.85645 612.45776 1081.2919 2963764
-451.48285 611.64636 1079.8593 3160887
-446.38568 613.9411 1083.9106 3292473
-439.48996 613.79492 1083.6526 3555645
-428.49533 607.82977 1073.1211 3292473
-420.56461 606.0899 1070.0493 2700593
-412.44934 604.02332 1066.4009 3160375
-406.56131 605.20428 1068.4858 2897203
-399.86691 605.20428 1068.4858 2634543
-394.26019 606.87848 1071.4417 3160887
-386.0585 604.54718 1067.3257 3029301
-379.8295 605.27722 1068.6146 3292473
-372.31134 603.9422 1066.2577 3424059
-365.34988 603.47809 1065.4382 3489852
-358.48291 603.15564 1064.8689 3818817
-348.06482 596.73267 1053.5293 3095094
-340.70187 595.40063 1051.1775 3160887
-333.90521 595.02515 1050.5146 4016196
-327.38104 595.12988 1050.6995 4213832
-320.65512 594.86469 1050.2313 3489852
-313.78677 594.3186 1049.2672 3358266
-307.18045 594.25604 1049.1567 3226680
-300.38934 593.82544 1048.3965 3095094
-293.8208 593.82544 1048.3965 3095094
-286.6207 592.51978 1046.0914 2766129
-280.85257 594.18262 1049.0271 3292473
-276.5928 599.19275 1057.8724 3358266
-270.32559 599.99323 1059.2858 3424315
-263.52576 599.62219 1058.6306 3489852
-257.00803 599.89032 1059.1041 3358266
-250.82158 600.96661 1061.0043 3292473
-244.74258 602.36591 1063.4747 3094838
-238.72643 604.00244 1066.364 3094581
-231.36249 602.2251 1063.2261 3357753
-223.11272 597.96814 1055.7104 2765873
-216.11647 596.91339 1053.8483 2963252
-210.78033 600.52185 1060.219 3424315
-204.8105 602.50098 1063.7131 3555645
-199.11269 605.44031 1068.9026 3555902
-191.51167 602.59583 1063.8806 3489339
-183.98123 599.77625 1058.9027 2962995
-177.52267 600.37085 1059.9524 3029045
-170.78973 600.04755 1059.3816 3160374
-165.44852 604.78552 1067.7465 2765616
-159.42546 607.3252 1072.2303 2502444
-152.37956 606.02063 1069.9271 2765616
-145.53738 605.44342 1068.908 2897459
-138.32938 603.21521 1064.9741 3094838
-131.49902 602.49152 1063.6964 3028788
-124.56724 601.20093 1061.418 3094581
-118.34026 603.35834 1065.2268 3226167
-110.38965 596.46039 1053.0485 3160374
-103.68617 595.85236 1051.975 2370858
-95.890015 588.45624 1038.9172 3160374
-89.502693 589.25824 1040.3331 3818304
-83.342949 591.80225 1044.8246 3357753
-76.889061 592.51324 1046.0798 3028788
-70.368851 592.79797 1046.5825 2765873
-63.837624 593.03894 1047.0079 2765616
-57.368534 593.97839 1048.6666 2897202
-50.774429 593.69916 1048.1736 2634030
-44.400253 596.29053 1052.7487 2173479
-37.774418 595.81683 1051.9122 2305065
-30.820072 588.86603 1039.6406 2436651
-24.449751 592.33893 1045.7721 3686718
-17.956051 594.27124 1049.1836 2897202
-11.320992 591.0553 1043.5059 2173479
-4.8398509 598.0675 1055.8859 2503213
1.7794495 599.36365 1058.1742 2568494
8.4459143 601.97766 1062.7892 2437164
15.107764 602.10309 1063.0106 2897715
21.712208 600.56384 1060.2931 3753024
28.275724 598.87897 1057.3185 4081989
34.874691 598.44208 1056.5471 3621438
41.446728 597.75616 1055.3362 3095094
47.805481 594.60614 1049.7749 3555645
54.095802 591.46985 1044.2378 2766130
61.123375 596.20154 1052.5916 2699823
67.718185 596.20154 1052.5916 2568494
74.300842 596.104 1052.4193 3028788
80.673965 594.47839 1049.5493 3357753
87.757896 597.94086 1055.6622 3291960
93.981117 595.4646 1051.2904 2962995
100.40559 594.50427 1049.595 3226167
106.02341 589.17938 1040.194 3226167
113.69923 595.24536 1050.9033 2370858
120.72832 597.4469 1054.7902 2897202
129.03485 605.41333 1068.855 2897202
135.61519 604.89423 1067.9385 3094580
142.56645 606.00067 1069.8918 3226167
149.60826 607.37537 1072.3188 3028787
156.36617 607.52881 1072.5897 3160373
162.67877 606.01074 1069.9097 3094581
168.31882 602.2066 1063.1935 2699823
175.29066 603.27563 1065.0808 2502444
182.21674 604.1145 1066.5618 2963252
189.82452 607.0741 1071.787 2502444
196.51836 607.00848 1071.6711 2502444
203.40771 607.53125 1072.594 2634030
210.14378 607.57721 1072.6753 2634030
215.96515 605.0578 1068.2272 2502444
221.19553 601.0838 1061.2112 2765619
226.79776 598.32288 1056.3367 3029304
233.44946 598.40851 1056.4879 2436910
239.95003 598.11273 1055.9657 2042409
246.68781 598.4082 1056.4874 1976359
253.03044 597.75488 1055.3339 1778980
259.15884 596.64148 1053.3683 1647394
264.5126 593.84436 1048.4299 2173481
267.99274 587.07831 1036.4845 3423548
273.71384 585.42542 1033.5663 4015685
277.38925 579.57477 1023.237 2634032
284.16898 580.32788 1024.5667 1647137
296.76651 592.66656 1046.3505 2568496
303.35486 592.73029 1046.463 2765618
310.91916 594.6579 1049.8662 1976359
319.43826 598.29401 1056.2858 1910566
327.14774 600.29688 1059.8219 2107945
333.8728 600.44965 1060.0916 2173738
340.85632 601.05219 1061.1554 2173738
351.01514 607.12378 1071.8748 2897461
361.28754 613.16022 1082.532 2831668
370.04089 616.44354 1088.3287 2371117
380.05157 621.66486 1097.5469 2371117
388.68042 624.48029 1102.5176 2371117
396.81552 626.41803 1105.9386 2568239
404.60703 627.75616 1108.301 2699825
412.97903 629.93457 1112.1471 2305067
420.63501 630.96661 1113.9691 2370860
428.53247 632.32129 1116.3608 2436910
436.09 633.13898 1117.8044 2371117
443.0415 633.06488 1117.6736 2502191
449.81851 632.74756 1117.1134 2831158
456.81757 632.74756 1117.1134 3356988
