# .PCD v0.7 - Point Cloud Data file format
VERSION 0.7
FIELDS x y z rgb
SIZE 4 4 4 4
TYPE F F F U
COUNT 1 1 1 1
WIDTH 1273
HEIGHT 1
VIEWPOINT 0 0 0 1 0 0 0
POINTS 1273
DATA ascii
-1426.0868 638.43292 2282.2888 3621438
-1412.3983 638.70911 2283.2761 3752510
-1390.4089 635.19879 2270.7273 3357752
-1378.5333 636.28406 2274.6069 3291960
-1366.6107 637.37006 2278.489 3160374
-1356.8242 639.48572 2286.0522 2962995
-1335.9237 636.35248 2274.8516 2765616
-1320.6888 635.87964 2273.1611 2897202
-1310.4691 637.83734 2280.1597 3028788
-1297.4799 638.4754 2282.4407 3094581
-1282.4058 638.09039 2281.0642 3094838
-1271.9918 640.0415 2288.0391 3028788
-1257.6565 640.0415 2288.0391 2962995
-1227.6803 631.98975 2259.2556 3160374
-1213.5254 631.98975 2259.2556 3555132
-1213.9143 639.65344 2286.6519 3423546
-1210.2377 645.33228 2306.9529 3555132
-1209.9281 652.96558 2334.2405 3555132
-1206.048 658.83502 2355.2229 2897202
-1184.1013 654.8584 2341.0071 3357753
-1164.5718 652.13556 2331.2734 3423546
-1148.257 651.16663 2327.8096 3489339
-1134.6683 651.73859 2329.8542 3489339
-1126.1572 655.27997 2342.5142 3357753
-1113.7736 656.63184 2347.3467 3160374
-1112.4491 664.62701 2375.9282 3818561
-1097.0315 664.30511 2374.7773 3424316
-1064.1713 653.26666 2335.3169 3555901
-1049.1035 652.99512 2334.3462 3555645
-1034.7365 653.1582 2334.9292 3226680
-1020.1074 653.1582 2334.9292 4082245
-1006.9475 654.11261 2338.3408 4016196
-993.89294 655.16461 2342.1016 3753024
-980.97888 656.3421 2346.311 3621438
-973.69202 661.37775 2364.3125 3752770
-961.26508 663.02356 2370.196 3884356
-943.93359 661.2851 2363.9814 3818563
-929.76398 661.7417 2365.6135 3884356
-907.2262 656.16064 2345.6624 3884356
-892.52997 656.16064 2345.6624 3818563
-886.98834 663.0036 2370.1248 4147528
-870.08093 661.43927 2364.5325 4213321
-864.48987 668.57239 2390.0322 4344907
-853.13208 671.41864 2400.207 4279627
-836.09058 669.8136 2394.4692 4279627
-819.92114 668.86127 2391.0649 4279627
-804.54956 668.5365 2389.9041 4279884
-792.11255 670.6842 2397.5815 4280653
-777.09094 670.6842 2397.5815 4872534
-755.83093 665.19391 2377.9546 4872533
-733.72937 658.72723 2354.8374 4346190
-730.18579 668.99811 2391.554 4346190
-713.29871 667.21771 2385.1895 4279884
-693.43646 662.51868 2368.3914 4345420
-677.9978 661.93298 2366.2974 4542799
-657.6524 656.42352 2346.6021 4345420
-642.22113 655.6792 2343.9412 4213834
-629.08362 657.29657 2349.7231 4674385
-612.09698 654.87341 2341.0605 4410955
-593.65436 650.73529 2326.2676 3818817
-580.72864 652.58832 2332.8918 3884867
-565.74573 652.16571 2331.3811 4213575
-548.62006 649.18518 2320.7263 3818817
-540.87811 657.44836 2350.2659 3621438
-528.31567 660.15082 2359.9265 3884866
-510.2659 655.95471 2344.9263 3752511
-499.7384 661.46661 2364.6304 3028788
-479.27567 653.76288 2337.0908 3620925
-469.07849 660.01782 2359.4512 3752767
-460.5072 669.04199 2391.7109 3753024
-445.84122 669.52081 2393.4226 4213318
-428.84805 666.41656 2382.3254 3818817
-415.38586 668.77325 2390.7502 2963508
-396.18201 661.71643 2365.5234 2897203
-375.48801 651.52551 2329.0925 3094581
-364.51712 658.0636 2352.4651 3225910
-349.7782 658.0636 2352.4651 3160374
-333.44641 654.935 2341.2808 3686974
-316.94131 651.16235 2327.7944 3489595
-300.47189 647.1026 2313.2815 3226423
-283.96964 642.55707 2297.032 3621441
-270.42963 644.58704 2304.2886 3687231
-256.83044 646.69684 2311.8308 3621438
-244.57906 652.6554 2333.1318 3687231
-228.8925 649.62219 2322.2886 3424059
-214.34265 649.62219 2322.2886 3424059
-200.22313 651.02142 2327.2905 3753024
-184.2567 646.16364 2309.9246 3950403
-170.63127 649.38696 2321.4475 4016196
-155.45587 646.76251 2312.0657 3950403
-138.72466 636.46069 2275.2385 3687231
-123.73815 632.7207 2261.8684 3358266
-111.00303 641.01416 2291.5164 3621438
-95.660156 634.47577 2268.1426 3687231
-81.222046 632.70367 2261.8076 3094837
-66.607254 628.51526 2246.8347 3094581
-52.913372 633.10059 2263.2266 3291960
-38.857944 635.13373 2270.4946 3357753
-24.740093 637.90558 2280.4036 3357753
-10.408909 635.23566 2270.8591 3489339
3.8741012 644.44696 2303.7878 2963252
18.266777 642.99426 2298.5947 2634286
32.425514 638.21777 2281.5198 2634030
47.259762 645.59204 2307.8813 2634030
61.887119 647.34686 2314.1545 2699823
76.837311 651.17151 2327.8269 2699823
91.643692 652.75146 2333.4751 2831409
106.26097 652.73511 2333.4165 3028788
120.88055 652.73511 2333.4165 3160374
135.26263 651.591 2329.3267 2962995
150.01611 652.28461 2331.8062 2962995
164.62558 652.28461 2331.8062 2897202
179.44023 653.03119 2334.4751 2962995
194.18491 653.42981 2335.9001 2897202
208.57721 652.66998 2333.1838 2831409
223.69675 654.13629 2338.4255 3028788
238.51718 654.60126 2340.0879 3226167
255.86679 661.55188 2364.9351 3291960
268.3735 655.90533 2344.7498 3226167
283.12225 656.0401 2345.2314 3094581
298.29169 657.08832 2348.9785 3094581
311.65314 654.24255 2338.8054 3160374
327.23718 656.10852 2345.4761 3028788
342.67175 657.5274 2350.5483 3160374
357.39868 657.5274 2350.5483 3094581
372.0842 657.45428 2350.2869 3094581
385.59506 655.3902 2342.908 3160374
400.06686 655.05084 2341.6948 2831409
415.10309 655.62695 2343.7544 2634286
428.08945 653.03674 2334.4949 2765616
443.0629 653.54883 2336.3254 2765616
457.96381 653.9245 2337.6685 2634030
471.62585 652.56274 2332.8005 2568237
485.94254 652.16138 2331.3657 3226168
502.53622 654.75018 2340.6201 2634030
516.30267 653.61298 2336.5549 2502187
529.86847 652.29156 2331.8311 2502188
544.69104 652.54663 2332.7429 2502444
559.3064 652.54663 2332.7429 2699823
573.90686 652.52972 2332.6824 2502444
587.66321 651.57776 2329.2793 2765616
600.68427 649.87634 2323.197 3094581
615.69055 650.35242 2324.8989 3291960
632.17395 652.33075 2331.9712 3160374
648.70245 654.26514 2338.8862 2963252
664.10254 655.00116 2341.5173 2962995
679.25098 655.46252 2343.1667 2962995
692.52228 654.13135 2338.408 2897202
707.44354 654.38147 2339.302 2765616
726.98755 658.81067 2355.1357 3028788
752.68262 668.52698 2389.8699 3094581
759.87579 661.75153 2365.6487 2897459
766.4541 654.71008 2340.4768 3028788
792.63556 664.36383 2374.9873 3423802
807.93829 664.71161 2376.2305 3423546
822.57013 664.50482 2375.4912 3489339
835.90466 663.27594 2371.0984 3555388
856.65448 667.87122 2387.5256 3423803
874.44501 670.0412 2395.283 3292472
901.83459 679.36914 2428.6287 3884610
903.21954 669.12268 2391.9995 4015939
912.42682 664.91113 2376.9438 3358009
920.34723 659.91217 2359.0732 3358265
928.4903 655.22821 2342.3291 3291962
942.263 654.6012 2340.0874 3226169
956.72333 654.46362 2339.5957 3357755
972.34149 655.11029 2341.9075 3357755
965.20526 640.63507 2290.1609 3291962
984.89404 644.12756 2302.646 2963511
1008.288 649.90747 2323.3083 3292219
1027.5815 652.91754 2334.0688 3621184
1044.3783 654.27887 2338.9353 3489598
1057.014 653.03186 2334.4775 3489851
1063.8461 648.28229 2317.4985 3226167
1077.1987 647.58069 2314.9905 3160374
1097.9556 651.28961 2328.2493 3423802
1107.4384 648.30145 2317.5671 3357753
1120.9865 647.73975 2315.5591 3291959
1137.6287 648.9574 2319.9119 3752511
1135.2596 639.43616 2285.8752 3357753
1153.257 641.48071 2293.1841 3094581
1171.1807 643.43439 2300.1682 3291960
1172.1991 636.16602 2274.1848 3160374
1198.1853 642.45972 2296.6838 2765616
1208.8192 640.46991 2289.5706 2831409
1223.1641 640.46991 2289.5706 3160374
1238.415 640.93884 2291.2471 3686718
1260.8113 645.05261 2305.9531 4015683
1262.7117 638.70605 2283.2651 3555388
1279.3507 639.87329 2287.4377 3291960
1295.2709 640.65906 2290.2468 3160374
1310.5889 641.13306 2291.9412 3160374
1347.1173 651.86029 2330.2893 3423546
1346.6697 644.65692 2304.5386 3291960
1360.3146 644.28101 2303.1946 3094581
1378.3789 645.98407 2309.283 3357753
1383.927 641.84705 2294.4937 3357752
1404.004 644.46405 2303.8489 3291960
1424.7134 647.31512 2314.041 3094581
1439.2117 647.31512 2314.041 3226166
1457.9969 649.22406 2320.8652 3489339
1467.3856 646.95251 2312.7449 3226167
1489.9034 650.45728 2325.2737 2897203
1502.8346 649.74933 2322.7429 2897459
1518.2843 650.13342 2324.116 2634031
1539.089 652.78143 2333.5823 2634031
1553.7096 652.78143 2333.5823 2831410
1584.7288 659.60699 2357.9824 3291962
1582.3679 652.54108 2332.7229 3489338
1588.5504 649.0954 2320.4053 3160630
1613.1075 653.15216 2334.9075 3094580
1626.3463 652.5943 2332.9133 3225397
1637.6173 651.26392 2328.1572 3291190
1659.9154 654.30359 2339.0237 3093812
1674.5958 654.3136 2339.0596 2896688
1695.9701 656.91626 2348.3635 2962225
1720.6726 660.75226 2362.0767 3028018
1735.9515 660.935 2362.7297 2699053
1743.1409 658.06049 2352.4541 2633260
1759.7478 658.75989 2354.9541 2567467
1765.2938 655.34137 2342.7334 2633260
1785.0891 657.22546 2349.4688 2962482
1799.4882 657.10815 2349.0496 2896432
1814.5209 657.22235 2349.4578 2896432
1832.6144 658.43439 2353.7905 3028018
1843.5851 657.08832 2348.9788 2962225
1851.0737 654.53235 2339.8416 2962225
1861.4701 653.03668 2334.4946 3159861
1887.0127 656.83649 2348.0784 3094068
1907.9579 658.98956 2355.7751 2896432
1926.8613 660.40973 2360.8521 3159604
1948.7235 662.8147 2369.4495 3225397
1974.3911 666.46783 2382.5088 3488569
1989.3182 666.46783 2382.5088 3883327
1976.4904 657.23853 2349.5154 3488569
1998.8839 659.77118 2358.5693 2962225
2021.1317 662.21893 2367.3196 3093811
2038.8049 663.14307 2370.6233 3356983
2057.4197 664.35779 2374.9658 3356983
2065.751 662.25848 2367.4609 3291190
2081.2734 662.47797 2368.2456 3225397
2111.5837 667.36804 2385.7268 3159604
2127.7368 667.74634 2387.0793 3488569
2175.0442 677.82849 2423.1211 3225397
2198.801 680.48224 2432.6079 2764845
2191.0044 673.40167 2407.2961 2633261
2180.031 665.44818 2378.8638 2830642
2191.4468 664.39056 2375.0828 2962227
2205.8613 664.25018 2374.5811 2962227
2218.5217 663.58704 2372.2104 2962227
2228.9124 662.2583 2367.4604 3225399
2246.9194 663.19525 2370.8098 3093813
2256.6152 661.68274 2365.4028 3093813
2271.1924 661.61206 2365.1501 2962227
2279.6514 659.77155 2358.5706 2830641
2295.0962 659.96356 2359.2571 2896691
2306.8196 659.08978 2356.1335 2896434
2315.8665 657.46735 2350.3335 2699055
2332.4282 657.98535 2352.1853 2567469
2338.2603 655.48889 2343.261 2633262
2355.5989 656.22925 2345.9075 2633262
2370.1831 656.19775 2345.7949 2567469
2383.9861 655.95172 2344.9155 2501676
2398.3638 655.86591 2344.6086 2501676
nan nan nan 16777215
nan nan nan 16777215
nan nan nan 16777215
nan nan nan 16777215
nan nan nan 16777215
nan nan nan 16777215
nan nan nan 16777215
nan nan nan 16777215
nan nan nan 16777215
nan nan nan 16777215
-2006.8953 628.55383 2198.0037 3620927
-2006.7806 632.8606 2213.064 3752513
-1996.1962 633.90253 2216.7075 3949892
-1988.5422 635.89618 2223.6792 4278857
-1980.6656 637.84619 2230.4983 4278857
-1972.572 639.75366 2237.1685 4015685
-1969.027 643.17419 2249.1296 3884099
-1964.1438 646.20367 2259.7236 3949892
-1952.9645 647.19067 2263.1753 3752770
-1931.7819 644.85303 2255.0005 3555648
-1921.0105 645.98181 2258.9478 3621184
-1901.0399 644.01105 2252.0562 3686977
-1893.0396 646.09613 2259.3477 3489598
-1878.8839 646.09613 2259.3477 3555391
-1865.5764 646.38989 2260.375 3752770
-1851.4144 646.38989 2260.375 3752770
-1841.3967 647.84802 2265.4739 3752770
-1826.8573 647.72546 2265.0454 3884356
-1798.9498 642.82422 2247.906 3687232
-1780.9288 641.40625 2242.9475 3687231
-1775.3064 644.46655 2253.6492 3621438
-1761.1865 644.46655 2253.6492 3687488
-1739.1987 641.56415 2243.4998 3555645
-1716.374 638.30328 2232.0967 3489852
-1697.9843 636.65155 2226.3208 3555645
-1690.3776 639.04913 2234.7048 3358266
-1669.8353 636.55566 2225.9854 3424059
-1651.0168 634.6828 2219.436 3555645
-1635.0604 633.88763 2216.6555 3292473
-1608.3698 628.88171 2199.1501 3095094
-1593.2505 628.35291 2197.301 3160887
-1578.9341 628.13428 2196.5364 3226680
-1568.3081 629.39276 2200.9373 3358266
-1554.7758 629.49689 2201.3015 3555901
-1534.3567 626.78967 2191.8345 3489852
-1521.5781 627.18286 2193.2095 3292473
-1510.3865 628.24335 2196.918 3226680
-1497.8816 628.77203 2198.7666 3489852
-1484.3098 628.85858 2199.0691 3424315
-1470.5319 628.85858 2199.0691 3358266
-1458.1121 629.44476 2201.1191 3489852
-1446.5073 630.3974 2204.4504 3555645
-1431.7228 629.9693 2202.9534 3687231
-1420.2233 630.99231 2206.5308 3555645
-1405.1655 630.43909 2204.5962 3555901
-1393.3159 631.32849 2207.7063 3489852
-1383.4133 633.12683 2213.9949 3489851
-1373.4243 634.92157 2220.271 3358009
-1354.4072 632.5368 2211.9316 3160887
-1338.4899 631.56531 2208.5344 3226166
-1325.478 631.95874 2209.9104 3291960
-1321.8984 636.90515 2227.2075 3226424
-1308.2383 637.04828 2227.708 3029045
-1288.6541 634.27869 2218.0229 3028788
-1276.9055 635.34747 2221.7605 3028788
-1268.8677 638.30658 2232.1082 3160374
-1250.7504 636.20453 2224.7573 3291703
-1234.8962 635.2193 2221.3123 3225910
-1219.3105 634.35126 2218.2766 3160118
-1205.4122 634.35126 2218.2766 3160118
-1188.6306 632.8161 2212.9084 3883583
-1177.0232 634.03198 2217.1602 3817534
-1171.1904 638.42462 2232.521 3685948
-1157.203 638.42462 2232.521 3423546
-1170.0568 653.41406 2284.9377 3291960
-1146.0784 647.95123 2265.8347 3489339
-1118.0881 640.05469 2238.2212 3818304
-1102.8082 639.32611 2235.6733 3489339
-1105.8087 649.31281 2270.5959 3357753
-1100.1282 654.39587 2288.3711 3291960
-1086.4775 654.80969 2289.8184 3423546
-1079.663 659.40985 2305.9048 4081989
-1062.8043 657.91705 2300.6846 3752767
-1044.9294 655.74554 2293.0908 3555645
-1014.3369 645.42114 2256.9873 3292473
-1009.296 651.29333 2277.5217 3292216
-996.72223 652.4032 2281.4028 3752255
-988.00928 656.10913 2294.3623 3686974
-967.44287 651.93689 2279.7722 3555645
-951.29187 650.65955 2275.3054 3621438
-938.03125 651.35034 2277.7212 3555391
-933.56262 658.26178 2301.8899 3686977
-927.63837 664.34772 2323.1719 3950149
-907.55682 660.32684 2309.1113 4081735
-886.97076 655.80286 2293.2913 4081735
-874.45905 657.19806 2298.1702 3621184
-864.97656 660.95477 2311.3071 3884356
-853.3681 663.18719 2319.1138 4081992
-840.69299 664.65363 2324.2417 4015942
-829.74823 667.56384 2334.4185 4016455
-815.12225 667.56384 2334.4185 4279627
-797.72058 665.24896 2326.3235 4082248
-787.67755 669.09875 2339.7859 4082248
-775.94965 671.63623 2348.6594 4214091
-767.55823 677.21558 2368.1699 4016712
-740.74133 666.43768 2330.4805 3490111
-721.27936 661.97656 2314.8801 3884869
-706.71112 661.91589 2314.668 4477006
-685.87189 655.85608 2293.4773 4016455
-671.5025 655.85608 2293.4773 3950662
-658.31897 657.03949 2297.6157 3819076
-643.08795 656.18677 2294.6338 3950662
-626.0481 653.4071 2284.9136 3753283
-607.19647 648.56213 2267.9712 4015686
-582.39069 636.97284 2227.4441 4279367
-574.85358 644.16534 2252.5957 3424315
-562.08087 645.70514 2257.9805 3753024
-544.29236 641.41388 2242.9741 3818817
-533.55664 645.42657 2257.0063 3489852
-519.32281 645.3111 2256.6023 3358522
-514.15479 656.76947 2296.6714 3621438
-497.18143 653.37366 2284.7966 3752511
-482.61023 653.02698 2283.5842 3028788
-467.10794 651.36072 2277.7573 3226167
-453.87357 652.85156 2282.9709 3752511
-446.8707 663.69458 2320.8879 3094581
-433.05289 664.80493 2324.7708 3489339
-419.87515 667.00934 2332.4795 3226168
-402.3063 662.14557 2315.4712 3621439
-384.72333 656.89374 2297.106 3884612
-367.98199 652.72662 2282.5339 4081736
-349.32196 644.68152 2254.4009 3686978
-335.19745 644.68152 2254.4009 3489599
-322.95554 648.46167 2267.6196 4081993
-311.21167 653.63562 2285.7126 4740178
-292.7825 644.59045 2254.0823 4542543
-281.59305 651.37518 2277.8079 4081991
-265.0065 645.73328 2258.0789 4147784
-246.01726 633.27051 2214.4973 4016454
-233.75075 637.65692 2229.8364 3292474
-219.97714 638.22858 2231.8354 3358266
-210.45889 652.06207 2280.21 3555645
-193.73053 643.94458 2251.8237 4082246
-179.0598 641.92859 2244.7739 4213575
-166.29614 646.98846 2262.468 4081989
-150.96207 642.05896 2245.23 3884610
-135.54054 635.70642 2223.0156 3621438
-121.61267 635.70642 2223.0156 3621438
-107.58408 635.11194 2220.9368 3753024
-93.520737 634.1051 2217.416 3555645
-79.866318 636.00342 2224.0542 3489852
-66.057602 637.2157 2228.2935 3489595
-51.714947 632.54694 2211.967 3621181
-38.08186 636.31604 2225.1475 3489339
-24.286503 640.16138 2238.5942 3620925
-10.267107 640.54132 2239.9229 3357753
3.7426536 636.45135 2225.6206 2962995
18.065752 650.08569 2273.2988 2831409
31.894138 641.74481 2244.1313 2634030
45.954319 641.74481 2244.1313 2436907
60.496201 646.89575 2262.1438 2765616
75.474075 653.86847 2286.5269 2699823
89.799873 653.86847 2286.5269 2699823
103.89098 652.39465 2281.373 3029045
117.62894 649.328 2270.6492 3029045
131.44781 647.32147 2263.6326 2962995
146.12526 649.52203 2271.3279 2897202
160.87062 651.60724 2278.6196 2831409
175.23854 651.94824 2279.812 2831409
190.57022 655.55316 2292.4182 2502444
202.08406 646.44 2260.55 2634030
215.64478 644.63947 2254.2537 2831409
230.47237 646.61462 2261.1606 3094581
246.19411 650.7243 2275.532 2962995
260.90857 651.86737 2279.5293 3028788
276.8147 655.71472 2292.9832 3094581
291.09634 655.52423 2292.3169 3028788
304.70578 653.909 2286.6687 3029045
319.66025 655.1958 2291.1685 3028788
334.41061 655.9715 2293.8811 3028788
347.21692 653.0271 2283.5847 3357753
361.32156 652.66095 2282.3042 3357753
375.8732 653.0993 2283.8372 3291960
388.62622 650.49493 2274.73 3028788
399.68338 645.33667 2256.6919 3028788
413.82227 645.33667 2256.6919 2699823
428.91208 646.77063 2261.7063 2897202
442.8703 646.46112 2260.6238 2962995
463.76837 655.98694 2293.9351 2765616
478.14062 655.98694 2293.9351 2962995
494.32895 658.40588 2302.3938 3028788
504.39316 652.76208 2282.658 2699823
513.83124 646.64154 2261.2549 2436651
528.36591 647.09131 2262.8276 2370858
542.77081 647.36267 2263.7766 2568237
556.17719 646.45972 2260.6191 2502444
570.43317 646.56458 2260.9856 2370858
583.02917 644.82837 2254.9143 2765616
599.27808 647.1189 2262.9241 2765616
616.42737 650.2533 2273.885 2962995
628.12714 647.62744 2264.7024 3094581
643.78339 649.10675 2269.8755 2897202
662.99646 654.03088 2287.0947 2963252
676.77454 653.49854 2285.2332 2897202
687.9566 650.53345 2274.8645 2831666
707.05176 655.01953 2290.552 2897202
721.40277 655.01953 2290.552 2897202
734.84167 654.20746 2287.7124 2699823
748.46381 653.58655 2285.541 2699823
762.59857 653.4281 2284.9871 3291960
779.80341 655.85767 2293.4829 3226167
798.42029 659.36542 2305.7493 3555132
812.86652 659.36542 2305.7493 3489339
829.55347 661.15131 2311.9944 3357753
843.49158 660.7226 2310.4951 3226167
855.46466 658.7951 2303.7549 3028788
870.66321 659.37439 2305.7805 3028788
884.89264 659.21271 2305.2151 2962995
885.61755 649.15741 2270.0525 2962995
894.96362 645.6394 2257.7505 2897204
904.59937 642.43665 2246.5505 3160376
921.58142 644.4693 2253.6587 3423548
929.99329 640.5379 2239.9109 2831411
931.15314 631.80273 2209.3647 2568239
962.4328 643.46094 2250.1326 3160376
985.15631 649.14465 2270.0081 3554877
996.38293 647.19885 2263.2036 3357498
1007.1496 645.01306 2255.5601 2962998
999.46869 631.23676 2207.3855 2831408
1028.1744 640.50366 2239.7913 3357753
1049.8351 645.19135 2256.1836 3291960
1063.0963 644.66107 2254.3293 3160374
1075.4214 643.58447 2250.5645 3028788
1086.9625 642.07269 2245.2778 3028788
1099.3849 641.11334 2241.9233 3357753
1110.3612 639.34558 2235.7415 3489339
1110.326 631.36053 2207.8184 3094581
1134.0688 636.92633 2227.2815 2897202
1150.8577 638.49878 2232.7803 3028788
1178.625 646.05121 2259.1904 3028788
1176.5286 637.24915 2228.4104 2962995
1180.3116 631.80072 2209.3577 3094581
1193.6683 631.54376 2208.459 3489339
1214.6953 635.30438 2221.6096 3489340
1244.2841 643.40698 2249.9438 2895919
1250.0569 639.15106 2235.0613 2568494
1270.0173 642.16321 2245.5945 3094581
1287.1957 643.71802 2251.0315 3226167
1305.6033 645.84717 2258.4771 3226167
1314.1302 643.0954 2248.8542 3226167
1326.5571 642.29028 2246.0388 3160374
1342.1115 643.00037 2248.522 3094581
1350.9849 640.52814 2239.8767 3094581
1368.2257 642.0332 2245.1399 3226167
1384.014 642.83295 2247.9365 3094581
1398.098 642.83295 2247.9365 3160374
1416.7534 644.91382 2255.2131 3357754
1430.8829 644.91382 2255.2131 3160376
1454.1743 649.00269 2269.5117 2831411
1463.2819 646.74347 2261.6113 2897461
1482.4939 648.95068 2269.3298 2962997
1496.7119 648.95068 2269.3298 3028791
1510.4354 648.73828 2268.5869 3160376
1537.3557 654.14508 2287.4941 3423548
1543.0439 650.50122 2274.7517 3357755
1553.6906 648.99518 2269.4854 3094583
1564.5886 647.62054 2264.6782 3028790
1581.2017 648.61487 2268.1555 3160375
1601.0211 650.89514 2276.1294 3226169
1613.5046 650.17908 2273.6252 3225912
1627.7496 650.17908 2273.6252 3160119
1639.7087 649.27386 2270.46 3160117
1671.2433 656.06897 2294.2217 3423033
1688.34 657.12866 2297.9275 3817534
1702.7372 657.12866 2297.9275 3685691
1712.4005 655.31702 2291.5923 3159604
1724.8745 654.60223 2289.0928 2896689
1748.5439 658.11292 2301.3694 3093811
1762.9628 658.11292 2301.3694 2962225
1772.1384 656.17151 2294.5806 2896432
1791.2283 657.90277 2300.6345 2830639
1811.663 660.0965 2308.3057 2567467
1830.6316 661.72534 2314.0017 2830639
1822.4746 653.60052 2285.5898 3159604
1842.2571 655.54431 2292.3872 3356983
1864.515 658.33209 2302.1357 3356983
1896.5356 664.49762 2323.6963 2962225
1886.9137 656.0899 2294.2949 2896432
1894.7059 653.81854 2286.3523 3028018
1939.7766 664.34863 2323.1753 3028018
1952.0677 663.57892 2320.4836 2830639
1954.7676 659.58423 2306.5144 2896432
1973.7856 661.11401 2311.864 3028018
1993.8983 662.98535 2318.408 3159604
2017.2424 665.89642 2328.5876 3225397
2031.8318 665.89642 2328.5876 3291190
2036.3325 662.61359 2317.1079 3291190
2049.1235 662.05585 2315.1575 3291190
2064.1572 662.22534 2315.7502 3488569
2088.9326 665.49609 2327.1877 3356983
2113.4395 668.63654 2338.1697 3093811
2114.2092 664.27557 2322.9197 3225396
2129.6892 664.56458 2323.9304 3093814
2141.457 663.69928 2320.9043 2962227
2154.2214 663.15228 2318.9917 2896434
2163.3584 661.50342 2313.2258 3093813
2188.8994 664.85919 2324.9604 3159606
2196.9854 662.90375 2318.1226 3093813
2211.5093 662.90375 2318.1226 3159606
2218.584 660.68542 2310.3652 3028020
2232.9919 660.66559 2310.2959 2830641
2235.9673 657.28522 2298.4751 2765105
2236.4292 653.21405 2284.2383 2764848
2249.697 652.91113 2283.1792 2764848
2265.5317 653.35242 2284.7222 2699055
2277.4646 652.6698 2282.3352 2764848
2295.0769 653.61322 2285.6343 2699055
2311.146 654.10822 2287.3652 2633262
2324.7617 653.90704 2286.6616 2567469
2338.4067 653.71649 2285.9954 2435883
nan nan nan 16777215
nan nan nan 16777215
nan nan nan 16777215
nan nan nan 16777215
nan nan nan 16777215
nan nan nan 16777215
nan nan nan 16777215
nan nan nan 16777215
nan nan nan 16777215
nan nan nan 16777215
nan nan nan 16777215
-1956.61 630.48608 2157.7361 3555134
-1952.9165 633.67419 2168.647 4015685
-1961.1515 640.80457 2193.0496 4015685
-1949.0665 641.34924 2194.9136 3950149
-1930.4883 639.74982 2189.4397 3884356
-1916.4158 639.63135 2189.0342 3949892
-1905.8026 640.67407 2192.6028 3884099
-1895.5303 641.84735 2196.6182 3686977
-1888.5168 644.14929 2204.4963 3686977
-1881.0593 646.33264 2211.9685 3621184
-1860.6293 644.05798 2204.1838 3555391
-1846.3695 643.90112 2203.647 3423805
-1832.9847 644.04938 2204.1543 3489598
-1817.9003 643.59802 2202.6096 3358012
-1808.134 645.03705 2207.5344 3358012
-1798.7604 646.63934 2213.0181 3686977
-1774.6289 642.9201 2200.2896 3752770
-1752.1946 639.76221 2189.4822 3489853
-1737.7103 639.48016 2188.5168 3358522
-1719.2847 637.73169 2182.533 3621438
-1704.4159 637.28503 2181.0044 3555645
-1687.912 636.21484 2177.3418 3358266
-1670.9152 634.93988 2172.9785 3358266
-1651.6399 632.77112 2165.5564 3358266
-1634.9541 631.56665 2161.4343 3292473
-1621.2256 631.49408 2161.1858 3358266
-1607.6852 631.49408 2161.1858 3424059
-1592.0513 630.66486 2158.3479 3292473
-1568.2911 626.57471 2144.3501 3160887
-1557.4407 627.61627 2147.9146 3292473
-1543.9834 627.61627 2147.9146 3226680
-1530.8861 627.76385 2148.4199 3292216
-1514.6843 626.62988 2144.5388 3292473
-1502.4545 627.13336 2146.262 3357753
-1482.1846 624.25977 2136.4275 3358009
-1468.7993 624.25977 2136.4275 3226424
-1451.7045 622.6687 2130.9824 3226167
-1438.3531 622.6687 2130.9824 3423545
-1426.4622 623.30676 2133.166 3291960
-1412.578 623.07776 2132.3823 3094838
-1399.218 623.07776 2132.3823 3357752
-1403.3245 630.93066 2159.2576 3160374
-1382.78 627.74561 2148.3572 3028531
-1367.1466 626.74927 2144.9475 3094324
-1359.3979 629.38373 2153.9634 3291960
-1342.7771 627.92206 2148.9612 3226167
-1329.0336 627.79004 2148.5093 3226167
-1320.6429 630.20959 2156.7898 3357753
-1306.7239 630.01385 2156.1199 3226167
-1292.099 629.47009 2154.259 3094581
-1284.6353 632.44037 2164.4243 3423546
-1279.9742 636.86853 2179.5791 3620925
-1261.8093 634.60077 2171.8179 3555132
-1246.0122 633.4873 2168.0073 3423546
-1229.7048 632.0871 2163.2153 3423289
-1218.3416 633.22528 2167.1106 3554875
-1207.2354 634.52429 2171.5562 3686461
-1190.9884 633.12006 2166.7505 3555132
-1173.6322 631.08704 2159.7927 3620411
-1162.4869 632.38525 2164.2358 3752768
-1154.1726 635.2724 2174.1165 3818304
-1141.4755 635.78723 2175.8784 3621182
-1130.6582 637.37427 2181.3098 3489339
-1126.255 642.66003 2199.3997 3752511
-1113.6317 643.32831 2201.6865 4081476
-1099.2666 642.99438 2200.5437 4081476
-1085.4597 642.9826 2200.5034 3489339
-1078.0321 646.7981 2213.5613 3423546
-1064.6306 647.08203 2214.533 3555132
-1056.5011 650.62006 2226.6414 3555132
-1050.8536 655.8017 2244.3748 3291960
-1028.2532 650.40076 2225.8909 3357753
-1017.6505 652.54443 2233.2273 3489082
-1007.9013 655.30292 2242.6677 3160374
-999.51971 659.04108 2255.4609 2897715
-980.22321 655.58649 2243.6382 2897716
-969.46246 657.82318 2251.2927 3621438
-955.60114 657.99097 2251.8672 3884610
-928.89752 649.1886 2221.7424 3753025
-919.47858 652.38208 2232.6716 3423806
-915.79193 659.80426 2258.0728 3555391
-905.83185 662.86853 2268.5598 3884356
-887.21771 659.59674 2257.3625 3818563
-872.27478 658.99243 2255.2944 3686977
-852.12195 654.36731 2239.4658 3423805
-837.84375 654.17438 2238.8054 3423805
-823.90912 654.24756 2239.0559 3423805
-813.77521 657.39362 2249.8228 3292219
-805.59119 662.25354 2266.4551 3555391
-788.48462 659.82129 2258.1311 3818820
-774.33673 659.82129 2258.1311 3555648
-755.05426 655.36462 2242.8789 3424062
-741.789 656.06073 2245.2612 3884613
-727.72174 656.06073 2245.2612 3161146
-711.39368 653.98236 2238.1484 3490111
-705.10437 661.23462 2262.968 3819076
-686.52814 657.02557 2248.5632 4213834
-662.56244 647.37427 2215.5332 3819076
-644.96014 643.6604 2202.8232 3555904
-630.81818 643.31311 2201.6345 3687490
-619.99768 646.41321 2212.2441 3687490
-608.08185 648.487 2219.3413 3753283
-589.55127 643.43848 2202.0637 3686977
-572.49359 639.79407 2189.5913 3621438
-561.49457 642.90784 2200.2476 3555645
-547.32159 642.4527 2198.6899 3687231
-534.85614 644.03009 2204.0884 3752767
-523.00922 646.45563 2212.3894 3489339
-513.0166 651.36768 2229.2 3423546
-502.8934 656.38422 2246.3682 3226167
-486.858 653.75067 2237.3555 3160374
-466.88992 645.52368 2209.2 3226167
-455.49216 649.00537 2221.1155 3423546
-443.71738 652.15234 2231.8855 3555132
-430.59216 653.45483 2236.343 3752511
-420.02908 658.86389 2254.8545 4081476
-400.22266 649.64557 2223.3064 3950147
-386.66571 650.27252 2225.4519 3818816
-372.7226 650.27252 2225.4519 3819073
-357.37378 647.72479 2216.7329 3884610
-343.32898 647.43018 2215.7244 3884609
-326.24359 641.13519 2194.1809 4081990
-313.25925 642.70032 2199.5374 4213578
-298.77026 641.18054 2194.3362 4477005
-285.06024 641.26642 2194.6301 4411212
-271.30841 641.26215 2194.6155 4279371
-255.99915 637.37982 2181.3289 4477006
-241.68515 635.67731 2175.5022 3753281
-228.32478 636.42938 2178.0762 3621438
-215.14749 637.81989 2182.835 3621438
-201.5961 638.21484 2184.1865 3621438
-188.37817 639.7998 2189.6108 4081989
-174.65074 639.7674 2189.5 4147782
-159.91119 635.70599 2175.6003 4213575
-147.33348 640.28253 2191.2629 3489852
-134.04231 642.38049 2198.4429 3687231
-120.26839 642.38049 2198.4429 3818817
-105.48066 636.2652 2177.5142 3753280
-91.578499 634.46832 2171.3647 3621438
-78.459244 638.41486 2184.8711 3621181
-64.867905 639.37646 2188.1621 3357753
-50.763878 634.44586 2171.2878 3686718
-36.973209 631.25519 2160.3684 3291960
-23.769434 640.18634 2190.9336 3226167
-10.042556 640.18634 2190.9336 3160374
3.6781611 639.1156 2187.2693 3028788
17.375801 638.8847 2186.479 3358522
31.270624 642.91138 2200.2598 2962995
44.786926 639.07288 2187.123 3226167
58.491394 639.08887 2187.1777 3028788
72.917603 645.48792 2209.0774 2831409
86.832916 646.04401 2210.9807 2897202
100.75109 646.46558 2212.4233 2963252
114.59195 646.349 2212.0244 2897202
128.73183 647.76233 2216.8613 2962995
142.66025 647.93994 2217.469 2962995
156.55339 647.93994 2217.469 2897202
170.12907 646.73315 2213.3391 2963252
183.75359 645.87994 2210.4192 2699823
197.04475 644.05676 2204.1794 2568237
210.59743 643.27118 2201.491 2831409
224.91322 644.76978 2206.6199 2699823
238.75241 644.80768 2206.7495 2765616
251.97423 643.26538 2201.4712 2831409
267.04395 646.35577 2212.0476 2831409
281.03741 646.66479 2213.1052 2962995
295.18253 647.27728 2215.2014 3028788
310.17075 649.60052 2223.1523 3291960
323.00284 647.40253 2215.6299 3291960
336.55072 646.76123 2213.4351 3357753
349.44269 644.96002 2207.2708 3489339
364.42294 647.00354 2214.2644 3555132
377.09265 644.94543 2207.2209 3094581
389.47308 642.55573 2199.0425 2962995
404.00827 643.76276 2203.1733 2699823
423.30487 652.22632 2232.1387 3752511
435.34244 649.32172 2222.198 3226167
451.35901 652.3479 2232.5547 2962995
468.95752 657.40979 2249.8782 3160374
484.19656 658.96515 2255.2012 3160374
499.85074 660.98132 2262.1011 2765873
511.84891 658.18494 2252.531 2634030
515.6781 645.3161 2208.4895 2502444
526.82062 642.03253 2197.252 2436651
541.29126 642.8689 2200.1143 2370858
555.38281 643.22455 2201.3315 2436651
569.03058 643.06152 2200.7737 2502444
583.11523 643.38831 2201.8918 2502444
597.64252 644.177 2204.5911 2502700
612.34338 645.11298 2207.7944 2831409
625.95905 644.88959 2207.0298 2897459
643.21918 648.3493 2218.8701 2831409
655.172 646.42627 2212.2888 2831409
665.70374 643.20978 2201.281 2831409
684.07678 647.54645 2216.1226 2699823
697.29938 646.93225 2214.0205 2634030
709.26794 645.20117 2208.0962 2699823
741.367 661.49811 2263.8699 3029301
753.13318 659.38141 2256.6257 3687231
756.22809 649.89081 2224.1455 3292473
770.74774 650.38416 2225.834 3291960
784.92743 650.57825 2226.4983 3291960
798.26501 650.07971 2224.7922 3028788
809.08051 647.57971 2216.2363 3094581
823.46393 647.97156 2217.5774 3028788
841.52808 651.19867 2228.6216 3028788
863.25 657.10474 2248.8342 3226168
868.79919 650.70819 2226.9431 3291962
875.19238 645.13599 2207.873 3357755
887.74646 644.20789 2204.6968 3555134
897.85425 641.5603 2195.6357 3620927
912.53857 642.21332 2197.8708 2634032
926.30896 642.21332 2197.8708 1318172
933.5506 637.75323 2182.6069 1778980
947.41858 637.88342 2183.0522 3028790
965.94006 641.09839 2194.0552 3226169
981.54376 642.31378 2198.2146 3094583
995.31628 642.31378 2198.2146 3291960
1010.8781 643.45276 2202.1125 3160374
1025.4663 643.94965 2203.813 3291960
1040.272 644.56805 2205.9294 3160374
1053.8481 644.41846 2205.4175 3160374
1065.6204 643.1839 2201.1924 3160374
1076.7701 641.61011 2195.8062 3094581
1088.8286 640.61053 2192.3853 3357753
1101.0542 639.73291 2189.3818 3094838
1114.4344 639.53949 2188.72 2634030
1124.809 637.64697 2182.2432 3160374
1139.7169 638.33899 2184.6113 3686718
1153.4042 638.33899 2184.6113 3752511
1167.7915 638.72192 2185.9219 3555132
1176.264 635.89832 2176.2585 3357753
1197.7437 640.09058 2190.606 3226424
1221.9052 645.60492 2209.4778 2764589
1235.7482 645.60492 2209.4778 2568494
1245.2206 643.34674 2201.7498 2831666
1253.798 640.68079 2192.626 3160374
1274.9877 644.44757 2205.5171 3160374
1286.77 643.42957 2202.033 3226167
1302.2531 644.26398 2204.8887 3226167
1316.0674 644.26398 2204.8887 2962995
1323.5308 641.18726 2194.3591 3160374
1339.4143 642.211 2197.8628 3291960
1355.9119 643.50537 2202.2925 3160376
1373.34 645.21082 2208.1292 3160375
1384.244 643.84772 2203.4641 3226169
1405.033 647.06384 2214.4709 3291961
1415.6796 645.59192 2209.4333 3028790
1428.8579 645.29187 2208.4065 2831411
1443.0891 645.46851 2209.011 2962996
1457.6693 645.79633 2210.1331 3160376
1470.8124 645.4873 2209.0754 3226170
1484.365 645.36212 2208.647 3226169
1497.8694 645.21851 2208.1555 3094584
1511.2172 645.01068 2207.4441 3094583
1522.1422 643.78186 2203.2388 3028791
1540.0278 645.49268 2209.0938 2962997
1549.3812 643.6286 2202.7144 3028788
1577.4303 649.4953 2222.792 3423547
1587.7677 648.03046 2217.7788 3291961
1604.9624 649.36554 2222.3479 3357753
1616.1024 648.24884 2218.5264 3555132
1632.2362 649.13739 2221.5671 3621181
1648.0636 649.89001 2224.1428 3620669
1681.5259 657.5257 2250.2749 3356983
1679.1493 651.13702 2228.4106 3290933
1700.5974 654.01611 2238.2639 3225397
1719.7521 655.97339 2244.9622 2962225
1736.8131 657.10675 2248.8411 2633260
1750.4243 656.92712 2248.2263 2699053
1758.9668 654.8634 2241.1636 2830639
1760.5132 650.24823 2225.3689 3291190
1774.4558 650.24823 2225.3689 3225397
1796.6603 653.2522 2235.6494 3356983
1811.4972 653.55157 2236.6741 3620155
1829.2327 654.88409 2241.2344 3028018
1873.9799 665.79315 2278.5688 2764846
1856.7346 654.67889 2240.532 2896689
1873.0231 655.46655 2243.2278 3225654
1891.1614 656.88507 2248.0823 2962482
1908.8356 658.12256 2252.3174 2830639
1916.2286 655.82318 2244.4482 2896432
1930.2908 655.82318 2244.4482 3028018
1952.0887 658.43243 2253.3779 2830639
1979.2899 662.8136 2268.3718 2699053
1987.3871 660.78052 2261.4138 2830639
1994.0714 658.30969 2252.958 3356983
2013.218 659.95898 2258.6023 3356983
2026.2085 659.5813 2257.3098 3225397
2034.1487 657.57617 2250.4475 2962225
2051.6626 658.67224 2254.1987 3028018
2067.0002 659.05945 2255.5239 3028277
2076.6829 657.65057 2250.7021 2896434
2091.689 657.93512 2251.676 2830641
2104.1584 657.42334 2249.9246 2764848
2118.2546 657.42334 2249.9246 2764848
2132.0598 657.3335 2249.6169 2764848
2145.4929 657.13092 2248.9238 2764848
2157.7661 656.578 2247.0315 2896434
2171.8083 656.56708 2246.9941 2962227
2175.5413 653.45972 2236.3596 2896434
2176.0386 649.42651 2222.5566 2830641
2192.7725 650.25946 2225.4072 2764848
2207.8945 650.60693 2226.5964 2962484
2218.4202 649.60413 2223.1646 2830641
2230.166 648.96893 2220.9907 2896434
2240.2024 647.84717 2217.1516 2896434
2262.7966 650.34857 2225.7122 2830641
2261.4219 645.97247 2210.7358 2501676
nan nan nan 16777215
nan nan nan 16777215
nan nan nan 16777215
nan nan nan 16777215
nan nan nan 16777215
nan nan nan 16777215
nan nan nan 16777215
nan nan nan 16777215
nan nan nan 16777215
nan nan nan 16777215
nan nan nan 16777215
-1911.281 629.01532 2107.7476 3291962
-1910.1991 633.0332 2121.2107 3555134
-1905.1443 635.78143 2130.4197 3620927
-1891.7965 635.78143 2130.4197 3489341
-1881.5098 636.81744 2133.8914 3489341
-1868.1526 636.82159 2133.9053 3555134
-1857.7938 637.85541 2137.3694 3423548
-1840.8125 636.61377 2133.209 3160633
-1827.0426 636.47284 2132.7366 3226426
-1820.286 638.79089 2140.5042 3226426
-1809.0746 639.56854 2143.1099 3094840
-1793.8549 638.93005 2140.9705 3160633
-1781.7142 639.38696 2142.5015 3226426
-1766.9026 638.88501 2140.8196 3160633
-1753.9354 639.04742 2141.3638 3226683
-1740.2762 638.95825 2141.0649 3358012
-1719.2007 636.1236 2131.5664 3358012
-1692.5112 631.15106 2114.9041 3489596
-1684.4924 633.11737 2121.4929 3686975
-1670.7561 632.94897 2120.9287 3752510
-1656.0166 632.39478 2119.0715 3686974
-1637.9191 630.53888 2112.8528 3489339
-1618.0178 627.95282 2104.187 3292473
-1602.6472 627.09698 2101.3193 3292473
-1592.0156 628.09656 2104.6689 3226680
-1569.7499 624.48462 2092.5657 3095094
-1552.6141 622.86981 2087.1548 3029301
-1534.1803 620.70245 2079.8921 3094838
-1524.2312 621.96002 2084.1062 3094838
-1513.3949 622.87427 2087.1697 3094581
-1498.7162 622.20923 2084.9412 3028788
-1487.3889 622.93604 2087.3767 3028788
-1471.5005 621.74866 2083.3977 3094581
-1458.4474 621.74866 2083.3977 3094581
-1444.8064 621.49573 2082.5503 3028788
-1429.5076 620.51862 2079.2761 3028788
-1417.9401 621.15808 2081.4189 2962995
-1407.0426 622.10577 2084.5945 2897202
-1393.4912 621.88678 2083.8606 2765616
-1380.1459 621.75641 2083.4238 2633773
-1369.0359 622.6402 2086.3853 2568237
-1355.964 622.6402 2086.3853 2962995
-1346.8605 624.48016 2092.5508 3028788
-1337.2966 626.14069 2098.115 3291960
-1327.0806 627.52588 2102.7566 3094581
-1310.3744 625.83905 2097.1042 2897202
-1293.3845 623.98132 2090.8792 3094581
-1289.0988 628.27716 2105.2739 3291960
-1277.1318 628.87952 2107.2925 3226167
-1264.7388 629.28241 2108.6426 3489339
-1256.1185 631.59082 2116.3777 3489339
-1242.8588 631.59082 2116.3777 3357753
-1224.9355 629.19543 2108.3511 3555132
-1211.0297 628.83386 2107.1394 3620925
-1198.4369 629.15356 2108.2107 3489339
-1197.9932 635.92957 2130.9163 3555132
-1175.8337 631.20099 2115.0715 3949890
-1157.9814 628.70312 2106.7014 3949890
-1143.7653 628.14465 2104.8298 3818304
-1127.2764 626.3103 2098.6833 3884354
-1114.6505 626.60431 2099.6685 3884097
-1107.1272 629.80804 2110.4038 3686718
-1103.6113 635.39648 2129.1299 3555132
-1096.6562 639.11731 2141.5979 3752511
-1086.3284 640.94037 2147.7068 3950147
-1072.932 640.97607 2147.8264 3884097
-1056.632 639.25586 2142.0623 3620925
-1048.3817 642.42419 2152.679 3489339
-1039.9274 645.54846 2163.1479 3357753
-1027.8352 646.4671 2166.2261 3160374
-1019.0815 649.53821 2176.5171 3226167
-1005.7623 649.74323 2177.2041 3226167
-993.15845 650.42242 2179.4797 3226167
-981.00934 651.42242 2182.8308 3357753
-965.93188 650.4787 2179.6685 3554876
-952.27557 650.4787 2179.6685 3686718
-936.93134 649.30896 2175.7488 3883840
-923.29956 649.30896 2175.7488 3884354
-904.23004 645.42749 2162.7424 3753024
-891.57837 646.07867 2164.9246 3489852
-891.76489 656.19678 2198.8291 3686976
-873.77551 653.0481 2188.2781 3555389
-851.14453 646.27454 2165.5808 3358010
-837.57654 646.27454 2165.5808 3226426
-827.98694 649.39484 2176.0366 3292219
-815.24182 650.10333 2178.4106 3226426
-804.94263 652.81958 2187.5125 3489598
-790.00958 651.80676 2184.1187 3423805
-774.82965 650.5509 2179.9104 3621441
-761.17181 650.5509 2179.9104 4016199
-744.89423 648.27094 2172.2705 4016199
-734.63513 651.24139 2182.2241 3687747
-717.80518 648.3891 2172.6665 3687490
-703.57965 647.82465 2170.7749 3687490
-692.93756 650.60236 2180.0828 3687490
-683.53156 654.67578 2193.7322 3161403
-651.93457 637.22589 2135.26 3358525
-644.98059 643.6366 2156.7415 3753283
-631.46796 643.6366 2156.7415 3621697
-616.4668 642.08624 2151.5464 3621697
-603.27258 642.39069 2152.5667 3687490
-589.78607 642.39069 2152.5667 3687234
-573.61066 639.39343 2142.5232 3423805
-558.40961 637.36462 2135.7249 3358522
-542.8775 634.84906 2127.2957 3489852
-533.7926 639.9361 2144.3416 3424059
-521.19202 640.96216 2147.7798 3358266
-508.92673 642.466 2152.8188 3424059
-500.70166 649.29083 2175.688 2897715
-485.10852 646.67572 2166.925 3160887
-472.8313 648.45752 2172.8958 3423546
-455.69528 643.48389 2156.2297 3686718
-440.65948 641.2627 2148.7869 3620925
-432.08844 648.60571 2173.3923 3621181
-417.92712 647.76202 2170.5652 3818561
-403.93805 647.13751 2168.4727 4147783
-390.00079 646.55548 2166.5222 4016196
-375.33981 644.68835 2160.2656 3818817
-360.69608 642.71228 2153.644 3753024
-348.03162 644.24646 2158.7849 3884610
-334.86008 644.92804 2161.0688 3884867
-324.92609 652.16522 2185.3198 4147782
-308.67828 646.80914 2167.3723 4081989
-292.9306 642.0564 2151.4463 4016453
-275.26999 632.44995 2119.2566 3884610
-264.46436 638.41779 2139.2539 3752771
-251.72501 640.10553 2144.9094 4213575
-238.28648 640.10553 2144.9094 3884610
-225.33185 641.48309 2149.5254 3555901
-210.51523 637.39807 2135.8369 3753024
-196.78574 636.27344 2132.0686 3687231
-182.82532 634.18408 2125.0674 4147782
-170.8551 639.21234 2141.9163 3687231
-158.17082 642.19849 2151.9226 3818817
-144.86836 642.99744 2154.5996 3687231
-131.99496 646.06067 2164.8643 3753280
-118.4095 645.94104 2164.4634 3818560
-104.75513 645.36603 2162.5366 3621438
-89.922806 636.28516 2132.1077 3555389
-76.285927 633.97009 2124.3503 3292216
-63.271275 636.94043 2134.3035 3094580
-49.930786 637.34363 2135.6545 3094581
-36.434566 635.32648 2128.8953 2634286
-23.064159 634.44012 2125.9253 3028788
-9.8321743 640.14331 2145.0359 3094581
3.6079178 640.28125 2145.498 2963252
17.079515 641.38483 2149.196 3094581
30.509331 640.638 2146.6936 3028788
43.909672 639.9187 2144.2832 3423546
56.931629 635.3139 2128.8533 3291960
71.017738 642.07831 2151.5198 2897202
84.749779 643.99396 2157.939 3028788
98.326233 644.36298 2159.1753 3028788
111.76151 643.82935 2157.3872 3028788
125.29327 643.90668 2157.6465 3028788
138.91541 644.38824 2159.2603 3094581
152.41618 644.27136 2158.8684 3028788
165.7831 643.65381 2156.7991 3028788
178.54633 640.9621 2147.7795 2765873
192.05391 641.13263 2148.3511 2568237
206.98477 645.72095 2163.7258 3226167
217.91098 638.01996 2137.9209 3028788
233.49646 644.06281 2158.1697 2502444
245.98518 641.36975 2149.1455 2436651
259.83679 642.32526 2152.3474 2831666
273.15802 641.94012 2151.0569 2897202
286.59091 641.84125 2150.7256 2831409
300.9563 643.74585 2157.1077 2502444
317.98065 650.92993 2181.1804 3226167
330.37161 648.4278 2172.7961 3620925
338.43417 637.96448 2137.7349 3423546
351.82773 637.96448 2137.7349 2963252
369.04166 644.63782 2160.0964 3357753
382.57535 644.63782 2160.0964 3423546
395.89273 644.28583 2158.917 3028788
412.02402 648.38525 2172.6536 3620925
425.59259 648.31854 2172.4299 3423546
438.91861 647.89795 2171.0208 3357753
450.27512 644.6828 2160.2471 3094581
465.75381 647.38495 2169.3018 2962995
483.18222 652.5672 2186.6667 2897202
494.07022 648.8739 2174.291 2699823
507.40112 648.5011 2173.0417 2634287
517.98395 644.72723 2160.396 3094581
530.04529 642.93903 2154.4041 2568237
542.58307 641.80322 2150.5981 2634030
561.20734 647.7475 2170.5166 2436907
574.18561 647.0481 2168.1729 2436651
584.82739 643.80884 2157.3186 2634030
594.17883 639.32758 2142.3025 2765616
607.60107 639.32758 2142.3025 2897202
620.29724 638.58014 2139.7979 3094581
634.38245 639.2641 2142.0898 3029045
647.80334 639.2641 2142.0898 3094581
664.60699 642.53461 2153.0488 3094838
680.1134 644.44574 2159.4526 2699823
694.01062 644.78717 2160.5969 2699823
715.3252 651.87506 2184.3474 3094581
728.11206 651.07141 2181.6545 3160374
739.28833 648.88373 2174.324 3160118
752.76227 648.75543 2173.894 3028788
763.27679 646.12646 2165.0847 3226167
774.7276 644.3681 2159.1926 3028788
784.19269 641.04681 2148.0635 2831409
800.56537 643.38904 2155.9119 3094581
817.45215 646.05981 2164.8613 2962995
833.00977 647.61011 2170.0562 2831409
843.08081 644.91364 2161.0205 2831409
850.27032 640.133 2145.0015 3028790
866.24304 642.01086 2151.2937 3226169
886.21429 646.74915 2167.1711 4081478
895.21588 643.45966 2156.1487 4542029
903.6676 639.87878 2144.1494 3291962
922.87109 643.90436 2157.6387 2370860
929.10663 638.89642 2140.8577 2699825
946.72791 641.74896 2150.4163 3291962
960.20099 641.74896 2150.4163 3226169
973.63849 641.72559 2150.3379 3094581
986.56909 641.37329 2149.1575 3094581
998.60205 640.45471 2146.0793 3291960
1011.8095 640.30389 2145.574 3226167
1024.7032 639.961 2144.425 3094581
1037.6017 639.62994 2143.3157 3226167
1050.7205 639.44147 2142.6841 3160374
1068.0723 641.80133 2150.5918 3357753
1072.6854 636.54315 2132.9722 3226167
1087.9604 637.66333 2136.7258 3160374
1099.6893 636.70319 2133.5085 3291960
1131.2142 647.09003 2168.3135 3160374
1150.7307 650.44269 2179.5476 3620925
1156.6776 646.13654 2165.1184 3818304
1149.3652 634.60925 2126.4919 3357753
1161.5575 633.99194 2124.4236 3292217
1170.6967 631.74121 2116.8816 3159348
1204.709 642.81268 2153.9807 2634030
1217.5889 642.48798 2152.8926 2699823
1226.6635 640.18433 2145.1733 3291960
1247.3289 643.91431 2157.6719 3357753
1266.4498 646.77545 2167.2593 3489339
1272.2146 642.82733 2154.0295 3620925
1288.1793 644.06183 2158.1663 3752511
1300.5839 643.50909 2156.3142 3686718
1321.098 646.93903 2167.8074 3620925
1323.5585 641.54828 2149.7437 3489339
1346.3965 646.04388 2164.8079 3555132
1362.9121 647.44641 2169.5076 3423546
1368.4609 643.66296 2156.8298 3160374
1378.2947 641.94928 2151.0874 3160374
1393.955 642.95618 2154.4614 3094581
1407.4534 642.95618 2154.4614 3226166
1408.6039 637.36902 2135.7395 3226168
1421.5111 637.15656 2135.0278 3226170
1450.7728 644.21033 2158.6638 3226166
1464.2975 644.21033 2158.6638 3226168
1472.2368 641.77551 2150.5051 2962995
1496.593 646.47644 2166.2573 3028789
1515.1777 648.62219 2173.4475 3489339
1526.0782 647.4696 2169.5852 3423547
1549.4196 651.56891 2183.3215 3686718
1563.6704 651.80713 2184.1199 3752512
1572.3722 649.74829 2177.2209 3555132
1588.8312 650.90271 2181.0894 3620925
1602.4963 650.90271 2181.0894 3752511
1613.2454 649.72827 2177.1538 3358010
1626.8859 649.72827 2177.1538 3291703
1634.8667 647.48676 2169.6428 3094581
1660.5934 652.2525 2185.6121 3159348
1675.334 652.66034 2186.9788 3554362
1689.036 652.66034 2186.9788 3685691
1698.2789 650.95111 2181.2515 3423290
1710.9254 650.56335 2179.9521 3422776
1722.5066 649.77991 2177.3269 3422776
1739.6837 651.10315 2181.7607 3291190
1757.1003 652.49463 2186.4236 3159604
1773.6663 653.55115 2189.9639 3159604
1796.5565 656.90393 2201.1985 3159604
1806.3539 655.45471 2196.3425 3159604
1811.5566 652.37286 2186.0156 3159604
1826.9867 652.99261 2188.0923 3159604
1840.6958 652.99261 2188.0923 2962225
1861.8433 655.61188 2196.8691 3159604
1885.2357 658.97748 2208.1467 3225397
1884.0933 653.7804 2190.7319 3488569
1903.8445 655.85614 2197.6875 3028018
1917.6136 655.85614 2197.6875 2830639
1931.4298 655.87207 2197.741 2896689
1947.7498 656.73206 2200.6226 3291190
1961.5374 656.73206 2200.6226 3291190
1981.2455 658.7005 2207.2185 3159604
1987.8798 656.32501 2199.2585 3093811
2000.3868 655.90796 2197.8611 2962225
2014.2811 655.94836 2197.9966 2896434
2028.0522 655.94836 2197.9966 2896434
2041.6238 655.88416 2197.7815 2962227
2053.4456 655.26263 2195.6987 3093813
2062.5471 653.78699 2190.7542 3094070
2075.1411 653.4306 2189.5598 2962227
2087.678 653.06104 2188.3215 2896434
2096.9121 651.66998 2183.6602 3028020
2101.5217 648.8689 2174.2742 3093813
2111.5457 647.76495 2170.575 3225399
2124.6689 647.61987 2170.0889 3093813
2136.6321 647.12518 2168.4314 2962484
2147.3523 646.26276 2165.5415 2830898
2154.2175 644.25824 2158.8245 2765105
2162.2275 642.61896 2153.3315 2764848
2169.1895 640.69043 2146.8694 2633519
2180.5437 640.07501 2144.8071 3093813
2237.7119 652.83301 2187.5574 3225399
nan nan nan 16777215
nan nan nan 16777215
nan nan nan 16777215
nan nan nan 16777215
nan nan nan 16777215
nan nan nan 16777215
nan nan nan 16777215
nan nan nan 16777215
nan nan nan 16777215
nan nan nan 16777215
nan nan nan 16777215
-1874.1597 629.6792 2066.8105 3291962
-1864.355 630.74304 2070.3025 3160376
-1859.5902 633.53882 2079.479 3160376
-1854.3387 636.20703 2088.2371 3226169
-1837.0643 634.75897 2083.4839 3160376
-1819.0929 633.04761 2077.8667 3094583
-1810.6014 634.63434 2083.075 3028790
-1797.0104 634.44373 2082.4492 3160633
-1790.4207 636.74017 2089.9871 3423805
-1779.1395 637.38983 2092.1194 3292219
-1764.1471 636.70966 2089.8867 3160633
-1751.0531 636.70966 2089.8867 3160633
-1733.3278 635.01282 2084.3171 3094583
-1721.9589 635.6366 2086.3647 3028790
-1708.0009 635.30701 2085.2827 3160119
-1691.4795 634.01141 2081.0303 2962997
-1672.7076 631.84558 2073.9214 2831411
-1657.7985 631.11646 2071.5281 3094581
-1651.8531 633.81519 2080.3862 3094581
-1630.8755 630.74304 2070.3025 3029045
-1606.4628 626.28253 2055.6616 2765873
-1591.7185 625.54962 2053.2559 2765616
-1572.8456 623.16895 2045.4418 2831409
-1550.6752 619.43201 2033.1759 2897202
-1536.972 619.04346 2031.9006 3028788
-1518.5498 616.73181 2024.3131 2962995
-1505.042 616.39404 2023.2043 2962995
-1489.2949 615.12561 2019.0409 3160117
-1492.0234 621.5318 2040.0681 2765616
-1479.2418 621.5318 2040.0681 2897202
-1455.8807 617.04785 2025.3503 2897202
-1441.2611 616.2226 2022.6416 2765616
-1433.5518 618.36353 2029.6687 2897202
-1419.7781 617.90338 2028.1584 3094581
-1410.4102 619.36975 2032.9716 2831409
-1396.245 618.73694 2030.8945 2765616
-1383.1504 618.57123 2030.3507 2831409
-1370.5248 618.61426 2030.4918 2897202
