# .PCD v0.7 - Point Cloud Data file format
VERSION 0.7
FIELDS x y z rgb
SIZE 4 4 4 4
TYPE F F F U
COUNT 1 1 1 1
WIDTH 1270
HEIGHT 1
VIEWPOINT 0 0 0 1 0 0 0
POINTS 1270
DATA ascii
-348.74255 667.39545 2684.9092 3292219
-330.36179 664.2608 2672.2986 3423805
-313.39365 663.78351 2670.3784 3029560
-296.30396 662.98029 2667.1472 2897974
-276.02426 654.51697 2633.0994 3424575
-262.42569 661.82715 2662.5081 3292732
-245.30615 660.64728 2657.7615 3292732
-228.13174 659.13702 2651.6858 3424062
-211.61777 659.44763 2652.9353 3555904
-194.99631 659.44763 2652.9353 3160377
-177.61485 656.63794 2641.6321 3160633
-161.06421 656.63794 2641.6321 3423804
-144.23131 655.35541 2636.4724 3358012
-127.71299 655.35541 2636.4724 3489342
-111.47702 657.01953 2643.1672 3686721
-95.034233 657.8327 2646.4385 3423805
-77.982162 653.88074 2630.5398 3292219
-61.211742 650.80518 2618.167 3423805
-44.691418 649.11023 2611.3481 3555391
-28.392115 650.52167 2617.0266 3423805
-12.076559 654.91034 2634.6819 3226426
4.4398875 656.29205 2640.2405 3226426
21.071291 659.09082 2651.4998 3292219
37.751545 660.27637 2656.2693 3423805
54.673409 663.66931 2669.9189 3621184
71.256477 662.32343 2664.5046 3621184
88.344994 665.2948 2676.4583 3292219
105.61043 668.43781 2689.1025 3226426
123.17776 672.36395 2704.8972 3489598
142.20921 682.36578 2745.1343 3555391
159.72438 683.71863 2750.5767 3555391
175.76918 679.12695 2732.1045 3555391
193.9604 682.90741 2747.3132 3621184
211.45869 683.83081 2751.0278 3818563
227.50197 680.26422 2736.6797 3753027
245.20297 681.80701 2742.8865 3950149
261.73431 680.10846 2736.053 3752770
279.34863 681.25977 2740.6848 3686977
298.76355 686.41467 2761.4226 3555647
313.08563 679.94476 2735.3945 3489598
334.28558 688.30835 2769.041 3621184
346.27802 677.8233 2726.8599 3555391
361.46429 674.2821 2712.6138 2963254
376.80154 671.32788 2700.7292 3094840
392.7034 669.59033 2693.739 2634289
412.77362 674.81049 2714.7395 2634289
429.12216 673.77393 2710.5696 2700082
445.73923 673.22192 2708.3489 2700082
462.2789 672.59784 2705.8381 2634546
478.13531 671.05896 2699.6472 3029047
495.07547 671.09418 2699.7888 3029047
511.99048 671.09418 2699.7888 3029047
527.68054 669.53992 2693.5361 3094840
544.98285 670.06427 2695.6458 3094841
563.26764 671.72876 2702.3418 3358013
574.99371 665.7027 2678.0991 2831669
598.99841 673.83093 2710.7988 2963254
608.42615 665.56506 2677.5454 3489854
625.20172 665.56506 2677.5454 3423547
639.96051 663.474 2669.1333 3292217
664.06012 670.92694 2699.1162 3555647
685.7373 675.62311 2718.0085 3358012
707.83105 680.49207 2737.5962 3292220
711.02502 667.39069 2684.8899 3555392
727.84668 667.39069 2684.8899 3555391
745.99963 668.58374 2689.6897 3752771
780.59985 684.1391 2752.2681 3818563
780.65723 669.40198 2692.9812 3621441
802.85107 673.86847 2710.95 3818820
827.6875 680.32214 2736.9126 3884867
846.36047 681.55042 2741.854 3818817
859.59076 678.4342 2729.3176 3753024
883.21912 683.48621 2749.6416 3358521
913.2229 693.1842 2788.6562 3753025
930.24329 692.84796 2787.3037 4279114
933.07764 682.15308 2744.2786 4279114
949.92908 681.90729 2743.2898 4542285
958.46497 675.80707 2718.7488 4476750
978.461 677.85925 2727.0046 4476750
1001.2034 681.711 2742.5 4148041
1008.2221 674.90723 2715.1287 3423805
1011.0602 665.57715 2677.5942 3358012
1033.0833 668.97498 2691.2634 3818563
1051.2646 669.8158 2694.6462 3818563
1065.0311 667.86163 2686.7847 4081735
1084.3054 669.36835 2692.8462 4081735
1101.2452 669.40991 2693.0132 3818563
1119.5627 670.27502 2696.4934 3950149
1136.457 670.27502 2696.4934 4015942
1148.9575 667.72144 2686.2205 4015942
1158.9991 663.83331 2670.5786 3950149
1173.951 662.82819 2666.5352 4081735
1189.7902 662.34528 2664.5923 4147528
1208.2994 663.34155 2668.6003 4344907
1226.7305 664.26825 2672.3286 4344907
1257.3291 671.66998 2702.1055 3555391
1275.6674 672.41254 2705.0928 3423805
1290.908 671.52429 2701.5193 3489855
1326.6167 681.16858 2740.3179 3094326
1334.9847 676.7074 2722.3708 2962997
1331.9097 666.63141 2681.8352 3555134
1331.079 657.91577 2646.7727 3489341
1349.7629 658.94153 2650.8992 3226169
1367.7076 659.58575 2653.491 3291962
1386.0126 660.38629 2656.7114 3686720
1386.5984 652.82538 2626.2942 3752513
1423.3778 662.28229 2664.3391 3686720
1443.5236 663.87024 2670.7273 3423548
1451.6534 659.95911 2654.9929 3423548
1463.4553 657.78705 2646.2546 3423548
1471.7655 654.11176 2631.4692 3357755
1495.3677 657.23901 2644.05 3160376
1514.7004 658.44177 2648.8887 3226169
1532.9589 659.15662 2651.7644 3357755
1538.3043 654.36316 2632.4805 3489341
1560.9783 656.96436 2642.9451 3357755
1589.8202 662.07959 2663.5237 3226169
1607.245 662.38336 2664.7456 3226169
1618.307 660.08551 2655.5015 3094583
1641.7863 662.84778 2666.614 3226169
1665.5063 665.65063 2677.8899 3291962
1681.7825 665.45215 2677.0913 3029047
1702.2632 666.90485 2682.9353 2962997
1724.4471 668.98981 2691.3232 2765618
1742.14 669.30896 2692.6072 2831411
1756.5852 668.38635 2688.8955 3423548
1761.4457 663.8689 2670.7219 3423548
1786.5192 666.98273 2683.2488 2634289
1817.7556 672.31805 2704.7124 2765618
1835.4972 672.60962 2705.8855 2831411
1855.0383 673.54926 2709.6658 2765618
1877.464 675.50977 2717.5527 2765618
1895.7734 675.96722 2719.3931 2831411
1904.856 673.15594 2708.0833 2897204
1922.2383 673.30139 2708.6685 2831411
1944.0006 674.96509 2715.3616 2831411
1962.0706 675.32904 2716.8257 2699825
1996.2688 681.19025 2740.405 2634032
1996.0157 675.29578 2716.6919 2634032
2001.351 671.37567 2700.9214 2765618
2011.5685 669.14545 2691.9492 3226169
2042.012 673.62439 2709.968 3620927
2059.4688 673.78082 2710.5972 3752513
2083.8386 676.1778 2720.2402 3752513
2129.802 685.48596 2757.6865 3620927
2147.0154 685.46539 2757.604 3291192
2161.3955 684.54785 2753.9126 3488571
2192.2546 688.82257 2771.1096 3356985
2209.6162 688.82257 2771.1096 3028277
2217.9382 686.02643 2759.8608 2896434
2241.4246 687.9278 2767.51 2764848
2280.6611 694.5968 2794.3391 2896434
2304.78 696.59503 2802.3779 3093813
2329.3767 698.70636 2810.8718 3225399
2346.9878 698.70636 2810.8718 2962227
2364.9309 698.80457 2811.2668 2962227
2387.0076 700.11365 2816.5332 2896434
2401.4602 699.18372 2812.7922 3160119
2400.7935 693.89746 2791.5259 3554877
2422.0496 694.97815 2795.8735 3357755
2436.7314 694.17053 2792.6243 3226169
2458.5371 695.38928 2797.5273 3291962
2473.936 694.7915 2795.1226 3028790
2492.5488 695.09845 2796.3572 2963253
2508.2769 694.60217 2794.3608 3291963
2514.7397 691.56482 2782.1416 3555134
2528.2419 690.49182 2777.8252 3488571
2529.8008 686.19397 2760.5349 3356985
2554.9341 688.30542 2769.0293 3356985
2564.4495 686.20935 2760.5969 3422778
2561.8494 680.92108 2739.3223 3225399
2585.0232 682.50818 2745.7073 3488571
2602.2261 682.50818 2745.7073 3422778
2599.7466 677.37994 2725.0762 3356985
2618.4695 677.80688 2726.7939 3093813
2637.5398 678.31769 2728.8489 3028020
2656.2141 678.72064 2730.47 2830641
2650.4768 672.92078 2707.1372 2698799
2668.5818 673.20935 2708.2981 2566960
2684.0713 672.83868 2706.8069 2698546
2701.0305 672.83868 2706.8069 2304043
2687.1545 665.20551 2676.0989 2369835
2711.6399 667.10437 2683.7383 2238247
2747.6926 671.80817 2702.6614 2107175
2741.8342 666.26978 2680.3806 2698801
nan nan nan 16777215
nan nan nan 16777215
nan nan nan 16777215
nan nan nan 16777215
nan nan nan 16777215
nan nan nan 16777215
nan nan nan 16777215
nan nan nan 16777215
nan nan nan 16777215
-2343.0125 649.40601 2548.6394 3489598
-2327.0444 649.40601 2548.6394 3555647
-2309.2573 648.89484 2546.6333 3818820
-2293.283 648.88947 2546.6121 3818820
-2276.2534 648.58337 2545.4109 3884356
-2260.3057 648.58337 2545.4109 3686977
-2246.5024 649.20319 2547.8433 3818820
-2247.696 654.19659 2567.4404 3818563
-2236.4749 655.62274 2573.0371 3950149
-2195.481 648.27826 2544.2134 4015943
-2199.676 654.26721 2567.7175 4016455
-2183.5884 654.26721 2567.7175 4016712
-2165.26 653.59082 2565.063 3950662
-2142.9792 651.70233 2557.6514 3950662
-2122.5159 650.34229 2552.3137 3424318
-2128.6335 657.16791 2579.1013 3555904
-2126.751 661.60901 2596.5308 3753283
-2110.4829 661.60901 2596.5308 3884869
-2084.5774 658.56433 2584.5818 3687490
-2076.6521 661.19678 2594.9131 3686720
-2054.7021 659.37024 2587.7446 3489598
-2040.0381 659.87122 2589.7107 3423805
-2040.9042 665.44397 2611.5813 3489598
-2032.2687 667.98364 2621.5486 3686977
-2015.8438 667.98364 2621.5486 3358012
-1995.6101 666.71118 2616.5547 3226426
-1972.8148 664.55469 2608.0913 3423805
-1958.3636 665.19641 2610.6099 3686977
-1935.3171 662.90479 2601.6162 3621184
-1931.2229 667.12115 2618.1636 3423805
-1902.5499 662.8465 2601.3875 3752770
-1877.0619 659.61725 2588.7139 3621184
-1853.1176 656.87891 2577.967 3489598
-1835.6848 656.42078 2576.1692 3621184
-1815.6974 655.03296 2570.7227 3621184
-1798.3785 654.59167 2568.9907 3555391
-1795.1971 659.33472 2587.6052 3621185
-1773.265 657.21478 2579.2854 3752770
-1749.5825 654.40112 2568.2429 3621184
-1733.4917 654.40112 2568.2429 3423805
-1716.4904 654.05414 2566.8813 3423805
-1699.6161 653.74957 2565.6858 3423805
-1682.8887 653.49615 2564.6914 3358012
-1664.8617 652.72833 2561.678 3489598
-1645.4343 651.39117 2556.4302 3489598
-1626.8735 650.37421 2552.439 3358012
-1613.0468 651.24829 2555.8694 3358521
-1603.7302 653.97919 2566.5869 3424314
-1594.7003 656.88336 2577.9846 3358266
-1580.2799 657.60388 2580.8125 3424059
-1556.2194 654.28625 2567.7922 3292473
-1542.8634 655.44696 2572.3474 3292473
-1528.3287 656.12604 2575.0125 3160887
-1522.4371 660.56982 2592.4524 2963508
-1510.2415 662.3446 2599.4177 2963508
-1478.5415 655.51093 2572.5984 3226680
-1465.6957 656.97766 2578.3547 3424059
-1444.4951 654.69049 2569.3787 3555645
-1434.6997 657.57922 2580.7156 3424059
-1417.86 657.26825 2579.4951 3226680
-1399.5498 656.26062 2575.5408 3226680
-1382.1028 655.63898 2573.1011 3292473
-1365.7091 655.5083 2572.5881 3095094
-1347.9382 654.70544 2569.4373 3292473
-1330.9021 654.24451 2567.6282 3292729
-1314.6931 654.18378 2567.3899 3226680
-1298.6075 654.18378 2567.3899 3160887
-1281.3385 653.58002 2565.0205 3095351
-1271.7971 656.9527 2578.2568 3029558
-1247.641 652.76581 2561.825 2963508
-1230.7195 652.30426 2560.0137 2963508
-1217.2717 653.69592 2565.4753 3424059
-1204.1809 655.31915 2571.8457 3489852
-1192.1027 657.5448 2580.5806 3555646
-1175.3199 657.20123 2579.2322 3621694
-1158.6416 656.90717 2578.0781 3095093
-1148.0483 660.10352 2590.6226 3424059
-1134.7219 661.79761 2597.271 3490108
-1118.9823 662.1131 2598.509 3161400
-1102.7019 662.1131 2598.509 3292989
-1098.4054 669.41663 2627.1724 3621953
-1085.2546 671.46411 2635.2078 3555904
-1073.5659 674.49347 2647.0969 3819076
-1055.3676 673.46387 2643.0562 4082248
-1046.6416 678.54242 2662.9871 3753283
-1026.7612 676.43689 2654.7239 3753283
-1013.8506 678.92938 2664.5059 4148041
-1009.6899 687.46289 2697.9961 4082248
-988.47473 684.47742 2686.2795 3950662
-969.21069 682.763 2679.551 3819332
-951.44116 682.05951 2676.7903 3555904
-938.35919 684.75146 2687.355 3489855
-920.43933 683.9469 2684.1975 3687233
-903.62201 683.9469 2684.1975 3818563
-882.04114 680.27307 2669.7791 3818563
-863.67633 678.98553 2664.7261 3752513
-846.98102 678.98553 2664.7261 3686977
-826.90588 676.22162 2653.8789 3489597
-810.70221 676.5752 2655.2666 4147013
-799.53949 681.23871 2673.5688 3949634
-785.43097 683.53815 2682.5933 3949633
-766.45441 681.60901 2675.0222 3489339
-749.69458 681.60901 2675.0222 3160374
-724.09406 673.38739 2642.7559 2436651
-705.89172 671.82214 2636.613 3160374
-696.82269 679.08264 2665.1074 3291446
-681.02057 679.97687 2668.6167 3094581
-664.20532 679.87909 2668.2332 3358009
-646.38831 678.72437 2663.7012 3423546
-630.84656 679.96088 2668.554 3357753
-614.24854 680.09509 2669.0808 3291960
-597.508 680.07471 2669.0007 3160374
-579.31659 678.35425 2662.2488 3226167
-564.51837 680.62286 2671.1521 3423802
-547.93396 680.81067 2671.8892 4278855
-521.401 668.2597 2622.6321 4213062
-500.98605 662.98828 2601.9438 3423546
-483.3136 661.11365 2594.5867 3555132
-467.21677 661.33875 2595.4702 3818304
-451.08585 661.53015 2596.2214 3818305
-433.91324 660.15112 2590.8091 3555391
-419.09363 662.38373 2599.5713 3555391
-400.89349 659.23798 2587.2253 3818563
-386.49518 662.34222 2599.4084 3292219
-370.72803 663.27069 2603.0522 3226426
-353.97537 662.44031 2599.7932 3358012
-337.12512 661.33832 2595.4685 3029047
-320.58115 660.75604 2593.1831 3029047
-304.13516 660.32416 2591.4883 3357755
-287.96115 660.46735 2592.0503 3094840
-271.01611 658.75366 2585.325 3489341
-254.48485 657.89178 2581.9424 3160633
-238.8195 659.30341 2587.4822 3094840
-224.55865 665.08026 2610.1541 4081988
-206.77837 660.52234 2592.2661 3818816
-190.31415 659.74976 2589.2341 2963507
-171.28752 649.12256 2547.5269 2832179
-154.83414 647.065 2539.4519 2897971
-138.8607 646.77161 2538.3005 2963764
-122.70025 645.41864 2532.9907 2897715
-107.71317 650.75275 2553.9248 2700592
-92.389954 655.56293 2572.8025 3555388
-74.79734 642.90033 2523.1074 3489597
-58.989288 642.90033 2523.1074 3621184
-42.767879 636.74609 2498.9546 3555391
-27.218952 639.27789 2508.8909 3358012
-11.692374 649.97345 2550.8662 3752770
4.2895937 649.97345 2550.8662 3686977
20.406693 654.30615 2567.8704 3555391
36.716999 658.28278 2583.4768 3489598
53.250656 662.60522 2600.4404 3489598
69.755707 664.6297 2608.3857 3226170
86.31662 666.31702 2615.0076 3358012
103.55402 671.85498 2636.7417 3489598
120.38631 673.60217 2643.5989 3555391
136.93385 673.52637 2643.3013 3752770
153.76779 674.72357 2647.9998 3621184
171.12405 677.75629 2659.9019 3489598
187.71873 677.50208 2658.9043 3292219
204.90594 679.25354 2665.7781 3555391
222.89114 683.18695 2681.2148 3358012
240.23772 684.74866 2687.344 3226426
255.71567 681.12854 2673.1367 3621184
271.8562 679.60999 2667.1768 3226426
288.56689 679.60999 2667.1768 3226426
305.22812 679.49976 2666.7444 3160633
322.65591 681.0191 2672.707 3226426
339.81573 681.85077 2675.9709 3489598
354.71802 678.28741 2661.9863 3029047
372.51624 680.33301 2670.0144 1713187
386.16077 674.94275 2648.8601 2107945
401.4791 672.80176 2640.4575 2765875
418.02237 672.80176 2640.4575 2831668
433.57095 671.26172 2634.4136 2897461
448.29092 668.59888 2623.9629 2963254
464.27951 667.94946 2621.4143 3029047
480.59485 667.79852 2620.822 3226426
496.90967 667.65686 2620.2661 3094840
513.83295 668.31567 2622.8516 3160887
530.23016 668.27057 2622.6746 3160374
544.84113 666.04462 2613.9385 3028788
560.77557 665.51923 2611.8767 2962995
575.90228 664.09216 2606.2761 3094581
588.21075 659.58368 2588.5823 3160374
602.30225 657.26288 2579.4741 2962995
622.98389 662.06683 2598.3276 3489339
642.03589 664.93842 2609.5974 3686718
660.4809 667.05438 2617.9016 3291703
678.76276 668.90692 2625.1721 2766385
696.45459 670.10419 2629.8706 2897971
707.83801 665.31659 2611.0815 3490107
724.1972 665.31659 2611.0815 3950659
748.87384 672.78894 2640.4072 4081735
771.44379 678.08661 2661.1982 4081479
788.117 678.08661 2661.1982 3884357
803.61395 677.09546 2657.3086 3818820
821.56189 678.16785 2661.5171 3818563
837.99573 677.97253 2660.7505 3686978
858.6405 681.12518 2673.1235 3686977
878.27234 683.36914 2681.9299 3950149
890.9693 680.23413 2669.6265 3752770
910.75427 682.52649 2678.623 3884356
927.53668 682.52649 2678.623 3687234
947.27875 684.66577 2687.0186 3358012
958.92511 680.98096 2672.5574 3489599
968.01819 675.64069 2651.5991 3950149
983.42725 674.81445 2648.3564 3489855
992.39185 669.66693 2628.1548 3818564
1008.858 669.66693 2628.1548 4081735
1024.8541 669.35992 2626.95 3884356
1041.1884 669.27991 2626.6357 3818563
1058.2623 669.67059 2628.1689 4147527
1073.839 669.11621 2625.9934 4213577
1084.6989 665.6839 2612.5229 4081735
1100.1694 665.14117 2610.3931 4081735
1118.4937 666.31433 2614.9971 3687234
1128.7781 662.73322 2600.9429 3555391
1161.7545 672.38751 2638.8318 3686977
1170.7375 668.0791 2621.9231 3621441
1187.9924 668.54492 2623.7512 3423805
1197.6617 664.78741 2609.0049 3621184
1218.8293 667.42761 2619.3665 3818563
1229.6487 664.40625 2607.5088 3752770
1254.603 669.0014 2625.5427 3621184
1276.3051 671.76587 2636.3921 3292219
1292.823 671.76587 2636.3921 3226426
1284.172 658.85291 2585.7144 3357755
1304.7581 661.07495 2594.4351 3357755
1322.3922 661.7652 2597.1438 3291962
1327.3737 656.18378 2575.2393 3620927
1331.0496 650.09875 2551.3582 3752513
1346.8726 650.02051 2551.051 3752513
1361.7794 649.50726 2549.0366 3621184
1392.6658 656.539 2576.6331 3884099
1401.0131 652.90582 2562.3745 4081478
1417.7651 653.22736 2563.6365 3489341
1424.7155 649.07629 2547.3452 3489341
1441.1521 649.29108 2548.1882 3357755
1459.4006 650.30847 2552.1812 3291962
1475.5459 650.37683 2552.4495 3555134
1498.6919 653.4964 2564.6921 3291962
1529.7064 659.94434 2589.9976 3160376
1542.8052 658.60889 2584.7566 3226169
1560.9541 659.43457 2587.9971 3423548
1575.8431 658.88037 2585.822 3160376
1586.8817 656.7439 2577.4373 2963254
1607.3301 658.50549 2584.3508 2962997
1626.819 659.84283 2589.5994 3028790
1648.2332 661.92688 2597.7783 3094583
1670.8066 664.43134 2607.6072 3160376
1697.108 668.35529 2623.0071 3291962
1710.8298 667.29742 2618.8555 3423548
1721.2396 664.9801 2609.761 3357755
1747.4717 668.7616 2624.6018 3226169
1755.4025 665.53406 2611.9348 3160633
1767.433 663.90601 2605.5457 3094583
1789.2269 665.94165 2613.5347 2897204
1808.2025 666.901 2617.2996 3094583
1832.3696 669.74054 2628.4436 3094583
1842.7201 667.52448 2619.7466 3028790
1859.8521 667.78241 2620.7588 2962997
1882.4229 669.97156 2629.3503 3028790
1899.7345 670.26721 2630.5105 2963254
1915.2219 669.91974 2629.1467 2897204
1938.9087 672.42163 2638.9658 2962997
1955.4426 672.42163 2638.9658 2963254
1962.9601 669.34717 2626.8997 3028790
1981.3527 670.00116 2629.4666 3226169
1997.827 670.00116 2629.4666 3423548
2024.4977 673.39276 2642.7769 3949892
2087.7476 688.79755 2703.2341 3949892
2089.7947 683.92468 2684.1101 4015171
2107.4717 684.20386 2685.2061 3685950
2118.4097 682.30823 2677.7664 3488571
2135.1865 682.30823 2677.7664 3028020
2154.8186 683.2135 2681.3191 2962227
2169.2896 682.48096 2678.4441 2830641
2188.5891 683.26709 2681.5295 2699055
2215.0952 686.27399 2693.3303 2830641
2247.2693 690.97821 2711.7922 2962227
2257.2646 688.84363 2703.415 2830641
2286.7751 692.65179 2718.3606 2567469
2303.3928 692.52747 2717.8726 2764848
2322.3467 693.10211 2720.1277 2896691
2339.3892 693.10211 2720.1277 3357756
2347.3005 690.4165 2709.5876 3358011
2353.9583 687.40314 2697.7617 3489341
2367.1394 686.32416 2693.5273 3489341
2383.1521 686.07574 2692.5522 3555134
2393.3481 684.16803 2685.0652 3620926
2404.5461 682.57135 2678.7991 3817793
2420.5132 682.34113 2677.8955 3817279
2456.9792 687.85309 2699.5273 3619900
2472.8931 687.57513 2698.4368 3488571
2464.5654 680.60657 2671.0881 3291192
2478.054 679.716 2667.593 3422778
2486.4663 677.45435 2658.717 3225399
2505.2549 678.03113 2660.9805 3291192
2524.1553 678.63025 2663.3318 3291192
2538.7786 678.07916 2661.1689 3291192
2549.6953 676.5517 2655.1746 3225399
2561.3049 675.22681 2649.9749 3028020
2574.2131 674.25903 2646.1768 3028020
2577.1118 670.69867 2632.2039 3028021
2593.6035 670.69867 2632.2039 2961974
2608.645 670.32611 2630.7417 2896435
2647.9958 676.16553 2653.6589 2633263
2639.3918 669.76324 2628.5327 2370346
2645.4836 667.14642 2618.2627 2370092
2667.3562 668.51697 2623.6416 2633008
2685.5828 668.96252 2625.3901 3225145
nan nan nan 16777215
nan nan nan 16777215
nan nan nan 16777215
nan nan nan 16777215
nan nan nan 16777215
nan nan nan 16777215
nan nan nan 16777215
nan nan nan 16777215
nan nan nan 16777215
-2282.6638 648.15375 2482.9944 3489598
-2278.9612 651.54279 2495.9773 3621184
-2257.4558 649.85376 2489.5068 3687234
-2270.0198 658.01703 2520.7793 3950149
-2223.7158 649.1109 2486.6609 3884356
-2203.1584 647.64771 2481.0557 3753027
-2210.5759 654.44562 2507.0977 3818820
-2194.8682 654.44562 2507.0977 3950149
-2167.0403 650.80566 2493.1533 4081735
-2151.4197 650.80566 2493.1533 4016199
-2144.5957 653.48602 2503.4214 3950919
-2123.5957 651.85443 2497.1711 3753283
-2118.6663 655.16827 2509.866 3819076
-2102.0051 654.87665 2508.7488 3753283
-2077.7649 652.20148 2498.5007 3621953
-2066.8149 653.68933 2504.2004 3621697
-2056.9978 655.56085 2511.3699 3687234
-2036.6178 654.06891 2505.6545 3555904
-2026.3832 655.8374 2512.4292 3555391
-2016.9308 657.88861 2520.2874 3423805
-1999.2836 657.2782 2517.949 3489598
-1981.8231 656.71997 2515.8103 3489598
-1971.4318 658.51398 2522.6831 3752770
-1967.001 662.34418 2537.356 3950149
-1943.3691 659.71851 2527.2974 3752770
-1934.0208 661.93842 2535.8015 3423805
-1928.4465 665.4975 2549.4358 3489598
-1907.6698 663.82587 2543.0322 3555391
-1890.6864 663.45721 2541.6199 3555391
-1857.027 657.18091 2517.5762 3818563
-1837.6217 655.88458 2512.6101 3752770
-1824.8444 656.95203 2516.6992 3621184
-1804.3987 655.25323 2510.1917 3752770
-1786.4343 654.43372 2507.052 3621184
-1766.5199 652.87885 2501.0955 3621184
-1750.0675 652.58722 2499.9783 3358012
-1732.8868 652.01617 2497.7908 3555391
-1717.9651 652.29248 2498.8494 3621184
-1703.5145 652.75439 2500.6189 3489598
-1687.257 652.52612 2499.7441 3489598
-1666.7567 650.63727 2492.5083 3555391
-1650.8473 650.52179 2492.0659 3292219
-1633.5348 649.84595 2489.4768 3358012
-1617.701 649.75098 2489.113 3555391
-1600.8204 649.22961 2487.1157 3489598
-1584.5184 648.935 2485.9871 3423805
-1568.7692 648.8631 2485.7117 3489598
-1558.2305 650.96655 2493.7698 3489599
-1555.0969 656.23749 2513.9622 3424059
-1539.3462 656.23749 2513.9622 3160887
-1514.2991 652.23346 2498.623 3160887
-1496.3472 651.23358 2494.7927 3160887
-1481.5868 651.61633 2496.259 3160887
-1467.048 652.10577 2498.134 2963508
-1464.4858 657.98682 2520.6633 3160887
-1456.723 661.63391 2534.635 3292473
-1419.2305 651.70959 2496.6162 3489852
-1407.6804 653.60962 2503.895 3292473
-1391.9928 653.60962 2503.895 3358522
-1375.1284 653.05078 2501.7542 3292473
-1360.0754 653.3493 2502.8977 3292473
-1345.4016 653.83893 2504.7734 3358010
-1322.4257 650.25787 2491.0549 3226679
-1306.7094 650.20361 2490.8469 3292216
-1291.1034 650.20361 2490.8469 3423546
-1278.9961 651.98706 2497.6792 3291961
-1263.9745 652.31073 2498.9192 3028788
-1245.9838 651.09094 2494.2463 3620924
-1232.6198 652.28864 2498.8345 3949890
-1224.7683 656.4718 2514.8596 3555132
-1202.6832 653.03546 2501.6956 3555131
-1188.6096 653.91583 2505.0681 3555131
-1176.8934 656.13409 2513.5659 3620924
-1166.9467 659.41241 2526.1248 3555644
-1143.6897 655.15619 2509.8196 3424059
-1126.5187 654.31622 2506.6018 3226680
-1112.9283 655.56158 2511.3728 3226169
-1100.7561 657.69006 2519.5266 3358012
-1091.5538 661.68079 2534.8145 3292219
-1077.1796 662.60785 2538.366 3160633
-1065.4071 665.18707 2548.2468 3423549
-1054.4529 668.36346 2560.4153 3490368
-1041.2856 670.21368 2567.5032 3490111
-1031.0262 674.02295 2582.0957 3819076
-1015.2728 674.30457 2583.1748 3687490
-1004.0697 677.66656 2596.0542 3753283
-998.43152 684.95703 2623.9829 4279627
-985.97638 687.73657 2634.6309 4082248
-969.46954 687.73657 2634.6309 3489854
-937.61743 676.66211 2592.2061 3489341
-922.92285 677.79779 2596.5566 3752513
-909.81427 680.15991 2605.6057 3621441
-894.72876 681.10333 2609.22 3621184
-875.92755 679.20081 2601.9314 3752770
-859.20282 678.8667 2600.6516 3818563
-847.84875 682.84521 2615.8928 4147528
-826.35895 678.65637 2599.8459 4015942
-814.55225 682.41144 2614.231 3884612
-802.04663 685.72296 2626.9172 3687231
-777.11603 678.32782 2598.5874 3687488
-761.28119 678.72559 2600.1111 3884867
-742.68005 676.62048 2592.0466 4147782
-720.17548 670.78552 2569.6936 3950403
-706.83582 673.41522 2579.7678 3818560
-693.23773 675.91614 2589.3484 3489082
-674.07568 672.98187 2578.1077 3555131
-662.60297 677.76892 2596.4463 3489339
-647.61517 679.1109 2601.5872 3489339
-631.96643 679.81122 2604.27 3423546
-609.93085 673.49628 2580.0781 3028788
-594.33112 674.13727 2582.5339 3226167
-582.56543 679.28503 2602.2542 3884353
-563.19232 675.60327 2588.1499 4213062
-538.73993 665.42938 2549.175 4081475
-521.61505 663.96112 2543.5503 3949889
-506.32413 664.80829 2546.7957 3489339
-487.89664 661.45825 2533.9622 3489083
-472.02057 661.45825 2533.9622 3949889
-455.41547 660.401 2529.9119 3752511
-439.56476 660.401 2529.9119 3884097
-424.01562 660.87097 2531.7124 3621184
-407.47443 659.77118 2527.4993 3555391
-390.9407 658.59503 2522.9934 3226426
-375.29181 658.87317 2524.0591 3489598
-358.5722 657.21338 2517.7004 3423805
-342.85651 657.3255 2518.1301 3555648
-326.55759 656.27631 2514.1108 3555391
-310.80591 656.27631 2514.1108 3621184
-295.39978 657.04498 2517.0554 3490367
-280.3374 658.70801 2523.4263 3424318
-262.41983 653.4599 2503.3215 3226939
-247.88954 656.51569 2515.0278 2963766
-232.85184 658.55127 2522.8257 3226426
-220.55405 669.19653 2563.6064 3094840
-200.53325 656.24078 2513.9746 2765874
-181.95338 646.19373 2475.4856 2634543
-167.20157 649.13605 2486.7573 2700336
-151.56758 648.90619 2485.8767 2700593
-135.48892 646.50189 2476.6663 2897715
-119.93938 646.32697 2475.9961 2897715
-104.61807 647.5127 2480.5386 2897715
-87.645805 637.11102 2440.6912 3423549
-72.354111 637.11102 2440.6912 3686978
-56.845055 634.68408 2431.3936 3884613
-42.17701 643.30774 2464.4297 3292219
-26.736593 643.30774 2464.4297 3226426
-11.394679 648.91736 2485.9194 4015942
4.1945753 651.12122 2494.3623 4608336
19.942123 655.04962 2509.4116 3424061
36.085358 662.78204 2539.0334 3621184
51.731815 659.4502 2526.2695 3489852
67.771568 661.51849 2534.1929 3489596
84.255089 666.31097 2552.5522 3687232
99.622391 662.15527 2536.6323 3686975
116.03444 665.13177 2548.0349 3621437
133.32603 671.82031 2573.6577 3358266
148.73595 668.60687 2561.3477 3226425
165.03769 669.63794 2565.2974 3094840
180.98686 669.18231 2563.552 3226426
198.271 673.33459 2579.459 3094583
214.43213 673.33459 2579.459 2897461
231.98953 677.41187 2595.0784 3160633
249.27367 680.20929 2605.7949 3029047
266.07498 681.42627 2610.457 2502960
279.70712 674.85602 2585.2874 2634289
295.55414 674.0564 2582.2239 2568496
314.36783 679.75458 2604.053 2699825
331.0452 680.49908 2606.905 2568753
347.26157 680.27045 2606.0293 3029047
363.42148 679.95673 2604.8274 3358012
373.56549 668.89807 2562.4631 3160633
391.72617 672.51373 2576.3142 2831668
407.4361 671.80231 2573.5889 2831668
421.9075 669.1806 2563.5454 2831668
436.9993 667.69916 2557.8701 2963254
453.02515 667.69916 2557.8701 2963254
464.9729 661.89386 2535.6309 2963511
480.85938 661.89386 2535.6309 2700339
496.18976 661.15283 2532.792 2831922
511.8537 660.88843 2531.7793 2897715
528.10522 661.37579 2533.6462 3029044
544.21533 661.66278 2534.7456 3094838
557.49481 658.58948 2522.9722 3094324
569.98083 654.77423 2508.3564 2831409
582.85333 651.59576 2496.1802 3357753
601.7785 655.1731 2509.8845 3555132
622.17523 660.1297 2528.8726 3028788
641.1875 663.40753 2541.4294 3160117
661.94287 668.28644 2560.1199 3160887
677.78796 668.09436 2559.384 2963765
689.63733 664.06354 2543.9426 3358266
704.7674 663.30261 2541.0276 3950403
725.17529 667.43286 2556.8501 4147782
743.86591 669.8382 2566.0645 4081736
762.26556 671.88531 2573.9067 4015942
780.23413 673.47546 2579.9985 3818820
796.64288 673.68201 2580.7898 3818563
814.71063 675.25537 2586.8171 3555391
826.67206 671.80499 2573.5991 3489598
840.73077 670.15839 2567.2913 3950149
853.38147 667.47241 2557.0015 3950149
878.72961 674.63361 2584.4353 3818563
896.16608 675.57153 2588.0283 3686977
915.45483 677.84766 2596.7478 3752770
932.00641 678.05286 2597.5339 3686977
946.12518 676.51154 2591.6294 3950149
954.25134 670.80969 2569.7864 3621184
966.48431 668.13599 2559.5437 4213577
982.52063 668.13599 2559.5437 4213320
995.85809 666.3302 2552.626 3818563
1006.995 663.13232 2540.3752 3686979
1025.2219 664.63031 2546.114 3753029
1034.9836 660.67859 2530.9753 3752772
1051.5905 661.14978 2532.7805 3818566
1061.8619 657.68317 2519.5002 4015945
1092.9374 667.01447 2555.2473 3489600
1115.1934 670.77173 2569.6409 3489598
1126.4639 667.90851 2558.6721 3358012
1149.5704 672.04492 2574.5183 3226169
1150.5402 663.30475 2541.0356 2962997
1161.1011 660.25708 2529.3606 3489341
1208.8928 678.17761 2598.012 3818049
1196.6383 662.38422 2537.5093 3620927
1212.1123 662.1524 2536.6213 3752256
1226.2502 661.20618 2532.9966 3686720
1227.8165 653.59204 2503.8276 3160376
1246.8585 655.35529 2510.5825 3291962
1263.5249 655.84155 2512.4453 3489341
1281.0433 656.75262 2515.9355 3818306
1296.8064 656.75262 2515.9355 3620927
1311.2404 656.08752 2513.3877 3357755
1314.8887 650.10571 2490.4719 3555134
1328.2368 649.00366 2486.2502 3489341
1352.3959 653.14838 2502.1279 3489341
1364.5297 651.45691 2495.6482 3160376
1380.1655 651.45691 2495.6482 2897204
1390.3208 648.89886 2485.8486 3094840
1405.3672 648.65503 2484.9148 3226169
1420.4745 648.4444 2484.1077 3357755
1441.6962 650.99921 2493.895 3489341
1456.5143 650.63879 2492.5142 3423548
1485.7625 656.6637 2515.5947 3884099
1503.1791 657.38776 2518.3684 4015685
1514.58 655.49323 2511.1108 3752513
1530.3129 655.49323 2511.1108 3226169
1537.8159 652.00397 2497.7439 2831411
1559.5591 654.56165 2507.542 2831668
1578.2361 655.79431 2512.2642 2962997
1599.903 658.2326 2521.6052 3094583
1618.5099 659.37677 2525.9883 3094583
1644.2758 663.38696 2541.3508 3094583
1668.4584 666.68762 2553.9951 3094583
1679.5922 664.76105 2546.6147 3489341
1695.5476 664.76105 2546.6147 3555134
1686.3669 654.99811 2509.2141 3357755
1711.0347 658.44092 2522.4031 3028790
1726.9001 658.4646 2522.4937 3094840
1742.0166 658.20465 2521.498 3028790
1760.223 659.10651 2524.9529 2962997
1773.3479 658.10645 2521.1218 2962997
1793.1527 659.58118 2526.7712 3028790
1821.4652 664.13208 2544.2053 3226169
1832.4595 662.34436 2537.3567 3094583
1856.8094 665.37329 2548.9602 3028790
1883.6206 669.22498 2563.7156 3160376
1892.0565 666.53827 2553.4231 3160376
1896.7594 662.59259 2538.3076 3291962
1914.3344 663.17175 2540.5264 3160376
1933.4135 664.25806 2544.6877 3028790
1974.9037 672.96338 2578.0369 3423548
1991.056 672.96338 2578.0369 3423805
2017.4346 676.39209 2591.1716 3488828
2026.1497 673.89111 2581.5908 3422778
2042.3241 673.89111 2581.5908 3159606
2059.5195 674.22534 2582.8713 3093813
2096.988 681.13947 2609.3584 3093813
2113.3367 681.13947 2609.3584 2764848
2125.8345 679.9079 2604.6404 2764848
2137.1033 678.30511 2598.5002 2699055
2171.7622 684.09424 2620.6777 2896434
2191.7288 685.20325 2624.926 2765105
2217.2969 688.03381 2635.7695 2699055
2233.8108 688.03381 2635.7695 2765105
2260.5488 691.15973 2647.7449 2830384
2284.2595 693.32135 2656.0256 2896178
2291.2957 690.42731 2644.9387 3290935
2293.1372 686.02063 2628.0576 3620158
2307.3267 685.3446 2625.4678 3751743
2314.9856 682.75201 2615.5359 3686463
2318.5745 679.00403 2601.1777 3620670
2335.0303 679.05011 2601.3542 3555134
2363.2749 682.50018 2614.571 3423806
2386.7422 684.53259 2622.3569 3357499
2377.9343 677.34369 2594.8171 3291192
2390.9878 676.43732 2591.345 3225399
2387.4763 670.88831 2570.0874 2896434
2397.1677 669.09888 2563.2324 2764848
2406.6355 667.27118 2556.2307 3028020
2427.2393 668.53491 2561.072 3093813
2449.7969 670.31671 2567.8977 3093813
2475.7622 673.00153 2578.1829 3159606
2484.8699 671.09875 2570.8936 3093813
2495.9634 669.75323 2565.7393 3093813
2513.5276 670.15039 2567.2605 3093813
2522.5991 668.29242 2560.1428 3027765
2529.5564 665.90137 2550.9832 2961973
2557.7375 669.09247 2563.2078 2961974
2578.907 670.42084 2568.2966 2764594
2592.0728 669.6651 2565.4014 2633008
2627.0364 674.51538 2583.9824 2633008
2675.8918 682.85132 2615.9163 3027766
nan nan nan 16777215
nan nan nan 16777215
nan nan nan 16777215
nan nan nan 16777215
nan nan nan 16777215
nan nan nan 16777215
nan nan nan 16777215
nan nan nan 16777215
nan nan nan 16777215
-2236.0635 650.08032 2432.3044 3621184
-2220.8245 650.08032 2432.3044 3555391
-2210.8525 651.63281 2438.113 3489598
-2195.5769 651.63281 2438.113 3423805
-2173.4016 649.57068 2430.3975 3358012
-2164.4355 651.45508 2437.4482 3423805
-2147.9685 651.09271 2436.0923 3686977
-2142.0627 653.94928 2446.7803 4015942
-2124.9053 653.38733 2444.6777 4081992
-2104.0298 651.66565 2438.2358 4015686
-2092.6663 652.88641 2442.8035 3621184
-2082.4263 654.47821 2448.7593 3292219
-2059.5647 652.09747 2439.8516 3358012
-2041.3989 651.17902 2436.415 3686977
-2026.1339 651.17902 2436.415 3752770
-2017.9825 653.48254 2445.0339 3621184
-2001.2101 653.00824 2443.2593 3555391
-1987.5161 653.53882 2445.2446 3686977
-1972.672 653.69666 2445.835 3555647
-1968.6499 657.47107 2459.9573 3621441
-1952.7834 657.31824 2459.3855 3687490
-1927.316 653.90558 2446.6167 3555391
-1907.1215 652.24146 2440.3904 3884613
-1894.5626 653.18298 2443.9131 4016198
-1899.0103 660.0509 2469.6099 3752770
-1892.9932 663.3645 2482.0078 3621696
-1856.8619 656.09265 2454.7998 3621440
-1840.6199 655.78558 2453.6509 3753026
-1805.8901 648.83093 2427.6296 3884869
-1790.6803 648.83093 2427.6296 3950149
-1783.0653 651.60645 2438.0144 3819077
-1765.9681 650.93469 2435.5012 3753283
-1747.2677 649.65521 2430.7139 3555905
-1744.7726 654.43152 2448.5847 3818563
-1729.4315 654.43152 2448.5847 3818563
-1700.2052 649.13025 2428.7498 3686977
-1684.851 649.07733 2428.5518 3555391
-1673.5497 650.59912 2434.2454 3489599
-1658.1006 650.52142 2433.9548 3424062
-1641.0636 649.81366 2431.3066 3489598
-1624.2345 649.17566 2428.9197 3424062
-1602.6534 646.6084 2419.314 3555390
-1586.328 646.13281 2417.5347 3621440
-1564.215 643.26788 2406.8154 3687232
-1549.8336 643.55786 2407.9001 3621439
-1543.3125 647.14935 2421.3381 3621438
-1526.1503 646.30585 2418.1821 3621438
-1507.5264 644.82025 2412.6235 3358522
-1502.3052 649.09534 2428.6191 3226680
-1481.9658 646.85913 2420.2522 3029557
-1463.9631 645.60712 2415.5676 2963252
-1448.8289 645.60712 2415.5676 3094325
-1436.2233 646.74579 2419.8281 3094581
-1423.1196 647.68219 2423.3315 3028788
-1419.8051 653.14178 2443.759 3160374
-1401.0999 651.56335 2437.8533 3160374
-1389.8641 653.46198 2444.957 2897459
-1366.3927 649.586 2430.4548 3291960
-1349.861 648.95898 2428.1089 3357753
-1337.4602 650.32635 2433.2249 3423546
-1321.4757 649.96252 2431.8638 3489339
-1305.5355 649.61243 2430.5537 3555132
-1293.0494 650.99292 2435.719 3818304
-1275.7837 649.97131 2431.8965 3423546
-1267.8416 653.73254 2445.9692 3028788
-1250.7733 652.82251 2442.5645 3094838
-1240.2438 655.34509 2452.0027 3291960
-1227.8492 656.93304 2457.9441 3884097
-1209.4331 655.29877 2451.8293 3621181
-1198.3452 657.64404 2460.6042 3818560
-1174.5842 653.00488 2443.2468 3753024
-1159.483 653.12122 2443.6821 3358010
-1145.3007 653.76514 2446.0913 3358010
-1128.1183 652.6908 2442.0715 3226680
-1112.4705 652.487 2441.3091 3358266
-1092.6753 649.8111 2431.2971 3095350
-1072.5449 646.85736 2420.2456 2831667
-1077.5677 659.20648 2466.4504 3555391
-1071.8597 665.25488 2489.0806 3160633
-1056.2649 665.25488 2489.0806 3029047
-1040.5782 665.19617 2488.8611 3292219
-1026.255 666.02057 2491.9456 2898230
-1010.6423 666.02057 2491.9456 2897974
-1029.7007 689.22772 2578.7761 3621697
-1004.0912 682.79974 2554.7256 3884868
-971.20813 671.13721 2511.0896 3818819
-964.0246 677.14227 2533.5579 3950405
-955.78699 682.59564 2553.9619 3884612
-932.9787 677.65155 2535.4634 3621184
-908.89844 671.59625 2512.8074 3489598
-898.08551 675.30383 2526.6792 3621184
-887.61597 679.40723 2542.0322 3489598
-876.9425 683.50159 2557.3516 3555391
-849.89301 674.74719 2524.5964 3752770
-834.07568 674.74719 2524.5964 3950148
-823.23572 678.85156 2539.9534 3818306
-802.67401 674.94318 2525.3298 4015686
-784.02539 672.51849 2516.2578 3292219
-772.10345 675.88275 2528.8452 3292474
-761.4137 680.4892 2546.0806 4015942
-736.71802 672.50757 2516.217 4147785
-718.66901 670.37695 2508.2451 4279371
-698.21338 665.85596 2491.3296 4608849
-680.18475 663.49561 2482.4983 4937814
-668.6283 667.48596 2497.4285 2831925
-664.97479 679.74603 2543.3 3686978
-650.96344 681.76031 2550.8364 4147783
-633.99225 680.69794 2546.8616 3753023
-614.51337 676.81885 2532.3477 3687231
-593.97247 671.53345 2512.5723 3489852
-576.75702 669.82233 2506.1699 3818817
-559.01703 667.38916 2497.0662 4279625
-542.54718 666.37585 2493.2749 3818817
-527.39026 666.96295 2495.4714 3884357
-508.68015 662.95502 2480.4758 3884356
-493.1199 662.92914 2480.3789 3357753
-475.17801 659.59552 2467.906 4081732
-458.49731 657.84723 2461.3647 3818304
-442.64572 657.20825 2458.9739 3489339
-426.95416 656.76941 2457.3318 3555133
-411.55823 656.76941 2457.3318 3555134
-398.15884 660.07928 2469.7161 3094840
-381.95068 658.81219 2464.9751 3292219
-366.67892 659.12152 2466.1326 3423805
-349.74503 656.33881 2455.7209 3489854
-336.56079 660.66058 2471.8909 3686977
-319.91721 658.28107 2462.9878 3621184
-304.89359 659.1626 2466.2861 3752770
-289.81311 660.00879 2469.4521 3621697
-273.9584 659.08777 2466.0061 3490111
-257.21988 655.80341 2453.7175 3227195
-241.78421 655.63428 2453.0847 3226683
-227.42245 658.55194 2464.0012 3423806
-211.95581 658.46204 2463.665 3358266
-196.52017 658.46204 2463.665 2963508
-177.6498 645.97253 2416.9351 2634543
-162.22531 644.85303 2412.7463 2897458
-146.95282 644.16974 2410.1897 3029302
-131.50656 642.4809 2403.8708 3029557
-115.84837 639.18591 2391.5425 3160888
-100.93464 639.62964 2393.2026 3357756
-87.459351 650.93414 2435.499 3686977
-72.02211 649.32861 2429.4919 4147528
-55.867298 638.65942 2389.5728 3884356
-41.347507 645.71234 2415.9614 3094840
-26.263037 647.00012 2420.7798 3292220
-11.096098 647.00012 2420.7798 3950150
4.0872588 649.61011 2430.5449 3752770
19.444918 653.96674 2446.8457 2897462
34.775162 653.96674 2446.8457 3292219
50.204159 655.25562 2451.668 3292473
65.783524 657.44336 2459.8535 3160888
81.233284 657.75116 2461.0051 3358010
96.777779 658.60547 2464.2017 3424059
112.79398 661.99323 2476.877 3423803
129.04782 665.78741 2491.0732 3094839
145.01303 667.43457 2497.2361 3160633
160.7683 667.88867 2498.9351 3226426
176.17535 666.94397 2495.4004 3160633
191.61284 666.25903 2492.8379 3226426
210.0145 675.2074 2526.3184 3029047
225.84267 675.2074 2526.3184 2305324
238.41583 666.11316 2492.292 2239531
258.01517 676.56085 2531.3823 2502960
271.19095 669.93018 2506.5735 2765875
286.60944 669.26239 2504.075 2700082
302.2565 669.16998 2503.7292 2634544
318.43491 670.20502 2507.6018 2371373
333.6413 669.19312 2503.8157 2634290
346.90784 664.55603 2486.4658 2502703
362.49438 664.57074 2486.521 2436910
378.07318 664.57074 2486.521 2371117
394.05072 665.24377 2489.0393 2502447
410.00085 665.82123 2491.1997 2502703
427.00208 668.00055 2499.3538 2173994
438.73441 662.07465 2477.1816 2765619
454.2547 662.07465 2477.1816 2765875
468.30984 660.00964 2469.4556 2700082
483.86099 660.1178 2469.8601 2700082
499.33542 660.1178 2469.8601 2831668
514.43402 659.63586 2468.0569 2634286
529.27936 658.86682 2465.1794 2634543
544.37769 658.44727 2463.6099 2634543
557.36707 655.5705 2452.8462 3029301
573.98523 657.00165 2458.2009 3424059
589.56195 657.19708 2458.9321 3358009
608.54382 661.08179 2473.4668 3358010
625.32507 662.4422 2478.5569 3358010
641.58014 663.19281 2481.3652 3292473
657.72577 663.79742 2483.6274 3358266
677.08405 667.54144 2497.636 3753024
691.67609 666.52344 2493.8271 3753024
708.52899 667.68097 2498.158 3753024
721.80109 665.48694 2489.949 3621438
737.46582 665.5451 2490.1665 3686978
756.08252 668.20978 2500.1365 3753027
773.79272 669.98132 2506.7649 3489598
789.49841 669.98132 2506.7649 3423805
814.00104 677.30096 2534.1516 3226426
830.6311 677.91547 2536.4507 3489598
834.8736 668.58643 2501.5459 3818563
844.4162 663.76758 2483.5159 3752770
864.31781 667.11871 2496.0542 3950149
885.47559 671.30292 2511.7097 3752770
900.55688 670.81476 2509.8833 3489598
912.96051 668.38306 2500.7849 3884356
925.15314 665.88147 2491.425 3621184
947.58087 670.70746 2509.4817 2700082
957.54517 666.69812 2494.4807 3292219
973.17389 666.69812 2494.4807 3621184
977.92163 659.36169 2467.031 3621184
993.15161 659.21124 2466.468 3686978
1005.5606 657.22156 2459.0237 3489600
1016.9382 654.62793 2449.3196 3489600
1044.1917 662.17938 2477.5735 3818565
1053.2552 658.14319 2462.4719 3555392
1069.8956 658.88971 2465.2651 3489599
1086.4818 659.58215 2467.856 3884613
1105.2664 661.57104 2475.2974 3884355
1124.2063 663.5965 2482.8757 3489341
1134.2898 660.41034 2470.9546 3489341
1146.2949 658.41357 2463.4836 3357755
1153.3718 653.67694 2445.7612 3423548
1168.8287 653.75153 2446.0405 3555134
1195.611 660.07684 2469.7068 3423548
1203.8336 656.12488 2454.9204 3160119
1211.7346 652.09961 2439.8596 2897204
1225.7678 651.43359 2437.3677 2765618
1246.2303 654.15875 2447.564 2897204
1255.7771 651.15741 2436.3345 3094583
1257.1321 644.03162 2409.6729 3160376
1271.5616 643.6936 2408.4082 3226169
1277.6133 639.17212 2391.4907 2962997
1295.9441 640.82733 2397.6838 3094583
1315.9286 643.25305 2406.7598 2568239
1330.4403 642.97882 2405.7339 2831411
1350.4939 645.35907 2414.6396 2962997
1366.452 645.7511 2416.1064 3160376
1381.5897 645.7511 2416.1064 3226169
1393.3336 644.18207 2410.2358 3160376
1412.5558 646.06708 2417.2886 3094583
1427.7009 646.06708 2417.2886 3357755
1467.5063 657.10931 2458.6038 3686720
1489.7086 660.12183 2469.875 3357755
1505.1831 660.12183 2469.875 2831411
1491.5138 647.4704 2422.5393 2634032
1512.2798 649.87177 2431.5239 2897204
1530.1208 650.98083 2435.6736 3094583
1549.1321 652.56085 2441.5854 3094583
1564.8256 652.72614 2442.2039 3028790
1582.7864 653.82477 2446.3145 2962997
1602.3176 655.54486 2452.7502 2962997
1615.1567 654.52032 2448.917 2765875
1625.7988 652.63324 2441.8562 2765618
1645.4004 654.3443 2448.2583 3160376
1664.401 655.78693 2453.656 3357755
1678.64 655.3443 2451.9998 3226169
1696.3818 656.26471 2455.4436 3028790
1712.1184 656.39984 2455.9492 3094583
1723.1449 654.74286 2449.7495 3028790
1745.931 657.54401 2460.2302 3028790
1767.7968 659.95251 2469.2417 3094583
1791.6617 663.05914 2480.8652 3094583
1802.1094 661.18951 2473.8699 3028790
1816.7039 660.86023 2472.6379 3094583
1834.6929 661.76093 2476.0081 3094583
1844.8149 659.83276 2468.7937 3028790
1866.7538 662.12811 2477.3818 2963254
1870.4628 657.97272 2461.8342 2897204
1917.9501 669.15942 2503.6897 3094583
1936.0051 669.97913 2506.7566 3160376
1953.0364 670.43414 2508.4592 3160376
1970.1532 670.91107 2510.2437 3291192
1979.201 668.65448 2501.8005 3159606
2002.9374 671.35669 2511.9109 2962227
2018.8578 671.41742 2512.1379 3094070
2043.3104 674.29279 2522.8962 3225399
2065.0244 676.22717 2530.134 3028020
2081.9343 676.57098 2531.4204 2962227
2105.6831 679.11511 2540.9395 2896434
2122.9487 679.54596 2542.5513 2830641
2146.8154 682.06757 2551.9861 2896434
2170.9795 684.64569 2561.6323 2830641
2204.5671 690.13605 2582.1746 2501676
2219.8291 689.85132 2581.1094 2567469
2219.9702 684.9057 2562.605 2962227
2227.3943 682.26172 2552.7126 3093813
2244.1997 682.50873 2553.6367 3225399
2256.2644 681.32062 2549.1912 3291192
2268.5615 680.21881 2545.0688 3291192
2271.6021 676.37622 2530.6917 3356985
2287.7913 676.47491 2531.061 3422778
2313.8101 679.45868 2542.2249 3225399
2311.7241 674.20508 2522.5681 3225399
2318.6274 671.62665 2512.9209 3093813
2331.905 670.91699 2510.2659 2830898
2336.6555 667.77985 2498.5281 2633262
2352.3096 667.77985 2498.5281 2962484
2373.5664 669.35986 2504.4397 3225399
2384.2351 667.95282 2499.1753 3028020
2399.8931 667.95282 2499.1753 2896434
2412.1409 667.00977 2495.6467 2830641
2427.7769 667.00977 2495.6467 2896434
2445.4832 667.57495 2497.7612 3028020
2465.8096 668.84363 2502.5081 2962227
2475.3271 667.18286 2496.2944 2962227
2485.1506 665.62494 2490.4653 2962483
2506.1038 667.04889 2495.793 2896434
2526.9641 668.4306 2500.9626 2699056
2543.6199 668.68994 2501.9331 2698800
2562.9861 669.65424 2505.541 2633264
nan nan nan 16777215
nan nan nan 16777215
nan nan nan 16777215
nan nan nan 16777215
nan nan nan 16777215
nan nan nan 16777215
nan nan nan 16777215
nan nan nan 16777215
nan nan nan 16777215
nan nan nan 16777215
-2193.3933 657.02191 2402.261 3489598
-2185.6086 659.21356 2410.2742 3094840
-2165.9028 657.815 2405.1609 2897461
-2157.9172 659.98145 2413.082 3292219
-2142.7986 659.98145 2413.082 3358012
-2106.0498 653.27216 2388.5508 3226426
-2101.7395 656.60077 2400.7212 3029047
-2087.3494 656.80554 2401.47 2963254
-2065.2695 654.57629 2393.3191 3094840
-2049.3579 654.28357 2392.2488 3423805
-2023.4738 650.77924 2379.436 3423805
-2008.5658 650.77924 2379.436 3423805
-1987.0887 648.63489 2371.5957 3621184
-1972.4929 648.72137 2371.9119 3555647
-1962.1099 650.2052 2377.3372 3489599
-1947.2151 650.2052 2377.3372 3490367
-1928.6299 648.96344 2372.7969 3621697
-1911.829 648.30737 2370.3982 3621697
-1900.8525 649.63171 2375.2402 3687490
-1883.1812 648.67072 2371.7266 3753283
-1868.3215 648.67072 2371.7266 3950662
-1850.287 647.55957 2367.6638 4016455
-1854.5901 654.31128 2392.3501 4148041
-1824.1924 648.83063 2372.3113 4345677
-1797.5811 644.61774 2356.9077 4345420
-1785.1425 645.45953 2359.9856 3819076
-1783.2324 650.15399 2377.1499 3950919
-1765.1107 648.96716 2372.8105 4016198
-1750.2444 648.96716 2372.8105 3752770
-1731.2155 647.41058 2367.1191 3621184
-1723.3112 650.02319 2376.6716 3621437
-1709.1521 650.30151 2377.6892 3555644
-1693.5905 650.04633 2376.7563 3489851
-1670.8407 647.00323 2365.6299 3621437
-1658.7639 648.07562 2369.5508 3621438
-1635.7225 644.84479 2357.7378 3358522
-1614.8173 642.40485 2348.8167 3160887
-1595.0345 640.37067 2341.3792 3095094
-1586.6146 642.90302 2350.6382 3358266
-1571.6096 642.78949 2350.2231 3292729
-1556.8848 642.78949 2350.2231 3358266
-1541.5648 642.54138 2349.3162 3555645
-1528.0298 643.03973 2351.1382 3555645
-1512.8196 642.836 2350.3931 3489852
-1505.8179 646.15051 2362.512 3621438
-1492.8287 646.9361 2365.3843 3621438
-1482.0637 648.71088 2371.8735 3226167
-1463.8759 647.23975 2366.4946 3226167
-1449.0491 647.23975 2366.4946 3094838
-1427.5493 644.22839 2355.4841 2962995
-1412.7892 644.22729 2355.4802 2962995
-1398.0314 644.22729 2355.4802 2963252
-1384.1918 644.65497 2357.0439 3094581
-1378.8112 649.07385 2373.2007 3160374
-1357.8346 646.1673 2362.5735 3094581
-1338.2225 643.85321 2354.1125 2831409
-1330.1184 647.08594 2365.9324 3291960
-1319.2992 649.05585 2373.1348 3555132
-1295.9833 644.8526 2357.7666 3489339
-1282.8853 645.69519 2360.8474 3357753
-1282.7012 653.13306 2388.0422 3555132
-1267.7394 653.13306 2388.0422 3752511
-1245.0271 649.09241 2373.2683 3160374
-1252.307 660.77936 2415.9993 2699823
-1218.2024 650.64874 2378.9587 2962995
-1217.4907 658.32324 2407.019 3357753
-1196.7565 655.22797 2395.7017 3423546
-1181.7466 655.22797 2395.7017 3357753
-1162.6594 652.93817 2387.3296 3423546
-1149.3469 653.8739 2390.751 3291960
-1125.1549 648.56317 2371.3335 3489339
-1110.6173 648.74988 2372.0159 3489339
-1096.4175 649.1416 2373.4482 3423546
-1082.9161 649.96326 2376.4524 3358265
-1071.2017 651.89526 2383.5164 3424060
-1060.1572 654.29547 2392.2922 3884611
-1050.0654 657.3609 2403.5005 3884613
-1030.7511 654.65796 2393.6177 3686977
-1021.7793 658.54108 2407.8154 3752770
-1010.2092 660.84082 2416.2241 3753026
-1003.0817 666.16107 2435.6763 3357756
-988.45734 666.58984 2437.2441 3160376
-976.6015 668.92841 2445.7947 3555391
-963.271 670.31549 2450.866 2832181
-947.64423 670.12354 2450.1643 3095097
-942.88824 677.7392 2478.0093 3819076
-927.36273 677.7392 2478.0093 3819076
-909.32703 675.87341 2471.1875 3819332
-889.73846 672.76892 2459.8364 3687746
-878.32111 675.84235 2471.0737 3884869
-863.00867 675.97522 2471.5596 3819076
-853.92719 681.08264 2490.2339 3884869
-840.98688 683.24518 2498.1406 4148041
-805.51093 666.8338 2438.136 4674385
-795.11859 670.95453 2453.2026 4806228
-781.20593 672.20856 2457.7878 4608849
-764.46991 671.03485 2453.4963 4740178
-743.87659 666.35754 2436.3948 4608335
-732.78461 670.17383 2450.3481 4082248
-718.01337 670.71649 2452.3323 4082504
-696.42688 664.77747 2430.6174 4148298
-688.15265 671.56409 2455.4314 4740178
-670.17145 668.97156 2445.9524 4674385
-655.83856 669.98474 2449.6567 3686977
-644.35132 674.02319 2464.4224 3818820
-623.5343 668.2608 2443.3535 3884356
-610.20251 670.4325 2451.2939 3687231
-595.92639 671.65198 2455.7527 3621438
-582.07117 673.4231 2462.2283 3818307
-563.78247 670.02161 2449.7917 3818563
-546.37543 667.50702 2440.5974 3818563
-533.05426 669.98291 2449.6501 3621185
-514.02631 665.22034 2432.2368 3686977
-496.60159 662.30499 2421.5774 3620927
-471.83228 649.10181 2373.3027 3160633
