# .PCD v0.7 - Point Cloud Data file format
VERSION 0.7
FIELDS x y z rgb
SIZE 4 4 4 4
TYPE F F F U
COUNT 1 1 1 1
WIDTH 1297
HEIGHT 1
VIEWPOINT 0 0 0 1 0 0 0
POINTS 1297
DATA ascii
-532.10657 1013.1593 12616.471 3621186
-451.61737 1009.9321 12576.284 3555649
-372.01303 1007.7379 12548.96 3555137
-290.58496 998.10339 12428.986 3620929
-212.7758 998.39581 12432.627 3752771
-133.14847 985.56763 12272.883 3753029
-56.138447 983.52454 12247.44 3752772
20.514496 979.65289 12199.229 3687236
96.196434 972.07391 12104.851 3818565
168.75848 953.54865 11874.163 3818822
236.09537 925.86841 11529.472 3818564
308.33109 925.86841 11529.472 3884356
372.58545 906.45081 11287.672 3884356
437.08655 893.73309 11129.304 3753027
496.69083 875.87976 10906.982 3752770
551.00909 854.15063 10636.399 3687233
597.6637 826.51215 10292.229 3555391
622.33319 776.81464 9673.3643 3621184
657.88184 748.31219 9318.4355 3555391
691.19788 722.12378 8992.3213 3621184
717.17053 692.78912 8627.0283 3621184
741.70868 666.27777 8296.8926 3490111
764.86707 642.08069 7995.5767 3621696
791.88745 623.90125 7769.1948 3555905
824.16443 611.72894 7617.6177 3621699
838.29498 588.15741 7324.0908 3687492
873.19196 580.84637 7233.0498 3687236
885.42578 559.92505 6972.5249 3686984
nan nan nan 16777215
808.30316 465.24582 5793.522 2239286
802.46692 442.03619 5504.5015 331034
824.56189 435.49115 5422.9985 330781
858.53857 435.49115 5422.9985 988712
903.28296 440.74506 5488.4233 857383
934.03113 439.03479 5467.126 791081
961.6095 436.0083 5429.4385 791337
995.10785 435.7811 5426.6094 791082
1026.7273 434.77328 5414.0596 791082
1055.1835 432.53326 5386.1655 791084
1081.5449 429.60013 5349.6396 725548
1117.6094 430.58148 5361.8604 791340
1148.8387 429.69714 5350.8481 726057
1182.9686 429.91708 5353.5869 791594
1216.5105 429.91708 5353.5869 725797
1276.926 439.15942 5468.6782 660259
1318.9484 441.75833 5501.0415 2765889
2694.1909 879.39185 10950.718 3818574
2796.9961 890.27612 11086.256 3686987
2523.9797 783.90869 9761.7041 3753034
2653.29 804.57434 10019.045 3753032
2716.0625 804.57434 10019.045 3687238
2736.7346 792.38477 9867.2529 3555651
2911.9326 824.48633 10267.001 3621444
3072.6184 851.17993 10599.406 3818823
3294.0847 893.22559 11122.983 3950923
3407.9746 904.96277 11269.143 3951178
3559.1489 925.9231 11530.153 3951178
3736.5972 952.74896 11864.205 3951179
3954.3047 988.59314 12310.559 3819849
4172.0479 1023.0746 12739.942 3820106
4444.353 1069.39 13316.69 3820106
4649.4712 1098.1301 13674.579 3820106
4836.7314 1121.6886 13967.943 3820362
5012.6465 1141.8256 14218.7 3622727
5097.9072 1140.9698 14208.045 3820106
5090.1338 1119.6786 13942.913 3754313
5172.0117 1118.4937 13928.158 3754057
5236.3955 1113.6277 13867.564 3885642
5281.7788 1104.9457 13759.45 3951436
5389.3174 1109.3364 13814.127 4083020
5505.1978 1115.2786 13888.121 4214349
5898.9897 1176.4607 14649.998 4148813
6144.7739 1206.7025 15026.588 4017228
6223.2759 1203.6766 14988.907 3951434
5838.0537 1112.3828 13852.062 4016971
5867.978 1101.7068 13719.117 3885642
5916.313 1094.7457 13632.435 3951435
5943.6914 1084.1602 13500.616 3885386
6028.2769 1084.1602 13500.616 4148301
5843.001 1036.2983 12904.612 4214864
5920.085 1035.6393 12896.404 4346197
5972.521 1030.7441 12835.448 4477782
5808.8726 989.18256 12317.897 4609624
5837.3955 981.00616 12216.081 4740956
5771.8462 957.43671 11922.58 4872798
5762.9517 943.74738 11752.112 4938078
5946.2188 961.47516 11972.868 4938078
6192.3022 988.79175 12313.031 4806236
6269.4478 988.79175 12313.031 4806236
6354.4478 990.01562 12328.271 4806236
6554.3657 1008.899 12563.42 4937822
6512.6733 990.58508 12335.363 4937822
6576.0728 988.49786 12309.372 4740699
6687.7393 993.63025 12373.284 4805980
6676.8486 980.6449 12211.582 4739929
6644.0205 964.76825 12013.876 4739929
6732.2573 966.62994 12037.059 4739927
6807.6729 966.62994 12037.059 4279376
6922.0532 972.10187 12105.198 4081741
7430.6069 1032.2112 12853.717 3949899
7369.6367 1012.7653 12611.564 4015691
7461.0571 1014.452 12632.568 3884616
7794.1797 1048.6217 13058.069 3818053
7807.4746 1039.499 12944.47 2897208
7725.064 1017.9526 12676.16 2634549
8208.4268 1070.6396 13332.251 3292222
8965.1016 1157.5544 14414.567 3884359
8994.2891 1149.741 14317.269 3884615
8834.2764 1118.1351 13923.693 4015945
8432.9697 1056.906 13161.23 4015945
8114.8101 1007.1825 12542.044 3950152
8074.5146 992.56964 12360.076 4015945
7736.4937 941.9837 11730.149 3950153
7664.2275 924.40332 11511.229 4081481
7890.3867 942.80914 11740.428 4015945
7805.9185 924.10126 11507.467 3950153
7290.0586 855.13306 10648.633 3818823
7359.0845 855.40143 10651.975 3818566
7425.8228 855.40143 10651.975 3752774
6982.6553 797.18726 9927.0566 3818566
7356.1152 832.40942 10365.665 3818566
7233.79 811.40375 10104.089 3686724
7297.0947 811.40375 10104.089 3620417
7415.7324 817.50348 10180.047 3357502
7783.4512 850.72363 10593.724 3225916
7647.085 828.75177 10320.117 3094330
7089.6533 761.89807 9487.6143 3094330
6749.2637 719.28687 8956.9941 3028537
6423.6782 678.94312 8454.6094 3028537
nan nan nan 16777215
5195.1045 540.18158 6726.667 3159610
5209.4302 537.31232 6690.937 3159609
4791.6724 490.27847 6105.2437 3028024
4507.1167 457.51083 5697.2012 3027767
4034.6738 406.33582 5059.9385 2896438
3959.1216 395.61835 4926.4785 2830901
nan nan nan 16777215
nan nan nan 16777215
nan nan nan 16777215
nan nan nan 16777215
nan nan nan 16777215
nan nan nan 16777215
nan nan nan 16777215
nan nan nan 16777215
nan nan nan 16777215
nan nan nan 16777215
nan nan nan 16777215
nan nan nan 16777215
2968.2141 269.30688 3353.572 2896179
2979.5867 268.43854 3342.7585 2830387
2996.3835 268.06757 3338.1389 2698544
2944.8352 261.6297 3257.9709 1580063
2939.1072 259.3233 3229.25 461582
3034.8743 265.94232 3311.6743 263946
3028.2224 263.55756 3281.9778 329739
3033.2749 262.21674 3265.2812 329226
3034.8665 260.59674 3245.1079 263690
3047.0671 259.9032 3236.4714 263689
3059.8137 259.26508 3228.5254 329483
3055.9119 257.23395 3203.2324 1184535
3034.199 253.73987 3159.7219 2368809
3125.4326 259.6752 3233.6321 3092532
3214.95 265.39233 3304.8257 2303016
3290.1943 269.86566 3360.5303 921620
3361.4983 273.96097 3411.5271 198410
3422.2485 277.14984 3451.2368 263691
3453.1511 277.89661 3460.5361 197898
3458.2139 276.56757 3443.9861 263948
3516.384 279.47586 3480.2021 329484
3556.4297 280.91669 3498.144 527121
3583.1453 281.29343 3502.8352 921878
nan nan nan 16777215
nan nan nan 16777215
nan nan nan 16777215
-8508.9834 769.49591 8892.1387 3292481
-8235.7207 749.69244 8663.2939 3358275
-8181.4434 749.69244 8663.2939 3292481
-8174.0195 754.01453 8713.2393 3292481
-8188.0234 760.38464 8786.8506 3226688
-8145.3872 761.54553 8800.2656 3292482
-8123.1196 764.63947 8836.0186 3292482
-8067.7593 764.63947 8836.0186 3226688
-8056.252 768.82452 8884.3799 3160896
-8031.3594 771.78149 8918.5498 3095100
-8071.9395 781.1156 9026.4131 3095101
-8056.4731 785.11963 9072.6826 3029308
-8049.1465 789.97931 9128.8408 3160893
-8037.3115 794.46301 9180.6533 3226686
-8125.1523 808.93506 9347.8896 3160893
-8375.6543 839.9292 9706.0518 3160893
-8385.1289 847.02911 9788.0967 3095100
-8299.8115 844.58777 9759.8848 3029307
-8184.2188 839.00635 9695.3877 2963514
-8142.75 840.99738 9718.3945 3029307
-8090.9478 841.94281 9729.3203 3029564
-8281.8555 868.35089 10034.486 3029307
-8294.1064 876.28735 10126.198 3095100
-8249.5068 878.29364 10149.383 3095357
-8155.7412 875.05591 10111.969 3029307
-8053.082 870.80579 10062.854 3095100
-8010.7339 873.06165 10088.923 2963514
-7989.7334 877.69855 10142.506 3160893
-7907.7329 875.65497 10118.892 3226687
-7811.3896 871.97742 10076.394 3292482
-7656.6758 861.67078 9957.293 3555397
-7488.7334 849.69403 9818.8916 3556680
-7319.0044 837.31445 9675.8359 3556680
-7116.0649 820.89691 9486.1182 3556423
-6933.3843 806.55963 9320.4395 3425094
-6777.7856 795.15594 9188.6611 3490630
-6585.7822 779.24939 9004.8477 3359301
-6482.3662 773.64038 8940.0312 3227456
-6363.873 766.11853 8853.1104 3293249
-6238.126 757.58356 8754.4814 3293249
-6081.2837 745.08728 8610.0771 3359042
-5911.1274 730.72144 8444.0684 3490885
-5664.3716 706.5415 8164.6504 3359043
-5341.4106 672.32892 7769.2964 3424580
-4972.2646 631.62018 7298.8745 3359043
-4750.8564 609.09686 7038.5996 3424836
-4839.1104 626.22455 7236.5234 3490628
-4762.3228 622.11621 7189.0488 3688264
nan nan nan 16777215
nan nan nan 16777215
nan nan nan 16777215
-2668.8521 362.34824 4187.2227 4412242
nan nan nan 16777215
nan nan nan 16777215
-5366.5503 750.75214 8675.5391 3951179
-5426.0098 766.8371 8861.4141 3951179
-5412.6802 772.86127 8931.0273 3885386
-5397.6592 778.76727 8999.2764 3753801
-5370.4321 783.01831 9048.4004 3490884
-5376.3623 792.24591 9155.0332 3425091
-5386.769 802.33948 9271.6719 3293506
-5354.8213 806.27557 9317.1572 3359042
-5378.7798 818.8092 9461.9932 3490628
-5355.3008 824.32031 9525.6777 3753028
-5300.3081 825.05011 9534.1123 3819335
-5282.7573 831.69128 9610.8555 3819078
-5282.437 841.22961 9721.0781 3950407
-5161.2402 831.51617 9608.832 3884871
-5130.5151 836.32117 9664.3584 3884871
-5082.3184 838.35889 9687.9053 3819335
-5181.1963 865.00012 9995.7656 3753285
-5193.709 877.69806 10142.501 3753541
-5220.0312 893.07318 10320.173 3687492
-5211.3169 902.76471 10432.165 3556163
-5190.606 910.59766 10522.682 3490370
-5133.1064 912.09521 10539.987 3555906
-5095.4185 917.19806 10598.955 3687492
-5104.9717 931.05157 10759.043 3884871
-5061.106 935.40289 10809.326 3884872
-5030.6484 942.38391 10889.997 3753542
-4988.8135 947.3963 10947.919 3490114
-5017.1133 966.05298 11163.512 3358785
-4963.1812 969.17944 11199.641 3226941
-4878.584 966.32166 11166.616 3161146
-4800.4639 964.68219 11147.672 3095354
-4772.2988 973.18146 11245.888 3095610
-4729.2451 978.85382 11311.436 3292732
-4628.0347 972.47833 11237.762 3424319
-4552.4097 971.36517 11224.898 3490112
-4491.3462 973.37292 11248.1 3555648
-4478.3154 986.02032 11394.251 3358782
-4374.8232 978.83728 11311.245 3227455
-4340.1187 987.06195 11406.287 3556421
-4289.2139 991.81604 11461.225 3556421
-4210.6733 990.23267 11442.928 3556933
-4141.4565 990.8252 11449.775 3622726
-4047.5598 985.42999 11387.43 3557191
-3971.4185 984.24152 11373.695 3622727
-3871.7827 977.08057 11290.944 3491141
-3801.0415 977.08057 11290.944 3227969
-3745.4563 981.05048 11336.82 3162176
-3700.3962 987.98395 11416.941 3227713
-3635.2837 989.73126 11437.134 3359554
-3547.3347 985.20654 11384.847 3687750
-3476.0051 985.20654 11384.847 3622212
-3425.0872 991.11304 11453.102 3688006
-3381.0352 999.30164 11547.727 3753798
-3546.8767 1071.2411 12379.045 3556420
-3249.0161 1003.2172 11592.975 3556674
-3176.3826 1003.2172 11592.975 3622211
-3105.8801 1003.906 11600.935 3491138
-3043.6887 1007.3787 11641.063 3687490
-2979.9192 1010.4866 11676.978 3621697
-2931.5349 1019.0995 11776.506 3555904
-2859.4199 1019.6945 11783.382 3555904
-2792.2773 1022.1412 11811.656 3621697
-2725.6826 1024.9271 11843.85 3555904
-2660.0815 1028.2532 11882.284 3687490
-2605.5305 1036.1649 11973.712 3687748
-2568.8687 1051.871 12155.208 3687490
-2498.0264 1054.1134 12181.12 3753283
-2431.5403 1058.3932 12230.577 3753283
-2363.7219 1062.3528 12276.333 3687490
-2289.1084 1063.422 12288.688 3424574
-2228.9314 1071.5056 12382.102 3555904
-2150.6375 1071.1488 12377.979 3621697
-2063.2595 1066.0718 12319.309 3687234
-1989.9357 1068.144 12343.256 3687233
-1946.7284 1087.2031 12563.499 3687234
-1874.2454 1090.8298 12605.408 3687490
-1790.516 1087.9421 12572.038 3687490
-1711.8134 1087.9833 12572.515 3753027
-1636.694 1090.4161 12600.627 3490113
-1556.0809 1089.2498 12587.148 3555135
-1467.6069 1082.1624 12505.249 3555392
-1394.722 1086.4189 12554.437 3555392
-1321.097 1090.5732 12602.442 3358013
-1246.3428 1094.2642 12645.095 3358013
-1171.8284 1098.6813 12696.137 3358013
-1096.8132 1103.2378 12748.792 3489598
-1017.9243 1104.3077 12761.155 3620671
-935.17047 1101.0098 12723.045 3620928
-855.75641 1101.3955 12727.503 3555392
-775.77777 1101.0593 12723.617 3424063
-691.13818 1093.2732 12633.643 4081736
-605.64557 1081.9491 12502.783 3950150
-527.87408 1083.1028 12516.116 4081735
-450.63614 1085.9451 12548.96 4081993
-368.45639 1075.563 12428.986 4147529
-288.42734 1067.5767 12336.7 4147529
-210.0419 1062.0542 12272.883 4016200
-132.0808 1053.5378 12174.47 3884357
-55.917454 1055.6804 12199.229 3752771
20.354029 1047.4227 12103.805 3686979
94.774437 1032.0288 11925.915 3687236
163.51675 995.63403 11505.345 3950151
235.3243 994.46344 11491.817 3884358
301.72073 976.33167 11282.29 3884358
367.358 963.09271 11129.304 3950151
428.35519 943.85382 10906.982 3950151
484.36877 920.43842 10636.399 3884358
537.67719 898.16797 10379.047 3884102
561.72662 837.10059 9673.3643 3752771
599.49896 806.38623 9318.4355 3884613
635.57086 779.03894 9002.416 3884613
668.56366 752.68329 8697.8555 3950405
709.49384 738.56299 8534.6836 3884613
747.35742 723.45337 8360.0801 3884868
748.62939 677.22162 7825.8354 3819077
791.88745 672.32013 7769.1948 3884869
808.48724 646.66376 7472.7153 3687491
835.34351 631.57086 7298.3047 3687493
841.74072 603.37897 6972.5249 3818567
861.32672 586.95654 6782.7505 3949899
775.58746 503.67856 5820.4072 3686730
808.30316 501.35199 5793.522 2107187
802.46692 476.34113 5504.5015 264984
841.04504 478.66931 5531.4058 462109
868.8963 474.9498 5488.4233 922919
904.0213 475.33804 5492.9097 857127
934.03113 473.10678 5467.126 791080
961.6095 469.84546 5429.4385 725287
995.27173 469.67792 5427.5029 856875
1027.1511 468.70801 5416.2944 856875
1057.015 466.90976 5395.5146 856877
1086.9705 465.26224 5376.4761 791340
1118.0885 464.19644 5364.1597 726059
1151.203 463.99747 5361.8604 791594
1183.7832 463.60049 5357.2734 857128
1216.5105 463.28149 5353.5869 726053
1274.4386 472.31924 5458.0254 923687
1308.6348 472.31924 5458.0254 2765886
2694.1909 947.63849 10950.718 3884367
2732.9131 937.38696 10832.254 3818828
2458.3206 822.76984 9507.7617 4015949
2556.9971 835.54901 9655.4346 3884618
2666.4949 851.19183 9836.1992 3884617
2715.5774 847.27789 9790.9717 3950409
2783.4177 849.26013 9813.8779 3885129
2976.2585 888.47192 10267.001 3819593
3151.9497 921.01324 10643.042 3885386
3378.189 966.67072 11170.65 4082765
3517.7168 986.16577 11395.932 4017229
3647.6709 1002.2547 11581.852 3885642
3810.9302 1026.6886 11864.205 3754057
4036.0806 1066.5425 12324.748 3688520
4253.0068 1102.7673 12743.356 3688776
4528.1411 1152.4723 13317.735 3754315
4739.6338 1184.4736 13687.537 3820106
4941.9438 1213.0836 14018.148 3820363
4981.979 1201.5569 13884.947 3820363
5069.481 1201.6775 13886.341 3820106
5142.9878 1198.5325 13849.998 3754570
5195.5713 1190.6968 13759.45 3622984
5094.3799 1148.4506 13271.262 3688520
5177.4023 1148.4226 13270.938 3688520
5401.5181 1179.1974 13626.565 3885900
5592.2114 1201.8315 13888.121 4017742
5746.3276 1216.0317 14052.216 3951692
5800.5742 1208.988 13970.82 3951949
5782.0234 1187.2065 13719.117 3885899
5769.9541 1167.3744 13489.941 3820106
5825.3389 1161.5651 13422.811 3754057
5878.4473 1155.4738 13352.42 3754057
5831.2944 1130.1224 13059.465 3885386
5801.2764 1108.7476 12812.461 3819593
5901.3823 1112.4861 12855.663 3754057
5633.8779 1047.7578 12107.676 3950153
5760.8579 1057.1388 12216.081 3818823
5697.1475 1031.7402 11922.58 3753286
5687.2051 1016.6102 11747.741 3687236
5739.8174 1012.9059 11704.936 3686723
5836.5825 1016.9885 11752.112 3621187
6021.2324 1036.0919 11972.868 3621187
6188.4185 1051.7572 12153.893 3621186
6285.1807 1055.218 12193.886 3753028
6431.6431 1066.8398 12328.185 3884358
6364.0669 1043.1038 12053.896 3884359
6439.5889 1043.1038 12053.896 3818823
6587.1362 1054.6355 12187.154 3884359
6597.9331 1044.2595 12067.25 4081738
6473.2271 1012.9152 11705.043 4410704
6593.6548 1020.2016 11789.242 4476241
6726.0791 1029.162 11892.787 4476497
6851.8887 1036.925 11982.496 4542034
7290.6211 1091.3627 12611.564 4476752
7189.7583 1064.7246 12303.741 4213324
7182.1465 1052.3147 12160.335 4015945
7558.8682 1095.8861 12663.837 4081226
7326.8633 1051.2157 12147.636 4016202
7455.5239 1058.6781 12233.869 3950152
8149.1831 1145.4014 13236.026 3752773
8239.9062 1146.4861 13248.561 3752773
8637.4844 1189.8185 13749.301 3752773
8400.8438 1145.7938 13240.561 3884359
8036.23 1085.3466 12542.044 3884103
7814.1997 1045.1403 12077.429 3950152
7663 1015.0879 11730.149 4015945
7592.1064 996.14319 11511.229 4015945
7395.4507 961.20941 11107.541 4015945
7518.7339 968.12274 11187.43 4081738
7223.3418 921.49701 10648.633 4081738
7062.3955 892.71942 10316.084 4081738
6986.5889 875.12805 10112.803 4081738
7049.9487 875.12805 10112.803 3950409
6945.564 854.49097 9874.3242 3950152
7084.667 863.90942 9983.1611 3884359
7233.79 874.37408 10104.089 4015688
7297.0947 874.37408 10104.089 4015689
7415.7324 880.94714 10180.047 4146761
7783.4512 916.74536 10593.724 4146762
7909.1357 923.67212 10673.768 4147019
7486.353 866.9668 10018.492 4147018
6749.2637 775.10834 8956.9941 4146762
6423.6782 731.63361 8454.6094 4146761
nan nan nan 16777215
5167.5093 579.01129 6690.937 4081225
4753.4209 528.32739 6105.2437 3949639
4405.793 485.78052 5613.5811 3818053
4209.0942 460.41718 5320.4873 3686467
4034.6738 437.87015 5059.9385 3554881
3922.2642 422.35217 4880.6157 3489088
nan nan nan 16777215
nan nan nan 16777215
nan nan nan 16777215
nan nan nan 16777215
nan nan nan 16777215
nan nan nan 16777215
nan nan nan 16777215
nan nan nan 16777215
nan nan nan 16777215
nan nan nan 16777215
nan nan nan 16777215
nan nan nan 16777215
2958.3289 289.24039 3342.4033 3027766
2988.6262 290.14874 3352.8999 3093559
2996.3835 288.87137 3338.1389 2961973
2945.2715 281.97568 3258.4536 1842980
2939.1072 279.44849 3229.25 592654
3041.4644 287.20352 3318.8655 395019
3042.9351 285.39124 3297.9231 395275
3046.4207 283.79111 3279.4326 460299
3029.6653 280.33951 3239.5464 395020
3033.3179 278.80963 3221.8674 329483
3034.4014 277.06543 3201.7119 264203
3055.9119 277.19702 3203.2324 1118742
3012.0317 271.43414 3136.6377 2303016
3124.8845 279.77863 3233.0649 3092532
3233.4854 287.63739 3323.8792 2303016
3294.9849 291.23248 3365.4233 987669
3361.4983 295.22214 3411.5271 263946
3419.634 298.43033 3448.6001 198153
3446.6355 298.89816 3454.0066 263691
3458.2139 298.03104 3443.9861 263692
3507.0642 300.36682 3470.978 197898
3556.4297 302.71768 3498.144 461071
3584.1802 303.21121 3503.8472 855829
nan nan nan 16777215
nan nan nan 16777215
nan nan nan 16777215
nan nan nan 16777215
-7586.2373 740.30353 7980.0908 3423807
-7545.6606 741.229 7990.0669 3292479
-7509.2139 742.5752 8004.5776 3292479
-7501.4448 746.79456 8050.0601 3358015
-7464.3535 748.13196 8064.4771 3226429
-7460.231 752.81464 8114.9536 3226429
-7388.5493 750.69739 8092.1309 3226428
-7262.4727 742.9859 8009.0054 3095099
-7468.2988 769.35864 8293.29 3160893
-7510.6382 779.14117 8398.7402 3095100
-7502.437 783.78168 8448.7627 3226686
-7489.543 787.99445 8494.1738 3291965
-7468.4033 791.39362 8530.8154 3226429
-7452.7295 795.42535 8574.2754 3358015
-7506.4663 806.97748 8698.8008 3095100
-7596.2881 822.60614 8867.2705 2963257
-7585.8008 827.52277 8920.2686 2897464
-7519.8765 826.41974 8908.3789 2963514
-7487.1465 828.97559 8935.9297 3029307
-7468.1626 833.10333 8980.4248 2963258
-7630.6685 857.6933 9245.4922 2897721
-7546.4155 854.71161 9213.3506 2897465
-7474.1294 853.04968 9195.4355 2766135
-7369.0464 847.58954 9136.5781 2831928
-7311.0908 847.50696 9135.6875 2963258
-7258.3306 848.03003 9141.3271 3160893
-7220.6406 850.33636 9166.1875 3160893
-7185.9404 853.03448 9195.2715 3226430
-7169.6455 857.9787 9248.5684 3160893
-7134.1895 860.69183 9277.8145 3160894
-7022.5752 854.18616 9207.6865 3160894
-6849.6294 840.05072 9055.3145 3160894
-6729.9355 832.26483 8971.3857 3226688
-6559.8057 818.05792 8818.2432 3095103
-6401.4526 805.09088 8678.4648 3160896
-6161.3789 781.53589 8424.5537 3160895
-6037.6826 772.46313 8326.7539 3096127
-5861.2163 756.422 8153.8394 3095870
-5646.9565 735.17841 7924.8442 3161663
-5456.3345 716.6626 7725.2534 3293249
-5271.9199 698.63812 7530.9585 3359042
-5165.5913 690.72931 7445.7061 3359042
-5017.8115 677.08331 7298.6089 3424835
-4739.3594 645.3916 6956.9888 3490371
-4523.9194 621.77203 6702.3823 3621957
-4540.8037 629.93994 6790.4277 3753288
nan nan nan 16777215
nan nan nan 16777215
nan nan nan 16777215
-2696.925 388.70871 4190.0796 4280401
-2732.2737 397.67453 4286.7266 4411474
nan nan nan 16777215
-4441.2246 659.3703 7107.6719 3161149
-5204.8462 780.56879 8414.1289 3161149
-5153.9556 780.84552 8417.1123 3161403
-5280.3154 808.2597 8712.623 3292477
-5225.728 808.2597 8712.623 3555134
-5188.0029 810.89526 8741.0332 3423806
-5211.0513 823.18738 8873.5361 3489598
-5155.4556 823.18738 8873.5361 3292732
-5124.4141 827.15076 8916.2588 3424318
-5129.4448 837.08826 9023.3799 3555905
-5108.2896 842.92621 9086.3096 3555391
-5097.6484 850.65027 9169.5713 3555135
-5072.4248 856.08923 9228.2002 3818563
-5059.688 863.78528 9311.1602 3621184
-5083.917 878.04541 9464.877 3424062
-4999.3389 873.62805 9417.2607 3358012
-4900.0181 866.49829 9340.4053 3424062
-4891.3594 875.42224 9436.6006 3489598
-4907.4453 889.04742 9583.4727 3621184
-4879.417 894.91919 9646.7676 3555391
-4885.3687 907.24854 9779.6719 3489598
-4850.6597 912.24438 9833.5244 3423805
-4800.9419 914.50958 9857.9424 3292219
-4735.5186 913.80328 9850.3291 3291963
-4743.6997 927.46918 9997.6396 3358012
-4682.2993 927.71448 10000.284 3621184
-4694.6143 942.77002 10162.574 3686977
-4672.3638 951.20239 10253.472 3686976
-4714.4468 973.14966 10490.052 3621438
-4648.7231 973.14966 10490.052 3358266
-4621.1602 981.25262 10577.397 3292473
-4588.0439 988.39496 10654.389 3358266
-4581.9282 1001.6509 10797.28 3292473
-4525.3945 1004.1171 10823.864 3358009
-4368.6333 984.08093 10607.886 3424059
-4279.4424 978.88196 10551.843 3489596
-4213.332 978.88196 10551.843 3490110
-4291.1245 1012.8478 10917.978 3555904
-4203.3813 1008.2094 10867.977 3621440
-4111.6514 1002.446 10805.852 3753539
-4055.0293 1005.1927 10835.459 3753797
-4003.5029 1009.3175 10879.922 3885638
-3939.9783 1010.5078 10892.753 3951433
-3876.1445 1011.6595 10905.168 4016713
-3804.6299 1010.812 10896.031 3688516
-3660.791 990.36713 10675.647 3754053
-3567.7468 983.15875 10597.945 3819846
-3521.0259 988.68457 10657.51 3622466
-3479.3269 995.86108 10734.869 3556674
-3446.2566 1005.8391 10842.427 3425088
-3394.6531 1010.7004 10894.829 3621440
-3329.304 1011.5847 10904.361 3621697
-3274.7834 1015.8651 10950.502 3687490
-3202.7495 1014.7798 10938.803 3621697
-3136.7241 1015.5923 10947.562 3687490
-3089.4331 1022.6425 11023.559 3621697
-3025.3872 1024.3422 11041.881 3621697
-2936.1924 1017.4072 10967.125 3687490
-2875.3972 1020.2164 10997.406 3884869
-2822.2896 1025.958 11059.298 3753540
-2773.4912 1033.5945 11141.616 3753283
-2709.4824 1035.8105 11165.504 3687747
-2650.9878 1040.3081 11213.984 3555904
-2589.6772 1043.9153 11252.868 3621954
-2533.2109 1049.7318 11315.567 3621697
-2481.1045 1057.7419 11401.913 3687747
-2414.6599 1059.9331 11425.533 3621954
-2333.9001 1055.7826 11380.793 3753283
-2264.4592 1056.6521 11390.165 3753283
-2195.0896 1057.6124 11400.517 3819076
-2133.1021 1062.3137 11451.194 3819076
-2061.689 1062.485 11453.041 3950662
-1986.1818 1060.4825 11431.455 3884869
-1921.9716 1064.5878 11475.708 3819076
-1851.301 1065.2946 11483.326 3621697
-1792.0093 1072.871 11564.996 3621441
-1735.2188 1082.6466 11670.372 3686977
-1663.2875 1083.4199 11678.708 3620928
-1595.6473 1087.1881 11719.327 3752514
-1522.222 1087.1881 11719.327 3752514
-1452.3361 1089.8439 11747.956 3686977
-1374.451 1086.4603 11711.482 4015941
-1304.8914 1089.6473 11745.836 4015942
-1230.3464 1088.8032 11736.738 3818563
-1156.7456 1088.7407 11736.063 3686977
-1083.6106 1089.1378 11740.345 3818563
-1007.7762 1086.682 11713.871 3752770
-932.95081 1085.0138 11695.89 3752770
-858.29102 1083.2704 11677.096 3686977
-785.13873 1083.2817 11677.219 3686977
-710.91846 1081.6708 11659.853 3555391
-634.35425 1075.7159 11595.663 3555391
-556.16827 1065.1146 11481.387 3686977
-485.34357 1067.5557 11507.7 3818563
-413.36111 1067.8575 11510.954 3686977
-336.45081 1052.8662 11349.354 3686977
-265.00006 1051.5031 11334.661 3752770
-192.97668 1046.0381 11275.751 3818563
-122.16074 1044.5856 11260.094 3489599
-51.857147 1049.5317 11313.411 3489600
18.275667 1008.2002 10867.878 3686979
86.366287 1008.2001 10867.877 3489857
151.41962 988.37439 10654.167 3950151
221.51118 1003.5052 10817.269 4015944
281.45004 976.32727 10524.305 4081481
341.8634 960.80029 10356.933 4081737
398.35931 940.97388 10143.213 4016456
449.82724 916.36023 9877.8906 4016457
492.24265 881.48938 9502.001 4016457
544.49103 869.85187 9376.5547 4279629
574.9212 829.01984 8936.4062 4345422
615.11377 808.2627 8712.6553 4214350
655.06598 790.59937 8522.2539 4214350
709.49384 791.7525 8534.6836 4411729
748.78485 777.03601 8376.0479 4477522
748.62939 725.99347 7825.8354 4148557
790.79181 719.74176 7758.4453 3950921
808.48724 693.23492 7472.7153 4016457
812.02441 658.15466 7094.5679 3950665
836.86932 643.08942 6932.1724 4016458
812.49518 593.55463 6398.2129 4015691
824.11444 573.73596 6184.5781 3620937
793.27197 527.46356 5685.7856 2041394
794.69965 505.7034 5451.2222 199448
843.95892 514.91974 5550.5693 593695
881.59521 516.59583 5568.6367 988712
904.14581 509.64087 5493.666 857383
932.98938 506.61313 5461.0283 659495
961.36475 503.55438 5428.0566 659494
995.47357 503.60516 5428.604 791082
1029.4929 503.60883 5428.6436 856876
1058.4019 501.19226 5402.5942 856878
1090.8196 500.53549 5395.5146 856877
1123.0981 499.85632 5388.1938 791596
1156.4717 499.68991 5386.3999 857387
1188.3945 498.92386 5378.1421 923178
1216.1981 496.51837 5352.2124 726053
1262.98 501.78207 5408.9521 1186856
1257.2224 486.44214 5243.5957 2963265
2597.3765 979.37976 10557.209 3950159
2302.5486 846.64984 9126.4492 3622219
2251.1016 807.67548 8706.3252 3819851
2305.6497 807.67548 8706.3252 4016459
2428.4644 831.03693 8958.1494 3950409
2485.3345 831.28601 8960.834 3885128
2615.627 855.53949 9222.2754 3885129
2775.5786 888.23627 9574.7285 3819592
2967.8787 929.68243 10021.498 3622470
3163.0417 970.28973 10459.224 3490626
3315.1677 996.31445 10739.757 3556420
3433.3333 1011.3007 10901.3 3753799
3534.2776 1020.7287 11002.929 3622213
3721.1287 1054.1318 11362.997 3622213
3907.1536 1086.051 11707.07 3621956
4207.3711 1147.9507 12374.316 3424835
4369.2373 1170.5452 12617.873 3424834
4515.6445 1188.2687 12808.923 3688006
4487.2515 1160.1785 12506.125 3885385
4565.6064 1160.1785 12506.125 3951178
4670.605 1166.8347 12577.877 4017228
4696.7324 1153.8931 12438.373 4016971
4746.668 1147.1276 12365.444 4148300
4824.1191 1147.1223 12365.388 3819849
4874.6675 1140.8212 12297.464 3819592
5018.7197 1156.2584 12463.869 3819592
5188.6035 1177.0826 12688.344 3885128
5201.3545 1162.1692 12527.585 3885385
5133.3462 1129.9231 12179.988 3819592
5043.8232 1093.9552 11792.273 3688006
4840.6387 1034.7299 11153.854 3688006
4910.1401 1034.6494 11152.987 3819078
4882.4971 1014.3886 10934.587 3819079
4769.0649 977.11176 10532.761 3884871
4701.0503 950.03058 10240.84 3819078
4610.1113 919.10846 9907.5146 3621956
4656.5278 916.02838 9874.3135 3687492
4903.2573 951.91785 10261.184 3753285
4839.4531 927.37158 9996.5879 3753541
4850.9268 917.69342 9892.2627 3818565
4868.915 909.4765 9803.6885 4081737
4956.2959 914.26495 9855.3047 4081481
nan nan nan 16777215
nan nan nan 16777215
nan nan nan 16777215
5445.708 956.86139 10314.473 3489088
5282.6753 917.32922 9888.3359 3752259
5213.9678 894.90314 9646.5938 3818052
5380.917 912.97461 9841.3955 3686466
5386.9917 903.65045 9740.8857 3423294
5448.021 903.65045 9740.8857 3554880
5728.252 939.60602 10128.469 3620674
5834.4668 946.5426 10203.241 3818052
5991.6074 961.50116 10364.486 3818052
6430.0649 1020.7991 11003.688 3883845
6605.3765 1037.5066 11183.786 3883845
6978.7275 1084.6429 11691.892 3818053
7110.7251 1093.6782 11789.287 3818309
7188.0996 1094.2125 11795.048 3818309
7557.9727 1138.809 12275.773 3818309
7922.459 1181.7031 12738.15 3884101
8007.8887 1182.5332 12747.099 3818309
7709.7266 1127.2609 12151.291 3884103
7332.6323 1061.6415 11443.947 3883846
7086.2559 1016.0354 10952.338 3884102
7059.7583 1002.5281 10806.736 3950152
6865.2588 965.64691 10409.176 3950152
6793.6167 946.57782 10203.621 4015945
6952.8442 959.73236 10345.42 3950152
6697.1567 915.90021 9872.9326 3884360
6620.6089 897.14532 9670.7637 3950152
6954.4834 933.84155 10066.331 4015945
7408.1201 985.81531 10626.581 3950152
7323.603 965.88788 10411.773 3818567
7211.0562 942.64801 10161.26 3752774
7653.4395 991.72198 10690.252 3752773
7899.3374 1014.7051 10937.998 3686980
7585.2339 965.97681 10412.732 3621188
7368.7739 930.40839 10029.323 3621187
7431.6104 930.40839 10029.323 3555394
6660.0859 826.8255 8912.7529 3489602
nan nan nan 16777215
nan nan nan 16777215
4857.4102 588.23376 6340.8569 3687237
4529.2471 544.04358 5864.5093 3818053
4548.0996 541.91193 5841.5312 3883846
4150.3882 490.57635 5288.1602 3818053
4057.5989 475.81033 5128.9902 3818309
3831.1431 445.72525 4804.6885 3752260
3732.4536 430.858 4644.4272 3752260
nan nan nan 16777215
nan nan nan 16777215
nan nan nan 16777215
nan nan nan 16777215
nan nan nan 16777215
nan nan nan 16777215
nan nan nan 16777215
nan nan nan 16777215
nan nan nan 16777215
nan nan nan 16777215
nan nan nan 16777215
2937.3877 310.0708 3342.4033 3290938
2928.0129 306.89331 3308.1516 3356731
2974.0183 309.52423 3336.5115 3422267
2968.4448 306.78775 3307.0137 3356474
2945.2715 302.28287 3258.4536 2501165
2922.5247 297.88351 3211.0308 527375
3048.2871 308.57788 3326.3105 264203
3063.0007 307.96188 3319.6702 395275
3053.8909 304.9751 3287.4741 329739
3012.6621 298.84222 3221.3652 329739
2999.6863 295.57492 3186.1453 264203
3017.6221 295.37659 3184.0073 394762
3031.0959 294.74695 3177.2202 1250328
3010.1667 290.80197 3134.6956 2237223
3137.6753 301.15527 3246.2986 3355704
3268.1416 311.65723 3359.5044 2763567
3294.573 312.16733 3365.0027 1315864
3368.2441 317.11844 3418.3735 460298
3412.2625 319.23291 3441.1663 198410
3438.6697 319.68353 3446.0237 198153
3453.5967 319.06793 3439.3877 263946
3504.4207 321.7558 3468.3616 263946
3554.1777 324.3132 3495.929 395789
3606.168 327.04178 3525.3418 724754
nan nan nan 16777215
nan nan nan 16777215
nan nan nan 16777215
nan nan nan 16777215
-6986.0698 727.53491 7348.7646 3292222
-6959.4229 729.56805 7369.3018 3226686
-6958.9917 734.39514 7418.0596 3292478
-6935.8096 736.86993 7443.0571 3292479
-6906.2637 738.69763 7461.5186 3160893
-6867.6592 739.57465 7470.3774 2963512
-6820.855 739.57465 7470.3774 2963512
-6759.9702 738.03735 7454.8491 3094842
-6891.6079 757.64398 7652.894 3292220
-6915.1929 765.56317 7732.8853 3292219
-6918.9814 771.38715 7791.7124 3226427
-6906.0273 775.41388 7832.3862 3226426
-6893.6885 779.56793 7874.3457 3225912
-6876.917 783.27692 7911.8101 3226169
-6937.2598 795.88678 8039.1812 3160375
-6903.5723 797.81439 8058.6519 3226424
-6998.8242 814.78131 8230.0332 3423805
-7041.1143 825.78857 8341.2158 3358012
-7097.4404 838.6189 8470.8145 3423548
-7097.1982 844.90814 8534.3418 3291705
-7196.1479 863.19122 8719.0176 3160120
-7141.521 863.19122 8719.0176 3028790
-7183.7593 874.98962 8838.1914 3160375
-7058.5352 866.41571 8751.5879 3094583
-7013.5088 867.62866 8763.8398 3160376
-7020.5767 875.35614 8841.8945 3160375
-6992.5762 878.79932 8876.6729 3094584
-6912.7017 875.72595 8845.6299 3160635
-6838.5532 873.33429 8821.4717 3226429
-6753.1509 869.45465 8782.2842 3292221
-6641.6772 862.12732 8708.2705 3226428
-6520.4473 853.40143 8620.1309 3358014
-6402.2505 844.93011 8534.5635 3292221
-6265.7002 833.87354 8422.8818 3292220
-5931.1963 796.06067 8040.9375 3160635
-5880.8174 796.06067 8040.9375 3160378
-5651.4565 771.62335 7794.0981 3095355
-5474.8701 754.02844 7616.3735 3226941
-5299.7544 736.32831 7437.5864 3358270
-5147.187 721.47485 7287.5527 3358527
-4965.6074 702.2525 7093.3896 3358527
-4801.6963 685.20416 6921.186 3161148
-4759.6875 685.39923 6923.1567 3095355
-4627.8115 672.5379 6793.2456 3292734
-4502.541 660.40674 6670.7095 3358270
-4316.0952 638.99127 6454.3936 3161405
-3602.502 538.38922 5438.2212 3161663
nan nan nan 16777215
nan nan nan 16777215
-2750.7805 423.10562 4273.752 4543316
-2731.5054 424.27075 4285.521 4543315
nan nan nan 16777215
nan nan nan 16777215
-4483.9131 717.62555 7248.6714 3227455
-4671.9263 755.36676 7629.8926 3227196
-4861.1509 794.08612 8020.9932 3226939
-4871.4727 804.08484 8121.9893 3424318
-4957.5859 826.93683 8352.8145 3490111
-4919.8374 829.39551 8377.6494 3490111
-4917.7632 837.98602 8464.4219 3555904
-4922.6724 847.96686 8565.2373 3490368
-4882.4858 850.31403 8588.9463 3555904
-4859.1055 855.67291 8643.0762 3621184
-4853.0088 864.23065 8729.5166 3621184
-4851.4849 873.80707 8826.2471 3423805
-4867.4941 886.79865 8957.4736 3357756
-4868.8921 897.40015 9064.5586 3226426
-4871.0415 908.39203 9175.5869 3160633
-4845.0273 914.33167 9235.582 3292219
-4790.355 914.94116 9241.7393 3358012
-4732.8843 915.0246 9242.582 3489598
-4676.8794 915.39709 9246.3438 3621184
-4620.8975 915.78339 9250.2461 3621184
-4577.9824 918.80206 9280.7373 3555391
-4506.0552 916.00073 9252.4414 3686977
-4411.3037 908.42621 9175.9316 3621184
-4295.2134 896.19922 9052.4277 3686977
-4313.9707 912.15741 9213.6211 3752770
-4375.9263 937.80658 9472.7002 3884100
-4354.793 946.10925 9556.5654 3950148
-4314.4448 950.41071 9600.0137 3884610
-4231.2969 945.27222 9548.1104 4015939
-4167.5605 944.38531 9539.1514 4016196
-4122.8447 947.84521 9574.0996 3687230
-4102.979 957.20477 9668.6396 3555388
-3869.4348 916.2478 9254.9365 3687230
-3865.1191 929.14954 9385.2559 3884611
-3971.8989 969.56909 9793.5303 3884613
-3929.5208 974.27521 9841.0674 3753540
-3942.8247 993.15729 10031.793 3819076
-3867.1006 989.86243 9998.5117 3753283
-3755.1252 977.02722 9868.8643 3688003
-3715.5442 982.91327 9928.3193 3753797
-3674.9231 988.72003 9986.9727 3951178
-3585.5371 981.38074 9912.8398 4083021
-3527.6575 982.55817 9924.7324 4082765
-3421.7888 970.17175 9799.6182 4082765
-3354.2798 968.40735 9781.7959 4083019
-3308.3264 972.91644 9827.3418 3951689
-3262.6646 977.68372 9875.4961 3819846
-3179.1465 971.07227 9808.7139 3622724
-3125.5879 973.53156 9833.5557 3425088
-3065.0862 973.88385 9837.1143 3818819
-3003.4536 973.88385 9837.1143 3753283
-2955.4553 978.39752 9882.7061 3753540
-2902.1946 981.32489 9912.2744 3753283
-2840.0911 981.32489 9912.2744 3555904
-2839.98 1003.2237 10133.473 3490111
-2751.5203 994.20117 10042.338 3621697
-2655.7034 982.03583 9919.4561 3490111
-2643.6279 1000.9957 10110.968 3555904
-2582.0615 1001.687 10117.951 3555904
-2519.5325 1002.0303 10121.418 3621697
-2460.3372 1003.7513 10138.802 3556161
-2403.2031 1006.4268 10165.827 3555904
-2355.8784 1013.4677 10236.947 3621697
-2324.6514 1028.0217 10383.956 3687490
-2271.9038 1033.6227 10440.531 3687490
-2209.4912 1035.0283 10454.729 3621697
-2121.6941 1024.2654 10346.013 3687490
-2058.3428 1024.9971 10353.404 3687490
-2012.1184 1034.5829 10450.229 3753540
-1966.9771 1045.389 10559.381 3753540
-1916.7152 1054.1312 10647.686 3753283
-1854.5249 1056.7073 10673.705 3884869
-1798.4647 1063.0995 10738.272 4016455
-1730.0603 1062.4081 10731.289 4016455
-1693.4043 1081.9456 10928.635 3753540
-1631.5112 1086.3254 10972.877 3885126
-1562.3347 1086.028 10969.872 3950662
-1493.6051 1086.028 10969.872 3884869
-1425.344 1086.3851 10973.479 3819076
-1363.0438 1091.5521 11025.67 4015686
-1297.0227 1094.132 11051.729 3950149
-1231.965 1097.8611 11089.396 3950149
-1163.9832 1099.2747 11103.675 4015942
-1094.6354 1099.4958 11105.908 4015942
-1023.8773 1098.2341 11093.165 3950149
-953.68848 1097.444 11085.184 4015942
-884.85944 1098.2172 11092.994 3950149
-814.84027 1097.5194 11085.945 3884356
-736.28204 1084.1184 10950.583 3818563
-669.9422 1087.8026 10987.797 3818563
-603.77618 1092.6451 11036.711 3884099
-523.60638 1070.1204 10809.189 4015942
-446.91699 1049.0728 10596.59 4082248
-373.00513 1028.3384 10387.153 4016456
-307.92642 1028.3384 10387.153 4016458
-245.78961 1040.7959 10512.986 4213837
-178.4575 1032.3215 10427.387 4213836
-111.65858 1018.9244 10292.064 4213837
-46.37635 1001.6616 10117.694 4213580
16.552502 974.48383 9843.1738 3950665
77.43084 964.61481 9743.4873 3753285
136.37814 949.99573 9595.8213 3950408
201.30327 973.22266 9830.4355 4147530
256.47452 949.45807 9590.3916 4213580
312.3649 936.87183 9463.2588 4082508
364.78983 919.56573 9288.4512 4148300
419.00357 910.91052 9201.0254 4082507
468.98694 896.26428 9053.085 4148043
515.73627 879.26477 8881.375 4213836
560.68665 862.80817 8715.1484 4279629
600.64441 842.27124 8507.707 4213836
650.71497 838.10748 8465.6484 4213836
708.53333 843.79803 8523.1289 4345422
735.83124 814.89154 8231.1465 4279629
735.92133 761.61365 7692.9912 4213836
743.37018 722.03314 7293.1924 3950664
763.23676 698.39966 7054.4727 3950664
793.43707 686.29181 6932.1724 3950665
810.0246 664.27722 6709.8052 4081995
829.40137 646.60956 6531.3452 4147535
807.97858 600.29108 6063.4868 3884365
794.09912 563.48529 5691.7144 2041650
808.34882 548.94543 5544.8486 199447
843.08899 548.94543 5544.8486 790564
869.31189 543.61914 5491.0483 922919
902.93494 543.1499 5486.3086 856873
932.25317 540.22052 5456.7192 659494
961.9342 537.70123 5431.272 659497
996.64636 538.07025 5434.9995 659753
1032.1023 538.80322 5442.4028 988461
1061.9467 536.65344 5420.6885 922670
1093.2172 535.33527 5407.374 922927
1126.8186 535.20355 5406.043 857389
1160.2687 535.00964 5404.0845 857387
1189.8337 533.08612 5384.6553 923178
1218.2397 530.76373 5361.1968 594722
1261.4218 534.83087 5402.2788 1318699
nan nan nan 16777215
nan nan nan 16777215
2149.0054 843.27649 8517.8604 3687239
2164.1079 828.62524 8369.8691 3686981
2221.1821 830.35779 8387.3701 3687237
2301.8711 840.63422 8491.1709 3753030
2373.9912 847.38776 8559.3877 3687492
2462.9873 859.73358 8684.0918 3753285
2580.8376 881.40009 8902.9434 3687492
2702.8198 903.53107 9126.4863 3687749
2812.9873 920.8772 9301.6982 3622470
3013.3389 966.44336 9761.958 3556420
3107.2664 976.74298 9865.9932 3622470
3224.0515 993.68585 10037.132 3622213
3381.5962 1022.3025 10326.187 3688006
3550.2815 1053.1494 10637.769 3753799
3731.9019 1086.626 10975.912 3753799
3648.1018 1043.0063 10535.313 3753799
3719.4041 1044.4934 10550.334 3753799
3937.8074 1086.5165 10974.806 3819592
4042.0288 1096.1328 11071.94 3885385
4130.4341 1101.2081 11123.205 3885385
4186.04 1097.5154 11085.904 3951178
4223.6929 1089.313 11003.054 3951178
4298.5127 1090.8057 11018.131 3951178
4414.6597 1102.5729 11136.989 3753799
4500.5415 1106.5325 11176.985 3885385
4607.355 1115.4385 11266.944 3819592
4675.3989 1114.8311 11260.81 3753799
4530.1357 1064.1356 10748.739 3556420
4469.4409 1034.4998 10449.389 3819592
4479.5215 1021.8646 10321.763 3819592
4454.3638 1001.665 10117.729 4016200
4411.7178 978.15472 9880.2539 4016457
4353.4419 951.87775 9614.832 3819078
4280.6201 923.18097 9324.9688 3819078
4209.4761 895.61395 9046.5166 3884871
4387.6572 921.12152 9304.166 3885128
4392.3682 910.02008 9192.0312 3819078
4429.1289 905.76031 9149.0039 3753542
4486.4502 905.76031 9149.0039 3752772
4362.1025 869.5462 8783.208 3884871
nan nan nan 16777215
nan nan nan 16777215
nan nan nan 16777215
nan nan nan 16777215
nan nan nan 16777215
nan nan nan 16777215
4616.2563 845.54169 8540.7412 3949895
4693.8823 849.90826 8584.8477 3818565
4723.02 845.49579 8540.2773 3687236
4829.1318 854.80731 8634.332 3818566
5232.3491 915.92065 9251.6328 3687236
6115.4424 1058.7766 10694.607 3752772
6182.4473 1058.7766 10694.607 3752772
6428.5688 1089.1223 11001.127 3818565
6499.0063 1089.3759 11003.688 3950151
6594.5098 1093.7814 11048.188 4081223
6295.1069 1033.2758 10437.026 3884358
6606.085 1073.1719 10840.014 3884358
6747.7388 1085.0288 10959.779 3818822
6765.5229 1076.9294 10877.968 3950151
6995.0591 1102.3619 11134.859 3884358
6921.8105 1080.047 10909.458 3950151
6907.8765 1067.3331 10781.036 3950151
6982.9214 1068.4805 10792.626 3950151
6895.9839 1045.0581 10556.038 4015944
6892.188 1034.5607 10450.005 4015944
6848.3223 1018.3027 10285.785 4015944
6961.2397 1025.4434 10357.911 4015944
6914.0117 1009.0792 10192.619 4081737
6928.1768 1001.8928 10120.03 3950151
6970.6523 998.89362 10089.735 3950151
7033.8677 998.89362 10089.735 3884358
6847.7437 963.79987 9735.2559 3884358
7099.6577 990.43396 10004.285 3884358
7460.5347 1031.6697 10420.804 3884358
6954.7705 953.38757 9630.082 3818565
6600.6748 897.06433 9061.166 3884358
6565.2393 884.63971 8935.667 3818565
6604.2446 882.37122 8912.7529 3752772
nan nan nan 16777215
nan nan nan 16777215
5095.8892 664.00177 6707.0225 3686979
5022.519 649.08905 6556.3901 3687235
4504.2144 577.38324 5832.0967 3818052
4438.5752 564.39062 5700.8589 3818308
4147.7031 523.19434 5284.7393 3883845
4036.9495 505.19092 5102.8882 3818052
3831.1431 475.66882 4804.6885 3883845
3735.4038 460.16623 4648.0981 4015431
nan nan nan 16777215
nan nan nan 16777215
nan nan nan 16777215
nan nan nan 16777215
nan nan nan 16777215
nan nan nan 16777215
nan nan nan 16777215
nan nan nan 16777215
nan nan nan 16777215
nan nan nan 16777215
nan nan nan 16777215
2928.8015 329.93393 3332.6331 4080455
2933.0354 328.07199 3313.8259 4146248
2980.5479 331.04309 3343.8367 4277833
2924.7207 322.57513 3258.3027 4409419
2892.5706 316.81784 3200.1487 3093559
2862.395 311.35461 3144.9651 790547
3017.1804 325.94754 3292.3667 263946
3066.7073 329.04828 3323.6875 394763
3083.4243 328.6106 3319.2664 395276
3050.8792 322.96396 3262.23 329740
2999.6323 315.42584 3186.0881 198410
3007.4746 314.15982 3173.3003 132360
3005.0781 311.84793 3149.948 1447707
3024.8135 311.84793 3149.948 3092275
3108.3555 318.38354 3215.9636 4276549
3206.4124 326.3121 3296.0493 3421497
3266.1758 330.26709 3335.9983 1448220
3355.5093 337.14279 3405.4492 198410
3411.2405 340.57678 3440.1355 198410
3443.5203 341.64093 3450.8845 198410
3465.1409 341.64093 3450.8845 264203
3513.5989 344.27048 3477.4453 132617
3551.9822 345.8866 3493.7695 395789
3594.5718 347.88998 3514.0056 856340
nan nan nan 16777215
nan nan nan 16777215
nan nan nan 16777215
nan nan nan 16777215
-6517.5425 721.46918 6855.9126 3292221
-6474.5884 721.46918 6855.9126 3358014
-6491.3877 728.17206 6919.6084 3358014
-6488.145 732.70178 6962.6528 3358014
-6448.4316 733.14624 6966.8765 3292221
-6409.4238 733.67761 6971.9258 3292221
-6441.0312 742.35498 7054.3843 3358014
-6458.5156 749.51318 7122.4067 3358014
-6490.9238 758.51508 7207.9487 3358014
-6491.0703 763.84656 7258.6128 3358015
-6468.5557 766.56781 7284.4717 3423808
-6469.3828 772.11359 7337.1714 3423808
-6448.5049 775.12958 7365.832 3292221
-6417.1304 776.9184 7382.8306 3358271
-6506.2295 793.42474 7539.6855 3423551
-6525.7397 801.62421 7617.6025 3489088
-6472.4722 800.93848 7611.0864 3554880
-6491.5078 809.25623 7690.1274 3423038
-6618.3369 831.23682 7899.0024 3489088
-6776.5728 857.52289 8148.792 3291962
-6892.8672 878.86035 8351.5557 3226169
-6855.5718 880.79138 8369.9053 3226169
-6852.9995 887.24768 8431.2578 3291962
-6723.7368 877.27435 8336.4844 3160376
-6644.7007 873.74957 8302.9893 3291962
-6607.9199 875.76953 8322.1836 3291453
-6625.0347 885.02112 8410.0996 3292221
-6553.6758 882.50745 8386.2129 3292221
-6485.6836 880.41022 8366.2832 3160635
-6418.7124 878.41846 8347.3564 3292221
-6291.7842 868.1214 8249.5059 3292221
-6173.0068 858.78754 8160.8096 3423807
-6066.9727 851.08557 8087.6191 3555393
-5783.5254 818.15631 7774.7021 3358014
-5627.7881 802.88739 7629.6064 3555392
-5328.6055 766.71698 7285.8892 3424064
-5164.9512 749.59076 7123.1436 3621699
-5032.1714 736.68585 7000.5122 3621699
-4951.1421 731.19666 6948.3501 3555906
-4778.0098 711.88739 6764.8594 3490113
-4648.5522 698.79797 6640.4751 3424320
-4541.5156 688.87305 6546.1611 3226941
-4500.5024 688.87305 6546.1611 3161148
-4165.9834 643.53424 6115.3198 3358527
-3931.3079 612.92017 5824.4023 3555907
-3684.4683 579.81805 5509.8433 3490371
-3345.0811 531.38812 5049.627 3490628
nan nan nan 16777215
nan nan nan 16777215
-2797.6763 457.40759 4346.6118 4741208
-2770.4434 457.40759 4346.6118 4674902
-2753.8494 459.18152 4363.4688 4017485
nan nan nan 16777215
-3999.1541 680.33362 6465.0132 3227455
-4429.127 761.19 7233.3682 3292735
-4577.9551 794.90112 7553.7153 3226940
-4636.6587 813.50415 7730.4941 3490111
-4392.731 778.84259 7401.1157 3687490
-4346.3608 778.84259 7401.1157 3753283
-4387.0996 794.62036 7551.0474 3753283
-4457.1123 816.10217 7755.1826 3819076
-4495.4292 832.19012 7908.0615 3884869
-4533.9971 848.68347 8064.7935 4082248
-4652.1553 880.6145 8368.2246 4082248
-4610.4141 882.66083 8387.6699 4148042
-4655.3491 901.53967 8567.0703 4213834
-4601.6738 901.53967 8567.0703 4082248
-4581.8423 908.24847 8630.8223 3950661
-4552.3584 913.18127 8677.6973 3819333
-4545.8252 922.8927 8769.9824 3884356
-4508.5352 926.5213 8804.4639 3818563
-4462.6631 928.45422 8822.832 3818563
-4441.6484 935.67206 8891.4209 3686977
-4394.4712 937.49194 8908.7139 3686977
-4324.2856 934.38684 8879.208 3621184
-4228.8535 925.67462 8796.418 3489598
-4173.7417 925.67462 8796.418 3489598
-4184.1001 940.3894 8936.248 3621441
-4143.2944 943.84814 8969.1152 3753283
-4095.6594 945.82471 8987.8984 3884869
-4015.7185 940.29181 8935.3213 4082248
-3950.5393 938.10797 8914.5684 4213834
-3888.3889 936.591 8900.1533 4279627
-3800.2102 928.66937 8824.876 4148041
-3750.9336 930.16071 8839.0479 4213834
-3719.8066 936.26501 8897.0547 4148041
-3675.1526 939.09845 8923.9805 4016455
-3653.5486 948.00043 9008.5732 3884870
-3604.7273 950.00867 9027.6572 4016198
-3548.1665 950.00867 9027.6572 4016968
-3469.8706 944.09503 8971.4609 4214604
-3411.8518 943.59448 8966.7051 4017225
-3375.4287 949.14978 9019.4951 3951432
-3323.1255 950.35291 9030.9277 3951688
-3291.9314 957.73889 9101.1152 3951177
-3239.0596 958.96747 9112.79 3951433
-3182.9375 959.2605 9115.5742 3951433
-3138.9529 963.289 9153.8564 4017225
-3081.6011 963.289 9153.8564 3951432
-3010.8958 959.03564 9113.4375 3688260
-2927.6035 950.53107 9032.6211 3754310
-2861.9136 947.51892 9003.998 3556674
-2803.9607 946.99884 8999.0557 3818819
-2749.0054 947.49054 9003.7285 3884869
-2716.0498 955.7442 9082.1602 3753540
-2658.6514 955.56598 9080.4668 3687747
-2601.7593 955.56598 9080.4668 3621697
-2587.5483 971.59216 9232.7588 3687490
-2557.9062 982.42456 9335.6963 3687490
-2494.4849 980.48663 9317.2803 3555904
-2436.1091 980.48663 9317.2803 3621697
-2339.6912 964.79944 9168.209 3555904
-2279.0471 963.44568 9155.3447 3621697
-2219.6926 962.58118 9147.1299 3621954
-2170.012 965.97717 9179.4014 3621697
-2113.0972 966.25024 9181.9961 3687490
-2086.8477 980.95319 9321.7139 3687490
-2042.8549 987.92212 9387.9375 3621697
-1989.0966 990.44165 9411.8799 3556161
-1940.1841 995.60181 9460.915 3555904
-1893.2915 1002.1564 9523.2021 3555904
-1829.5251 999.91528 9501.9053 3621697
-1771.2244 1000.6109 9508.5156 3555904
-1715.7538 1003.0096 9531.3105 3555904
-1658.1093 1004.2646 9543.2363 3753283
-1619.6754 1017.6841 9670.7578 3687747
-1562.5588 1019.9516 9692.3047 3687490
-1513.3674 1027.7847 9766.7402 3950662
-1451.2388 1027.1215 9760.4385 4016712
-1393.8066 1029.8702 9786.5586 4016712
-1345.1815 1039.6788 9879.7666 4016455
-1317.9763 1067.7874 10146.874 3885126
-1243.4357 1058.4517 10058.159 4081735
-1190.2333 1067.2526 10141.792 3950406
-1079.7687 1022.805 9719.4189 3884356
-1032.2284 1036.2114 9846.8164 4081735
-990.94885 1058.0066 10053.93 4016712
-925.89417 1055.6536 10031.57 3950663
-857.58105 1048.9723 9968.0801 3950919
-793.82245 1047.25 9951.7139 3884872
-735.60455 1053.1669 10007.939 3884872
-658.34619 1030.3857 9791.458 3884872
-606.66949 1047.0753 9950.0537 3950921
-529.57574 1018.6953 9680.3662 4082250
-444.04691 964.64948 9166.7842 4345679
-396.55768 989.45978 9402.5498 4213837
-341.49213 1000.7254 9509.6035 4213837
-283.85101 1007.6103 9575.0283 4279629
-217.7673 980.18439 9314.4082 4279630
-160.21628 985.14423 9361.54 4279630
-99.403816 964.19733 9162.4883 4279629
-43.188255 991.52393 9422.1641 4148043
15.431212 965.65967 9176.3838 3950664
74.634201 988.30481 9391.5742 4016458
135.46411 1003.0304 9531.5078 4015945
191.10814 982.09534 9332.5674 3884615
249.11433 980.26465 9315.1709 3752773
305.61084 974.31592 9258.6416 3752773
344.27148 922.47412 8766.0039 3752773
396.36954 915.94891 8703.9971 3950151
440.50568 894.82861 8503.2969 3752772
487.27832 883.04358 8391.3076 3555393
