# .PCD v0.7 - Point Cloud Data file format
VERSION 0.7
FIELDS x y z rgb
SIZE 4 4 4 4
TYPE F F F U
COUNT 1 1 1 1
WIDTH 1289
HEIGHT 1
VIEWPOINT 0 0 0 1 0 0 0
POINTS 1289
DATA ascii
754.04425 600.53857 1121.9731 3225397
761.992 601.26312 1123.3268 3620155
762.5752 596.21649 1113.8982 3225397
769.62646 596.27252 1114.0029 3093811
776.60602 596.27252 1114.0029 3028018
781.414 594.62006 1110.9156 2962482
789.55994 595.51434 1112.5864 3093811
795.60522 594.82251 1111.2938 3159604
799.79199 592.7652 1107.4502 2830639
809.49823 594.79883 1111.2496 3028018
816.63959 594.92926 1111.4933 3028018
824.55133 595.61389 1112.7725 3028018
830.97162 595.21893 1112.0344 3027761
837.88977 595.18402 1111.9692 3027762
844.6394 595.03094 1111.6833 3093298
850.83148 594.49091 1110.6743 2961712
860.23071 596.18231 1113.8344 2961712
871.31677 599.0061 1119.11 2830126
879.5166 599.81647 1120.624 2895919
891.5351 603.19769 1126.941 2501161
889.44348 597.05414 1115.4631 2369575
896.63422 597.18866 1115.7145 2369575
909.74524 601.23364 1123.2717 2764333
911.06873 597.48627 1116.2705 3159091
916.57599 596.51886 1114.4631 2698540
925.14246 597.54193 1116.3745 3093298
932.1369 597.54193 1116.3745 3422263
934.10242 594.34229 1110.3966 3553849
940.47308 593.97186 1109.7047 3817021
948.43872 594.60699 1110.8912 3619642
956.69757 595.41534 1112.4014 3224884
963.59253 595.36926 1112.3153 3224884
971.05951 595.67468 1112.886 3356470
978.15845 595.75165 1113.0298 3422263
985.74011 596.11945 1113.7169 3619642
993.25842 596.44409 1114.3234 3553849
1003.8522 598.59802 1118.3475 3422263
1013.8226 600.35297 1121.6263 3488056
1026.6729 603.77734 1128.024 3619642
1031.3287 602.36877 1125.3925 3356470
1037.6145 601.92505 1124.5634 3159091
1038.5178 598.38574 1117.951 2961712
1049.3278 600.56384 1122.0203 2830126
1059.9469 602.60443 1125.8326 2632747
1067.0005 602.60443 1125.8326 2961713
1070.0817 600.37561 1121.6686 3159093
1069.4043 596.08087 1113.6449 3356472
1082.4208 599.42529 1119.8932 3158066
1092.4586 601.08765 1122.9989 2565930
1099.4946 601.08765 1122.9989 2237477
1100.1703 597.63269 1116.5441 2106405
1105.9617 596.98273 1115.3297 2172455
1111.3877 596.1449 1113.7645 2237992
1116.4049 595.09973 1111.8118 2171685
1122.4916 594.63397 1110.9417 2237477
1126.251 592.94867 1107.7931 2434600
1132.6552 592.66803 1107.2687 2565929
nan nan nan 16777215
nan nan nan 16777215
nan nan nan 16777215
nan nan nan 16777215
nan nan nan 16777215
nan nan nan 16777215
nan nan nan 16777215
nan nan nan 16777215
nan nan nan 16777215
nan nan nan 16777215
nan nan nan 16777215
nan nan nan 16777215
nan nan nan 16777215
nan nan nan 16777215
nan nan nan 16777215
nan nan nan 16777215
nan nan nan 16777215
nan nan nan 16777215
nan nan nan 16777215
-948.3092 599.41064 1106.9768 3028790
-938.61621 597.65485 1103.7343 3094583
-926.67688 594.43207 1097.7825 4081478
-914.64807 591.10327 1091.6349 4542029
-900.3551 586.25006 1082.6721 4015684
-892.513 585.55536 1081.3892 3094581
-888.67169 587.495 1084.9712 3226167
-882.00067 587.57935 1085.1271 3226167
-875.59283 587.84167 1085.6116 3291447
-869.95386 588.62842 1087.0645 3422776
-866.37244 590.83081 1091.1317 3028018
-862.30176 592.73181 1094.6425 2633260
-856.36615 593.37109 1095.8231 2370088
-848.73334 592.83527 1094.8335 2567467
-849.72418 598.36334 1105.0426 2962225
-843.22205 598.66241 1105.595 2962225
-836.29517 598.66241 1105.595 3028018
-832.55859 600.96527 1109.8479 2634030
-828.19714 602.85211 1113.3324 2634030
-822.91669 604.09625 1115.6301 3226167
-812.18353 601.32483 1110.5118 3555131
-805.85852 601.7973 1111.3844 3686718
-799.73224 602.42767 1112.5486 4015683
-789.39648 599.87036 1107.8258 4081476
-775.21393 594.31848 1097.5728 3818304
-760.99902 588.64233 1087.0901 3160374
-753.94403 588.45178 1086.7383 4015683
-753.69257 593.61639 1096.2761 5265750
-739.28412 587.62329 1085.2081 4542027
-740.11334 593.74298 1096.5099 3423546
-735.28003 595.39215 1099.5555 2962995
-728.74512 595.68164 1100.0902 3357753
-722.66425 596.35132 1101.3269 3555132
-721.35474 601.00934 1109.9292 3028274
-713.1756 599.97864 1108.0258 2830895
-704.65686 598.63928 1105.5522 3226167
-696.23755 597.35852 1103.187 2897458
-690.88708 598.71161 1105.6858 2831409
-682.00061 596.99677 1102.5189 3291960
-673.8808 595.9248 1100.5392 3489339
-667.01801 595.95374 1100.5927 3752511
-659.7677 595.63348 1100.0012 3752511
-652.63147 595.41052 1099.5895 3686719
-644.8819 594.61725 1098.1245 4344650
-638.92395 595.47668 1099.7117 4870994
-627.83496 591.52063 1092.4058 4213064
-623.08881 593.51917 1096.0966 3489341
-617.38763 594.6424 1098.1709 3555134
-610.50726 594.6424 1098.1709 3555134
-603.45032 594.46844 1097.8497 3949892
-600.21869 598.10236 1104.5607 3884099
-593.42438 598.22955 1104.7955 3818306
-588.15503 599.91516 1107.9084 4081993
-581.21368 599.91516 1107.9084 3884356
-575.92554 601.64221 1111.098 3686720
-573.16772 606.08722 1119.3069 3752513
-563.74292 603.50507 1114.5382 4081477
-556.25677 602.95959 1113.5309 4212806
-547.47375 600.97668 1109.8689 3884097
-542.45026 603.12268 1113.8322 3555132
-536.25555 604.00549 1115.4625 3554619
-528.72876 603.39154 1114.3286 3159861
-520.45599 601.89825 1111.5709 3159861
-516.41528 605.32526 1117.8998 3685692
-506.99057 602.44873 1112.5875 3292217
-499.92133 602.33002 1112.3683 3226167
-490.99091 599.93384 1107.943 3489339
-486.90182 603.46924 1114.4722 3620925
-479.91934 603.46924 1114.4722 3949120
-469.31998 598.85413 1105.9491 3620155
-463.0192 599.66791 1107.4519 3422776
-456.62369 600.3819 1108.7705 3620155
-448.88837 599.32916 1106.8263 3620155
-440.44519 597.28339 1103.0482 2962225
-442.06653 609.03833 1124.757 3291190
-432.29843 605.22864 1117.7213 3488569
-422.54578 601.31555 1110.4948 4080706
-416.98972 603.34338 1114.2397 3686205
-413.29599 608.18085 1123.1733 2962995
-409.52551 613.07098 1132.2043 3291960
-398.01743 606.34589 1119.7847 3423546
-388.97476 603.2027 1113.9799 3686718
-382.76709 604.42145 1116.2306 3949890
-376.66016 605.84747 1118.8641 4213062
-373.69861 612.48285 1131.1182 3686718
-366.30396 611.96851 1130.1683 3620925
-359.22308 611.96851 1130.1683 3686718
-348.35098 605.37988 1118.0007 3489339
-340.72375 604.2757 1115.9614 3752511
-331.01825 599.36218 1106.8873 3555132
-324.9111 600.89319 1109.7147 2436651
-314.40298 594.17401 1097.3059 3160374
-310.75986 600.41821 1108.8375 4015683
-303.54239 599.88409 1107.8512 3818304
-296.62033 599.92255 1107.9221 3949890
-290.13477 600.86664 1109.6658 4476490
-282.15945 598.69623 1105.6575 4608846
-271.82782 591.29095 1091.9816 5200726
-262.39774 585.51501 1081.3147 5003348
-258.8252 592.84985 1094.8605 3819074
-252.63608 594.42749 1097.774 3884353
-244.51805 591.42792 1092.2345 4015683
-237.15907 590.14447 1089.8643 3950147
-230.59917 590.83228 1091.1344 3884354
-223.99274 591.43921 1092.2554 3884097
-215.87138 587.95825 1085.8268 3752511
-208.88791 587.45087 1084.8898 3028788
-202.60451 588.94427 1087.6478 3094581
-196.04248 589.70361 1089.05 3620925
-189.16641 589.53894 1088.746 3752511
-182.85585 591.19031 1091.7957 3357753
-175.43515 589.24133 1088.1964 3160374
-167.17755 584.21021 1078.905 3291960
-160.5842 584.81586 1080.0236 4476234
-154.56718 587.66614 1085.2874 4476234
-148.37849 590.09601 1089.7748 3489339
-141.13892 588.37921 1086.6042 3225397
-134.06161 587.19934 1084.4253 3356983
-127.45455 588.06305 1086.0204 3488569
-121.53219 592.36139 1093.9585 3685948
-113.49285 586.23865 1082.6511 3488569
-106.92309 587.41089 1084.8159 3028018
-101.00385 592.55878 1094.323 2830639
-94.370857 593.96411 1096.9182 3225397
-87.498322 593.96411 1096.9182 3093811
-80.647896 594.12695 1097.219 2962225
-73.543579 592.27545 1093.7997 3093811
-66.627281 591.71326 1092.7615 3357239
-59.975979 593.64526 1096.3293 3094068
-52.904194 591.37671 1092.1399 2633516
-45.725979 587.06775 1084.1823 2699309
-38.926224 586.96191 1083.9868 2699310
-32.143867 587.12915 1084.2957 3028531
-25.188879 583.38782 1077.3862 3554361
-18.468025 584.31494 1079.0985 3488569
-11.707137 584.31494 1079.0985 3356983
-4.9181404 580.99426 1072.9658 3225397
1.7962389 578.39105 1068.1583 3356983
8.5270309 581.01093 1072.9966 3093811
15.336525 584.31934 1079.1066 3554362
22.208164 587.24658 1084.5126 3817534
29.080868 588.82385 1087.4254 2764846
35.984863 590.31567 1090.1804 2501674
42.408215 584.70459 1079.818 3159604
48.753658 579.71112 1070.5962 2962225
55.684242 582.04163 1074.9001 3225397
62.709 584.74744 1079.8972 3159604
69.474892 584.74744 1079.8972 3028018
76.435127 586.2381 1082.65 2764846
83.679985 589.49066 1088.6569 2830639
90.736137 591.02386 1091.4883 2764846
97.530518 590.75653 1090.9946 2765103
104.70931 592.7002 1094.5841 3225397
111.18992 590.6958 1090.8824 3356983
116.96453 585.39014 1081.084 3422776
123.61176 584.79364 1079.9824 3620155
131.05443 587.82678 1085.584 2633260
138.3811 590.0661 1089.7195 3291190
144.52516 587.28912 1084.5911 3159604
150.83675 585.4118 1081.124 3093811
156.93327 582.89703 1076.4799 3422776
163.59641 582.6073 1075.9448 3685948
171.63885 587.05823 1084.1647 3159604
178.46124 587.15613 1084.3455 3093811
187.28777 593.59888 1096.2438 2764846
194.33188 594.13641 1097.2365 2501674
201.74046 595.71338 1100.1488 2501418
209.58444 598.42932 1105.1646 2304039
214.70796 593.45233 1095.9731 2501418
221.42722 593.05768 1095.2443 2699053
228.28928 593.05768 1095.2443 2764846
235.51044 593.96338 1096.9169 2699053
242.96701 595.39459 1099.5601 2764846
250.38171 596.64709 1101.8732 3159604
257.28528 596.64709 1101.8732 2830639
262.60046 593.05988 1095.2483 2304295
268.10944 590.08179 1089.7485 2238502
278.17084 597.02228 1102.566 3488569
284.65564 596.13623 1100.9297 3356983
291.1011 595.21155 1099.222 2699309
298.07639 595.388 1099.5479 2896432
305.34494 596.12903 1100.9164 2633517
312.19672 596.04156 1100.7549 2830639
318.45212 594.84387 1098.543 3028018
325.10663 594.42664 1097.7725 2961969
331.98453 594.42664 1097.7725 3159604
340.53912 597.36792 1103.2043 2502444
348.14844 598.56696 1105.4187 2436651
353.46127 595.8479 1100.3972 2634030
358.85254 593.36255 1095.8074 2502444
367.30518 595.93756 1100.5627 3818304
374.20853 595.9502 1100.5862 3357753
383.86212 600.26318 1108.5513 2568494
389.83844 598.77472 1105.8024 2897458
397.18237 599.4021 1106.9611 2700082
404.48862 599.95209 1107.9767 3093813
411.67273 600.30536 1108.6292 2962227
420.52924 603.04517 1113.689 2764848
428.25034 604.09406 1115.626 2699055
437.49094 607.21808 1121.3954 2304297
446.31329 609.67206 1125.9274 2370090
452.18631 608.08362 1122.9938 2172711
459.0817 607.89752 1122.6501 2370090
465.2677 606.79187 1120.6083 2238504
471.3147 605.54053 1118.2974 2567725
483.74915 612.41223 1130.9878 2633518
491.12723 612.77661 1131.6608 2304043
499.9895 614.95618 1135.6859 3422524
506.70276 614.46844 1134.7852 3554109
513.32349 613.88361 1133.7051 3356473
525.22797 619.54736 1144.1648 2830385
531.61646 618.63959 1142.4883 2172967
539.98926 620.03442 1145.0642 2370089
549.41553 622.58643 1149.7772 2435882
556.01587 621.91156 1148.5309 2567212
563.21179 621.91156 1148.5309 2633262
579.87012 632.22833 1167.5837 2699055
578.74597 623.14154 1150.8025 2764848
582.94629 619.94073 1144.8912 3225399
586.44598 616.08173 1137.7645 3488571
595.14948 617.71649 1140.7836 2764848
598.05579 613.36688 1132.7509 2041126
599.45984 607.59656 1122.0944 1646624
603.78302 604.88452 1117.0858 1514782
606.51147 600.65533 1109.2755 1514782
610.14172 597.40491 1103.2727 2041124
617.89612 598.22015 1104.7783 2238503
626.79388 600.112 1108.2721 1843744
632.6579 599.08966 1106.384 1712161
639.31702 598.83423 1105.9124 2172711
647.32953 599.83838 1107.7667 2370090
654.44122 599.9953 1108.0565 2172711
660.1084 598.83856 1105.9203 2106919
667.32153 599.09363 1106.3914 2238505
678.31879 602.70587 1113.0624 2304298
686.33075 603.61902 1114.7488 2567467
691.33368 601.89404 1111.5631 2896432
699.1778 602.6524 1112.9636 2830639
708.39319 604.5661 1116.4978 2699053
714.10974 603.48553 1114.5022 2896432
719.82074 602.4212 1112.5366 3093811
726.79108 602.4212 1112.5366 3028018
731.17969 600.30151 1108.6221 2435881
738.16473 600.33337 1108.6809 2633516
745.11096 600.33337 1108.6809 2962225
750.89392 599.40479 1106.9659 3225397
755.78925 597.79114 1103.986 3225397
761.19733 596.60864 1101.8021 3225397
768.19421 596.68146 1101.9366 3291190
772.99316 595.06104 1098.944 3225397
778.92603 594.33429 1097.6019 3093811
790.31171 597.74457 1103.8999 2370088
797.14551 597.68268 1103.7856 2830382
804.57642 598.0658 1104.4932 2961456
811.70807 598.2218 1104.7812 3093298
818.11493 597.84546 1104.0863 3027505
824.59467 597.52838 1103.5006 3159348
830.04138 596.47406 1101.5536 3093298
836.86139 596.41595 1101.4463 3093298
844.00989 596.591 1101.7695 3027505
851.97333 597.33447 1103.1426 2896175
860.80371 598.66901 1105.6072 2764333
867.90179 598.78705 1105.8252 2895919
885.20337 605.88708 1118.9374 2830126
886.37946 601.92517 1111.6205 2501161
894.0097 602.3736 1112.4487 2501161
900.20093 601.85297 1111.4873 2566954
902.61444 598.83417 1105.9121 2698540
909.54327 598.83417 1105.9121 2764333
916.61182 598.92535 1106.0806 2961712
921.73987 597.75684 1103.9226 3093298
926.7113 596.50488 1101.6105 3159091
933.29419 596.30103 1101.234 3159091
935.67035 593.43213 1095.9358 3159091
943.34991 593.94415 1096.8813 2698540
950.85419 594.33917 1097.611 3159091
961.36377 596.59351 1101.7742 3093298
969.6051 597.41815 1103.2971 2895919
976.47333 597.39105 1103.2471 2961712
982.74658 597.00293 1102.5303 3093298
991.15631 597.909 1104.2036 3290677
998.45892 598.13928 1104.6289 3422263
1004.9739 597.89789 1104.183 3356470
1017.3137 601.10138 1110.0992 3356470
1022.0641 599.80756 1107.7098 3027505
1029.2209 599.9339 1107.9431 3224884
1036.1626 599.9339 1107.9431 3093298
1044.4941 600.73328 1109.4194 2632747
1053.4647 601.88727 1111.5505 2566956
1063.5421 603.65424 1114.8137 2764335
1063.6315 599.76605 1107.6332 3027764
1070.0815 599.49182 1107.1267 3093557
1081.8701 602.19257 1112.1144 3093557
1086.6907 601.00507 1109.9214 2961971
1092.572 600.41553 1108.8326 2895921
1097.1158 599.10315 1106.4089 2632493
1100.9886 597.44318 1103.3433 2435114
1111.1046 599.17041 1106.5332 3026480
1119.1345 599.75842 1107.6191 3355445
1121.7112 597.43469 1103.3276 3092787
1123.8492 594.90729 1098.6602 2764078
nan nan nan 16777215
nan nan nan 16777215
nan nan nan 16777215
nan nan nan 16777215
nan nan nan 16777215
nan nan nan 16777215
nan nan nan 16777215
nan nan nan 16777215
nan nan nan 16777215
nan nan nan 16777215
nan nan nan 16777215
nan nan nan 16777215
nan nan nan 16777215
nan nan nan 16777215
nan nan nan 16777215
nan nan nan 16777215
nan nan nan 16777215
nan nan nan 16777215
nan nan nan 16777215
-943.57245 603.28101 1101.4475 3291962
-932.0304 600.29181 1095.9899 3423548
-915.01978 593.7099 1083.9729 3884099
-906.32684 592.46686 1081.7035 4278857
-897.77344 591.29706 1079.5676 3818304
-883.12012 586.0614 1070.0085 3160374
-879.96436 588.43402 1074.3405 3422519
-875.9032 590.23315 1077.6252 3290933
-871.31592 591.70294 1080.3087 2962225
-864.1665 591.44226 1079.8328 3159604
-859.45721 592.86072 1082.4225 3291190
-856.6109 595.59692 1087.4182 2764589
-851.39026 596.71295 1089.4558 2699053
-848.73334 599.65839 1094.8335 2830895
-844.91595 601.8252 1098.7896 2830639
-840.99707 603.95483 1102.6777 2896432
-833.49426 603.5246 1101.8922 3422776
-829.66821 605.77173 1105.9949 3358012
-823.59253 606.40021 1107.1425 3555133
-811.83234 602.81854 1100.6031 3686721
-805.39972 603.16528 1101.2362 3423547
-800.12506 604.3927 1103.4772 3423547
-786.89929 599.58313 1094.696 4015683
-778.64508 598.51038 1092.7374 3949890
-766.85901 594.67975 1085.7437 3949890
-756.91779 592.224 1081.26 3226167
-749.1712 591.45648 1079.8588 3094581
-744.37939 593.02899 1082.7297 3818304
-736.77875 592.37207 1081.5304 4147269
-731.43103 593.53125 1083.6467 3620925
-727.14545 595.58197 1087.3909 3489339
-723.40533 598.12256 1092.0294 3818304
-715.67303 597.37939 1090.6725 3555132
-714.23999 601.93048 1098.9818 3160374
-709.875 604.07538 1102.8978 3620925
-700.91608 602.3147 1099.6832 3752511
-691.34833 599.99066 1095.4401 2831409
-683.5802 599.19745 1093.9919 2962995
-676.24365 598.77039 1093.2122 3686718
-669.03503 598.44897 1092.6254 3686718
-662.01697 598.29321 1092.3409 3489339
-655.30023 598.4093 1092.5529 3489338
-646.9364 597.00781 1089.9941 3489341
-641.04626 597.88361 1091.5931 4344650
-633.64197 597.35089 1090.6205 4739408
-624.88409 595.51648 1087.2714 4147271
-616.50848 594.01001 1084.5209 3620927
-611.8587 596.09985 1088.3364 3620927
-604.44275 595.51147 1087.2622 3226169
-602.25653 600.12091 1095.678 3752513
-598.30664 603.05896 1101.0421 4015685
-589.56781 601.18219 1097.6156 3818307
-581.4679 599.92041 1095.3118 3884097
-571.26398 596.43176 1088.9424 3423545
-564.18811 596.16412 1088.4537 3423546
-562.60114 601.7608 1098.672 3818304
-559.2066 605.53888 1105.5698 3818304
-550.99866 604.13403 1103.005 3818304
-542.87177 602.78363 1100.5394 3884097
-536.88062 603.80042 1102.3958 3292217
-532.16583 606.29791 1106.9556 3029301
-521.42059 601.90002 1098.9261 3094581
-514.87195 602.29358 1099.6447 2897459
-509.67441 604.29987 1103.3076 3028788
-502.86459 604.42334 1103.5331 2831409
-495.54532 603.92938 1102.6312 2962995
-489.49765 604.9931 1104.5734 3686718
-483.84262 606.57959 1107.47 3423802
-474.18793 603.12506 1101.1627 2699053
-466.49545 602.10107 1099.2932 3422776
-459.76608 602.30811 1099.6711 3949120
-450.51331 599.16534 1093.9333 3620155
-440.1951 594.48676 1085.3912 3028018
-432.78137 593.64526 1083.855 2896432
-432.15842 602.24048 1099.5477 3356983
-423.26355 599.39984 1094.3615 3686204
-418.87347 602.9502 1100.8435 3818304
-413.67688 605.43896 1105.3875 3752511
-408.06351 607.39221 1108.9536 3423546
-399.1424 604.40436 1103.4984 3226167
-391.65704 603.5235 1101.8903 3028788
-385.2298 604.27087 1103.2548 3160374
-378.89999 605.20117 1104.9532 4147269
-372.68048 606.34558 1107.0426 3884097
-365.87973 606.56964 1107.4518 3752511
-359.83435 608.07904 1110.2075 3620925
-351.25055 605.27362 1105.0856 3160374
-341.77084 600.78058 1096.8823 2962995
-336.23547 603.17896 1101.2611 3357753
-326.16946 597.37988 1090.6735 3357753
-323.43127 605.04083 1104.6605 3489339
-314.70419 601.58838 1098.3572 3818304
-307.82266 601.58838 1098.3572 4015683
-299.67734 599.06213 1093.7448 3884097
-291.24231 595.82489 1087.8344 4081476
-283.36002 593.59033 1083.7546 4344648
-280.00159 600.95551 1097.2017 4542027
-270.20755 594.53131 1085.4727 5068371
-262.24545 591.91022 1080.6871 4476234
-254.71941 590.16046 1077.4926 4147269
-248.75464 592.03131 1080.9082 3884097
-241.98242 592.03131 1080.9082 3752768
-234.97539 591.44025 1079.8291 3818304
-227.97256 590.82507 1078.7059 3818304
-221.17284 590.71478 1078.5046 3686718
-214.21095 590.15082 1077.4749 3621182
-207.37057 589.89581 1077.0093 3620925
-200.83229 590.51178 1078.1339 3489339
-194.06616 590.47748 1078.0713 3489339
-187.04521 589.63733 1076.5374 3292216
-180.35234 589.80725 1076.8477 3489339
-172.91225 587.4519 1072.5472 3291960
-165.99428 586.75146 1071.2686 2634030
-159.62038 587.9964 1073.5414 3357753
-153.63844 590.85809 1078.7662 3752511
-146.67412 590.03137 1077.2568 3620925
-139.50572 588.26434 1074.0306 3225397
-131.86971 584.2464 1066.6948 2896432
-126.59383 590.81433 1078.6863 3751997
-119.57332 589.52161 1076.326 3620155
-112.94536 590.12531 1077.4283 2304551
-106.09026 589.54364 1076.3663 2962225
-99.569481 590.86688 1078.7823 3291190
-92.652985 589.86365 1076.9506 3620155
-85.610374 587.83679 1073.25 3488569
-79.156982 589.85504 1076.9349 2699053
-72.733353 592.49207 1081.7494 3291190
-66.019447 593.06323 1082.7922 3488569
-59.158531 592.29346 1081.3868 3094324
-52.507179 593.69403 1083.944 2633773
-45.20583 587.06958 1071.8492 2567980
-38.329868 584.6217 1067.38 2436395
-31.460062 581.25275 1061.2291 2699054
-24.77038 580.29803 1059.4861 3225397
-18.260675 584.40424 1066.983 3028018
-11.536885 582.44489 1063.4056 3225397
-4.8663316 581.49036 1061.663 3488569
1.7839665 581.05078 1060.8604 3094068
8.4322176 581.16327 1061.0658 2830896
15.246165 587.56226 1072.7488 3554362
22.000645 588.45496 1074.3787 3620155
28.780146 589.44177 1076.1804 2962225
35.268105 585.21637 1068.4658 3422776
41.711296 581.71478 1062.0728 3883327
48.267899 580.54077 1059.9292 2830639
54.846989 579.88849 1058.7383 2765103
62.052654 585.28687 1068.5945 2764846
69.234886 589.43427 1076.1666 3225397
76.184425 591.04041 1079.099 3620155
82.66127 589.01642 1075.4037 3225397
89.316452 588.47241 1074.4105 3093811
96.455627 590.97009 1078.9707 2896432
102.6999 588.01678 1073.5786 2830639
109.05443 586.01898 1069.9312 3159604
115.14593 582.92108 1064.275 3356983
121.34568 580.68018 1060.1838 3356983
128.98795 585.21674 1068.4664 3225397
135.64081 585.03809 1068.1403 2764846
142.14803 584.27765 1066.7518 3028018
149.09322 585.30487 1068.6273 3028018
156.19653 586.83783 1071.4261 3291190
161.37454 581.30914 1061.332 3883327
169.72957 587.20941 1072.1046 2896432
176.66823 587.9469 1073.451 2764846
183.95789 589.75555 1076.7532 3094068
191.35583 591.77106 1080.4331 3422776
199.59802 596.17053 1088.4655 3291190
205.41052 593.2619 1083.155 3225397
211.82845 592.23199 1081.2747 2896689
218.99084 593.28284 1083.1932 2764846
225.93883 593.70709 1083.9678 2633260
232.785 593.8468 1084.2229 2962225
239.57799 593.8468 1084.2229 2896432
249.99759 602.58832 1100.1827 3159604
254.23573 596.36078 1088.8129 3356983
261.0575 596.36078 1088.8129 3422776
267.77109 596.12006 1088.3733 3028018
276.31888 599.87317 1095.2256 3159604
282.54922 598.53522 1092.7828 2896689
289.39581 598.53522 1092.7828 3028018
297.45148 600.97797 1097.2427 4014913
301.4082 595.21588 1086.7225 3883327
307.45572 593.74597 1084.0388 3291190
313.54779 592.42383 1081.6249 3093811
320.59357 592.92151 1082.5334 2962225
327.3689 592.90863 1082.51 3093811
334.79642 594.05353 1084.6003 3093811
342.01343 594.78687 1085.9392 2698796
347.78635 593.02911 1082.73 2962225
354.06088 592.17767 1081.1754 2765616
362.37473 594.7049 1085.7896 2897202
369.44507 595.13586 1086.5764 3422776
378.25275 598.29932 1092.3521 2633517
383.67447 596.08972 1088.3179 2633517
391.85849 598.17395 1092.1232 2764591
400.957 601.55859 1098.3029 3093813
407.8382 601.55859 1098.3029 3159606
415.01053 601.98096 1099.0739 2699055
423.68292 604.52979 1103.7274 2896434
431.38803 605.63879 1105.7522 3291192
440.67679 608.90088 1111.708 2567469
448.93335 610.65747 1114.9152 2435883
456.59094 611.55792 1116.5592 2435883
464.72034 613.05359 1119.2899 2962227
472.46796 614.00867 1121.0337 3291192
482.4744 617.82837 1128.0074 2633262
490.7594 619.36511 1130.8132 2370091
495.02475 615.8573 1124.4088 3356730
502.06461 615.85132 1124.3978 3817282
505.25897 611.19366 1115.8942 2896180
518.64661 618.82538 1129.8279 2764594
528.52881 622.12531 1135.8528 3225145
535.64532 622.12531 1135.8528 3422525
543.77893 623.29126 1137.9814 3356732
549.30341 621.47498 1134.6653 3093560
557.29065 622.45593 1136.4563 2698802
564.55536 622.61517 1136.7471 2698802
572.2735 623.26434 1137.9324 3159353
575.89105 619.48657 1131.035 4014661
579.7431 616.0498 1124.7603 4672334
581.7179 610.72467 1115.0378 3554364
589.2326 611.27307 1116.0392 3225398
594.39673 609.3988 1112.6171 3356983
598.75726 606.75354 1107.7875 3159604
605.07434 606.12897 1106.6471 3028019
608.67627 602.82928 1100.6228 2962226
614.53223 601.8111 1098.7638 2370089
620.97906 601.38763 1097.9906 2370090
627.11914 600.67963 1096.698 2304298
633.47589 600.1922 1095.8081 2304297
640.84296 600.66229 1096.6664 2896434
644.35315 597.54565 1090.9761 2896434
652.87701 599.09509 1093.8051 2699055
660.73065 600.00372 1095.464 2435883
671.52197 603.534 1101.9093 2830639
674.96173 600.45233 1096.283 3356983
681.97314 600.57812 1096.5127 3225397
691.50372 602.89783 1100.7479 3159604
700.8468 605.00983 1104.6039 2896432
705.59888 603.15607 1101.2194 2633260
712.49835 603.15607 1101.2194 2896432
720.74799 604.28809 1103.2861 2567467
726.71204 603.50049 1101.8481 2304295
732.94586 602.94958 1100.8424 2633260
739.84296 602.94958 1100.8424 2830895
741.70142 598.88116 1093.4144 2896432
747.12299 597.73785 1091.327 2962225
754.06488 597.82062 1091.4781 3159604
760.55676 597.5484 1090.9811 3028018
766.13611 596.57037 1089.1954 3225397
768.91718 593.44995 1083.4983 3093811
781.80817 598.11859 1092.0222 2699053
787.78711 597.46417 1090.8274 2369832
797.48511 599.61731 1094.7584 2633261
804.34406 599.61731 1094.7584 3027505
808.24475 597.4306 1090.766 2895919
816.31403 598.336 1092.4191 2698540
824.62506 599.40204 1094.3655 3093298
831.54871 599.4505 1094.4539 3093298
840.87097 601.21313 1097.672 2566954
846.72858 600.48993 1096.3517 2632747
854.487 601.1156 1097.494 2698540
861.22406 601.01855 1097.3168 2830126
868.39764 601.22528 1097.6942 2830126
875.96124 601.69666 1098.5548 2895919
882.84406 601.69666 1098.5548 2895919
895.38196 605.521 1105.5372 2698540
897.62793 602.38 1099.8025 2698540
904.51849 602.38 1099.8025 3159091
903.48657 597.1438 1090.2423 3224884
912.37433 598.4931 1092.7059 3027505
917.11499 597.12231 1090.2031 2895919
922.96008 596.48547 1089.0404 2895919
931.40826 597.52789 1090.9437 2895919
937.55872 597.09192 1090.1477 2632747
944.54846 597.19281 1090.3319 2764333
953.35504 598.43274 1092.5957 3159091
958.45581 597.3454 1090.6105 2895919
966.19812 597.90808 1091.6378 2961712
973.85718 598.41174 1092.5574 2830126
979.27911 597.54333 1090.9718 3290677
986.81885 597.97009 1091.7511 3422263
994.26691 598.336 1092.4191 3356470
1000.0556 597.70508 1091.2671 3093298
1011.593 600.49518 1096.3612 2830126
1018.0763 600.2677 1095.9459 2633003
1027.0637 601.51001 1098.214 2501161
1034.176 601.64471 1098.46 2566954
1041.2744 601.76959 1098.688 2698540
1050.1699 602.92474 1100.797 2764335
1055.8539 602.23285 1099.5338 3027507
1062.7428 602.23285 1099.5338 3159093
1066.8541 600.66907 1096.6787 3356472
1073.7252 600.66907 1096.6787 2961714
1077.4601 598.92578 1093.4958 3093300
1084.108 598.81354 1093.291 3553851
1095.8203 601.48248 1098.1638 3356472
1103.8585 602.11414 1099.317 3093556
1113.0657 603.37152 1101.6127 3290935
1116.9658 601.75433 1098.6602 3817280
1119.7722 599.57129 1094.6744 3422522
nan nan nan 16777215
nan nan nan 16777215
nan nan nan 16777215
nan nan nan 16777215
nan nan nan 16777215
nan nan nan 16777215
nan nan nan 16777215
nan nan nan 16777215
nan nan nan 16777215
nan nan nan 16777215
nan nan nan 16777215
nan nan nan 16777215
nan nan nan 16777215
nan nan nan 16777215
nan nan nan 16777215
nan nan nan 16777215
nan nan nan 16777215
nan nan nan 16777215
nan nan nan 16777215
-938.25269 606.70544 1095.2377 3291962
-928.13776 604.58655 1091.4125 3358012
-912.7052 598.94659 1081.2311 3423292
-903.54523 597.36926 1078.3837 3555391
-889.38879 592.43988 1069.4851 3094581
-875.85626 587.85455 1061.2075 3094067
-868.97668 587.69843 1060.9258 3093811
-868.83356 592.13104 1068.9275 3685948
-865.35065 594.33862 1072.9127 3883327
-859.85809 595.18976 1074.4492 3686205
-854.83881 596.3844 1076.6058 3357496
-850.69312 598.21246 1079.9059 2962995
-848.73846 601.62286 1086.0625 2897458
-844.13483 603.19562 1088.9016 2896432
-840.07697 605.18713 1092.4967 2897201
-834.95441 606.43799 1094.7548 2831666
-829.15234 607.21204 1096.1521 2962995
-826.23004 610.12543 1101.4115 3357753
-818.72797 609.67767 1100.6031 3620925
-805.21265 604.70636 1091.6288 3686718
-796.18872 603.0517 1088.6418 3949890
-793.07025 605.88007 1093.7477 4213062
-787.57672 606.92749 1095.6384 3949890
-780.37531 606.66559 1095.1656 3949890
-763.84235 599.08032 1081.4725 3555132
-753.12805 595.96362 1075.8463 3226167
-748.15955 597.37854 1078.4005 3291960
-741.49451 597.45227 1078.5336 3620925
-736.14197 598.5946 1080.5957 3555132
-729.72809 598.88702 1081.1237 4344648
-724.12384 599.85571 1082.8723 4607820
-716.71381 599.33264 1081.9281 4147269
-708.70422 598.29346 1080.0521 3291960
-708.66156 604.02478 1090.3984 3489339
-704.73236 606.52283 1094.908 3752511
-693.8443 603.02197 1088.5881 3160374
-687.30811 603.27136 1089.0383 2634030
-679.70032 602.57574 1087.7826 2568237
-670.72247 600.63916 1084.2866 3094581
-665.10211 601.70038 1086.2024 3028788
-661.16016 604.31769 1090.9271 3291960
-652.06183 602.22729 1087.1536 3423546
-642.91016 600.04303 1083.2104 3620927
-636.19983 600.11505 1083.3405 4015685
-628.97931 599.70215 1082.5951 4015685
-622.19653 599.70215 1082.5951 4147528
-614.414 598.72797 1080.8364 3094583
-607.64221 598.72797 1080.8364 3094583
-599.13593 596.99957 1077.7164 3357755
-596.48352 601.13135 1085.1752 4213064
-592.3042 603.80188 1089.996 4542029
-582.74823 600.98969 1084.9194 4081478
-573.76575 598.70953 1080.8032 3028788
-564.94592 596.54675 1076.8989 2765616
-557.7486 596.06567 1076.0304 4015939
-554.54547 599.89349 1082.9406 3884097
-551.89331 604.41962 1091.1112 3752511
-547.6521 607.29718 1096.3058 3686718
-539.99701 606.41406 1094.7115 3620925
-533.17108 606.45135 1094.7789 4213062
-524.60883 604.48883 1091.2362 4410441
-512.89642 598.79688 1080.9609 3357753
-510.07724 603.47418 1089.4044 2765616
-502.72385 602.84106 1088.2615 3028788
-494.9411 601.66858 1086.145 3028788
-489.75534 603.66449 1089.748 2831409
-484.65442 605.82288 1093.6444 3686718
-478.59897 606.83289 1095.4677 3489596
-468.75366 602.99707 1088.5432 2501674
-460.11938 600.62878 1084.2679 3356983
-455.61761 603.66492 1089.7488 4014913
-447.23486 601.57312 1085.9727 3685948
-439.40063 600.16589 1083.4323 3028018
-431.22656 598.2431 1079.9612 2830639
-421.8811 594.60797 1073.3989 3291960
-418.91797 599.99615 1083.1259 4410441
-416.32639 606.10266 1094.1494 3817790
-411.86029 609.63898 1100.5333 3818303
-404.36121 608.72992 1098.8922 3884097
-396.21631 606.80023 1095.4087 3028788
-388.78378 605.91278 1093.8066 3160374
-381.34644 604.98584 1092.1333 3291960
-373.45157 603.28583 1089.0645 3423546
-367.12122 604.09698 1090.5288 3686718
-360.44257 604.35504 1090.9945 3423546
-353.84555 604.76251 1091.7301 3291960
-347.62643 605.8446 1093.6836 3226167
-338.22141 601.30615 1085.4907 2831409
-330.94891 600.45056 1083.9462 3094581
-324.04575 600.24329 1083.572 3291960
-316.72174 599.23096 1081.7445 3094581
-311.93695 603.0835 1088.6992 3686718
-304.42157 601.711 1086.2216 3423546
-296.74005 599.93994 1083.0244 3686718
-286.50317 592.79871 1070.1329 4213062
-279.46768 592.0979 1068.8678 2962995
-272.77087 592.0979 1068.8678 3291960
-268.00876 596.40314 1076.6396 4542284
-260.56775 594.81543 1073.7734 4213319
-252.33104 591.27899 1067.3894 3751998
-245.97931 592.08722 1068.8485 3817277
-239.48436 592.58643 1069.7496 3751741
-233.01996 593.19202 1070.8429 3685691
-225.52734 591.13855 1067.1359 3488312
-217.256 586.85596 1059.4049 3685691
-210.50502 586.53979 1058.8341 3751741
-204.80121 589.21576 1063.6648 3554363
-198.6615 590.77545 1066.4805 3554618
-191.83809 590.33978 1065.694 3489083
-185.05408 589.99823 1065.0774 3357752
-178.33707 589.85284 1064.8149 3291960
-171.66568 589.85284 1064.8149 3357753
-165.28256 590.88348 1066.6754 3489339
-158.60463 590.90253 1066.7098 3226167
-152.80966 594.3576 1072.947 3423546
-145.304 591.17072 1067.194 3620412
-138.17796 589.29535 1063.8085 3422776
-131.86971 590.89423 1066.6948 3488569
-125.70591 593.34576 1071.1204 4409928
-117.83167 587.54498 1060.6487 4080706
-111.216 587.70154 1060.9313 3093811
-104.77131 588.83887 1062.9845 3225397
-99.28878 595.9054 1075.7411 3422776
-92.013412 592.45728 1069.5165 4014913
-84.836365 589.15027 1063.5466 3620155
-78.174896 589.16522 1063.5736 3093811
-72.211479 594.93408 1073.9877 3949120
-65.243889 592.76514 1070.0723 3291190
-58.539551 592.76514 1070.0723 3291960
-51.596119 590.03088 1065.1364 3160374
-44.439838 583.68866 1053.6873 2897201
-37.863037 584.07245 1054.38 2304808
-31.224102 583.45734 1053.2697 2831153
-24.667196 584.45612 1055.0726 3554619
-18.007408 582.8562 1052.1844 3620155
-11.446952 584.48016 1055.1161 2830639
-4.8421741 585.18738 1056.3927 2633260
1.7843132 587.77643 1061.0665 3159861
8.4210062 586.99445 1059.6549 2764846
15.113498 589.07678 1063.4139 2303269
21.799334 589.7049 1064.5479 2172453
28.389561 588.05823 1061.5752 2435881
35.040657 588.05823 1061.5752 3620155
41.349365 583.22882 1052.8571 4475721
47.833496 581.86218 1050.39 3620155
54.528065 583.07635 1052.5819 3291190
61.285793 584.6311 1055.3885 2435881
68.646469 591.07465 1067.0205 2896432
75.302223 590.84351 1066.6033 3422776
81.426102 586.81689 1059.3344 4146499
88.017654 586.51367 1058.787 3949120
95.013634 588.75903 1062.8403 2896432
101.55527 588.07922 1061.6132 2896432
107.35387 583.44482 1053.2471 2633260
113.4162 580.69745 1048.2874 3422776
119.98404 580.69745 1048.2874 3225397
127.01501 582.82257 1052.1237 2962225
133.68907 583.18103 1052.7709 2896432
140.55389 584.29877 1054.7886 2962225
147.5155 585.70044 1057.319 3028018
154.2336 586.0564 1057.9615 3751741
160.43402 584.49695 1055.1464 4146499
168.18481 588.48584 1062.3472 2896432
175.88531 592.00165 1068.694 2764846
182.72786 592.47772 1069.5535 3291190
189.42839 592.47607 1069.5504 3291190
195.9865 592.04413 1068.7708 3356983
203.61467 594.7666 1073.6853 3225397
210.34163 594.7666 1073.6853 3028275
217.17407 595.05548 1074.2069 2765102
224.30254 596.11383 1076.1174 2633260
230.45859 594.60156 1073.3873 3093811
236.97882 594.08789 1072.4602 2962225
242.47528 591.10687 1067.0787 2699053
249.37831 591.62274 1068.01 2633260
259.21402 598.88733 1081.1241 3159604
266.13354 599.21594 1081.7174 3159604
273.04517 599.51093 1082.2499 3028018
279.73718 599.32104 1081.9071 3028018
285.6767 597.56616 1078.7391 2896432
293.0871 598.89795 1081.1433 3093811
298.83624 596.85168 1077.4493 3422776
303.52646 592.82758 1070.1849 2764846
309.29306 591.03424 1066.9476 2764846
317.32605 593.55609 1071.5001 2633260
323.59195 592.73663 1070.0208 2304295
330.79477 593.63177 1071.6367 2435881
337.37137 593.38983 1071.2 3159604
344.02264 593.28613 1071.0128 3291190
349.49063 591.18488 1067.2195 3093811
357.50003 593.38074 1071.1835 3028018
367.26843 598.36139 1080.1747 2896432
372.79346 596.37354 1076.5862 2764846
378.46948 594.6936 1073.5536 2567466
386.40167 596.55554 1076.9148 2501677
395.07642 599.48035 1082.1947 2633262
403.59714 602.07672 1086.8817 2962227
409.22977 600.35004 1083.7646 2699055
418.21967 603.52448 1089.4952 2567469
429.26035 609.50879 1100.2983 2304297
439.26544 613.85693 1108.1476 2172711
447.47064 615.59351 1111.2825 2567469
454.43317 615.59351 1111.2825 2896434
462.79321 617.45801 1114.6484 2962227
470.21344 618.03186 1115.6843 3291192
477.22946 618.06549 1115.745 2699312
486.00754 620.34723 1119.864 2764849
491.43045 618.34235 1116.2448 2896435
499.23508 619.34845 1118.061 2830386
506.53705 619.71179 1118.7169 3027766
515.07538 621.55713 1122.0482 3093559
524.30176 624.17194 1126.7684 3159352
531.42944 624.25189 1126.9128 3290938
537.31812 622.89343 1124.4606 3159352
544.39331 622.92798 1124.5228 3225145
550.96161 622.38892 1123.5497 3422524
556.51044 620.72638 1120.5485 3093559
567.6311 625.24255 1128.7012 3027764
572.26239 622.58765 1123.9084 3554365
572.63556 615.4209 1110.9709 3817793
577.55463 613.25317 1107.0577 4146501
584.21857 612.96771 1106.5424 3620157
588.66772 610.3924 1101.8933 2896434
595.57147 610.3924 1101.8933 2764849
600.79852 608.69373 1098.8269 2896435
603.22375 604.22705 1090.7635 2962228
609.32385 603.50012 1089.4513 2567466
617.51471 604.83728 1091.8651 2370088
624.77753 605.24597 1092.6029 2304295
630.59027 604.25641 1090.8165 2238502
636.08252 602.98419 1088.5199 2304294
643.98413 603.99872 1090.3513 2567466
649.56281 602.83612 1088.2526 2633260
656.56067 603.00104 1088.5503 3422777
663.38074 603.00104 1088.5503 3423034
671.47314 604.14575 1090.6168 3093813
677.10406 603.07507 1088.684 3291192
683.23431 602.466 1087.5845 3554363
692.55103 604.65106 1091.5289 3751742
699.47504 604.72473 1091.662 3949119
706.2265 604.64929 1091.5258 3751741
707.52478 599.95123 1083.0447 3422776
714.31042 599.95123 1083.0447 3291190
722.5777 601.18396 1085.2701 3159604
730.88641 602.42786 1087.5156 2699053
734.45996 599.78192 1082.7391 2830639
738.18579 597.30762 1078.2725 2962225
746.81708 598.81152 1080.9873 3291190
752.24805 597.7453 1079.0626 3159604
758.7312 597.52679 1078.6681 2962225
765.32574 597.39905 1078.4375 3028018
772.59698 597.79712 1079.1561 2830639
780.43329 598.62177 1080.6448 2567467
785.15625 597.06464 1077.8339 3093811
795.06763 599.44592 1082.1326 3290677
798.35022 596.83142 1077.4128 2830126
807.85779 598.87543 1081.1027 2632747
818.49481 601.71576 1086.2301 2566954
825.4776 601.84497 1086.4634 3027505
831.05579 600.95636 1084.8593 3356727
837.85278 600.95636 1084.8593 3093298
847.41205 602.92169 1088.4071 2895919
853.92535 602.70575 1088.0173 2764333
861.04645 602.91882 1088.402 2961712
868.69025 603.49176 1089.4362 3027505
875.8493 603.72156 1089.8511 2961712
882.1449 603.35724 1089.1934 3027505
888.71307 603.18353 1088.8798 2764333
893.43134 601.76648 1086.3217 2632747
899.65381 601.37628 1085.6173 3159091
905.16199 600.51807 1084.068 2961712
911.95398 600.51807 1084.068 2566954
916.16418 598.83051 1081.0216 2632747
923.79138 599.38483 1082.0222 2698540
929.80756 598.89337 1081.135 2764333
936.68805 598.96161 1081.2583 2764333
943.88324 599.22882 1081.7406 2698540
950.68201 599.24219 1081.7648 2698540
959.11627 600.27905 1083.6366 2961969
965.8371 600.23645 1083.5597 3027505
972.24603 600.00201 1083.1365 3159091
978.44507 599.64221 1082.4869 3356470
984.60474 599.26331 1081.803 3619642
988.6452 597.6087 1078.8159 3290677
1000.5751 600.71307 1084.42 2895919
1009.494 601.98004 1086.7073 2830126
1019.1181 603.64777 1089.7178 2764333
1027.351 604.47467 1091.2106 2895919
1034.1774 604.46863 1091.1997 2830126
1041.7162 604.87634 1091.9357 2764336
1056.6086 609.52075 1100.3198 3159093
1054.0143 604.08276 1090.5032 3224886
1057.4429 602.14459 1087.0043 3488315
1065.3563 602.76868 1088.1309 3422009
1067.312 600.03546 1083.1968 3290679
1076.1149 601.1618 1085.2301 3948609
1081.1083 600.15924 1083.4203 4211781
1084.7847 598.44281 1080.3217 3751230
1094.7397 600.18976 1083.4753 3027507
1108.5345 604.00739 1090.3669 2435370
1117.6831 605.26215 1092.6321 2303784
nan nan nan 16777215
nan nan nan 16777215
nan nan nan 16777215
nan nan nan 16777215
nan nan nan 16777215
nan nan nan 16777215
nan nan nan 16777215
nan nan nan 16777215
nan nan nan 16777215
nan nan nan 16777215
nan nan nan 16777215
nan nan nan 16777215
nan nan nan 16777215
nan nan nan 16777215
nan nan nan 16777215
nan nan nan 16777215
nan nan nan 16777215
nan nan nan 16777215
nan nan nan 16777215
-936.41345 612.32849 1093.0907 3422776
-923.57819 608.38489 1086.0508 3422775
-911.34479 604.7821 1079.6194 3488313
-897.40051 599.98169 1071.0499 3291193
-889.38879 599.1051 1069.4851 3028018
-879.41113 596.88092 1065.5146 2699053
-867.88702 593.56506 1059.5953 2764590
-860.33838 592.93787 1058.4758 4080706
-855.99945 594.53033 1061.3186 4279368
-855.47003 598.81427 1068.9659 3949890
-856.8443 604.50885 1079.1316 3028788
-850.76764 604.99561 1080.0005 2897202
-849.20099 608.72302 1086.6544 2897458
-838.4472 605.87189 1081.5647 2830639
-835.49438 608.65729 1086.5371 2897203
-829.34253 609.13885 1087.3967 2897202
-823.75311 610.04486 1089.0142 2897202
-820.37073 612.6142 1093.6007 3226167
-813.51892 612.6142 1093.6007 3489339
-803.99719 610.58649 1089.981 3752511
-796.18872 609.83636 1088.6418 3752511
-789.28113 609.76917 1088.522 3752511
-782.46124 609.76917 1088.522 3818304
-776.03583 610.07935 1089.0757 3423546
-763.84235 605.82019 1081.4725 2962995
-752.98816 602.55658 1075.6465 3620925
-745.90027 602.27502 1075.1439 3949890
-739.23444 602.33234 1075.2462 3357753
-733.13477 602.8562 1076.1814 3160374
-721.20087 598.54773 1068.4902 2962995
-714.2981 598.37323 1068.1787 3094581
-707.30554 598.11951 1067.7257 3489339
-705.1037 601.95074 1074.5651 3291960
-698.80035 602.32068 1075.2253 3423546
-698.24475 607.7002 1084.8285 3489338
-699.12262 614.44519 1096.8694 3489339
-687.30811 610.05841 1089.0383 4081476
-677.58264 607.45654 1084.3936 4344647
-666.11053 603.22015 1076.8311 4081733
-657.53925 601.5509 1073.8512 3686718
-651.53369 602.21869 1075.0433 3357754
-646.60632 603.90735 1078.0579 3620924
-639.65656 603.72296 1077.7286 3818306
-632.82227 603.64471 1077.589 3357755
-626.0708 603.64471 1077.589 3555134
-615.88483 600.29712 1071.613 4015685
-608.14191 599.28314 1069.803 4081478
-603.99469 601.82941 1074.3484 4015685
-599.03528 603.61462 1077.5353 3752513
-594.10822 605.47357 1080.8538 4410443
-588.48969 606.6626 1082.9763 4410443
-579.56799 604.43439 1078.9987 3818563
-569.96533 601.43506 1073.6444 2568237
-559.74542 597.70496 1066.9857 3489339
-557.37128 602.36377 1075.3024 4673613
-551.62396 603.44666 1077.2354 3423546
-548.685 607.66638 1084.7682 3423546
-543.74756 609.75104 1088.4896 3818304
-536.37646 609.12488 1087.3718 3884097
-529.56372 609.12488 1087.3718 3423546
-521.32898 607.4679 1084.4138 3094581
-513.18341 605.87244 1081.5658 3160118
-505.52701 604.81952 1079.6862 3028532
-497.77454 603.62158 1077.5476 3291960
-487.05731 598.74603 1068.8441 3357753
-483.11636 602.18079 1074.9757 2831409
-479.17856 605.71674 1081.2878 3752511
-474.55045 608.46899 1086.201 3555132
-465.44925 605.48248 1080.8696 3488056
-458.36029 605.06409 1080.1227 3356983
-453.06042 607.03021 1083.6326 2896175
-446.10696 606.80688 1083.2339 3159604
-437.2905 604.00348 1078.2294 3159347
-430.00409 603.25848 1076.8995 3028532
-420.99417 600.03345 1071.1423 3423546
-417.86697 605.22406 1080.4083 4015683
-412.49646 607.28314 1084.0841 3620925
-406.54266 608.53796 1086.3241 3686718
-399.14673 607.64014 1084.7213 3489339
-392.42578 607.75653 1084.9292 3226167
-386.22498 608.69684 1086.6077 3620925
-378.97617 607.9895 1085.3451 3620925
-371.67313 607.16779 1083.8782 3423546
-365.31683 607.89087 1085.1689 3489339
-357.5423 606.23663 1082.2159 3291960
-351.86487 608.14301 1085.619 3949890
-344.27328 606.75092 1083.134 4147269
-336.4046 604.80475 1079.6598 3028788
-329.09052 603.79626 1077.8595 2436651
-321.9483 603.06738 1076.5583 2699823
-314.36084 601.45551 1073.6809 3291960
-309.18069 604.47968 1079.0795 3686718
-301.8508 603.3421 1077.0487 3555132
-294.30179 601.70447 1074.1254 3884354
-283.73514 593.67633 1059.7939 3884353
-277.81314 595.21448 1062.5398 3160374
-270.23129 593.18463 1058.9163 2962739
-264.4201 595.03729 1062.2235 3751998
-257.76495 595.03729 1062.2235 4278342
-250.16418 592.79651 1058.2234 3488826
-244.16513 594.33252 1060.9655 3554619
-238.30516 596.30261 1064.4823 3356983
-231.63586 596.30261 1064.4823 3356983
-224.07527 593.94012 1060.265 2830896
-216.09781 590.29468 1053.7573 2962481
-209.40439 590.03735 1053.298 4212036
-203.07014 590.80841 1054.6743 4607050
-196.75217 591.68011 1056.2305 3686718
-190.01965 591.32257 1055.5922 3818304
-182.7337 589.15485 1051.7225 3752511
-176.38196 589.94958 1053.1414 3291960
-170.14975 591.2215 1055.4119 2962995
-164.32848 594.08191 1060.5181 2897202
-157.68401 594.08191 1060.5181 2634287
-149.86922 589.47876 1052.3008 2502700
-144.28902 593.64563 1059.7393 3029045
-137.9482 594.9342 1062.0396 3685692
-131.65376 596.56354 1064.9481 3817534
-125.04833 596.88239 1065.5173 3422776
-117.436 592.1601 1057.0873 3093811
-111.15859 594.00665 1060.3837 3356983
-104.55273 594.22137 1060.767 3356983
-98.613449 598.5108 1068.4242 2896432
-91.808296 597.78711 1067.1323 2633260
-84.701698 594.83282 1061.8585 2699053
-77.622276 591.58191 1056.0552 2764846
-71.177101 593.0094 1058.6035 3290933
-64.744965 594.85004 1061.8893 3356984
-57.924835 593.1394 1058.8356 3225397
-50.916119 588.80536 1051.0986 3356983
-43.958221 583.85858 1042.2679 3488570
-37.478138 584.63928 1043.6616 2501932
-31.126774 588.18231 1049.9865 3488826
-24.623388 589.98187 1053.199 4212292
-17.98852 588.79535 1051.0808 3357239
-11.446108 591.01221 1055.0382 2962225
-4.830492 590.34332 1053.8441 3225397
1.7692603 589.37476 1052.1151 2896432
8.3574286 589.11682 1051.6547 3028018
14.955719 589.48529 1052.3124 2961712
21.677607 593.00934 1058.6034 2501418
28.301964 592.83923 1058.2997 2698540
34.548008 586.31342 1046.6501 2566954
41.18684 587.47217 1048.7188 3751228
47.757389 587.47217 1048.7188 3290678
54.326881 587.46082 1048.6985 2830127
61.065567 589.08398 1051.5961 2633260
67.793915 590.30103 1053.7687 2633260
74.718956 592.86273 1058.3417 2764846
81.101654 591.05432 1055.1134 3225397
87.757553 591.35956 1055.6582 4278085
94.538284 592.40411 1057.5229 4343878
100.19213 586.71295 1047.3635 3751741
106.25587 583.97437 1042.4746 3685948
112.09077 580.36786 1036.0366 3488569
118.24834 578.7356 1033.1228 3028018
125.35663 581.6842 1038.3865 2764846
132.37912 583.96344 1042.4552 2830639
139.02946 584.46393 1043.3486 3291190
145.5773 584.50781 1043.427 3488569
153.48177 589.76086 1052.8043 3422776
160.08907 589.80194 1052.8777 3225397
166.68567 589.80194 1052.8777 3225397
173.61389 590.93066 1054.8926 3028018
181.45227 594.96088 1062.0872 3225397
188.03215 594.72546 1061.6669 3028018
194.56729 594.36951 1061.0314 3225397
201.30058 594.62231 1061.4828 3356983
207.9641 594.65955 1061.5492 3225397
214.44269 594.18201 1060.6968 3225397
222.22479 597.23645 1066.1493 3093811
228.42543 595.98627 1063.9176 3093811
234.6674 594.91193 1061.9998 2962225
240.85617 593.76562 1059.9534 2501674
246.39227 591.11505 1055.2218 2764846
255.23128 596.31989 1064.5131 2764846
263.66183 600.32959 1071.671 2764846
270.37619 600.32959 1071.671 2962225
276.22983 598.46472 1068.342 2896432
282.8215 598.24945 1067.9576 2830639
287.7951 594.70044 1061.6222 3093811
292.08279 589.92639 1053.0999 3356983
300.39597 593.31409 1059.1473 2633260
307.53622 594.2887 1060.8872 2501674
314.72812 595.31976 1062.7278 2435881
320.96295 594.53534 1061.3275 2106916
327.25107 593.87946 1060.1566 2172709
333.68396 593.50708 1059.4919 2896432
337.42664 588.45776 1050.4781 3291190
343.24936 587.15967 1048.1609 3685948
347.90604 583.95312 1042.4368 3028018
359.14999 591.71765 1056.2975 2896432
367.19574 594.02734 1060.4207 2764846
370.93066 589.40503 1052.1692 2567467
380.82275 594.55701 1061.3662 2304297
391.61371 600.91144 1072.7097 2238504
398.66904 601.41595 1073.6104 2238504
405.55573 601.65369 1074.0347 2304297
414.42133 604.77142 1079.6002 2501676
424.35498 609.32257 1087.7247 2962227
433.77615 613.00568 1094.2996 3291192
442.82346 616.05402 1099.7413 2633262
451.83923 618.96576 1104.9392 2764848
459.3024 619.69489 1106.2407 2764848
468.69473 622.96643 1112.0809 2962227
475.67453 622.98248 1112.1096 2896434
483.03412 623.48834 1113.0126 3093813
490.22803 623.76892 1113.5134 3094069
498.47589 625.36395 1116.3608 3093813
506.53641 626.68298 1118.7155 2962227
513.21326 626.27759 1117.9917 3093814
520.0484 626.07355 1117.6276 3159351
526.21173 625.07703 1115.8486 3225146
532.42578 624.16595 1114.2223 3751489
540.3457 625.2525 1116.1619 3488317
547.59583 625.54614 1116.686 3488317
553.85522 624.7149 1115.2021 3290938
561.0517 624.94818 1115.6185 3093559
566.24957 622.97675 1112.0994 2961716
570.20538 619.70349 1106.2561 2830385
574.9527 617.3587 1102.0703 3028020
581.85748 617.3587 1102.0703 3093813
587.81232 616.36261 1100.2921 2962227
594.3631 616.0072 1099.6577 2962484
599.38885 614.09753 1096.2487 3028277
603.31555 611.1178 1090.9294 3028277
605.43976 606.39954 1082.5067 2830641
613.21838 607.38647 1084.2686 2435883
621.39447 608.74115 1086.6868 2633262
628.00177 608.5462 1086.3387 2370090
634.80798 608.5462 1086.3387 1909540
643.20856 610.05829 1089.0381 2106918
646.6535 606.88788 1083.3784 2041124
652.51318 606.02594 1081.8398 2501675
659.41595 606.14056 1082.0444 2633260
665.60907 605.60718 1081.0923 2830639
676.03217 608.89447 1086.9604 3093813
681.23572 607.46185 1084.4031 3422777
688.29791 607.69849 1084.8256 3620156
694.53979 607.21344 1083.9596 3883327
700.37177 606.38281 1082.4768 3883327
705.90033 605.30792 1080.558 2830638
711.6864 604.47223 1079.0662 3225397
717.02014 603.27167 1076.923 3949120
724.26721 603.68823 1077.6666 3159861
732.12537 604.60181 1079.2975 3291190
735.52484 601.85028 1074.3856 3291190
741.09814 600.91125 1072.7094 3488569
744.60907 598.33191 1068.1049 3554362
746.92261 594.84491 1061.8801 2962225
758.73163 598.91486 1069.1455 2962225
764.89642 598.49725 1068.4 3028018
775.10773 601.22571 1073.2706 3028018
