# .PCD v0.7 - Point Cloud Data file format
VERSION 0.7
FIELDS x y z rgb
SIZE 4 4 4 4
TYPE F F F U
COUNT 1 1 1 1
WIDTH 1272
HEIGHT 1
VIEWPOINT 0 0 0 1 0 0 0
POINTS 1272
DATA ascii
-3522.7317 732.24152 5368.5781 3489082
-3462.752 726.71283 5328.0435 3291960
-3380.6697 716.39282 5252.3799 3226167
-3256.2961 696.81995 5108.8774 3226680
-3102.6631 670.53491 4916.1636 3358267
-2972.7429 648.89893 4757.5352 3424059
-2826.8279 623.29791 4569.8359 3227194
-2714.2764 604.6048 4432.7832 3753282
-2684.2947 604.1076 4429.1382 4937812
-2564.4539 583.16583 4275.5996 5267033
-2497.3408 573.89905 4207.6577 5333083
-2479.8411 575.9574 4222.749 5333083
-2462.988 578.21191 4239.2788 5201498
-2550.7595 605.34515 4438.2114 5070168
-2515.5188 603.56146 4425.1343 3884867
-2533.3379 614.61084 4506.145 3490109
-2855.751 700.63934 5136.8804 3556159
-2856.3425 708.77228 5196.5088 3555904
-2866.6707 719.53668 5275.4302 3752769
-2903.3242 737.237 5405.2036 3753026
-2921.5312 750.61572 5503.2925 3753026
-2934.5842 762.97394 5593.8989 3950148
-2974.5203 782.70477 5738.5601 3818563
-2944.8889 784.38892 5750.9072 3752769
-2929.1079 789.84943 5790.9424 3753024
-2921.4373 797.66144 5848.2178 3753024
-2930.2876 810.23999 5940.4399 3687231
-2896.9973 811.34021 5948.5063 3687231
-2907.6807 824.94495 6048.2524 3950403
-2939.1096 844.8725 6194.355 3884867
-2914.5405 849.02075 6224.769 3884610
-2869.3447 847.19147 6211.3569 3818817
-2830.4285 847.19147 6211.3569 4081989
-2797.2739 848.93994 6224.1768 4147782
-2761.7483 850.00818 6232.0088 4081989
-2754.3657 859.89319 6304.4824 4081989
-2741.4927 868.32666 6366.314 4081989
-2712.2095 871.73486 6391.3018 4081989
-2680.2126 874.35999 6410.5483 4147782
-2651.9353 878.29663 6439.4111 4147782
-2583.2124 868.75299 6369.4395 4213575
-2536.5134 866.43274 6352.4287 4213575
-2495.1538 865.89154 6348.4604 4147782
-2356.9973 831.1972 6094.0918 4213575
-2318.1975 830.97546 6092.4663 4016196
-2282.2068 831.77014 6098.293 3884867
-2248.8726 833.5766 6111.5371 4016196
-2193.1062 826.98676 6063.2227 3884610
-2176.4097 835.15704 6123.124 3753024
-2121.9856 828.8833 6077.1274 3884610
-2062.2869 820.28253 6014.0688 3884610
-2033.7559 823.98932 6041.2456 3884610
-2005.6395 828.00787 6070.7085 3818817
-1934.9479 814.26514 5969.9512 3687231
-1867.3904 801.32568 5875.083 3555645
-1831.9978 801.9458 5879.6294 3686975
-1799.5515 803.90765 5894.0127 3686464
-1744.488 795.63617 5833.3691 3752770
-1634.7856 761.5575 5583.5142 3094583
-1534.5297 730.48517 5355.7012 1843746
-1516.3385 737.9624 5410.522 1712673
-1485.7616 739.61597 5422.6455 1909540
-1448.1268 737.75122 5408.9736 2304040
-1420.9945 741.27594 5434.8159 3159093
-1422.7368 760.40613 5575.0728 3751230
-1399.8684 767.01471 5623.5249 2896178
-1412.5148 793.92609 5820.8311 1251094
-1402.7876 809.35529 5933.9536 856336
-1378.9767 817.27765 5992.0376 1054230
-1347.4115 820.91901 6018.7354 1909539
-1266.9941 794.14966 5822.4702 2962227
-1190.8115 768.52606 5634.6055 3620927
-1144.8427 761.43188 5582.5933 3555134
-1070.2637 734.26251 5383.3955 3423548
-1037.3768 734.85883 5387.7676 3292218
-995.56335 728.95911 5344.5122 3094840
-956.80872 724.96637 5315.2388 3094840
-910.48456 714.74347 5240.2876 3226426
-867.93567 706.83026 5182.27 3160633
-829.69476 701.94659 5146.4648 3029046
-794.2016 699.08679 5125.4976 2962997
-759.13397 696.37622 5105.6245 2897460
-718.95215 688.52942 5048.0942 2896947
-676.18011 677.36572 4966.2451 2962996
-645.59088 677.91791 4970.2935 2962487
-620.58618 684.68738 5019.9253 2962743
-599.78973 697.0705 5110.7148 2370606
-590.91248 725.48389 5319.0332 1515041
-558.73547 726.97809 5329.9883 1515041
-536.10022 741.86627 5439.144 2370606
-526.95074 778.70447 5709.231 2239020
-485.16467 769.16693 5639.3042 2502193
-442.10205 755.94836 5542.3896 3160636
-406.38217 754.10187 5528.8516 3292995
-354.31882 718.75745 5269.7168 3095617
-336.70013 753.20227 5522.2563 4281191
-320.77585 799.76141 5863.6138 6718875
-284.00842 799.6767 5862.9932 7508137
-240.39552 777.42896 5699.8789 6653343
-210.46834 799.39893 5860.9561 6257814
-175.16348 805.91315 5908.7168 5532806
-133.94958 781.44611 5729.3315 3689571
-99.362602 791.87878 5805.8208 5596536
-63.472672 797.98041 5850.5562 6517630
-26.592497 791.29639 5801.5508 3950670
9.658782 783.40973 5743.728 3161148
46.893871 804.84387 5900.877 3424319
84.360756 809.60449 5935.7808 3621183
121.84272 811.55243 5950.0625 3686977
159.89034 815.47266 5978.8042 3621181
194.36665 803.14758 5888.4404 3620925
225.61905 783.55853 5744.8193 3686974
263.09985 788.0144 5777.4883 3621182
302.20328 795.66461 5833.5776 3620925
348.55774 818.6955 6002.4326 3555389
392.06912 831.21289 6094.207 3621182
434.0694 838.58942 6148.2891 3686974
472.85608 839.06091 6151.7461 3555389
512.26691 840.48541 6162.1904 3555645
552.10254 842.3584 6175.9229 3489596
580.58209 827.79449 6069.1445 3489596
622.81458 833.4248 6110.4238 3621182
654.47467 825.07458 6049.2026 3555644
691.93475 824.55011 6045.3574 3555645
730.80396 825.6723 6053.585 3687231
766.22833 822.9837 6033.8726 3753024
797.28772 816.07996 5983.2568 3753024
831.44769 812.82751 5959.4106 3753024
858.9101 803.58832 5891.6719 3621694
886.82861 795.5199 5832.5161 3489598
919.94653 792.5694 5810.8843 3555393
956.65796 792.82166 5812.7339 3621187
972.42303 776.33301 5691.8438 3423552
961.7149 740.62366 5430.0337 1318438
988.73718 735.41821 5391.8687 265496
1022.7866 735.61072 5393.2803 922917
1065.088 741.53613 5436.7236 857127
1079.8978 728.54724 5341.4927 988201
1114.1932 729.08997 5345.4717 988202
1140.6339 724.61096 5312.6333 856615
1170.5277 722.51758 5297.2852 790821
1202.4141 721.73553 5291.5518 725285
1228.7135 717.73206 5262.1992 724258
1242.5731 706.86121 5182.4971 395548
1280.3632 709.81055 5204.1211 527135
1304.8333 705.41248 5171.8755 462362
1340.8632 707.3255 5185.9014 396312
1397.8495 719.94128 5278.3965 659996
1403.7728 706.28259 5178.2549 2567989
1440.7333 708.50385 5194.5405 3752773
1555.6351 748.10938 5484.9165 3753029
1644.417 773.71313 5672.6357 3752771
1680.9136 774.15332 5675.8628 3686977
1743.835 786.4931 5766.335 3818562
1814.6699 801.8288 5878.7715 3884355
1875.7555 812.33221 5955.7793 3753026
1946.0524 826.33698 6058.4585 3687488
2030.3939 845.6557 6200.0977 3687231
2081.1399 850.5191 6235.7549 3687232
2141.4331 859.0332 6298.1777 3753025
2222.0112 875.22925 6416.9219 3686975
2310.8484 894.04504 6554.8735 3753026
2357.4731 896.15717 6570.3589 3686976
2430.9749 908.2384 6658.9351 3424060
2484.0303 912.40186 6689.4604 3423804
2533.9609 915.29852 6710.6978 3752769
2561.5117 910.14856 6672.9399 3686975
2608.092 911.81702 6685.1724 3818306
2655.3499 913.66583 6698.7275 3818562
2681.4165 908.27899 6659.2329 3752769
2744.1946 915.30194 6710.7231 3620927
2816.9741 925.39862 6784.749 3687490
2854.0623 923.64447 6771.8877 3819332
2882.7295 919.25635 6739.7158 4082247
2892.3088 908.99597 6664.4897 3950662
2942.1333 911.49597 6682.8188 3884867
2959.9841 904.15906 6629.0269 3950403
2951.0483 888.95624 6517.564 4081733
2976.6526 884.43091 6484.3857 3950403
3009.9302 882.27673 6468.5923 3818817
3024.8975 874.88397 6414.3901 3753024
3009.6206 859.05231 6298.3174 3687231
3047.0764 858.4873 6294.1753 3424059
3061.1362 851.4295 6242.4292 3424059
3068.8813 842.81549 6179.2734 3424059
3056.6697 829.00354 6078.0088 3489852
3033.6421 812.63428 5957.9941 3555645
3030.9734 802.05023 5880.395 3621181
2976.1633 778.0885 5704.7148 3686718
3031.4634 783.14124 5741.7598 3555132
3064.5513 782.40436 5736.3574 3686717
2968.8286 749.17944 5492.7622 3752254
3019.1956 753.15912 5521.9395 4080193
2924.1216 721.17834 5287.4663 4146243
2826.698 689.34106 5054.0449 3619128
2535.9509 611.58606 4483.9683 2829099
2564.0444 611.58606 4483.9683 2697256
2653.2158 625.99677 4589.623 2894892
2716.2927 634.00775 4648.3569 3092015
2739.5027 632.64209 4638.3447 3487286
2754.3079 629.38458 4614.4614 3817021
3007.9482 680.2038 4987.0532 3751484
3110.7263 696.21362 5104.4321 3751741
3216.5945 712.58215 5224.4414 3817278
3335.3445 731.44586 5362.7446 3621182
3454.5706 750.03668 5499.0469 3621181
3626.0647 779.49634 5715.0366 3620925
3816.5002 812.41199 5956.3643 3423546
3800.9404 801.26483 5874.6367 3489339
3849.8877 803.79974 5893.2217 3555132
3906.604 807.89307 5923.2329 3555133
3989.7864 817.33099 5992.4292 3489341
4183.3511 848.99475 6224.5781 3555134
4222.7578 849.07678 6225.1797 3620927
4269.6172 850.64203 6236.6553 3621183
4304.0195 849.71954 6229.8926 3686720
4347.3315 850.55688 6236.0317 3620927
4397.2388 852.65833 6251.4385 3555134
4447.1216 854.71777 6266.5376 3555134
4438.0283 845.50543 6198.9961 3423548
4450.7544 840.57385 6162.8389 3489341
4449.8193 833.16919 6108.5498 3686720
4414.3555 819.48083 6008.1909 3752510
4426.3618 814.76184 5973.5928 3752512
4427.5884 808.15436 5925.1484 3621182
4422.7563 800.56018 5869.4702 3555134
4433.8315 795.94684 5835.6465 3620927
4422.5845 787.43445 5773.2363 3752513
4397.7144 776.65436 5694.1997 3752513
4275.0498 748.91571 5490.8286 3884098
4332.6895 752.95416 5520.437 3818304
4364.1924 752.42242 5516.5386 3752511
4409.0591 754.18488 5529.4604 3686718
4353.9194 738.94684 5417.7397 3620925
4228.8892 712.17456 5221.4531 3620925
4257.0298 711.41028 5215.8496 3620925
4217.7568 699.47766 5128.3633 3751998
4268.0913 702.47375 5150.3296 3817791
4241.311 692.828 5079.6099 3817791
4164.6021 675.23071 4950.5918 3882815
nan nan nan 16777215
nan nan nan 16777215
nan nan nan 16777215
nan nan nan 16777215
nan nan nan 16777215
nan nan nan 16777215
nan nan nan 16777215
nan nan nan 16777215
4657.4849 707.70709 5188.6987 3685178
4685.7432 707.06567 5183.9966 3620157
4765.9829 714.22296 5236.4717 3751229
4909.4194 730.68823 5357.1899 3882560
5012.6138 740.9812 5432.6548 3883586
5084.0649 746.47449 5472.9302 4014915
5131.4092 748.37842 5486.8892 3949122
5183.1157 750.88898 5505.2959 3949122
5307.2266 763.78638 5599.856 3949122
5405.814 772.86536 5666.4199 3949122
5453.3027 774.56787 5678.9023 4014915
5491.6606 774.9599 5681.7764 3949122
5562.1846 779.85675 5717.6787 3949122
5642.2695 786.02283 5762.8867 3949122
5692.4814 787.97534 5777.2021 3883329
5757.0664 791.88025 5805.8315 3817536
5820.1104 795.52551 5832.5576 3817536
5856.6025 795.51868 5832.5073 3751743
5887.4365 794.74799 5826.8569 3685950
5917.7725 793.92017 5820.7876 3751743
5907.126 787.63782 5774.7275 3817793
nan nan nan 16777215
nan nan nan 16777215
nan nan nan 16777215
nan nan nan 16777215
nan nan nan 16777215
nan nan nan 16777215
-4329.2129 658.19092 4614.8003 2304300
-4369.0435 668.71271 4688.5718 2304300
-4436.0479 683.56409 4792.7002 2698545
-4486.2134 696.00555 4879.9312 2895924
-4493.3052 701.88928 4921.1841 2961972
-4462.4722 701.88928 4921.1841 3159350
-4639.9995 734.88959 5152.5605 3093813
-4671.2964 745.03003 5223.6582 2962227
-4713.0356 756.9906 5307.5181 2830640
-4747.4834 767.94171 5384.3003 2830641
-4773.8247 777.729 5452.9219 2830641
-4685.8687 768.90228 5391.0347 3291192
-4583.0977 757.49884 5311.0815 3291192
-4549.8223 757.49884 5311.0815 3159606
-4461.2275 748.22089 5246.0308 3356985
-4544.7612 767.88824 5383.9253 3752256
-4564.5884 777.00537 5447.8486 3817793
-4558.4038 781.79865 5481.4556 3818049
-4561.5708 788.2807 5526.9033 3818306
-4536.6777 789.97583 5538.7886 3818305
-4503.8315 790.30145 5541.0718 3818562
-4503.3003 796.34668 5583.457 3752511
-4498.251 801.68134 5620.8599 3621182
-4439.6909 797.48822 5591.4604 3554105
-4404.6587 797.48822 5591.4604 3357753
-4429.125 808.34711 5667.5962 3423546
-4405.688 810.56818 5683.1685 3555132
-4387.5029 813.7995 5705.8247 3555132
-4362.7646 815.85852 5720.2612 3752511
-4348.1606 819.86261 5748.335 3621181
-4315.1045 820.42517 5752.2793 3686718
-4274.7173 819.59161 5746.4351 3686718
-4232.6338 818.41602 5738.1924 3686718
-4194.231 817.93799 5734.8408 3818304
-4159.4448 818.16302 5736.4185 3752511
-4123.5039 818.16302 5736.4185 3818304
-4083.1934 817.28827 5730.2852 3884097
-4015.0378 810.77515 5684.6196 3884097
-3911.0051 796.83575 5586.8857 3884097
-3762.3523 773.47156 5423.0718 3686718
-3699.731 767.52917 5381.4077 3752511
-3643.4341 762.80157 5348.2607 3752511
-3579.6858 756.41162 5303.459 3555132
-3534.2051 753.79828 5285.1357 3554876
-3477.6343 748.7478 5249.7251 3489339
-3406.0388 740.33502 5190.7402 3424315
-3361.6482 737.73029 5172.4775 3555645
-3290.4778 729.14069 5112.2529 3753024
-3179.522 711.47949 4988.4243 3884355
-3056.5647 690.75549 4843.1211 3950148
-2780.4062 634.64655 4449.7222 3819331
-2737.5393 631.19073 4425.4927 3884613
-2700.4595 629.01221 4410.2183 4083017
-2618.9395 616.33032 4321.3013 4872789
-2501.5737 594.85956 4170.7622 5201497
-2482.0977 596.4588 4181.9751 5333083
-2473.459 600.72418 4211.8813 5267290
-2472.2253 606.89948 4255.1782 5004374
-2468.9941 612.71356 4295.9429 5069910
-2506.0476 628.76331 4408.4731 3885892
-2533.3379 642.69391 4506.145 3555902
-2586.5088 663.57819 4652.5718 3555902
-2702.2598 701.17676 4916.188 3555645
-2720.387 714.01898 5006.2295 3489852
-2689.0215 714.01898 5006.2295 3621438
-2730.4958 733.58856 5143.4385 3490108
-2756.7861 749.49744 5254.981 3226680
-2756.8069 758.5625 5318.5391 2897715
-2754.6465 767.24182 5379.3931 3226680
-2751.0066 775.71918 5438.8306 3292729
-2763.2693 788.9494 5531.5923 3292473
-2744.4619 793.53223 5563.7241 3424059
-2723.8376 797.70087 5592.9517 3424059
-2711.1926 804.34534 5639.5381 3555645
-2741.9543 824.21307 5778.8379 3818817
-2768.0356 843.18689 5911.8696 3884867
-2713.9248 837.91626 5874.915 3818817
-2675.1482 837.30011 5870.5952 4016196
-2639.9087 837.78937 5874.0254 4082246
-2610.6074 840.20361 5890.9526 4213575
-2580.9353 842.56604 5907.5166 4213575
-2545.1968 842.98785 5910.4741 4147782
-2519.6294 846.84076 5937.4883 4147782
-2486.5374 848.24225 5947.3145 4081989
-2448.8516 848.09552 5946.2852 4147782
-2401.4097 844.51306 5921.168 4016196
-2380.3005 850.22418 5961.21 4016196
-2304.252 836.1806 5862.7456 4147782
-2222.8071 819.69196 5747.1387 4213575
-2184.3037 818.75641 5740.5796 3950403
-2126.0195 810.25092 5680.9443 4016196
-2093.6995 811.51941 5689.8384 4016196
-2073 817.41418 5731.1685 4016196
-2050.0691 822.62134 5767.6772 3950403
-1959.2316 800.27771 5611.0186 3950660
-1915.4905 796.70642 5585.979 3884610
-1870.7141 792.56354 5556.9321 3884610
-1836.8507 792.97473 5559.8149 3950660
-1791.0914 788.16711 5526.1069 3818817
-1728.1058 775.44006 5436.8735 3819074
-1680.8895 769.41949 5394.6611 3950147
-1630.2627 761.55865 5339.5464 3884100
-1580.9093 753.97577 5286.3804 3884099
-1498.0104 729.72736 5116.3662 3423548
-1517.3812 755.3266 5295.8511 2830641
-1458.7938 742.39655 5205.1943 2567726
-1426.1818 742.39655 5205.1943 2633517
-1407.6495 749.8974 5257.7852 2501930
-1357.6963 740.61768 5192.7217 2567469
-1340.9456 749.43872 5254.5693 3028019
-1355.3669 776.56409 5444.7544 3488313
-1184.4994 696.18689 4881.2026 3422520
-1071.3236 646.3562 4531.8228 3290933
-1026.1349 635.9472 4458.8418 3159605
-972.63947 619.66351 4344.6709 3028020
-1123.0007 736.05743 5160.7485 3357497
-1089.7633 735.44751 5156.4722 3357754
-1072.5371 745.93597 5230.0103 3291961
-1002.2687 719.03278 5041.3828 3291960
-964.23212 714.25427 5007.8794 3226168
-904.0769 692.21906 4853.3828 3423803
-852.19073 675.2016 4734.0679 2962996
-821.32312 674.21063 4727.1196 2765360
-790.31982 673.02991 4718.8413 2502446
-759.53796 671.95343 4711.2935 2568239
-730.0202 671.95343 4711.2935 2699312
-695.07825 666.75018 4674.812 2699312
-659.18433 660.13593 4628.437 2501933
-634.04266 664.17609 4656.7642 2765874
-604.86658 664.17609 4656.7642 2962999
-581.5094 670.88934 4703.833 3225659
-560.38617 681.03436 4774.9629 2896950
-563.12036 722.95251 5068.8657 2370606
-551.04144 749.72717 5256.5918 2107434
-518.10724 749.72717 5256.5918 2502448
-465.51779 719.35431 5043.6372 2700084
-436.01175 722.82568 5067.9761 2831927
-404.37567 723.03363 5069.4346 2897721
-381.67603 740.6178 5192.7227 3622478
-357.3212 757.9679 5314.3701 6320765
-333.19449 779.41736 5464.7598 5532540
-308.93488 805.43341 5647.167 5402497
-280.06879 824.61621 5781.6646 6125968
-237.55083 803.33154 5632.4302 6257298
-202.2619 803.33154 5632.4302 6323347
-165.62943 796.86749 5587.1084 6257042
-129.83395 792.04498 5553.2964 4019820
-98.172394 818.14264 5736.2759 5005684
-62.4921 821.55084 5760.1724 6189183
-25.787243 802.3963 5625.8726 6122359
9.6245022 816.29816 5723.3433 2897975
45.713726 820.4386 5752.374 3358270
81.754135 820.4386 5752.374 3424059
118.13042 822.77814 5768.7769 3357496
154.27361 822.77814 5768.7769 2962995
189.82211 820.20862 5750.7612 3160374
223.20726 810.60242 5683.4087 3357753
256.75058 804.13483 5638.0625 3291960
296.34671 815.8963 5720.5259 3226167
333.89902 820.09973 5749.998 3160374
371.5477 823.69824 5775.228 2765616
409.3287 826.92535 5797.8545 3160374
443.99084 823.83923 5776.2163 3160374
480.18066 823.83923 5776.2163 3160374
508.40518 811.13116 5687.1157 3160374
542.60211 808.99225 5672.1191 3160374
583.38916 816.33777 5723.6211 3226167
620.22504 817.6239 5732.6387 3226424
650.37384 810.4364 5682.2446 3226424
687.94019 812.7583 5698.5244 3226423
718.56128 807.05054 5658.5054 3226680
756.07709 809.25928 5673.9912 3226680
790.91248 808.52942 5668.874 3358010
817.34558 799.64203 5606.5615 3424315
849.77136 797.10828 5588.7969 3423804
869.69153 783.50885 5493.4463 3226684
897.82275 778.06055 5455.2466 3225659
920.62738 768.56506 5388.6704 3028281
946.46448 762.18341 5343.9268 1251876
976.04584 759.15002 5322.6587 527641
1019.2258 766.54443 5374.5034 1053988
1057.4442 769.85376 5397.7061 988456
1073.7096 757.47064 5310.8838 856871
1101.1614 753.48651 5282.9497 856617
1131.9966 751.98236 5272.4038 790822
1161.637 749.79248 5257.0493 725285
1193.3169 749.00342 5251.5171 921381
1206.2107 736.78168 5165.8267 658464
1233.6321 733.84064 5145.2061 461342
1270.4971 736.52393 5164.0195 527132
1296.7439 733.07135 5139.812 527131
1331.6324 734.55304 5150.2007 527640
1397.8495 752.8371 5278.3965 331032
1411.2716 742.49951 5205.916 1317667
1419.1072 729.75623 5116.5684 3292222
1522.787 765.77368 5369.0991 3884358
1581.5839 778.15149 5455.8843 3752771
1622.1351 781.21851 5477.3882 3818563
1674.8669 789.90308 5538.2788 3818563
1739.0641 803.53265 5633.8403 3818563
1815.5778 822.19763 5764.7065 3818820
1885.0468 837.00641 5868.5361 3884356
1932.1823 841.52161 5900.1938 3752770
1986.8317 849.07849 5953.1777 3686977
2035.645 853.90875 5987.0439 3621185
2082.1611 857.61792 6013.0503 3686977
2125.417 859.87634 6028.8848 3752770
2174.0317 864.18604 6059.1016 3686977
2215.948 865.73083 6069.9326 3423806
2254.2307 865.82794 6070.6133 3489855
2288.5217 864.414 6060.7002 3423805
2347.8103 872.33423 6116.2314 3423549
2387.4521 872.81738 6119.6191 3489599
2437.2244 876.93036 6148.4561 3489853
2480.011 878.44086 6159.0474 3424059
2529.3547 882.1922 6185.3491 3424059
2578.5771 885.78845 6210.564 3555644
2619.439 886.44867 6215.1929 3687231
2624.303 875.08594 6135.5244 3753024
2674.8218 879.05511 6163.354 3818817
2711.803 878.52576 6159.6421 3884610
2743.6746 876.37909 6144.5913 3950146
2765.825 871.22974 6108.4873 3950403
2788.7703 866.46783 6075.1001 3950403
2823.062 865.31201 6066.9966 3884610
2756.7673 833.76532 5845.812 3884610
2845.2844 849.25372 5954.4062 3555645
2880.488 848.63428 5950.063 3424059
2900.1191 843.5014 5914.0747 3489852
2911.7554 836.20203 5862.896 3686718
2883.5742 817.79211 5733.8184 3752767
2864.2371 802.31268 5625.2866 3884354
2840.9805 786.12506 5511.7896 3949890
2854.4465 780.3656 5471.4082 3818560
2854.8042 771.20172 5407.1572 3752254
2890.875 771.78729 5411.2627 3883070
2888.4355 762.1972 5344.0234 3948863
2862.2173 746.62408 5234.835 4014400
2795.062 720.84619 5054.0972 4408644
2672.1133 681.41791 4777.6523 3618871
2535.9509 639.53088 4483.9683 2697513
2560.0498 638.53455 4476.9824 2697257
2626.9697 648.12457 4544.2217 2829099
2729.1223 666.1084 4670.312 2894892
2722.9653 657.55548 4610.3447 3290163
2706.3411 646.68091 4534.0996 3948093
2859.2395 676.11908 4740.5005 3882814
3012.0427 704.92963 4942.501 3686205
3120.9531 722.98584 5069.0991 3686206
3222.0874 738.89502 5180.6436 3752254
3298.1721 748.79962 5250.0884 3751998
3410.9021 766.7464 5375.9194 3752254
3524.71 784.58197 5500.9707 3686718
3469.5322 764.82117 5362.4209 3620925
3542.4871 773.41388 5422.6675 3686719
3625.3599 783.98816 5496.8071 3489342
3693.8894 791.29089 5548.0093 3423548
3887.0398 824.90448 5783.6851 3291962
3926.543 825.59125 5788.5005 3489341
3996.686 832.6488 5837.9834 3555134
4052.3572 836.59076 5865.6216 3620927
4081.6506 835.06519 5854.9258 3555134
4123.9346 836.20093 5862.8887 3555134
4150.0122 834.05951 5847.8745 3489341
4186.6509 834.05951 5847.8745 3620927
4203.0322 830.05872 5819.8237 3620925
4203.5269 823.01648 5770.4482 3752511
4159.8657 807.52264 5661.8154 3686719
4122.2852 793.46124 5563.2261 3555132
4157.1401 793.46124 5563.2261 3423546
4163.1382 787.99915 5524.9297 3357756
4169.8989 782.77026 5488.2681 3489341
4161.2368 774.75543 5432.0732 3489342
4083.7112 754.15344 5287.6255 3686720
4092.0742 749.61658 5255.8164 3686977
4096.8481 744.50006 5219.9429 3752511
4005.4702 722.12982 5063.0972 3620925
4037.1924 722.12982 5063.0972 3489339
4069.543 722.24146 5063.8799 3555132
4067.7717 716.34235 5022.5195 3555132
4061.9529 709.82654 4976.835 3555389
4024.4934 697.92291 4893.3745 3685948
4049.1147 696.88385 4886.0894 3685948
3980.3628 679.91077 4767.085 3817534
3922.3452 665.01044 4662.6138 3751484
nan nan nan 16777215
nan nan nan 16777215
3585.604 594.6319 4169.166 3290677
nan nan nan 16777215
nan nan nan 16777215
nan nan nan 16777215
nan nan nan 16777215
nan nan nan 16777215
4211.752 669.21985 4692.1274 3685434
4372.6836 689.97485 4837.6479 3685437
4423.4648 693.18292 4860.1406 3685437
4531.2622 705.22083 4944.5425 3816767
4750.124 734.26331 5148.1689 3948609
4756.6191 730.30823 5120.439 3949378
4835.6875 737.47412 5170.6812 3883329
4874.9575 738.5155 5177.9829 3817536
4969.6133 747.87811 5243.6274 3883329
5080.6255 759.56305 5325.5542 3620157
5147.4087 764.52637 5360.354 3488571
5205.335 768.11835 5385.5386 3620157
5278.793 773.94128 5426.3647 3685950
5323.8594 775.55359 5437.6694 3685950
5416.1011 783.97412 5496.7085 3685950
5484.8745 788.91266 5531.3345 3620157
5564.9551 795.40527 5576.8564 3620157
5523.6763 784.57916 5500.9507 3554364
5630.4102 794.78046 5572.4756 3620157
5660.3438 794.08179 5567.5771 3620157
5655.7998 788.58466 5529.0347 3554364
nan nan nan 16777215
nan nan nan 16777215
nan nan nan 16777215
nan nan nan 16777215
nan nan nan 16777215
nan nan nan 16777215
-4114.9751 652.9563 4386.4297 2962228
-4211.1035 672.70251 4519.0811 3159607
-4219.6572 678.63165 4558.9116 3685949
-4255.0083 688.98077 4628.4351 3686206
-4325.875 705.26221 4737.8105 3488827
-4324.9819 709.98846 4769.5605 3488571
-4426.748 731.75031 4915.752 3422778
-4477.5381 745.33154 5006.9883 3488571
-4538.7788 760.85632 5111.2808 3554364
-4551.4111 768.39551 5161.9272 3620157
-4444.6865 755.7478 5076.9624 3554364
-4489.4907 768.86847 5165.1045 3422778
-4461.395 769.60425 5170.0474 3554364
-4408.6636 766.06995 5146.3047 3554365
-4411.4893 772.20856 5187.5425 3620157
-4379.3892 772.27942 5188.0186 3423291
-4394.5596 780.74951 5244.9189 3686205
-4374.4316 783.02869 5260.23 3818047
-4356.2339 785.69067 5278.1128 4212548
-4296.0557 780.76392 5245.0156 4343879
-4309.1646 789.18286 5301.5728 4014913
-4277.772 789.51953 5303.834 3883584
-4256.3501 791.71588 5318.5889 3817790
-4230.7783 793.16901 5328.3506 3751484
-4227.6772 798.89148 5366.793 3423803
-4214.4727 802.78113 5392.9229 3423546
-4145.3589 795.99786 5347.3545 3686718
-4083.5374 790.51575 5310.5264 3620925
-4058.2708 792.07819 5321.0229 3752511
-4024.9331 792.07819 5321.0229 3818304
-3989.7341 791.70898 5318.5425 3686718
-4009.0959 802.25146 5389.3647 3884097
-3924.7849 792.05103 5320.8403 4081476
-3879.7275 789.66553 5304.8149 4213318
-3851.1299 790.6178 5311.2119 4278854
-3829.3525 792.99908 5327.209 4279112
-3788.4209 791.42078 5316.6064 4410441
-3742.085 788.67548 5298.1641 4278855
-3676.9199 781.87714 5252.4941 4147526
-3594.1108 771.17023 5180.5674 4015939
-3522.5967 762.71375 5123.7583 3950146
-3457.8442 755.57922 5075.8301 3949634
-3430.1335 756.48145 5081.8911 3884097
-3379.9053 752.38812 5054.3926 3753280
-3338.7371 750.25311 5040.0503 3884610
-3236.8989 734.31396 4932.9741 3818817
-3143.051 719.89758 4836.1279 4016196
-3012.4119 696.69177 4680.2358 4279625
-2851.3462 665.92371 4473.542 4411211
-2776.5713 654.89771 4399.4717 4477004
-2694.5325 641.92017 4312.291 4280138
-2692.7273 647.98743 4353.0498 4148811
-2655.3176 645.52319 4336.4956 4280651
-2500.2395 614.10638 4125.4438 5070424
-2478.8428 615.21088 4132.8638 5202010
-2470.9978 619.73761 4163.2734 5202008
-2463.3313 624.40619 4194.6357 5202008
-2463.4595 631.17249 4240.0903 5004629
-2436.894 631.17249 4240.0903 5004372
-2448.1338 641.07227 4306.5952 4017221
-2443.4805 646.98444 4346.312 2898482
-2519.3953 674.60321 4531.8491 2963252
-2535.8728 686.75488 4613.4819 3226680
-2560.1133 701.31348 4711.2837 3687231
-2590.5798 717.93713 4822.958 3753024
-2598.6824 728.68231 4895.1416 3621694
-2568.199 728.73499 4895.4961 3555645
-2612.2595 750.1969 5039.6729 3621438
-2587.2197 752.09668 5052.4351 3687231
-2588.2087 761.7038 5116.9736 3687231
-2561.8262 763.39545 5128.3379 3687231
-2549.1465 769.26526 5167.77 3687487
-2527.334 772.49445 5189.4634 3687487
-2518.2847 779.76001 5238.2715 3753024
-2474.7722 776.40527 5215.7354 3884610
-2461.1306 782.45746 5256.3926 4016196
-2468.6365 795.4884 5343.9321 3884610
-2459.6426 803.48773 5397.6699 3884610
-2439.2622 807.9386 5427.5698 4016196
-2429.8042 816.18414 5482.9619 4147782
-2379.175 810.63831 5445.7061 4279368
-2367.8621 818.52197 5498.6665 4279368
-2345.3496 822.70978 5526.7993 4345161
-2336.0642 831.73236 5587.4116 4213575
-2314.0208 836.41815 5618.8896 4147782
-2290.0818 840.55292 5646.666 4016453
-2241.4397 835.60809 5613.4478 4213575
-2182.679 826.67322 5553.4253 4081989
-2107.6079 811.17157 5449.2881 4147782
-2062.9668 807.06384 5421.6934 4016196
-1993.8701 793.09119 5327.8276 3950403
-1960.4897 793.09119 5327.8276 3950403
-1933.1473 795.57611 5344.521 4081989
-1863.5155 780.43787 5242.8257 4081989
-1833.4336 781.61707 5250.7471 4016196
-1782.5076 773.79089 5198.1724 3884610
-1744.2471 771.27386 5181.2632 3950403
-1710.4371 770.66656 5177.1841 3950403
-1660.5472 762.6507 5123.335 3884610
-1595.3618 747.15552 5019.2412 3819073
-1563.9147 747.15552 5019.2412 3884356
-1532.9651 747.39807 5020.8706 3950149
-1429.8413 711.72504 4781.2266 3818820
-1373.4789 698.2995 4691.0361 3753027
-1347.1033 699.86597 4701.5596 3818306
-1279.7297 679.7265 4566.2666 3686976
-1284.9772 698.12061 4689.8345 3357755
-1219.3066 677.94458 4554.2959 4015685
-1177.7931 670.55493 4504.6538 4213323
-1190.4198 694.38293 4664.7256 4936787
-1170.9659 700.22656 4703.9819 3818563
-1077.7572 661.12854 4441.3291 3555390
-1040.0692 654.9187 4399.6128 3686720
-1000.6165 647.22931 4347.957 3686720
-972.63947 646.74011 4344.6709 3818563
-975.38385 667.23865 4482.3755 3752770
-966.92511 681.0614 4575.2344 3818306
-952.68091 691.52942 4645.5562 3752513
-901.67487 675.13153 4535.3984 3949892
-830.22845 641.86377 4311.9121 4213064
-798.28418 637.92505 4285.4526 3752770
-796.32227 658.50555 4423.7085 3555391
-769.71094 659.4519 4430.0659 3621184
-712.64612 633.40192 4255.0674 3686977
-699.50696 645.88568 4338.9307 3686977
-694.46252 667.1554 4481.8164 3358012
-657.48651 658.24902 4421.9854 3555392
-621.7782 649.88403 4365.791 4410958
-601.86194 658.01471 4420.4111 4476751
-572.34332 655.92505 4406.373 4279116
-536.5788 646.10278 4340.3892 3226429
-515.78424 654.21973 4394.917 3884615
-484.01517 648.547 4356.8091 4476496
-475.28778 674.91577 4533.9492 4542289
-440.55383 665.35974 4469.7534 4147788
-412.54944 665.35974 4469.7534 4016715
-389.47342 673.88708 4527.0386 4148046
-363.27899 677.93451 4554.2285 4345425
-358.42612 725.89343 4876.4067 4477269
-334.24927 740.008 4971.2256 4148307
-316.12708 771.80554 5184.8354 3688527
-280.41449 763.02209 5125.8296 4016723
-264.06052 811.45532 5451.1943 3885394
-228.68781 807.15179 5422.2842 3754323
-191.5677 794.10321 5334.6265 3819860
-158.88731 797.83252 5359.6792 3622738
-122.43301 779.53217 5236.7412 3425100
-88.213463 767.27039 5154.3691 3490634
-60.806118 834.3161 5604.7686 3819340
-25.084158 814.62439 5472.4839 4016717
9.202651 814.62439 5472.4839 3950150
43.637115 817.39032 5491.0645 3621441
77.626923 813.06018 5461.9756 3489852
111.96619 813.92017 5467.7529 3424057
146.22337 813.92017 5467.7529 3555389
179.71751 810.47913 5444.6367 3489596
212.26421 804.54486 5404.7715 3555389
250.73265 819.60059 5505.9131 3686975
286.22522 822.46356 5525.146 3555388
320.24713 820.93866 5514.9019 3752511
352.01807 814.50256 5471.665 3620925
385.57782 812.98041 5461.4395 3423803
419.79541 812.98041 5461.4395 3160631
454.03448 813.0188 5461.6978 3160374
481.35397 801.5296 5384.5156 3160374
510.84702 794.92767 5340.165 3291960
542.79132 792.71735 5325.3164 3423546
576.15607 792.71735 5325.3164 3226167
610.15607 793.54352 5330.8667 3095094
642.35809 792.06683 5320.9468 3160886
673.33563 789.30066 5302.3638 3292216
704.62427 787.14203 5287.8628 3292216
737.7597 787.14777 5287.9009 3226424
770.35236 786.59869 5284.2124 3160631
799.24316 782.47076 5256.4819 3094582
820.48474 771.47723 5182.6294 3160375
850.96735 769.67889 5170.5488 3028535
895.40637 780.17285 5241.0454 2831158
938.03912 788.40619 5296.355 1712423
972.94684 789.80609 5305.7593 1383462
1006.1891 789.80609 5305.7593 1186342
1028.4764 781.48199 5249.8398 1251625
1060.5687 780.89331 5245.8853 1185066
1088.0189 777.02478 5219.897 1053479
1122.342 778.14716 5227.437 921893
1150.3958 774.98248 5206.1772 922149
1175.02 769.74567 5170.9971 856356
1193.249 760.71271 5110.3159 658464
1226.3173 761.36493 5114.6973 395547
1262.1566 763.66064 5130.1191 658206
1293.3741 763.1153 5126.4561 461849
1325.8856 763.34131 5127.9741 461847
1381.9418 776.79114 5218.3276 461845
1387.0503 761.64343 5116.5684 1054237
1406.1992 754.7157 5070.0288 2831414
1455.9242 764.14178 5133.3516 3555136
1505.7196 773.19659 5194.1802 3555392
1550.1777 779.18561 5234.4131 3621184
1596.4642 785.82648 5279.0249 3555391
1638.6749 790.23218 5308.6216 3621184
1691.8385 799.63947 5371.8179 3555390
1740.2146 806.461 5417.6436 3555647
1789.3751 813.3783 5464.1123 3489597
1831.1716 816.75116 5486.7705 3555390
1878.8652 822.5816 5525.9385 3555390
1917.3174 824.22815 5537 3555390
1959.3326 827.32086 5557.7759 3555390
2016.3615 836.53418 5619.6689 3489598
2072.6599 845.13348 5677.4375 3489597
2119.2778 849.56201 5707.1875 3555648
2186.27 861.87537 5789.9062 3752770
2222.5457 861.87537 5789.9062 3818563
2238.9524 854.29425 5738.978 3752770
2274.9089 854.29425 5738.978 3555902
2310.9241 854.31598 5739.1235 3424059
2353.2646 856.63959 5754.7334 3292473
2316.0891 830.38428 5578.3555 3292473
2351.0393 830.38428 5578.3555 3226680
2469.9443 859.60278 5774.6396 3358266
2497.6646 856.70105 5755.146 3358266
2523.2092 853.14648 5731.2671 3489852
2581.3794 860.56799 5781.1235 3555645
2620.9236 861.66064 5788.4639 3621438
2647.3516 858.47028 5767.0317 3555645
2656.5627 849.85791 5709.1758 3424059
2566.4104 810.10962 5442.1543 3160887
2600.5073 810.10962 5442.1543 3292473
2726.5808 838.39136 5632.1455 3555645
2742.8889 832.63007 5593.4424 3555388
2776.4114 832.17389 5590.3774 3423546
2747.5393 813.2605 5463.3213 3357753
2735.6584 799.77997 5372.7617 3423546
2711.8005 783.16815 5261.167 3291960
2696.1094 769.28571 5167.9072 3226167
2732.9431 770.54181 5176.3457 3357496
2769.6086 771.72156 5184.271 3685692
2716.9597 748.276 5026.7686 3423803
2746.9854 747.87616 5024.0825 3751997
2722.8547 732.9082 4923.5303 4145986
2695.0144 717.28821 4818.5986 3487799
2570.0669 676.45514 4544.2905 2500134
2561.5571 666.82825 4479.6187 2630950
2596.0073 668.47205 4490.6616 2762793
2655.4407 676.44495 4544.2217 2894379
2699.6587 680.4137 4570.8833 3158320
2659.5496 663.2688 4455.707 3685177
2782.0913 686.62244 4612.5923 3816764
2879.4622 703.34747 4724.9478 3751741
3018.8557 729.8924 4903.271 3817534
3078.8293 736.89386 4950.3057 3685948
3122.7554 739.95319 4970.8574 3751741
3206.3755 752.26489 5053.5649 3751484
3311.0923 769.23706 5167.5806 3620925
3347.2925 770.11676 5173.4902 3555132
3374.467 768.92297 5165.4707 3555134
3404.4502 768.38574 5161.8618 3555134
3507.8066 784.26324 5268.5234 3423548
3644.3562 807.19672 5422.5859 3489341
3672.5459 805.92731 5414.0581 3423548
3715.2725 807.84204 5426.9209 3423548
3760.3518 810.229 5442.9561 3423548
3802.5435 811.95642 5454.5605 3291962
3821.4084 808.71649 5432.7954 3160376
3855.4468 808.71649 5432.7954 3357755
3901.8594 811.28943 5450.0801 3423548
3906.9456 805.29956 5409.8413 3423548
3897.3738 796.41736 5350.1724 3357756
3903.072 790.78046 5312.3047 3423549
3886.5469 780.77435 5245.0859 3226169
3895.7349 776.05841 5213.4048 3160375
3887.6116 768.00085 5159.2759 3160631
3895.2937 763.17291 5126.8428 3160631
3879.5547 753.87274 5064.3662 3291961
3884.7234 748.75317 5029.9741 3226168
3849.2983 735.95496 4943.998 3291961
3860.072 732.12329 4918.2578 3489595
3843.5454 723.21539 4858.4165 3489339
3803.5144 710.05963 4770.0386 3555132
3805.9978 704.98389 4735.9409 3555132
3804.2607 699.211 4697.1597 3555132
3811.8149 695.22137 4670.3579 3489595
3821.7917 691.7309 4646.9097 3685692
3816.8115 685.60663 4605.7681 3620154
3845.6348 685.60065 4605.728 3620155
3746.3572 662.92706 4453.4111 3488569
nan nan nan 16777215
3479.4236 606.65607 4075.3938 3356213
3475.4019 601.54047 4041.0283 3225142
3446.4668 592.21796 3978.4014 6711915
3464.7588 591.08618 3970.7986 7633017
3489.6372 591.08618 3970.7986 7040879
3630.6348 610.61566 4101.9937 4869710
3765.001 628.763 4223.9043 3882558
4017.0227 666.1687 4475.188 3816766
4171.6655 687.0188 4615.2549 3685693
4265.959 697.71149 4687.0859 3751743
4339.939 704.95837 4735.7695 3751999
4379.437 706.54376 4746.4194 3883329
4574.019 732.95911 4923.8726 3949122
4612.2646 734.13629 4931.7808 4014915
4708.5283 744.47119 5001.2085 3949122
4815.7856 756.39612 5081.3179 3949122
4900.5913 764.66119 5136.8408 3751743
4940.2715 765.8233 5144.6475 3620157
4983.4585 767.51038 5155.981 3554364
5015.7627 767.51038 5155.981 3751743
5110.2847 776.97003 5219.5293 3949122
5191.7354 784.33472 5269.0039 3817536
5237.6704 786.27472 5282.0361 3685950
5241.6992 781.9389 5252.9092 3685950
5286.3945 783.68591 5264.645 3751743
5352.3975 788.55029 5297.3232 3751743
5380.5229 787.80896 5292.3428 3751743
5391.8105 784.62628 5270.9624 3685950
nan nan nan 16777215
nan nan nan 16777215
nan nan nan 16777215
nan nan nan 16777215
nan nan nan 16777215
nan nan nan 16777215
-4059.1831 671.06964 4326.9575 3554108
-4033.6392 671.33026 4328.6377 3751487
-4190.4277 702.14587 4527.3325 3620157
-4169.5352 703.40656 4535.4609 3620157
-4192.3208 712.10358 4591.5381 3554364
-4176.4238 714.30487 4605.7319 3488571
-4202.7354 723.80609 4666.9941 3488571
-4208.1348 729.81348 4705.729 3488571
-4214.4741 736.06995 4746.0698 3488571
-4209.3696 740.40247 4774.0054 3488571
-4199.522 743.9566 4796.9219 3554364
-4232.2305 755.1554 4869.1299 3488571
-4218.0112 758.08264 4888.0044 3422777
-4209.0371 762.00226 4913.2773 3422777
-4224.6626 770.46594 4967.8501 3356983
-4176.0361 767.25055 4947.1177 3422776
-4157.1943 769.50012 4961.6226 3554362
-4149.0156 773.77228 4989.1685 3620155
-3992.863 750.30328 4837.8442 3554362
-3980.2024 753.64526 4859.3926 3883327
-4087.3435 779.89795 5028.666 3949120
-4083.4875 785.21478 5062.9482 4014913
-4052.2686 785.31207 5063.5757 3949120
-3978.155 777.03253 5010.1904 4014914
-3942.3865 776.17053 5004.6323 4015684
-3914.4812 776.85529 5009.0474 4147269
-3863.6436 772.96326 4983.9521 3949890
-3868.8291 780.30707 5031.3042 3752511
-3828.3916 778.49426 5019.6152 3818561
-3783.8025 775.80023 5002.2446 3752768
-3742.3621 773.71216 4988.7812 3818817
-3672.3806 765.63855 4936.7236 4279111
-3611.3909 759.3183 4895.9717 4476491
-3629.9871 769.76666 4963.3408 4410441
-3595.8708 769.12085 4959.1768 4279111
-3566.8347 769.55969 4962.0068 4213319
-3528.9023 768.07019 4952.4023 4213062
-3461.5024 760.08362 4900.9062 4147525
-3431.4849 760.23602 4901.8892 4081733
-3403.1777 760.77374 4905.356 4015939
-3368.8816 759.96997 4900.1733 4081476
-3346.739 761.91852 4912.7373 4015683
-3280.7034 753.81763 4860.5039 4081476
-3195.7102 741.16815 4778.9424 4016196
-3121.9702 730.91412 4712.8257 4016196
-3062.1421 723.75238 4666.6479 4081989
-2992.2561 714.05243 4604.104 3884867
-2904.1016 699.76172 4511.9595 4081989
-2761.9556 672.05255 4333.2949 4016453
-2709.5334 665.84204 4293.2505 3818817
-2665.6602 661.62885 4266.0845 3951430
-2598.887 651.58887 4201.3481 4017226
-2582.0769 653.99823 4216.8833 4675665
-2485.1497 635.95532 4100.5454 5202524
-2466.3174 637.72888 4111.981 4939864
-2435.0532 636.29132 4102.7119 4874585
-2432.4133 642.38263 4141.9878 4677719
-2410.4734 643.45325 4148.8911 4480597
-2392.6694 645.66339 4163.1416 4611413
-2411.7212 657.97742 4242.5405 4874074
-2421.5266 668.01501 4307.2617 5334624
-2371.9998 661.72681 4266.7163 4872788
-2370.1191 668.73883 4311.9287 4017480
-2390.3833 682.23285 4398.936 3687488
-2493.0366 719.83032 4641.3589 3555645
-2475.4546 723.18927 4663.0171 3555645
-2475.4377 731.82123 4718.6748 3621438
-2448.1494 732.50214 4723.0649 3884610
-2452.8181 742.87854 4789.9702 4016196
-2434.46 746.45135 4813.0073 3950403
-2419.134 751.05518 4842.6924 3950403
-2413.4019 758.79236 4892.5806 3818817
-2382.748 758.79236 4892.5806 3753024
-2422.6382 781.54993 5039.3179 3687488
-2336.2041 763.6178 4923.6943 3950403
-2354.9807 780.05542 5029.6816 4082246
-2337.0723 784.62274 5059.1309 4082246
-2340.0098 796.41046 5135.1362 3884867
-2310.4695 797.31909 5140.9951 3753281
-2260.4165 791.07458 5100.7314 3884610
-2209.5222 784.35229 5057.3872 3819074
-2168.7732 781.08826 5036.3413 4081989
-2168.8169 792.63623 5110.8008 4279368
-2123.6504 787.75989 5079.3589 4345161
-2123.4043 799.65173 5156.0356 4147782
-2101.1689 803.50208 5180.8623 4016196
-2067.0227 802.84711 5176.6387 3950403
-2004.2727 790.88409 5099.5034 4016196
-1953.6147 783.38239 5051.1333 3950403
-1921.9679 783.38239 5051.1333 4016196
-1872.7465 776.09918 5004.1724 4016196
-1833.8866 772.93518 4983.771 4147782
-1791.298 768.06268 4952.354 4016196
-1737.2284 758.00891 4887.5288 4016196
-1683.6643 747.81879 4821.8247 3884610
-1635.8457 739.85498 4770.4751 3950403
-1591.7712 733.31958 4728.3359 3950660
-1566.7448 735.47809 4742.2534 3884867
-1502.335 718.87488 4635.1982 3884610
-1465.6521 715.14606 4611.1558 3687487
-1430.1814 711.87067 4590.0366 3818564
-1405.1327 713.75488 4602.1855 3752770
-1358.5077 704.52844 4542.6948 3621184
-1327.3876 703.12018 4533.6143 3358012
-1227.2151 664.27319 4283.1348 3292476
-1222.4807 676.50342 4361.9937 3424062
-1148.4453 650.06592 4191.5283 4345164
-1089.6663 631.22876 4070.0693 4937044
-1031.0125 611.56311 3943.2683 4739154
-1006.3067 611.56311 3943.2683 2897205
-1010.5019 629.56927 4059.3691 3225914
-991.01575 633.37012 4083.8762 3686208
-983.91577 645.49829 4162.0771 3751744
-942.29041 635.0199 4094.5142 3817536
-869.67773 602.48785 3884.7522 2831411
-873.18988 622.33807 4012.7434 3094583
-873.39685 640.93964 4132.6836 4278857
-844.14532 638.39923 4116.3037 4608078
-800.18402 624.22382 4024.9023 4936530
-774.96674 624.22382 4024.9023 2897718
-745.48383 620.67224 4002.0027 2897461
-733.54352 631.98755 4074.9619 4015942
-707.41998 631.45856 4071.5508 4476237
-678.87109 628.6441 4053.4036 4542288
-653.57867 628.74353 4054.0449 2897463
-632.14514 632.71338 4079.6418 2700084
-603.36841 629.35834 4058.009 4213323
-577.94373 629.35834 4058.009 4279116
-557.48853 635.01892 4094.5076 4344909
-535.89404 639.8653 4125.7563 3687493
-509.42273 639.08478 4120.7236 2831928
-483.6051 639.08478 4120.7236 4148045
-457.6745 638.927 4119.7065 4937047
-434.64169 643.0376 4146.2109 5068891
-407.63608 641.41949 4135.7778 3490117
-380.09091 638.67511 4118.0825 2963773
-361.18732 651.10919 4198.2554 4608598
-341.35162 663.68414 4279.3369 5003610
-322.45044 680.37476 4386.9556 4806745
-297.81662 686.95288 4429.3701 3490886
-279.63098 711.28479 4586.2588 4082511
-259.80737 736.54651 4749.1426 3950926
-236.70097 757.83246 4886.3911 4016718
-215.71675 793.24646 5114.7354 3951183
-186.30692 804.62897 5188.1279 4017234
-151.96103 794.99933 5126.0376 3951697
-119.8448 794.99933 5126.0376 3885647
-87.890457 796.46619 5135.4956 4148561
-55.741112 796.83972 5137.9043 4213838
-23.955338 810.53589 5226.2148 4148044
8.879797 818.9541 5280.4941 4279630
41.96373 818.9541 5280.4941 3819334
74.396774 811.85126 5234.6963 3687233
105.78971 801.21741 5166.1309 3950661
140.1286 812.65063 5239.8506 4213832
172.08934 808.56964 5213.5371 4345162
204.82799 808.86285 5215.4272 4411212
238.42313 811.99219 5235.605 4345162
269.25992 806.10669 5197.6562 4213576
299.31473 799.40265 5154.4297 4016453
330.74008 797.30847 5140.9268 4016196
364.06122 799.75043 5156.6719 4016196
400.33664 807.75513 5208.2852 4081732
426.01334 794.78009 5124.624 4213318
458.1207 794.78009 5124.624 3884354
483.86426 784.46277 5058.0996 3884610
515.51385 784.40045 5057.6978 3752511
547.2019 784.40045 5057.6978 3752511
577.4585 782.46088 5045.1914 3950403
608.27289 781.43915 5038.6035 3687231
635.86401 776.58167 5007.2832 3621182
666.0202 775.16644 4998.1582 3424060
700.01825 778.14893 5017.3887 3358266
727.60236 774.0517 4990.9702 3358009
755.42053 770.53082 4968.2681 3226168
774.36542 758.59601 4891.3145 3226169
803.82678 757.4801 4884.1191 3291708
846.73834 768.65582 4956.1787 2831413
890.42511 779.71973 5027.5171 2897207
937.64801 793.01837 5113.2646 2897466
969.6842 793.01837 5113.2646 3094589
1004.3762 795.12079 5126.8208 2765627
1034.2395 793.38879 5115.6533 2699322
1061.2952 789.67181 5091.6865 2699323
1071.7096 774.15094 4991.6104 2172980
1111.4651 780.10388 5029.9941 2107187
1141.3965 779.02344 5023.0273 2172979
1143.7396 759.6767 4898.2822 2238516
1189.3419 769.32306 4960.481 1843755
1246.5022 785.76422 5066.4907 1777962
1262.124 775.85406 5002.5918 1581353
1283.5613 769.91248 4964.2812 1449765
1291.3442 756.25555 4876.2236 2239024
1333.8706 763.10663 4920.3984 3094333
1364.417 762.94928 4919.3838 3226430
1409.9867 771.01398 4971.3838 3226429
1444.4611 772.79401 4982.8608 3029047
1482.4104 776.31848 5005.5864 3226426
1515.132 777.01593 5010.0835 3358267
1553.6549 780.59991 5033.1924 3424060
1591.587 783.75031 5053.5054 3226937
1637.2668 790.51862 5097.1465 3292217
1684.9622 797.98242 5145.2725 3292217
1728.8383 803.39124 5180.1475 3160631
1766.4613 805.74847 5195.3467 3029045
1805.5055 808.65692 5214.0996 3094838
1838.0288 808.59326 5213.6895 3291960
1874.8772 810.40137 5225.3477 3226937
1927.6742 818.92273 5280.292 3226936
1972.6489 823.88947 5312.3174 3226936
2015.5254 827.82977 5337.7231 3226936
2048.2412 827.53607 5335.8301 3358266
2085.7629 829.16248 5346.3164 3292473
2120.5195 829.65552 5349.4956 3292473
2167.1421 834.70355 5382.0444 3424059
2212.1479 838.98376 5409.6431 3292473
2260.7554 844.48029 5445.083 3160887
2309.3687 849.81531 5479.4829 3226680
2335.6614 846.90076 5460.6904 3358266
2367.6272 846.09778 5455.5127 3226680
2398.6992 845.00269 5448.4521 3226680
2390.7114 830.3717 5354.1133 3292473
2409.73 825.39594 5322.0303 3029301
2413.4634 815.39191 5257.5259 3226680
2511.6685 837.1449 5397.7861 3555645
2546.9841 837.63715 5400.96 3621438
2548.6194 827.18512 5333.5669 3555645
2577.8772 825.85291 5324.9771 3621438
2584.188 817.2973 5269.8115 3621182
2617.2051 817.2973 5269.8115 3752511
2623.0107 808.9057 5215.7036 3489339
2631.6099 801.57135 5168.4131 3160374
2662.1965 801.03119 5164.9302 3160374
2576.6182 765.97089 4938.8662 3094581
2700.0417 793.13678 5114.0283 3291960
2637.9058 765.79681 4937.7441 3883327
2616.2307 750.70038 4840.4048 3818047
2615.3425 741.84631 4783.3149 3883327
2654.2786 744.36108 4799.5298 4211522
2611.0374 724.03198 4668.4507 3618872
2588.1526 709.73547 4576.269 2368292
2570.113 697.06647 4494.5811 2433828
2574.8599 690.78516 4454.0801 2631207
2608.4309 692.28864 4463.7744 2828586
2658.5654 698.10962 4501.3071 3092528
2643.9612 686.98706 4429.5908 3487542
2666.6221 685.67786 4421.1489 3685178
2788.3589 709.60925 4575.4551 3751228
2860.1128 720.46295 4645.438 3620412
2918.7422 727.82526 4692.9092 3751741
2980.2178 735.74329 4743.9634 3685948
3045.3916 744.40894 4799.8384 3685948
3150.8567 762.65759 4917.5029 3554876
3203.0757 767.78943 4950.5923 3489339
3224.1609 765.43158 4935.3892 3555133
3272.0779 769.42804 4961.1577 3620927
3327.0371 774.98962 4997.0181 3686721
3410.2693 786.97205 5074.2788 4015685
3429.0723 784.00232 5055.1304 3884100
3499.2737 792.73071 5111.4102 3686720
3546.2144 796.07928 5133.001 3489341
3574.384 795.19159 5127.2773 3291962
3600.1736 793.79486 5118.2715 3160376
3640.9546 795.69916 5130.5498 3291962
3582.9856 776.17798 5004.6802 3357755
3614.3416 776.17798 5004.6802 3291963
3685.459 784.64331 5059.2637 3160374
3664.2068 773.46619 4987.1953 3423545
3643.7446 762.64349 4917.4121 3028787
3640.0552 755.48346 4871.2451 3029044
3695.1162 760.53455 4903.814 3225653
3693.5952 753.95264 4861.3745 3291703
3700.134 749.11005 4830.1504 3291447
3714.6128 745.94043 4809.7134 3291447
3706.4231 738.30652 4760.4907 3160117
3705.761 732.28186 4721.6445 3225653
3652.6465 716.06982 4617.1118 3356983
3646.1997 709.18951 4572.7485 3488569
3664.8059 707.25116 4560.2505 3488826
3666.5864 702.12103 4527.1719 3554619
3663.146 696.07739 4488.2036 3554105
3686.6055 695.19861 4482.5371 3488569
3713.6924 695.0119 4481.3335 3620153
3738.0664 694.32404 4476.8984 3488568
3710.252 684.02502 4410.4917 3685948
3524.8047 645.03174 4159.0688 3489595
3479.4236 632.0545 4075.3938 3357753
3479.0737 627.38696 4045.2979 3291706
3384.5264 605.92291 3906.9006 5396828
3309.1912 588.18195 3792.5098 6910323
3300.6265 582.47717 3755.7263 6383721
3446.0439 603.83484 3893.4375 3949637
3598.4285 626.10449 4037.0286 3555136
3753.7244 648.56622 4181.8589 3423803
4013.1887 688.59009 4439.9268 3554366
4069.7117 693.48151 4471.4658 3619901
4119.8359 697.22314 4495.5913 3620156
4208.7456 707.43329 4561.4248 3554364
4308.0977 719.24908 4637.6113 3685950
4369.6846 724.64386 4672.396 3554364
4405.3359 725.69446 4679.1699 3751743
4520.0562 739.67004 4769.2827 3751743
4558.2773 741.02588 4778.0249 3817536
4651.1851 751.19623 4843.6016 3883329
4734.2798 759.66016 4898.1758 3883329
4766.9536 759.97668 4900.2168 4080708
4822.4893 763.91058 4925.582 4014915
4912.6265 773.2406 4985.7407 3949122
4975.8687 778.24634 5018.0166 3817536
5028.5342 781.54535 5039.2886 3817536
5079.6558 784.5647 5058.7568 3817536
5098.3208 782.56476 5045.8613 3817536
5135.6909 783.44281 5051.5229 3817793
5141.1196 779.46741 5025.8901 3883329
nan nan nan 16777215
nan nan nan 16777215
nan nan nan 16777215
nan nan nan 16777215
nan nan nan 16777215
nan nan nan 16777215
-3831.5405 658.88947 4084.2979 3489598
-3965.196 686.45807 4255.189 3620414
-3993.0842 695.96539 4314.1226 3620157
-4007.2324 703.19128 4358.9141 3488571
-3992.1064 705.34399 4372.2583 3554364
-3964.7129 705.34399 4372.2583 3554364
-3966.5388 710.57849 4404.7056 3422778
-4008.3198 723.09412 4482.2871 3422778
-4015.2117 729.448 4521.6733 3422778
-3988.1201 729.67456 4523.0776 3356985
-3961.7424 730.03589 4525.3174 3356986
-3966.8608 736.24805 4563.8252 3422776
-3942.5234 737.04382 4568.7578 3488569
-3939.866 741.93378 4599.0693 3422776
-3943.5776 748.10406 4637.3179 3356983
-3926.9041 750.47009 4651.9844 3422776
-3857.5496 742.72845 4603.9956 3488569
-3828.7041 742.72845 4603.9956 3488569
-3818.2344 746.32025 4626.2603 3488569
-3820.5442 752.48395 4664.4678 3817534
-3800.4412 754.29425 4675.6895 3949120
-3865.5464 773.17584 4792.7319 4014913
-3835.5183 773.17584 4792.7319 3949120
-3804.0645 772.88617 4790.936 4014913
-3755.8403 769.15747 4767.8228 3752768
-3686.3965 760.98865 4717.186 3752511
-3622.175 753.77448 4672.4673 3752511
-3631.9031 761.95697 4723.1885 3752511
-3606.1282 762.76447 4728.1938 3752511
-3564.7693 760.26154 4712.6792 3818304
-3526.2427 758.32611 4700.6816 3752511
-3469.6638 752.44305 4664.2144 3686974
-3438.2468 751.96326 4661.2397 3686718
-3430.4758 756.69086 4690.5454 3620925
-3438.863 765.09528 4742.6421 3752511
-3406.502 764.50122 4738.96 3752767
-3356.7837 759.96716 4710.854 3818304
