# .PCD v0.7 - Point Cloud Data file format
VERSION 0.7
FIELDS x y z rgb
SIZE 4 4 4 4
TYPE F F F U
COUNT 1 1 1 1
WIDTH 1275
HEIGHT 1
VIEWPOINT 0 0 0 1 0 0 0
POINTS 1275
DATA ascii
-1113.1584 619.54272 1915.9609 3423546
-1114.8195 627.2312 1939.7377 3489339
-1102.6664 627.2312 1939.7377 3818304
-1085.0001 624.06018 1929.9313 3884097
-1073.2649 624.26746 1930.5723 3686974
-1061.4427 624.42834 1931.0698 3884097
-1051.4955 625.70862 1935.0292 3818304
-1042.4133 627.53961 1940.6915 3752768
-1037.8977 632.19519 1955.0891 4213062
-1025.5343 632.12482 1954.8716 4015683
-1013.2864 632.12482 1954.8716 3950147
-1000.1451 631.56067 1953.1268 3949890
-997.44128 637.65515 1971.9742 3818304
-986.69763 638.69818 1975.1998 4344648
-973.41931 638.10614 1973.369 4213062
-960.42065 637.68463 1972.0654 4147269
-944.77655 635.47272 1965.2251 4015683
-932.44342 635.45886 1965.1821 4015683
-921.0517 636.09473 1967.1486 4081476
-911.63348 638.12921 1973.4404 3884097
-902.33606 640.30548 1980.1705 3423546
-890.88971 640.99628 1982.3068 3555132
-878.81586 641.24866 1983.0874 4147269
-865.41064 640.52289 1980.843 4081476
-853.00006 640.52289 1980.843 3818304
-840.62323 640.54865 1980.9226 3686974
-827.30658 639.84827 1978.7566 3423290
-811.37695 637.07495 1970.1799 3028532
-796.3941 634.97076 1963.6729 3225654
-783.41937 634.42682 1961.9906 3094068
-772.59882 635.63788 1965.7357 3356983
-760.2829 635.63788 1965.7357 3620669
-742.67865 631.14374 1951.8375 3094838
-734.05634 634.26001 1961.4746 3358009
-721.91852 634.39313 1961.8862 3423545
-709.63586 634.40125 1961.9114 3423546
-696.47589 633.61157 1959.4695 3818304
-681.00049 630.64941 1950.3087 3884097
-671.27411 633.00018 1957.5786 3291960
-655.09485 629.24023 1945.9508 3226167
-641.79669 628.15759 1942.6027 3884097
-619.59894 618.15417 1911.6667 3555132
-607.10889 617.63251 1910.0533 3291960
-598.69446 621.31934 1921.4551 3489339
-597.12317 632.40503 1955.7382 3291960
-585.39398 632.9718 1957.4907 2962995
-569.95264 629.46301 1946.6398 2370858
-554.71338 626.02881 1936.0193 3160374
-545.9729 629.93939 1948.1129 3555132
-533.84387 630.02966 1948.3921 3160374
-522.49139 631.06201 1951.5847 3357757
-512.70227 634.07745 1960.91 3884098
-499.25858 632.61011 1956.3723 3555132
-485.84171 631.10382 1951.7141 3555388
-475.02426 632.98358 1957.5272 3291960
-464.98938 636.03339 1966.9589 3357753
-454.34775 638.39667 1974.2675 3884097
-443.81342 641.0473 1982.4646 3357753
-436.17822 648.15857 2004.4565 3094581
-418.78406 640.75977 1981.5756 3160374
-404.53625 637.87018 1972.6392 3555132
-393.23917 639.59766 1977.9817 4213062
-380.53412 639.073 1976.3591 4015683
-368.37894 639.46771 1977.5796 3620925
-355.12515 637.91626 1972.7819 3423546
-342.47281 637.37244 1971.0999 3357753
-330.86737 638.80908 1975.5428 3028788
-319.91357 641.66449 1984.3733 3028788
-307.1026 640.87506 1981.9319 3291960
-290.74518 632.3064 1955.4331 3620925
-280.06509 635.87396 1966.4659 3226167
-267.39746 635.04962 1963.9166 2962995
-256.43146 638.3819 1974.2218 3291960
-246.11746 643.75739 1990.8456 3489082
-229.13297 631.32764 1952.4061 3424059
-216.9019 631.3316 1952.4185 3489082
-204.66939 631.3316 1952.4185 3554875
-193.89241 636.10681 1967.1859 3225910
-183.02882 641.22681 1983.0198 3489339
-169.33748 636.46429 1968.2916 3752254
-155.1201 628.82123 1944.655 3620925
-142.93622 628.82123 1944.655 3752511
-130.69469 628.54388 1943.7972 3818305
-118.51659 628.54596 1943.8037 3818304
-106.31309 628.39838 1943.3474 3751998
-95.879387 640.02661 1979.3081 2830383
-83.772636 642.28247 1986.2844 3093554
-71.013229 639.44855 1977.5204 3291190
-59.029972 643.88275 1991.2334 3291190
-46.612228 644.68433 1993.7122 3291190
-34.243595 647.00049 2000.8751 3488569
-21.930782 653.65576 2021.4569 3291190
-9.2808876 654.72528 2024.7643 3028018
3.4365134 660.80634 2043.5703 2962225
16.197104 659.05621 2038.158 2962225
28.893148 657.38055 2032.976 3554362
41.170719 650.12225 2010.5293 3685948
54.167168 654.95709 2025.4812 3488569
67.276291 659.06036 2038.1708 3422776
79.557487 655.03766 2025.7305 3422776
90.568008 643.09906 1988.8099 3554362
102.81097 641.74121 1984.6106 4146499
115.32035 642.15985 1985.9052 3751741
127.4269 640.47223 1980.6863 3225397
138.69862 635.2605 1964.5687 3356983
151.00725 635.2605 1964.5687 3225397
163.79114 637.10913 1970.2856 3291190
175.97302 636.52112 1968.4672 3158835
189.20961 639.57532 1977.9124 3356470
201.0433 637.80328 1972.4325 3224628
213.40121 637.80328 1972.4325 2961712
228.53024 645.63214 1996.6436 3553593
238.18999 637.99872 1973.0369 3488569
251.61867 640.71576 1981.4393 3291446
263.88287 640.3515 1980.3127 3291190
275.07281 637.53009 1971.5874 3488569
286.76761 636.07098 1967.0751 3554362
299.91534 637.82208 1972.4906 3620155
312.1813 637.63361 1971.9076 3685948
324.45618 637.47693 1971.423 3751741
337.67578 639.11981 1976.5038 3620155
349.14249 637.44611 1971.3279 3751741
359.67477 634.23914 1961.4102 3225397
365.73483 623.61835 1928.5649 3422776
373.64413 616.72919 1907.26 3356983
391.68222 626.46735 1937.3756 3291190
405.31537 628.78644 1944.5475 3356983
415.37317 625.58545 1934.6483 2962482
428.4599 626.99847 1939.0179 3028274
441.56931 628.36584 1943.2466 3291446
454.34268 629.19434 1945.8088 3422776
466.53375 629.19434 1945.8088 3291190
479.61755 630.36761 1949.4373 3685948
491.83139 630.36761 1949.4373 3488569
506.54813 633.49774 1959.1174 3290934
520.24976 635.24042 1964.5066 3225141
530.35559 632.61334 1956.3822 3093554
544.9054 635.28601 1964.6476 3488313
557.21448 635.28601 1964.6476 3225140
568.97723 634.67657 1962.7628 3291703
578.29602 631.42438 1952.7053 3751998
593.18207 634.25977 1961.4739 3423803
605.47137 634.25977 1961.4739 3621694
615.40881 631.84515 1954.0067 4016452
627.27362 631.46503 1952.8309 4477003
638.06506 630.03949 1948.4226 4542540
650.24738 630.01514 1948.3473 4279624
662.20459 629.77759 1947.6127 3621694
666.65472 622.53839 1925.225 3291960
682.71484 626.20544 1936.5656 3291960
697.54175 628.633 1944.073 3423546
711.6283 630.32153 1949.2948 3489339
727.91638 633.87018 1960.269 3620925
739.77924 633.51147 1959.1599 3423546
751.2804 632.85986 1957.1447 3291960
762.30432 631.83362 1953.9709 2962482
768.38623 626.80829 1938.4301 2896688
779.94226 626.33551 1936.9678 2699567
791.24005 625.67285 1934.9186 2963251
808.32184 629.53497 1946.8623 3028788
820.85754 629.79431 1947.6643 2831409
835.43542 631.58997 1953.2174 3291960
848.48889 632.198 1955.0977 3291960
861.27612 632.59302 1956.3195 3226167
879.76514 637.10614 1970.2764 3028018
895.77722 639.72546 1978.3768 2896432
898.44214 632.8714 1957.1803 2896432
909.38904 631.95721 1954.3531 3093811
924.30817 633.79114 1960.0247 3620155
938.16254 634.85645 1963.3191 3488569
952.86035 636.45746 1968.2704 3422776
963.38031 635.2627 1964.5754 2962225
981.62805 639.12952 1976.5339 2830639
1000.8973 643.55688 1990.2257 2962225
1013.9443 643.92377 1991.3602 3159604
1021.3976 640.77246 1981.6146 3225397
1033.9828 640.87769 1981.9401 3225397
1051.9628 644.28448 1992.4757 3356983
1064.084 644.06525 1991.7976 2962225
1066.0538 637.77783 1972.3536 2896432
1079.5343 638.44202 1974.4077 2830639
1098.3373 642.20325 1986.0396 2699053
1112.1536 642.99713 1988.4946 2896432
1122.0769 641.54767 1984.0121 3225397
1138.8688 644.01398 1991.6393 3554362
1146.0043 641.02551 1982.3972 3620155
1148.3551 635.45337 1965.1653 3488569
1166.0587 638.40503 1974.2933 2962225
1179.201 638.82373 1975.5881 3028018
1195.1654 640.74664 1981.5348 3093811
1205.6946 639.74597 1978.4403 3291190
1213.9946 637.59509 1971.7885 3422776
1220.9674 634.7973 1963.1364 3422776
1234.9143 635.6452 1965.7585 3159604
1256.166 640.19916 1979.8418 3028018
1269.248 640.5412 1980.8995 3291447
1275.6238 637.52502 1971.5718 3422776
1282.7273 634.92676 1963.5367 3422520
1292.0143 633.44855 1958.9651 3554105
1301.0173 631.86017 1954.0531 3422776
1310.2957 630.4339 1949.6422 3554361
1317.2892 627.94476 1941.9446 3488569
1327.1611 626.86084 1938.5924 3685948
1340.6447 627.48688 1940.5286 3620154
1352.8027 627.48688 1940.5286 3751227
1358.4614 624.49915 1931.2888 3817277
1351.0737 615.61938 1903.8279 3619898
1371.7695 619.57947 1916.0746 3356213
1404.4065 628.8175 1944.6434 3422007
1422.8951 631.61621 1953.2986 3817021
1435.1332 631.61621 1953.2986 4080449
1446.959 631.43628 1952.7422 3422263
1457.9464 630.89667 1951.0734 3159091
1481.6035 635.80286 1966.2461 3225141
1505.823 640.86761 1981.9088 3224884
1523.7579 643.19672 1989.1117 3093298
1536.2203 643.19672 1989.1117 2895919
1550.7545 644.05713 1991.7727 3027505
1560.2516 642.82855 1987.9733 2895919
1575.761 644.0769 1991.8337 2961712
1591.1064 645.23907 1995.428 3027505
1606.4454 646.38068 1998.9583 3093298
1615.6808 645.06763 1994.8976 2830126
1624.0652 643.43756 1989.8567 2961712
1640.4384 644.97339 1994.6061 3356470
1654.5557 645.60565 1996.5615 3356470
1662.2711 643.74927 1990.8206 3290677
1676.1316 644.28253 1992.4696 3290677
1692.7407 645.85669 1997.3378 3422263
1717.2424 650.39697 2011.3788 3422263
1717.4626 645.74164 1996.9821 3290677
1722.3749 642.90497 1988.2096 3290677
1730.5435 641.31586 1983.2952 3356470
1749.0024 643.53564 1990.1599 3224884
1769.2018 646.35986 1998.8939 3159091
1775.0983 643.95569 1991.459 3159091
1807.8756 651.26868 2014.0746 2501161
1816.0718 649.68646 2009.1816 2566954
1814.9497 644.81555 1994.1182 2961712
1836.8781 648.14453 2004.4131 3159091
1847.2258 647.36987 2002.0175 3093298
1861.9183 648.11804 2004.3311 3093298
1889.9408 653.46503 2020.8669 3093811
1902.2122 653.33105 2020.4528 3027762
1913.5931 652.89514 2019.1046 3159348
1930.1079 654.20502 2023.1554 3488569
1957.3285 659.10272 2038.3019 3291190
1967.3235 658.17413 2035.4302 3093811
1975.5447 656.66797 2030.7722 3028018
1979.0151 653.61194 2021.3213 3159861
1995.823 654.9718 2025.5266 3225653
2012.4203 656.24579 2029.4666 3159606
2023.6346 655.7594 2027.9625 3093813
2030.5553 653.89642 2022.2012 3422778
2044.353 654.25751 2023.3176 3356985
2056.439 654.06952 2022.7365 3356985
2059.606 651.06451 2013.4434 3159606
nan nan nan 16777215
nan nan nan 16777215
nan nan nan 16777215
nan nan nan 16777215
nan nan nan 16777215
nan nan nan 16777215
nan nan nan 16777215
nan nan nan 16777215
nan nan nan 16777215
nan nan nan 16777215
nan nan nan 16777215
nan nan nan 16777215
-1692.124 619.31641 1879.0457 3093811
-1683.599 620.51343 1882.6776 2962225
-1669.9148 619.8125 1880.5508 2764846
-1653.4207 618.05109 1875.2067 2830639
-1633.0773 614.81543 1865.3895 3356983
-1630.1595 618.14075 1875.4788 3620155
-1637.5214 625.44055 1897.6268 3620155
-1608.6152 618.89349 1877.7627 3422776
-1583.6396 613.77344 1862.2279 3225397
-1576.8357 615.67236 1867.9895 2962225
-1558.0588 612.88989 1859.5474 3028018
-1543.2278 611.62946 1855.723 3093811
-1530.6082 611.23291 1854.5198 3028018
-1519.2151 611.32385 1854.7959 3225397
-1510.1272 612.35101 1857.9122 3488569
-1497.5533 611.96954 1856.7549 3356983
-1485.9316 611.97424 1856.7692 3225397
-1472.9204 611.40228 1855.0337 3225397
-1461.2971 611.40186 1855.0325 3422776
-1456.3015 614.19672 1863.5122 3225397
-1454.7639 618.5069 1876.5896 3093811
-1443.0065 618.5069 1876.5896 3225397
-1418.5239 613.00781 1859.9052 3028531
-1385.6816 603.77509 1831.8923 3291447
-1384.3187 608.21899 1845.3755 3883327
-1377.7418 610.42767 1852.0767 4277829
-1374.0077 613.94403 1862.7456 4343622
-1357.6692 611.84045 1856.3633 3751484
-1337.8851 608.13434 1845.1187 3159348
-1313.8798 602.42816 1827.8057 2830639
-1290.9248 597.10742 1811.6622 3093555
-1302.6666 607.88342 1844.3573 3488569
-1295.8704 610.12415 1851.1558 3290934
-1286.7537 611.30292 1854.7324 3291191
-1275.1332 611.30292 1854.7324 3290934
-1270.5245 614.69537 1865.0253 3291190
-1258.1372 614.35242 1863.9847 3488569
-1246.4532 614.34967 1863.9764 3488569
-1239.5328 616.71698 1871.1589 3028018
-1229.5154 617.57385 1873.7587 3488569
-1214.0719 615.69556 1868.0598 3422776
-1208.5016 618.83643 1877.5894 2896432
-1196.7518 618.84363 1877.6112 3225397
-1183.2197 617.92017 1874.8093 3422776
-1165.7101 614.88013 1865.5857 2896432
-1155.6858 615.76678 1868.276 3290933
-1149.6 618.79163 1877.4535 4080450
-1140.682 620.33875 1882.1476 3948864
-1139.4197 626.12506 1899.7036 3619899
-1121.0894 622.55548 1888.8732 3619899
-1105.1577 620.25592 1881.8962 3488826
-1093.3671 620.25592 1881.8962 3356983
-1085.0436 622.24426 1887.929 3160374
-1074.9001 623.22125 1890.8933 3291960
-1059.0255 620.86005 1883.7292 3423546
-1043.4153 618.60229 1876.8792 3686718
-1039.8387 623.50885 1891.7659 3752511
-1030.425 624.9881 1896.2539 3818304
-1011.562 620.70355 1883.2544 3949890
-1005.3397 624.16595 1893.7596 4147269
-995.30573 625.31635 1897.2499 3949890
-977.68616 621.67114 1886.1902 3555132
-966.68842 622.19879 1887.7911 3489339
-954.86078 622.19879 1887.7911 3884097
-962.93439 635.32935 1927.63 3949890
-952.59705 636.49182 1931.1571 4015683
-939.12378 635.56195 1928.3358 3884097
-927.04211 635.56195 1928.3358 3818304
-907.58527 630.4389 1912.7921 3752511
-899.75641 633.36395 1921.6669 3818304
-890.21649 635.14764 1927.0786 3752511
-875.97467 633.57941 1922.3207 3752511
-865.59918 634.80304 1926.0331 3818304
-849.5376 631.83221 1917.0195 3884097
-832.51227 628.04926 1905.5417 4015683
-829.97699 635.24646 1927.3785 3752511
-820.40894 637.19409 1933.2877 3686718
-810.48877 638.92249 1938.5317 3818304
-797.22192 638.02496 1935.8088 3621182
-784.89648 637.86493 1935.3232 2897202
-770.25055 635.78442 1929.0107 2962738
-758.58502 636.1369 1930.0801 3291960
-738.04016 628.93414 1908.2264 3488825
-730.1947 632.49432 1919.0284 2831152
-707.12903 622.76935 1889.5221 3094581
-705.28552 631.72174 1916.6843 3160374
-690.75372 629.42255 1909.7085 3357753
-678.78876 629.42255 1909.7085 3291960
-669.61841 632.06036 1917.7118 3489339
-654.57446 629.14911 1908.8789 3291960
-639.01947 625.62921 1898.1992 3160374
-627.00177 625.50464 1897.8212 3291960
-613.29993 623.66266 1892.2324 2765616
-597.24207 619.30487 1879.0107 3357753
-589.51178 623.58081 1891.9843 3423546
-579.18335 625.22748 1896.9803 3160374
-567.29816 625.22748 1896.9803 3489339
-555.6181 625.45837 1897.6809 3620925
-545.1438 627.08636 1902.6204 3226167
-537.22766 631.79565 1916.9086 3357753
-525.3045 631.90009 1917.2255 3423546
-512.93396 631.45874 1915.8864 2962997
-495.95328 625.18481 1896.8508 2634029
-490.42056 633.38812 1921.7402 4015683
-478.16113 633.0979 1920.8597 4344648
-462.50177 628.17499 1905.9232 4410441
-455.73727 635.3924 1927.8213 4015683
-447.24927 640.53442 1943.4225 3291960
-438.34821 645.35614 1958.052 3423546
-425.28244 644.14752 1954.385 3423546
-409.92441 639.29242 1939.6542 3160374
-397.72101 639.21063 1939.406 3489339
-385.57004 639.21063 1939.406 4015683
-374.3501 640.80438 1944.2417 3489339
-357.41714 632.39697 1918.733 3160374
-334.02658 611.58093 1855.5757 3423546
-328.97498 624.05176 1893.4131 3094581
-317.19849 624.22168 1893.9286 3291960
-307.78723 629.24023 1909.1553 4081476
-292.94601 623.11481 1890.5703 4081476
-284.177 629.93341 1911.2584 3686718
-272.88422 631.51129 1916.0457 3686718
-259.7446 628.76385 1907.7098 3291960
-245.92587 624.02802 1893.3412 3291960
-231.88951 618.23206 1875.7557 3160117
-220.45685 619.12939 1878.4784 3226680
-210.17633 623.54614 1891.879 3358266
-198.43939 623.91174 1892.9882 3489596
-186.54314 623.79102 1892.6219 3423546
-174.92334 624.64111 1895.2013 3554875
-164.5553 630.41058 1912.7061 3686718
-151.51021 626.02502 1899.4 3357753
-138.65939 621.76282 1886.4684 3818304
-126.8623 621.87183 1886.799 3489339
-114.99862 621.64313 1886.1051 3489339
-103.65451 624.49243 1894.7501 3620925
-91.791641 624.54901 1894.9218 3489596
-80.811951 631.52429 1916.0853 3093811
-69.588608 638.69733 1937.8488 3685692
-57.180119 635.72589 1928.8333 3554362
-45.766907 645.19263 1957.5558 3291190
-33.646656 647.9743 1965.9956 3422776
-21.405922 650.30865 1973.0782 3422776
-9.0322037 649.46228 1970.5103 3817534
3.3494263 656.47351 1991.7827 3949120
15.806643 655.56439 1989.0244 3751741
28.247135 655.06897 1987.5214 3685948
40.74966 655.87518 1989.9673 3883327
52.737049 649.95477 1972.0045 3554362
65.147232 650.5036 1973.6697 3488569
77.477661 650.20801 1972.7729 3356983
89.767281 649.69843 1971.2267 3817534
101.5004 645.77148 1959.312 4080706
112.20191 636.83667 1932.2034 4080706
124.37951 637.20422 1933.3185 3291190
136.25655 636.10333 1929.9784 3291190
148.27745 635.79889 1929.0547 3159604
160.36357 635.79889 1929.0547 3159604
170.45784 628.4552 1906.7734 3159861
186.51164 642.60638 1949.709 3225397
198.57518 642.11487 1948.2178 3225653
208.658 635.64642 1928.5919 3224884
220.9131 636.1413 1930.0934 3290677
234.4216 640.00677 1941.8217 3027505
245.19186 636.38391 1930.8296 2698540
256.72858 634.9975 1926.6232 2830126
269.99286 637.81665 1935.1766 2895919
284.67181 643.59192 1952.6992 2961712
294.54703 638.47827 1937.1841 3158835
305.06863 635.11511 1926.98 3224628
313.94415 628.71149 1907.5511 3159347
324.96152 626.90961 1902.0839 3159348
339.84854 632.43634 1918.8525 3027506
352.58212 633.7149 1922.7317 2962481
361.04526 627.48712 1903.8362 3291190
372.89062 627.3479 1903.4138 3883327
382.22754 623.12781 1890.6099 4014913
393.51053 622.23877 1887.9124 3620155
405.32791 622.22186 1887.8612 3422776
419.85992 626.25513 1900.0983 3225397
431.76465 626.25513 1900.0983 3422776
443.07803 625.42047 1897.5659 3291190
454.74976 625.12207 1896.6605 3291190
465.14182 623.12445 1890.5996 3620155
482.82483 630.75085 1913.7385 3488312
501.59598 639.39478 1939.9647 3423546
512.4646 637.79437 1935.109 3620925
517.86401 629.61853 1910.3031 3818304
528.02277 627.46783 1903.7777 3884097
538.87555 626.21863 1899.9874 4081733
551.15613 626.64673 1901.2864 4410441
563.06824 626.64673 1901.2864 3687231
575.62274 627.34674 1903.4104 4279370
582.52606 621.9845 1887.1409 3950662
603.36774 631.42194 1915.7747 3885126
616.65643 632.74121 1919.7776 4674642
621.96979 625.98328 1899.2734 4608593
637.57703 629.6449 1910.3829 4608593
644.54224 624.79419 1895.6658 4213322
653.90466 622.40088 1888.4042 3029049
666.48645 623.10236 1890.5326 3029558
681.83295 626.31897 1900.292 3225911
697.41846 629.64099 1910.3711 3423546
707.10297 627.61328 1904.219 3555132
728.79578 636.13428 1930.0723 3160374
737.83466 633.51245 1922.1176 3291960
745.21887 629.5769 1910.1768 3489595
751.25159 624.64203 1895.204 3489339
767.86615 628.52228 1906.9769 2634286
786.85797 634.19965 1924.2025 1976614
799.71313 634.83429 1926.1281 3226424
815.82904 638 1935.733 3686975
817.24054 629.74225 1910.6783 3226167
828.93097 629.52917 1910.032 3292217
842.1272 630.44952 1912.8242 3226424
862.37982 636.55249 1931.3411 3422776
874.48029 636.55249 1931.3411 3422776
879.01056 631.11725 1914.8502 3356983
897.59546 635.78345 1929.0078 2830639
913.26379 638.28729 1936.6046 2830639
926.73248 639.20825 1939.3989 3422776
935.57983 636.95917 1932.5751 3554362
946.29034 636.01971 1929.7247 3028018
957.85687 635.67218 1928.67 2896432
975.03351 639.00989 1938.7971 2896432
989.71295 640.64905 1943.7704 3093811
1001.5695 640.4433 1943.1461 2962225
1013.7439 640.4433 1943.1461 2896688
1027.0819 641.16968 1945.3499 3028018
1033.1748 637.40924 1933.9404 3028018
1051.1154 640.96051 1944.7153 2172709
1057.6772 637.57135 1934.4324 2370088
1069.5663 637.43384 1934.0151 2830639
1087.0056 640.57013 1943.5309 2962225
1094.4509 637.81274 1935.1648 3225397
1105.3864 637.1275 1933.0857 3356983
1117.229 636.97424 1932.6207 3488569
1136.8862 641.23193 1945.5388 3422776
1140.8768 636.65662 1931.6571 3093811
1153.5046 636.94678 1932.5375 2896432
1165.6127 636.94678 1932.5375 3028018
1175.9143 635.96991 1929.5735 2830639
1190.3846 637.24451 1933.4407 3422776
1209.5109 640.96075 1944.7159 3356983
1214.2345 637.04657 1932.8401 3488569
1208.9348 628.00287 1905.4009 3488569
1233.819 634.66223 1925.606 3028275
1254.6494 639.12762 1939.1542 2830383
1255.0636 633.20697 1921.1906 3159091
1262.8988 631.10724 1914.8199 3224884
1268.8711 628.12494 1905.7712 3422263
1279.3032 627.38525 1903.5272 3290677
1291.0148 627.28101 1903.2109 3488056
1294.413 623.17627 1890.7568 3685435
1304.5385 622.35541 1888.2662 3619642
1316.1219 622.23859 1887.9119 3685435
1325.5322 621.10559 1884.4742 3751228
1337.1141 621.00104 1884.1571 3751228
1346.7549 620.00482 1881.1344 3093298
1357.6232 619.58606 1879.8639 3224884
1392.2338 629.91669 1911.2076 3356470
1411.2871 633.09235 1920.8428 3817021
1426.3113 634.422 1924.8771 3553849
1427.7781 629.74969 1910.701 3093298
1440.4294 630.04724 1911.6038 3093298
1457.0508 632.06201 1917.7168 3356470
1481.927 637.59546 1934.5056 3488056
1509.7784 644.30884 1954.8744 3553849
1521.8691 644.24237 1954.6726 3356470
1533.2603 643.88306 1953.5825 3224884
1552.9084 646.96948 1962.947 3093298
1578.7737 652.57727 1979.9613 2895919
1588.0416 651.29065 1976.0577 2698540
1589.4023 646.80615 1962.4514 2632747
1600.4871 646.31726 1960.968 2632747
1605.9316 643.5755 1952.6494 2764333
1609.1284 639.98126 1941.7443 2961712
1621.9622 640.245 1942.5444 3159091
1635.5554 640.80237 1944.2355 3224884
1646.7039 640.40063 1943.0167 2895919
1659.4882 640.63654 1943.7323 3027505
1672.1533 640.82312 1944.2985 3224884
1672.7375 636.41077 1930.9111 3290677
1688.8934 637.94366 1935.562 3356470
1704.0476 639.07898 1939.0067 3093298
1714.1609 638.32104 1936.7072 3356470
1738.4689 642.82257 1950.365 4474951
1763.4293 647.50073 1964.5588 4343365
1771.3271 645.89246 1959.6792 3619642
1788.5109 647.66895 1965.0692 3027505
1802.1581 648.14929 1966.5265 2961712
1815.2299 648.41748 1967.3402 2895919
1827.0676 648.2442 1966.8146 3027504
1848.3533 651.40295 1976.3984 3027762
1861.361 651.62183 1977.0624 3093555
1875.212 652.13092 1978.6072 3093555
1890.34 653.07458 1981.4702 2962225
1903.589 653.36102 1982.3392 2962482
1912.2701 652.08606 1978.4709 2962225
1925.9087 652.50714 1979.7485 3028018
1940.2369 653.15503 1981.7142 3225397
1954.6571 653.82538 1983.7482 3225396
1969.0376 654.47406 1985.7163 3225399
1981.4788 654.47406 1985.7163 3291192
1987.8942 652.49628 1979.7156 3488571
2009.1567 655.38611 1988.4834 3422778
2014.7791 653.16986 1981.7593 3356985
2020.0294 650.86096 1974.7539 3291192
nan nan nan 16777215
nan nan nan 16777215
nan nan nan 16777215
nan nan nan 16777215
nan nan nan 16777215
nan nan nan 16777215
nan nan nan 16777215
nan nan nan 16777215
nan nan nan 16777215
nan nan nan 16777215
nan nan nan 16777215
nan nan nan 16777215
-1646.6075 614.05286 1828.5012 2896432
-1640.1315 615.9231 1834.0703 2896432
-1629.5391 616.26294 1835.0823 3028018
-1624.1259 618.58026 1841.9825 3225397
-1605.1804 615.73975 1833.5243 3488569
-1580.3612 610.58899 1818.1864 3488569
-1579.8796 614.83472 1830.8292 3093811
-1582.7422 620.45355 1847.5608 3225397
-1571.3833 620.53906 1847.8154 3225397
-1545.7275 614.93817 1831.1373 3159604
-1533.6251 614.68579 1830.3857 3159604
-1530.2258 617.94403 1840.0881 3422776
-1484.4238 603.9986 1798.5619 3685948
-1473.1553 603.9986 1798.5619 3883583
-1463.7329 604.76135 1800.8333 3554362
-1452.7816 604.89941 1801.2443 3620155
-1450.2845 608.58722 1812.2257 3423289
-1438.9304 608.58722 1812.2257 3488569
-1420.8335 605.71277 1803.6663 3554362
-1412.689 607.06903 1807.7048 3620155
-1403.429 607.96393 1810.3696 3356983
-1386.2919 605.43323 1802.8339 3225397
-1377.7859 606.66144 1806.4912 3291190
-1367.571 607.15125 1807.9498 3620155
-1367.7064 612.28278 1823.2303 3554362
-1353.2755 610.92493 1819.1869 3225397
-1361.5387 619.87616 1845.8414 3751741
-1341.0094 615.75989 1833.5841 4146499
-1306.7655 605.22058 1802.2007 3291190
-1300.4264 607.53412 1809.09 2830382
-1289.0919 607.53412 1809.09 2896688
-1276.3751 606.87695 1807.1329 3028788
-1270.7753 609.62213 1815.3074 3292217
-1262.6705 611.20435 1820.0189 3029044
-1260.1738 615.55481 1832.9735 3028018
-1258.2784 620.28168 1847.0491 3356983
-1243.8359 618.8537 1842.7968 3356983
-1229.5323 617.46863 1838.6725 3554362
-1225.3071 621.16663 1849.6842 3883327
-1210.5874 619.56433 1844.9128 3883327
-1200.0525 620.09344 1846.4885 3291190
-1196.6312 624.34448 1859.147 3093811
-1171.7297 617.36151 1838.3535 3620155
-1159.4722 616.96796 1837.1814 3620155
-1147.2198 616.56921 1835.9941 2962739
-1127.8927 612.32159 1823.3458 2897458
-1135.2045 622.59705 1853.9436 3949890
-1123.2911 622.43207 1853.4524 3752511
-1110.4082 621.7207 1851.3341 3620925
-1094.6033 619.341 1844.2479 3620925
-1081.6229 618.52576 1841.8203 3686718
-1066.11 616.22913 1834.9814 3818304
-1063.9258 621.67065 1851.1849 4147269
-1045.3059 617.52252 1838.833 3884097
-1024.933 612.23486 1823.0874 3620925
-1016.0188 613.74988 1827.5989 3555132
-1005.7889 614.49561 1829.8195 3555388
-1008.6095 623.32373 1856.1075 4213062
-1002.1256 626.54059 1865.6865 4015940
-980.42444 620.20703 1846.8268 3949890
-966.70062 618.82886 1842.7229 3620925
-958.70148 621.12634 1849.5642 3423546
-947.1134 621.12634 1849.5642 3423546
-937.04596 622.13599 1852.5707 3489339
-925.69568 622.30853 1853.0844 3752511
-911.79486 620.74902 1848.4407 3620925
-905.94434 624.70056 1860.2074 3555132
-896.39758 626.1731 1864.5923 3686718
-887.69312 628.2807 1870.8682 3489339
-874.88086 627.49841 1868.5387 3423546
-867.71521 630.79974 1878.3694 3752511
-856.38232 631.12085 1879.3256 3752511
-845.40472 631.71637 1881.0988 3423546
-831.67352 630.24207 1876.7086 3357753
-817.61499 628.47382 1871.4432 3489339
-805.74756 628.36292 1871.1129 3818304
-794.02448 628.36292 1871.1129 4015683
-790.0116 634.55597 1889.5543 3884097
-771.97363 629.50073 1874.5011 3686974
-754.27698 624.57202 1859.8245 2831152
-742.73181 624.66211 1860.0929 2764847
-730.46484 624.13843 1858.5334 3356983
-724.90155 629.41846 1874.2562 3159347
-712.60907 628.93335 1872.8115 3093810
-700.33313 628.44678 1871.3627 2896432
-690.30176 629.99219 1875.9645 2633773
-678.54828 629.99219 1875.9645 3029045
-663.75977 627.12469 1867.4258 3226167
-653.0246 628.05261 1870.189 3423546
-643.05804 629.76721 1875.2946 3226167
-629.20886 627.67242 1869.0568 3226167
-615.0434 625.17664 1861.6251 3489339
-604.9646 626.81885 1866.515 3620925
-595.82922 629.52246 1874.5658 4410441
-584.89911 630.40045 1877.1803 4278855
-572.85504 630.08923 1876.2537 3686718
-556.02429 624.38977 1859.2819 3620925
-543.84277 623.77893 1857.4629 3489339
-533.40173 625.18134 1861.639 3291960
-525.35529 629.51587 1874.5461 3291960
-514.21338 630.25458 1876.7458 3555131
-497.92819 624.57635 1859.8375 3555134
-488.49496 627.42676 1868.3253 2897202
-478.46774 629.6355 1874.9023 2765616
-471.45694 636.02466 1893.9279 4410441
-458.16428 634.05035 1888.0488 4081733
-449.25412 638.19708 1900.3967 3028788
-443.28253 646.85773 1926.186 3094581
-431.21439 646.85773 1926.186 3226167
-418.16486 645.34314 1921.676 3357753
-404.27603 642.40515 1912.9275 3291960
-390.96936 640.24103 1906.483 3620925
-380.03625 641.94977 1911.5714 3291960
-365.72037 637.86975 1899.4219 2634030
-349.69403 630.43152 1877.2728 3094581
-335.90796 626.65497 1866.0271 3620925
-322.40082 623.14514 1855.5757 2765616
-311.65945 624.91846 1860.8562 3423546
-301.86081 628.79333 1872.3947 4278855
-286.99118 621.99133 1852.1399 3949890
-272.91013 616.39722 1835.4819 3884097
-267.17374 629.98724 1875.9498 3686718
-252.60864 623.05231 1855.2993 3818304
-240.86201 622.73529 1854.3553 2042150
-230.32222 625.66455 1863.0779 2370858
-218.88942 626.3512 1865.1226 2765616
-204.73615 618.8916 1842.9098 3160374
-192.76357 617.52637 1838.8442 3489339
-181.87486 619.68048 1845.2588 3686718
-169.98421 618.48151 1841.6885 3423546
-158.45168 618.50574 1841.7606 3291960
-147.00029 618.87549 1842.8616 3029045
-135.63277 619.69135 1845.2911 3028788
-124.13176 619.99255 1846.1881 3160374
-112.53101 619.80627 1845.6334 3094838
-102.08387 626.65912 1866.0396 3949890
-90.387375 626.62323 1865.9326 3883840
-78.465324 624.78064 1860.4458 3094068
-67.227577 628.69458 1872.1006 3160117
-55.848412 632.66089 1883.9113 3291190
-44.099068 633.43567 1886.2185 3488569
-32.368637 635.14899 1891.3203 3620155
-20.93503 648.02911 1929.6742 3620155
-8.8846083 650.92926 1938.3101 3949120
3.2349825 646.03198 1923.7272 4409671
15.340867 648.27747 1930.4137 4014913
27.337803 645.96875 1923.5389 3817534
39.127319 641.6712 1910.7418 3554362
50.961395 639.9469 1905.6073 3817534
62.850666 639.43878 1904.0941 3620155
75.544487 645.97229 1923.5494 3817534
87.715317 646.85132 1926.167 3883327
100.74728 653.10004 1944.7742 3817534
112.6702 651.58661 1940.2675 3093811
122.46964 639.28357 1903.632 3225397
132.66438 631.04449 1879.098 3422520
144.14673 629.77411 1875.3151 3553848
155.24733 627.15295 1867.51 2764334
166.59209 625.81647 1863.5303 2961712
179.35248 629.62469 1874.8702 3356470
191.09912 629.62469 1874.8702 3356470
202.75397 629.33972 1874.0217 3159091
217.0752 636.90936 1896.5621 2830126
227.08345 631.69543 1881.0365 3356213
238.55443 630.86426 1878.5614 3027505
250.99948 632.5661 1883.629 3027248
264.29257 636.15643 1894.3201 3751228
277.69031 639.67902 1904.8097 3027505
288.77725 637.80774 1899.2373 2895919
299.4838 635.27765 1891.7032 2830383
311.35791 635.32245 1891.8368 3028018
323.32629 635.54944 1892.5126 3225397
330.56003 626.78278 1866.4077 2830639
341.20572 624.86365 1860.693 2896432
353.7435 626.42194 1865.3331 3751741
363.33505 622.83008 1854.6375 3685948
375.58298 623.87329 1857.744 3356983
387.77692 624.76678 1860.4047 3620155
402.05035 628.86084 1872.5957 3488569
414.86929 630.51221 1877.5131 3291190
422.70667 624.71027 1860.2363 3422776
434.34058 624.67993 1860.146 3356983
446.80618 625.81616 1863.5294 2830639
461.4205 629.82751 1875.4741 3488569
469.97754 625.5769 1862.8169 3159347
480.77411 624.44098 1859.4343 2897202
493.43262 625.71991 1863.2428 3291960
507.24478 628.36896 1871.1309 3489339
518.96802 628.36896 1871.1309 3818304
532.08154 630.01514 1876.033 4147526
542.63257 628.62164 1871.8834 4147525
554.02313 628.23901 1870.7441 4279111
564.84491 627.24078 1867.7715 4016196
576.54712 627.24078 1867.7715 3489852
586.9762 625.8833 1863.7294 3818819
600.67065 627.99274 1870.0106 4410698
610.00824 625.55353 1862.7472 4213318
620.40155 624.26813 1858.9197 4279368
635.59686 627.77307 1869.3566 4345161
641.83881 622.46802 1853.5593 3029301
653.64807 622.65485 1854.1156 3028788
664.59668 622.0296 1852.2539 3160374
683.36438 628.61853 1871.8741 3094581
698.1546 631.388 1880.1211 3686718
703.12518 625.33246 1862.089 3357753
715.93256 626.33044 1865.0608 3226167
727.34961 626.09967 1864.3735 3423546
739.66492 626.63715 1865.974 3620155
749.88983 625.41449 1862.3333 3817534
747.89948 614.19775 1828.9325 3488569
776.78979 628.297 1870.9166 2962225
787.37823 627.39386 1868.2273 3093811
799.08325 627.39386 1868.2273 3159604
812.66522 628.84625 1872.5521 3356727
825.45776 629.65509 1874.9608 3159347
841.36987 632.78748 1884.2883 3093811
851.38849 631.4621 1880.3416 3094068
863.16943 631.4621 1880.3416 3093811
884.05573 638.03363 1899.9099 3751741
887.42841 631.9585 1881.8198 3093811
903.13019 634.70752 1890.0057 3159604
915.98743 635.41223 1892.104 3356726
930.5816 637.28839 1897.6908 3159347
944.84961 638.89655 1902.4795 2764590
957.1911 639.17822 1903.3184 2632747
967.46039 638.08636 1900.067 2698797
979.36499 638.08636 1900.067 2830639
1000.7042 644.15948 1918.1514 2501930
1009.1003 641.8559 1911.2919 2699053
1021.0751 641.8559 1911.2919 2633260
1027.2389 638.24536 1900.5405 2238502
1035.9973 636.31122 1894.7811 3093811
1047.1594 635.88049 1893.4985 3620155
1051.6873 631.47589 1880.3827 3751741
1066.1168 633.04858 1885.0657 3751741
1077.9274 633.04858 1885.0657 3817534
1083.9713 629.69861 1875.0905 3883327
1092.2172 627.68604 1869.0973 3488569
1126.601 640.57782 1907.4861 2896432
1138.5519 640.57782 1907.4861 2896432
1137.7515 633.47809 1886.3447 3028018
1150.2336 633.84381 1887.4337 2962225
1159.8961 632.66412 1883.9209 2764846
1166.7697 630.0022 1875.9944 2962225
1182.3232 632.03351 1882.0431 3028018
1190.5387 630.14069 1876.4067 3291190
1205.2296 631.67877 1880.9868 3159604
1215.5284 630.90735 1878.6898 3291190
1227.299 630.90735 1878.6898 3225653
1237.4454 630.08044 1876.2273 3028274
1241.5868 626.24017 1864.7919 2962225
1249.3093 624.26093 1858.8982 3225396
1257.2363 622.41943 1853.4147 3291190
1262.9645 619.53302 1844.8198 3422776
1272.4269 618.51428 1841.7861 3291190
1282.9928 618.04529 1840.3896 3290934
1295.6188 618.5683 1841.9469 3290677
1307.6022 618.77795 1842.5713 3422263
1315.3051 616.97601 1837.2056 3159091
1326.0081 616.60046 1836.0873 3224884
1338.0308 616.83978 1836.7998 3224884
1358.4817 620.92731 1848.9716 3093298
1364.2604 618.29608 1841.1365 2961712
1390.4131 624.8653 1860.6979 3093298
1406.3086 626.75391 1866.3218 2961712
1420.2057 627.72809 1869.2227 2895919
1441.1359 631.76953 1881.257 3422263
1463.9238 636.55316 1895.5016 3751228
1477.9049 637.46118 1898.2054 4014400
1489.7977 637.46118 1898.2054 4145986
1507.7466 640.03192 1905.8605 3817021
1538.6077 648.00037 1929.5886 3027505
1564.8542 653.91626 1947.2047 2830126
1574.8079 652.98492 1944.4314 2303782
1585.5605 652.39667 1942.6796 2172196
1586.3204 647.737 1928.8042 2435368
1577.611 639.31036 1903.7119 2698540
1585.0398 637.50116 1898.3243 2961968
1594.9075 636.69232 1895.916 3027505
1601.2306 634.49103 1889.361 2632747
1611.4232 633.84412 1887.4346 2369575
1621.3438 633.10028 1885.2196 2566954
1632.6843 632.91766 1884.676 2501161
1648.35 634.4024 1889.097 2435368
1660.5785 634.55243 1889.5439 2632747
1677.5254 636.49066 1895.3154 2830126
1712.413 645.16089 1921.1333 2961712
1724.4495 645.16089 1921.1333 3224884
1729.9733 642.74115 1913.928 2895919
1727.9357 637.56488 1898.5142 3093298
1754.9185 643.09387 1914.9783 3290677
1766.9164 643.09387 1914.9783 3093298
1788.9792 646.73242 1925.813 3028018
1805.783 648.43384 1930.8793 3027762
1817.1932 648.1886 1930.1492 3028017
1829.5342 648.27649 1930.4109 3028018
1841.1898 648.12189 1929.9506 2830895
1858.8823 650.08063 1935.7831 2830639
1875.3981 651.60504 1940.3224 2764846
1883.9921 650.37518 1936.6602 3028274
1898.1793 651.07953 1938.7574 3159861
1914.3514 652.45142 1942.8427 3159603
1927.5555 652.80078 1943.8829 3093814
1940.4546 653.04309 1944.6046 3225399
1950.39 652.2912 1942.3656 3685950
1949.7532 648.03479 1929.691 3817536
1960.6094 647.6272 1928.4773 4014915
1970.5851 646.93555 1926.4178 3817536
nan nan nan 16777215
nan nan nan 16777215
nan nan nan 16777215
nan nan nan 16777215
nan nan nan 16777215
nan nan nan 16777215
nan nan nan 16777215
nan nan nan 16777215
nan nan nan 16777215
nan nan nan 16777215
nan nan nan 16777215
nan nan nan 16777215
-1603.7736 609.17834 1780.9357 3554362
-1599.2605 611.72003 1788.3663 3554362
-1588.7161 611.97443 1789.1099 3488569
-1580.9443 613.30804 1793.0088 3422776
-1563.0786 610.71686 1785.4333 3817534
-1549.6277 609.82556 1782.8278 3817534
-1550.7969 614.71674 1797.127 3225397
-1545.1865 616.97229 1803.7213 2962225
-1531.0614 615.83636 1800.4003 2962225
-1516.2584 614.40881 1796.2268 3093811
-1504.6128 614.2489 1795.7594 2830639
-1492.4963 613.89288 1794.7186 2896432
-1477.9596 612.5285 1790.7297 3751741
-1452.6985 606.66449 1773.5864 3949120
-1443.6732 607.54272 1776.1538 3949120
-1440.8384 611.05988 1786.4363 4014913
-1429.6458 611.05988 1786.4363 3817278
-1408.7024 606.85931 1774.1559 3620155
-1392.1943 604.51782 1767.3105 3620155
-1380.7089 604.33716 1766.7823 3685948
-1371.2356 605.04144 1768.8413 3817534
-1360.1532 605.04144 1768.8413 3488569
-1342.7344 602.19958 1760.5332 3422776
-1335.6796 603.99731 1765.7888 3356983
-1319.0221 601.44647 1758.3314 3225397
-1310.2313 602.46991 1761.3234 3159604
-1309.0991 607.06219 1774.749 3159604
-1305.0122 610.3512 1784.3645 3225141
-1292.8087 609.86823 1782.9525 3028789
-1277.1888 607.7511 1776.7631 2896945
-1268.1044 608.73395 1779.6364 3028531
-1260.2799 610.34448 1784.3447 3225910
-1249.9862 610.77728 1785.61 3226424
-1244.1041 613.39301 1793.2572 2634030
-1232.8688 613.39301 1793.2572 2961969
-1232.5834 618.89105 1809.3307 3620155
-1214.8281 615.638 1799.8204 3554362
-1204.1537 615.94592 1800.7206 3554362
-1193.7874 616.4187 1802.1029 3620155
-1182.8047 616.57941 1802.5725 3685692
-1178.2139 620.10712 1812.886 3751485
-1165.8314 619.56287 1811.2947 4080706
-1150.8516 617.61395 1805.5972 4015170
-1131.1239 613.05316 1792.2635 4015425
-1127.099 616.99689 1803.7931 3291704
-1108.7887 613.12115 1792.4623 3226167
-1100.3335 614.67145 1796.9946 3818304
-1088.1851 614.16925 1795.5265 3686718
-1078.9573 615.3222 1798.8972 3818304
-1062.6923 612.44385 1790.4824 4015683
-1051.0353 612.18823 1789.7349 3949890
-1039.683 612.10638 1789.4956 3884354
-1033.3495 615.0097 1797.9836 3884354
-1019.1308 613.23236 1792.7875 3752511
-1001.8206 609.53448 1781.9767 3620925
-993.61389 611.35443 1787.2972 3620925
-981.24927 610.62842 1785.1748 3818304
-964.17798 606.92291 1774.3418 3949890
-955.36621 608.39075 1778.6332 3555388
-953.50464 614.37152 1796.1178 3555132
-938.30334 611.7973 1788.592 3555132
-929.96448 613.68939 1794.1237 3489339
-918.99579 613.87115 1794.6549 3555132
-914.71655 618.58112 1808.4247 3489339
-899.70697 616.06183 1801.0594 3555132
-887.88507 615.6889 1799.9694 3357753
-883.6059 620.60413 1814.339 3620925
-877.29279 624.20038 1824.8524 4081476
-857.01337 617.82312 1806.2086 3818304
-840.45721 613.99524 1795.0178 3357753
-841.3252 622.96539 1821.2422 3226167
-828.90857 622.21027 1819.0344 3291960
-818.95422 623.30811 1822.2441 3423546
-807.53735 623.30811 1822.2441 3752511
-795.29309 622.6604 1820.3505 3489339
-781.51025 620.77173 1814.8289 3489339
-764.05042 615.8634 1800.4792 2962995
-756.79645 619.15765 1810.1101 3094581
-758.24329 629.77887 1841.1613 3094581
-742.87817 626.54883 1831.7184 3291960
-724.52924 620.66144 1814.5065 3357753
-709.12354 617.14783 1804.2344 3357753
-697.63507 616.9848 1803.7578 3226424
-693.42664 623.36084 1822.3981 3554618
-681.492 622.88849 1821.0172 3291190
-670.56073 623.33276 1822.3162 3093810
-659.25299 623.4364 1822.6191 3356726
-646.95288 622.58881 1820.1411 3554106
-635.54688 622.58661 1820.1346 3423033
-624.14313 622.58661 1820.1346 3094581
-616.16388 626.06604 1830.3069 3160374
-610.90417 632.49316 1849.0966 3818304
-596.84601 629.8833 1841.4666 3884354
-583.39307 627.82184 1835.4398 3949890
-571.89343 627.82184 1835.4398 3555388
-556.65912 623.63763 1823.2074 3555132
-546.05365 624.57275 1825.9412 3555132
-536.4187 626.68164 1832.1066 3555132
-527.64777 629.91425 1841.557 3423546
-511.4455 624.22131 1824.9138 3160631
-500.81528 625.2243 1827.8461 3620924
-488.24072 623.79022 1823.6534 3620928
-480.67972 628.84625 1838.4348 2962995
-471.6748 632.21521 1848.2839 2897202
-463.39169 636.74548 1861.5283 4213062
-452.48309 637.80896 1864.6373 4015683
-439.98859 636.63409 1861.2026 3291960
-430.72476 640.19702 1871.6189 3357753
-419.45242 640.89069 1873.6467 3620925
-407.81247 641.04633 1874.1017 3620925
-398.20178 644.49561 1884.1857 3752511
-385.02731 642.21136 1877.5078 3752511
-371.86905 639.8111 1870.4905 3291960
-357.51929 635.13788 1856.8284 3028788
-344.6795 632.92297 1850.3531 3094581
-332.87775 632.52643 1849.1938 3094581
-321.54764 633.02972 1850.6652 2962995
-311.48141 636.15198 1859.7931 3423546
-294.03687 623.86218 1823.8639 3489339
-280.56525 619.34888 1810.6692 3160374
-267.49615 615.38129 1799.0698 3620925
-259.24936 622.6463 1820.3092 3686975
-246.38522 618.9801 1809.5911 3620155
-236.44307 622.65497 1820.3346 2304037
-225.20004 623.10303 1821.6445 2370858
-211.69604 617.00909 1803.8289 3094581
-199.12981 613.11517 1792.4449 3357753
-187.85822 612.98016 1792.0503 3160631
-179.03845 621.33691 1816.4812 3489339
-167.65762 621.33691 1816.4812 3423546
-153.24472 609.28174 1781.2378 3028788
-142.18951 609.73108 1782.5515 2897202
-131.29578 611.00854 1786.2861 2897202
-120.10415 611.00854 1786.2861 2699823
-109.04211 611.7356 1788.4117 2700080
-99.67305 623.21472 1821.9709 2830383
-87.328087 616.64948 1802.7775 3159604
-76.145203 617.55841 1805.4348 3093811
-65.141808 620.49426 1814.0177 3093811
-53.831127 621.12543 1815.8629 2764846
-43.048805 629.82507 1841.2964 3028018
-31.626524 632.1037 1847.958 3554362
-20.305187 640.19702 1871.6188 3751741
-8.6544104 645.83075 1888.0891 3685948
3.1750529 645.83075 1888.0891 3422776
14.915807 642.01251 1876.9264 3620155
26.496153 637.70007 1864.319 4080706
38.03204 635.28387 1857.2551 3817534
50.120087 641.06213 1874.1481 3685692
61.655872 638.92395 1867.8971 3817534
73.441254 639.64197 1869.996 3883327
85.608292 643.02899 1879.8981 3817534
97.386429 643.02899 1879.8981 3686205
107.20657 631.49542 1846.1797 3685949
117.52967 624.88245 1826.8466 3291190
129.47165 627.28662 1833.8752 3422776
141.77829 630.92163 1844.5022 3422776
153.6003 632.01459 1847.6974 3093298
164.04872 627.69861 1835.0796 3356470
174.44179 623.75006 1823.5361 3685691
186.33078 625.30713 1828.0881 3093298
199.11905 629.52698 1840.4249 3093554
210.41861 628.83575 1838.4042 3422263
221.16887 626.66003 1832.0433 3488569
232.64719 626.66003 1832.0433 3488569
245.17651 629.35791 1839.9305 3620155
260.70007 639.15436 1868.5707 3751741
271.09418 636.07355 1859.5638 3225397
280.50446 631.03326 1844.8286 3028275
289.26169 624.98096 1827.1346 2830639
297.65118 618.62524 1808.5536 3422776
308.22958 617.11816 1804.1476 3817534
318.31396 614.76355 1797.2639 3291190
332.55386 620.32123 1813.5118 3225397
344.85944 622.02283 1818.4863 3554362
355.03793 619.90155 1812.285 3488569
366.61011 620.26984 1813.3616 3356983
378.43463 621.03003 1815.5841 3554362
389.80984 621.03003 1815.5841 3422776
408.63947 632.5694 1849.3195 3159604
413.06265 621.78638 1817.7952 3422776
424.42206 621.74292 1817.6682 3356983
436.71884 623.03906 1821.4575 3685948
447.31357 621.90283 1818.1356 3883327
459.95355 623.59589 1823.0853 3883327
468.8476 620.25128 1813.3075 3620925
485.13132 626.60974 1831.8964 3752767
496.53174 626.51263 1831.6124 4147269
504.87112 622.64478 1820.3048 3818304
516.33142 622.71179 1820.5007 3884097
527.3476 622.25177 1819.1558 3884097
541.26501 625.16217 1827.6644 3818304
550.47595 622.62866 1820.2577 3555645
558.23901 618.59351 1808.4608 3423546
570.68542 619.80542 1812.0039 3358266
584.46393 622.38861 1819.5558 3423803
592.99335 619.39014 1810.7898 3752768
604.11505 619.16113 1810.1202 4147526
618.03564 621.75629 1817.7072 4410441
625.27679 617.65942 1805.73 3094581
644.60223 625.43317 1828.4565 3094581
650.60211 620.23187 1813.2506 3094581
662.47858 620.71521 1814.6637 2962995
679.60895 626.02197 1830.1779 3554362
689.34882 624.4577 1825.6049 3225911
698.68182 622.58197 1820.1212 3357239
708.87549 621.52118 1817.0199 3554875
722.53149 623.48157 1822.7511 3620412
730.0033 620.1275 1812.9454 3751741
743.38538 621.82001 1817.8936 3422776
759.96832 626.09851 1830.4017 2896432
772.01312 626.56665 1831.7703 2896432
782.21503 625.54724 1828.79 3028275
791.62628 623.93414 1824.0741 3422776
808.00232 627.77814 1835.3123 3093811
819.69598 627.92743 1835.7487 2962225
827.92902 625.45825 1828.53 3159604
831.66669 619.70685 1811.7156 3488569
851.64362 626.04773 1830.2534 3291190
870.27606 631.24506 1845.4478 2962225
889.96216 637.0603 1862.4486 3225141
901.24194 636.78546 1861.6451 3224884
914.13525 637.64313 1864.1525 2698540
937.04321 645.37653 1886.7612 2632747
942.12347 640.79175 1873.3574 2698796
950.54913 638.56708 1866.8538 3027505
961.33783 637.96466 1865.0925 3224884
978.70038 641.68689 1875.9746 2764333
990.45392 641.68689 1875.9746 2370089
1003.2277 642.34015 1877.8843 3093811
1007.525 637.61389 1864.067 3422776
1007.2223 630.1181 1842.1532 3159604
1030.8997 637.62421 1864.0972 2962482
1036.1218 633.67523 1852.5524 3356983
1051.3344 635.85608 1858.928 3685948
1057.8047 632.75952 1849.8754 3488569
1067.4961 631.63617 1846.5911 3422776
1079.0656 631.63617 1846.5911 3225397
1085.8217 628.84845 1838.4413 2962225
1098.6895 629.62183 1840.7021 2962482
1110.222 629.62183 1840.7021 3225397
1120.4749 628.90344 1838.6021 3093811
1131.0488 628.37823 1837.0665 3225397
1138.8124 626.31793 1831.0432 2567467
1152.3203 627.42639 1834.2839 2764846
1164.5077 627.80115 1835.3794 2830639
1176.1307 627.86725 1835.5726 2962225
1185.2306 626.59808 1831.8623 2962482
1199.1927 627.89923 1835.6663 2962225
1210.171 627.62811 1834.8735 2764846
1205.1211 619.12769 1810.0226 2896176
1211.2457 616.47308 1802.2617 3028018
1215.0188 612.6817 1791.1777 3093555
1235.7695 617.44257 1805.0961 3093554
1239.4558 613.66827 1794.0618 3159348
1248.8519 612.76337 1791.4164 3290421
1260.6104 613.02332 1792.1764 3224884
1271.8389 613.02332 1792.1764 3290677
1279.796 611.46033 1787.6069 3422263
1292.3353 612.09473 1789.4615 3356470
1317.3459 618.57422 1808.4044 3356470
1333.8059 620.9624 1815.3864 3290677
1335.8904 616.67419 1802.8497 2961712
1353.5131 619.5705 1811.317 2566954
1363.606 619.00055 1809.6508 2632747
1387.4109 624.61316 1826.0592 2830126
1411.6489 630.32727 1842.7646 2895919
1428.6595 632.7478 1849.8411 3027505
1456.23 639.76855 1870.3663 3093298
1469.9448 640.63867 1872.91 2961712
1488.8894 643.75616 1882.024 3027505
1514.6725 649.75824 1899.5712 2961712
1515.2566 644.94128 1885.4886 3488056
1524.2347 643.7439 1881.9882 3817021
1536.026 643.7439 1881.9882 3159091
1536.4474 639.0152 1868.1637 2632747
1547.5823 638.78003 1867.4762 2698540
1562.7759 640.21106 1871.6599 2764333
1560.6293 634.57013 1855.1686 2632747
1565.8123 631.97076 1847.5693 2435368
1575.8607 631.35889 1845.7806 2501161
1586.6116 631.0354 1844.8347 2764333
1596.8926 630.53094 1843.3601 2566954
1614.7418 633.00067 1850.5803 2501161
1626.3363 633.00067 1850.5803 2435368
1634.623 631.72235 1846.8431 2698540
1646.1942 631.72235 1846.8431 2501161
1668.8724 635.95502 1859.2173 2698540
1683.9127 637.23859 1862.9697 3093298
1709.974 642.6463 1878.7793 3488056
1725.1044 643.90021 1882.4451 3882814
1759.1169 652.13696 1906.5253 4211779
1774.6714 653.466 1910.4108 3620155
1787.9486 653.94434 1911.8092 3094068
1799.9265 653.94434 1911.8092 2896432
1798.9669 649.2749 1898.1581 2896432
1809.0492 648.62585 1896.2605 2830638
1827.6636 651.02448 1903.2728 2961712
1839.588 651.02448 1903.2728 3093298
1846.3115 649.19562 1897.9261 3028018
1857.9753 649.11621 1897.6941 3028275
1871.298 649.61365 1899.1483 3028018
1883.791 649.8186 1899.7477 3028020
1894.6721 649.46857 1898.7241 3028020
1907.5427 649.80054 1899.6947 3159607
1897.7006 642.43927 1878.174 3751742
1923.3323 647.10394 1891.8112 4080706
1926.132 644.07666 1882.9609 3883327
nan nan nan 16777215
nan nan nan 16777215
nan nan nan 16777215
nan nan nan 16777215
nan nan nan 16777215
nan nan nan 16777215
nan nan nan 16777215
nan nan nan 16777215
nan nan nan 16777215
nan nan nan 16777215
nan nan nan 16777215
nan nan nan 16777215
nan nan nan 16777215
-1565.615 609.76154 1750.7424 3488569
-1555.4871 610.09143 1751.6896 3488569
-1550.8408 612.59131 1758.8672 3356983
-1538.8715 612.2135 1757.7826 3620155
-1533.9269 614.6452 1764.7643 3949120
-1522.3832 614.44861 1764.2 3225397
-1516.1908 616.42493 1769.8743 2962482
-1505.0109 616.38757 1769.7671 2962482
-1487.7244 613.83008 1762.4241 3159604
-1476.6821 613.83008 1762.4241 3094068
-1472.6896 616.78253 1770.9011 3028018
-1462.6265 617.21814 1772.1517 3356983
-1442.2704 613.28351 1760.8547 3554362
-1414.587 606.14856 1740.3689 3620155
-1405.9086 607.10962 1743.1283 3554362
-1397.5206 608.21216 1746.2938 3225397
-1388.5477 609.07544 1748.7725 3093811
-1377.5911 609.07544 1748.7725 3291190
-1361.1249 606.61993 1741.7223 3356983
-1343.3969 603.5578 1732.9304 3291190
-1346.3837 609.82843 1750.9344 3028018
-1334.9663 609.62415 1750.348 3093811
-1306.3337 601.48999 1726.9933 3093811
-1296.5927 601.99097 1728.4316 3028018
-1289.4408 603.71259 1733.3749 3028018
-1281.5536 605.11639 1737.4054 3093554
-1276.4889 607.88837 1745.3641 3291960
-1262.4071 606.37695 1741.0247 3357753
-1252.9269 607.06873 1743.0109 3160374
-1244.1575 608.12012 1746.0297 3160374
-1235.4899 609.24042 1749.2463 3160118
-1224.5304 609.24042 1749.2463 3291447
-1213.2013 609.05499 1748.7137 3094067
-1209.8136 612.8891 1759.7224 3093810
-1215.3536 621.35828 1784.0389 3883326
-1206.5601 622.58838 1787.5708 3949120
-1186.386 617.91425 1774.1504 3620411
-1173.2627 616.85864 1771.1196 3489082
-1161.524 616.51788 1770.1412 3554875
-1151.172 616.91364 1771.2775 3620155
-1141.0133 617.42163 1772.7361 3883327
-1128.7386 616.78351 1770.9038 3949376
-1118.8855 617.46893 1772.8718 3883327
-1105.6498 616.28271 1769.4661 3554876
-1091.2129 614.39618 1764.0494 3620925
