# .PCD v0.7 - Point Cloud Data file format
VERSION 0.7
FIELDS x y z rgb
SIZE 4 4 4 4
TYPE F F F U
COUNT 1 1 1 1
WIDTH 1269
HEIGHT 1
VIEWPOINT 0 0 0 1 0 0 0
POINTS 1269
DATA ascii
397.43777 680.44122 3129.7312 4016971
422.66711 689.61163 3171.9111 3359041
440.71616 686.76935 3158.8379 3227455
457.70538 682.59088 3139.6187 3556420
475.20346 679.48431 3125.3298 3950664
494.62354 679.263 3124.312 4016457
514.61487 679.81329 3126.843 3950664
537.69556 684.2547 3147.2715 4016457
562.7124 690.75848 3177.1863 4477008
574.01141 680.55389 3130.2495 4213836
593.62341 680.55389 3130.2495 3753284
620.95398 689.11975 3169.6487 3753284
636.19623 684.15521 3146.814 3819077
651.7818 679.84723 3126.999 3753283
671.37347 679.84723 3126.999 3358525
702.18036 690.88202 3177.7544 3292732
714.94391 684.0448 3146.3062 3489597
723.69165 673.83527 3099.3469 3423805
755.38824 684.96893 3150.5569 2897461
778.83972 688.24939 3165.6455 3094840
802.50543 691.55157 3180.8342 3489598
816.68555 686.71765 3158.6001 3752770
830.89056 682.13281 3137.512 3423805
854.26544 685.1142 3151.2249 3029047
864.6496 677.77777 3117.4805 2963254
890.60406 682.70099 3140.125 3160633
913.31982 684.9823 3150.6184 3489598
922.36798 677.13342 3114.5171 3423806
941.88141 677.13342 3114.5171 3095351
962.54095 677.94073 3118.2302 3292473
1004.2409 693.2403 3188.6016 3226680
1026.6063 694.85657 3196.0354 3226680
1046.6304 694.85657 3196.0354 3424059
1063.8446 693.026 3187.6157 3358266
1074.7847 687.2511 3161.0537 3029301
1085.4252 681.49701 3134.5876 3095094
1114.597 687.37598 3161.6279 3358266
1134.3417 687.33716 3161.4495 3424059
1159.2762 690.3905 3175.4937 3555645
1175.2073 688.06946 3164.8176 3621438
1195.0359 688.06946 3164.8176 3686976
1207.277 683.77209 3145.0518 3752770
1238.7007 690.30286 3175.0903 3753283
1249.1489 685.12268 3151.2639 3950662
1266.999 684.10028 3146.5613 3950406
1286.7133 684.10028 3146.5613 4082248
1307.0168 684.40894 3147.981 3490367
1316.4824 679.11749 3123.6428 3621954
1344.9631 683.64661 3144.4746 3819333
1359.4592 681.039 3132.481 3884356
1376.3928 679.70947 3126.3655 4081735
1384.5908 674.16376 3100.8579 3555391
1393.9553 669.33173 3078.6323 3292219
1428.1443 676.38873 3111.0916 3292219
1448.4244 676.75702 3112.7856 3358012
1472.2581 678.75378 3121.9697 3358012
1494.2731 679.87067 3127.1072 3358012
1515.2535 680.49414 3129.9746 2963254
1535.012 680.55975 3130.2766 2897461
1567.7144 686.29022 3156.6343 3094583
1571.4451 679.35315 3124.7266 2897461
1587.8761 678.00964 3118.5471 2897461
1608.6964 678.55023 3121.0337 3028790
1629.1099 678.90833 3122.6807 3423548
1644.4365 677.16327 3114.6541 3028790
1664.1875 677.25958 3115.0972 2568496
1699.2821 683.52551 3143.9177 2765875
1724.7899 685.83582 3154.5442 2633776
1739.7786 683.95844 3145.9089 3160376
1751.8596 680.9928 3132.2683 3226169
1777.6737 683.37213 3143.2122 2568239
1829.7445 695.68237 3199.8337 2568239
1858.7922 699.06708 3215.4019 2502446
1888.0912 702.47266 3231.0662 2634289
1909.4327 702.87683 3232.9253 2700082
1940.7527 706.90704 3251.4624 2831668
1961.6031 707.07977 3252.2568 3029049
1981.9796 707.07977 3252.2568 3029049
2009.5809 709.63104 3263.9917 2963513
2027.8505 708.86884 3260.4858 3029306
2051.9492 710.13922 3266.3291 2963256
2089.032 715.83368 3292.521 3160635
2078.2788 705.18542 3243.5437 3358014
2098.6006 705.18542 3243.5437 3029049
2132.5881 709.7334 3264.4624 2831670
2157.5083 711.20605 3271.2358 2897463
2177.1331 710.92181 3269.9285 2963253
2200.5161 711.85864 3274.2375 2963511
2226.8933 713.73773 3282.8806 3292219
2248.6252 714.1073 3284.5806 3621184
2269.2129 714.11011 3284.5933 3686977
2250.5667 701.87701 3228.3267 3686977
2267.6218 700.89685 3223.8181 3489598
2322.5298 711.53058 3272.7285 3160633
2343.623 711.70917 3273.5503 3226169
2360.7065 710.67773 3268.8062 3226169
2312.5308 690.18707 3174.5579 3226169
2324.2798 687.77814 3163.4778 3620927
2378.481 697.86584 3209.877 3620927
2446.718 711.86804 3274.281 3555134
2446.1763 705.79279 3246.3374 3620927
2448.9846 700.77625 3223.2637 3357755
2440.2073 692.55377 3185.4436 3028790
2534.5337 713.48901 3281.7366 2963253
2564.8684 716.2182 3294.2898 3159606
2594.8877 718.81641 3306.2405 3225399
2638.2363 725.03668 3334.8511 3093813
2675.2375 729.42853 3355.0515 2962227
2703.7102 731.44458 3364.3245 2896434
2724.7886 731.44458 3364.3245 2896434
2764.7708 736.4801 3387.4856 2699055
2784.822 736.17023 3386.0603 2435627
2794.9565 733.26331 3372.6897 2369321
2815.425 733.09082 3371.8962 2369577
2835.1001 732.71582 3370.1714 2369577
2850.5745 731.2688 3363.5159 2303784
2877.7607 732.82538 3370.6755 2435370
2870.4199 725.63104 3337.5847 2764335
2866.1562 719.31305 3308.5247 2764848
2905.2864 723.89795 3329.6133 2830641
2900.9111 717.65479 3300.8972 2830641
2912.3354 715.38092 3290.4385 2830641
2927.9741 714.16699 3284.855 3028020
2949.1401 714.30884 3285.5073 3159606
2969.5972 714.27808 3285.366 3159605
2986.2537 713.3399 3281.0508 3027510
3008.9556 713.84882 3283.3916 2962485
3024.1865 712.59039 3277.6035 3028279
3040.1484 711.52008 3272.6804 3028278
3040.4902 706.83282 3251.1211 2962484
3063.832 707.51923 3254.2783 2962484
3084.9377 707.68372 3255.0347 3028020
3092.1108 704.67072 3241.1765 2830642
3098.6721 701.55865 3226.8623 2830898
3091.2769 695.34753 3198.2937 2896691
3137.7383 701.25287 3225.4556 3028277
3162.0386 702.16144 3229.6348 3028020
3193.1194 704.55463 3240.6423 3094071
3215.3066 704.96765 3242.542 3028021
3227.4651 703.19037 3234.3674 2830899
3247.7295 703.19037 3234.3674 2699313
3288.2666 707.55255 3254.4316 2633521
3304.146 706.58795 3249.9949 2699315
3327.0742 707.13336 3252.5034 2699315
nan nan nan 16777215
nan nan nan 16777215
nan nan nan 16777215
nan nan nan 16777215
nan nan nan 16777215
nan nan nan 16777215
nan nan nan 16777215
nan nan nan 16777215
-2780.0852 671.73773 3003.6001 3621183
-2754.5281 670.09839 2996.2703 3686977
-2721.5769 666.62549 2980.7415 3818563
-2702.1663 666.44415 2979.9307 3818307
-2676.0913 664.60516 2971.7078 3686979
-2655.8342 664.19543 2969.8757 3621187
-2635.6111 663.78839 2968.0557 3818565
-2595.1321 658.23785 2943.2371 4015945
-2571.2317 656.84308 2937.0005 3950151
-2549.2078 655.91101 2932.8328 3818565
-2542.7869 659.00909 2946.6855 4015685
-2539.051 662.85352 2963.8755 3818820
-2501.1404 657.76709 2941.1321 3950405
-2456.9397 650.9386 2910.5994 3818820
-2417.2456 645.21106 2884.9893 4016198
-2409.906 648.09821 2897.8987 3687234
-2409.2649 652.84436 2919.1206 3950662
-2397.9954 654.76105 2927.6907 4148041
-2394.2212 658.76959 2945.6147 4542799
-2385.5491 661.48236 2957.7444 4542799
-2385.0674 666.52637 2980.2981 4477006
-2371.6025 667.99323 2986.8569 4345420
-2390.3091 678.61688 3034.3596 4345421
-2356.9819 674.51996 3016.0408 4279628
-2338.4983 674.6391 3016.5732 4477006
-2319.4666 674.60065 3016.4016 4477005
-2308.6687 676.97607 3027.0229 4213833
-2296.8538 679.09009 3036.4756 4016455
-2268.0625 676.17841 3023.4563 3884869
-2257.196 678.60651 3034.313 3884869
-2266.6301 687.2309 3072.876 4082251
-2243.3337 685.99426 3067.3467 4016971
-2224.1157 685.99426 3067.3467 3951178
-2197.4746 683.68469 3057.0195 3556677
-2178.3213 683.68469 3057.0195 3424834
-2155.302 682.46045 3051.5457 3424834
-2130.5308 680.6546 3043.4712 3359042
-2106.7747 679.14349 3036.7141 3425089
-2097.0469 682.16821 3050.239 3622468
-2080.7815 683.10236 3054.4158 4017225
-2052.7007 680.13879 3041.1646 3819846
-2037.9896 681.59125 3047.6592 3819846
-2025.4142 683.79211 3057.5 3754053
-2021.3545 688.93744 3080.5068 3753540
-1980.908 681.66071 3047.9697 3687747
-1958.8029 680.61536 3043.2954 3687233
-1926.1055 675.8327 3021.9106 3621697
-1892.0374 670.46948 2997.9294 3555904
-1906.302 682.29779 3050.8184 3226939
-1905.7566 689.01123 3080.8367 3095353
-1862.27 680.17822 3041.3408 3358525
-1840.401 679.13977 3036.6975 3424318
-1831.9122 683.06873 3054.2654 3490111
-1812.7762 683.06873 3054.2654 3556161
-1790.228 681.76917 3048.4546 3753026
-1771.1284 681.76917 3048.4546 3226682
-1761.2054 685.34003 3064.4214 3160633
-1789.8192 704.15076 3148.5315 3424062
-1769.4189 703.88269 3147.333 3753027
-1700.5701 684.11841 3058.959 3753283
-1674.0098 681.10956 3045.5054 3687490
-1659.9706 683.18463 3054.7837 3687747
-1639.1101 682.46796 3051.5791 3621697
-1616.3896 680.95074 3044.7952 3555904
-1597.313 680.95074 3044.7952 3490111
-1577.8413 680.78027 3044.033 3884869
-1558.7695 680.78027 3044.033 3424318
-1553.6287 686.93982 3071.5747 3161146
-1531.6246 685.70441 3066.0505 3292732
-1496.3964 678.44189 3033.5769 3490111
-1477.3901 678.44189 3033.5769 3490111
-1453.9651 676.38623 3024.3855 3424318
-1439.3383 678.42334 3033.4944 3621697
-1420.3325 678.42334 3033.4944 3884869
-1401.8579 678.68048 3034.644 3884869
-1390.0831 682.23291 3050.5283 3950662
-1373.4198 683.45172 3055.978 3885126
-1368.9141 690.84045 3089.0159 3819333
-1353.4092 692.81067 3097.8254 3555903
-1334.5195 693.08026 3099.031 3621953
-1315.1031 693.08026 3099.031 3753539
-1294.7775 692.59387 3096.8562 3884869
-1284.8306 697.72888 3119.8169 4081992
-1267.9263 699.18597 3126.332 3950662
-1256.517 703.76648 3146.8132 3950662
-1270.7991 723.11206 3233.3147 4411213
-1246.8496 720.97736 3223.7695 4412240
-1204.4839 707.948 3165.5103 3819848
-1200.9912 717.71289 3209.1731 3753799
-1189.6011 723.0105 3232.8606 4017225
-1174.4172 726.14587 3246.8801 4083018
-1154.0746 726.14587 3246.8801 4148555
-1128.6953 722.92004 3232.4563 3951432
-1099.8782 717.33411 3207.4792 3688517
-1071.0767 711.55072 3181.6194 3621697
-1040.2404 704.17053 3148.6199 3555904
-1017.7787 702.28357 3140.1826 3753283
-997.57745 701.91278 3138.5244 3884612
-986.44293 708.03479 3165.8984 3753283
-963.48749 705.74933 3155.6794 4015942
-934.83734 699.10931 3125.9893 3950149
-908.6366 694.05621 3103.3948 3949893
-886.13922 691.67267 3092.7371 3884356
-872.46075 696.22009 3113.0703 3555391
-842.49695 687.68262 3074.896 3423805
-819.04248 684.18311 3059.2483 3291962
-791.22345 676.78259 3026.1577 3949893
-781.52899 684.9024 3062.4646 4081735
-762.85718 685.36554 3064.5354 3620927
-741.1676 683.07135 3054.2771 3555134
-720.76862 681.87653 3048.9346 3752513
-700.58337 680.82428 3044.2297 3555135
-681.51031 680.82428 3044.2297 3489342
-661.22705 679.58051 3038.6682 3357755
-640.27979 677.56024 3029.635 3489341
-623.25195 679.69092 3039.1621 3423805
-606.69647 682.48724 3051.6655 3686977
-594.2417 690.22876 3086.2808 3818820
-565.98975 679.5249 3038.4197 3686977
-545.54584 677.77649 3030.6018 3423805
-530.1189 682.3598 3051.0957 3423805
-516.90741 690.24438 3086.3506 3489599
-495.63541 687.56006 3074.3479 3555392
-475.74762 686.65637 3070.3074 3489600
-456.53625 686.69415 3070.4761 3621185
-436.46774 685.38916 3064.6411 3555392
-417.6069 685.94775 3067.1387 3358014
-398.78787 686.63226 3070.1995 3621184
-379.82596 687.12762 3072.4146 3555392
-360.05844 686.14075 3068.0017 3358525
-341.89368 688.26898 3077.5181 3424574
-322.66367 688.37909 3078.0103 3621697
-302.59656 686.60382 3070.0723 3819076
-281.75305 682.70618 3052.6443 3884869
-261.91357 680.85083 3044.3484 4016455
-243.15363 681.73071 3048.283 4082247
-227.5692 692.42285 3096.0913 3490881
-207.58908 690.48651 3087.4331 3359038
-185.50211 680.42419 3042.4407 3226939
-166.18236 679.36975 3037.7261 3161146
-147.75835 682.17816 3050.2834 3029560
-129.62016 687.33655 3073.3486 2766388
-108.00858 672.66309 3007.7378 3161147
-90.058701 679.4115 3037.9126 3292735
-71.630554 685.20184 3063.8035 3161148
-52.669243 688.2644 3077.4976 2963768
-33.284019 686.12585 3067.9351 2700595
-14.088328 687.38824 3073.5796 3161147
5.1887136 690.06311 3085.5403 3292733
24.64422 693.54266 3101.0986 3161404
44.389641 698.51642 3123.3381 3424318
63.862446 697.46936 3118.6562 3490112
83.427361 697.68311 3119.6121 3490369
102.97144 697.67462 3119.574 3358526
122.68507 698.63428 3123.865 3424320
142.5565 700.10492 3130.4409 3490111
162.16072 700.06622 3130.2678 3555904
181.64583 699.57715 3128.0811 3424318
201.72455 701.24683 3135.5469 3424574
220.99939 700.07373 3130.3015 3490368
240.47224 699.66791 3128.4871 3424576
261.42941 703.31659 3144.8015 3425090
279.23724 698.57501 3123.6001 3293506
298.69846 698.31995 3122.4597 3424835
318.37152 698.56104 3123.5376 3819592
334.57266 691.59735 3092.4004 3424834
353.94751 691.59735 3092.4004 2898490
371.72623 688.64044 3079.179 3951178
393.07297 692.25922 3095.3596 4477522
415.22607 696.89093 3116.0701 3425091
430.55927 690.1745 3086.0381 3424834
451.52695 692.67926 3097.2378 3359041
471.07452 692.88867 3098.1743 3885385
489.87766 692.02997 3094.3347 4279886
506.87088 688.7771 3079.79 4016971
530.50714 694.45898 3105.1958 3688006
562.7124 710.55927 3177.1863 4016457
571.88202 697.46515 3118.6375 4213837
586.49237 691.6524 3092.6465 4016456
602.91388 688.27917 3077.5635 3292734
623.00909 689.17889 3081.5864 3687492
639.42303 686.07471 3067.7063 3490111
661.39282 688.93884 3080.5129 3424062
680.97345 689.22253 3081.7815 3423805
699.97601 688.92151 3080.4358 3423805
715.9082 685.69598 3066.0129 3292219
735.11768 685.69598 3066.0129 3292219
761.03278 691.79144 3093.2681 3226426
781.11511 692.41376 3096.0508 3489598
809.78137 700.43073 3131.8977 3423805
819.10681 691.73499 3093.0159 3423805
847.98523 699.57208 3128.0583 3292219
859.06232 692.70105 3097.3354 3358012
880.16193 694.0368 3103.3079 3687233
893.98718 689.70258 3083.928 3686977
915.32892 691.22803 3090.7488 3358012
931.14581 688.60437 3079.0176 3160886
952.21942 689.89594 3084.7927 3358266
973.7417 691.45471 3091.7625 3292473
993.73956 691.8913 3093.7146 3358522
1015.2809 693.36523 3100.3052 3489852
1029.8586 690.11743 3085.783 3489852
1048.5179 689.67407 3083.8005 3489852
1067.839 689.67407 3083.8005 3490108
1085.0803 688.3548 3077.9016 3358266
1103.7317 687.96045 3076.1384 3160887
1126.4501 690.07117 3085.5762 3226680
1145.7822 690.07117 3085.5762 3423803
1165.1157 690.07202 3085.5801 3358267
1180.8912 687.99988 3076.3147 3424060
1200.1653 687.99988 3076.3147 3621439
1215.4623 685.7561 3066.2817 3818820
1224.3541 680.02454 3040.6538 3950406
1244.156 680.43536 3042.4907 4213322
1272.7072 685.54663 3065.3452 3950149
1280.6794 679.58588 3038.6924 3687234
1300.0558 679.76263 3039.4827 3950149
1322.3168 681.42078 3046.897 4081735
1373.723 697.83728 3120.3015 3818820
1374.6667 688.51825 3078.6323 3423805
1372.6504 677.99512 3031.5793 3423805
1390.3268 677.35321 3028.7092 3358012
1405.0807 675.32404 3019.636 3358012
1423.6311 675.14923 3018.8545 3358012
1428.0262 668.35406 2988.4705 3358012
1476.8099 682.24084 3050.5637 2897461
1495.9227 682.24084 3050.5637 2634546
1506.0812 678.20862 3032.5342 2897204
1527.5627 679.31232 3037.4692 3160376
1545.3677 678.77393 3035.0618 3226169
1562.5957 677.99829 3031.5938 3226169
1567.2887 671.86774 3004.1816 3291962
1587.552 672.47827 3006.9114 3160376
1636.0968 684.91376 3062.5154 3094583
1665.0265 688.94482 3080.5398 3357755
1679.8665 687.1203 3072.3816 3357755
1701.6747 688.15509 3077.0085 3357755
1705.9285 682.14716 3050.1448 3291962
1755.0896 694.03052 3103.28 2831411
1776.7178 694.88525 3107.1016 2831411
1800.4142 696.52142 3114.4177 2831411
1809.1296 692.3891 3095.9404 2765618
1846.4182 699.16388 3126.2332 2765618
1873.6517 702.02899 3139.0442 2831410
1883.63 698.43646 3122.9805 2963256
1904.7202 698.99561 3125.481 2831927
1926.0703 699.63776 3128.3523 2831670
1944.7103 699.2926 3126.8088 2963256
1967.2843 700.35474 3131.5579 2963256
1991.3325 701.91553 3138.5369 2897463
2008.3291 700.98456 3134.3743 3029049
2036.7178 704.00934 3147.8992 2963256
2073.8877 709.98242 3174.6069 2963256
2093.7778 709.98242 3174.6069 2831927
2096.4602 704.20233 3148.7622 2634289
2107.1958 701.21008 3135.3826 2634289
2156.2324 710.90063 3178.7126 3029047
2176.1479 710.90063 3178.7126 3160633
2194.4863 710.38995 3176.4294 3094840
2214.3875 710.38995 3176.4294 3292476
2232.8672 709.93793 3174.4082 3358012
2240.811 706.17365 3157.5767 3094840
2250.4036 702.9903 3143.3425 3028533
2279.6702 705.95459 3156.5972 3160376
2299.447 705.95459 3156.5972 3160376
2309.1089 702.87561 3142.8296 3226169
2351.416 709.70166 3173.3516 3489341
2425.4309 725.90295 3245.7939 3620927
2422.8428 719.09912 3215.3713 4213064
2412.481 710.1192 3175.2188 3686720
2412.4182 704.29303 3149.1675 3094583
2445.312 708.10486 3166.2117 3029047
2479.2249 712.14801 3184.2903 3290935
2522.0662 718.67078 3213.4561 3225399
2562.1077 724.29877 3238.6211 3225399
2590.2209 726.49268 3248.4309 3225399
2620.5845 729.27869 3260.8882 3225399
2670.6897 737.47296 3297.5278 3159606
2679.0144 734.0929 3282.4143 3225399
2683.2014 729.63916 3262.5 3290936
2713.4062 732.27417 3274.2822 3158837
2733.9207 732.27417 3274.2822 3027507
2736.9658 727.63 3253.5164 2764335
2771.7893 731.44031 3270.5537 2698542
2780.9204 728.46454 3257.2478 2501163
2788.7053 725.18213 3242.571 2566700
2814.6365 726.63177 3249.053 2567469
2818.1133 722.30542 3229.708 2633262
2789.0728 709.76575 3173.6382 2830641
2806.6965 709.1947 3171.085 2962484
2814.5498 706.18011 3157.6057 3028020
2856.45 711.69061 3182.2451 3159606
2876.3877 711.69061 3182.2451 3225655
2876.28 706.76501 3160.2209 3290938
2889.9253 705.26306 3153.5051 3159866
2897.928 702.41382 3140.7649 3094329
2909.6912 700.50842 3132.2451 3028793
2928.6968 700.36035 3131.583 2962743
2941.959 698.85004 3124.8298 3094329
2945.7529 695.12537 3108.1753 2962743
2967.7324 695.71277 3110.802 3028536
2984.9229 695.17719 3108.4072 3028536
2998.8105 693.8844 3102.6265 3028793
3001.9326 690.13318 3085.8535 2962744
3016.3345 689.00659 3080.8159 2831158
3033.4419 688.50842 3078.5884 2896950
3045.5759 686.89484 3071.3735 2896951
3065.4229 687.03015 3071.9785 2896950
3089.366 688.07617 3076.6558 2633778
3108.6343 688.0744 3076.6477 2633778
3130.106 688.55731 3078.8071 2765107
3167.3069 692.47333 3096.3171 2765364
nan nan nan 16777215
nan nan nan 16777215
nan nan nan 16777215
nan nan nan 16777215
nan nan nan 16777215
nan nan nan 16777215
nan nan nan 16777215
nan nan nan 16777215
-2653.907 659.11932 2867.2776 3950406
-2640.418 660.23834 2872.1458 3884613
-2625.4448 660.99915 2875.4551 3884356
-2600.0178 659.1203 2867.282 3884356
-2582.0535 659.1203 2867.282 3818564
-2563.3665 658.93457 2866.4739 3818563
-2538.5042 657.14752 2858.7002 4015942
-2520.3079 657.07312 2858.3765 4081734
-2496.5071 655.52594 2851.6458 3950662
-2472.4951 653.9007 2844.5757 4016455
-2450.4648 652.7796 2839.699 4016457
-2441.5618 655.16473 2850.0747 4016711
-2427.4475 656.17639 2854.4756 4213834
-2392.2424 651.45953 2833.9563 4345677
-2373.3228 651.1402 2832.5671 4279627
-2365.2158 653.80493 2844.1592 3424574
-2366.7627 659.19897 2867.624 3753540
-2365.0344 663.75623 2887.449 4871764
-2355.5627 666.19385 2898.0532 4805971
-2324.3447 662.47131 2881.8594 4608592
-2311.1169 663.85822 2887.8926 4345421
-2302.3589 666.56091 2899.6497 4279884
-2300.4895 671.31683 2920.3389 4148299
-2286.7551 672.65894 2926.1772 4214093
-2270.8684 673.3844 2929.3333 4214607
-2282.9094 682.4707 2968.8601 4214607
-2264.3088 682.4707 2968.8601 4082250
-2211.2375 671.99524 2923.29 4016455
-2201.9426 674.75946 2935.3147 4082248
-2172.0745 671.21265 2919.8857 4016455
-2178.1628 678.81122 2952.9407 3819078
-2186.5264 687.25519 2989.6733 3556420
-2157.1089 683.86725 2974.9353 3556420
-2132.0491 681.8139 2966.0029 3424835
-2100.2124 677.53821 2947.4028 3424578
-2081.9019 677.58893 2947.6235 3425091
-2059.6758 676.3548 2942.2546 3490628
-2035.7405 674.53198 2934.3252 3425089
-2030.1255 678.8017 2952.8992 3621697
-1999.0962 674.57404 2934.5083 3753283
-1975.3152 672.73657 2926.5149 3753283
-1960.2908 673.87476 2931.4663 3884869
-1964.2979 681.63879 2965.241 3753540
-1970.2998 690.24982 3002.7004 3490367
-1896.9781 670.96979 2918.8291 3358525
-1879.5839 671.28876 2920.2168 3621697
-1862.7585 671.81915 2922.5242 3687490
-1840.5771 670.4093 2916.3909 3490111
-1827.0754 672.16431 2924.0254 3490111
-1807.8131 671.81409 2922.502 3555904
-1784.2378 669.83746 2913.9036 3687490
-1773.4825 672.68274 2926.2808 3424318
-1768.0438 677.62506 2947.7808 3424318
-1749.5751 677.62506 2947.7808 3555391
-1748.3914 684.39111 2977.2141 3226426
-1732.6738 685.55261 2982.2668 2963254
-1692.7874 677.07251 2945.377 3226426
-1692.2689 684.3252 2976.9272 3423805
-1664.1248 680.44366 2960.042 3358012
-1645.4633 680.39581 2959.8337 3292731
-1623.2291 678.85266 2953.1208 3555904
-1593.9762 674.30475 2933.3367 3621954
-1575.0178 674.0564 2932.2566 3555904
-1558.031 674.65601 2934.865 3555904
-1541.3987 675.42523 2938.2112 3687747
-1527.408 677.38464 2946.7349 3687490
-1514.3431 679.80762 2957.2751 3621697
-1495.8149 679.80762 2957.2751 3555904
-1468.2762 675.66132 2939.238 3490111
-1442.5234 672.24182 2924.3628 3424318
-1423.6094 671.96234 2923.147 3490111
-1403.765 671.2309 2919.9648 3292732
-1372.9929 665.18567 2893.6672 3490368
-1400.4984 687.59082 2991.1333 4082248
-1355.6067 674.57733 2934.5227 4016712
-1334.7689 673.34033 2929.1416 4016456
-1319.0549 674.6897 2935.0115 4016455
-1313.2526 681.21863 2963.4133 4016455
-1294.6859 681.21863 2963.4133 4148042
-1269.0353 677.43707 2946.9629 4083275
-1252.7306 678.60657 2952.0505 3819590
-1248.8086 686.61938 2986.9075 3819590
-1264.5138 705.8316 3070.4836 4082764
-1230.3008 697.34338 3033.5586 4148558
-1213.4233 698.56891 3038.8899 4148558
-1197.6367 700.47156 3047.1665 4214350
-1183.8274 703.61096 3060.8235 3951179
-1173.1787 708.76324 3083.2368 3951178
-1158.2352 711.44995 3094.9246 3885385
-1158.0496 723.44757 3147.1162 4346193
-1131.9164 719.37024 3129.3792 4477523
-1112.3098 719.37024 3129.3792 4082764
-1091.3938 718.50818 3125.6289 4082765
-1068.036 715.97766 3114.6208 4148811
-1045.3002 713.77771 3105.0508 3556418
-1022.8336 711.68164 3095.9324 3688260
-995.5105 706.06006 3071.4778 3556418
-967.89899 700.00836 3045.1516 3819589
-943.84302 696.33636 3029.178 3885126
-915.58197 689.34766 2998.7759 3885126
-888.28058 682.80377 2970.3088 3950662
-864.79626 678.97668 2953.6606 4016198
-845.88556 678.65173 2952.2471 3950663
-839.96808 688.96967 2997.1316 4016455
-815.51312 684.20673 2976.4119 3950918
-789.61383 677.98071 2949.3276 3818819
-781.45892 687.05713 2988.8118 3950149
-752.7749 678.08698 2949.79 3950149
-740.30737 683.64044 2973.9487 3226426
-717.52155 679.70624 2956.834 3226169
-702.20837 682.8299 2970.4226 3357754
-681.94879 681.18274 2963.2573 3160632
-663.38306 681.18274 2963.2573 2897460
-643.06396 679.33051 2955.1997 3291961
-621.21277 675.70197 2939.4148 3291962
-600.87323 673.54614 2930.0369 3291962
-585.46027 676.95099 2944.8484 3357755
-570.14868 680.69836 2961.1499 3489341
-549.11554 677.63715 2947.8333 3818306
-527.74512 673.93213 2931.7158 3292219
-513.07227 678.82117 2952.9839 3357755
-501.23221 687.96405 2992.7571 3291962
-481.8671 687.08777 2988.9451 3160633
-457.56702 678.81934 2952.9761 3226426
-436.99847 675.62335 2939.073 3226426
-419.08954 676.43884 2942.6206 3160633
-398.5798 672.93842 2927.3931 3029047
-380.23877 672.93842 2927.3931 3489598
-364.20587 677.23041 2946.0637 3686977
-346.07819 677.87738 2948.8782 3358525
-328.55362 679.84534 2957.4392 3226939
-311.7944 683.72681 2974.3245 3555904
-293.15933 683.72681 2974.3245 3490111
-272.71063 679.20972 2954.6743 3555905
-252.47638 674.60785 2934.6553 3687490
-234.03993 674.46393 2934.0293 3621698
-216.60895 677.44012 2946.9763 3555648
-198.14523 677.44012 2946.9763 3292732
-177.14163 667.86426 2905.3196 3424318
-158.90018 667.70154 2904.6116 3555904
-141.32497 670.65845 2917.4746 3490367
-122.95653 670.17029 2915.3511 3424318
-104.29444 667.63202 2904.3093 3226939
-86.105186 667.68738 2904.5503 3358525
-68.196785 670.534 2916.9333 3292475
-50.345184 676.2276 2941.7014 3094840
-31.914515 676.2276 2941.7014 3160633
-13.488953 676.48395 2942.8167 3094584
4.9479237 676.37695 2942.3511 3095352
23.498016 679.71362 2956.8662 3029560
42.107975 681.07672 2962.7959 3358525
60.896748 683.61304 2973.8293 3424574
79.693497 685.02948 2979.9912 3095352
99.192245 690.79712 3005.0813 3490111
118.61237 694.26434 3020.1643 3753539
138.05151 696.87354 3031.5146 3555904
157.00006 696.67456 3030.6492 3555904
175.50673 694.76935 3022.3611 3490111
194.21594 693.95886 3018.8354 3424318
212.83246 692.99048 3014.6228 3424318
231.78978 693.1991 3015.5303 3358525
250.68301 693.1991 3015.5303 3292475
268.82709 691.27271 3007.1501 3292732
288.45859 693.17291 3015.4163 3424574
308.86307 696.58289 3030.2505 3490368
325.35944 691.29431 3007.2441 3292732
347.21512 697.34833 3033.5803 3424575
363.89133 692.9115 3014.2791 3095355
381.78119 691.10931 3006.4395 3358784
400.36279 690.66992 3004.5281 3621957
416.36127 686.01398 2984.2739 3359297
436.92105 688.95068 2997.0491 3227966
457.31244 691.39075 3007.6636 4016457
477.76877 693.73199 3017.8484 4213836
502.56775 701.96051 3053.6438 3358527
521.69977 701.96051 3053.6438 3424320
535.21277 694.66736 3021.9175 3621956
552.91052 693.11859 3015.1802 3555906
566.41949 686.59473 2986.8 3424577
585.13275 686.59473 2986.8 3358527
602.63684 685.21985 2980.8193 3686979
621.36719 685.28003 2981.0811 3423805
639.4989 684.6958 2978.5396 3423805
658.0343 684.56464 2977.969 3489598
676.18964 684.05621 2975.7573 3489598
694.3136 683.54419 2973.53 3555391
718.43787 688.81183 2996.4451 3621184
737.21155 688.81183 2996.4451 3489598
754.86517 687.79132 2992.0056 3554877
777.58929 691.32831 3007.3921 3094326
795.32318 690.36621 3003.2068 3160376
809.54028 686.46643 2986.2422 3489598
825.78345 684.42218 2977.3491 3555391
846.42236 686.03088 2984.3474 3555391
862.43567 683.9021 2975.0869 3489598
882.98163 685.38159 2981.5229 3555391
908.34576 690.46228 3003.6248 3752769
920.78015 685.70801 2982.9426 3687233
939.46924 685.70801 2982.9426 3687231
957.53516 685.26196 2981.0027 3753024
975.81177 684.98108 2979.7805 3621694
994.46057 684.96698 2979.7192 3621438
1012.2505 684.37268 2977.134 3621438
1029.9878 683.76508 2974.4907 3687231
1053.9304 687.22516 2989.5427 3358266
1072.6608 687.22516 2989.5427 3226680
1083.2902 682.12408 2967.3523 2897715
1105.4685 684.34467 2977.0122 3095094
1118.1833 680.73022 2961.2888 3358268
1136.7167 680.71826 2961.2366 3423805
1167.1177 687.69946 2991.606 3423804
1185.8611 687.69946 2991.606 3423805
1184.4971 676.22028 2941.6697 3686977
1219.2112 685.37408 2981.4902 4147528
1223.2231 677.25293 2946.1619 3752770
1233.8667 672.99036 2927.6189 3753027
1251.2289 672.4635 2925.3271 3884356
1254.0338 664.24115 2889.5586 4147528
1303.2532 680.48792 2960.2346 4015942
1322.624 680.91211 2962.0801 3358012
1340.7657 680.70068 2961.1602 3686977
1347.9325 674.99896 2936.3569 3555391
1361.4039 672.56555 2925.771 3489598
1374.8125 670.16614 2915.3333 3555391
1382.0919 664.8811 2892.3423 3423805
1408.819 668.96747 2910.1187 2766132
1431.5557 671.07874 2919.3032 2700082
1450.7388 671.492 2921.1008 2831411
1458.7178 666.77356 2900.575 2634032
1480.9745 668.61725 2908.5952 2634289
1506.9542 672.07648 2923.6436 2831411
1519.7793 669.65643 2913.1157 3094840
1521.6519 662.52496 2882.0928 3094583
1549.6947 666.82172 2900.7844 3028790
1597.6677 679.49524 2955.9163 3094583
1621.5822 681.76337 2965.783 3094583
1639.3464 681.42365 2964.3052 2962997
1655.2236 680.31592 2959.4866 3028790
1683.5427 684.28979 2976.7734 3094583
1700.9698 683.7981 2974.6345 3094583
1710.7478 680.27533 2959.3098 3226426
1736.9486 683.28851 2972.4177 3160633
1786.6461 695.38306 3025.031 3226426
1805.5989 695.38306 3025.031 3160633
1819.3501 693.40063 3016.407 3160635
1828.9114 689.87854 3001.0852 3095099
1839.6204 686.85651 2987.939 3094842
1866.056 689.70819 3000.3442 2963513
1889.2682 691.32336 3007.3706 2897463
1925.2043 697.5166 3034.3123 3094842
1934.9065 694.177 3019.7844 3094842
1966.6438 698.73096 3039.5947 2700341
1991.9708 700.94183 3049.2124 2567986
1997.7761 696.30652 3029.0483 2634290
2009.141 693.6781 3017.614 2568496
2029.2971 694.10565 3019.4739 2568496
2050.4753 694.87152 3022.8057 2502703
2078.5364 697.93463 3036.1306 2502703
2100.3494 698.86328 3040.1704 2568496
2124.6587 700.59821 3047.7178 2699825
2150.1709 702.69543 3056.8411 2896947
2161.1975 700.06342 3045.3914 2962740
2176.7971 698.9458 3040.5295 2831411
2197.1997 699.37646 3042.4028 2897204
2213.9116 698.63489 3039.177 3028790
2244.4441 702.23022 3054.8171 2699825
2273.2056 705.21521 3067.8025 2831411
2292.4263 705.21521 3067.8025 3555134
2311.2603 705.09723 3067.2891 3423548
2340.519 708.13531 3080.5051 3226169
2323.4536 697.22266 3033.0334 3094583
2359.8562 702.40161 3055.5627 3029047
2389.8809 705.61407 3069.5376 3291192
2426.646 710.74963 3091.8779 3159606
2460.6943 715.01422 3110.4297 3028020
2481.8616 715.49841 3112.5361 3291192
2497.3811 714.3595 3107.5815 3291192
2519.0017 714.96997 3110.2373 3159606
2542.6321 716.13708 3115.3145 3159606
2574.6609 719.63379 3130.5256 3159606
2583.8906 716.75342 3117.9954 3422778
2609.9331 718.54486 3125.7886 3291192
2629.0867 718.42719 3125.2769 3093813
2641.6123 716.51367 3116.9524 3094070
2651.6519 713.95868 3105.8379 2962741
2668.7869 713.33746 3103.1355 2831411
2691.8113 714.28802 3107.2708 2699825
2704.675 712.54816 3099.7019 2633776
2715.2498 710.23431 3089.6362 2633519
2726.6411 708.16534 3080.636 2765362
2729.45 703.91205 3062.1335 3028020
2748.1021 703.77557 3061.5396 3225399
2778.1921 706.5498 3073.6082 3291191
2797.4495 706.5498 3073.6082 3225145
2788.8333 699.55798 3043.1926 3094072
2799.4521 697.45337 3034.0371 2896950
2811.1023 695.63232 3026.1152 2896950
2818.7119 692.84247 3013.979 2896950
2833.3828 691.81396 3009.5046 2897207
2845.7239 690.23376 3002.6309 2896950
2866.7368 690.7641 3004.9377 2962743
2899.9971 694.21924 3019.968 3028536
2918.918 694.21924 3019.968 3225915
2901.7119 685.68231 2982.8311 3357501
2933.8281 688.83502 2996.5459 3423294
2956.5596 689.75818 3000.5618 3225915
2977.665 690.29279 3002.8875 3028536
2990.9451 689.01794 2997.3416 2896950
3009.7244 689.01794 2997.3416 2831157
3022.1155 687.56458 2991.0193 2896950
3025.5186 684.09686 2975.9341 2896950
3038.5505 682.83539 2970.4465 2896950
nan nan nan 16777215
nan nan nan 16777215
nan nan nan 16777215
nan nan nan 16777215
nan nan nan 16777215
nan nan nan 16777215
nan nan nan 16777215
nan nan nan 16777215
-2567.8672 655.04059 2774.3201 3818563
-2563.0247 658.26111 2787.9602 3818563
-2544.6292 658.02112 2786.9436 3818563
-2523.2407 656.99854 2782.6125 3752770
-2495.905 654.40234 2771.6169 3884613
-2469.0457 651.89563 2761.0002 4081735
-2451.7473 651.89563 2761.0002 4081735
-2440.936 653.63281 2768.3577 4081735
-2411.3948 650.34344 2754.426 3753540
-2380.4426 646.62335 2738.6704 3621698
-2377.3538 650.47302 2754.9749 3753285
-2368.4583 652.77856 2764.7397 3819332
-2352.3679 653.12048 2766.188 3819332
-2328.1096 651.18292 2757.9817 3753283
-2304.7893 649.48071 2750.7722 3556160
-2286.8777 649.28851 2749.958 2766388
-2272.0793 649.98395 2752.9036 2371630
-2305.5896 664.61554 2814.8733 3227196
-2295.3279 666.75769 2823.946 4016455
-2285.7271 669.12653 2833.979 4345420
-2278.0339 672.09546 2846.5532 4213834
-2236.5901 665.07483 2816.8186 4148041
-2237.135 670.52789 2839.9141 4148041
-2222.6147 671.5166 2844.1018 4411213
-2212.9895 674.01227 2854.6716 4213834
-2239.8459 687.75037 2912.8572 3884869
-2203.895 682.27063 2889.6484 3687490
-2168.8923 676.99603 2867.3088 3950919
-2150.9277 676.99603 2867.3088 4016455
-2120.0566 672.89954 2849.9587 3687747
-2103.1262 673.19574 2851.2134 3292735
-2079.3047 671.27234 2843.0671 3096380
-2067.8916 673.35626 2851.8933 3293759
-2055.6096 675.19104 2859.6643 3227966
-2039.9846 675.95038 2862.8801 3030843
-2008.9121 671.55927 2844.2825 2899001
-1997.8406 673.83545 2853.9229 3358781
-1977.5109 673.00201 2850.3928 3555904
-1944.6117 667.83667 2828.5159 3555904
-1931.0161 669.26666 2834.5725 3555904
-1915.1127 669.91589 2837.322 3621697
-1906.2899 673.07739 2850.7122 3621697
-1891.1212 674.03693 2854.7759 3687490
-1859.1532 668.96979 2833.3152 3358525
-1841.4016 668.96979 2833.3152 3292732
-1829.0725 670.95892 2841.7397 3621697
-1811.2681 670.95892 2841.7397 3687490
-1786.3282 668.28943 2830.4336 3490111
-1773.6079 670.18372 2838.4565 3555904
-1760.983 672.15289 2846.7966 3555904
-1738.3311 670.29584 2838.9314 3621954
-1725.3446 672.16602 2846.8523 3227195
-1715.8354 675.44403 2860.7358 3095609
-1699.5153 676.08185 2863.437 3161402
-1689.5082 679.27142 2876.946 3161146
-1671.053 679.09656 2876.2053 3227195
-1646.8804 676.56909 2865.5007 3358268
-1622.849 674.04462 2854.8086 3292988
-1604.951 674.03961 2854.7876 3358525
-1583.9508 672.71704 2849.186 3424318
-1564.4187 671.995 2846.1277 3358525
-1545.4883 671.51758 2844.106 3358525
-1527.0713 671.25488 2842.9932 3490111
-1514.3647 673.5257 2852.6108 3556161
-1496.4922 673.5257 2852.6108 3621697
-1474.358 671.58447 2844.3889 3753540
-1453.9445 670.38898 2839.3259 3687490
-1437.8405 671.17572 2842.658 3490111
-1413.658 668.16382 2829.9014 3555904
-1399.2601 669.75885 2836.657 3490367
-1381.4875 669.75885 2836.657 3490111
-1367.2742 671.50684 2844.0603 3490111
-1349.4553 671.50684 2844.0603 3621697
-1333.421 672.40674 2847.8718 4082248
-1316.4707 672.86298 2849.804 4016198
-1298.6158 672.86298 2849.804 3490881
-1282.3661 673.70624 2853.3755 3556674
-1267.3798 675.24658 2859.8994 3951432
-1249.4617 675.24658 2859.8994 4017225
-1230.8561 674.86969 2858.303 3688518
-1223.1765 680.56073 2882.4065 3754053
-1207.0938 681.67682 2887.1338 3622467
-1199.7755 687.85181 2913.2869 4148558
-1193.916 695.06677 2943.8447 4280143
-1178.5394 696.88062 2951.5271 4345936
-1144.441 687.50543 2911.8198 4082764
-1147.1555 700.29956 2966.0073 3622213
-1138.9464 706.73676 2993.271 3819592
-1129.7787 712.78455 3018.8855 3885385
-1126.5295 722.83612 3061.4573 3885385
-1102.8441 719.89575 3049.0039 3885385
-1074.744 713.91925 3023.6914 3819592
-1060.2969 716.96027 3036.571 3885386
-1039.1504 715.49957 3030.3845 3885129
-1012.5111 710.13208 3007.6514 3688260
-990.6554 707.97955 2998.5347 3688517
-964.30573 702.47028 2975.2009 3885639
-942.35406 700.01062 2964.7834 3820103
-923.41272 699.73322 2963.6086 4016199
-901.24139 696.94659 2951.8064 3490111
-869.98157 686.8678 2909.1191 3424318
-845.26306 681.63251 2886.946 3884869
-825.22076 680.02179 2880.124 4345420
-807.84412 680.58478 2882.5083 4411213
-788.35229 679.35071 2877.282 4016455
-762.86932 672.77533 2849.4329 3818307
-756.11938 682.80139 2891.8967 4015942
-735.99762 680.94812 2884.0474 3686977
-710.86792 674.25153 2855.6851 3423805
-696.77069 677.94348 2871.3218 3292219
-679.23395 678.39594 2873.238 3160376
-661.23224 678.39594 2873.238 2962997
-640.41638 675.42798 2860.6677 3357755
-621.36182 674.2002 2855.4675 3620927
-605.49225 676.45782 2865.0295 3357755
-587.87427 676.84052 2866.6501 3226169
-571.15546 678.31506 2872.8955 2897204
-549.92938 674.35852 2856.1382 3160376
-531.58282 673.78564 2853.7119 3226169
-513.70343 673.78564 2853.7119 3226169
-497.82587 676.50598 2865.2334 3357755
-481.4928 678.78772 2874.8972 3357755
-461.3237 675.6286 2861.5176 3423805
-443.18088 675.30176 2860.1331 3292219
-427.02811 678.10754 2872.0164 3160633
-406.17142 673.36176 2851.9165 3423805
-386.94702 671.00989 2841.9556 3226426
-369.28485 671.27081 2843.0608 3160633
-355.07919 678.15979 2872.2378 3620927
-336.84662 677.68274 2870.2173 3490111
-316.13486 671.88287 2845.6528 3292732
-298.89325 673.20563 2851.2554 3555904
-281.02927 673.20563 2851.2554 3424574
-262.48615 671.46844 2843.8977 3358525
-244.17838 670.12402 2838.2036 3292732
-225.01125 666.02478 2820.8418 3095353
-206.69405 663.95691 2812.0837 3095610
-190.32199 668.33417 2830.623 3226939
-172.50435 668.01306 2829.2629 2963767
-154.89191 668.50409 2831.3428 2964024
-136.78296 666.70215 2823.7107 3161146
-119.00469 666.21588 2821.6514 3358525
-101.24523 665.68372 2819.3975 3292732
-83.599709 665.83405 2820.0342 2963767
-65.754807 664.05151 2812.4844 2963511
-48.151054 664.29059 2813.4971 3029047
-30.648569 667.00983 2825.0139 3292219
-12.983496 668.7876 2832.5435 3226426
4.7632685 668.7876 2832.5435 3094840
22.583971 670.98438 2841.8477 3226426
40.673508 675.71045 2861.864 3094840
58.679138 676.57715 2865.5347 3094840
76.641266 676.65363 2865.8586 3095097
94.491837 675.90308 2862.6799 3160633
111.93093 672.91833 2850.0383 2963254
131.81642 683.43884 2894.5964 3358269
150.54138 686.12518 2905.9741 3489855
167.99619 683.0675 2893.0237 3292475
186.13158 683.10309 2893.1743 3292731
204.46736 683.80261 2896.137 3226939
223.07399 685.21991 2902.1399 3292732
241.09013 684.74664 2900.1353 3424318
257.4588 679.98834 2879.9824 3358525
276.81708 683.23224 2893.7214 3161146
297.89951 690.07129 2922.687 3161147
316.21103 690.07129 2922.687 3161148
334.09903 689.19757 2918.9866 2634805
349.77325 684.08478 2897.3323 2897976
371.7616 691.21649 2927.5374 3292733
387.04349 685.79443 2904.5732 2897974
403.22528 682.38232 2890.1216 3029560
420.27582 680.67047 2882.8713 3095353
437.56232 679.46606 2877.7705 2963256
454.49371 677.82745 2870.8303 2700598
474.38251 680.55634 2882.3879 3161149
497.14267 687.05328 2909.9048 3556163
514.87689 686.39038 2907.0972 3490370
528.37878 680.32343 2881.4016 3555906
545.75488 679.4809 2877.833 3621699
564.1994 679.97974 2879.946 3292735
582.40253 680.16589 2880.7344 3687235
599.0899 678.62384 2874.2034 3621184
617.84003 679.44025 2877.6609 3423805
637.56067 681.24731 2885.3145 3424061
655.5025 681.10645 2884.718 3686977
673.57617 681.10645 2884.718 3884356
690.07806 679.55872 2878.1626 3752770
707.61523 679.08325 2876.1489 3621184
724.49915 678.02008 2871.646 3357755
743.98773 679.38696 2877.4353 3423805
761.46716 678.89777 2875.3635 3358269
778.60645 678.13501 2872.1331 3358012
797.86536 679.21118 2876.6909 3555391
815.85925 679.18665 2876.5869 3489598
837.37134 682.02875 2888.624 3489598
852.66357 679.79169 2879.1497 3620929
871.71442 680.58185 2882.4961 3490108
889.77417 680.58185 2882.4961 3621694
909.33801 681.70947 2887.272 3621694
927.224 681.55981 2886.6379 3621694
945.44684 681.65869 2887.0569 3555901
962.81244 681.1474 2884.8914 3621440
977.6814 678.9212 2875.4626 3621184
996.04736 679.1601 2876.4744 3489341
1022.5599 684.84656 2900.5583 3621184
1040.4033 684.6297 2899.6401 3621185
1051.1411 679.82477 2879.2896 3621184
1066.4758 678.10486 2872.0051 3226426
1086.5775 679.42279 2877.5872 3358012
1109.6658 682.53467 2890.7668 3555391
1127.7773 682.53467 2890.7668 3687233
1144.0455 681.43671 2886.1167 3818563
1153.7959 676.55103 2865.4243 3950149
1171.7488 676.55103 2865.4243 4147528
1192.0259 677.87286 2871.0225 3884355
1209.1663 677.39813 2869.012 3489854
1219.2616 673.04834 2850.5891 3621184
1228.6626 668.44635 2831.0981 4213321
1246.4004 668.44635 2831.0981 4147528
1271.4889 672.33325 2847.5605 3884356
1289.5171 672.43097 2847.9744 3686977
1307.3605 672.43097 2847.9744 3752770
1321.0646 670.33063 2839.0786 3686977
1341.9551 671.88409 2845.658 3621184
1358.649 671.3233 2843.283 3358012
1390.3619 678.10199 2871.9929 2765618
1408.3558 678.10199 2871.9929 2699825
1408.291 669.51666 2835.6311 2502703
1414.0094 663.86041 2811.675 2634032
1438.266 666.9397 2824.7168 2699825
1458.8068 668.242 2830.2327 2765618
1476.5391 668.242 2830.2327 2568239
1480.563 662.11163 2804.2683 3489341
1510.948 667.77551 2828.2568 3949892
1495.89 653.45697 2767.613 3489341
1565.4264 675.99689 2863.0771 3094583
1574.798 672.33954 2847.5869 3028790
1600.974 675.85822 2862.4897 3028790
1618.9083 675.85822 2862.4897 3160376
1632.702 674.1485 2855.2485 3357755
1650.7661 674.21997 2855.5513 3357755
1661.682 671.40173 2843.6152 3226426
1714.2573 685.29724 2902.4673 3160633
1740.4916 688.48126 2915.9529 3095096
1735.8828 679.52545 2878.0217 3160892
1751.5559 678.61157 2874.1514 3160635
1772.1373 679.59863 2878.332 3029049
1809.333 686.87323 2909.1421 2700084
1810.3966 680.42255 2881.8215 2765877
1839.4285 684.5072 2899.1213 2897463
1856.3014 684.03149 2897.1064 2765875
1875.084 684.26184 2898.082 2700082
1909.3783 690.09412 2922.7837 2700082
1926.4574 689.65265 2920.9141 2634290
1935.6681 686.42938 2907.2622 2634032
1957.2847 687.62439 2912.3235 2502959
1976.582 687.99005 2913.8723 2371117
1993.9064 687.6687 2912.5112 2239531
2013.6438 688.1778 2914.6675 1976616
2011.7743 681.35968 2885.7905 2371117
2044.7351 686.35461 2906.9458 2765875
2063.1558 686.42371 2907.2383 2766132
2084.8037 687.55603 2912.0339 2699825
2102.3176 687.31702 2911.022 2765618
2119.8469 687.08722 2910.0486 2765618
2136.4558 686.56549 2907.8389 2699825
2141.0947 682.23846 2889.5125 2700082
2158.3557 681.97223 2888.3848 2831411
2189.344 686.01166 2905.4932 2765875
2207.5476 686.01166 2905.4932 2765618
2228.8254 686.95911 2909.5059 2897204
2294.21 701.37524 2970.5632 3160633
2302.5979 698.2749 2957.4321 3356985
2338.9724 703.64343 2980.1697 3356985
2378.8782 709.98077 3007.0105 3422778
2395.9751 709.46466 3004.8247 3422778
2404.2578 706.36713 2991.7053 3159606
2436.1335 710.19525 3007.9189 3159606
2456.9756 710.77283 3010.3652 3093813
2472.9207 709.93573 3006.8198 3291192
2481.719 707.0752 2994.7043 3356985
2496.865 706.05237 2990.3726 3291962
2522.7253 708.05212 2998.842 3422778
2546.5723 709.4613 3004.8105 3422778
2560.6777 708.15582 2999.2812 3358012
2576.5569 707.35632 2995.895 3357755
2597.9915 708.08252 2998.9707 3292218
2620.177 709.0014 3002.8625 2765875
2638.9907 709.0014 3002.8625 2699825
2635.0034 702.91888 2977.1011 2897204
2628.4395 696.23938 2948.811 2896948
2638.3689 693.99152 2939.2905 2962997
2687.4861 702.01123 2973.2568 3422777
2706.1145 702.01123 2973.2568 3225145
2674.7268 689.125 2918.6792 3225659
2693.0134 689.125 2918.6792 2765621
2703.759 687.20844 2910.5618 2896950
2716.5864 685.84302 2904.7788 2831414
2737.3176 686.47797 2907.468 2567985
2734.7424 681.29822 2885.5303 2831157
2758.96 682.8175 2891.9648 3028536
2788.6462 685.66162 2904.0107 3028536
2818.0525 688.40045 2915.6106 3094329
2838.6311 688.96149 2917.9866 3291708
2849.1372 687.08624 2910.0444 3423294
2856.3574 684.44745 2898.8684 3357501
2883.3513 686.55042 2907.7749 3094329
2901.5696 686.55042 2907.7749 2962743
2893.5522 680.38147 2881.6475 2831157
2920.666 682.49854 2890.6138 2831157
2928.2356 680.05042 2880.2454 3094329
2925.4275 675.23706 2859.8591 3028536
nan nan nan 16777215
nan nan nan 16777215
nan nan nan 16777215
nan nan nan 16777215
nan nan nan 16777215
nan nan nan 16777215
nan nan nan 16777215
nan nan nan 16777215
nan nan nan 16777215
-2489.7134 656.31061 2708.2151 3686977
-2457.2937 652.20941 2691.2915 3621441
-2439.7515 652.02759 2690.5413 3621184
-2418.9802 650.97424 2686.1948 3752770
-2399.6636 650.30029 2683.4138 3884356
-2379.698 649.43982 2679.863 4015942
-2360.6443 648.81769 2677.2959 3950149
-2327.5952 644.3125 2658.7056 3489598
-2311.8606 644.56989 2659.7676 3094840
-2311.6104 649.17944 2678.7886 3292221
-2298.2639 650.15179 2682.801 3620927
-2284.9475 651.14691 2686.9072 3752770
-2273.0872 652.57489 2692.7998 3818563
-2256.4072 652.63019 2693.0281 3621441
-2244.0977 653.95996 2698.5151 2963511
-2235.4434 656.38318 2708.5144 2963510
-2220.55 656.9975 2711.0493 3226939
-2265.7058 675.52502 2787.5017 3095097
-2232.8274 670.89374 2768.3911 3161146
-2209.0215 668.93713 2760.3174 3424318
-2191.7273 668.93713 2760.3174 3687490
-2147.9619 660.79364 2726.7139 4016455
-2145.8892 665.44867 2745.9224 4213833
-2163.6165 676.36853 2790.9822 3358525
-2164.448 682.1416 2814.8044 3161145
-2133.0654 677.77344 2796.7798 3490111
-2095.8943 671.47852 2770.8042 3621697
-2086.4412 674.03296 2781.3447 3621697
-2051.8259 668.43304 2758.2371 3556160
-2001.9343 657.71918 2714.0273 3095354
-1972.6382 653.64618 2697.2205 3227195
-1981.8173 662.36194 2733.1853 3424574
-1971.017 664.49402 2741.9832 3819332
-1925.7427 654.93903 2702.5552 3621697
-1929.5109 662.04163 2731.8635 3161403
-1912.8154 662.18719 2732.4641 3095609
-1894.1395 661.64362 2730.2212 3555904
-1877.0724 661.65723 2730.2773 3490111
-1859.7933 661.59564 2730.0232 3490111
-1846.8705 663.09705 2736.2185 3621440
-1829.7272 663.09705 2736.2185 3424061
-1811.0006 662.51782 2733.8284 3160889
-1793.8724 662.51782 2733.8284 3226682
-1772.3939 660.89569 2727.135 3292219
-1767.8722 665.6264 2746.6558 3555135
-1747.9651 664.60046 2742.4224 3620927
-1729.9113 664.26569 2741.041 3489597
-1714.181 664.82544 2743.3506 3423549
-1700.3705 666.14856 2748.8105 3358013
-1686.7889 667.58942 2754.7561 3292475
-1663.3892 665.13403 2744.6243 3292219
-1658.0935 669.94238 2764.4653 3358012
-1644.0024 671.26086 2769.906 3423805
-1619.9584 668.50018 2758.5144 3818563
-1599.0869 667.00342 2752.3379 3884099
-1583.9441 667.88953 2755.9944 3292219
-1571.0312 669.74579 2763.6541 3292219
-1551.9594 668.98853 2760.5293 3292476
-1530.9149 667.35431 2753.7859 3423805
-1512.9807 667.05408 2752.5471 3358012
-1494.0205 666.28943 2749.3918 3489855
-1486.7802 670.79468 2767.9822 3621697
-1457.6523 665.41461 2745.7817 3621697
-1445.7037 667.84186 2755.7979 3556160
-1425.9785 666.69208 2751.0532 3490367
-1408.4746 666.56543 2750.5305 3358525
-1373.8477 658.23163 2716.1418 3292989
-1360.8416 660.17767 2724.1721 3490111
-1345.6746 661.11151 2728.0254 3687490
-1325.9432 659.7981 2722.6057 3753283
-1312.957 661.85065 2731.0754 3753540
-1306.9572 667.52563 2754.4929 3555904
-1287.0946 666.17749 2748.9297 3621697
-1267.854 665.11902 2744.562 3424062
-1252.3273 666.00647 2748.2241 3096380
-1230.5995 663.57489 2738.1904 3425088
-1226.1705 670.53455 2766.9087 3556674
-1222.6771 678.21271 2798.592 3490881
-1205.5695 678.45264 2799.5823 3688260
-1190.3253 679.76385 2804.9929 3819846
-1186.1533 687.53223 2837.0483 3819845
-1180.1127 694.43726 2865.5415 3688007
-1162.1592 694.43726 2865.5415 3490627
-1145.9493 695.49561 2869.9087 3688006
-1124.6016 693.41949 2861.3418 3688006
-1109.2963 695.06232 2868.1208 3622470
-1097.9728 699.29529 2885.5879 3556420
-1077.744 697.9032 2879.8435 3556420
-1060.0101 698.10687 2880.6838 3622470
-1043.5548 699.17419 2885.0881 3688006
-1025.7563 699.36346 2885.8691 3885129
-1011.1716 701.78986 2895.8816 3754054
-993.02808 701.78986 2895.8816 3688516
-972.54443 700.10541 2888.9307 3622467
-955.90796 701.17896 2893.3606 3622723
-937.78015 701.17896 2893.3606 3820360
-905.69318 690.53589 2849.4429 4148040
-882.24982 686.18768 2831.5002 3095610
-862.00787 684.20197 2823.3064 3161146
-841.3089 681.7627 2813.241 3095353
-817.89136 676.96887 2793.4597 3489598
-800.51709 677.0769 2793.9053 3752770
-795.54297 687.91205 2838.616 4213321
-773.76215 684.37775 2824.0317 4147784
-751.13 679.90735 2805.585 3752770
-735.69489 681.89331 2813.78 3423805
-718.80853 682.59875 2816.6909 3489598
-696.73389 678.28882 2798.9062 3621184
-677.14496 676.23859 2790.4463 3818563
-659.66199 676.23859 2790.4463 4147785
-637.33844 671.14136 2769.4128 3884356
-620.07819 671.23987 2769.8193 4015942
-600.80273 669.09973 2760.9883 3752513
-588.51685 674.84753 2784.7063 3160376
-571.19659 674.9975 2785.325 3423548
-551.16882 671.85638 2772.3633 3620927
-531.87128 669.42999 2762.3508 3357755
-513.88818 668.55035 2758.7212 3489341
-495.80981 667.48126 2754.3096 3489341
-480.50504 670.20361 2765.5435 3291962
-462.70352 669.51703 2762.7102 3226426
-441.52277 663.69733 2738.6958 3621184
-423.23123 661.92572 2731.3853 4015942
-411.42026 670.56738 2767.0444 3818563
-394.08386 670.56738 2767.0444 3423805
-373.99402 665.6665 2746.8213 3358012
-359.63385 670.98297 2768.7593 3423805
-342.28668 670.98297 2768.7593 2963254
-325.08502 671.28333 2769.9985 2569266
-308.39117 672.72534 2775.949 3227196
-290.1676 670.80334 2768.0181 3687490
-272.8251 670.80334 2768.0181 3490111
-255.2254 670.12799 2765.2314 3161146
-235.63136 663.73657 2738.8577 3029560
-216.32697 657.22101 2711.9717 2964024
-199.85141 658.92169 2718.9893 2897974
-182.72432 658.59082 2717.624 2963767
-165.77739 658.90814 2718.9333 3292732
-148.93443 659.75867 2722.4431 3424318
-132.0441 660.59229 2725.8828 3490367
-114.7764 659.50507 2721.3965 3490367
-97.646935 658.9715 2719.1948 3292732
-80.604973 658.92767 2719.0139 2963767
-63.014458 653.17432 2695.2732 3029560
-46.319965 655.89636 2706.5054 2963510
-29.610176 661.42059 2729.3008 3358525
-12.449042 658.1839 2715.9448 3358268
4.6007891 663.02533 2735.9226 3095352
21.883636 667.33862 2753.7212 3161146
39.336349 670.74542 2767.7791 3160889
56.792912 672.11316 2773.4229 3161146
74.326912 673.54175 2779.3179 3029560
91.515656 671.89313 2772.5149 3029561
108.19597 667.6333 2754.937 2897718
128.75941 685.21014 2827.4666 3489598
147.08208 688.05304 2839.1975 3489598
