# .PCD v0.7 - Point Cloud Data file format
VERSION 0.7
FIELDS x y z rgb
SIZE 4 4 4 4
TYPE F F F U
COUNT 1 1 1 1
WIDTH 1273
HEIGHT 1
VIEWPOINT 0 0 0 1 0 0 0
POINTS 1273
DATA ascii
-1819.3517 651.24182 2328.0784 4213575
-1792.1688 646.69635 2311.8291 4279368
-1778.1191 646.85443 2312.3943 4081989
-1765.0455 647.37323 2314.2488 3950403
-1757.8087 650.05902 2323.8501 4279368
-1739.5728 648.68805 2318.9492 4213575
-1705.1167 641.1947 2292.1616 4147782
-1698.0491 643.96063 2302.0493 3950403
-1697.5928 649.30267 2321.1462 3818816
-1670.4008 644.42267 2303.7012 3818304
-1644.9037 640.11731 2288.3101 3686718
-1639.3856 643.57935 2300.6863 3555132
-1615.0713 639.65851 2286.6699 3752511
-1595.0029 637.36407 2278.4678 3884097
-1574.6566 634.9162 2269.717 3884097
-1559.9817 634.73132 2269.0562 3555132
-1535.9227 630.68964 2254.6079 3555132
-1524.5374 631.82538 2258.668 3620925
-1514.8779 633.70447 2265.3853 3357753
-1513.0938 638.94452 2284.1177 3686718
-1498.7831 638.94452 2284.1177 3752511
-1462.1576 629.33984 2249.7825 3620925
-1442.3579 626.86078 2240.9204 3555132
-1441.2573 632.53967 2261.2214 3620925
-1419.2609 629.0694 2248.8159 3686718
-1400.3682 626.91919 2241.1292 3686718
-1379.8704 623.99945 2230.6917 3555388
-1365.1007 623.6369 2229.3955 3489596
-1366.5354 630.74622 2254.8101 3489339
-1359.6008 634.10065 2266.8018 3818304
-1345.3986 634.10065 2266.8018 3818561
-1324.7661 631.03766 2255.8521 4015683
-1311.5089 631.45972 2257.3606 4081476
-1297.3658 631.45972 2257.3606 4081733
-1288.986 634.29565 2267.4988 4015683
-1280.8086 637.29565 2278.2231 4081476
-1281.5187 644.83521 2305.1758 3818304
-1288.4054 655.69012 2343.9802 3028788
-1272.5646 655.09546 2341.8545 3160374
-1243.4231 647.56018 2314.9172 3226167
-1224.3356 645.14478 2306.2825 3160631
-1210.1605 645.29114 2306.8057 3291960
-1195.6376 645.25336 2306.6707 3357240
-1176.105 642.47797 2296.749 3291446
-1162.5304 642.92877 2298.3606 3291190
-1142.1 639.55188 2286.2888 3751741
-1131.5873 641.71338 2294.0159 3818047
-1124.329 645.79987 2308.6243 3489339
-1115.13 648.86353 2319.5764 3620925
-1108.8704 653.74103 2337.0127 3555132
-1093.4972 653.30432 2335.4514 3489339
-1077.5602 652.51428 2332.6272 3489339
-1055.0496 647.66705 2315.2993 3555132
-1042.0867 648.62762 2318.7329 3489339
-1032.2953 651.61731 2329.4207 3423546
-1020.6903 653.53143 2336.2634 3357753
-1027.2683 667.31293 2385.5298 4015683
-1008.0858 664.52032 2375.5469 3950147
-989.02197 661.72339 2365.5483 3818304
-967.83087 657.39648 2350.0803 3620925
-955.5246 659.06415 2356.0417 3752511
-949.02759 664.85376 2376.7388 4475977
-929.22321 661.35675 2364.2375 4147269
-939.4024 679.43243 2428.855 3555132
-924.18494 679.43243 2428.855 3686461
-893.38806 667.78729 2387.2256 3687231
-892.47522 678.4635 2425.3911 3884610
-874.03796 675.95667 2416.4297 4147782
-851.2251 669.91779 2394.8418 4279368
-833.13953 667.44934 2386.0176 4345161
-819.29156 668.34772 2389.229 4213575
-812.25275 674.9375 2412.7864 4410954
-793.4549 671.82074 2401.6445 4476747
-773.742 667.79382 2387.249 4542540
-758.51001 667.55164 2386.3833 4674382
-738.81494 663.29297 2371.1592 4608078
-728.4538 667.41119 2385.8811 4542540
-715.42041 669.20239 2392.2844 4608333
-697.68842 666.58112 2382.9136 4739919
-673.63867 657.67712 2351.0835 5134677
-656.06024 654.83429 2340.9209 4081989
-638.93146 652.32056 2331.9346 4081733
-624.32117 652.32056 2331.9346 4148039
-611.8064 654.5625 2339.9492 3884610
-609.97076 668.62048 2390.2041 4410699
-591.66235 664.875 2376.8147 4476747
-573.32672 660.90479 2362.6218 4410954
-558.52423 660.90479 2362.6218 4279368
-538.35431 654.38074 2339.2993 4345161
-523.59412 654.25104 2338.8359 4081989
-506.73624 651.4173 2328.7058 3950660
-492.59161 652.00696 2330.8135 4148038
-480.45389 655.37006 2342.8362 4081989
-462.51047 650.77631 2326.4143 3753024
-447.93478 650.77631 2326.4143 3819074
-434.61322 652.65967 2333.147 3753024
-422.16507 656.03137 2345.2002 3292729
-404.49167 651.23364 2328.0491 3226424
-387.4548 647.14001 2313.415 3884097
-376.1185 652.61957 2333.0034 3818304
-365.9548 660.65906 2361.7434 4015683
-349.19135 656.95953 2348.5181 3884353
-335.43536 658.84155 2355.2461 3226167
-317.79367 652.91351 2334.0544 3489339
-302.17062 650.76111 2326.3599 3752511
-287.86353 651.3681 2328.5298 3686461
-272.02344 648.38599 2317.8691 3358266
-261.10049 657.44885 2350.2673 3621694
-242.86359 648.07776 2316.7673 4147782
-227.93954 646.91754 2312.6199 4476747
-214.61272 650.44073 2325.2146 4148039
-199.22519 647.77661 2315.6909 4016453
-184.71666 647.77661 2315.6909 3753024
-170.14554 647.53833 2314.8391 3621438
-154.93993 644.61597 2304.3921 3555645
-140.61827 645.14856 2306.2959 3555645
-125.08944 639.63025 2286.5691 3687231
-110.92144 640.54315 2289.8323 4147782
-97.522263 646.82642 2312.2939 4476747
-82.705292 644.25781 2303.1118 4410698
-67.334038 635.37329 2271.3511 4081733
-53.181255 636.30579 2274.6846 3752511
-39.019073 637.76733 2279.9094 3555132
-24.719967 637.3866 2278.5483 3949890
-10.426234 636.29297 2274.6389 3423546
3.8240697 636.12433 2274.0359 3357753
18.068855 636.0274 2273.6895 3489339
32.348457 636.70117 2276.0979 3620925
46.45533 634.60303 2268.5977 3620925
60.210743 629.81183 2251.4697 3686974
74.334755 629.96307 2252.0105 3291960
88.917374 633.33264 2264.0562 3028018
102.82475 631.6272 2257.9595 2764846
117.72971 635.72113 2272.5945 2764846
132.13954 636.54639 2275.5447 2896432
147.46008 641.17084 2292.0762 3028275
161.75938 640.92798 2291.2083 2962738
175.72658 639.51624 2286.1614 3160117
190.59235 641.34094 2292.6843 3291447
206.48805 646.13263 2309.814 3423032
221.87308 648.80347 2319.3616 3160374
236.54015 649.17542 2320.6914 3225654
251.06953 649.14838 2320.5947 2962739
264.52243 646.49335 2311.1035 2961968
280.31094 649.52588 2321.9443 3159604
296.98618 654.21246 2338.698 3225654
312.02997 655.03357 2341.6333 3423033
328.24805 658.13531 2352.7214 3554875
342.98859 658.13531 2352.7214 3423033
355.78952 654.56702 2339.9653 3225654
370.383 654.4483 2339.541 3225397
385.11285 654.57056 2339.978 3291190
400.27936 655.39874 2342.9387 3093811
415.31198 655.95691 2344.9341 3291190
427.83218 652.64435 2333.092 3422776
442.06769 652.08081 2331.0776 3422776
456.38614 651.67169 2329.6152 3488569
470.34467 650.78998 2326.4631 3225397
484.07642 649.65698 2322.4128 3028018
498.15482 649.04163 2320.2131 3028018
513.61652 650.21246 2324.3987 2962225
529.06732 651.30536 2328.3054 2765103
545.85217 653.93774 2337.7158 2962225
560.49872 653.93774 2337.7158 3225397
574.30249 652.97955 2334.2905 3159604
588.92755 652.97955 2334.2905 2765103
605.99402 655.62091 2343.7329 2699053
618.09106 652.88806 2333.9634 2896432
634.03284 654.2489 2338.8281 3028018
645.89136 651.42999 2328.751 3028018
661.65411 652.58636 2332.8848 3093811
671.23187 647.72424 2315.5037 3225397
683.17883 645.30585 2306.8584 3356983
700.05042 647.54285 2314.8552 3356983
712.50696 645.68805 2308.2246 3225397
729.00641 647.49792 2314.6946 3291191
745.88483 649.56726 2322.092 3291446
759.56915 648.82892 2319.4526 2962482
769.13947 644.6701 2304.5857 3028274
784.38477 645.33356 2306.9573 3028531
802.84052 648.56647 2318.5144 3094068
815.69128 647.23706 2313.762 3291447
824.33984 642.67786 2297.4636 3094581
841.17792 644.55035 2304.1575 3620925
861.31604 648.8457 2319.5127 3489339
881.81482 653.26562 2335.3132 3686718
895.33368 652.4549 2332.4148 3752511
903.33386 647.71313 2315.4639 3620925
923.88733 651.97998 2330.717 3752511
946.60474 657.61737 2350.8699 3884097
963.12042 658.8396 2355.2393 4081477
967.96161 652.15942 2331.3586 3949891
989.23395 656.58356 2347.1741 3489339
996.48248 651.70648 2329.7395 3423547
1011.079 651.70648 2329.7395 3160375
1025.379 651.51813 2329.0662 3489340
1037.9408 650.24597 2324.5183 3555134
1049.4987 648.38885 2317.8796 3555132
1066.0781 649.64252 2322.3611 3291960
1076.9005 647.40137 2314.3494 3291960
1105.3499 655.67584 2343.9292 3818304
1123.9332 657.9577 2352.0864 3949890
1135.0227 655.85034 2344.553 3686975
1141.3307 651.06921 2327.4612 3555132
1155.913 651.06921 2327.4612 3489339
1173.8529 652.93689 2334.1379 3686718
1183.6827 650.30292 2324.7219 3555132
1196.5284 649.36981 2321.3862 3489339
1208.9882 648.25214 2317.3906 3489339
1221.8228 647.35956 2314.2 3620925
1222.4728 640.10797 2288.2766 3423546
1236.8096 640.10797 2288.2766 3291960
1247.3207 638.15063 2281.2795 3226167
1255.3091 634.96167 2269.8796 3356983
1269.6987 635.04572 2270.1802 3159604
1291.6539 638.87006 2283.8513 3093811
1308.4169 640.0705 2288.1428 3554362
1309.6492 633.72974 2265.4756 3685948
1314.8275 629.41394 2250.0474 4146499
1328.9248 629.41394 2250.0474 4080706
1366.8936 640.6015 2290.041 3356983
1390.3333 644.81818 2305.115 3356983
1407.5415 646.08783 2309.6538 3291190
1424.3169 647.13495 2313.397 3422776
1440.7592 648.01117 2316.5293 3356983
1457.4142 648.9646 2319.9377 3159604
1475.2834 650.43457 2325.1926 3291190
1488.5231 649.85461 2323.1194 3422776
1503.1586 649.88934 2323.2437 3620155
1516.6288 649.4245 2321.5818 3422776
1532.7585 650.09656 2323.9841 3356983
1563.6224 656.94623 2348.4707 3554362
1574.4545 655.33051 2342.6948 3685948
1583.2747 652.91504 2334.0598 3488569
1600.4919 653.97485 2337.8484 3356983
1612.2764 652.81561 2333.7043 3225397
1618.6289 649.49756 2321.843 2962482
1632.127 649.08044 2320.3518 3093811
1643.8423 647.9679 2316.3748 3225397
1657.431 647.60681 2315.084 3422776
1672.3481 647.7666 2315.655 3488569
1683.6598 646.539 2311.2666 3554362
1703.9075 648.73468 2319.1157 3422776
1718.4375 648.73468 2319.1157 3488569
1735.9165 649.83875 2323.0625 3291190
1749.0402 649.30743 2321.1633 3159860
1762.8055 649.02118 2320.1399 3159091
1786.62 652.40918 2332.2515 3159091
1803.1693 653.11084 2334.7598 3027505
1817.7975 653.11084 2334.7598 2895919
1851.9376 660.06531 2359.6208 2764590
1851.4471 654.66437 2340.3135 2961712
1856.6019 651.32886 2328.3894 2896176
1869.7677 650.8338 2326.6196 2961969
1886.5785 651.60529 2329.3777 2830126
1908.2322 654.02478 2338.0271 3093298
1922.8806 654.02478 2338.0271 3224884
1935.8768 653.4671 2336.0334 3290677
1957.7587 655.89465 2344.7114 3553592
1972.064 655.7666 2344.2537 3290677
1987.2788 655.94067 2344.876 3159091
2001.9702 655.94067 2344.876 3159091
2030.8594 660.55865 2361.3845 3356470
2048.1511 661.36499 2364.2668 3356470
2053.6162 658.3681 2353.5537 3553849
2060.6538 655.91461 2344.7827 3817021
2074.3398 655.59698 2343.6475 3948607
2081.6846 653.29388 2335.4141 3422263
2099.6033 654.31812 2339.0757 3224884
2115.4846 654.69769 2340.4324 3290677
2165.9656 665.70612 2379.7856 3356470
2196.3787 670.43823 2396.7024 3158837
2185.1013 662.4668 2368.2058 3094069
2184.2268 657.73535 2351.2917 3225399
2203.4587 659.0816 2356.1042 3356985
2218.2207 659.0816 2356.1042 3488571
2238.0779 660.58557 2361.4807 3093813
2242.8542 657.64783 2350.9788 2830641
2257.4004 657.59436 2350.7876 2830898
2289.481 662.61639 2368.7405 3159606
2304.322 662.61639 2368.7405 3094069
2320.5227 663.00488 2370.1294 3159607
2324.123 659.81128 2358.7129 3158837
2337.0061 659.27673 2356.8018 2961714
2353.4082 659.73541 2358.4414 3027507
2356.4236 656.45892 2346.7288 3093300
2368.5916 655.75708 2344.2197 3093557
2377.686 654.21826 2338.7185 2961714
2391.4248 653.96832 2337.8252 2961714
nan nan nan 16777215
nan nan nan 16777215
nan nan nan 16777215
nan nan nan 16777215
nan nan nan 16777215
nan nan nan 16777215
nan nan nan 16777215
nan nan nan 16777215
nan nan nan 16777215
nan nan nan 16777215
-2013.7985 630.71594 2205.5642 3685948
-2001.0826 631.06366 2206.7803 3949120
-1984.007 630.0318 2203.1719 4014913
-1965.4474 628.51086 2197.8533 3817534
-1953.0973 628.9682 2199.4526 3751741
-1945.2161 630.88147 2206.1431 3685948
-1936.8973 632.67908 2212.4292 3554362
-1929.6946 634.86981 2220.0901 3817277
-1921.0116 636.60187 2226.147 3818304
-1910.9941 637.91376 2230.7346 3423546
-1886.6674 634.43317 2218.5632 3686718
-1875.4196 635.33167 2221.7051 4147269
-1913.8503 653.19891 2284.1855 4278855
-1899.5392 653.19891 2284.1855 4147269
-1871.6854 648.50659 2267.7769 4081476
-1857.4771 648.50659 2267.7769 4015940
-1847.275 649.91608 2272.7058 4081476
-1837.4242 651.47205 2278.1467 4081476
-1819.9077 650.31317 2274.0942 4081733
-1812.8339 652.89691 2283.1294 3621438
-1799.0405 653.08246 2283.7783 3424059
-1784.2791 652.91675 2283.1987 3555645
-1761.1454 649.65997 2271.8101 3555901
-1747.5273 649.88885 2272.6106 3687231
-1723.5576 646.24023 2259.8516 3687231
-1709.399 646.24023 2259.8516 4213575
-1691.2289 644.71106 2254.5042 4213575
-1669.2297 641.68414 2243.9192 4081989
-1661.6299 644.18823 2252.6758 3884610
-1647.3245 644.11322 2252.4136 3621438
-1628.2504 642.15625 2245.5703 3686975
-1616.4218 643.04761 2248.6873 3686718
-1590.3662 638.24518 2231.8933 3752511
-1584.5657 641.55823 2243.479 3489339
-1568.9324 640.914 2241.2261 3555132
-1539.5188 634.57794 2219.0693 3686718
-1519.9137 632.20618 2210.7756 3489339
-1502.635 630.76746 2205.7444 3489339
-1488.3049 630.55115 2204.988 3555132
-1472.9907 629.91003 2202.7461 3489339
-1465.3143 632.55389 2211.9915 3555132
-1448.469 631.25232 2207.4399 3686718
-1434.8196 631.33191 2207.7183 3555132
-1418.9886 630.44385 2204.6128 3423546
-1415.269 634.97211 2220.4478 3357753
-1393.9481 631.61493 2208.708 3752767
-1375.5115 629.5105 2201.3489 3489339
-1367.7654 632.30548 2211.1228 3225396
-1349.2399 630.12354 2203.4927 3093811
-1329.463 627.30597 2193.6399 2962738
-1327.5269 632.93555 2213.3262 3357496
-1306.0436 629.26611 2200.4944 3489082
-1299.2362 632.66467 2212.3789 3949890
-1290.9126 635.39038 2221.9104 4147269
-1271.8368 632.82544 2212.9412 4081220
-1257.2715 632.47308 2211.7087 3686718
-1250.7335 636.19598 2224.7275 3489339
-1237.0679 636.33636 2225.2185 3423546
-1223.1262 636.33636 2225.2185 3094581
-1226.11 645.24341 2256.3657 3555132
-1211.4777 644.97961 2255.4434 3620925
-1189.3704 640.68304 2240.4185 3555132
-1171.9047 638.81396 2233.8826 3555132
-1163.875 642.10553 2245.3928 3686974
-1143.3589 638.5047 2232.801 3621181
-1129.3621 638.50037 2232.7859 3620925
-1114.8013 638.1731 2231.6414 3818304
-1103.285 639.60248 2236.6399 3818560
-1094.0895 642.4314 2246.5322 3884097
-1079.5438 642.15161 2245.554 3620925
-1066.5604 642.80591 2247.8418 3686718
-1059.8876 647.33197 2263.6692 3949890
-1043.7279 646.10809 2259.3894 4344648
-1025.1368 643.32465 2249.656 4081476
-1022.4644 650.59271 2275.0718 3489339
-1013.1801 653.79968 2286.2864 3686718
-1007.0003 659.13062 2304.9282 3884097
-995.67664 661.20081 2312.1675 3949890
-984.99182 663.76263 2321.126 3686718
-970.49847 663.79633 2321.2439 3884097
-952.91461 661.68506 2313.8608 3555132
-940.23883 662.96924 2318.3516 2634030
-925.94482 663.13477 2318.9304 2634030
-918.64874 668.39722 2337.3328 3884097
-906.75415 670.43018 2344.4419 4081733
-889.62506 668.59607 2338.0281 3884097
-877.52747 670.54523 2344.8442 3752511
-860.28314 668.56116 2337.906 3687231
-840.22644 664.28479 2322.9519 4082246
-825.36731 664.03925 2322.0933 4213575
-809.60443 663.04486 2318.616 3950660
-793.07782 661.3772 2312.7842 4016196
-777.99329 660.87238 2311.019 4016196
-763.17383 660.57794 2309.9893 4016196
-750.5343 662.19537 2315.6455 4016196
-733.3941 659.82745 2307.365 4147783
-719.32526 660.18311 2308.6086 4081734
-713.62067 668.38745 2337.2986 4016196
-692.85657 662.53503 2316.8333 3818817
-667.2746 651.72662 2279.0371 4213575
-661.91785 660.63135 2310.1763 3621695
-649.45837 662.68695 2317.3645 3818817
-634.93939 662.68695 2317.3645 4213575
-617.38715 659.44714 2306.0349 4148039
-598.15112 654.21033 2287.7224 3884610
-581.16333 651.23578 2277.3206 3884610
-568.52283 653.10559 2283.8591 3753281
-554.53455 653.48358 2285.1809 4081989
-534.09351 646.07599 2259.2773 3818817
-519.84259 645.95685 2258.8606 4213575
-505.69006 645.95685 2258.8606 4016196
-491.42038 645.8028 2258.3218 3753024
-477.93536 646.70135 2261.4641 3621694
-462.95078 645.56372 2257.4858 3752511
-446.05029 641.59857 2243.6201 3554876
-436.23059 647.89178 2265.627 3884096
-426.37595 654.55469 2288.9265 3489339
-413.71875 657.22937 2298.2795 3291960
-400.18277 658.65051 2303.2493 3291704
-384.0968 655.82391 2293.365 3949890
-370.00491 656.31488 2295.0818 3884097
-355.62552 656.31488 2295.0818 3686718
-341.15347 656.13672 2294.4587 3949890
-327.23843 657.06128 2297.6919 3818304
-314.75961 661.08734 2311.7708 4213319
-298.72897 657.68225 2299.8633 4279368
-281.82391 651.90924 2279.6755 4213319
-268.91406 655.25482 2291.3748 4148040
-253.49707 652.52417 2281.8259 4411212
-238.1368 649.62183 2271.6768 4740434
-224.71136 651.96417 2279.8677 4871764
-210.62035 652.56226 2281.9592 4542798
-194.22557 645.59003 2257.5779 4476749
-178.9295 641.46149 2243.1406 4477261
-164.6017 640.39606 2239.415 3555644
-149.62497 636.37219 2225.3438 3687231
-135.6825 636.37219 2225.3438 3884610
-122.62001 640.97217 2241.4294 4213575
-109.71056 647.66541 2264.8352 4410954
-95.138657 645.0752 2255.7776 4410954
-81.309418 647.49536 2264.2405 4147525
-66.224998 638.83057 2233.9404 3949633
-52.027912 636.375 2225.3535 3949890
-38.114212 636.85663 2227.0378 4015683
-24.159595 636.81622 2226.8965 3884097
-10.200569 636.3902 2225.4067 3686718
3.7475393 637.28217 2228.5259 3818304
17.697149 636.82172 2226.9158 3555132
31.81221 640.09631 2238.3667 3686974
45.515892 635.62225 2222.7212 3884097
59.160706 632.61505 2212.2053 3818047
72.56778 628.68982 2198.4792 3028788
86.590805 630.50195 2204.8159 3356983
101.73245 638.83997 2233.9734 2896432
115.68479 638.59595 2233.1201 2699053
129.44341 637.45068 2229.115 3028018
143.37619 637.30255 2228.5972 2962482
157.80399 639.18585 2235.1829 2962482
171.80811 639.18585 2235.1829 3159861
185.57484 638.36938 2232.3276 3291447
200.47879 641.30493 2242.5933 3225653
215.58382 644.45721 2253.6165 3159348
229.72728 644.52417 2253.8506 3225397
243.83278 644.48297 2253.7065 3225397
262.29874 655.34076 2291.6753 2370088
275.7551 653.20477 2284.2061 2962225
288.02133 648.59955 2268.1018 2962225
302.77252 649.76025 2272.1606 3225397
316.97464 649.69116 2271.9192 3356726
330.96155 649.20599 2270.2224 3356983
346.57733 651.82422 2279.3782 3356983
362.28296 654.39752 2288.377 3356983
375.14508 651.83417 2279.4131 3291190
387.98932 649.42889 2271.002 3225397
402.89056 650.51508 2274.8003 3225397
415.60352 648.11444 2266.4055 3488569
429.41403 647.52759 2264.3533 3554362
443.45654 647.31677 2263.6162 3620155
460.33612 651.13208 2276.958 3225397
469.64725 644.33447 2253.1873 3093811
483.6767 644.21796 2252.7798 2962225
496.06372 641.98248 2244.9626 3028018
504.29413 634.63934 2219.2842 3159604
534.13831 654.16071 2287.5488 2962225
544.85736 649.85132 2272.4792 3159604
559.09515 649.85132 2272.4792 3422776
574.83881 651.55817 2278.448 3028018
586.61304 648.79218 2268.7754 2633260
599.86389 647.75146 2265.1362 2633516
612.57684 646.19153 2259.6812 2764846
626.7345 646.19153 2259.6812 2830639
640.9826 646.28284 2260.0005 2699053
654.61536 645.76306 2258.1829 2962225
669.04919 646.03882 2259.1472 3225397
679.77203 642.79413 2247.8008 3159604
691.92847 641.00916 2241.5588 3225397
707.60699 642.49323 2246.7485 3093811
724.36652 644.88177 2255.1011 3159605
736.49548 643.13531 2248.9939 3028275
747.77533 640.72699 2240.572 2962482
760.55884 639.672 2236.8828 2896945
774.22681 639.3855 2235.8811 3094068
789.92767 640.7583 2240.6816 2962739
808.55182 644.41302 2253.4619 2634286
814.0365 637.6499 2229.8118 3094581
831.19159 640.10242 2238.3879 3489339
853.14417 646.10669 2259.3845 3620925
874.92596 651.7879 2279.2512 3686718
874.06763 640.69128 2240.4473 3620925
890.43597 642.37311 2246.3284 3555132
911.16315 647.09814 2262.8516 3423033
923.25299 645.63818 2257.7463 3291704
940.61572 647.85419 2265.4954 3028532
966.18335 655.57135 2292.4817 2897201
966.23523 646.00311 2259.0225 3094837
988.77429 651.52869 2278.3447 3028274
992.59155 644.73615 2254.5918 3357496
988.203 632.87897 2213.1282 3752000
1003.6633 633.88593 2216.6494 2897201
1013.0615 631.08905 2206.8689 2765359
1034.7843 635.94165 2223.8381 3620668
1050.3838 636.95215 2227.3718 3686462
1086.6837 650.32434 2274.1333 3357753
1096.5862 647.75732 2265.1567 3160117
1107.559 645.88007 2258.592 3423546
1122.9199 646.57697 2261.0291 3620155
1129.3574 642.18225 2245.6611 3225911
1142.901 641.88672 2244.6277 3291447
1156.3525 641.54736 2243.4409 3423033
1164.2325 638.16217 2231.603 3489082
1178.8455 638.50403 2232.7986 3554875
1187.8073 635.81299 2223.3882 3489083
1201.7374 635.81299 2223.3882 3160117
1212.5405 634.17743 2217.6687 3160374
1217.4548 629.53394 2201.4309 3356727
1246.6868 637.42798 2229.0356 2962225
1260.6523 637.42798 2229.0356 2830639
1294.1792 647.21039 2263.2441 3554362
1293.613 639.91589 2237.7358 3949120
1298.2057 635.30243 2221.6028 3817534
1311.2316 634.86993 2220.0903 3685948
1335.5869 639.87445 2237.5911 2962225
1350.0461 640.08313 2238.3206 3291190
1374.5083 644.98126 2255.449 3422776
1404.8545 652.5127 2281.7859 3488569
1414.952 650.58228 2275.0352 3356983
1422.0636 647.33105 2263.666 3291190
1443.4979 650.59949 2275.0955 3422776
1457.7521 650.59949 2275.0955 3554362
1460.359 645.4516 2257.0938 3356983
1475.697 645.9754 2258.9255 3225397
1489.0306 645.62018 2257.6833 3356983
1508.0699 647.72229 2265.0342 3488569
1527.1774 649.81421 2272.3494 3422776
1535.1421 647.16998 2263.1028 3225397
1527.9789 638.25507 2231.928 3028018
1561.938 646.52338 2260.8416 3225397
1576.4143 646.65112 2261.2883 3225397
1584.6888 644.25525 2252.9102 3028018
1590.5682 640.93652 2241.3049 3159604
1587.8997 634.2616 2217.9631 3685948
1619.2743 641.1825 2242.165 3620155
1642.3812 644.73877 2254.6011 3159604
1656.5071 644.73877 2254.6011 3291190
1669.9078 644.45898 2253.6226 3422519
1693.2261 647.97919 2265.9326 3422519
1700.5332 645.3645 2256.7893 3224884
1712.9216 644.70551 2254.4846 3027505
1737.3505 648.55194 2267.9353 2961712
1757.3286 650.68793 2275.4048 3158835
1761.9332 647.14301 2263.0083 3290677
1795.7164 654.28613 2287.9875 3290677
1798.0858 649.96094 2272.8625 3093298
1803.5994 646.83124 2261.9182 2895919
1819.9036 647.59015 2264.572 2961969
1842.5654 650.58203 2275.0344 2961712
1856.8192 650.58203 2275.0344 3093555
1871.095 650.58966 2275.061 3093298
1884.7662 650.38855 2274.3579 2895919
1900.5343 650.90863 2276.1765 2961712
1941.4027 659.95349 2307.8057 3356470
1941.3567 655.05908 2290.6904 3224884
1949.1981 652.87842 2283.0647 3224884
1968.1212 654.41431 2288.4355 3159091
1982.4589 654.41431 2288.4355 3224884
2001.7167 656.02667 2294.074 3422263
2014.2966 655.44324 2292.0337 3422263
2021.1328 653.01227 2283.5327 3619642
2022.9576 649.00769 2269.5291 3290677
2040.8175 650.16754 2273.585 3093298
2066.3792 653.74792 2286.1052 3356470
2100.1968 659.87299 2307.5242 3488056
2113.6489 659.55927 2306.4272 3422266
2116.969 656.10968 2294.3643 3225656
2131.7883 656.24646 2294.8425 3291192
2149.759 657.34509 2298.6843 3159606
2165.0046 657.60132 2299.5803 3554620
2176.7087 656.78558 2296.7278 3423034
2189.4412 656.28882 2294.9907 3159606
2214.2493 659.39459 2305.8513 2962484
2233.7131 660.87897 2311.042 3093557
2248.9304 661.09589 2311.8005 3093556
2262.3455 660.78369 2310.7087 3093044
2288.2012 664.08588 2322.2563 3290679
2304.0955 664.47363 2323.6123 3422265
2295.8594 657.94135 2300.7695 3422265
2308.3413 657.39081 2298.8442 3224886
2312.2351 654.41644 2288.4431 3159093
2319.0652 652.30475 2281.0586 2961714
2331.9724 651.91766 2279.7051 3027507
nan nan nan 16777215
nan nan nan 16777215
nan nan nan 16777215
nan nan nan 16777215
nan nan nan 16777215
nan nan nan 16777215
nan nan nan 16777215
nan nan nan 16777215
nan nan nan 16777215
nan nan nan 16777215
nan nan nan 16777215
-1937.6942 624.39075 2136.876 4014913
-1929.9138 626.21039 2143.1033 3949120
-1921.7323 627.92444 2148.9692 3817534
-1909.2036 628.23218 2150.0225 3554362
-1905.3501 631.41913 2160.9294 3488569
-1900.9963 634.4848 2171.4211 3685948
-1907.1647 641.13196 2194.1699 3817534
-1892.3298 640.76361 2192.9094 3686718
-1875.1588 639.59308 2188.9033 3423546
-1858.316 638.51813 2185.2244 3555132
-1851.3256 640.83752 2193.1621 3620925
-1851.3557 645.64001 2209.5979 3620925
-1843.033 647.5799 2216.2371 3752511
-1827.5618 647.01855 2214.3157 3752511
-1810.2679 645.79828 2210.1396 3686718
-1796.2518 645.73761 2209.9319 3357753
-1782.4059 645.73761 2209.9319 3489339
-1768.5287 645.72607 2209.8926 3423803
-1758.7151 647.2099 2214.9707 3423803
-1739.2417 645.13428 2207.8672 3489852
-1728.2494 646.19635 2211.502 3490109
-1708.4308 643.94885 2203.8103 3621438
-1690.553 642.40222 2198.5171 3489852
-1673.4042 641.10944 2194.0928 3424059
-1671.3439 645.62372 2209.5422 3226936
-1646.3025 641.2619 2194.6147 3555901
-1635.4028 642.38153 2198.4463 3753281
-1615.6598 640.01697 2190.354 3686975
-1617.5276 646.24597 2211.6719 3489596
-1578.5461 636.12134 2177.0217 3292472
-1562.0435 634.95752 2173.0388 3357753
-1545.3317 633.68756 2168.6926 3292217
-1529.3152 632.68274 2165.2537 3291960
-1509.3342 630.005 2156.0898 3292217
-1494.6261 629.49982 2154.3608 3358010
-1481.1284 629.49982 2154.3608 3357753
-1460.0339 626.24146 2143.2095 3160630
-1450.3218 627.84991 2148.7144 3160374
-1434.6976 626.90533 2145.4817 3094581
-1415.0767 624.17993 2136.1543 3160117
-1400.8154 623.78912 2134.8169 3291704
-1395.5267 627.42487 2147.2595 3291447
-1375.3644 624.37909 2136.8359 3159862
-1360.6937 623.79095 2134.8232 3028275
-1348.3708 624.27832 2136.491 3225396
-1334.9851 624.27832 2136.491 3291190
-1332.0201 629.20068 2153.3372 3093811
-1318.4995 629.18671 2153.2893 3159604
-1305.1652 629.26227 2153.5479 3422776
-1282.1132 624.60529 2137.6101 3488569
-1283.3894 631.82703 2162.3252 3422776
-1287.6661 640.69574 2192.677 3291190
-1264.165 635.78552 2175.8726 3422519
-1241.9486 631.42139 2160.937 3554362
-1228.4097 631.42139 2160.937 3555132
-1208.2537 627.98218 2149.167 3555132
-1207.5762 634.70337 2172.1692 3423546
-1198.8248 637.28589 2181.0073 3357753
-1200.3861 645.47321 2209.0271 3620925
-1184.8037 644.52545 2205.7837 3489339
-1167.7841 642.76428 2199.7563 3555132
-1150.2479 640.67334 2192.6003 3686718
-1135.3436 640.0155 2190.3491 3884097
-1113.782 635.54272 2175.0417 4015683
-1101.0908 636.08362 2176.8928 3949890
-1092.2067 638.86475 2186.4109 3949890
-1079.2391 639.29779 2187.8928 3884097
-1070.6052 642.3421 2198.3113 3949890
-1062.8684 646.01093 2210.8674 3620925
-1045.3112 643.729 2203.0579 3620925
-1032.8397 644.55988 2205.9014 4344648
-1019.2173 644.68524 2206.3306 4410441
-1008.2402 646.51038 2212.5767 3620925
-1001.6828 651.25989 2228.8311 3621181
-990.22137 652.91022 2234.479 3752511
-980.36633 655.68219 2243.9656 3686718
-969.92255 658.13538 2252.3613 3291960
-955.81085 658.13538 2252.3613 3226167
-937.79913 655.40979 2243.0334 3423546
-920.55988 653.14923 2235.2971 3620925
-908.83533 654.79211 2240.9197 3752511
-894.83527 654.82141 2241.02 3818304
-892.04163 663.18298 2269.636 4081476
-875.11896 661.14111 2262.6479 4015940
-864.86664 664.15442 2272.9604 3949890
-852.88531 665.91858 2278.998 3949890
-836.40491 664.17017 2273.0144 3950403
-819.07043 661.67126 2264.4624 4016452
-795.4079 653.8822 2237.8054 3753024
-787.39355 658.90833 2255.0066 3161143
-770.94916 656.93469 2248.2522 3358266
-745.94745 647.46027 2215.8274 3555645
-738.13916 652.8327 2234.2139 3687231
-722.34637 651.21472 2228.6765 3621438
-703.51721 646.74158 2213.3679 4213319
-687.23901 644.48083 2205.6309 4147525
-676.06927 647.01617 2214.3076 3950660
-664.81805 649.57812 2223.0757 3884610
-650.95923 649.64752 2223.313 3884610
-637.02954 649.64752 2223.313 3884610
-622.66846 649.19781 2221.7739 3884610
-610.33521 650.89014 2227.5657 3687231
-591.24603 645.28821 2208.394 3884610
-582.70154 651.20203 2228.6331 3818817
-567.62988 649.93268 2224.2891 3818817
-550.47791 646.15759 2211.3694 3818817
-535.31702 644.58508 2205.9875 3950403
-521.49585 644.58508 2205.9875 3818817
-504.12476 640.07788 2190.5625 3555645
-491.18106 641.09705 2194.0505 3489852
-479.56754 643.96106 2203.8521 3752767
-465.20673 643.19647 2201.2354 3620668
-452.97574 645.41986 2208.8447 3752511
-437.23132 642.61957 2199.261 3555388
-423.22198 642.27008 2198.0649 3291960
-410.49258 643.90479 2203.6594 3357753
-396.68594 643.90479 2203.6594 3554875
-385.86508 648.92603 2220.8438 3686461
-371.70264 648.49304 2219.3621 3752511
-359.00238 650.67657 2226.8347 3818304
-355.19138 669.7995 2292.28 4278855
-331.31396 651.09955 2228.2822 4476234
-316.50757 649.36481 2222.3455 4016197
-305.15332 654.87897 2241.2168 3752768
-290.53311 653.57806 2236.7646 4148039
-275.9361 652.20007 2232.0488 4147782
-261.67444 651.50995 2229.687 4344904
-245.39548 645.43622 2208.9004 4476747
-232.75214 648.77008 2220.3103 4345161
-223.6768 663.10565 2269.3713 4410954
-209.84929 664.3429 2273.6055 4476746
-192.95616 655.34833 2242.823 4476746
-175.45467 642.71228 2199.5784 4477003
-159.88208 635.59027 2175.2043 3555645
-145.7374 633.34631 2167.5247 4081989
-132.55133 635.23523 2173.9893 3818817
-119.10148 636.14777 2177.1123 4345161
-106.05518 639.73077 2189.3745 4345417
-92.348137 639.80054 2189.6133 4279368
-78.356079 637.57544 2181.9983 3818817
-65.203888 642.68811 2199.4956 3949633
-51.729282 646.51141 2212.5803 4213062
-37.617031 642.24738 2197.9873 4147525
-23.764624 640.05676 2190.4902 3884097
-10.048963 640.59473 2192.3313 3884097
3.6747863 638.52924 2185.2625 3620668
17.409727 640.13208 2190.748 3620668
31.339157 644.32037 2205.0818 3488313
45.159286 644.38617 2205.3069 3423033
58.60535 640.33398 2191.439 3356983
71.698608 634.69696 2172.1472 3093811
85.581779 636.73553 2179.1238 3620155
99.234665 636.73553 2179.1238 3291703
112.68799 635.60986 2175.2715 3291961
125.79645 632.99188 2166.3118 3554876
139.54529 633.79218 2169.0508 2962738
153.73247 636.26477 2177.5127 3028275
168.11493 639.0766 2187.1357 3159604
181.81802 639.0766 2187.1357 3225397
196.32861 641.716 2196.1687 3225397
210.26765 642.26379 2198.0435 3159604
224.02859 642.23376 2197.9407 3422776
238.06377 642.94788 2200.3845 3291190
253.76537 647.83795 2217.1201 3028018
266.91922 646.05383 2211.0144 2962225
280.15439 644.633 2206.1516 3028018
293.73773 644.10913 2204.3589 3225397
307.54874 644.10913 2204.3589 2764846
323.44962 648.29803 2218.6946 3225654
336.37909 646.43134 2212.3062 3159604
350.00833 646.00397 2210.8435 3093811
364.11646 646.45941 2212.4021 3159604
378.12039 646.70319 2213.2366 3356983
390.06686 643.53534 2202.395 3422776
403.7594 643.36621 2201.8162 3620155
416.73016 642.09607 2197.4695 3751741
429.96704 641.3042 2194.7593 3751741
444.15582 641.93713 2196.9255 3356983
457.35413 641.14349 2194.2095 3159604
470.62463 640.49451 2191.9883 2896432
481.48639 636.69708 2178.9922 3685948
492.76483 633.64478 2168.5464 3949120
515.38483 644.94904 2207.2334 3093811
531.33301 647.53174 2216.072 3159604
546.54529 649.10883 2221.4695 3291190
560.01196 648.58594 2219.6799 3356983
573.91895 648.58594 2219.6799 3028018
585.61475 646.14618 2211.3303 3028018
600.34882 647.09406 2214.5742 2699053
610.8678 643.55841 2202.4741 2699053
624.66699 643.55841 2202.4741 2830639
638.1405 643.23016 2201.3506 2830639
650.65753 641.97211 2197.0452 2962225
664.26526 641.81995 2196.5244 2699823
673.56122 637.59247 2182.0566 3159861
689.71539 639.89606 2189.9402 3093811
704.80939 641.14532 2194.2158 3093811
716.6864 639.47644 2188.5042 3093811
728.30768 637.6463 2182.2407 3093811
742.09619 637.74603 2182.5823 2962482
758.31342 639.8916 2189.925 2962995
771.25208 639.24359 2187.7073 2963252
784.9588 639.24359 2187.7073 2765616
797.3009 638.15143 2183.9695 3555132
807.7912 635.63898 2175.3711 3357753
825.87671 639.08722 2187.1721 3357753
838.81891 638.50787 2185.1895 3489339
855.64087 640.85297 2193.2151 3423546
864.46979 637.23193 2180.8228 3160374
879.67078 638.34766 2184.6411 3225910
894.04749 638.84021 2186.3267 3160374
929.99756 654.50037 2239.9211 3225910
944.8064 655.03778 2241.7603 3752510
943.32928 644.43359 2205.4692 3620668
957.14722 644.43359 2205.4692 3291704
967.71033 642.27338 2198.0762 4080705
977.35175 639.57062 2188.8264 3685951
999.87524 645.25592 2208.2834 1712158
998.46783 635.55328 2175.0776 1580572
1010.4733 634.53467 2171.5918 2896432
1033.337 640.27106 2191.2236 3554362
1051.386 642.9129 2200.2649 3356983
1067.3839 644.24835 2204.8352 3159861
1081.0807 644.17859 2204.5964 3292217
1097.4015 645.6543 2209.6467 3423546
1109.054 644.38086 2205.2888 3291960
1118.9962 642.15747 2197.6794 3094838
1128.8922 639.96173 2190.165 3226167
1140.2396 638.63177 2185.6133 3094068
1147.4186 635.02637 2173.2744 3357240
1160.5566 634.76483 2172.3794 3423289
1166.3284 630.52704 2157.8762 3160117
1174.9747 627.92255 2148.9629 2634287
1193.3315 630.50781 2157.8105 3159347
1211.1611 632.75964 2165.5171 3949120
1230.7859 635.8891 2176.2271 3883327
1249.6006 638.53595 2185.2856 3554362
1264.531 639.16223 2187.4287 3422776
1278.236 639.16223 2187.4287 3356983
1289.2577 637.83478 2182.8857 3028018
1312.3784 642.45813 2198.7085 2633260
1327.532 643.12561 2200.9929 3093811
1346.786 645.74554 2209.9592 3356983
1359.7986 645.34991 2208.6052 3291190
1373.6731 645.36737 2208.6648 3356983
1388.0314 645.60931 2209.4929 3422776
1403.167 646.20453 2211.53 3225397
1420.6836 647.8739 2217.2432 3159604
1431.2891 646.38983 2212.1641 3291190
1443.7251 645.75293 2209.9844 3291190
1460.8462 647.2038 2214.9497 3291190
1474.2615 647.00104 2214.2559 3356983
1491.881 648.62988 2219.8303 3422776
1505.5387 648.52209 2219.4614 3291190
1511.3987 645.08813 2207.7092 2830896
1525.2306 645.08813 2207.7092 3159604
1533.7891 642.87775 2200.1445 3291190
1548.6713 643.33374 2201.7051 3225397
1560.38 642.47498 2198.7661 3356983
1561.6362 637.36511 2181.2786 3554362
1577.8707 638.40424 2184.8347 3291190
1594.1458 639.44165 2188.385 3291190
1611.3024 640.81201 2193.075 3225397
1626.4507 641.36725 2194.9751 3159604
1644.7179 643.13275 2201.0173 3488569
1657.3721 642.69226 2199.5098 3620411
1664.7897 640.24512 2191.135 3620155
1689.2987 644.35742 2205.2085 3751741
1701.9327 643.91003 2203.6775 3883327
1704.3539 639.63708 2189.054 3949376
1711.3125 637.12164 2180.4453 4014143
1751.3431 646.86127 2213.7776 3356470
1770.2671 648.71332 2220.1157 3159091
1781.8804 647.87836 2217.2583 3224884
1795.7722 647.87836 2217.2583 3093298
1812.3069 648.82452 2220.4966 3093555
1839.0854 653.39581 2236.1409 3093298
1854.337 653.83344 2237.6387 2896175
1868.3564 653.83344 2237.6387 2698540
1892.7831 657.44836 2250.01 3356470
1906.88 657.44836 2250.01 3685435
1896.9796 649.23523 2221.9021 3619642
1908.9515 648.57312 2219.636 3224884
1927.5428 650.15314 2225.0435 3027505
1941.4838 650.15332 2225.0439 3093298
1956.851 650.62762 2226.6672 3159091
1971.1517 650.74316 2227.0627 3093298
1994.7968 653.92029 2237.9358 2961969
2005.7322 652.91565 2234.4978 2896176
2008.1741 649.17938 2221.7109 3159091
2046.1309 656.8963 2248.1208 3488055
2046.6174 652.56042 2233.282 3356472
2063.8357 653.58209 2236.7783 3290679
2079.0662 653.96472 2238.0879 3356472
2098.6995 655.71777 2244.0876 3488058
2112.7595 655.71777 2244.0876 3619644
2114.0935 651.79425 2230.6599 3487801
2136.104 654.25525 2239.0823 3290679
2159.7329 657.17645 2249.0796 3290679
2170.3335 656.12122 2245.4683 3290679
2184.4021 656.12122 2245.4683 3225142
2201.1299 656.91486 2248.1843 3093300
2214.2825 656.63818 2247.2375 3290679
2243.4988 661.09857 2262.5024 3290679
2250.6387 659.03845 2255.4519 3290679
2258.5342 657.224 2249.2422 3290679
2259.2141 653.34521 2235.9678 3224886
2262.9839 650.4024 2225.8965 3159093
2273.4646 649.41254 2222.5088 2961714
nan nan nan 16777215
nan nan nan 16777215
nan nan nan 16777215
nan nan nan 16777215
nan nan nan 16777215
nan nan nan 16777215
nan nan nan 16777215
nan nan nan 16777215
nan nan nan 16777215
nan nan nan 16777215
nan nan nan 16777215
-1907.6415 627.81757 2103.7339 4014913
-1890.8342 626.61566 2099.7065 4014913
-1872.7386 624.96698 2094.1821 3685948
-1872.0686 629.15137 2108.2034 3422776
-1859.9214 629.51062 2109.407 3488569
-1856.1171 632.71887 2120.1577 3554362
-1852.8456 636.15643 2131.6765 3554362
-1839.6675 636.21783 2131.8821 3358010
-1828.1202 636.84821 2133.9944 3291960
-1811.943 635.86316 2130.6936 3160374
-1794.667 634.47498 2126.042 3160374
-1795.6254 639.56073 2143.0837 3160374
-1782.1984 639.56073 2143.0837 3226167
-1786.2008 645.86298 2164.2017 3160374
-1764.4032 642.86139 2154.1438 3094581
-1744.631 640.55713 2146.4226 3226167
-1733.551 641.43335 2149.3586 3357753
-1713.4451 638.9574 2141.062 3423546
-1704.811 640.75415 2147.0828 3357753
-1687.1168 639.14703 2141.6975 3226423
-1676.7362 640.30707 2145.5847 3160630
-1664.9386 640.94049 2147.707 3094581
-1656.1372 642.74695 2153.7603 3094581
-1634.1449 639.42163 2142.6177 3028788
-1594.02 628.88745 2107.3188 2962738
-1590.257 632.64282 2119.9028 2962738
-1583.4364 635.23492 2128.5886 3423033
-1562.2684 632.06635 2117.9712 3423032
-1542.2841 629.32654 2108.7903 3291190
-1521.7737 626.32281 2098.7251 3094068
-1502.0361 623.58752 2089.5596 3093811
-1488.9443 623.58752 2089.5596 2962482
-1467.4305 620.02893 2077.6353 2962225
-1463.8214 624.03961 2091.0745 3028018
-1442.9534 620.69867 2079.8794 2896432
-1428.6989 620.16754 2078.0999 2830639
-1415.6077 620.13641 2077.9954 3028018
-1398.5736 618.36133 2072.0474 3159347
-1384.6847 617.95648 2070.6909 3093811
-1381.5721 622.39899 2085.5769 3028018
-1363.767 620.24396 2078.3557 3093554
-1348.2863 619.11469 2074.5718 3225397
-1342.9843 622.68286 2086.5283 3093811
-1329.9114 622.68286 2086.5283 2962225
-1314.0367 621.35797 2082.0886 3028018
-1299.4918 620.64154 2079.688 3225397
-1287.2733 621.03302 2080.9998 3225397
-1281.3784 624.5144 2092.6655 3225397
-1271.8525 626.27997 2098.5815 3488569
-1263.9003 628.8653 2107.2446 4014913
-1247.1494 627.08105 2101.2661 4014913
-1242.5715 631.44489 2115.8887 3685948
-1220.9321 627.13904 2101.4604 3554362
-1208.3994 627.46808 2102.5627 3619898
-1195.6266 627.67822 2103.2671 3686204
-1187.0702 630.13135 2111.4871 3489339
-1177.8677 632.29291 2118.7302 3489339
-1167.8524 634.06238 2124.6597 3423289
-1157.8086 635.85706 2130.6733 3423033
-1144.715 635.99908 2131.1492 3620156
-1134.9711 638.02759 2137.9465 3488570
-1125.2329 640.10785 2144.917 3817534
-1110.1388 639.1546 2141.7229 4081220
-1084.27 631.8988 2117.4097 4015940
-1075.981 634.83539 2127.2498 3884097
-1067.9448 637.99664 2137.8428 3884097
-1063.2439 643.25604 2155.4663 4147269
-1042.5833 638.87103 2140.7727 4081476
-1028.4607 638.43036 2139.2961 3950147
-1034.8019 650.84894 2180.9089 3489339
-1012.474 645.32678 2162.405 3555132
-1009.4658 652.1358 2185.2212 3752511
-991.69012 649.46082 2176.2576 3818560
-977.12506 648.84308 2174.1877 3621181
-970.83185 653.7785 2190.7256 3620925
-957.46448 654.02313 2191.5454 3620925
-941.98358 652.81024 2187.4812 3818304
-929.31604 653.53998 2189.9265 3818304
-915.44318 653.43134 2189.5623 3686974
-899.99323 652.17645 2185.3574 3752767
-884.7973 651.0697 2181.6489 4015683
-873.27313 652.67255 2187.0198 4015683
-868.5329 659.47748 2209.8223 3949890
-854.68768 659.47748 2209.8223 4015683
-839.8288 658.68243 2207.1582 4015683
-821.12408 654.79407 2194.1287 3620925
-811.01917 657.7478 2204.0261 3620925
-790.77454 652.43787 2186.2334 3621181
-778.18042 653.36426 2189.3374 3226166
-763.61426 652.63837 2186.9053 3423803
-748.12225 651.08026 2181.6841 3358010
-733.72742 650.43671 2179.5278 3621438
-720.07202 650.43671 2179.5278 4081989
-704.20819 648.40332 2172.7141 3884610
-691.93512 649.66113 2176.929 4279112
-678.29596 649.66113 2176.929 4673871
-662.75891 647.80603 2170.7126 4081989
-650.01855 648.66406 2173.5879 3884610
-634.44641 646.67249 2166.9143 3884610
-622.79474 648.67719 2173.6318 3753024
-608.02307 647.44922 2169.5171 3950403
-591.18958 643.91937 2157.689 3950403
-577.48523 643.71234 2156.9951 3950403
-571.20142 651.96509 2184.6492 4279368
-553.71289 647.52014 2169.7546 4081989
-532.07538 637.87744 2137.4431 3490109
-518.36102 637.48059 2136.1135 3621438
-509.98328 643.79974 2157.2881 3753024
-493.56989 640.0426 2144.6985 3555645
-474.9881 633.18463 2121.7183 3424059
-467.21985 640.76172 2147.1082 3489852
-454.18448 641.35052 2149.0811 3358266
-441.2814 642.16779 2151.8196 3621438
-427.66425 641.96454 2151.1387 3555388
-412.68488 639.6369 2143.3389 3555388
-400.9473 642.34613 2152.4172 3292473
-386.70831 641.09711 2148.2319 3555902
-377.91452 649.11072 2175.0845 3752511
-363.70337 648.0708 2171.5999 3752768
-350.77365 649.32227 2175.7932 3884354
-337.79825 650.58685 2180.031 4081733
-322.96283 648.22479 2172.116 4213574
-309.2475 648.00195 2171.3691 4147782
-296.53503 649.95673 2177.9194 4081989
-282.43399 648.90973 2174.4109 4081989
-268.81064 648.90973 2174.4109 3950660
-255.01288 648.46619 2172.9248 4147782
-241.17937 647.87671 2170.9495 4345161
-229.11566 652.255 2185.6206 4016196
-213.58659 646.69763 2166.9985 3950403
-199.22107 644.14771 2158.4541 3818817
-184.67964 640.61639 2146.6211 3884354
-169.71939 634.96332 2127.6785 4081476
-155.5065 631.38092 2115.6743 3949889
-142.76982 633.68304 2123.3884 3489596
-129.231 632.53217 2119.532 3686719
-116.04269 633.02972 2121.1992 4213319
-102.75272 633.02972 2121.1992 3949890
-90.89653 643.17511 2155.1951 3818304
-77.408203 643.29669 2155.6025 4015939
-63.903858 643.30847 2155.6421 3883840
-50.763412 647.97174 2171.2678 4278342
-37.163769 648.04187 2171.5029 3620411
-23.356771 642.4892 2152.8967 3685948
-9.9518661 647.9361 2171.1484 3291190
3.6188388 642.21936 2151.9924 3225140
17.001486 638.45459 2139.3772 3422776
30.11714 632.40277 2119.0984 2962481
43.641479 636.01013 2131.1863 3159604
57.176926 638.05121 2138.0256 3291190
70.257347 635.20355 2128.4834 3159604
83.755371 636.43768 2132.6189 3225397
97.445549 638.59149 2139.8359 3291190
111.59211 642.85345 2154.1172 3685947
122.97075 631.97076 2117.6509 3751484
136.05807 631.13391 2114.8467 3093811
150.60539 636.617 2133.2197 3159605
164.9687 640.49188 2146.2039 3422776
178.36375 640.30676 2145.5835 3356983
191.8788 640.54803 2146.3921 3291190
205.5634 641.28674 2148.8674 3356983
220.05605 644.30048 2158.9661 3356983
233.17284 643.17017 2155.1785 3291190
246.30777 642.21082 2151.9639 3159604
259.63297 641.82141 2150.6589 3028018
273.62137 643.02905 2154.7056 3028018
290.19128 649.90454 2177.7446 3093811
301.90784 645.78119 2163.9277 2896432
314.6889 644.19141 2158.6006 2765102
328.80176 645.34662 2162.4714 3028018
342.6041 645.82495 2164.0745 3093811
355.77014 645.11316 2161.6892 2962225
365.80981 638.99249 2141.1797 2830639
375.79453 633.21216 2121.8105 3028018
396.46255 645.2132 2162.0244 3949120
402.68732 633.69244 2123.4199 3685948
420.07886 639.91931 2144.2854 3159604
433.81537 640.36493 2145.7786 3422776
449.66199 643.80499 2157.3057 3685948
460.89746 640.63483 2146.6829 3488569
473.88406 640.00946 2144.5874 3620155
487.06805 639.67786 2143.4761 3883327
501.85422 641.41174 2149.2861 3620155
514.71228 640.65515 2146.751 3356983
534.89575 648.82263 2174.1191 3159604
544.76965 644.38971 2159.2649 3422776
557.56647 643.54517 2156.4351 3028018
575.45337 648.47668 2172.96 2962225
588.14838 647.46478 2169.5691 3356983
599.22137 644.75323 2160.4832 3225397
609.33301 641.14996 2148.4092 2764846
622.79352 641.14996 2148.4092 2699053
635.88434 640.77759 2147.1611 2699053
648.25824 639.71295 2143.594 2764846
656.88861 635.07257 2128.0444 3028018
670.92572 635.73987 2130.2805 2962225
684.6933 636.13074 2131.5903 3291190
698.40881 636.45923 2132.6909 3225397
715.02887 639.37256 2142.4531 3225397
726.40631 637.57703 2136.4365 3291446
734.6087 633.11011 2121.4685 3028018
748.0683 633.2522 2121.9448 2831665
774.14557 643.88403 2157.5706 3028788
791.21851 646.79016 2167.3086 3555132
787.95404 633.25366 2121.9497 3620925
804.99982 636.21832 2131.8838 3160374
827.10992 643.02332 2154.6865 3357753
839.18994 641.93732 2151.0474 3357753
845.94812 636.87903 2134.0977 2962995
859.05029 636.67987 2133.4304 3160374
872.41681 636.67987 2133.4304 3160374
887.05365 637.5929 2136.4897 3094581
899.4314 636.87909 2134.0979 2831665
912.80212 636.87909 2134.0979 2897458
930.70837 639.99786 2144.5486 3357753
953.02295 646.01617 2164.7151 3883327
963.43671 643.91156 2157.6628 4870225
975.7699 643.13037 2155.0452 4475464
993.27966 645.73584 2163.7756 2567467
1001.0098 641.99896 2151.2539 2567467
1018.2305 644.36725 2159.1897 3290933
1031.5298 644.22443 2158.7112 3422776
1032.1379 636.2619 2132.0298 3291446
1045.0936 636.01709 2131.2095 3160631
1059.8441 636.85712 2134.0242 3291960
1074.1281 637.39923 2135.8408 3226167
1086.9139 637.04999 2134.6707 3357753
1097.3398 635.3429 2128.9502 3357753
1108.736 634.23175 2125.2271 3160630
1120.7863 633.51678 2122.8313 3226167
1134.4103 633.69763 2123.4373 3291960
1143.0208 631.1062 2114.7537 3357753
1145.7197 625.34753 2095.4573 2963252
1160.4142 626.19238 2098.2883 3356983
1186.3981 633.04236 2121.2415 3685948
1216.0229 641.66168 2150.1238 3883327
1226.2523 639.96979 2144.4543 4014913
1236.4956 638.32178 2138.9321 3685948
1228.3412 627.31335 2102.0444 3356983
1260.9785 637.1499 2135.0054 3028018
1289.2844 644.61426 2160.0176 2830896
1302.8176 644.61426 2160.0176 3028018
1318.2661 645.55225 2163.1604 3291190
1326.8313 643.13458 2155.0593 3554362
1341.651 643.76685 2157.178 3422776
1355.1664 643.76685 2157.178 3554362
1374.4761 646.49225 2166.3103 3422776
1384.6505 644.90955 2161.0068 3554362
1391.2438 641.70563 2150.271 3751741
1405.3521 641.99622 2151.2449 3488569
1422.5116 643.66199 2156.8264 3685948
1436.3646 643.81433 2157.3369 3488569
1455.6598 646.38031 2165.9353 3488569
1472.1963 647.68536 2170.3083 3356983
1482.661 646.31958 2165.7319 3159604
1496.2894 646.34534 2165.8181 3422776
1498.4648 641.46765 2149.4736 3356983
1505.6771 638.81396 2140.5813 3422776
1518.3999 638.52441 2139.6111 3488569
1529.6981 637.646 2136.6677 3422776
1541.6641 637.05884 2134.7002 3356983
1554.8927 636.99908 2134.5 3159604
1569.0847 637.3316 2135.6143 3225397
1593.3899 641.73157 2150.3579 3159604
1606.5824 641.61963 2149.9829 3225397
1613.5459 639.0426 2141.3477 3488569
1627.2885 639.1709 2141.7773 3356983
1650.0421 642.80737 2153.9629 3225397
1665.0193 643.37994 2155.8816 3356983
1679.0138 643.56677 2156.5076 4014913
1690.0157 642.61261 2153.3103 3948607
1699.4663 641.08844 2148.2029 3553849
1729.3361 647.23041 2168.7837 3356470
1745.7545 648.28137 2172.3054 3356470
1762.1884 649.32184 2175.792 3356470
1784.9677 652.6665 2186.9995 2895919
1781.0146 646.26013 2165.5325 2895919
1800.1525 648.26599 2172.2539 3290677
1813.7622 648.26599 2172.2539 3488056
1830.7959 649.48065 2176.324 3488056
1848.4111 650.88202 2181.02 3422263
1858.7058 649.70404 2177.0728 3422263
1870.0573 648.90991 2174.4116 3290677
1876.1851 646.32776 2165.7593 3093298
1892.0138 647.10065 2168.3489 3159091
1908.474 648.07678 2171.6199 3224884
1924.0823 648.75195 2173.8823 3224884
1938.339 648.96509 2174.5964 3159091
1951.9634 648.96509 2174.5964 3093298
1968.6836 649.98712 2178.0212 3224884
1993.7255 653.72375 2190.5422 3159090
2007.45 653.72375 2190.5422 2961714
2005.1957 648.55566 2173.2246 2698542
2017.2266 648.04645 2171.5183 2895921
2031.4941 648.25781 2172.2266 3553851
2062.6106 653.80713 2190.8215 3488058
2077.1914 654.07623 2191.7234 3422265
2092.9111 654.69812 2193.8071 3290679
2116.6682 657.80963 2204.2334 3224886
2128.6738 657.25244 2202.3662 3224886
2143.417 657.54224 2203.3374 3224886
2157.2214 657.54224 2203.3374 3159093
2165.6819 655.92358 2197.9136 3027507
2187.2322 658.26501 2205.7593 2764592
2200.6777 658.15302 2205.384 2764335
2200.8955 654.11121 2191.8406 2566956
2199.0081 649.49768 2176.3811 2501163
2210.5532 648.88403 2174.325 3027507
2220.0178 647.67096 2170.26 3224886
nan nan nan 16777215
nan nan nan 16777215
nan nan nan 16777215
nan nan nan 16777215
nan nan nan 16777215
nan nan nan 16777215
nan nan nan 16777215
nan nan nan 16777215
nan nan nan 16777215
nan nan nan 16777215
nan nan nan 16777215
-1863.0948 625.96167 2054.6084 4080706
-1847.2233 624.94714 2051.2783 4146499
-1845.053 628.58618 2063.2229 3685948
-1822.1807 625.17389 2052.0227 3554362
-1803.2733 623.08319 2045.1603 3488569
-1785.2981 621.28699 2039.2645 3554362
-1774.0039 621.80658 2040.9701 3422776
-1776.3785 627.15955 2058.5403 3226424
-1770.6467 629.70795 2066.9048 3226167
-1758.166 629.87598 2067.4563 3094581
-1740.5577 628.19592 2061.9419 3094581
-1728.3201 628.44354 2062.7546 2962995
-1719.676 630.01147 2067.9011 2962995
