# .PCD v0.7 - Point Cloud Data file format
VERSION 0.7
FIELDS x y z rgb
SIZE 4 4 4 4
TYPE F F F U
COUNT 1 1 1 1
WIDTH 1268
HEIGHT 1
VIEWPOINT 0 0 0 1 0 0 0
POINTS 1268
DATA ascii
-1460.8964 705.55121 3442.5916 3358527
-1434.2733 703.07373 3430.5032 3358527
-1407.121 700.25751 3416.7617 3226941
-1389.8821 702.36377 3427.0391 3226941
-1369.6821 703.01642 3430.2234 3226941
-1348.3046 703.07574 3430.5129 3161148
-1326.2073 702.75568 3428.9512 3161148
-1306.0106 703.44885 3432.3333 3161148
-1283.8723 703.10187 3430.6401 3161148
-1262.6337 703.24396 3431.3337 3226941
-1252.6094 709.74536 3463.0559 3226428
-1225.37 706.54962 3447.4631 2831671
-1208.179 709.13715 3460.0884 2371119
-1205.2202 720.32544 3514.6792 2371119
-1159.1716 705.69733 3443.3044 2765877
-1132.9607 702.8205 3429.2673 2897720
-1114.3224 704.62079 3438.0515 2831670
-1094.2517 705.56848 3442.6755 2634291
-1071.2341 704.61597 3438.0281 2700341
-1050.6932 705.28687 3441.3015 2700084
-1034.168 708.73779 3458.1396 2700084
-1011.7179 708.18921 3455.4629 2568498
-969.57092 693.52753 3383.9243 2436912
-943.52917 689.98779 3366.6528 2634547
-927.10693 693.48163 3383.7004 2831670
-908.26068 695.28339 3392.4917 3029049
-878.97742 688.99036 3361.7864 2831926
-857.47681 688.63873 3360.0703 2634291
-846.23456 696.71515 3399.4775 2963256
-822.01257 694.24622 3387.4312 3094842
-799.82025 693.40619 3383.332 2897463
-778.62262 693.40619 3383.332 2831670
-757.5885 693.55585 3384.0625 2897720
-727.99426 685.65186 3345.4966 3094842
-718.87457 697.13477 3401.5249 3226428
-696.34863 695.92108 3395.6033 3029049
-675.83728 696.70776 3399.4419 3094842
-653.87024 695.99628 3395.97 3094843
-633.37799 696.85944 3400.1816 2765877
-611.46289 696.16284 3396.7827 2765877
-590.18103 696.16284 3396.7827 2700084
-572.83752 700.98224 3420.2981 2700084
-551.28137 700.82086 3419.5107 2700084
-526.65833 696.59003 3398.8672 2700341
-506.94495 698.77008 3409.5044 2897463
-492.07874 708.11719 3455.1116 3358014
-472.51129 711.24799 3470.3875 3423807
-446.23071 704.08838 3435.4539 3555393
-426.88773 707.70441 3453.0974 3423807
-393.37973 686.96979 3351.9272 3029049
-372.37888 686.96979 3351.9272 2963256
-357.67975 699.29022 3412.042 3029049
-336.93179 700.59918 3418.429 3094842
-315.51425 700.59918 3418.429 2963256
-294.82645 702.33746 3426.9106 2765877
-273.98477 703.95355 3434.7959 2831670
-252.81573 704.93237 3439.5718 2897463
-231.26576 704.93237 3439.5718 3160635
-209.494 704.18689 3435.9343 3094842
-189.08479 708.37524 3456.3706 2897463
-167.11757 707.05524 3449.9299 2831927
-145.96664 709.30975 3460.9304 2897463
-124.16172 708.61853 3457.5576 3029306
-102.39625 707.90778 3454.0898 3029306
-80.713326 707.53979 3452.2942 3094842
-59.279362 709.88373 3463.7312 3095356
-37.258965 703.85669 3434.3232 3095611
-15.88345 710.18726 3465.2119 2897976
5.862709 714.51758 3486.3408 2766390
27.77586 716.32654 3495.1675 2832183
50.160091 723.3338 3529.3579 3029562
72.434807 724.95703 3537.2783 3292734
94.314789 722.79474 3526.7275 3226941
116.25024 721.79755 3521.8621 3226941
138.01955 720.25159 3514.3188 3226941
158.87056 714.99823 3488.686 3292991
180.7585 715.11786 3489.2698 3161148
202.89351 716.08368 3493.9824 3358271
225.30614 717.74573 3502.092 3489600
245.83934 713.65698 3482.1418 3555906
266.42474 710.37402 3466.1233 3161148
288.1178 710.31659 3465.843 3161148
310.96997 712.92462 3478.5684 3227197
328.0741 702.87622 3429.5393 3292478
347.9751 699.68689 3413.9778 3292733
371.35101 703.44952 3432.3367 3358270
392.48892 702.79279 3429.1323 3490113
410.39569 696.71887 3399.4958 3555906
431.69461 696.71887 3399.4958 3358527
454.35623 698.81482 3409.7227 3358527
474.06009 696.37769 3397.8311 3424320
496.49567 697.9903 3405.6995 3226941
517.10779 697.01221 3400.927 2766647
537.33899 695.61841 3394.1262 3095355
555.89185 692.24072 3377.6455 3226941
577.05383 692.24072 3377.6455 3029562
601.22833 695.72668 3394.6545 2963769
619.36871 692.23053 3377.5959 2963769
646.58667 698.77557 3409.5312 2831671
668.98639 699.86145 3414.8293 3029049
690.72266 700.20752 3416.5178 2963257
713.19 701.25146 3421.6118 2831926
731.23309 698.01135 3405.8022 2502961
751.75726 697.25616 3402.1174 2568755
778.35327 702.01898 3425.3564 2635061
800.38837 702.52289 3427.8154 2634804
825.21484 705.3866 3441.7883 2503218
848.97284 707.21436 3450.7063 2569011
865.16327 702.80389 3429.1865 2634804
891.43176 706.59558 3447.6873 2569011
906.03058 701.17676 3421.2473 2437425
927.46582 701.17676 3421.2473 2635061
946.20593 699.18536 3411.5305 2766390
967.5802 699.18536 3411.5305 2634804
1002.9629 709.08917 3459.854 2634805
1023.8433 708.53784 3457.1641 2700597
1046.8665 709.46155 3461.6711 2766390
1068.7087 709.5636 3462.1692 2503219
1092.0237 710.62012 3467.324 2569011
1113.7476 710.62012 3467.324 2503218
1140.7219 713.90601 3483.3569 2700597
1166.1086 716.09363 3494.031 2766390
1186.2788 715.05627 3488.9695 2766390
1204.7347 713.04187 3479.1404 2766390
1219.0308 708.68066 3457.8608 2700597
1241.1307 708.92932 3459.0742 2766647
1267.6388 711.64423 3472.321 2700854
1296.25 715.42816 3490.7839 2766647
1304.4858 708.02759 3454.6743 2634804
1326.1304 708.02759 3454.6743 2569267
1337.9893 702.88684 3429.5911 2832183
1346.2905 696.06921 3396.3259 2897463
1349.9258 687.08887 3352.5081 3292221
1399.5869 701.45105 3422.5854 3226685
1430.0267 705.89178 3444.2532 2963513
1441.8394 701.1424 3421.0796 2766134
1454.7362 697.05176 3401.1199 2831670
1481.2625 699.5155 3413.1414 2634291
1505.0035 700.61261 3418.4944 2634291
1525.0337 699.97565 3415.3865 2765877
1546.197 699.86914 3414.8669 2634291
1564.4182 698.45209 3407.9529 2765877
1586.7312 698.87543 3410.0183 2634548
1608.1998 698.92053 3410.2385 2634291
1623.4435 696.29456 3397.4255 2568498
1640.4337 694.47601 3388.5522 2831670
1665.3789 696.02856 3396.1277 2634291
1689.9872 697.40289 3402.8335 2568498
1712.2842 697.80121 3404.7769 2634548
1730.6008 696.58752 3398.855 2568498
1758.5184 699.22083 3411.7036 2436912
1785.6704 701.49011 3422.7761 2305326
1824.3162 708.1673 3455.356 2239533
1845.9652 708.1673 3455.356 2305326
1844.5619 699.42633 3412.7063 2371119
1862.5076 698.13837 3406.4219 2173996
1888.9958 700.04547 3415.7273 1976361
1943.2682 712.09094 3474.5007 2502704
1965.037 712.09094 3474.5007 2568498
1985.7058 711.69672 3472.5771 2502705
2007.4628 711.69672 3472.5771 2568498
2024.1057 709.9032 3463.8262 2502705
2045.0347 709.63495 3462.5171 2568498
2076.9602 713.14819 3479.6592 2765877
2098.7612 713.14819 3479.6592 2831670
2127.4534 715.46564 3490.9668 2831157
2135.25 710.78021 3468.1052 2765364
2166.0981 713.78528 3482.7678 2765621
2189.6763 714.35858 3485.5652 2896950
2205.0383 712.26672 3475.3584 3094329
2226.8125 712.26672 3475.3584 2831157
2258.3708 715.36597 3490.4805 2765364
2279.2878 715.06732 3489.0234 2765364
2286.6184 710.55243 3466.9939 2830900
2315.0652 712.62256 3477.0945 2502705
2338.3235 713.07178 3479.2866 2700084
2363.9038 714.21429 3484.8613 2765877
2391.6455 715.98291 3493.491 2700084
2396.9163 711.05347 3469.4387 2765877
2411.5532 708.96619 3459.2539 2831670
2433.7759 709.12616 3460.0347 2437169
2459.2974 710.23608 3465.4504 2370606
2488.4829 712.37549 3475.8892 2436399
2516.5896 714.17169 3484.6531 2436399
2538.7876 714.27454 3485.155 2370862
2557.4385 713.38617 3480.8206 2305069
2577.2327 712.8291 3478.1023 1976105
2620.3206 718.66998 3506.6018 2173740
2634.7908 716.63019 3496.6489 2436912
2649.1316 714.58905 3486.6897 2437169
2676.2046 715.98767 3493.5139 2568498
2709.228 718.94269 3507.9324 2634291
2741.7822 721.72662 3521.5159 2699571
2758.9502 720.4483 3515.2786 2634035
2785.252 721.55646 3520.6855 2633779
2815.0657 723.5498 3530.4119 2502192
2843.4646 725.15131 3538.2261 2304813
2857.1123 722.99518 3527.7058 2173227
2883.4727 724.06451 3532.9231 2107434
2920.0168 727.65521 3550.4434 2107434
2942.4412 727.69965 3550.6602 2173227
2956.9812 725.80817 3541.4312 2239020
2974.7979 724.74316 3536.2346 2239020
2994.9404 724.25635 3533.8594 2239020
3004.7161 721.28809 3519.3762 2370606
3023.5977 720.53302 3515.6921 2502192
3046.3296 720.69983 3516.5061 2633778
3080.0618 723.448 3529.915 2567985
3102.3948 723.49866 3530.1621 2765364
3117.0139 721.76233 3521.6902 2765364
3131.0154 719.90845 3512.6445 2831157
3138.0913 716.49915 3496.0095 2765364
3167.7605 718.25995 3504.6008 2633778
3192.1555 718.80878 3507.2791 2567985
3227.0813 721.70526 3521.4119 2567986
3294.6445 731.81195 3570.7253 2699572
3275.3943 722.62915 3525.9197 2567987
3274.1248 717.50983 3500.9409 2765365
3303.3496 719.09674 3508.6841 2896951
3335.2708 721.24591 3519.1704 2896951
3360.9124 722.01776 3522.9365 2896951
3371.2607 719.51556 3510.7275 2962744
3405.2363 722.05585 3523.1223 2831158
3435.0718 723.69104 3531.1011 2897208
3463.5671 725.0249 3537.6094 2896951
3465.262 720.76733 3516.8354 2896951
3522.3315 728.00861 3552.1675 2896951
3564.3423 732.06604 3571.9651 2831415
3619.2395 738.703 3604.3489 3028537
3646.4072 739.63318 3608.8872 2962744
3665.4131 738.90649 3605.3416 2831158
3648.0312 730.89819 3566.2668 2699573
nan nan nan 16777215
nan nan nan 16777215
nan nan nan 16777215
nan nan nan 16777215
nan nan nan 16777215
nan nan nan 16777215
nan nan nan 16777215
nan nan nan 16777215
-2924.0754 667.15253 3159.1672 2897463
-2905.4087 667.41125 3160.3926 3029049
-2897.135 670.07739 3173.0173 2963256
-2876.7944 669.97009 3172.5093 2963256
-2851.4417 668.68597 3166.4285 3029049
-2826.5518 667.49304 3160.7798 3029306
-2791.5544 663.87964 3143.6692 3160635
-2766.9182 662.69647 3138.0664 3358014
-2751.219 663.6521 3142.5918 3423807
-2711.509 658.78784 3119.5581 3358014
-2691.9639 658.78784 3119.5581 3292221
-2663.8254 656.66949 3109.5269 3160635
-2656.4685 659.68054 3123.7852 3160635
-2639.9871 660.45349 3127.4456 3160635
-2621.9561 660.8476 3129.3115 3160635
-2616.0818 664.33472 3145.824 3226428
-2604.8188 666.49591 3156.0581 3358014
-2595.3606 669.15558 3168.6523 3292221
-2581.8018 670.79071 3176.3953 3358014
-2552.373 668.29608 3164.5825 3358014
-2506.0833 661.31305 3131.5156 3292221
-2485.915 661.16724 3130.8252 3357758
-2460.9338 659.72882 3124.0139 3686979
-2504.7622 676.86169 3205.1433 3621186
-2470.5671 673.01691 3186.937 3555649
-2450.6001 673.01691 3186.937 3621186
-2434.0156 673.95361 3191.3723 3620930
-2425.0784 677.04071 3205.9907 3621186
-2424.3071 682.47821 3231.739 3555393
-2401.178 681.66022 3227.8657 3489600
-2389.4146 684.0824 3239.3354 3555394
-2367.9668 683.74963 3237.7595 3621443
-2343.929 682.6568 3232.5847 3621443
-2323.6758 682.6568 3232.5847 3226941
-2323.27 688.53888 3260.4382 3292477
-2319.8777 693.63239 3284.5574 3292734
-2298.4275 693.36951 3283.3125 3226941
-2279.1284 693.75665 3285.146 3226941
-2255.3772 692.78326 3280.5366 3161148
-2230.7966 691.53497 3274.6255 3161148
-2213.9443 692.68146 3280.0544 3292734
-2195.0879 693.21643 3282.5876 3358527
-2183.8872 696.20209 3296.7258 3358527
-2142.5264 689.53833 3265.1707 3490113
-2118.6699 688.43378 3259.9404 3490113
-2111.1631 692.67212 3280.0103 3292734
-2064.615 684.05829 3239.2212 3292734
-2041.2644 683.03577 3234.3794 3226941
-2020.9999 683.03577 3234.3794 3161148
-2012.9059 687.19067 3254.0537 3095355
-1998.3016 689.1853 3263.499 3095355
-1985.5001 691.8493 3276.1138 3095355
-1968.859 693.21704 3282.5906 3095355
-1948.3125 693.22418 3282.6243 3161148
-1924.1803 691.94202 3276.5527 3029562
-1895.1899 688.86633 3261.9885 2963769
-1882.005 691.53113 3274.6074 2766390
-1863.8109 692.39392 3278.6929 3029562
-1841.6625 691.79047 3275.8354 3226941
-1825.3378 693.38568 3283.3892 3161148
-1804.7662 693.38568 3283.3892 3226684
-1774.8276 689.7453 3266.1509 3226941
-1754.3641 689.7453 3266.1509 3029562
-1727.5698 687.22687 3254.2253 2898232
-1707.6222 687.40442 3255.0662 3161148
-1687.228 687.40442 3255.0662 3095611
-1686.1659 695.37689 3292.8181 3029562
-1670.1615 697.30835 3301.9641 3292991
-1651.8551 698.31506 3306.7312 2898233
-1633.9044 699.49969 3312.3408 2766390
-1606.0859 696.43579 3297.8325 2897976
-1584.77 696.14862 3296.4724 2963769
-1566.6787 697.28888 3301.8721 2898233
-1552.9282 700.4176 3316.6873 2898232
-1533.3452 700.96484 3319.2788 2963769
-1520.3845 704.59613 3336.4739 3095355
-1498.9059 704.32617 3335.1956 3095355
-1474.0952 702.46063 3326.3618 3161148
-1454.4476 703.03735 3329.0928 3161148
-1434.9449 703.7019 3332.2397 3226941
-1417.083 705.20264 3339.3459 3226941
-1396.5994 705.42407 3340.3945 3029562
-1377.0746 706.14386 3343.803 3029562
-1354.6981 705.40106 3340.2856 3161148
-1334.5236 705.79956 3342.1726 3161148
-1313.5757 705.79517 3342.1519 3161148
-1278.6212 698.14288 3305.916 2897976
-1257.9086 698.14288 3305.916 3226941
-1251.9089 706.44525 3345.2302 3226941
-1229.9847 705.8913 3342.6072 3358527
-1214.0353 708.80652 3356.4114 3423551
-1196.0469 710.61292 3364.9653 3358014
-1170.1953 707.7287 3351.3076 3292221
-1149.1984 707.7287 3351.3076 3029049
-1126.6992 706.78638 3346.8455 2765877
-1104.4595 705.97406 3342.999 2700083
-1078.7385 702.86224 3328.2634 2634290
-1057.8859 702.86224 3328.2634 2634290
-1032.283 699.64264 3313.0178 2634290
-1006.9303 696.46399 3297.9661 2568754
-986.28357 696.47534 3298.0198 2765877
-963.53253 694.96942 3290.8887 2897462
-943.69012 695.54138 3293.5969 3094841
-902.49548 680.0495 3220.2385 3160891
-887.34198 683.92047 3238.5686 2963255
-869.00543 685.46185 3245.8674 3160635
-851.41785 687.68201 3256.3806 3292222
-835.57172 691.45227 3274.2339 3292221
-814.30066 690.81012 3271.1931 3160635
-787.11926 684.99133 3243.6394 3160635
-767.30145 685.44208 3245.7739 3160635
-746.7168 685.21368 3244.6924 3160636
-722.57922 681.62097 3227.6797 3226426
-705.97223 685.12964 3244.2944 3226427
-685.0473 684.53174 3241.4629 3160633
-662.88654 682.62457 3232.4321 3029048
-647.9649 688.28687 3259.2449 3029048
-629.40845 690.33099 3268.9243 3029047
-611.67926 693.45044 3283.6958 2765877
-597.99219 701.52905 3321.9504 2765877
-575.29919 699.24408 3311.1304 2897463
-554.55389 699.24408 3311.1304 3029049
-534.80847 700.55371 3317.332 3029049
-513.47974 699.81146 3313.8171 3292221
-492.62164 699.67517 3313.1719 3292221
-473.21188 701.67432 3322.6384 3292221
-452.63019 702.03992 3324.3694 3226428
-431.57605 701.67261 3322.6301 3292221
-408.71182 698.17596 3306.0725 3292221
-387.99826 698.17596 3306.0725 2963256
-368.59409 700.66504 3317.8589 2897463
-347.90967 700.8725 3318.8413 3029049
-325.5994 697.62286 3303.4534 3094842
-304.90225 697.62286 3303.4534 2897463
-285.16525 699.97968 3314.6138 2700084
-263.56046 697.76196 3304.1121 2700084
-242.62607 697.09216 3300.9407 2963256
-222.62708 699.2356 3311.0901 3226428
-202.54007 701.51459 3321.8821 3292221
-182.30235 703.73395 3332.3911 3292221
-161.47047 703.93707 3333.353 3423807
-140.24394 702.22437 3325.2429 3226428
-119.4649 702.54565 3326.7644 3094842
-98.668739 702.88086 3328.3516 3160891
-78.413475 708.28137 3353.9246 3161148
-57.019939 703.59045 3331.7117 3029562
-36.006756 700.88519 3318.9016 3029562
-15.324219 706.01807 3343.2073 2963769
5.6561646 710.30701 3363.5166 2963769
26.812382 712.50586 3373.9287 3095355
47.892685 711.63794 3369.8191 3095355
69.060257 712.20111 3372.4858 3161148
90.73912 716.53796 3393.022 3358527
111.97404 716.38806 3392.3125 3292734
133.29312 716.73871 3393.9727 3161148
154.52481 716.58746 3393.2566 3226941
175.11082 713.84076 3380.2502 3095355
196.29141 713.849 3380.2891 3029306
216.58066 710.92987 3366.4661 3094842
237.07486 709.14178 3357.999 3094842
258.51379 710.24091 3363.2036 3160635
277.75195 705.58362 3341.1499 3423807
298.04291 704.06604 3333.9639 3029306
315.96533 697.51862 3302.9597 3094842
337.5632 699.39117 3311.8269 3358014
358.76065 700.26526 3315.9661 3423551
378.61249 698.56097 3307.8958 3358527
398.16742 696.51422 3298.2036 3490113
417.7002 694.63251 3289.2935 3490113
438.30865 694.63251 3289.2935 3753285
456.59299 691.11469 3272.6353 3490113
468.14722 678.15009 3211.2439 3358527
501.35138 696.32336 3297.3 2964026
522.94745 697.57379 3303.2212 3095611
538.84082 691.41174 3274.042 3226941
559.3537 691.41174 3274.042 3029562
580.65631 692.35339 3278.501 2963769
600.10944 691.10077 3272.5693 2897975
625.99591 697.09497 3300.9536 2963768
650.64545 701.37238 3321.2085 3292734
666.29688 695.98566 3295.7007 3226428
691.83246 700.93683 3319.1462 2964026
716.15253 704.40363 3335.5625 2634804
731.31689 698.92365 3309.6133 2569011
751.94409 698.82281 3309.1357 2766134
766.88129 693.58118 3284.3149 2766133
793.14252 698.58759 3308.0217 2502962
816.13989 700.53741 3317.2546 2634547
832.24506 696.62128 3298.7107 2766134
849.9798 694.22601 3287.3684 2963513
874.57867 697.41772 3302.4822 2700597
898.32654 699.79901 3313.7581 2766133
920.03888 700.52277 3317.1853 2568755
937.06036 697.72186 3303.9224 2569268
963.1861 701.67444 3322.6389 2765877
984.03967 701.70026 3322.761 2765877
1003.5382 700.77881 3318.3977 2634034
1024.7083 701.03821 3319.6262 2568498
1051.064 704.7644 3337.271 2634291
1074.184 706.21808 3344.1543 2436912
1099.4758 709.01666 3357.4065 2700084
1117.2753 706.96912 3347.7107 2765878
1138.2496 706.96912 3347.7107 2700084
1157.6198 705.99066 3343.0774 2700084
1169.2157 700.39008 3316.5571 2700083
1182.8724 696.19806 3296.7065 2766390
1203.5273 696.19806 3296.7065 2963769
1240.0431 705.2182 3339.4197 3161148
1254.8964 701.82385 3323.3464 3161148
1264.8746 695.8584 3295.0984 3226941
1297.5239 702.35645 3325.8684 3226941
1318.4946 702.42737 3326.2041 3358527
1332.1409 698.65472 3308.3396 3424063
1352.8687 698.65472 3308.3396 3489600
1364.9321 694.2478 3287.4714 3423807
1369.3829 686.15735 3249.1609 3292221
1394.0165 688.26886 3259.1594 3160635
1405.5673 683.95325 3238.7236 2897463
1421.6556 681.93701 3229.1763 2831670
1446.3463 684.0459 3239.1624 2831670
1472.6547 686.85083 3252.4446 2765877
1492.2349 686.48401 3250.7075 2831670
1512.0094 686.21527 3249.4351 2897463
1531.1112 685.6524 3246.7695 2897463
1550.7256 685.33081 3245.2468 2963256
1547.7097 675.14569 3197.0173 3094842
1564.785 673.87317 3190.9915 2634291
1604.9823 682.46454 3231.6743 2634291
1645.3699 690.92175 3271.7217 2436912
1666.0343 690.9906 3272.0479 2371119
1684.2126 690.03925 3267.5427 2371119
1708.1143 691.42749 3274.1165 2436912
1728.6633 691.44177 3274.1841 2436912
1755.0994 693.78278 3285.2695 2239534
1772.7969 692.65533 3279.9307 2042154
1782.0077 688.27582 3259.1924 1713191
1791.1786 683.98029 3238.8516 1910569
1826.2825 689.57281 3265.334 2239533
1867.548 697.34222 3302.1245 2173740
1902.2413 702.51422 3326.6155 2173740
1920.4188 701.54071 3322.0056 2239533
1937.1176 700.05377 3314.9646 2173740
1962.8746 701.83716 3323.4094 2305326
1992.0604 704.7962 3337.4214 2700084
2012.9703 704.7962 3337.4214 2699828
2036.7946 705.80609 3342.2034 2765364
2058.2571 705.98529 3343.052 2765364
2079.3928 706.04999 3343.3584 2765364
2101.845 706.55585 3345.7539 2765364
2116.2656 704.37866 3335.4441 3028279
2131.4473 702.49475 3326.5232 3160122
2171.4587 708.75165 3356.1516 2831157
2180.1189 704.75378 3337.2207 2765364
2201.4258 704.88123 3337.824 2765108
2222.3381 704.88123 3337.824 2634291
2245.3411 705.53809 3340.9343 3029049
2262.6946 704.42401 3335.6589 3292221
2283.5935 704.42401 3335.6589 2897463
2309.1257 705.84033 3342.3657 2963256
2330.0669 705.84033 3342.3657 2765877
2349.9243 705.51508 3340.8254 2765877
2392.4954 711.95459 3371.3184 2436912
2407.7244 710.21619 3363.0867 2436912
2412.4775 705.4447 3340.4922 2568498
2433.407 705.4447 3340.4922 2634548
2456.915 706.18597 3344.0024 2700084
2493.7944 710.72546 3365.4983 2437169
2526.625 714.04456 3381.2151 2305326
2548.5315 714.24695 3382.1736 2305326
2570.7925 714.54449 3383.5825 2436912
2591.9915 714.54449 3383.5825 2502705
2616.1584 715.35602 3387.4253 2634291
2637.3818 715.35602 3387.4253 2633778
2667.3728 717.71515 3398.5964 2567985
2691.5845 718.49414 3402.2854 2502193
2710.3254 717.81213 3399.0557 2502192
2730.4297 717.49896 3397.5728 2304813
2741.1211 714.73621 3384.4902 2173227
2777.3262 718.61743 3402.8691 2041641
2798.6462 718.61743 3402.8691 2107434
2821.2148 718.93561 3404.3757 2107434
2840.2825 718.36353 3401.6667 2107434
2849.3044 715.2782 3387.0566 1975848
2869.2231 714.95367 3385.52 2107434
2878.1838 711.92346 3371.1711 2304813
2894.2288 710.67688 3365.2683 2567985
2916.2705 710.91028 3366.3733 2502192
2937.3618 710.91028 3366.3733 2502192
2933.3433 704.87634 3337.801 2370606
2953.2383 704.63367 3336.6519 2173227
2979.3633 705.87036 3342.5078 2304813
3003.8176 706.69672 3346.4209 2436400
3027.342 707.29437 3349.251 2502192
3048.3262 707.29437 3349.251 2502192
3069.9104 707.43268 3349.906 2502192
3088.0613 706.78333 3346.8308 2370606
3108.8481 706.74188 3346.635 2436399
3114.4438 703.27075 3330.198 2502192
3131.615 702.44232 3326.2749 2436399
3156.6082 703.36761 3330.6567 2436399
3177.4758 703.36761 3330.6567 2502448
3207.8994 705.46918 3340.6082 2436399
3238.6577 707.61658 3350.7769 2633778
3254.563 706.51202 3345.5461 2699827
3273.6501 706.10785 3343.6323 2765365
3301.6174 707.61206 3350.7554 2765366
3319.8062 707.01471 3347.9268 2699572
3360.2124 711.12677 3367.3984 2962744
3386.1384 712.14227 3372.2073 2962744
3432.3401 717.38281 3397.0227 3028537
3471.7993 721.15833 3414.9009 3094587
3468.4104 716.04163 3390.6719 3094330
nan nan nan 16777215
nan nan nan 16777215
nan nan nan 16777215
nan nan nan 16777215
nan nan nan 16777215
nan nan nan 16777215
nan nan nan 16777215
nan nan nan 16777215
-2842.207 667.61072 3070.7166 3094842
-2821.1836 667.18872 3068.7756 3094842
-2797.0559 666.02173 3063.408 3160635
-2775.8826 665.547 3061.2244 3160635
-2754.9922 665.13391 3059.3245 3160635
-2740.0339 666.15729 3064.0315 3160635
-2718.1863 665.50842 3061.0469 3292221
-2690.9028 663.50983 3051.8545 3423807
-2661.7268 661.01276 3040.3689 3423807
-2646.0588 661.8584 3044.2585 3423807
-2623.7888 661.05304 3040.5542 3226428
-2600.2046 659.90228 3035.261 2897463
-2584.2908 660.69562 3038.9102 2765877
-2553.114 657.56964 3024.532 3160635
-2535.293 657.86243 3025.8789 3226428
-2528.6553 661.08344 3040.6941 3292221
-2514.2886 662.31744 3046.3696 3226428
-2510.1267 666.27887 3064.5908 3292221
-2493.6533 667.00842 3067.9463 3489600
-2465.4597 664.5899 3056.8223 3555393
-2445.7039 664.42584 3056.0676 3555649
-2431.6824 665.82935 3062.5229 3555906
-2422.9285 668.70898 3075.7681 3753286
-2441.3611 679.19818 3124.0139 3950409
-2399.7793 673.02576 3095.6235 3819080
-2385.4539 674.45911 3102.2161 3819078
-2378.8743 678.12402 3119.0732 3621699
-2361.5986 678.77545 3122.0696 3424320
-2342.2258 678.8299 3122.3201 3490113
-2329.5525 680.84332 3131.5808 3489856
-2295.022 676.44855 3111.3667 3818566
-2269.5322 674.66614 3103.1685 4016202
-2244.4626 672.97882 3095.4077 4213581
-2255.2192 682.09796 3137.3516 3489602
-2247.2551 685.66541 3153.7603 3160893
-2227.3152 685.6098 3153.5044 3095100
-2207.5576 685.6098 3153.5044 3095100
-2186.2773 685.13275 3151.3101 3226942
-2169.9746 686.22089 3156.3152 3226686
-2157.9009 688.67883 3167.6206 3226685
-2138.4419 688.80353 3168.1941 3358527
-2113.751 687.22955 3160.9546 3358527
-2096.2148 687.97388 3164.3784 3424320
-2076.8979 688.14258 3165.1541 3424577
-2053.2925 686.87982 3159.3459 3490113
-2024.6721 683.8985 3145.6333 3292734
-1993.4839 679.98267 3127.6221 3490113
-1944.8361 669.97449 3081.5889 3292734
-1930.9116 671.84735 3090.2034 2963769
-1937.5601 680.98883 3132.25 2635061
-1919.0475 681.38367 3134.0662 2897720
-1913.9567 686.60144 3158.0657 3094842
-1896.22 687.34442 3161.4829 3160635
-1865.132 683.21228 3142.4771 3094842
-1849.9023 684.86316 3150.0701 3094842
-1824.2292 682.64142 3139.8513 2897207
-1809.8778 684.65424 3149.1091 2831670
-1795.6617 686.76312 3158.8093 2963256
-1774.4583 686.2168 3156.2964 3291965
-1753.8978 685.90973 3154.884 3357758
-1735.6683 686.51758 3157.6799 3226428
-1714.943 686.14093 3155.9475 3226427
-1695.8284 686.40747 3157.1733 3226427
-1666.5386 682.51306 3139.261 3292478
-1646.8702 682.51306 3139.261 3555650
-1633.8624 685.30688 3152.1111 3490113
-1595.7968 677.53009 3116.3413 3358527
-1576.272 677.53009 3116.3413 3029562
-1575.2543 685.58484 3153.3896 2832183
-1563.95 689.3103 3170.5251 3095355
-1530.1523 683.09021 3141.9155 3095355
-1515.5121 685.3717 3152.4092 2963769
-1497.7627 686.28882 3156.6274 2963769
-1486.472 690.22943 3174.7527 2897976
-1468.7272 691.23938 3179.3979 2897976
-1450.1262 691.86865 3182.2925 3029562
-1432.5055 692.98969 3187.4487 3029562
-1410.251 691.86914 3182.2947 3029562
-1393.2899 693.35059 3189.1086 3226941
-1378.6406 696.0423 3201.4895 3424320
-1359.3442 696.43262 3203.2847 3424320
-1345.1407 699.48303 3217.3154 3490113
-1325.7645 699.89557 3219.2126 3490113
-1305.3977 699.78967 3218.7256 3292734
-1281.4022 697.70471 3209.1357 3029819
-1261.296 697.70471 3209.1357 3358527
-1245.9795 700.39716 3221.5198 3555906
-1225.7957 700.39716 3221.5198 3358527
-1208.1284 701.85913 3228.2441 3358527
-1190.3656 703.31439 3234.938 3424320
-1178.0458 708.09186 3256.9121 3423551
-1158.5956 708.67621 3259.5999 3423807
-1132.7043 705.27106 3243.9377 3358014
-1112.38 705.27106 3243.9377 3160635
-1088.7269 703.12122 3234.0493 2963256
-1072.3979 705.70959 3245.9548 2831927
-1045.6465 701.4068 3226.1638 2765877
-1024.0157 700.43695 3221.7029 2765877
-998.47681 696.70129 3204.5203 2700085
-976.10132 695.06476 3196.9932 2765878
-955.50775 694.65509 3195.1089 2897464
-932.21912 692.22675 3183.9395 2765876
-909.09796 689.81921 3172.866 2897461
-886.53632 687.73816 3163.2939 3094841
-858.20355 680.98248 3132.2209 2765875
-832.50446 676.04938 3109.5308 2634290
-812.02271 675.21826 3105.7078 3160633
-810.10236 690.15942 3174.4309 3226428
-790.13 690.08649 3174.0952 3160634
-764.01727 684.50836 3148.4382 3226427
-743.69702 683.96173 3145.9243 3160635
-722.48102 682.53925 3139.3811 3226427
-698.34955 678.20563 3119.4485 3226428
-680.01483 679.41418 3125.0073 3160378
-665.52924 684.65411 3149.1086 3094841
-647.24066 686.18237 3156.1382 3094842
-626.94006 685.60675 3153.4905 2963257
-607.30347 685.74335 3154.1187 3160635
-587.54187 685.74335 3154.1187 3029049
-571.17133 689.83875 3172.9558 2963256
-551.52856 690.13513 3174.3191 2963256
-531.88348 690.45056 3175.7698 3094842
-513.87671 692.99994 3187.4958 3029306
-495.50772 695.24719 3197.8323 3094842
-475.59714 695.42969 3198.6719 3160635
-457.46857 698.34863 3212.0974 3226428
-435.50867 695.41833 3198.6194 3358014
-414.75574 694.22565 3193.1335 3292221
-394.92642 694.53625 3194.5623 3226428
-376.90576 698.23071 3211.5552 3160635
-353.99103 692.7641 3186.4111 2963256
-333.85641 692.40991 3184.7822 3160635
-309.15778 681.94348 3136.6409 3160635
-291.04486 685.56885 3153.3162 3029049
-273.48434 691.11835 3178.8413 3160635
-253.46271 690.83154 3177.5222 3029049
-233.77158 691.47339 3180.4746 2831670
-212.27341 686.39197 3157.1021 2700084
-194.1176 692.18433 3183.7444 3029049
-174.17046 692.18433 3183.7444 3160635
-153.98686 691.12305 3178.863 2831670
-133.18056 686.53656 3157.7671 2766134
-113.48337 687.06445 3160.1953 2831670
-94.527992 693.25598 3188.6733 2897719
-74.91404 696.64154 3204.2456 2700597
-54.833389 696.57733 3203.9502 2766390
-34.779255 696.97028 3205.7576 2832183
-14.694191 696.97028 3205.7576 2766390
5.4338293 702.52386 3231.3018 2832183
25.77342 705.1087 3243.1909 3029562
45.91626 702.40479 3230.7539 2898233
66.126472 702.07074 3229.2178 3292734
86.974243 707.07642 3252.2415 3226941
108.04076 711.62256 3273.1519 3161148
128.51962 711.46509 3272.4272 3029562
148.78365 710.3252 3267.1846 3029562
169.12627 709.79102 3264.7273 2832183
186.40952 697.91772 3210.1155 2831926
206.5219 697.91772 3210.1155 3094842
228.73344 704.38214 3239.8491 3160892
249.03212 704.38214 3239.8491 3094842
268.76135 702.89294 3232.9993 3292221
287.08737 698.19983 3211.4131 3094842
304.70285 692.50665 3185.2268 3029049
326.08868 695.55554 3199.2505 3358014
343.75665 690.78033 3177.2866 3489600
363.66232 690.77844 3177.2778 3226941
380.24905 684.79956 3149.7776 3358527
399.9834 684.79956 3149.7776 3490113
422.93774 690.05322 3173.9421 3095355
442.40643 689.40332 3170.9529 3029562
457.68182 682.55573 3139.457 3226941
476.38574 681.17474 3133.1052 3358783
492.71255 676.63873 3112.2415 3358272
515.21356 680.60425 3130.481 3358272
537.95575 684.58582 3148.7944 3424321
559.19495 686.44061 3157.3257 3687493
575.17871 681.93781 3136.615 3424064
593.96796 680.94885 3132.0662 3226686
620.9173 689.0791 3169.4617 3226686
634.16644 681.97241 3136.7742 3358014
644.6684 672.42743 3092.8713 3226941
670.30518 678.76538 3122.0232 2897976
701.83484 690.54205 3176.1907 2897976
712.43622 681.64551 3135.2705 2963769
728.42877 678.24615 3119.6348 2832183
758.6192 687.89874 3164.0325 2371632
779.25531 688.6167 3167.335 2503218
807.23773 695.62958 3199.5911 2897719
815.82367 685.99298 3155.2668 3160891
834.67773 685.242 3151.8127 2897719
864.58069 693.38696 3189.2761 2502962
876.34528 686.94568 3159.6489 2502962
896.14148 686.94568 3159.6489 2700597
926.68823 695.00854 3196.7346 2963512
939.94257 690.03546 3173.8606 2700597
958.9162 689.38007 3170.8462 2569267
980.82001 690.81506 3177.4465 2766390
1004.9291 693.71539 3190.7866 2700597
1025.9352 694.40234 3193.9463 2700084
1045.0795 693.82678 3191.2991 2897463
1065.074 693.82678 3191.2991 2831670
1088.4965 696.01886 3201.3816 2700084
1109.7063 696.74225 3204.709 2765877
1126.5673 694.75793 3195.582 2831670
1137.8987 689.49243 3171.363 2897720
1165.5175 694.10736 3192.5896 3029562
1184.0415 693.24176 3188.6082 3161148
1202.9026 692.59888 3185.6511 3161148
1215.092 688.19836 3165.4106 3095612
1242.9971 692.69708 3186.103 3226684
1265.0481 693.8429 3191.373 3489344
1274.1316 687.95142 3164.2749 3358014
1285.7668 683.59711 3144.2471 3489857
1315.543 688.8736 3168.5164 3160892
1317.1786 679.47662 3125.2947 3161149
1351.2173 686.82556 3159.0964 3292734
1371.1758 686.90857 3159.4783 3358014
1386.1869 684.54614 3148.6121 3489600
1397.333 680.36798 3129.3945 2897463
1418.7321 681.22864 3133.3533 2765877
1434.6842 679.48608 3125.3381 2897463
1455.3335 679.98517 3127.6335 2831670
1474.7627 679.90845 3127.2808 2897463
1495.7776 680.55518 3130.2556 2897720
1524.0543 684.44653 3148.1538 2436912
1537.7136 681.75763 3135.7861 2502705
1556.9047 681.55817 3134.8687 2568755
1578.5499 682.42462 3138.854 2502705
1596.0392 681.49524 3134.5793 2502705
1614.8591 681.14972 3132.99 2502705
1635.4966 681.56989 3134.9226 2568498
1657.3658 682.48737 3139.1426 2436912
1677.441 682.6532 3139.9055 2239533
1701.7227 684.50714 3148.4329 2305326
1721.3109 684.45251 3148.1814 2042155
1726.7206 678.82501 3122.2974 2502705
1748.093 679.52863 3125.5337 2700084
1767.4967 679.4599 3125.2175 2107947
1810.0315 688.18732 3165.3599 2042154
1832.4471 689.15906 3169.8293 2042154
1864.6307 693.74408 3190.9187 2239533
1875.9525 690.55249 3176.2385 2239533
1906.8828 694.57013 3194.718 2502705
1926.2681 694.34283 3193.6726 2568498
1947.1985 694.67145 3195.1841 2568498
1967.2173 694.67145 3195.1841 2568498
1990.5442 695.82782 3200.5029 2634035
2012.5735 696.51208 3203.6501 2568498
2035.0837 697.3476 3207.4932 2700083
2034.5679 690.35376 3175.3247 2699828
2046.2181 687.5835 3162.5828 2633778
2067.4241 688.04657 3164.7126 2502192
2106.1436 694.27405 3193.3562 2501935
2123.7554 693.49176 3189.7581 2502705
2139.6309 692.16248 3183.6438 2831670
2168.0227 694.8692 3196.0938 2831670
2203.593 699.80615 3218.8015 3029049
2222.1484 699.29913 3216.4695 3160892
2238.1948 698.01862 3210.5796 3292221
2226.2568 688.11139 3165.0107 3029049
2304.5474 706.02142 3247.3889 2765877
2310.3345 701.60016 3227.0532 2700084
2331.9321 702.01538 3228.9629 2700084
2300.5593 686.61407 3158.1238 2831670
2311.5068 683.9986 3146.0935 3029049
2371.9932 695.96228 3201.1213 2963256
2433.7573 708.09717 3256.9365 3029049
2442.0083 704.59015 3240.8059 3029306
2419.9646 692.47223 3185.0686 2634291
2451.6592 695.80389 3200.3928 2568498
2522.4922 710.09924 3266.1453 2437169
2543.5217 710.25732 3266.8723 2633778
2566.0068 710.81616 3269.4426 2567986
2589.0637 711.52313 3272.6946 2567985
2615.9578 713.26538 3280.708 2567985
2637.8203 713.61914 3282.3352 2567985
2663.2097 714.91425 3288.2922 2436399
2661.2961 708.91656 3260.7053 2173227
2699.4338 713.59784 3282.2371 2173227
2730.2417 716.28522 3294.5979 2305069
2735.5254 712.28625 3276.2043 2436656
2756.0518 712.28625 3276.2043 2370863
2779.6606 713.07697 3279.8413 2042154
2778.481 707.54364 3254.3906 2239277
2781.324 703.10791 3233.988 2436399
2799.2092 702.51141 3231.2446 2567729
2813.269 700.9704 3224.1565 2370606
2825.6555 699.03729 3215.2651 2304813
2831.0938 695.42487 3198.6494 2304813
2851.1343 695.42487 3198.6494 2502192
2865.4182 694.03058 3192.2363 2699571
2885.2227 693.9834 3192.0195 2567985
2914.522 696.20508 3202.238 2502192
2929.1448 694.91443 3196.3018 2567985
2950.6853 695.2713 3197.9431 2502192
2969.968 695.09503 3197.1323 2502192
2981.1531 693.03857 3187.6736 2436399
2998.9131 692.52783 3185.3242 2370606
3026.2332 694.2168 3193.093 2436399
3046.2385 694.2168 3193.093 2436399
3048.6567 690.23486 3174.7778 2370606
3077.2974 692.203 3183.8303 2370606
3100.6736 692.9693 3187.3547 2370606
3114.6685 691.64252 3181.2522 2501680
3143.7393 693.659 3190.5273 2699058
3168.4307 694.68994 3195.269 2436400
3194.582 696.02588 3201.4141 2436400
3219.905 697.16589 3206.6575 2173228
3247.3203 698.74194 3213.9067 2173228
3278.9187 701.19318 3225.1812 2239021
3297.5454 700.85736 3223.6365 2436400
nan nan nan 16777215
nan nan nan 16777215
nan nan nan 16777215
nan nan nan 16777215
nan nan nan 16777215
nan nan nan 16777215
nan nan nan 16777215
nan nan nan 16777215
-2754.6777 665.59869 2976.1501 3160636
-2735.9736 665.58466 2976.0874 3160635
-2706.7354 662.99017 2964.4866 3226428
-2678.9062 660.7074 2954.2795 3226428
-2657.613 660.01611 2951.1882 3226428
-2648.1152 662.26495 2961.2439 3226428
-2632.0559 662.89307 2964.0522 3358014
-2600.9824 659.7218 2949.8723 3423807
-2577.1917 658.36566 2943.8083 3489600
-2557.9426 658.15845 2942.8821 3423807
-2552.5493 661.53925 2957.9988 3358014
-2560.2874 668.39758 2988.665 3358014
-2506.825 659.26202 2947.8167 3423807
-2470.9836 654.65948 2927.2368 3358014
-2436.2246 650.27692 2907.6406 3423550
-2429.3901 653.33801 2921.3281 3489344
-2417.0542 654.95502 2928.5583 3423807
-2412.0098 658.58759 2944.8008 3753029
-2401.459 660.76111 2954.5193 3950407
-2411.1292 668.57532 2989.46 3884615
-2393.4929 668.88098 2990.8267 3753030
-2383.2891 671.28491 3001.5754 3687237
-2385.2859 677.1908 3027.9832 3621444
-2360.5498 675.54102 3020.6062 3687237
-2329.3411 671.99725 3004.7607 3818823
-2319.6638 674.65808 3016.6582 3884615
-2322.447 681.01636 3045.0886 3555906
-2293.104 677.98151 3031.5186 3424320
-2276.7297 678.76233 3035.01 3226941
-2271.8352 683.00763 3053.9924 3358527
-2268.3105 687.74036 3075.1541 3686724
-2237.7168 684.27667 3059.6667 3621699
-2218.5471 684.27667 3059.6667 3490370
-2199.7522 684.39331 3060.1882 3227198
-2182.7397 685.07147 3063.2205 3161148
-2160.4316 684.08472 3058.8086 3095611
-2143.365 684.75494 3061.8052 3095355
-2123.7021 684.60034 3061.114 3160891
-2108.7246 685.96698 3067.2249 3227198
-2097.4524 688.57513 3078.887 3555905
-2067.5137 685.04694 3063.1108 3424320
-2051.0168 685.94812 3067.1404 3424577
-2023.9213 683.28815 3055.2466 3358527
-2014.2844 686.52783 3069.7324 3226941
-1987.8617 684.05365 3058.6694 3292734
-1966.6827 683.35333 3055.5381 3161148
-1938.4756 680.17322 3041.3186 3095355
-1912.629 677.76648 3030.5569 3095099
-1902.6674 680.99695 3045.0017 2766134
-1898.8622 686.51868 3069.6914 2766134
-1865.786 681.4624 3047.083 2897207
-1849.861 682.63068 3052.3066 2963256
-1840.3207 686.20398 3068.2844 3029049
-1821.0038 686.16895 3068.1277 3094842
-1790.4807 681.86542 3048.885 3094842
-1770.2454 681.4292 3046.9346 3094842
-1759.6755 684.74475 3061.7595 3029049
-1770.0706 696.38116 3113.7908 3029049
-1750.5615 696.38116 3113.7908 3226685
-1704.4761 685.68976 3065.9851 3226428
-1677.3892 682.48462 3051.6536 3226684
-1661.4885 683.80939 3057.5774 3160892
-1644.3831 684.66339 3061.396 3160635
-1624.624 684.41974 3060.3064 3029306
-1609.9447 686.33575 3068.8735 2963769
-1601.484 690.9812 3089.6453 3226941
-1575.4335 688.05811 3076.575 3029562
-1569.9961 694.17676 3103.9338 2634804
-1540.1095 689.50305 3083.0359 2700597
-1510.1532 684.67902 3061.4656 3029562
-1491.4691 684.90717 3062.4858 3029562
-1472.6172 685.06323 3063.1838 2963769
-1455.1692 685.88513 3066.8589 3029562
-1433.8191 684.86523 3062.2983 3226941
-1418.5112 686.74292 3070.6941 3292734
-1405.312 689.70703 3083.948 3226941
-1383.522 688.47882 3078.4561 3358527
-1364.2344 688.47882 3078.4561 3292734
-1348.8472 690.47534 3087.3833 3161148
-1332.5588 692.06195 3094.4778 3490113
-1314.6151 692.82312 3097.8811 3490113
-1297.3668 693.97894 3103.0493 3424577
-1277.1658 693.56647 3101.2051 3555906
-1263.274 696.62061 3114.8611 3424320
-1247.8132 698.8916 3125.0159 3424320
-1236.4391 703.56042 3145.8918 3753285
-1235.6564 714.50494 3194.8291 3753285
-1194.8026 702.25769 3140.0667 3555906
-1175.9346 702.73901 3142.219 3358784
-1177.9515 715.93018 3201.2017 3621699
-1159.6984 717.0451 3206.1873 3686978
-1128.3654 709.96967 3174.5498 3489856
-1100.7301 705.00861 3152.3672 3555393
-1077.287 702.60034 3141.5989 3423807
-1058.1643 702.9726 3143.2634 3291964
-1031.9238 698.54083 3123.4473 3094842
-1011.4821 697.93872 3120.7551 3160635
-991.7605 697.81982 3120.2234 3226428
-975.78101 700.38208 3131.6802 3358014
-952.56677 697.74994 3119.9109 3358014
-930.54205 695.89716 3111.6265 3358014
-907.30219 693.03693 3098.8372 3292221
-887.09241 692.41669 3096.064 3292221
-867.3103 692.11005 3094.6926 3094842
-838.33209 684.28302 3059.6951 2765877
-823.12506 687.59351 3074.4976 2700084
-805.80188 689.25244 3081.9153 3292222
-787.15314 689.83118 3084.5032 3292221
-768.80237 690.70679 3088.4182 3029048
-743.26764 685.00677 3062.9312 3094841
-725.11957 685.99268 3067.3396 3160634
-705.90173 685.99268 3067.3396 3094841
-686.93036 686.23889 3068.4404 2897718
-665.46442 683.93549 3058.1411 3028279
-647.81525 685.53442 3065.2908 3028793
-629.34711 686.33807 3068.884 3028793
-612.17261 688.64758 3079.2107 3095099
-595.91534 692.17267 3094.9729 3292221
-568.18994 682.16638 3050.231 3160635
-553.6402 687.83282 3075.5676 2897463
-537.05005 691.28143 3090.9878 3029049
-519.68048 693.94733 3102.908 3029049
-500.42847 694.20911 3104.0784 3029049
-481.21088 694.54169 3105.5654 3029049
-460.14645 692.12439 3094.7568 3160635
-440.03638 690.99298 3089.698 3160635
-420.83957 691.25757 3090.8811 3094842
-401.67438 691.60223 3092.4221 3160635
-382.29938 691.60223 3092.4221 2963256
-363.24631 692.2157 3095.165 2963256
-343.63147 691.7674 3093.1606 3029049
-324.39868 692.08063 3094.5613 3094842
-305.48502 693.15778 3099.3777 3094842
-284.54572 689.47296 3082.9014 2897463
-265.23038 689.47296 3082.9014 2897463
-245.84421 689.27435 3082.0132 2831927
-226.98254 690.63776 3088.1096 2831670
-207.05525 688.71088 3079.4937 2502962
-187.17805 686.57153 3069.928 2700084
-167.97775 686.70953 3070.5449 2634291
-149.25644 689.0946 3081.2097 2568498
-130.16335 690.21692 3086.2278 2634291
-109.79005 683.75787 3057.3469 2765877
-91.129433 687.48914 3074.031 2963256
-72.342705 692.0141 3094.2637 2700597
-53.397324 697.77881 3120.04 2437425
-33.728119 695.28064 3108.8696 2240046
-14.267437 696.12714 3112.6548 2635061
5.2460675 697.69086 3119.6467 2700854
24.999372 703.53735 3145.7888 2700597
44.710365 703.56329 3145.9048 2832183
64.340401 702.68927 3141.9966 2963769
84.236519 704.44995 3149.8691 2963769
103.95932 704.36792 3149.5027 2963769
123.51539 703.36261 3145.0073 2964026
143.09186 702.73407 3142.197 2897976
162.64824 702.1709 3139.6787 2963769
182.31931 702.1709 3139.6787 2963513
201.91942 701.92426 3138.5759 2963256
221.26544 700.91656 3134.0701 2963256
240.99428 701.18683 3135.2786 3094842
260.55823 700.97284 3134.3218 3160635
279.98007 700.43335 3131.9094 3094842
298.92981 698.86078 3124.8779 3094842
319.04428 700.03717 3130.1379 3423807
336.30746 695.18341 3108.4348 3028793
355.78275 695.18341 3108.4348 2634804
377.54819 699.42596 3127.405 3556163
394.25372 694.33862 3104.6577 3753285
417.87738 701.3407 3135.9668 3095355
436.78546 700.15491 3130.6646 2963769
452.61551 694.34912 3104.7046 3095355
473.50864 696.46899 3114.1831 3555906
490.71039 693.20636 3099.5947 3819078
511.04016 694.44263 3105.1228 3490114
527.43524 690.43768 3087.2151 3358271
555.05774 700.89337 3133.9663 3424321
569.88818 695.03345 3107.7644 3621444
589.00574 694.61652 3105.9001 3358272
603.98285 689.49951 3083.02 2832184
623.75214 690.00085 3085.2617 3226428
639.50317 686.16071 3068.0908 3029562
661.98462 689.5553 3083.2693 2963512
681.56787 689.82416 3084.4714 2963256
699.55371 688.50592 3078.5774 2897464
716.99017 686.7323 3070.6467 2831670
738.16681 688.54004 3078.73 2831669
764.4823 694.92712 3107.2888 2766134
787.48822 698.06317 3121.3115 2832183
807.49817 698.45581 3123.0671 2897976
820.6568 693.04395 3098.8687 2766390
846.27039 698.15735 3121.7327 2766390
858.92126 692.58734 3096.8269 2832439
878.32385 692.58734 3096.8269 3095355
896.229 691.43207 3091.6614 3029819
921.02887 695.53241 3109.9954 2832183
940.51392 695.53241 3109.9954 2766390
960.51208 695.90411 3111.6575 2897976
981.84302 697.20746 3117.4851 2766647
1002.1962 697.77911 3120.0415 2832183
1020.8273 697.15308 3117.2419 3029562
1037.7577 695.41064 3109.4509 3029306
1055.6012 694.33307 3104.6328 2963513
1075.3596 694.53137 3105.5193 2897720
1094.3402 694.22906 3104.1677 2766134
1113.7887 694.22906 3104.1677 2766133
1133.6615 694.48889 3105.3296 2766133
1149.7032 692.43274 3096.1355 2766390
1166.5776 690.93787 3089.4517 2897976
1180.4797 687.76019 3075.2427 2963769
1202.8715 689.55121 3083.2512 3226684
1222.189 689.55121 3083.2512 3292221
1241.8828 689.76031 3084.186 3489600
1261.2063 689.76031 3084.186 3621186
1274.3937 686.45514 3069.4072 3423807
1293.6244 686.45514 3069.4072 3226428
1311.3378 685.66162 3065.8594 3423807
1328.8096 684.76666 3061.8577 3423808
1371.8209 696.87103 3115.981 3358014
1377.9261 690.15076 3085.9319 2963256
1390.4006 686.76245 3070.7817 3029049
1391.3408 677.84729 3030.9185 2897463
1408.5885 677.00995 3027.1746 2897463
1427.6176 677.03986 3027.3081 2831670
1442.8435 675.28894 3019.479 2765877
1479.114 683.3053 3055.3232 2371119
1498.2566 683.3053 3055.3232 2305326
1508.62 679.35193 3037.6462 2436912
1527.6519 679.35193 3037.6462 2371119
1547.9423 679.90479 3040.1182 2634291
1593.9175 691.58856 3092.3611 2700341
1587.8361 680.67603 3043.5669 2634291
1602.4138 678.77362 3035.0605 2568498
1623.2474 679.53473 3038.4636 2634291
1649.0044 682.31525 3050.8965 2700084
1670.3751 683.23798 3055.0225 2831671
1682.2327 680.29279 3041.853 2831670
1694.391 677.53375 3029.5164 2634291
1733.9661 685.67743 3065.9302 2305326
1758.3522 687.70233 3074.9841 2371119
1780.2462 688.71906 3079.5303 2436912
1799.4075 688.66821 3079.303 2371119
1817.0527 688.04437 3076.5134 2371119
1836.7762 688.21228 3077.2644 2305326
1851.3943 686.48364 3069.5349 2502705
1868.6532 685.7597 3066.2979 2436912
1887.89 685.76898 3066.3394 2436912
1912.2433 687.61792 3074.6067 2568498
1933.0077 688.15228 3076.9961 2502705
1957.6005 690.02545 3085.3718 2502962
1977.3651 690.17694 3086.0491 2700084
1991.1478 688.25769 3077.4675 2634291
2017.9211 690.82251 3088.9358 2436912
2046.7057 694.02063 3103.2358 2436143
2066.1484 694.02063 3103.2358 2173740
2073.7224 690.07111 3085.5759 2239533
2101.8999 692.98743 3098.616 2568498
2129.9661 695.81403 3111.2546 2700341
2154.1692 697.33875 3118.0723 2700084
2183.9963 700.64026 3132.8345 2831670
2214.8342 704.20447 3148.7715 2831670
2233.2988 703.80621 3146.991 2634291
2237.3904 698.92517 3125.1658 2502705
2259.2747 699.63867 3128.3562 2634548
2286.908 702.10492 3139.3838 2634548
2294.5227 698.43561 3122.9768 2765877
2335.2239 704.81445 3151.4993 2897463
2421.7036 724.78741 3240.8059 3358014
2429.9351 721.2041 3224.7834 3686979
2407.0898 708.53235 3168.1233 3160635
2410.9678 703.86963 3147.2744 2634291
2430.8716 703.92322 3147.5142 2634548
2450.5918 703.92322 3147.5142 2699571
2468.3713 703.37024 3145.0415 2699571
2491.2961 704.28058 3149.1121 2699571
2511.0974 704.30048 3149.2009 2567985
2531.679 704.53735 3150.26 2633778
2552.9712 704.96667 3152.1797 2633778
2582.8909 707.75348 3164.6406 2765364
2602.7183 707.75348 3164.6406 2765364
2620.0798 707.08801 3161.665 2765364
2638.2102 706.63837 3159.6545 2831157
2663.4048 708.07355 3166.0718 2896951
2700.1787 712.54321 3186.0574 2634034
2701.0728 707.5484 3163.7236 2502192
2685.5088 698.34662 3122.5789 2370862
2705.1423 698.36462 3122.6594 2436655
2724.7068 698.36462 3122.6594 2370606
2736.3757 696.35541 3113.6753 2436143
2744.6924 693.52747 3101.0308 2567985
2743.8391 688.43866 3078.2764 2633778
2760.6343 687.81793 3075.501 2699571
2776.5374 686.98511 3071.7773 2765364
2789.5986 685.46552 3064.9824 2765364
2809.3145 685.59058 3065.5417 2765364
2826.1028 685.00452 3062.9211 2502193
2840.5989 683.87439 3057.8679 2567985
2861.082 684.19116 3059.2844 2567985
2879.2261 683.94806 3058.1975 2633778
2897.8098 683.81201 3057.5889 2502193
2920.5017 684.64075 3061.2944 2567985
2942.9863 685.41034 3064.7358 2633778
2965.8086 686.24811 3068.4819 2502192
2980.6821 685.2478 3064.0088 2502192
2993.1135 683.70233 3057.0986 2501936
2994.9878 679.7804 3039.562 2501680
3031.6284 683.74915 3057.3079 2436401
3041.1333 681.5863 3047.6372 2370608
3076.6079 685.23456 3063.95 2304814
3095.0796 685.07422 3063.2327 2304814
3113.5732 684.92053 3062.5457 2370607
3147.084 688.052 3076.5476 2436400
nan nan nan 16777215
nan nan nan 16777215
nan nan nan 16777215
nan nan nan 16777215
nan nan nan 16777215
nan nan nan 16777215
nan nan nan 16777215
nan nan nan 16777215
-2640.4631 655.7804 2852.7529 3358014
-2635.1462 658.92017 2866.4114 3423807
-2616.144 658.65753 2865.2688 3358014
-2593.6975 657.51807 2860.312 3358014
-2573.4966 656.93597 2857.7798 3292221
-2558.647 657.72131 2861.1963 3358014
-2540.8018 657.74231 2861.2876 3358014
-2521.6018 657.4104 2859.8438 3489600
-2500.469 656.56622 2856.1714 3423807
-2480.7891 656.09418 2854.1177 3424063
-2459.4104 655.16272 2850.0657 3358527
-2450.8547 657.65845 2860.9226 3424321
-2432.9302 657.65845 2860.9226 3490370
-2399.9773 653.56592 2843.1194 3687492
-2371.1785 650.55188 2830.0078 3621699
-2357.7356 651.73718 2835.1643 3161148
-2354.9978 655.92212 2853.3694 3227197
-2376.4121 666.94946 2901.3401 4016457
-2358.2346 666.94946 2901.3401 4016456
-2341.606 667.39105 2903.261 3819078
-2328.7566 668.92505 2909.9343 3818823
-2316.5388 670.6662 2917.5083 3687493
-2305.3801 672.74402 2926.5474 3555907
-2287.1489 672.77472 2926.6809 3621444
-2267.9934 672.53192 2925.6248 3818822
-2249.6636 672.53192 2925.6248 3753030
-2260.1797 681.22626 2963.4463 3424319
-2222.7329 675.48859 2938.4868 3424320
-2211.4995 677.68799 2948.0544 3424320
-2184.6682 675.10437 2936.8152 3358527
-2180.9282 679.67303 2956.6897 3357759
-2175.4656 683.77856 2974.5496 3227197
-2155.8379 683.46436 2973.1826 3160892
-2134.3301 682.54333 2969.176 3095099
-2111.9424 681.32239 2963.8647 3095098
-2084.2197 678.34326 2950.905 3095098
-2065.7312 678.34326 2950.905 3095355
-2047.0532 678.2804 2950.6316 3095355
-2031.3821 679.22186 2954.7271 3226941
-2010.1371 678.29962 2950.7153 3226941
-1987.7466 676.97028 2944.9324 3292734
-1977.0892 679.64941 2956.5872 3358527
-1973.7233 684.90948 2979.4692 3226941
-1959.2196 686.3681 2985.8145 2963769
-1905.3241 673.92181 2931.6709 2766390
-1888.9456 674.63226 2934.7615 3095355
-1877.2007 677.02789 2945.1829 3095355
-1852.1287 674.61676 2934.6941 2963769
-1836.7314 675.71667 2939.4788 2963769
-1818.9889 675.96716 2940.5686 3095354
-1790.4312 672.16266 2924.0183 3029306
-1783.8802 676.62653 2943.437 2963256
-1774.5251 680.10913 2958.5867 2963256
-1755.6895 679.99316 2958.0823 3029049
-1734.5928 678.98975 2953.7173 2766134
-1718.5458 679.96265 2957.9497 2700084
-1697.0995 678.79724 2952.8799 2765877
-1680.215 679.45087 2955.7231 2963256
-1668.9995 682.43695 2968.7131 2765877
-1655.0925 684.37744 2977.1545 2831670
-1626.9464 680.40729 2959.8838 3095099
-1608.402 680.40729 2959.8838 3095355
-1582.1584 677.11243 2945.5505 3029562
-1566.2537 678.21655 2950.354 3029819
-1552.2047 680.1604 2958.8098 3161148
-1534.9303 680.72076 2961.2473 3095355
-1520.5043 682.57343 2969.3069 2897976
-1495.7924 679.79742 2957.2307 2963769
