# .PCD v0.7 - Point Cloud Data file format
VERSION 0.7
FIELDS x y z rgb
SIZE 4 4 4 4
TYPE F F F U
COUNT 1 1 1 1
WIDTH 1277
HEIGHT 1
VIEWPOINT 0 0 0 1 0 0 0
POINTS 1277
DATA ascii
163.88243 637.46429 1971.384 3487799
176.0554 636.81909 1969.3888 3158834
188.06795 635.71613 1965.9778 3290677
200.60031 636.39795 1968.0863 3224627
214.0842 639.8446 1978.7452 3093298
226.92694 641.1026 1982.6356 3619385
238.57822 639.03864 1976.2528 3554619
251.06023 639.29376 1977.0417 3554362
263.44702 639.29376 1977.0417 3488825
274.1821 635.46564 1965.2031 3357239
288.31339 639.49969 1977.6785 3488569
299.49359 636.92517 1969.7168 3817277
313.01422 639.33478 1977.1686 3817278
325.40176 639.33478 1977.1686 3751741
340.93646 645.29132 1995.5895 3751741
349.55627 638.2016 1973.6642 3554362
360.45068 635.6073 1965.6412 3422776
367.97791 627.44305 1940.3929 3291190
380.1098 627.40137 1940.2639 3422776
392.27927 627.4223 1940.3287 3554362
405.75354 629.46625 1946.6498 3356983
415.41296 625.64539 1934.8336 2830896
430.63589 630.18274 1948.8655 3094067
442.86145 630.20447 1948.9327 3291190
456.21332 631.78491 1953.8203 3554362
469.58655 633.31152 1958.5414 3488569
481.85742 633.31152 1958.5414 3817534
496.39307 636.21423 1967.5182 3685948
509.60706 637.32336 1970.9482 3290933
519.43304 634.24316 1961.4226 3159347
532.56836 635.25275 1964.5448 3159347
544.87683 635.25275 1964.5448 3356726
557.72046 635.86285 1966.4315 3159348
567.56073 633.0965 1957.8765 3488826
577.12592 630.14679 1948.7543 3883840
593.17694 634.25427 1961.4569 3489853
605.46613 634.25427 1961.4569 3818560
611.61005 627.94501 1941.9453 4015939
623.77698 627.94501 1941.9453 4410441
636.0108 628.01105 1942.1497 4870991
645.97949 625.88 1935.5592 4344648
654.69141 622.63232 1925.5156 3686718
661.03619 617.29163 1908.9993 3423546
681.24432 624.85669 1932.3944 3357753
696.40619 627.60968 1940.9082 3357753
712.63928 631.21704 1952.0641 3752511
727.3924 633.41394 1958.858 3621182
741.27661 634.79382 1963.1255 3816764
748.052 630.14032 1948.7344 3356727
759.7276 629.69788 1947.3661 3027761
767.27313 625.90033 1935.6219 2830639
773.63367 621.26935 1921.3005 2830639
788.43835 623.45746 1928.0674 3291190
809.63849 630.56042 1950.0336 3093811
821.62494 630.38312 1949.4851 3356983
833.51544 630.13843 1948.7285 3554362
846.93481 631.03998 1951.5166 3488569
860.98853 632.38171 1955.666 3488569
881.19647 638.1427 1973.4821 3093811
893.71771 638.25464 1973.8282 2896432
902.21515 635.52911 1965.3994 2896432
910.61877 632.81183 1956.9961 3225397
925.65613 634.71539 1962.8829 3422776
941.69861 637.24927 1970.7191 3422776
954.32458 637.43549 1971.295 3554362
967.9248 638.2594 1973.843 2896432
985.67151 641.76227 1984.6757 2764846
1002.6632 644.69238 1993.7372 2830895
1015.1546 644.69238 1993.7372 3159604
1025.4563 643.31866 1989.489 3225397
1037.9211 643.31866 1989.489 3356983
1060.7133 649.64386 2009.0497 3291190
1073.5562 649.79852 2009.5281 2764846
1083.8846 648.44537 2005.3434 2764846
1079.1809 638.23303 1973.7614 2830639
1096.8171 641.31445 1983.2908 2830639
1107.3496 640.21973 1979.9053 2896432
1116.4612 638.33691 1974.0826 3225397
1135.8855 642.32697 1986.4221 3554362
1148.3311 642.32697 1986.4221 3554362
1150.6895 636.74512 1969.1599 3488569
1171.5366 641.40417 1983.5684 3028018
1183.9644 641.40417 1983.5684 2962225
1198.4098 642.48602 1986.9138 3093811
1210.8585 642.48602 1986.9138 3291190
1210.9381 635.98969 1966.8239 3422776
1220.3794 634.49164 1962.191 3422776
1233.8629 635.10406 1964.085 3159604
1249.8997 637.00562 1969.9656 2896432
1256.9792 634.34955 1961.7517 3028018
1269.2701 634.34955 1961.7517 3159604
1280.9226 634.03351 1960.7743 3291190
1291.9829 633.43317 1958.9176 3554362
1299.0328 630.89636 1951.0725 3554362
1311.1423 630.84125 1950.902 3488569
1321.5448 629.97339 1948.2181 3488569
1330.4431 628.41101 1943.3864 3620155
1333.764 624.26642 1930.5691 3554362
1345.0225 623.87805 1929.3682 3686205
1347.9164 619.65149 1916.2971 3817534
1338.67 609.96771 1886.3497 3685948
1357.6854 613.2182 1896.4021 3356469
1395.9966 625.05194 1932.9984 3422264
1415.7635 628.4505 1943.5085 4145986
1427.9402 628.4505 1943.5085 3948607
1436.2119 626.7464 1938.2385 3422263
1456.8596 630.42639 1949.619 3027505
1479.0609 634.71179 1962.8719 3224628
1500.111 638.43658 1974.391 3290421
1523.5862 643.12415 1988.8875 3027249
1536.0472 643.12415 1988.8875 2830381
1554.925 645.78925 1997.1293 3027249
1566.444 645.37982 1995.8632 2830383
1584.2711 647.5553 2002.5909 2961969
1608.1179 652.13776 2016.7623 2830383
1613.2892 649.13434 2007.4741 2962225
1625.8666 649.13434 2007.4741 2699309
1637.9186 648.92615 2006.8303 2764589
1650.6703 648.99628 2007.0471 3159091
1661.5352 648.32904 2004.9838 3356983
1678.6094 650.07654 2010.3878 3225397
1690.2362 649.70416 2009.2363 3159861
1704.0165 650.15887 2010.6425 3356983
1719.3483 651.19458 2013.8455 3487800
1727.7469 649.6084 2008.9401 3356470
1733.7352 647.14539 2001.3232 3290677
1743.7965 646.22723 1998.4839 3488056
1762.1514 648.37366 2005.1218 3224884
1781.7178 650.93243 2013.0348 2961712
1809.6207 656.47943 2030.1892 2895919
1817.5684 654.76044 2024.873 2369575
1821.9058 651.77356 2015.6361 2501161
1841.2039 654.14313 2022.9641 2895919
1838.4297 648.69208 2006.1063 3093298
1863.0409 652.91229 2019.1577 3159091
1867.3613 650.01263 2010.1903 3159091
1892.384 654.30988 2023.4796 3027505
1910.8358 656.29297 2029.6124 3027762
1923.5518 656.29297 2029.6124 3159091
1925.538 652.65607 2018.3651 3488056
1946.9639 655.61267 2027.5087 3159091
1970.5066 659.23914 2038.7236 3093298
1983.28 659.23914 2038.7236 3159091
1991.2146 657.64111 2033.7816 3356470
2003.6648 657.54523 2033.4851 3224883
2018.3459 658.17816 2035.4424 3093300
2029.8638 657.77795 2034.2048 3159093
2043.9299 658.20343 2035.5208 3422265
2054.3123 657.4447 2033.1742 3290679
2066.9956 657.42719 2033.1201 3356472
2084.4258 658.9104 2037.707 3224886
nan nan nan 16777215
nan nan nan 16777215
nan nan nan 16777215
nan nan nan 16777215
nan nan nan 16777215
nan nan nan 16777215
nan nan nan 16777215
nan nan nan 16777215
nan nan nan 16777215
nan nan nan 16777215
nan nan nan 16777215
nan nan nan 16777215
-1664.4266 609.1792 1848.2887 3159604
-1657.9103 611.04553 1853.9513 2962225
-1652.1832 613.23114 1860.5826 2896432
-1643.2924 614.26514 1863.7198 2830639
-1621.1895 610.3399 1851.8105 3356983
-1626.7393 616.84381 1871.5437 3817534
-1619.8386 618.68677 1877.1354 3817534
-1598.4666 614.98895 1865.916 3620155
-1579.3531 612.11212 1857.1874 3356983
-1578.7067 616.40283 1870.2058 2896432
-1566.8265 616.33887 1870.0117 2962225
-1549.239 614.0119 1862.9514 3093811
-1536.077 613.41687 1861.1461 3093811
-1525.6187 613.9007 1862.614 3093811
-1511.5101 612.91174 1859.6135 3488569
-1501.9268 613.75677 1862.1774 3422776
-1493.1841 614.96112 1865.8315 3291190
-1476.0217 612.68958 1858.9395 3291190
-1468.1868 614.28448 1863.7786 3422776
-1454.9189 613.61359 1861.743 3422519
-1446.4811 614.98535 1865.9052 3422776
-1433.528 614.44421 1864.2631 3093811
-1418.5867 613.03491 1859.9872 2962225
-1372.5624 598.05865 1814.5485 3423032
-1381.7533 607.0918 1841.9556 3883583
-1386.6682 614.38257 1864.0762 4080449
-1370.8925 612.55206 1858.5222 3621181
-1345.803 606.49292 1840.1384 3555132
-1346.8828 612.22424 1857.5276 3160631
-1327.486 608.66669 1846.7339 2963251
-1300.2605 601.42554 1824.7638 3160373
-1294.774 604.20038 1833.1827 3357752
-1290.0269 607.37286 1842.8083 3291960
-1281.4619 608.789 1847.1049 3226168
-1271.5457 609.58313 1849.5143 3422520
-1265.6516 612.33783 1857.8722 3356983
-1253.5664 612.12048 1857.2128 3422776
-1238.1521 610.2583 1851.5627 3422776
-1226.437 610.20129 1851.3899 2896432
-1215.2157 610.3913 1851.9663 3422776
-1200.5684 608.84747 1847.2823 3422776
-1193.9409 611.38031 1854.9672 3291190
-1185.3149 612.92957 1859.6676 3225397
-1174.9196 613.58545 1861.6577 3225397
-1168.2072 616.19727 1869.5819 2962225
-1155.1002 615.45483 1867.3295 3159604
-1146.6176 617.18628 1872.5826 4080706
-1131.5518 615.37341 1867.0824 3949120
-1122.1069 616.61145 1870.8389 3554362
-1110.3856 616.61145 1870.8389 3620155
-1098.2875 616.40009 1870.1974 3620155
-1085.6151 615.85834 1868.5537 3554362
-1072.0212 614.77625 1865.2706 3488569
-1060.9014 615.1048 1866.2675 3489339
-1051.3545 616.36285 1870.0844 3555132
-1040.2354 616.71704 1871.1591 3686718
-1030.3972 617.84747 1874.589 3620925
-1021.4281 619.53113 1879.6971 3752768
-1008.0211 618.53088 1876.6625 4015940
-999.33716 620.43927 1882.4526 4147269
-987.54297 620.43927 1882.4526 3949890
-971.70612 617.86871 1874.6533 3555132
-960.67877 618.33075 1876.0553 3620925
-947.92987 617.6825 1874.0884 3884097
-956.12518 630.83673 1913.9991 4015683
-943.72662 630.56488 1913.1744 3950147
-927.72906 627.85046 1904.9386 3884354
-915.9657 627.9682 1905.2958 3752511
-900.68481 625.64557 1898.2489 3818304
-890.62549 626.9364 1902.1654 3884097
-883.69556 630.49506 1912.9625 3818304
-868.30139 628.02948 1905.4817 3818304
-867.06897 635.88092 1929.3036 3752511
-849.13696 631.5343 1916.1156 3818304
-831.61469 627.37207 1903.4872 4081733
-824.255 630.867 1914.0911 3884097
-815.04437 633.02753 1920.6461 3752511
-804.87231 634.49493 1925.0983 3686718
-792.73846 634.43689 1924.9222 3489339
-784.05542 637.18146 1933.2494 3028531
-764.00055 630.62549 1913.3582 3093810
-751.91266 630.5415 1913.1035 3422776
-741.77112 632.11346 1917.8729 3554362
-728.79596 631.28271 1915.3523 2962482
-706.8598 622.53217 1888.8026 3226167
-701.61249 628.43182 1906.7024 3357753
-691.2356 629.86169 1911.0408 3357753
-677.93512 628.63098 1907.3068 3357752
-670.91333 633.28265 1921.4203 3489339
-651.33398 626.03455 1899.429 3423546
-638.18079 624.80811 1895.7078 3291960
-627.17841 625.68079 1898.3557 3291960
-612.04626 622.3877 1888.3643 2962995
-597.92615 620.01428 1881.1631 3423546
-591.15479 625.31873 1897.2572 3357753
-579.50146 625.57092 1898.0225 3094581
-570.79425 629.08063 1908.671 3620925
-559.73901 630.09729 1911.7556 3686718
-545.05054 626.97913 1902.2949 3094581
-538.96179 633.83502 1923.0962 3357753
-527.1076 634.06909 1923.8063 3291960
-510.23657 628.13806 1905.8112 2699823
-493.84766 622.53052 1888.7976 2568237
-490.6568 633.69318 1922.6658 3884097
-479.021 634.23645 1924.314 4279112
-466.89175 634.13751 1924.0139 4410441
-454.18887 633.23364 1921.2715 3884097
-444.88165 637.14362 1933.1346 3226167
-437.54062 644.16724 1954.4447 3423546
-424.15738 642.44342 1949.2147 3357753
-411.94492 642.44342 1949.2147 3291960
-397.99127 639.64502 1940.724 3620925
-386.26929 640.36987 1942.9233 4015683
-374.09628 640.36987 1942.9233 3555132
-361.69632 639.96832 1941.7051 3160374
-343.00412 628.01819 1905.4475 3357753
-326.64465 619.63129 1880.0011 3226167
-314.86588 619.63129 1880.0011 3423546
-304.90305 623.34387 1891.2653 4147269
-292.3609 621.87024 1886.7943 4213062
-286.75632 635.65094 1928.6057 3818304
-273.44162 632.80121 1919.9596 3620925
-260.28305 630.06726 1911.6644 3291960
-247.11888 627.05524 1902.5259 3226167
-233.22008 621.77942 1886.5186 3094581
-220.08972 618.09839 1875.3502 3226167
-208.46486 618.46857 1876.4733 3489339
-196.66794 618.3421 1876.0896 3489339
-186.19727 622.6344 1889.1127 3357753
-174.44261 622.9245 1889.9929 3555132
-162.60123 622.9245 1889.9929 3686718
-150.24596 620.80121 1883.5507 3489339
-138.24097 619.8866 1880.7756 3686462
-126.74924 621.31757 1885.1174 3685691
-114.46401 618.75317 1877.3369 3554362
-103.38649 622.87756 1889.8506 3751484
-91.594086 623.20483 1890.8436 3685948
-79.417274 620.62531 1883.0171 3093811
-69.214668 635.2652 1927.4354 3685691
-57.366341 637.79633 1935.1149 3554362
-45.629463 643.25507 1951.677 3159861
-33.61628 647.38934 1964.2208 3356983
-21.448153 651.59161 1976.9708 3488569
-9.1110811 655.13397 1987.7185 3949120
3.3468733 655.97314 1990.2645 3883327
15.820222 656.1275 1990.733 3685948
28.334078 657.08527 1993.6389 3685948
40.981045 659.5993 2001.2667 3949120
53.5196 659.5993 2001.2667 3554362
65.195786 650.98846 1975.1407 3422776
77.4925 650.33258 1973.1508 3356983
89.792793 649.883 1971.7867 3949120
101.659 646.78046 1962.3734 4080706
113.0766 641.80127 1947.2661 3751741
124.64789 638.57916 1937.4901 3291190
136.00688 634.93787 1926.4423 3422263
148.21254 635.52057 1928.2102 3356470
160.08118 634.67926 1925.6576 3290677
170.91234 630.13086 1911.8574 3356470
184.4512 635.50732 1928.17 3356470
196.06404 633.99481 1923.5811 3290677
208.39163 634.83484 1926.1298 3224884
220.86554 636.00433 1929.6779 3093298
233.44083 637.3291 1933.6975 3027505
243.94698 633.15283 1921.0264 2830126
257.30872 636.43243 1930.9768 2961712
269.6185 636.93231 1932.4935 2895919
283.3735 640.65662 1943.7933 3027505
294.55426 638.4939 1937.2316 3093298
305.70886 636.448 1931.024 3159347
315.14575 631.11786 1914.8521 3290677
326.12894 629.1618 1908.9172 3290677
341.65207 635.79254 1929.0354 3027505
353.73807 635.79254 1929.0354 3159091
362.55789 630.11609 1911.8126 3488569
371.62564 625.21973 1896.9567 3949120
383.0741 624.508 1894.7974 4080706
393.48148 622.19281 1887.7729 3751741
403.01178 618.66644 1877.0737 3488569
421.55292 628.78033 1907.76 3225397
434.77042 630.61493 1913.3262 3554362
444.88919 627.97705 1905.3226 3488569
456.82666 627.97705 1905.3226 3225397
468.93811 628.21014 1906.0299 3817534
480.87997 628.21014 1906.0299 3356983
495.22388 631.27203 1915.3199 3489339
510.72061 635.62396 1928.5238 3752511
518.86017 630.82965 1913.9777 3818304
530.62305 630.55786 1913.1531 4015683
542.75262 630.72406 1913.6573 4278855
551.7085 627.27484 1903.1921 4344648
561.27484 624.65088 1895.2308 3752769
573.75916 625.3158 1897.2483 4279369
580.10803 619.40265 1879.3075 4279368
602.5993 630.6178 1913.3348 4213321
614.58691 630.6178 1913.3348 4805459
625.57397 629.61072 1910.2794 4542543
635.69263 627.78387 1904.7366 4673873
642.52924 622.8429 1889.7454 4213065
649.79596 618.49011 1876.5387 3226167
667.28809 623.85187 1892.8065 3160374
680.51666 625.10992 1896.6235 3226423
692.90118 625.56274 1897.9976 3554362
704.48175 625.28668 1897.16 3620155
723.45404 631.4718 1915.9259 3225397
735.45795 631.4718 1915.9259 3422776
749.17694 632.92078 1920.3223 3751741
754.16309 627.06287 1902.549 3422776
766.08313 627.06287 1902.549 2501930
772.31635 622.47931 1888.6422 2041123
791.82062 628.56903 1907.1188 3356983
810.63629 633.93921 1923.4122 3620155
816.12103 628.87952 1908.0609 3356983
828.11786 628.91168 1908.1583 3422776
842.63733 630.8313 1913.9828 3356982
859.37097 634.3316 1924.6028 3488571
871.42926 634.3316 1924.6028 3422777
883.52759 634.36035 1924.6902 3291190
900.06586 637.53326 1934.3169 2830639
910.77014 636.54443 1931.3168 2962482
922.87036 636.54443 1931.3168 3422776
937.33838 638.15637 1936.2075 3554362
949.09296 637.90344 1935.4399 2962225
962.14545 638.51825 1937.3053 2830639
980.2572 642.43335 1949.1841 2830639
992.46948 642.43335 1949.1841 3225397
1008.6267 644.95599 1956.8378 3028018
1016.7054 642.31427 1948.8228 2765103
1026.8887 641.04907 1944.9839 3028018
1047.9497 646.52454 1961.5969 2699053
1060.2397 646.52454 1961.5969 2501674
1069.2787 644.5647 1955.6508 2501931
1066.8545 635.81763 1929.1116 2764846
1079.5983 636.20502 1930.2869 2896432
1089.692 635.03943 1926.7504 3225397
1101.0966 634.65485 1925.5836 3422776
1127.629 642.90369 1950.6111 3422776
1138.8208 642.32306 1948.8495 3422776
1145.1787 639.05731 1938.9408 3225397
1150.2089 635.12683 1927.0156 3093811
1164.5199 636.34967 1930.7257 2962225
1177.6793 636.9245 1932.4697 2764846
1192.0204 638.12012 1936.0974 3356983
1200.9512 636.42462 1930.9532 3356983
1207.3396 633.42908 1921.8645 3422776
1213.3689 630.30615 1912.3894 3291190
1231.0858 633.25629 1921.3402 3028018
1247.1364 635.30042 1927.5422 2896432
1252.0024 631.6626 1916.5048 3028018
1258.3129 628.81555 1907.8667 3291190
1267.0156 627.20642 1902.9845 3422776
1275.5441 625.54175 1897.934 3291190
1284.1383 623.93982 1893.0735 3357239
1295.1963 623.55341 1891.9011 3554619
1302.4 621.33521 1885.1709 3488569
1308.0129 618.40485 1876.2799 3685178
1311.4396 614.5022 1864.4391 3882558
1313.9951 610.26385 1851.5797 3816765
1335.5623 614.85205 1865.5006 3356214
1350.4152 616.29645 1869.8831 3159347
1369.7516 619.74463 1880.345 3224884
1409.212 632.16144 1918.0184 3553849
1421.229 632.16144 1918.0184 3685435
1423.1143 627.69263 1904.4597 3159091
1431.9235 626.32666 1900.3153 3093298
1448.3342 628.28082 1906.2443 3159091
1470.3008 632.59338 1919.3289 3553849
1510.4886 644.61194 1955.7941 3553849
1519.0641 643.05487 1951.0698 3356727
1536.106 645.07806 1957.2084 3159348
1554.4587 647.61536 1964.9066 3027762
1596.614 659.95148 2002.3352 2502444
1600.9856 656.59924 1992.1643 2698283
1600.9895 651.52148 1976.7581 2764333
1613.3744 651.52148 1976.7581 2698540
1623.6875 650.69116 1974.2388 2698540
1633.8633 649.81879 1971.5919 3224884
1646.2159 649.81879 1971.5919 3093298
1663.7679 651.8559 1977.7727 2961712
1668.2627 648.78497 1968.4552 2895919
1679.0785 648.19916 1966.678 3093298
1686.2369 646.2204 1960.6742 3224884
1689.3706 642.73901 1950.1115 3290677
1715.7047 648.07104 1966.2891 3290677
1728.618 648.29376 1966.965 3027505
1739.7407 647.84656 1965.6082 3553849
1742.8973 644.46008 1955.3333 4672330
1755.1481 644.46008 1955.3333 4474951
1771.4764 645.9469 1959.8444 3619642
1802.5499 652.75293 1980.4941 3159091
1808.2112 650.32623 1973.1316 2961712
1822.238 650.92084 1974.9357 2961712
1840.6656 653.06891 1981.4529 2961712
1852.7719 652.96027 1981.1233 3027505
1867.5775 653.7981 1983.6654 3027762
1879.2029 653.5188 1982.8181 3027505
1891.0768 653.3291 1982.2426 3093298
1910.632 655.77832 1989.6736 3093298
1923.5737 655.94067 1990.166 3093298
1935.1865 655.65045 1989.2856 3093298
1946.8627 655.3855 1988.4817 3290677
1960.7925 655.87762 1989.9749 3224883
1975.543 656.63635 1992.2769 3422265
1988.0251 656.63635 1992.2769 3356472
2008.2332 659.17224 1999.9708 3619644
2011.5548 656.16827 1990.8567 3488058
2022.4186 655.64655 1989.2736 3422265
2029.3927 653.87781 1983.9072 3356472
nan nan nan 16777215
nan nan nan 16777215
nan nan nan 16777215
nan nan nan 16777215
nan nan nan 16777215
nan nan nan 16777215
nan nan nan 16777215
nan nan nan 16777215
nan nan nan 16777215
nan nan nan 16777215
nan nan nan 16777215
nan nan nan 16777215
-1633.7987 609.27631 1814.2776 2962225
-1624.2581 609.9621 1816.3198 2896432
-1615.2571 610.86176 1818.9987 2962225
-1607.2566 612.15521 1822.8505 3159604
-1590.1071 609.9577 1816.3066 3554362
-1578.7274 609.9577 1816.3066 3422776
-1580.2423 614.97583 1831.2495 3093811
-1586.4027 621.88849 1851.8337 3159604
-1572.5005 620.98029 1849.1293 3291190
-1549.7681 616.54559 1835.9238 3225397
-1536.1367 615.69238 1833.3832 3291190
-1531.0558 618.27924 1841.0862 3422776
-1489.1625 605.9267 1804.3033 3620155
-1484.4546 608.63135 1812.3572 3554362
-1475.2192 609.50708 1814.9648 3554362
-1466.3861 610.56396 1818.1119 3554362
-1458.3192 611.9588 1822.2655 3554362
-1441.2216 609.55627 1815.1113 3356983
-1424.8678 607.43262 1808.7876 3554362
-1413.1232 607.25555 1808.2604 3488569
-1402.0938 607.3855 1808.6472 3356983
-1388.6304 606.45453 1805.875 3291190
-1379.4948 607.41388 1808.7318 3422776
-1369.4351 607.97882 1810.4141 3620155
-1360.3695 608.99829 1813.4497 3620155
-1339.9618 604.91461 1801.2896 3093811
-1353.0348 616.00452 1834.3126 3685948
-1326.1519 608.93762 1813.269 4409414
-1307.7432 605.67334 1803.549 3356983
-1308.228 611.17889 1819.9431 2765103
-1294.7479 610.19983 1817.0276 2962482
-1277.6494 607.48285 1808.9371 3160118
-1267.951 608.26727 1811.2729 3357753
-1253.5426 606.78595 1806.8619 3160374
-1252.9856 612.04358 1822.5178 2896432
-1247.8325 615.13226 1831.7153 3422776
-1225.4723 609.71704 1815.5901 3488569
-1212.9877 609.15997 1813.9312 3620155
-1203.1782 609.94843 1816.2791 3751741
-1197.8739 613.05762 1825.5376 3685948
-1179.3383 609.38995 1814.6161 3356983
-1167.4207 609.10376 1813.7639 3685948
-1155.9154 609.02924 1813.5419 3883327
-1155.1793 614.68365 1830.3794 3356983
-1137.3966 611.28973 1820.2732 2896432
-1107.999 601.52155 1791.1858 3093811
-1126.5333 617.84137 1839.7823 4080706
-1103.7684 611.6142 1821.2394 3883327
-1089.4077 609.96252 1816.3209 3751741
-1084.2765 613.49805 1826.8489 3751741
-1074.2173 614.29089 1829.2098 3883070
-1060.4171 612.9386 1825.1831 3949120
-1049.2971 613.12286 1825.7317 4014913
-1035.0608 611.47015 1820.8104 3818304
-1022.8578 610.99518 1819.3961 3686718
-1011.0449 610.74524 1818.6519 3686718
-1005.3785 614.24481 1829.0726 3686718
-1006.3879 621.95081 1852.0192 4147526
-993.36639 621.06427 1849.3793 4015683
-976.14508 617.5 1838.7659 3884097
-956.84686 612.52106 1823.9397 3620925
-948.64099 614.60828 1830.155 3357753
-937.26202 614.66571 1830.3259 3291960
-935.73309 621.26428 1849.975 3555132
-927.59229 623.5835 1856.881 3884097
-909.67889 619.30847 1844.1509 3686718
-895.90741 617.7796 1839.5983 3620925
-886.44574 619.22131 1843.8915 3752511
-878.25696 621.60205 1850.9808 3489339
-870.4093 624.2912 1858.9884 3423546
-862.87115 627.27826 1867.8832 3620925
-852.48267 628.24695 1870.7677 3752511
-839.82507 627.547 1868.6835 3489339
-827.73663 627.25867 1867.8248 3555389
-816.83777 627.8764 1869.6643 3555132
-808.8606 630.79059 1878.3419 4015683
-797.09216 630.79059 1878.3419 4147269
-781.00037 627.31793 1868.0012 4147269
-769.11121 627.16663 1867.5507 3686718
-753.97723 624.32379 1859.0853 2765616
-742.15765 624.17926 1858.655 2765103
-730.19653 623.90918 1857.8508 3356983
-724.7417 629.27972 1873.8429 3159347
-711.93817 628.34119 1871.0482 2962225
-693.48151 622.2984 1853.0544 2896432
-683.68768 623.95593 1857.99 2962225
-672.03192 623.94208 1857.9487 3225397
-656.86023 620.6059 1848.0145 3356727
-653.41486 628.42792 1871.3065 3554106
-640.20538 626.97345 1866.9756 3291960
-625.82428 624.29614 1859.0031 3226167
-615.26636 625.40338 1862.3002 3489339
-602.30188 624.05994 1858.2997 3818304
-594.6145 628.23901 1870.744 4278855
-583.7641 629.17719 1873.5376 4147269
-566.71545 623.3363 1856.1448 3818304
-555.83313 624.17511 1858.6426 3555388
-543.94855 623.90021 1857.8242 3423546
-538.70197 631.39355 1880.1375 3423546
-526.9223 631.39355 1880.1375 3291960
-512.89587 628.63971 1871.9371 3555132
-498.44266 625.22174 1861.7593 3620925
-488.22189 627.07599 1867.2809 2765616
-474.96924 625.03168 1861.1932 2831665
-473.2363 638.42511 1901.0758 4476234
-458.04562 633.88623 1887.5599 4015683
-449.37125 638.36353 1900.8923 3028788
-441.72165 644.58002 1919.4036 3094581
-429.69601 644.58002 1919.4036 3226167
-417.33173 644.05743 1917.8474 3291960
-403.84991 641.72809 1910.9113 3357753
-393.26331 643.99756 1917.6691 3686718
-382.88177 646.75641 1925.8843 3226167
-365.82437 638.05109 1899.962 2831409
-349.32361 629.76373 1875.2843 3028788
-336.41403 627.59912 1868.8385 3620925
-322.03497 622.43799 1853.4701 2831666
-310.42242 622.43799 1853.4701 3555132
-302.04486 629.17676 1873.5363 4476234
-289.40134 627.21484 1867.6942 3949890
-277.77243 627.37921 1868.1837 3884097
-267.76492 631.38129 1880.1008 3686718
-251.47594 620.25848 1846.98 3752511
-240.72673 622.38556 1853.3138 2239272
-230.11502 625.10168 1861.4019 2634287
-218.07797 624.02924 1858.2084 2765103
-203.86021 616.24384 1835.0253 3291447
-193.74713 620.67725 1848.2269 3357497
-182.50285 621.82013 1851.6301 3686718
-170.07504 618.81195 1842.6726 3292216
-157.1505 613.42664 1826.6364 3357753
-146.72 617.69543 1839.3478 3094581
-135.97841 621.27057 1849.9937 3028531
-123.88009 618.7356 1842.4451 3160375
-112.1594 617.75958 1839.5389 3291959
-101.05376 620.33557 1847.2095 3818304
-89.26947 618.87317 1842.8549 3752512
-78.004753 621.11328 1849.5254 2962738
-66.770538 624.42041 1859.3732 3028532
-55.659515 630.521 1877.5392 3225397
-43.972832 631.62244 1880.8191 3488569
-32.367462 635.12585 1891.2515 3620155
-20.914663 647.39868 1927.7969 3620155
-8.9379692 654.83875 1949.9515 3883327
3.2508738 649.20551 1933.1771 4409671
15.332534 647.92529 1929.365 4080963
27.436762 648.30713 1930.502 3751997
39.492027 647.65234 1928.5521 3554362
51.393646 645.37494 1921.7706 3685948
63.164612 642.63281 1913.6052 3685948
75.924019 649.21759 1933.2133 3817534
88.257553 650.84998 1938.074 3949120
100.59843 652.13519 1941.901 3883327
112.25253 649.17114 1933.075 3028018
123.3595 643.92859 1917.4639 3356726
133.06146 632.93329 1884.7223 3619642
144.0609 629.39905 1874.1982 3488056
155.25523 627.18488 1867.605 2830126
168.04449 631.27258 1879.7772 2896176
179.52217 630.2204 1876.6442 3356470
191.27992 630.2204 1876.6442 3422263
203.69016 632.24561 1882.6748 3290677
216.28558 634.59253 1889.6632 2895919
227.46049 632.74432 1884.1597 3290677
239.26534 632.74432 1884.1597 3093298
251.21182 633.10126 1885.2225 3027505
266.21811 640.7912 1908.1213 3751228
277.43286 639.086 1903.0438 2895919
287.6983 635.42474 1892.1412 2895919
299.24701 634.77533 1890.2075 2895919
310.9444 634.4787 1889.3243 3093555
323.5976 636.08264 1894.1005 3224884
334.28311 633.84216 1887.429 2896176
342.65973 627.52643 1868.6221 3158834
353.97379 626.82971 1866.5475 3751997
365.21365 626.05035 1864.2267 3685948
376.85049 625.97876 1864.0135 3422776
388.14041 625.35254 1862.1487 3751741
400.73502 626.80347 1866.4694 3488569
415.81131 631.94385 1881.7761 3159604
424.44565 627.28033 1867.8892 3422776
436.86584 628.31189 1870.9609 3488569
448.58798 628.31189 1870.9609 3028018
460.01224 627.90521 1869.7501 3554362
471.87311 628.09998 1870.3301 3225396
485.8028 630.97235 1878.8833 3160374
497.57462 630.97235 1878.8833 3489339
509.17578 630.76099 1878.2539 3489339
520.26794 629.94293 1875.8179 3752511
534.78552 633.21686 1885.5668 4213062
542.57428 628.55408 1871.6823 4147269
551.70258 625.6076 1862.9083 4081476
564.46436 626.81818 1866.5131 4016196
576.15863 626.81818 1866.5131 3423802
583.35925 622.02667 1852.2451 3752768
594.96417 622.02667 1852.2451 4344648
608.11719 623.61426 1856.9725 4344392
616.82556 620.66986 1848.2048 4410440
628.40515 620.66986 1848.2048 4213318
638.4856 619.216 1843.8756 3028787
651.96136 621.0481 1849.3312 3094581
664.42212 621.86621 1851.7673 3290933
683.72168 628.9472 1872.8529 3356983
693.59497 627.26447 1867.842 3751741
701.79883 624.15283 1858.5763 3554362
713.53973 624.23712 1858.8273 3291190
730.4577 628.77502 1872.3402 3685948
738.85339 625.94965 1863.9268 3554362
746.51666 622.6012 1853.9561 3949120
756.00574 620.85486 1848.7557 3685948
777.40234 628.79242 1872.392 3028018
787.73846 627.68085 1869.082 3159604
796.66272 625.49341 1862.5682 3028018
810.61292 627.25818 1867.8232 3291190
824.04266 628.57574 1871.7466 3159604
839.9928 631.75177 1881.2042 2962225
851.77911 631.75177 1881.2042 3093811
859.54211 628.80847 1872.4398 3225397
871.2735 628.80847 1872.4398 3620155
886.6192 631.38232 1880.104 3028018
904.8833 635.93958 1893.6744 3488569
922.23016 639.74274 1904.9993 3225397
935.92523 640.94781 1908.5878 3159604
946.61896 640.09302 1906.0422 2633260
958.56091 640.09302 1906.0422 2567467
975.43152 643.34369 1915.7222 2764846
986.90588 642.99951 1914.6973 2764846
1001.0157 644.36011 1918.7487 2633260
1013.0373 644.36011 1918.7487 2764846
1027.2865 645.76044 1922.9185 2699053
1030.4138 640.21802 1906.4147 2370088
1040.033 638.78992 1902.1621 3093811
1046.4005 635.41962 1892.1261 3817534
1046.1616 628.15814 1870.5032 3685948
1061.0848 630.06061 1876.1682 3685948
1078.1787 633.19611 1885.5051 3817534
1086.0706 630.91815 1878.7218 4080706
1097.8413 630.91815 1878.7218 3422776
1128.8096 641.83374 1911.2257 2962225
1132.7861 637.33386 1897.8263 2962225
1139.5352 634.47125 1889.3021 3093811
1160.266 639.37219 1903.896 2962225
1165.5122 635.72736 1893.0425 2699053
1179.5842 636.92145 1896.5983 3225397
1191.4669 636.92145 1896.5983 3356983
1191.7773 630.79626 1878.3589 3291190
1203.5377 630.79205 1878.3463 3159604
1214.6522 630.4527 1877.3357 3159604
1224.2852 629.35809 1874.0764 3159604
1229.271 625.91821 1863.8331 2962482
1240.9485 625.91821 1863.8331 3225397
1242.6753 620.94598 1849.0271 3422776
1252.9761 620.3103 1847.1343 3422776
1263.1895 619.64343 1845.1484 3356983
1272.4122 618.5072 1841.7649 3422519
1275.9731 614.66376 1830.3203 3422263
1284.5729 613.29468 1826.2434 3422263
1296.7858 613.65942 1827.3296 3356470
1308.2345 613.65942 1827.3296 3290677
1319.1016 613.38892 1826.524 3356470
1330.5453 613.38892 1826.524 3224884
1346.3582 615.38593 1832.4707 3159091
1352.7014 613.05743 1825.537 2961712
1372.6606 616.88715 1836.9409 2961712
1393.7776 621.16919 1849.6918 3027505
1406.4688 621.65637 1851.1425 2895919
1427.9625 625.99451 1864.0605 3422263
1459.8529 634.78302 1890.2305 3751228
1475.0955 636.24933 1894.5969 3882814
1493.978 639.24988 1903.5317 4080193
1516.7582 643.85724 1917.2515 3817021
1544.0002 650.27155 1936.3514 3093298
1567.9475 655.20892 1951.0538 2764333
1579.9181 655.10382 1950.741 2172196
1605.2638 660.50372 1966.8206 2369575
1617.5864 660.50372 1966.8206 2566954
1602.5677 649.42383 1933.8274 2830126
1603.2908 644.84167 1920.1826 2961712
1615.3987 644.8725 1920.2747 2895919
1611.89 638.71484 1901.9386 2501161
1623.8556 638.73431 1901.9963 2500904
1634.381 638.19104 1900.3788 2632233
1643.2847 637.02704 1896.9126 2566697
1658.1212 638.16309 1900.2954 2369832
1670.0844 638.18488 1900.3605 2501161
1685.4023 639.47931 1904.215 2764333
1700.6649 640.73474 1907.9534 3027505
1711.2561 640.22491 1906.4351 3159091
1730.6018 642.97467 1914.6233 3027505
1742.5975 642.97467 1914.6233 3093298
1759.0038 644.59094 1919.4362 3356470
1766.696 643.01373 1914.7395 3093298
1781.9105 644.17706 1918.2036 3027505
1802.5254 647.2641 1927.396 3093298
1814.6012 647.2641 1927.396 3093298
1826.2532 647.11389 1926.9489 3093555
1847.0037 650.16852 1936.0447 2961712
1863.0637 651.54291 1940.1375 2961712
1878.0498 652.52643 1943.0659 2961712
1891.6218 653.00903 1944.5032 3224884
1910.431 655.28186 1951.2712 3290677
1922.6565 655.28186 1951.2712 3290676
1932.3779 654.4339 1948.7461 3159093
1950.9109 656.56201 1955.0831 3224886
1957.5477 654.68506 1949.494 3685437
1972.2716 655.51923 1951.9779 3817023
1979.7133 653.93762 1947.2682 3882816
1983.5206 651.18225 1939.0635 3751230
nan nan nan 16777215
nan nan nan 16777215
nan nan nan 16777215
nan nan nan 16777215
nan nan nan 16777215
nan nan nan 16777215
nan nan nan 16777215
nan nan nan 16777215
nan nan nan 16777215
nan nan nan 16777215
nan nan nan 16777215
nan nan nan 16777215
-1588.6095 603.41846 1764.0964 3620155
-1586.3837 606.79468 1773.9669 3554362
-1581.9492 609.3678 1781.4895 3488569
-1571.2743 609.55664 1782.0415 3356983
-1554.213 607.25293 1775.3065 3751741
-1542.1665 606.8894 1774.2439 3751741
-1542.0269 611.24036 1786.9639 3225397
-1542.7238 615.98901 1800.8466 2962225
-1530.6254 615.66095 1799.8876 3159604
-1517.2145 614.7962 1797.3595 3159604
-1506.0876 614.85101 1797.5197 2962225
-1498.3236 616.28973 1801.7258 3028018
-1479.1298 613.01343 1792.1475 3554362
-1466.7598 612.53662 1790.7535 3751741
-1446.2081 608.6095 1779.2725 3685948
-1433.2772 607.85321 1777.0615 3685948
-1419.7562 606.83289 1774.0786 3554362
-1407.3568 606.2796 1772.4612 3554362
-1391.6348 604.27484 1766.6001 3554362
-1375.6052 602.10327 1760.2516 3685948
-1363.5494 601.65009 1758.9266 3620155
-1347.0919 599.23132 1751.8555 3488569
-1343.8424 602.69647 1761.9858 3422776
-1333.7419 603.12115 1763.2273 3225397
-1317.3235 600.67194 1756.0671 3291190
-1306.5662 600.78455 1756.3962 3225397
-1303.3129 604.37891 1766.9044 3356983
-1292.9071 604.68964 1767.8129 3029045
-1288.947 608.04651 1777.6266 3160118
-1274.4602 606.4527 1772.967 2897459
-1261.5785 605.60132 1770.478 3094581
-1255.6143 608.08496 1777.739 3226167
-1243.4617 607.58923 1776.2899 3291960
-1241.8452 612.27924 1790.0011 2700079
-1232.6952 613.30664 1793.0046 3028018
-1235.8676 620.5401 1814.1517 3620155
-1211.0203 613.70831 1794.179 3554362
-1193.0037 610.24249 1784.0466 3554362
-1179.4203 609.00024 1780.4149 3620155
-1170.639 610.23761 1784.0322 3685948
-1158.9812 609.98486 1783.2933 3817534
-1145.0276 608.50702 1778.9729 3817534
-1136.1877 609.74451 1782.5908 3751741
-1125.0193 609.74451 1782.5908 3488569
-1116.4678 611.17712 1786.7791 3291190
-1103.5431 610.22052 1783.9823 3422776
-1094.6621 611.50317 1787.7323 3883327
-1082.6758 611.05981 1786.436 3817534
-1070.2529 610.35822 1784.3849 3817791
-1061.2876 611.6344 1788.1158 3950147
-1050.3403 611.78345 1788.5516 4015939
-1035.5602 609.67908 1782.3994 3949890
-1024.4882 609.73572 1782.5651 3949633
-1011.8018 608.82233 1779.8947 3818305
-999.6731 608.22778 1778.1567 3686718
-988.59967 608.26923 1778.2777 3620925
-977.45819 608.26923 1778.2777 3818304
-964.38354 607.05231 1774.7201 3686975
-955.14606 608.25061 1778.2233 3620925
-947.56415 610.54388 1784.9277 3620925
-933.79199 608.85577 1779.9927 3489339
-925.32593 610.62842 1785.1748 3357753
-914.84161 611.09619 1786.5425 3423546
-904.82397 611.89117 1788.8667 3555132
-892.89459 611.39716 1787.4222 3555132
-882.06512 611.65314 1788.1708 3423546
-878.72412 617.17542 1804.3152 3620925
-870.85834 619.62213 1811.4681 4081733
-852.30536 614.42908 1796.2861 3818304
-836.54156 611.1347 1786.6549 3292217
-833.33051 617.04565 1803.9357 3291447
-824.93597 619.22833 1810.3167 3291447
-812.9588 618.745 1808.9037 3488826
-801.61725 618.73871 1808.8853 3751741
-789.96198 618.48651 1808.1481 3685948
-780.06805 619.62616 1811.4797 3489081
-763.00037 615.01697 1798.0049 2896945
-752.62921 615.74835 1800.1429 2962995
-753.98932 626.24561 1830.8318 3160117
-741.96881 625.78192 1829.4762 3291447
-724.07379 620.2713 1813.366 3225911
-706.40393 614.78101 1797.3149 3488826
-697.43549 616.80829 1803.2417 3356983
-689.06799 619.44257 1810.9431 3620412
-681.35315 622.7616 1820.6462 3291190
-667.16528 620.17645 1813.0886 3093811
-651.28076 615.89734 1800.5786 3225397
-639.59387 615.5069 1799.4373 3357496
-626.87189 614.0885 1795.2905 3489339
-620.90588 619.35736 1810.6941 3094581
-613.80902 623.67334 1823.3118 3160374
-607.5929 629.06482 1839.0739 3884097
-593.61536 626.47375 1831.4989 3884097
-580.39459 624.59497 1826.0062 3818304
-567.35236 622.83661 1820.8656 3620925
-554.52417 621.24585 1816.215 3555389
-546.41742 624.98877 1827.1575 3686718
-534.96967 624.98877 1827.1575 3555132
-524.96094 626.7066 1832.1796 3489339
-513.435 626.6496 1832.0128 3094581
-503.0257 627.98389 1835.9136 3620925
-489.41943 625.2962 1828.0562 3489596
-480.25201 628.28668 1836.799 2963252
-471.10873 631.45642 1846.0657 2831409
-464.04166 637.63867 1864.1394 4015683
-452.74612 638.17975 1865.7213 3884097
-442.73276 640.60474 1872.8108 3489339
-432.42529 642.72461 1879.0083 3291960
-421.66153 644.26605 1883.5146 3620925
-408.23813 641.71539 1876.0579 3620925
-397.34189 643.10388 1880.1169 3818304
-385.56235 643.10388 1880.1169 3884097
-374.21487 643.84717 1882.29 3291960
-358.96109 637.69928 1864.3167 3160374
-344.61908 632.81201 1850.0288 3028788
-330.8002 628.57867 1837.6526 3028788
-318.67188 627.36823 1834.1138 2831666
-303.05847 618.94952 1809.5016 3357753
-289.97586 615.24597 1798.6742 3423546
-278.06589 613.8316 1794.5393 3028788
-265.91641 611.74701 1788.4451 3686718
-257.9498 619.52509 1811.1843 3817534
-246.60216 619.52509 1811.1843 3619899
-235.48723 620.13788 1812.9758 2238245
-224.8284 622.07477 1818.6384 2304295
-213.43408 622.07477 1818.6384 3422519
-198.4873 611.1369 1786.6615 3422519
-186.93333 609.96228 1783.2275 3291190
-177.07327 614.51697 1796.543 3619899
-165.76271 614.31439 1795.9508 3554105
-152.96396 608.16541 1777.9742 3159604
-141.8244 608.16541 1777.9742 3159604
-131.35143 611.26746 1787.0431 3028018
-120.03792 610.67163 1785.3013 2896433
-108.6571 609.57568 1782.0973 2699310
-99.104225 619.65808 1811.5731 2830639
-86.964554 614.08246 1795.2728 3225397
-75.530937 612.5766 1790.8704 3225397
-64.784958 617.09515 1804.0804 2962225
-53.477829 617.04901 1803.9454 2764846
-42.826744 626.57623 1831.7983 3093811
-31.826616 636.10284 1859.6495 3620155
-20.258038 638.71045 1867.2727 3685948
-8.6567936 646.00861 1888.6089 3685948
3.1759269 646.00861 1888.6089 3488569
14.883392 640.61731 1872.8475 3751741
26.573948 639.57239 1869.7927 4146499
38.157898 637.38617 1863.4014 3751741
49.991657 639.41956 1869.3458 3751741
61.711548 639.50092 1869.5839 3817534
73.692299 641.82843 1876.3882 3883327
85.597527 642.94812 1879.6616 3817277
97.374184 642.94812 1879.6616 3817278
107.60318 633.83167 1853.0096 3685947
117.865 626.66528 1832.0587 3225396
130.96927 634.54254 1855.0879 3554362
141.38861 629.1875 1839.4324 3554106
152.71931 628.38965 1837.0999 3027506
164.22931 628.38965 1837.0999 3290677
175.1624 626.32672 1831.069 3685436
186.77719 626.80524 1832.4679 3290677
198.85596 628.69513 1837.993 3028275
210.82846 630.06067 1841.9852 3423032
221.29391 627.01428 1833.079 3488569
234.36766 631.29425 1845.5916 3422776
250.56781 643.19714 1880.3896 3620155
260.50418 638.67413 1867.1665 3883583
272.93121 640.38373 1872.1647 3094068
284.46121 639.93451 1870.8514 3093555
293.7431 634.66364 1855.4419 2961969
298.82242 621.05951 1815.6702 3488569
308.78418 618.22852 1807.3938 4014656
320.54865 619.07941 1809.8813 3225397
335.58127 625.96832 1830.0212 3225397
348.97531 629.44659 1840.1898 3685691
357.40445 624.03357 1824.3649 3554362
368.64377 623.71057 1823.4207 3225397
379.9931 623.58759 1823.061 3488569
391.88608 624.33783 1825.2544 3554362
408.71991 632.69397 1849.6836 3291190
416.97665 627.67816 1835.0198 3356983
428.47363 627.67816 1835.0198 3422776
440.69855 628.71661 1838.0558 3949120
449.33908 624.71887 1826.3684 4146499
460.78183 624.71887 1826.3684 3817533
469.92416 621.67554 1817.4712 3555132
484.18033 625.38141 1828.3053 3752511
495.80908 625.60083 1828.9468 4015683
507.46701 625.84625 1829.6643 3818304
518.65723 625.51672 1828.701 3818304
528.77924 623.9411 1824.0945 3818304
536.47534 619.63013 1811.4915 3884354
547.27667 619.01007 1809.6787 3620925
556.19855 616.33252 1801.8507 3423546
569.8313 618.87781 1809.292 3423802
581.16705 618.87781 1809.292 3686462
593.08862 619.48962 1811.0806 3949891
602.3537 617.3559 1804.8427 4343878
618.94019 622.66626 1820.3676 4475464
625.01581 617.40161 1804.9763 3159604
638.01117 619.03809 1809.7606 3159604
651.68274 621.26208 1816.2625 3159604
664.22754 622.35394 1819.4545 3093811
684.32019 630.36169 1842.8651 3488569
689.54614 624.63647 1826.1274 3488569
699.94531 623.70789 1823.4127 3356983
710.78778 623.19781 1821.9215 3554362
722.56384 623.5094 1822.8325 3685948
735.19226 624.53546 1825.8323 3817534
742.21887 620.8443 1815.041 3422519
759.86957 626.01715 1830.1639 2895919
771.33612 626.01715 1830.1639 2830126
780.354 624.05896 1824.4391 3027505
790.4093 622.97491 1821.2699 3290933
805.74438 626.02386 1830.1835 3159604
817.12927 625.96124 1830.0004 3028020
827.04492 624.79034 1826.5774 3159605
840.72522 626.45667 1831.4487 3356983
858.90747 631.38745 1845.864 3356983
871.1062 631.84729 1847.2083 2896432
888.79474 636.22467 1860.0056 3291190
904.74866 639.26312 1868.8887 3093811
913.50629 637.20435 1862.8698 2764846
940.8891 648.02539 1894.5051 2435881
949.5155 645.8194 1888.0559 2633517
955.78943 642.0874 1877.1455 3093811
971.66718 644.81946 1885.1326 3225397
978.8064 641.75647 1876.1777 2567467
990.56122 641.75647 1876.1777 2370088
1009.9537 646.64661 1890.4742 3094068
1010.711 639.63019 1869.9615 3422776
1011.4907 632.78839 1849.9597 3028018
1026.4891 634.8963 1856.1221 3028018
1024.9014 626.81299 1832.4906 3422776
1047.6876 633.65045 1852.4799 3554362
1060.0612 634.10938 1853.8215 3356983
1067.8606 631.85187 1847.2217 3422776
1065.4115 623.64362 1823.225 3225397
1096.7926 635.20227 1857.0166 2896432
1094.0814 626.98114 1832.9821 2962225
1112.2959 630.79785 1844.1404 3291190
1127.334 632.75342 1849.8574 3159604
1138.924 632.75342 1849.8574 3028275
1145.3319 629.90344 1841.5255 2501674
1152.7729 627.67291 1835.0044 2699053
1163.0707 627.02643 1833.1145 2830639
1174.5558 627.02643 1833.1145 2896432
1184.6289 626.27997 1830.9323 3028018
1194.093 625.229 1827.8597 2896432
1207.6327 626.31165 1831.0249 2896432
1208.9958 621.11829 1815.8422 2830895
1210.9075 616.3009 1801.7584 3027761
1218.7721 614.57434 1796.7108 3027761
1238.0947 618.60431 1808.4924 3224884
1237.8092 612.85297 1791.6783 3356470
1247.4502 612.07556 1789.4055 3356470
1255.792 610.68024 1785.3263 3356470
1268.7317 611.52563 1787.798 3290677
1277.1636 610.20258 1783.9299 3422263
1288.3405 610.20258 1783.9299 3356470
1304.4449 612.51636 1790.6943 3224884
1319.7024 614.39642 1796.1907 3224884
1328.6134 613.31494 1793.0291 2764333
1338.0743 612.50342 1790.6565 2698540
1355.4277 615.28815 1798.7975 2698540
1376.7157 619.79822 1811.9828 2830126
1395.2092 622.98669 1821.3043 2961712
1415.8303 627.0658 1833.2296 3224884
1450.6769 637.32892 1863.234 3093298
1462.3506 637.32892 1863.234 2895919
1489.1924 643.88721 1882.4071 2895919
1520.3153 652.17889 1906.6479 2895919
1524.38 648.82452 1896.8413 3356470
1527.4012 645.08124 1885.8979 4014400
1544.8457 647.44025 1892.7944 3093298
1543.061 641.76581 1876.2052 2566954
1559.7474 643.80127 1882.1559 2632747
1571.5397 643.80127 1882.1559 2632747
1570.1184 638.42847 1866.4485 2566954
1577.5212 636.69659 1861.3853 2501161
1592.9657 638.21198 1865.8154 2698540
1604.6555 638.21198 1865.8154 2567211
1609.531 635.52124 1857.9491 2566954
1623.139 636.29248 1860.2039 2566697
1634.7937 636.29248 1860.2039 2566954
1641.0333 634.19971 1854.0857 2698540
1661.7954 637.70929 1864.3459 2566954
1673.6807 637.78729 1864.574 2632747
1688.7303 639.06165 1868.2996 3159091
1710.74 642.9342 1879.621 3619642
1724.2595 643.58478 1881.5231 3882814
1754.5243 650.43433 1901.5477 4080193
1766.7378 650.54474 1901.8704 3553849
1793.9286 656.13159 1918.2036 3027505
1795.9911 652.51459 1907.6292 2764333
1811.0237 653.6264 1910.8798 2764333
1811.4554 649.48859 1898.7828 2895919
1825.5834 650.28345 1901.1066 2961712
1837.4945 650.28345 1901.1066 3159091
1846.4286 649.23676 1898.0465 3159091
1862.2823 650.62097 1902.0933 3093298
1874.5468 650.74139 1902.4454 3093298
1884.9747 650.22705 1900.9415 3093299
1901.7972 651.91095 1905.8646 3027507
1917.5955 653.22491 1909.7059 3356472
1898.5364 642.72223 1879.0013 3948609
1923.6405 647.20764 1892.1144 4145988
1935.4952 647.20764 1892.1144 4014402
nan nan nan 16777215
nan nan nan 16777215
nan nan nan 16777215
nan nan nan 16777215
nan nan nan 16777215
nan nan nan 16777215
nan nan nan 16777215
nan nan nan 16777215
nan nan nan 16777215
nan nan nan 16777215
nan nan nan 16777215
nan nan nan 16777215
nan nan nan 16777215
-1557.9971 606.79462 1742.2239 3554362
-1547.64 607.01361 1742.8527 3554362
-1538.3304 607.64966 1744.6787 3356983
-1525.005 606.69696 1741.9435 3685948
-1523.7303 610.55945 1753.0333 3751741
-1516.8267 612.20599 1757.7609 3225397
-1516.6592 616.6153 1770.4209 3093811
-1504.9109 616.34662 1769.6494 3094068
-1489.6997 614.64514 1764.7642 3159604
-1473.9338 612.68768 1759.144 3225397
-1465.3988 613.72913 1762.1342 3028018
-1465.5596 618.45587 1775.7056 3357239
-1443.7111 613.89618 1762.6138 3751741
-1420.4596 608.66498 1747.594 3685948
-1408.4515 608.20776 1746.2812 3554362
-1394.2152 606.7735 1742.1633 3356983
-1373.9182 602.65833 1730.3478 3422776
-1364.498 603.28662 1732.1517 3620155
-1347.5337 600.56268 1724.3308 3620155
-1334.2084 599.42963 1721.0776 3620155
-1324.0624 599.7182 1721.9061 3159604
-1307.0317 596.86761 1713.7214 3093811
-1295.1498 596.34045 1712.2079 3093811
-1284.9031 596.56366 1712.8488 3093811
-1275.2946 597.08942 1714.3584 3028018
-1265.1385 597.3656 1715.1514 3093811
-1276.0354 607.6723 1744.7439 3488569
-1261.1713 605.78333 1739.3202 3488569
-1244.8329 603.14697 1731.7509 3290676
-1238.6256 605.41632 1738.2665 3225654
-1229.1149 606.0968 1740.2203 3291704
-1211.7612 602.88745 1731.0056 3291447
-1210.0808 607.4884 1744.2158 3094067
-1204.6425 610.26947 1752.2008 3159604
-1200.4312 613.72906 1762.1339 3685948
-1190.9613 614.53943 1764.4607 4014913
-1173.4811 611.19281 1754.8519 3554362
-1162.0381 610.95715 1754.1753 3488569
-1144.6941 607.58484 1744.4927 3488569
-1132.7461 607.03912 1742.9259 3422776
-1121.3414 606.77686 1742.1729 3685948
-1108.1866 605.5531 1738.6592 3554362
-1103.6104 609.03918 1748.6683 3291190
-1090.8206 608.01697 1745.7335 3554362
-1081.3074 608.81897 1748.0363 3685948
-1079.3318 613.9248 1762.6959 3620155
-1069.1737 614.43384 1764.1575 4014913
-1060.6578 615.90704 1768.3875 3949120
-1049.5784 615.90704 1768.3875 4014913
-1045.7944 620.23389 1780.8105 4278085
-1032.5917 619.00775 1777.29 3817534
-1020.9451 618.69788 1776.4004 3422776
-987.26074 604.87903 1736.7238 3555645
-976.00665 604.64795 1736.0604 3555132
-965.12982 604.64795 1736.0604 3160374
-955.54919 605.46936 1738.4188 3752511
-946.70184 606.77979 1742.1812 3949890
-934.20245 605.75262 1739.2321 3423546
-919.74634 603.41748 1732.5273 3357753
-911.13348 604.90594 1736.801 3423546
-900.99121 605.40271 1738.2274 3291960
-895.06299 608.77777 1747.918 3357753
-889.59991 612.55676 1758.7682 3555132
-878.58063 612.55676 1758.7682 3489339
-862.58301 609.04169 1748.6757 3489339
-853.79504 610.59216 1753.1273 3423546
-843.54382 611.12292 1754.6514 3357753
-838.99152 615.85095 1768.2263 3357753
-827.91296 615.85095 1768.2263 3291960
-815.82599 615.09058 1766.0432 3094838
-808.06549 617.61615 1773.2944 3225653
-796.11969 616.96863 1771.4353 3356983
-783.12579 615.479 1767.1584 3488569
-777.30176 619.66254 1779.17 4014657
-763.95721 617.88519 1774.067 3094581
-752.4809 617.58868 1773.2158 2831666
-745.53711 621.05908 1783.1799 2700336
-732.38971 619.38861 1778.3837 2765873
-724.51624 622.19568 1786.4432 2897202
-710.31183 619.56866 1778.9005 3357496
-690.6698 612.03931 1757.2823 3685948
-675.92603 608.67694 1747.6283 3554618
-670.16736 613.42828 1761.2703 3620155
-665.86188 619.69104 1779.252 3422776
-652.58472 617.67535 1773.4645 3422776
-637.76611 614.10559 1763.2151 3291190
-626.61652 614.00519 1762.9268 3291190
-615.31598 613.75055 1762.1958 3554105
-605.93835 615.4397 1767.0455 3028275
-597.83026 618.50513 1775.847 3160117
-594.12201 626.32526 1798.3 3818303
-584.98499 628.61389 1804.8712 3555132
-573.67688 628.61389 1804.8712 3028532
-559.09174 624.95087 1794.3539 3752511
-547.65625 624.73035 1793.7207 3949120
-537.87592 626.42822 1798.5958 3093811
-527.18146 627.11133 1800.5571 3291190
-517.69458 629.2923 1806.8191 3751741
-502.52637 624.51038 1793.0891 3422520
-496.98001 631.7406 1813.8485 2764590
-485.62106 631.74756 1813.8685 3093554
-473.02109 630.10175 1809.1431 3225141
-462.21786 630.82727 1811.2262 3423289
-456.45099 638.63586 1833.6462 3291704
-446.55823 640.92596 1840.2214 3488825
-437.84778 645.07935 1852.1467 3555132
-427.6543 647.21448 1858.277 3818561
-413.94547 644 1849.0477 3752511
-396.59326 634.7691 1822.5439 3094581
-385.17447 634.7691 1822.5439 3489339
-380.11856 645.57556 1853.5713 3489339
-365.46524 640.24957 1838.2795 3357753
-350.20038 633.47089 1818.8165 3160374
-336.59418 629.3374 1806.9485 3160374
-323.51932 625.94421 1797.2061 3094581
-311.71985 624.86285 1794.1013 3160374
-298.36465 620.46545 1781.4755 3357753
-286.51651 618.98212 1777.2164 3752767
-275.78104 619.87964 1779.7936 3752511
-263.08383 616.25775 1769.3943 2897459
-250.62828 612.90802 1759.7766 3291190
-236.88744 605.96228 1739.834 3685948
-227.51962 610.07227 1751.6345 3028018
-216.54507 610.07227 1751.6345 3356983
-203.13899 602.85614 1730.9156 3356983
-192.8625 604.63751 1736.0304 3159604
-181.98572 604.63751 1736.0304 3159604
-171.08081 604.53809 1735.7449 3159604
-158.24977 597.15686 1714.552 3093811
-147.85619 598.56812 1718.604 3224884
-137.92467 602.21869 1729.0856 3159091
-127.63946 604.81555 1736.5416 3093298
-116.18797 601.85516 1728.0417 2632747
-105.24848 601.21094 1726.192 2698540
-94.909981 604.24542 1734.9045 2764333
-84.544006 607.86725 1745.3037 2961456
-74.954208 618.97485 1777.1957 2896432
-63.210609 613.06915 1760.2393 2764846
-52.677002 618.88281 1776.9314 2699053
-41.588573 619.54718 1778.8389 3028018
-30.51519 621.00415 1783.0222 3028018
-19.567093 628.16602 1803.5852 3159604
-8.243619 626.38397 1798.4688 3422776
3.0247679 626.47156 1798.7201 3356983
14.322728 627.71716 1802.2965 3685435
25.668253 629.03015 1806.0663 3883327
36.848 626.72009 1799.4337 3882814
48.013023 625.30072 1795.3584 3422263
58.703484 619.41278 1778.453 3290420
70.008926 620.8573 1782.6005 3093298
81.337585 622.08179 1786.1163 3224884
92.70665 623.28186 1789.5619 3290677
103.65688 621.71082 1785.0511 3488056
