# .PCD v0.7 - Point Cloud Data file format
VERSION 0.7
FIELDS x y z rgb
SIZE 4 4 4 4
TYPE F F F U
COUNT 1 1 1 1
WIDTH 1268
HEIGHT 1
VIEWPOINT 0 0 0 1 0 0 0
POINTS 1268
DATA ascii
3948.7744 640.23737 4694.0308 3619131
4275.5459 688.09393 5044.9009 3488315
4451.5679 711.16492 5214.0508 3619387
4623.688 733.28101 5376.1997 3554364
4525.4224 712.50623 5223.8848 3685950
4808.3643 751.61816 5510.6421 3817793
4910.9429 762.17993 5588.0776 3686721
4992.2788 769.31873 5640.4175 3620927
5126.5605 784.4588 5751.4199 3555134
5181.293 787.29987 5772.25 3555133
5293.0298 798.70355 5855.8584 3554880
5384.1382 806.85883 5915.6499 3620673
5489.7476 817.06079 5990.4478 3554624
5623.752 831.32166 6095.0039 3554880
5695.6484 836.27106 6131.292 3423294
5819.6665 848.75574 6222.8257 3554880
5905.7544 855.57916 6272.8535 3489088
6080.0669 875.00916 6415.3086 3554880
6210.2378 887.87323 6509.6235 3423294
6311.3511 896.44208 6572.4478 3620673
6362.7422 897.88324 6583.0142 3555136
6470.063 907.14758 6650.9375 3554367
6568.3066 915.02881 6708.7202 3619903
6688.3916 925.83313 6787.9346 3751489
6803.4907 935.81519 6861.1201 3817282
6774.6021 925.99091 6789.0908 3685696
6902.7261 937.61652 6874.3267 3817282
7019.4263 947.55591 6947.1992 3751489
7150.7817 959.33887 7033.5889 3817282
7155.6294 954.10944 6995.248 3817282
nan nan nan 16777215
nan nan nan 16777215
nan nan nan 16777215
nan nan nan 16777215
nan nan nan 16777215
-4704.895 710.56219 4981.9927 2239020
-4780.7427 726.83917 5096.1162 2634035
-4841.2935 740.9939 5195.3594 2831157
-4815.4316 742.02454 5202.5859 3357501
-4771.2173 740.22198 5189.9478 3226425
-4745.4922 741.28296 5197.3862 3160376
-4710.292 740.86804 5194.4775 3291962
-4737.8569 750.38843 5261.228 3752513
-4741.0811 756.15997 5301.6943 3620927
-4736.2188 760.71417 5333.6255 3620927
-4745.6831 767.65051 5382.2583 3620927
-4716.7661 768.43329 5387.7466 3555134
-4734.0225 776.80383 5446.4355 3489341
-4796.4614 792.76379 5558.3359 3555134
-4867.7915 810.4375 5682.2524 3555134
-4828.1396 809.75806 5677.4888 3489341
-4795.8633 810.3147 5681.3916 3357755
-4824.6826 821.27979 5758.2715 3160376
-4853.978 832.4917 5836.8823 3094583
-4865.6782 840.83325 5895.3672 3160376
-4877.9165 849.396 5955.4038 3291962
-4865.5405 853.77173 5986.0835 3357755
-4851.2324 857.87366 6014.8438 3357755
-4839.7671 862.54663 6047.6069 3423548
-4839.4531 869.2962 6094.9312 3291962
-4817.5 872.23535 6115.5386 3291962
-4788.2085 873.88232 6127.0859 3358012
-4755.1064 874.85504 6133.9053 3555391
-4707.9902 873.2439 6122.6099 3555391
-4622.6812 864.46429 6061.0527 3621184
-4527.4849 853.67487 5985.4043 3752770
-4427.6113 841.81592 5902.2573 3686977
-4312.9126 826.91479 5797.7808 3555648
-4158.2744 804.03802 5637.3833 3489598
-4074.0469 794.50024 5570.5107 3489598
-3966.3274 780.17682 5470.0845 3423805
-3865.2656 766.92474 5377.1694 3358012
-3808.834 762.37268 5345.2539 3226426
-3744.542 756.15265 5301.6431 3226426
-3676.9844 749.15588 5252.5864 3292219
-3599.1443 739.91888 5187.8223 3226426
-3504.9368 727.11798 5098.0713 3292219
-3407.6348 713.43384 5002.127 3358012
-3129.6626 661.31879 4636.7305 3226426
-3063.886 653.4856 4581.8096 3292732
-2879.075 619.87567 4346.1587 3358525
-2843.2703 618.0119 4333.0913 3818819
-2613.8796 573.62878 4021.9062 4740434
-2676.2869 593.0415 4158.0151 5004119
-2588.114 579.14056 4060.551 5004118
-2571.7913 581.20111 4074.9983 5069911
-2569.2771 586.45496 4111.8345 4872533
-2555.6328 589.2489 4131.4238 4740947
-2575.707 599.95392 4206.4805 4083018
-2518.3943 592.6684 4155.3994 3161916
-2788.2791 663.03638 4648.7729 3358525
-2921.6196 702.07782 4922.5059 3358525
-2968.3669 720.92151 5054.6255 3292476
-3005.9492 737.92175 5173.8198 3358012
-3058.5774 759.02655 5321.7925 3489598
-3065.1936 769.05219 5392.0859 3555391
-3047.366 773.09998 5420.4663 3226426
-2991.9224 767.58856 5381.8237 3094584
-3024.9756 784.91431 5503.3008 3226426
-3080.6428 808.5752 5669.1953 3292219
-3104.9924 824.47217 5780.6548 3292220
-3088.1069 829.66614 5817.0708 3292219
-3066.3887 833.67017 5845.1445 3489598
-3029.7671 833.67017 5845.1445 3621184
-3003.3074 836.50055 5864.9893 3752770
-2991.7034 843.59003 5914.6958 3687744
-2981.408 851.23083 5968.2686 3687488
-2937.8735 849.4552 5955.8184 3753538
-2901.739 849.80084 5958.2427 3884867
-2870.8401 851.70886 5971.6201 3884867
-2832.3579 851.38782 5969.3691 3950660
-2790.3635 849.98834 5959.5566 3819074
-2753.0251 849.98834 5959.5566 3819074
-2709.7012 848.11499 5946.4219 3950660
-2671.8315 847.92023 5945.0566 3950917
-2629.0249 846.1311 5932.5127 3884867
-2575.1814 840.68762 5894.3462 3884867
-2506.8586 830.29004 5821.4453 3950660
-2456.5986 825.65643 5788.957 4016453
-2425.3931 827.38391 5801.0693 3819074
-2324.6431 805.0791 5644.6826 3950661
-2306.9114 811.28046 5688.1626 3884869
-2301.3364 822.0188 5763.4526 3687490
-2239.6252 812.72839 5698.3149 3819076
-2207.6887 814.11688 5708.0498 3819076
-2171.926 814.11688 5708.0498 3950662
-2131.4431 812.31787 5695.4365 3950662
-2107.2063 816.75476 5726.5449 3950662
-1983.3359 782.05829 5483.2764 3884356
-1960.0829 786.51288 5514.5088 3819076
-1940.3281 792.55634 5556.8813 3753539
-1908.3925 793.75415 5565.2798 3753540
-1879.0538 796.0968 5581.7051 3885126
-1813.3326 782.82196 5488.6304 3819333
-1796.9452 790.74304 5544.168 3950662
-1755.3292 787.65576 5522.522 3884869
-1703.167 779.61688 5466.1587 3819076
-1638.5438 765.42712 5366.6694 3884869
-1604.9199 765.42712 5366.6694 3819076
-1570.1967 764.89154 5362.9141 3950662
-1507.8171 750.56573 5262.4712 3950662
-1452.7661 739.32898 5183.6865 4082248
-1415.4397 736.80481 5165.9888 3950662
-1377.6619 733.92206 5145.7769 4016455
-1350.7101 736.8067 5166.002 4148041
-1318.4437 736.86273 5166.3945 4148041
-1289.4286 738.78436 5179.8682 4082248
-1274.0038 748.79291 5250.0415 4148041
-1257.0143 758.388 5317.3154 4213834
-1230.4529 762.5733 5346.6602 4148041
-1162.3336 740.51654 5192.0132 4016712
-1114.5176 730.49731 5121.7646 3950919
-1109.1157 748.50793 5248.043 3753283
-1076.2351 748.50793 5248.043 3555904
-882.91766 633.40967 4441.0503 3687490
nan nan nan 16777215
nan nan nan 16777215
-941.10901 745.65265 5228.0239 3687490
-903.9129 742.00726 5202.4648 3490111
-869.2746 740.26721 5190.2646 3555904
-842.0946 744.99023 5223.3794 3950662
-838.05103 771.39124 5408.4858 3884869
-804.16516 771.39124 5408.4858 3687490
-773.36542 774.48181 5430.1548 3621954
-654.64636 685.75903 4808.0894 3819332
-704.53998 773.62292 5424.1328 3950662
-670.55609 773.62292 5424.1328 4016199
-617.94855 750.98969 5265.4434 4082249
-597.08868 766.56226 5374.6279 4279372
-557.64679 758.71411 5319.6025 4476751
-529.74164 766.56274 5374.6318 4411214
-497.57425 768.89044 5390.9517 4411214
-467.29831 774.69287 5431.6348 4411213
-436.60223 780.65558 5473.4414 4279884
-411.16299 797.83539 5593.8945 4213834
-382.9931 812.42444 5696.1836 4082248
-351.42636 822.0658 5763.7827 4016455
-318.16193 829.4895 5815.8325 4016455
-280.91739 827.11481 5799.1826 4016455
-243.69658 824.11481 5778.1484 3950662
-207.09865 822.54181 5767.1196 3950662
-171.06252 823.00684 5770.3804 3884612
-135.94948 829.35248 5814.8716 3884356
-99.824326 831.90948 5832.7998 3818563
-63.099522 829.53644 5816.1616 3555391
-26.649263 829.21887 5813.9351 3226426
9.8174648 832.66418 5838.0913 3358012
46.325741 831.42273 5829.3867 3555391
80.529625 808.15015 5666.2148 3555391
116.03021 808.15015 5666.2148 3292219
157.09833 837.84308 5874.4023 3160633
194.52768 840.54102 5893.3184 3029047
231.88632 842.1214 5904.3989 3094840
268.87921 842.1214 5904.3989 3160633
304.17093 837.43781 5871.5605 3226169
338.17542 830.60321 5823.6411 3094840
370.63318 821.67084 5761.0132 3029047
406.72772 821.67084 5761.0132 3292219
444.24097 824.30334 5779.4707 3292219
476.78854 818.01941 5735.4116 3226426
511.83923 816.60986 5725.5293 3292219
546.51324 814.82355 5713.0044 3160633
583.29626 816.20782 5722.71 3292219
614.505 810.08331 5679.769 3226426
641.31165 799.14392 5603.0693 3423805
672.1394 794.0907 5567.6396 3423806
695.7901 781.47516 5479.1875 3160635
725.86572 776.92279 5447.2695 3160383
755.32501 772.14923 5413.8003 2831421
800.65527 783.31323 5492.0747 1252134
828.86401 777.49664 5451.293 528413
854.5174 769.83844 5397.5986 988710
875.40283 758.63129 5319.0215 988712
906.16412 756.49072 5304.0132 791334
936.08087 753.82153 5285.2988 725541
967.25659 752.31396 5274.7285 725541
998.98999 751.32538 5267.7974 725285
1032.5856 751.7558 5270.8149 593442
1058.114 746.46844 5233.7437 396062
1092.6121 747.63647 5241.9331 264731
1125.1232 747.41638 5240.3901 395802
1158.4821 747.7561 5242.772 330520
1211.8123 760.6123 5332.9111 265238
1278.8461 781.14911 5476.9014 198929
1291.2091 768.09106 5385.3472 1909802
1320.8505 765.71448 5368.6841 3489348
1393.0735 787.52808 5521.627 3555394
1435.3451 791.76282 5551.3179 3621699
1477.3428 795.64966 5578.5698 3621699
1521.6936 800.59485 5613.2422 3490112
1597.0656 821.2688 5758.1943 3555905
1667.0034 838.29669 5877.5825 3621697
1709.8877 841.27802 5898.4854 3555904
1753.7617 844.60974 5921.8457 3555904
1802.2197 849.96545 5959.3965 3490367
1847.8253 853.78564 5986.1812 3424318
1897.0178 859.07831 6023.2896 3489855
1944.0577 863.2088 6052.2495 3489855
1991.4304 867.32599 6081.1167 3424061
2027.1808 866.32184 6074.0767 3292476
2059.916 864.08984 6058.4272 3358525
2103.3435 866.34265 6074.2227 3424061
2134.7012 863.63245 6055.2202 3555647
2167.1836 861.46387 6040.0156 3424062
2206.9338 862.20917 6045.2412 3358269
2253.7292 865.63525 6069.2627 3292475
2300.4307 868.91217 6092.2383 3292219
2331.6841 866.34247 6074.2212 3292219
2369.7412 866.34247 6074.2212 3423805
2412.2405 867.94092 6085.4287 3489342
2450.3098 867.92041 6085.2847 3555391
2471.9709 862.17773 6045.021 3621184
2498.2048 858.1792 6016.9858 3752770
2532.6631 857.08276 6009.2979 3818307
2564.4546 855.12915 5995.6006 3621440
2595.6953 853.05096 5981.0298 3621184
2611.3281 845.97559 5931.4219 3424058
2618.5137 836.40045 5864.2876 3160887
2644.2854 832.94495 5840.0596 3292216
2671.7222 830.10107 5820.1206 3489595
2653.4644 813.32776 5702.5171 3687231
2652.3215 802.17645 5624.3315 3687231
2630.9189 785.27051 5505.7979 3752768
2649.5166 780.58673 5472.9585 3621182
2683.8064 780.58673 5472.9585 3555133
2689.552 772.38934 5415.4839 3620926
2666.6155 756.2619 5302.4087 3686719
2659.5229 744.96942 5223.2334 3686206
2577.2849 713.15808 5000.1934 3817279
2555.3777 698.60437 4898.1523 3290420
2427.5801 655.79065 4597.9707 2500647
2456.3877 655.79065 4597.9707 2368548
2510.5483 662.48077 4644.8774 2631720
2545.9827 664.13263 4656.4595 2959658
2521.219 650.22205 4558.9277 3355186
2658.8035 678.02374 4753.8545 3882299
2809.4807 708.51123 4967.6128 3685438
2900.3525 723.41376 5072.0996 3685950
2991.5005 738.06146 5174.7993 3555134
3097.4717 756.013 5300.6636 3489598
3179.4668 767.79376 5383.2627 3489598
3334.4814 796.77527 5586.4619 3489341
3368.8323 796.62158 5585.3843 3489341
3403.8262 796.62158 5585.3843 3423805
3459.3513 801.37762 5618.7305 3489598
3523.0532 807.91302 5664.5522 3292219
3657.6794 830.42029 5822.3589 3292219
3661.3953 823.05536 5770.7207 3292219
3738.7009 832.21527 5834.9438 3292219
3778.762 832.98755 5840.3589 3358012
3823.9094 834.85559 5853.4556 3423805
3852.6438 833.13861 5841.4175 3358012
3905.9651 836.72095 5866.5347 3292219
3940.115 836.16791 5862.6572 3292219
3955.1704 831.61035 5830.7026 3358012
3953.4587 823.64313 5774.8413 3423805
3971.8887 819.97839 5749.147 3555391
3997.2368 817.79504 5733.8384 3423548
3997.2002 810.5033 5682.7139 3226426
3977.6191 799.41235 5604.9512 3226169
3966.9578 790.29242 5541.0088 3291962
3978.7397 785.76318 5509.2524 3423548
3920.7888 767.65869 5382.3159 3489341
3880.9712 753.383 5282.2241 3555134
3863.7854 743.70502 5214.3682 3555134
3872.9771 739.22382 5182.9492 3357755
3866.7913 731.90649 5131.645 3489341
3858.9126 724.39215 5078.959 3489341
3881.5374 722.67987 5066.9541 3423548
3898.6968 719.98621 5048.0674 3423548
3932.4412 720.37384 5050.7856 3489084
3949.1338 717.65674 5031.7349 3554364
3753.8936 676.77399 4745.0923 3488571
3581.8879 640.68988 4492.0942 3620158
3419.8079 606.92981 4255.3911 3817280
3472.9202 611.58783 4288.0498 2829872
3396.8538 593.60046 4161.9341 4277574
3505.4497 607.91095 4262.27 4738125
3393.7939 584.09808 4095.3101 4277574
3419.4524 584.09808 4095.3101 3685437
3793.3994 643.14838 4509.3315 3685437
3978.1841 669.49133 4694.0308 3554107
4247.2964 709.53503 4974.791 3619644
4388.3193 727.75311 5102.5239 3619900
4471.0552 736.11139 5161.127 3620157
4527.2178 740.00598 5188.4331 3817280
4648.9331 754.48376 5289.9419 3817537
4766.8525 768.14484 5385.7241 3620670
4755.5391 760.9353 5335.1758 3423548
4788.9658 760.9353 5335.1758 3423548
4902.5806 773.58838 5423.8906 3226171
5017.1313 786.21387 5512.4126 3291963
5119.6846 796.79956 5586.6323 3423292
5223.3955 807.42059 5661.0996 3489088
5307.4067 814.87354 5713.355 3423295
5447.084 830.71613 5824.4326 3291708
5530.3833 837.80695 5874.1494 3357501
5650.0933 850.28357 5961.627 3423294
5728.5112 856.42322 6004.6738 3554880
5828.377 865.66821 6069.4937 3489087
5887.3174 868.75415 6091.1304 3423550
5939.8096 870.85504 6105.8604 3554366
6022.4238 877.31714 6151.168 3685696
6115.1338 885.15826 6206.145 3619903
6214.4893 893.85608 6267.1289 3488317
6268.5068 895.96472 6281.9131 3488317
6351.9233 902.22278 6325.79 3422524
6409.3623 904.73627 6343.4131 3422524
6515.4814 914.04803 6408.7007 3488317
6580.4404 917.50665 6432.9507 3488317
nan nan nan 16777215
nan nan nan 16777215
nan nan nan 16777215
nan nan nan 16777215
nan nan nan 16777215
nan nan nan 16777215
-4628.6343 734.46271 4933.9736 3094329
-4506.9287 719.95905 4836.541 3291964
-4584.7061 737.34113 4953.3101 3160123
-4597.3735 744.41742 5000.8472 3094839
-4577.8398 746.34094 5013.769 3226426
-4546.4272 746.34094 5013.769 3291962
-4533.1328 749.33588 5033.8887 3226169
-4543.6821 756.34192 5080.9536 3291962
-4516.8999 757.18866 5086.6421 3489341
-4525.7407 764.06165 5132.8135 3620927
-4546.4663 773.05383 5193.2207 3621183
-4529.748 775.76288 5211.4199 3686976
-4537.8882 782.79956 5258.6909 3621183
-4532.3247 787.55792 5290.6567 3423548
-4499.1777 787.55792 5290.6567 3291962
-4515.4424 796.27155 5349.1929 3226169
-4521.416 803.28711 5396.3218 3160376
-4528.5698 810.61957 5445.5801 3291962
-4545.8687 819.89319 5507.8784 3423548
-4534.3057 824.06329 5535.8926 3489341
-4520.8433 827.94995 5562.002 3489341
-4504.7144 831.40472 5585.2104 3489341
-4489.647 835.11108 5610.1089 3489341
-4487.7319 841.34161 5651.9644 3489341
-4454.3813 841.73102 5654.5806 3489855
-4376.7988 833.70123 5600.6382 3555391
-4371.3818 839.39899 5638.9146 3621184
-4425.0596 856.62964 5754.6665 3621184
-4360.7769 851.12024 5717.6553 3686977
-4249.8306 836.33649 5618.3413 3752770
-4050.6177 803.79047 5399.7036 3752770
-3992.2493 798.88025 5366.7178 3621184
-4022.7 811.81104 5453.584 3686977
-3899.7043 793.73151 5332.1294 3753027
-3790.8103 778.2345 5228.0234 3555391
-3698.9326 765.99109 5145.7749 3423805
-3676.9214 768.12799 5160.1299 3423805
-3606.0063 759.99579 5105.4995 3423805
-3505.9355 745.51825 5008.2427 3489598
-3439.7485 738.0495 4958.0688 3555391
-3249.03 703.48102 4725.8447 3884356
-3098.9382 677.15411 4548.9858 4082248
-2885.1482 636.29041 4274.4717 4148041
-2805.429 624.50604 4195.3066 4082505
-2741.3132 616.005 4138.1982 4016968
-2762.2324 626.63245 4209.5913 4148811
-2669.9487 611.53625 4108.1782 4675154
-2570.438 594.47479 3993.5627 4938326
-2574.0208 601.15515 4038.4399 4873301
-2551.5073 601.81287 4042.8584 4873045
-2539.512 604.9895 4064.1982 4741716
-2509.4414 603.88086 4056.751 4806739
-2517.2202 611.95093 4110.9639 4280394
-2567.5632 630.64233 4236.5293 2964537
-2641.0591 655.47052 4403.3198 3030073
-2759.1528 692.00824 4648.7729 3161146
-2810.5803 712.427 4785.9419 3292475
-2876.2495 736.935 4950.582 3423805
-2907.6897 753.11182 5059.2544 3555134
-2908.0273 761.50067 5115.6094 3424060
-2882.6841 763.27667 5127.54 3358266
-2873.4033 769.3938 5168.6333 3160631
-2844.9624 770.46136 5175.8052 3292217
-2819.0894 772.25702 5187.8682 3358266
-2826.3672 783.28174 5261.9302 3358013
-2823.5725 791.74237 5318.7671 3489598
-2805.012 795.93152 5346.9087 3555391
-2794.1279 802.42645 5390.5405 3555391
-2763.1482 803.23859 5395.9961 3884356
-2759.3267 812.06335 5455.2793 3753537
-2763.5776 823.51508 5532.2095 3621695
-2744.6919 828.2757 5564.1899 3819331
-2697.7136 824.57202 5539.3101 3950660
-2643.7966 818.62341 5499.3481 3885124
-2593.8503 813.76343 5466.6997 3950917
-2518.2961 800.6319 5378.4849 4082247
-2524.144 813.37506 5464.0908 4016710
-2493.3513 814.49927 5471.6431 3950661
-2453.7412 812.73438 5459.7866 3885125
-2422.7112 813.80164 5466.9565 3884869
-2363.8145 805.4046 5410.5469 4082247
-2314.0493 799.91998 5373.7021 4016453
-2280.3813 799.91998 5373.7021 4148039
-2227.3411 793.02264 5327.3672 3950660
-2143.9365 774.94006 5205.8921 3819076
-2129.2903 781.53589 5250.2017 3885126
-2100.593 783.10046 5260.7124 4082248
-2063.7341 781.62378 5250.792 4016455
-2008.6926 773.1012 5193.5391 4016455
-1970.4135 770.85559 5178.4536 3819076
-1929.823 767.61548 5156.687 3950662
-1896.1169 767.05005 5152.8887 3950662
-1858.9359 765.03485 5139.3511 4016199
-1813.1096 759.328 5101.0137 3950406
-1764.8864 752.39447 5054.4355 3819076
-1727.7726 750.03033 5038.5537 3884869
-1708.433 755.43756 5074.8784 3885126
-1629.1709 734.05078 4931.2061 3884869
-1560.4982 716.70056 4814.6509 3819076
-1580.1791 740.04498 4971.4741 3884869
-1556.7637 743.73914 4996.2905 3819076
-1437.4774 700.84302 4708.123 3753283
-1338.5863 666.30139 4476.0796 3884869
-1310.5422 666.30139 4476.0796 4213834
-1348.2413 700.45728 4705.5317 4411469
-1275.7375 677.60608 4552.022 3753283
-1272.479 691.33038 4644.2192 3884868
-1261.5164 701.41351 4711.9556 4016712
-1229.4081 699.94092 4702.063 4016454
-1205.0498 702.91675 4722.0542 4016455
-1154.9548 690.6521 4639.6626 4016711
-1119.7334 686.87799 4614.3086 4082248
-1013.6962 638.31189 4288.0518 4082248
-1054.0739 681.80725 4580.2446 4148041
-1017.0858 676.29395 4543.2075 4279627
-1003.5784 686.52588 4611.9434 4082248
-976.23566 687.61938 4619.2896 3819333
-913.61603 663.1731 4455.064 3884869
-882.91766 661.08698 4441.0503 3687747
nan nan nan 16777215
nan nan nan 16777215
nan nan nan 16777215
-725.53296 621.60229 4175.7998 4345420
-744.37445 661.60211 4444.5107 4477006
-737.73541 681.18365 4576.0557 4279885
-721.49615 693.12598 4656.2817 3688262
-693.86621 694.6709 4666.6602 4345937
-653.2124 682.73926 4586.5054 4477779
-630.20642 689.00366 4628.5889 4411730
-601.20691 689.00366 4628.5889 4543572
-563.55212 678.58179 4558.5767 4543315
-561.00635 711.57935 4780.2476 4345936
-519.00446 695.43024 4671.7612 4411729
-489.73444 695.43024 4671.7612 4674901
-466.86517 705.09723 4736.7021 4345936
-449.38141 724.76239 4868.8086 4280400
-434.30371 751.45477 5048.1226 4345936
-403.30081 752.6214 5055.96 4280141
-375.63431 760.74384 5110.5249 4214091
-348.06113 770.58667 5176.647 3950919
-318.65503 777.97742 5226.2964 4016455
-287.8812 783.33942 5262.3174 3950662
-256.02902 786.77448 5285.3936 3950662
-223.23901 787.92041 5293.0913 4016455
-190.75798 790.74664 5312.0776 4148041
-157.87497 792.74921 5325.5308 4016199
-125.60314 799.71643 5372.335 3950405
-92.845764 807.56165 5425.0376 3884356
-58.51812 802.92255 5393.873 3753026
-24.583549 798.36682 5363.2686 3621440
8.9727688 794.27502 5335.7808 3489855
42.719532 800.20245 5375.6001 3555648
76.459084 800.82831 5379.8042 3686977
111.11638 807.74255 5426.2529 3621441
146.11169 813.29858 5463.5771 3621440
181.1925 817.13098 5489.3223 3686976
214.50951 813.05524 5461.9424 3358268
248.48183 812.24316 5456.4868 3160889
278.84961 801.2699 5382.771 3226681
311.03555 797.32526 5356.2715 3029047
345.75867 800.01953 5374.3711 3358012
380.66254 802.61664 5391.8179 3358012
412.6944 799.22852 5369.0571 3292219
447.46747 801.25952 5382.7012 3292219
476.68903 793.76178 5332.3325 3226426
505.82324 787.11023 5287.6489 3292219
537.96613 785.67047 5277.9771 3226426
569.93915 784.16364 5267.8545 3226426
602.54175 783.64062 5264.3408 3160633
632.9726 780.49402 5243.2026 2897463
663.59729 777.88507 5225.6763 3029049
696.65698 778.24176 5228.0723 3029051
737.78589 787.17566 5288.0884 2634040
777.49994 793.89703 5333.2412 1910319
806.367 789.44507 5303.334 1515305
839.59406 789.44507 5303.334 1383976
870.56897 787.40808 5289.6499 1251625
902.93884 786.73602 5285.1353 988710
929.49115 781.2218 5248.0918 922663
958.87134 778.38007 5229.0015 856870
986.93121 774.68964 5204.21 725284
1025.123 778.93402 5232.7231 725283
1058.114 779.08594 5233.7437 395805
1094.5281 781.6734 5251.1255 329755
1123.5718 778.99976 5233.1646 461594
1153.6761 777.19226 5221.022 461848
1190.7533 780.05231 5240.2354 396054
1248.8436 796.15503 5348.4102 199186
1254.7872 779.04065 5233.4395 1449764
1275.9847 772.02722 5186.3242 3028793
1322.6638 780.39673 5242.5493 3226428
1401.1738 806.6864 5419.1577 3292478
1418.5513 797.36945 5356.5684 3292733
1452.1119 797.36945 5356.5684 3227197
1497.9298 803.94806 5400.7622 3226941
1536.3138 806.33435 5416.7925 3227195
1575.0609 808.80383 5433.3823 3292732
1625.1179 816.8537 5487.46 3358013
1670.6167 822.32648 5524.2246 3358013
1711.0798 825.14856 5543.1831 3423805
1754.1384 829.08514 5569.6284 3358012
1799.792 834.0708 5603.1206 3292220
1853.3142 842.44232 5659.3589 3358012
1892.3311 844.02979 5670.0234 3358012
1943.3934 850.83246 5715.7227 3358012
1979.723 851.05548 5717.2207 3423805
2004.2286 846.27802 5685.1265 3424318
2024.7057 839.99591 5642.9248 3489855
2074.8655 846.03284 5683.479 3292732
2105.9658 844.22552 5671.3384 3292476
2141.4985 844.22552 5671.3384 3094840
2177.5364 844.42133 5672.6538 3094840
2235.3755 852.9295 5729.8096 3226426
2263.6809 850.07782 5710.6528 3226426
2270.1499 839.24243 5637.8623 3226426
2305.4729 839.24243 5637.8623 3226426
2365.8232 848.21539 5698.1411 3292219
2395.1355 845.95905 5682.9834 3292219
2413.4255 839.9328 5642.5005 3226426
2455.3494 842.18689 5657.6431 3094840
2463.0168 832.79419 5594.5444 3292218
2496.1848 832.1662 5590.3262 3358010
2525.71 830.35809 5578.1792 3424059
2562.5154 830.96008 5582.2231 3357753
2503.2363 800.8075 5379.6646 3028788
2530.949 798.91589 5366.957 3028788
2542.9756 792.18744 5321.7563 2962996
2566.4607 789.15637 5301.3945 3028532
2584.4243 784.52673 5270.2935 3226167
2588.7859 775.93689 5212.5889 3357753
2595.6907 768.3139 5161.3789 3489083
2604.053 761.30463 5114.292 3685691
2577.2849 744.32007 5000.1934 3816764
2567.4487 732.57465 4921.29 3289906
2400.4756 676.80396 4546.6338 2434341
2430.5 677.2326 4549.5132 2433828
2475.8281 681.86609 4580.6401 2565927
2532.0754 689.36627 4631.0244 2697000
2561.0903 689.36627 4631.0244 3026478
2520.6794 670.88824 4506.8931 3619127
2633.4893 693.14832 4656.4316 3685693
2816.8892 733.29657 4926.1396 3685181
2890.5847 744.32581 5000.2319 3619900
2981.0913 759.40094 5101.5034 3489084
3055.0896 769.99542 5172.6753 3423548
3140.1951 783.13763 5260.9619 3423548
3168.364 781.95483 5253.0161 3555134
3202.8088 782.32928 5255.5317 3489598
3243.8394 784.28845 5268.6929 3423805
3301.5562 790.20178 5308.4175 3489598
3403.6594 806.51483 5418.0054 3423805
3474.7954 815.24036 5476.6216 3423805
3493.6379 811.64624 5452.4771 3292219
3520.6787 810.00793 5441.4712 3292219
3567.479 812.90363 5460.9238 3160633
3601.6934 812.90363 5460.9238 3094840
3622.8052 809.97418 5441.2446 3160633
3664.6892 811.70026 5452.8398 3226426
3691.8521 810.164 5442.5195 3226426
3698.2141 804.13281 5402.0034 3160633
3712.3152 799.87872 5373.4253 3094583
3744.5386 799.57062 5371.3555 2963254
3697.7358 782.54388 5256.9731 2897461
3677.7649 771.44598 5182.4199 2831668
3649.605 758.83978 5097.7339 2962997
3665.6536 755.56445 5075.731 3094583
3671.3801 750.23615 5039.9365 2963254
3652.188 739.95013 4970.8369 3028790
3616.145 726.45294 4880.1655 3094583
3643.3992 725.79126 4875.7202 3291962
3652.543 721.56287 4847.3149 3291962
3642.7256 713.68933 4794.4219 3291962
3657.1887 710.66272 4774.0898 3226426
3678.1643 708.94037 4762.5195 3423034
3710.126 709.34631 4765.2466 3488570
3699.9185 701.74774 4714.2007 3488569
3706.5508 697.43805 4685.249 3488571
3578.9202 668.13123 4488.3721 3489340
3443.698 637.87524 4285.1182 3489342
3300.1162 606.5509 4074.6873 2239277
3244.4077 591.73425 3975.1523 6054761
3279.2578 593.53418 3987.2439 7962755
3281.4463 589.44 3959.7397 6712688
3363.8818 599.71362 4028.7561 4278347
3543.9531 627.11115 4212.8071 3619904
3776.1287 663.25543 4455.6172 3488574
3928.1763 684.89844 4601.0107 3423036
4038.5859 699.01917 4695.8711 3554364
4189.6626 719.92365 4836.3032 3751742
4262.332 727.15173 4884.8599 3751487
4390.5293 743.68219 4995.9082 3489854
4471.9883 752.11798 5052.5781 3555134
4536.9556 757.68109 5089.9502 3686720
4568.8457 757.68109 5089.9502 3621183
4623.1289 761.36896 5114.7241 3489087
4673.9658 764.44232 5135.3706 3554880
4816.9648 782.44415 5256.3032 3554880
4940.4902 797.05963 5354.4873 3752259
5069.2583 812.31812 5456.9907 3686466
5130.7754 816.66797 5486.2119 3620673
5194.3008 821.27722 5517.1763 3620673
5268.749 827.54132 5559.2568 3554880
5336.8062 832.72571 5594.085 3620673
5418.917 840.02112 5643.0942 3554880
5465.0142 841.67548 5654.2075 3554880
5514.5874 843.84039 5668.751 3554624
5588.3433 849.6543 5707.8076 3685696
5681.1606 858.27405 5765.7134 3488317
5741.3203 861.8822 5789.9521 3554110
5805.4146 866.03204 5817.8301 3488317
5892.7051 873.56885 5868.4609 3554110
5941.6108 875.35712 5880.4741 3554110
6024.5967 882.11334 5925.8608 3554110
6061.7241 882.11334 5925.8608 3488317
nan nan nan 16777215
nan nan nan 16777215
nan nan nan 16777215
nan nan nan 16777215
nan nan nan 16777215
nan nan nan 16777215
-4396.3462 726.80994 4686.3623 3290681
-4376.332 728.36554 4696.3931 3290938
-4347.1489 728.40601 4696.6538 3356730
-4354.3247 734.58075 4736.4678 3291191
-4338.1475 736.8736 4751.2515 3356985
-4308.3794 736.8736 4751.2515 3422522
-4277.0049 736.59692 4749.4678 3488571
-4280.1538 742.30371 4786.2642 3686206
-4248.1167 741.9458 4783.9561 3686464
-4265.7163 750.31354 4837.9102 3555134
-4226.4312 748.72369 4827.6592 3884099
-4221.6816 753.27319 4856.9937 3949892
-4232.4307 760.67419 4904.7144 3752513
-4255.8843 770.48346 4967.9629 3620927
-4335.1025 790.60736 5097.7188 3555134
-4341.3037 797.61462 5142.9009 3555134
-4317.0747 799.09418 5152.4404 3489341
-4295.3125 801.05597 5165.0898 3555134
-4253.7944 799.33521 5153.9946 3686720
-4217.4829 798.57397 5149.0864 3620927
-4229.8125 807.08221 5203.9463 3620927
-4210.0493 809.55139 5219.8672 3621184
-4177.3452 809.55139 5219.8672 3752513
-4151.209 810.83423 5228.1387 4015942
-4118.4531 810.83423 5228.1387 3950406
-4102.3843 814.14587 5249.4917 4015942
-4074.4417 815.13562 5255.8735 4015942
-4052.6833 817.38885 5270.4019 4081735
-3944.3181 802.06769 5171.6133 4213321
-3908.5303 801.37341 5167.1367 4015942
-3823.9443 790.5788 5097.5347 3752770
-3739.1213 779.55298 5026.4419 3818563
-3681.7771 774.11743 4991.394 3752770
-3594.7686 762.29828 4915.186 3884356
-3536.4792 756.41754 4877.2681 3950149
-3519.7129 759.39307 4896.4536 3818563
-3468.2354 754.86591 4867.2632 3818563
-3419.4756 750.85529 4841.4033 3818563
-3351.5325 742.52289 4787.6772 3950149
-3245.3262 725.48627 4677.8276 3818563
-3213.594 724.93945 4674.3018 3950406
-2968.0645 675.70941 4356.874 4213322
-2840.3669 652.64008 4208.1265 4148041
-2769.1687 642.24219 4141.082 4016712
-2734.1716 640.12286 4127.4175 4017225
-2707.1106 639.83893 4125.5864 4346445
-2625.7285 626.58661 4040.1377 4873045
-2539.7256 611.96295 3945.8462 4873045
-2518.2544 612.75403 3950.9468 4807766
-2493.5007 612.75403 3950.9468 4741716
-2485.4978 616.91168 3977.7551 4676179
-2466.1736 618.31512 3986.8042 4741973
-2439.8975 617.98645 3984.6848 4609617
-2492.9282 637.9458 4113.3799 3754309
-2555.968 660.91028 4261.4512 3622724
-2630.9241 687.47333 4432.7261 3490111
-2715.0544 717.02606 4623.2773 3555904
-2738.3792 730.98462 4713.2803 3490111
-2747.3281 741.36823 4780.2324 3424574
-2747.1189 749.48218 4832.5498 3358525
-2732.8394 753.89545 4861.0059 3621184
-2677.2644 746.88782 4815.8218 3752770
-2670.5574 753.50867 4858.5122 3818563
-2692.1257 768.35229 4954.2217 3686977
-2710.8328 782.716 5046.8364 3686977
-2692.5781 786.62061 5072.0127 3621184
-2677.666 791.60663 5104.1621 3555391
-2649.5627 792.7663 5111.6396 3621184
-2619.3247 793.30786 5115.1313 3818563
-2598.5771 796.77271 5137.4722 3753537
-2589.9202 804.07825 5184.5771 3753281
-2560.229 804.95599 5190.2368 3621952
-2520.8474 802.77045 5176.1445 3753281
-2472.3376 797.58313 5142.6973 3884867
-2435.3198 796.01508 5132.5869 3884867
-2378.0786 787.7063 5079.0132 4016710
-2333.5454 783.43866 5051.4961 4148039
-2301.896 783.43866 5051.4961 4082503
-2275.052 785.0968 5062.1875 3885124
-2239.0359 783.59198 5052.4849 3884867
-2193.8848 778.80121 5021.5947 3950660
-2147.2405 773.33319 4986.3374 4016453
-2117.2058 773.77405 4989.1802 3950660
-2050.8044 760.73798 4905.1255 3884867
-2000.3094 753.29553 4857.1377 3819331
-1978.6891 756.66498 4878.8633 3950662
-1986.5513 771.59143 4975.1069 3950662
-1949.6429 769.32727 4960.5078 3885126
-1897.0146 760.68628 4904.792 3753540
-1860.8739 758.48083 4890.5718 3819076
-1841.3376 763.08289 4920.2451 3819076
-1819.0132 766.66638 4943.3511 3819076
-1748.5587 749.73724 4834.1943 3818819
-1678.1572 732.23425 4721.3379 3687490
-1648.5768 732.23425 4721.3379 3621697
-1625.8231 735.32202 4741.2471 3621440
-1584.163 729.81451 4705.7358 3621697
-1554.187 729.58307 4704.2432 3687490
-1520.8053 727.71295 4692.1851 3490368
-1482.5709 723.40143 4664.3848 3424318
-1423.7256 708.65735 4569.3174 3753539
-1259.2572 639.65558 4124.4043 4740178
-1215.8414 630.54102 4065.6348 5200729
-1300.2961 688.76971 4441.085 4542800
-1233.0574 667.43549 4303.5249 3227198
-1133.8065 627.43243 4045.5911 3555649
-1126.698 637.75604 4112.1562 3753027
nan nan nan 16777215
nan nan nan 16777215
-1103.9011 670.87427 4325.6978 2963511
-1047.5212 652.6333 4208.0825 3687491
-1004.889 642.23663 4141.0464 4148042
-990.6853 649.93951 4190.7134 4411213
-952.84326 642.13159 4140.3691 4411213
-924.35059 640.36365 4128.9697 2897974
-888.02722 632.91284 4080.928 3292732
-882.47913 647.60461 4175.6582 4082505
-857.00818 648.12701 4179.0269 4345163
-815.97876 636.54529 4104.3496 4345678
-780.07391 628.33752 4051.427 3029561
-757.65027 630.80182 4067.3164 3161148
-732.15265 630.78918 4067.2351 4477008
-711.78296 635.35303 4096.6621 4410958
-687.27338 636.42468 4103.5718 4542801
-670.35962 644.88678 4158.1343 3424576
-669.39551 669.99731 4320.043 3029819
-629.16724 656.26849 4231.5215 4542802
-595.47015 648.44397 4181.0703 4674388
-567.70752 646.65912 4169.562 4740696
-545.98724 651.91669 4203.4619 3490885
-517.0318 648.63055 4182.2734 3161662
-509.65009 673.5033 4342.6489 4609108
-487.6817 680.81793 4389.813 4806488
-460.17816 680.81793 4389.813 4674901
-427.27438 672.32062 4335.0234 3951178
-426.52957 716.70715 4621.2212 4082764
-407.43533 734.48004 4735.8184 4214093
-381.96573 742.64948 4788.4937 4345165
-359.6532 758.87311 4893.1011 4082248
-334.25247 770.99695 4971.2739 4148555
-306.9982 780.89758 5035.1118 4082762
-277.31274 786.17365 5069.1309 3950919
-245.31273 785.40424 5064.1699 4082504
-213.43217 784.8454 5060.5664 4148298
-182.6041 788.63715 5085.0151 4148298
-150.15775 785.56543 5065.209 4345677
-118.42265 785.56543 5065.209 4016968
-87.438637 792.37183 5109.0957 4082504
-55.706867 796.35016 5134.7476 4214348
-23.531378 796.19104 5133.7217 4345933
8.5909643 792.31598 5108.7358 4477519
40.835197 796.92993 5138.4858 4608849
72.606644 792.31653 5108.7393 4477263
104.30508 789.97327 5093.6304 4279884
135.71504 787.05493 5074.8135 4082505
167.50475 787.02875 5074.6445 4016712
199.29897 787.02875 5074.6445 4016968
232.27577 791.05627 5100.6133 3950919
261.00745 781.40051 5038.3545 3950919
292.57428 781.40051 5038.3545 3818820
324.81659 783.02881 5048.8535 3884612
357.52014 785.38129 5064.022 3555904
391.58923 790.10565 5094.4839 3753027
419.23822 782.14032 5043.1245 3818563
452.34393 784.75812 5060.0039 3621184
481.11209 780.00085 5029.3296 3489598
512.01575 779.07776 5023.3779 3292219
543.63947 779.29382 5024.771 3292219
572.00482 775.07104 4997.543 3160633
601.29443 772.474 4980.7979 3226427
630.40704 769.91705 4964.311 3094842
665.54236 774.61023 4994.5718 3029050
706.67548 785.54919 5065.1045 2897466
750.29547 798.19348 5146.6328 2831416
784.55914 800.25226 5159.9077 2831419
803.61017 787.24524 5076.0405 3094591
841.08313 792.58832 5110.4917 2766139
875.74628 794.98883 5125.9697 2568505
902.75159 790.51373 5097.1152 2371127
930.61169 787.06732 5074.8931 1975856
967.73669 791.4256 5102.9946 2173491
992.8996 786.03528 5068.2388 2173492
1024.6537 786.03528 5068.2388 2107442
1076.5815 801.0459 5165.0249 1910063
1097.4148 792.71912 5111.3354 1712684
1123.2411 788.36914 5083.2871 1712939
1151.1781 785.69946 5066.0737 1844268
1184.8263 786.96667 5074.2441 2370610
1207.422 781.01819 5035.8892 3226174
1231.0258 776.00818 5003.5854 3094843
1257.3175 772.89941 4983.5405 3029049
1294.095 776.2309 5005.0215 2765878
1344.9191 787.63086 5078.5269 3029048
1378.4967 788.63721 5085.0156 3160634
1415.4513 791.48651 5103.3872 3160634
1449.1459 792.42719 5109.4526 3094840
1485.3436 794.66638 5123.8906 3094840
1524.8392 798.53796 5148.854 3029046
1557.0984 798.53796 5148.854 2766131
1596.3762 802.06427 5171.5913 2700337
1631.2476 803.28046 5179.4331 2963252
1665.7001 804.24689 5185.6646 3095095
1704.4504 807.21191 5204.7822 3029045
1750.9551 813.66895 5246.4165 3160633
1785.0432 814.22437 5249.998 3160633
1823.8221 816.86066 5266.9961 3160633
1850.8896 814.25116 5250.1704 3160633
1895.967 819.51721 5284.1255 3094840
1934.9257 822.0033 5300.1553 3226426
1986.4596 829.65765 5349.5093 3160633
2025.3947 831.8833 5363.8599 3029047
2068.0969 835.55823 5387.5557 2963254
2100.3108 834.94574 5383.606 2963254
2127.4141 832.35303 5366.8887 2897461
2158.3733 831.32611 5360.2676 3094841
2178.6162 826.2666 5327.644 3094840
2207.5144 824.59265 5316.8511 2831668
2240.8262 824.59265 5316.8511 3029047
2276.646 825.50208 5322.7148 3292219
2302.3958 822.78662 5305.2056 3226426
2319.3833 817.06165 5268.2925 3358012
2353.0273 817.28271 5269.7178 3358268
2373.5151 812.99139 5242.0479 3489596
2406.241 812.95178 5241.7925 3620925
2429.8347 809.86951 5221.9185 3489852
2451.3154 806.17426 5198.0918 3160630
2483.8831 806.17426 5198.0918 3028788
2511.2483 804.50757 5187.3452 3028788
2517.3635 796.16278 5133.5396 3226167
2500.9336 780.98816 5035.6958 3554875
2509.7307 773.97137 4990.4526 3751741
2514.2249 765.81665 4937.8721 3751228
2538.9199 763.93842 4925.7612 3948350
2541.2329 755.45154 4871.0396 3158321
2404.1597 706.2215 4553.6113 2302755
2419.9971 702.5368 4529.853 2236449
2462.3936 706.55847 4555.7842 2565414
2498.3682 708.66638 4569.3755 2828330
2508.3452 703.43579 4535.6494 3026478
2512.6099 696.73834 4492.4653 3618358
2584.4888 708.73077 4569.791 3816506
2666.5149 723.21259 4663.1675 3619643
2719.7458 729.65527 4704.709 3422778
2790.7036 740.66461 4775.6953 3423292
2840.8345 745.97144 4809.9131 3423548
2924.6145 759.90997 4899.7866 3357755
2976.7471 765.42133 4935.3232 3358012
3007.6685 765.42133 4935.3232 3358012
3044.0176 766.78864 4944.1392 3423805
3103.9771 774.01593 4990.7397 3489598
3149.9109 777.63641 5014.084 3555391
3157.5952 771.83569 4976.6821 3621184
3215.2769 778.25031 5018.0425 3423805
3305.4138 792.32031 5108.7637 3358012
3337.9399 792.4433 5109.5566 3292219
3402.4551 800.08618 5158.8369 3292219
3421.2109 796.92627 5138.4619 3292219
3443.123 794.55353 5123.1631 3292219
3446.9727 788.09491 5081.519 3226426
3460.8938 784.03613 5055.3486 3160633
3467.3362 778.37207 5018.8276 3160633
3464.2583 770.69189 4969.3071 3160633
3480.9304 767.50317 4948.7466 3160376
3482.4817 761.06622 4907.2422 3226169
3446.2659 746.56055 4813.7114 3160633
3476.4253 746.56055 4813.7114 3094583
3530.9165 751.74084 4847.1133 3094840
3504.9614 739.85156 4770.4531 3160376
3472.5042 726.80255 4686.3149 3160376
3456.0312 717.28979 4624.978 3028790
3462.0679 712.56818 4594.5337 3028790
3464.8367 707.25745 4560.291 3094583
3483.6353 705.27881 4547.5332 3291962
3512.9856 705.45129 4548.645 3357498
3545.0884 706.16919 4553.2739 3422521
3563.3713 704.14478 4540.2207 3422775
3565.134 698.91376 4506.4922 3488571
3400.5093 661.4024 4264.6245 3489597
3370.5242 650.45935 4194.0654 3160377
3328.1006 637.30371 4109.2397 3225914
3244.4077 616.50806 3975.1523 4672856
3273.0901 617.22021 3979.7444 6055790
3308.2671 619.13708 3992.1042 5397604
3342.3064 620.81396 4002.916 4344913
3340.8352 615.91907 3971.3547 3752002
3572.4414 653.74921 4215.2778 3225915
3779.1147 686.49493 4426.4175 3291708
3874.136 698.62909 4504.6567 3357243
3969.325 710.61786 4581.9585 3291191
4064.5872 722.44739 4658.2334 3488061
4154.46 733.15729 4727.2891 3291708
4195.5122 735.16083 4740.208 3225660
4225.2114 735.16083 4740.208 3160123
4284.979 740.35614 4773.7065 3225916
4411.8022 756.98492 4880.9263 3423038
4455.1494 759.16034 4894.9531 3488831
4513.728 763.88373 4925.4087 3554880
4582.9238 770.32764 4966.958 3620674
4704.7969 785.47913 5064.6528 3620417
4795.001 795.1759 5127.1763 3423294
4862.626 801.02411 5164.8848 3423295
4943.4209 808.9502 5215.9907 3489087
4994.127 811.88068 5234.8857 3620673
5080.3735 820.51294 5290.5454 3489087
5111.1587 820.13391 5288.1021 3554880
5138.5723 819.22235 5282.2241 3620416
5187.312 821.70062 5298.2036 3554110
5292.5669 833.04279 5371.3359 3685696
5407.959 845.82709 5453.7676 3619903
5465.6611 849.4845 5477.3501 3685696
5499.978 849.4845 5477.3501 3488317
5585.6021 857.3598 5528.1284 3554110
5651.3286 862.10266 5558.71 3554110
5681.7827 861.43964 5554.4351 3554110
nan nan nan 16777215
nan nan nan 16777215
nan nan nan 16777215
nan nan nan 16777215
nan nan nan 16777215
nan nan nan 16777215
-4205.5186 723.20044 4482.9463 3290938
-4190.1045 725.39447 4496.5464 3291193
-4170.0688 726.8125 4505.3364 3422778
-4143.9854 727.18878 4507.6689 3291192
-4140.1548 731.50189 4534.4048 3291192
-4115.0112 732.08289 4538.0063 3225399
-4096.5376 733.86682 4549.0645 3225399
-4069.2468 734.08527 4550.4185 3291192
-4052.5908 736.23877 4563.7676 3029046
-4023.9976 736.23877 4563.7676 3160376
-4045.9888 745.56012 4621.5483 3357755
-4050.9944 751.86328 4660.6201 3555134
-4083.4868 763.39648 4732.1118 3620927
-4090.1746 770.23907 4774.5273 3620927
-4054.7271 769.18927 4768.02 3752513
-4041.8726 772.44171 4788.1812 3752513
-4044.094 778.64557 4826.6372 3884099
-3993.918 774.77826 4802.6646 3752513
-3970.2439 776.03235 4810.4385 3686720
-3972.491 782.41095 4849.978 3686720
-3947.8674 783.55481 4857.0684 3555134
-3938.594 787.78668 4883.3008 3620927
-3923.4512 790.90167 4902.6099 3752513
-3902.2253 792.8299 4914.5625 3818563
-3874.8315 793.5257 4918.8755 3752770
-3827.9412 790.20789 4898.3091 3752770
-3798.2761 790.42102 4899.6304 3752770
-3774.3833 791.84875 4908.4805 3686977
-3726.8347 788.29614 4886.459 3818563
-3678.8318 784.58789 4863.4722 3818563
-3648.3608 784.58789 4863.4722 3752770
-3604.8723 781.76489 4845.9731 3621184
-3566.958 780.1131 4835.7339 3555391
-3499.5669 771.93097 4785.0151 3555391
-3432.3259 763.64093 4733.627 3555647
-3360.9653 754.28174 4675.6113 3555391
-3297.918 746.64008 4628.2427 3752770
-3225.6555 736.75812 4566.9868 3818563
-3165.3457 729.45374 4521.7085 3489598
-3104.4695 721.88562 4474.7959 3489854
-3044.9368 714.49493 4428.9829 3489854
-2968.0645 702.86212 4356.874 3490112
-2840.3669 678.86584 4208.1265 3556162
-2771.4939 668.61096 4144.5591 3820104
-2681.9209 653.12115 4048.5417 4412241
-2609.271 641.49615 3976.4807 4741977
-2554.3035 634.03613 3930.238 5071199
-2511.9224 629.58557 3902.6499 5005664
-2465.8179 624.10504 3868.6777 4874590
-2450.0771 626.27722 3882.1423 4676696
-2476.092 639.27332 3962.7021 4413523
-2445.6851 637.8183 3953.6826 4084046
-2420.9141 637.8183 3953.6826 4281424
-2467.761 656.8819 4071.8535 4609619
-2456.1565 660.62244 4095.04 4149068
-2487.3464 676.07367 4190.8184 3556418
-2540.814 697.9743 4326.5752 3358525
-2595.137 720.5849 4466.7329 3292988
-2602.9819 730.64227 4529.0762 3424318
-2585.1362 733.63068 4547.6006 3490111
-2566.1074 736.34625 4564.4336 3686977
-2526.1912 733.06165 4544.0732 3884356
-2510.9314 736.93872 4568.1064 3950149
-2504.5862 743.55176 4609.0991 3884356
-2498.2908 750.33405 4651.1411 3687234
-2474.9558 752.09833 4662.0771 3621184
-2472.196 760.23193 4712.4956 3555391
-2454.5322 763.92352 4735.3789 3818563
-2405.9688 757.97101 4698.4805 4015942
-2408.9163 768.2998 4762.5063 3950659
-2391.9858 772.46838 4788.3462 3884867
-2360.1702 771.87476 4784.6665 3753281
-2330.4258 771.9519 4785.145 3555901
-2279.0298 764.76562 4740.5986 3490109
-2178.7432 740.76685 4591.8359 3358523
-2149.9741 740.76685 4591.8359 3753281
-2206.6995 770.62329 4776.9087 3950660
-2176.1685 770.41016 4775.5879 3950660
-2166.0833 777.53021 4819.7231 3819331
-2125.478 773.74121 4796.2363 3819074
-2070.5234 764.54517 4739.2319 3753538
-2030.9733 760.85223 4716.3408 3687488
-1981.4963 753.27673 4669.3818 3687488
-1952.2412 753.27673 4669.3818 3687488
-1887.8701 739.521 4584.1133 3819075
-1887.7324 750.89069 4654.5913 3950662
-1854.3756 749.19604 4644.0864 3884869
-1809.4503 742.69916 4603.814 3687490
-1768.21 737.52863 4571.7632 3687490
-1741.5962 738.38922 4577.0977 3753540
-1722.3645 742.46082 4602.3364 3818820
-1701.8691 746.117 4625.0005 3752770
-1643.1876 732.86871 4542.8774 3555391
-1604.7881 728.35858 4514.9204 3424062
-1557.7235 719.68335 4461.1445 3555391
-1519.5204 714.85999 4431.2456 3753283
-1491.7572 714.85999 4431.2456 3753283
-1456.7159 711.30609 4409.2158 3490111
-1283.5854 638.88324 3960.2839 4345421
-1311.5063 665.64771 4126.1904 5003351
-1281.4891 663.49109 4112.8223 5069145
-1235.1558 652.62494 4045.4656 4213837
-1186.3579 639.97406 3967.0457 2831926
-1110.944 612.11652 3794.3635 2042153
-1126.3557 634.17889 3931.123 3292221
-1101.7261 634.17889 3931.123 3621186
-1100.9867 648.24518 4018.3167 3818565
-1043.7161 628.90613 3898.4382 2963256
-982.19836 606.01971 3756.571 1778470
-982.38135 621.01379 3849.5156 2963257
-966.3902 626.28082 3882.1646 3555393
-956.04108 635.5705 3939.749 4279116
-935.06787 638.1026 3955.4451 4344909
-905.21124 634.54541 3933.3948 2371119
-882.75922 636.12494 3943.1858 2239789
-858.05389 636.12494 3943.1858 4279117
-842.89813 643.41437 3988.3713 4542288
-807.08948 634.90253 3935.6086 4937559
-777.04016 630.52759 3908.4895 3029562
-763.86975 640.01001 3967.2686 1977131
-741.09668 641.81403 3978.4514 3753285
-709.77307 636.08087 3942.9126 4608594
-667.82428 620.06885 3843.6582 4937303
-648.09967 624.26575 3869.6736 3424321
-624.24579 624.6568 3872.0977 1845547
-604.19177 629.03558 3899.2407 2634549
-588.72375 638.75922 3959.5151 4805718
-569.02753 644.54889 3995.4041 4805718
-547.70758 648.94763 4022.6709 4280402
-514.21649 638.65424 3958.8645 1977646
-488.98318 638.09338 3955.3879 3030336
-476.41791 654.88623 4059.4827 4938330
-453.64487 658.75012 4083.4341 4740952
-433.00488 666.35852 4130.5967 4214351
-416.12173 681.08313 4221.8711 3490628
-403.65961 705.53412 4373.437 3819593
-388.96643 729.36285 4521.1455 3753798
-367.02567 742.27716 4601.1982 3819077
-342.30334 751.28821 4657.0552 4082248
-322.51474 773.8161 4796.7007 4410957
-291.83694 772.16254 4786.4502 4213835
-259.92239 766.48303 4751.2446 4148297
-230.47565 767.55298 4757.877 3950661
-199.97516 764.91022 4741.4951 4016455
-171.8073 771.82434 4784.354 4016455
-144.39967 785.79816 4870.9741 4016455
-114.23643 788.24707 4886.1548 4016455
-82.896156 781.39429 4843.6758 3884869
-52.772381 784.71552 4864.2632 3819077
-22.259995 783.43903 4856.3506 3621698
8.1220274 779.16803 4829.876 3753283
38.047569 772.36493 4787.7051 3819076
67.746025 768.98236 4766.7373 3885125
97.441978 767.6499 4758.4775 3950662
127.33669 768.14075 4761.5205 4016455
157.59596 770.22705 4774.4526 3753282
187.50938 770.22705 4774.4526 3555904
218.3597 773.54596 4795.0259 3753283
249.87317 778.12726 4823.4243 3753283
276.90814 769.27826 4768.5718 3818820
305.03134 764.88153 4741.3174 3884100
336.40869 768.70105 4764.9937 3686977
366.15561 768.47595 4763.5981 3621184
394.15012 764.88409 4741.333 3621184
423.04587 763.42212 4732.2705 3621184
451.33047 761.12085 4718.0059 3489598
481.45197 762.00995 4723.5171 3358012
511.48563 762.6651 4727.5781 3423805
539.59833 760.54102 4714.4111 3292219
565.36707 755.50519 4683.1953 3094841
595.10803 756.01233 4686.3394 3094841
625.74487 757.55652 4695.9111 3094842
658.97247 761.95758 4723.1924 3094843
684.74731 757.73328 4697.0068 3160636
715.94342 759.60901 4708.6343 3094843
741.68988 755.78308 4684.918 3094843
768.07196 752.87146 4666.8696 3160636
806.81818 761.84845 4722.5156 3226429
830.34332 756.32599 4688.2837 3292222
866.86951 762.61841 4727.2886 3489600
910.49652 774.53564 4801.1606 3029050
932.27905 767.70227 4758.8022 3029050
930.4801 742.47565 4602.4287 3489088
957.57074 741.12506 4594.0566 3489344
1008.8414 758.02173 4698.7949 3423807
1026.9521 749.75092 4647.5264 3292220
1057.2043 750.55597 4652.5166 3095098
1074.7426 742.53387 4602.7896 3160635
1117.8933 752.16418 4662.4854 3094842
1159.4547 760.26172 4712.6802 3160635
1188.1497 759.7301 4709.3848 3160632
1218.8127 760.45221 4713.8608 3094840
1249.3658 761.07318 4717.71 3292218
1293.5449 769.77405 4771.6445 3358011
1326.6132 771.61926 4783.0825 3358011
1361.7958 774.58557 4801.4702 3423805
1389.8719 773.46893 4794.5483 3555391
1422.8323 775.06006 4804.4116 3358012
1455.0364 776.18195 4811.3657 3358012
1485.181 776.18195 4811.3657 3358012
1498.5573 767.59265 4758.123 3292219
1551.5266 779.22351 4830.2197 3292219
1586.9658 781.7735 4846.0264 3292219
1617.3276 781.7735 4846.0264 3094840
1658.3749 786.84332 4877.4531 2765875
1696.2054 790.23108 4898.4531 2897461
1731.9015 792.52179 4912.6523 2963254
1768.9119 795.3233 4930.0186 2963254
1806.3042 798.19751 4947.835 3029047
1849.6644 803.56738 4981.1216 3160633
1882.4376 804.23596 4985.2661 3094840
1921.978 807.72675 5006.9043 3160633
1957.4202 809.41064 5017.3428 3160633
1984.218 807.52338 5005.644 3160631
2015.5801 807.52338 5005.644 3029558
2099.7263 828.34692 5134.7241 3029301
2131.897 828.34692 5134.7241 2897459
2108.7686 807.17999 5003.5151 3292730
2156.5498 813.37787 5041.9346 3555389
2174.9368 808.47034 5011.5137 3489853
2194.9778 804.30847 4985.7153 3292472
2227.2317 804.67584 4987.9927 3292472
2262.0806 805.95764 4995.938 3160887
2295.2004 806.59674 4999.8999 3226424
2347.4221 813.84131 5044.8071 3621181
2365.6433 809.26196 5016.4209 3357753
2384.6235 805.05908 4990.3682 3160374
2403.2227 800.83801 4964.2026 3094581
2397.6367 788.76837 4889.3862 3160374
2398.511 779.10175 4829.4648 3357497
2406.9375 772.09863 4786.0542 3554362
2420.3975 766.86255 4753.5972 3619642
2417.0947 756.50745 4689.4082 3750971
2423.2703 749.33191 4644.9287 2960685
2404.1597 734.60034 4553.6113 2302499
2414.8259 729.20612 4520.1738 2302242
2437.1511 727.41675 4509.082 2630693
2465.4019 727.41675 4509.082 2631464
2484.4634 724.73608 4492.4653 2763563
2467.9624 711.85803 4412.6372 3552821
2542.5413 725.24518 4495.6211 3815998
2574.9639 726.44592 4503.064 3553595
2627.1321 733.13086 4544.5024 3554108
2680.1177 739.89813 4586.4512 3423292
2716.7903 742.0661 4599.8896 3423549
2767.6616 748.02606 4636.834 3423548
2819.1924 754.03851 4674.104 3423548
2848.509 754.04706 4674.1567 3358012
2890.4485 757.36273 4694.71 3489598
2943.1377 763.39996 4732.1333 3358012
2994.0334 768.85626 4765.9556 3489598
3044.4265 774.07697 4798.3174 3621184
3074.9885 774.20258 4799.0962 3621184
3149.3667 785.25073 4867.5811 3489598
3175.3269 784.13043 4860.6367 3423805
3184.4495 778.9129 4828.2944 3423805
3206.9773 777.04169 4816.6953 3292219
3229.7971 775.27545 4805.7466 3160633
3235.3604 769.43787 4769.5605 3160633
3256.696 767.42371 4757.0757 3358012
3264.4021 762.26355 4725.0889 3292219
3294.0059 762.26355 4725.0889 3358012
3308.9512 758.90149 4704.2485 3226426
3317.0461 754.04169 4674.1235 2897461
3380.3125 761.69879 4721.5884 2436653
3389.1475 757.06439 4692.8604 2765618
3422.7034 757.98413 4698.562 3291962
3424.4736 751.90918 4660.9048 3423548
3401.1299 740.4693 4589.9917 3423548
3374.8748 728.59277 4516.3716 3357755
3362.5872 719.90411 4462.5127 3423548
3385.2532 718.78015 4455.5459 3357755
