# .PCD v0.7 - Point Cloud Data file format
VERSION 0.7
FIELDS x y z rgb
SIZE 4 4 4 4
TYPE F F F U
COUNT 1 1 1 1
WIDTH 1285
HEIGHT 1
VIEWPOINT 0 0 0 1 0 0 0
POINTS 1285
DATA ascii
-409.69772 605.89563 1217.0018 2831154
-402.07285 605.89563 1217.0018 2765618
-393.7341 604.79907 1214.7993 2831411
-386.99149 606.15948 1217.5317 3423548
-376.50131 601.58655 1208.3466 4081478
-363.68515 593.03308 1191.1661 4147271
-355.1329 591.21979 1187.5239 3620670
-350.74405 596.40833 1197.9457 3423291
-341.62869 593.61108 1192.327 3686720
-333.26324 592.02087 1189.1331 3291705
-325.26569 591.02649 1187.1356 3226169
-315.0307 585.82483 1176.6876 3094840
-306.5433 583.7016 1172.4229 3423548
-298.70703 582.74426 1170.5 3686977
-291.37347 582.74426 1170.5 3292219
-285.25433 585.23578 1175.5044 3358012
-277.76108 584.96539 1174.9614 3621184
-271.00583 586.27692 1177.5957 3028790
-264.10349 587.33472 1179.7205 2765618
-256.71216 587.33472 1179.7205 3029047
-249.36307 587.43414 1179.9202 3226169
-243.28708 590.63043 1186.3402 2897204
-237.69939 595.25092 1195.621 3752513
-230.4361 595.83966 1196.8033 3094583
-222.13258 593.68768 1192.481 2962997
-214.70029 593.79547 1192.6974 3160376
-207.22768 593.79547 1192.6974 2765875
-200.67778 596.53839 1198.2069 2568239
-193.41336 597.28796 1199.7124 2634032
-185.01888 594.46716 1194.0466 2699825
-176.56049 591.19476 1187.4736 2502446
-171.27718 598.73352 1202.616 3291962
-164.93053 603.07788 1211.342 3291962
-157.79169 604.80499 1214.8112 3028790
-150.70743 606.92688 1219.0732 3160376
-143.5603 609.00879 1223.2549 3028790
-135.62643 607.79968 1220.8263 2831411
-127.83861 607.13971 1219.5007 2634032
-120.92958 610.83472 1226.9225 2831411
-113.24886 610.8689 1226.9911 2962997
-105.31802 609.46057 1224.1624 3094583
-97.45108 608.22992 1221.6904 3028791
-89.359436 605.2674 1215.74 2765873
-81.901161 606.44257 1218.1005 2699823
-74.37545 607.30865 1219.8401 2502443
-66.707191 607.07581 1219.3724 2568236
-58.882027 605.17017 1215.5447 2765616
-50.982262 601.81769 1208.8109 2962995
-43.514652 603.2868 1211.7617 2897202
-36.012909 604.80365 1214.8085 2634030
-28.345465 603.60498 1212.4008 2370858
-20.752424 603.69287 1212.5774 2436651
-13.162476 604.02448 1213.2434 2370858
-5.5507603 602.89825 1210.9813 2831409
2.0300617 601.01776 1207.2042 2765616
9.5138664 596.02454 1197.1747 2436651
17.227486 603.48419 1212.1582 2831409
24.847939 604.11401 1213.4232 2765616
32.433643 603.80188 1212.7963 3028788
39.767078 599.80322 1204.7646 2831409
47.029877 596.18494 1197.4969 2568237
54.933792 600.57141 1206.3076 2436651
62.444958 600.12238 1205.4056 2699823
69.9972 600.12238 1205.4056 2634030
77.346558 598.55231 1202.2521 2634030
85.397964 602.21167 1209.6023 2370858
92.652779 600.11493 1205.3907 2436651
100.20493 600.11493 1205.3907 2370858
107.92983 601.07703 1207.3232 2502444
115.64585 601.86694 1208.9098 2699823
123.22005 601.86694 1208.9098 2634030
131.21335 603.79553 1212.7836 3291960
138.80083 603.74774 1212.6875 3620925
145.43042 599.75458 1204.6669 3160374
153.0383 599.99084 1205.1415 2831409
160.56529 599.90271 1204.9645 3094581
167.15277 596.46991 1198.0693 3094581
173.96494 594.09949 1193.3081 2831409
183.22163 599.92859 1205.0165 2831409
190.32486 598.52423 1202.1957 2831409
197.53888 597.56195 1200.2628 2897202
205.70332 599.43988 1204.0348 2436651
213.74962 600.85278 1206.8728 2305065
219.14516 594.97247 1195.0616 1976100
225.69441 592.50952 1190.1145 1910307
234.34029 595.53229 1196.186 2502444
241.56493 594.86774 1194.8513 2568238
250.94733 599.39716 1203.949 2305067
259.4292 601.57404 1208.3214 2370860
265.99884 599.31891 1203.7919 2567982
274.82434 602.13074 1209.4397 2436653
282.88153 603.1535 1211.494 2502446
290.87521 603.99091 1213.176 2436653
298.15631 603.34375 1211.8761 2567982
305.48584 602.82422 1210.8326 2699825
312.06641 600.88782 1206.9431 2634032
321.02142 603.50684 1212.2037 2502446
328.58182 603.4436 1212.0767 2305067
335.26895 601.81567 1208.8069 2173481
344.16748 604.14154 1213.4785 2239274
351.70782 604.03424 1213.2631 2305067
358.15225 602.08911 1209.3561 2634032
367.19241 604.49786 1214.1943 2831411
374.98315 604.79376 1214.7886 2370860
384.67947 608.09015 1221.4097 2502446
394.21545 611.0094 1227.2733 2634032
401.84726 610.92206 1227.0979 2699825
409.09756 610.26892 1225.786 2699825
415.81195 608.85504 1222.9462 2634032
423.49561 608.88611 1223.0084 2962997
432.66708 611.01697 1227.2886 2436140
445.30716 617.88635 1241.0864 2830898
453.40439 618.32477 1241.9669 3160376
463.88327 621.94147 1249.2314 2699825
472.2915 622.70807 1250.7712 2765618
479.6618 622.10345 1249.5569 2962997
483.94818 617.5827 1240.4766 2962997
496.01138 622.97241 1251.3022 1976102
499.73651 617.88489 1241.0835 1976102
505.51248 615.4502 1236.1931 2173481
513.65979 615.93243 1237.1617 2568239
516.86023 610.55676 1226.3641 2634032
528.74744 615.44971 1236.1921 2305067
533.56299 612.08899 1229.4418 2305067
539.28839 609.85278 1224.9502 2502446
543.87323 606.40765 1218.0303 2173481
550.30762 605.09155 1215.3868 1976102
555.83301 602.8255 1210.8352 2305067
565.3772 604.92041 1215.043 2568239
567.03613 598.63489 1202.418 2568239
573.0293 597.03009 1199.1945 2239274
580.5426 597.03009 1199.1945 2634032
585.38153 594.31482 1193.7406 3160376
589.49921 590.94507 1186.9722 2502446
593.94843 587.98749 1181.0316 2370860
601.34796 587.98749 1181.0316 2699569
611.37555 590.526 1186.1304 2896434
616.77521 588.58704 1182.2358 3160376
625.20319 589.54974 1184.1694 3489341
629.56696 586.70233 1178.4502 3226426
641.21533 590.63086 1186.3411 2634289
649.86633 591.74017 1188.5691 2633775
659.09265 593.34222 1191.787 2568238
671.98962 598.17578 1201.4957 2699825
672.9245 592.37213 1189.8385 3357755
683.00458 594.65784 1194.4297 3291962
687.9234 592.44916 1189.9933 3226169
696.63666 593.52057 1192.1454 3160376
703.68353 593.16467 1191.4304 3291962
710.8678 592.93073 1190.9606 3357755
718.32013 592.92291 1190.9449 3489341
724.67365 592.0177 1189.1266 3291961
732.12384 592.0177 1189.1266 3291959
736.1665 589.28998 1183.6477 3094583
743.5824 589.28998 1183.6477 3028533
752.19653 590.2301 1185.5361 3159604
759.74231 590.32184 1185.7203 3028274
767.29376 590.41608 1185.9097 2567466
772.61127 588.80615 1182.6759 2501674
778.89136 587.95337 1180.963 2501930
778.50208 582.12952 1169.2653 2370088
782.94366 579.99298 1164.9738 2962225
797.30914 585.17938 1175.3912 3817534
803.47522 584.30811 1173.6411 3160376
810.82843 584.30811 1173.6411 2502445
824.39471 588.74512 1182.5533 2568495
831.1391 588.27472 1181.6085 2765874
837.09515 587.25952 1179.5693 2897459
843.19006 586.3587 1177.7599 2634030
850.56909 586.3587 1177.7599 2699566
857.5943 586.11682 1177.2742 2962482
865.60229 586.5451 1178.1344 3028275
874.82465 587.78204 1180.6189 2764848
884.00861 588.97266 1183.0103 2962227
891.22949 588.84637 1182.7567 2896691
896.75775 587.61316 1180.2797 2896434
907.80914 589.98956 1185.053 3751743
918.2821 591.95459 1188.9999 3751743
933.36633 596.83667 1198.8059 3225399
938.82013 595.53168 1196.1848 3028020
939.23907 591.07898 1187.2411 2896434
944.55646 589.75464 1184.5811 2567469
950.69482 588.95953 1182.984 2896434
967.70758 594.86139 1194.8385 3291192
975.19366 594.86139 1194.8385 3225399
975.46777 590.49573 1186.0696 2896434
990.59534 595.11951 1195.3569 2764848
998.08466 595.11951 1195.3569 2830641
1015.0138 600.7063 1206.5785 3159606
1017.2966 597.60645 1200.3522 3028020
1023.5318 596.85687 1198.8466 2764848
1027.8578 595.01306 1195.1431 2764848
1039.9739 597.67279 1200.4855 2962227
1046.9146 597.34143 1199.8199 2962484
1058.4653 599.62646 1204.4095 2699055
1058.9126 595.63348 1196.3893 2370090
1061.7985 593.05865 1191.2175 2370090
1072.6761 594.95239 1195.0212 2238504
1081.5675 595.72583 1196.5748 2172711
1089.5417 595.98694 1197.0992 1909796
1094.2495 594.46991 1194.0521 1909539
1092.3071 589.38519 1183.839 1844003
1098.3195 588.63226 1182.3267 1712160
1106.9937 589.30652 1183.681 2370090
1116.8601 590.60236 1186.2837 2567469
1125.8315 591.41071 1187.9075 2633262
1138.7361 594.26111 1193.6327 2567469
1148.9153 595.66132 1196.4452 2830898
1158.5184 596.74664 1198.6251 2896434
1169.1024 598.31995 1201.7853 2764848
1174.8325 597.40491 1199.9474 2764848
1181.72 597.08624 1199.3074 2764848
1188.7506 596.84363 1198.8199 2830641
1198.5724 597.99658 1201.1357 2764848
1207.8973 598.88873 1202.9277 2896434
1218.6768 600.48651 1206.1371 2633262
1228.1233 601.41193 1207.9958 2501676
1237.1896 602.14087 1209.4601 2304297
nan nan nan 16777215
nan nan nan 16777215
nan nan nan 16777215
nan nan nan 16777215
nan nan nan 16777215
nan nan nan 16777215
nan nan nan 16777215
nan nan nan 16777215
nan nan nan 16777215
nan nan nan 16777215
nan nan nan 16777215
nan nan nan 16777215
nan nan nan 16777215
nan nan nan 16777215
nan nan nan 16777215
nan nan nan 16777215
nan nan nan 16777215
-1055.4506 612.10962 1214.283 3028790
-1050.2166 613.4964 1217.0339 2962997
-1038.624 611.1618 1212.4027 2831411
-1030.1212 610.62439 1211.3365 2765618
-1018.5739 608.26074 1206.6477 2699825
-1006.8645 605.76434 1201.6954 2634289
-1000.5356 606.49182 1203.1385 2502703
-989.15698 604.14612 1198.4852 2568239
-981.66199 604.15466 1198.5022 2173481
-969.85474 601.48895 1193.214 1976102
-960.25861 600.16376 1190.5852 2041895
-950.37128 598.6344 1187.5513 2370860
-946.44604 600.86609 1191.9784 2765875
-935.99231 598.95551 1188.1882 3160376
-927.65295 598.37823 1187.0431 3291962
-929.98096 604.72809 1199.6398 2962997
-913.81848 599.05994 1188.3955 3160376
-901.62061 595.91901 1182.1646 3226169
-890.21844 593.25635 1176.8824 3357755
-885.90173 595.31042 1180.9573 2699825
-876.81506 594.16687 1178.6887 2502703
-869.43024 594.16687 1178.6887 2962997
-860.5993 593.1701 1176.7114 3094583
-852.87659 592.92664 1176.2284 3291962
-846.51556 593.63379 1177.6312 3226426
-841.70789 595.45233 1181.2388 3028534
-834.30707 595.45233 1181.2388 2831411
-824.68909 593.85577 1178.0715 2370860
-818.53992 594.75079 1179.847 2107688
-811.16315 594.76202 1179.8694 2107688
-805.17578 595.80164 1181.9316 2502445
-796.71399 595.01245 1180.3662 2962996
-790.55988 595.94818 1182.2224 3357498
-782.89575 595.7525 1181.8342 3226169
-775.16174 595.49939 1181.3322 3160376
-770.90997 597.94238 1186.1785 2963254
-768.02985 601.50714 1193.2501 3226426
-758.83093 600.14459 1190.5471 3621184
-748.08087 597.51599 1185.3326 3423805
-740.65436 597.51599 1185.3326 2700082
-731.55005 596.14874 1182.6202 2568496
-723.88861 595.94122 1182.2087 3094841
-714.64087 594.41022 1179.1714 3358012
-706.12036 593.45825 1177.283 3029047
-701.23914 595.57709 1181.4863 3094840
-693.9621 595.68475 1181.6998 3423548
-684.22217 593.65778 1177.6787 3357755
-676.84363 593.65778 1177.6787 3291962
-669.84082 593.99091 1178.3396 3291962
-662.94836 594.43042 1179.2115 3029047
-664.09674 602.17096 1194.5669 2765618
-653.41504 599.23865 1188.75 2831668
-641.32599 594.93323 1180.209 2634032
-632.33917 593.43878 1177.2444 3291962
-628.77142 597.05469 1184.4175 3291962
-621.96228 597.6424 1185.5834 3160373
-618.39734 601.39929 1193.0361 3818560
-611.94647 602.40729 1195.0358 3818560
-604.70532 602.65247 1195.5222 3884097
-595.20654 600.62579 1191.5017 3950147
-588.28772 601.18402 1192.6091 3226167
-582.27661 602.69623 1195.609 3226167
-575.35052 603.28845 1196.7838 3555132
-571.78479 607.46631 1205.0718 2831409
-562.38538 605.47534 1201.1221 2634030
-548.14868 598.15186 1186.594 2897459
-538.87024 596.11188 1182.5472 3094581
-530.3017 594.8114 1179.9673 2962995
-523.6745 595.68225 1181.6949 2239272
-516.27081 595.68225 1181.6949 2765616
-517.2356 605.47845 1201.1283 3094581
-507.19443 602.49005 1195.2 3686718
-497.80386 600.19653 1190.6501 3752768
-491.63858 601.78101 1193.7935 2831409
-483.97592 601.55334 1193.3418 2305065
-479.72913 605.63092 1201.4307 2765616
-471.2518 604.41241 1199.0135 3160374
-462.9859 603.43011 1197.0648 3357496
-454.34537 601.91913 1194.0674 2831409
-447.81995 603.20654 1196.6213 2568753
-439.19888 601.66693 1193.5671 2897461
-432.41583 602.63556 1195.4886 3950149
-428.17712 607.2467 1204.6361 4015942
-422.56104 610.03491 1210.1672 3291962
-414.06653 608.69354 1207.5063 2766132
-406.50113 608.69354 1207.5063 2765875
-400.39905 610.92627 1211.9355 3160633
-391.63547 609.10602 1208.3245 2897204
-380.22083 603.0094 1196.2302 3489341
-369.39111 597.61395 1185.527 4081478
-361.34842 596.59857 1183.5127 4081735
-352.55316 594.27216 1178.8976 3489341
-345.02533 594.0282 1178.4137 2831668
-337.01648 592.92737 1176.2299 3555391
-329.3602 592.41144 1175.2064 3884356
-320.64429 589.92242 1170.2687 3884356
-313.42191 590.12903 1170.6786 4016199
-305.61414 589.21686 1168.869 4410700
-297.05234 586.77051 1164.016 3489598
-289.7594 586.77051 1164.016 3489598
-281.45578 584.6709 1159.851 4081735
-272.84738 581.81018 1154.1759 3949892
-268.64459 588.44385 1167.3356 3226169
-263.07727 592.37622 1175.1365 2568496
-254.85818 590.39209 1171.2004 2831411
-247.72717 590.88568 1172.1797 3423548
-239.54155 588.81708 1168.0759 3489341
-233.02391 590.84735 1172.1035 3884099
-225.90607 591.43835 1173.276 3489341
-218.27647 590.6842 1171.78 2897204
-211.17279 591.35046 1173.1016 2831411
-206.81104 600.01971 1190.2994 2765618
-198.96588 598.85327 1187.9855 2305067
-191.22939 597.93585 1186.1655 2765618
-184.14632 599.07007 1188.4155 2962997
-175.48677 594.95502 1180.2522 2699825
-170.92416 604.97888 1200.1372 3226169
-164.25777 608.13635 1206.401 3423548
-155.97618 605.33008 1200.8339 2831411
-148.56178 605.77533 1201.7172 2831411
-140.84938 604.98816 1200.1556 2897461
-134.28949 609.34167 1208.792 2897204
-126.09251 606.34332 1202.844 2699825
-118.58936 606.51233 1203.1792 2962997
-111.26684 607.6908 1205.517 3028790
-103.90485 608.80951 1207.7363 2897204
-96.127663 607.48029 1205.0995 3226169
-88.127029 604.39197 1198.9729 2699823
-81.086426 607.92572 1205.983 2831408
-73.530563 607.92572 1205.983 3291962
-65.910667 607.33551 1204.8123 3423547
-58.179939 605.43945 1201.0509 3226169
-50.182369 599.79071 1189.8451 2765617
-42.790127 600.66809 1191.5857 2831409
-35.43565 602.55865 1195.3361 2568237
-27.924139 602.07654 1194.3796 2436651
-20.444075 602.16766 1194.5604 2699823
-12.959011 602.13171 1194.4891 2700079
-5.4638925 600.89197 1192.0298 2765872
2.0018494 600.08423 1190.4274 3028788
9.4864006 601.74323 1193.7185 2634030
16.94528 601.02905 1192.3016 2568237
24.483015 602.69299 1195.6025 2568237
32.236336 607.64099 1205.4183 2765616
39.336693 600.73877 1191.7258 2765616
46.720558 599.67773 1189.621 2568237
54.190655 599.86316 1189.9889 2436651
61.622532 599.63184 1189.5299 2502444
69.260422 601.23877 1192.7178 2370858
76.776459 601.57806 1193.3907 2107686
83.934364 599.29993 1188.8715 2436651
91.363823 599.17401 1188.6218 2436907
99.135231 601.14075 1192.5232 2436651
106.53716 600.74823 1191.7446 2305065
114.33292 602.48254 1195.1851 2568237
122.53251 606.00067 1202.1643 2765873
130.53703 608.20258 1206.5323 3094581
137.8828 607.26221 1204.6669 3291960
145.08409 605.81616 1201.7982 2962995
152.06526 603.63892 1197.479 2699823
159.43953 603.1535 1196.5161 2699823
166.13803 600.27014 1190.7961 2699823
173.1904 598.85822 1187.9952 2634029
180.11206 597.12927 1184.5654 2436650
187.62746 597.42773 1185.1575 2502443
195.27831 598.11835 1186.5275 2765616
202.76572 598.276 1186.8402 2568237
212.25253 604.11328 1198.42 2305065
218.47374 600.57458 1191.4001 2107686
225.03848 598.18298 1186.6558 1910307
232.20247 597.48627 1185.2736 1976100
239.56879 597.3371 1184.9778 2305065
248.05376 599.9024 1190.0667 2173482
256.22092 601.57178 1193.3783 2173481
263.66592 601.49908 1193.2341 2173481
270.86444 600.88348 1192.0129 2305067
279.02271 602.37299 1194.9678 2436653
286.6163 602.59747 1195.4131 2436910
294.57828 603.56525 1197.3329 2568239
302.22803 603.86115 1197.9199 2568496
309.49182 603.39014 1196.9856 2699825
317.2356 603.85522 1197.9082 2370860
324.98102 604.30182 1198.7941 1910309
332.43979 604.20715 1198.6063 2107688
340.38968 604.98962 1200.1586 2173481
347.83997 604.86951 1199.9203 2436653
356.08176 606.10175 1202.3647 2765875
363.61496 606.10175 1202.3647 2831411
373.79276 610.42053 1210.9323 2305067
381.25256 610.21716 1210.5288 2239274
389.13693 610.68805 1211.4629 2305067
396.91083 610.97076 1212.0238 2370860
406.93826 614.64673 1219.316 2305067
414.57767 614.64673 1219.316 2305067
423.3822 616.34296 1222.6809 3291962
432.09372 617.84576 1225.6622 3423291
444.78076 624.88153 1239.6194 3949378
449.84052 621.1438 1232.2047 3686719
461.3678 626.31213 1242.4574 2502446
469.15219 626.31213 1242.4574 2634032
472.7966 620.87555 1231.6725 2765618
483.54538 624.79315 1239.4441 2568239
493.27814 627.29486 1244.407 2173481
496.22797 621.22717 1232.3701 2239274
503.51978 620.69788 1231.3201 2305067
509.10187 618.10883 1226.184 2173481
515.30347 616.33759 1222.6703 2502703
522.96387 616.33759 1222.6703 2765874
531.61371 617.48688 1224.9502 2897204
537.4425 615.37335 1220.7574 2962997
543.38367 613.44586 1216.9338 2107688
546.76147 608.71808 1207.5549 2173481
551.15802 605.23792 1200.6511 2042152
557.32245 603.76672 1197.7327 2173738
559.78265 598.375 1187.0367 2370603
565.50995 596.57129 1183.4585 2173224
573.33752 597.00116 1184.3113 2239274
578.46313 594.64246 1179.6322 2436653
581.27527 589.99518 1170.4131 2436653
591.05945 592.45215 1175.2871 2436653
598.66547 592.6922 1175.7633 2304811
603.67981 590.39178 1171.1998 2370347
615.68048 594.89716 1180.1375 2502446
621.99377 593.86536 1178.0906 2765618
626.96857 591.59485 1173.5864 2962997
634.00128 591.2962 1172.994 2699825
647.87299 597.30975 1184.9235 2568239
652.71686 594.95801 1180.2582 2831411
665.46979 599.78735 1189.8385 2962997
671.30273 598.34186 1186.9709 3160376
677.24725 597.02643 1184.3615 3094583
685.91467 598.11377 1186.5186 3423548
689.48566 594.78149 1179.908 3357755
697.19568 595.05249 1180.4456 3160376
703.37823 594.02777 1178.4128 3226169
711.9024 594.98145 1180.3047 3423548
717.80737 593.74902 1177.8597 3620927
725.04199 593.63025 1177.6241 3555134
728.54498 590.48938 1171.3934 3291962
735.88416 590.48938 1171.3934 3028790
744.19006 591.25745 1172.9171 2963253
756.20709 594.93018 1180.203 2961970
762.33661 593.9447 1178.248 2501676
769.40845 593.70538 1177.7732 2172711
773.96509 591.5481 1173.4938 1646365
777.49475 588.65393 1167.7523 1580572
785.9209 589.48633 1169.4037 2041123
793.24756 589.48633 1169.4037 2962225
797.66431 587.34363 1165.1531 3093811
804.96436 587.34363 1165.1531 2633260
820.6698 593.42157 1177.2102 2502444
829.92059 594.76544 1179.8762 3291959
838.38477 595.52679 1181.3865 3423803
842.63165 593.30542 1176.9799 2700081
843.00549 588.41925 1167.2867 2436652
850.52448 588.56152 1167.569 2634029
859.07855 589.41156 1169.2552 2897458
870.6275 592.28455 1174.9546 3028275
874.59344 589.9939 1170.4105 3488571
885.84576 592.61591 1175.6119 3093813
893.18939 592.60132 1175.583 2896434
901.15082 592.99353 1176.3611 3093813
913.93274 596.5257 1183.3682 3291192
932.79297 603.93652 1198.0695 3225399
936.80035 601.68921 1193.6113 2962227
932.7262 594.328 1179.0084 2830641
941.06879 594.93225 1180.207 2501676
950.69482 596.33209 1182.984 2896434
959.07996 596.93793 1184.1858 2962227
967.59949 597.61743 1185.5339 2896434
974.44489 597.2605 1184.8258 2896434
982.4574 597.61896 1185.5369 2830898
988.45007 596.75256 1183.8181 2567469
1013.752 607.46973 1205.0785 2830641
1006.5103 598.67151 1187.6249 3093813
1013.8047 598.58508 1187.4534 2962227
1017.9132 596.63251 1183.58 2699312
1026.4366 597.27716 1184.8589 2633262
1035.9933 598.50952 1187.3036 2830898
1046.3541 600.18567 1190.6285 3093813
1051.0951 598.63727 1187.5569 3028020
1057.2552 597.91315 1186.1205 2764848
1064.3438 597.72064 1185.7385 2304297
1070.3191 596.90991 1184.1302 2172711
1078.7628 597.47748 1185.2562 2041125
1085.2423 596.95685 1184.2234 1909539
1092.1742 596.69049 1183.6949 1909539
1097.9718 595.81213 1181.9525 2238504
1105.7655 596.02142 1182.3678 2567469
1111.0978 594.9101 1180.1632 2501676
1116.7325 593.97437 1178.3069 2501676
1124.8755 594.37616 1179.1039 2370090
1135.8459 596.25702 1182.8351 2501676
1150.6693 600.12305 1190.5044 2830641
1153.8495 597.90582 1186.106 2830641
1160.7736 597.64471 1185.588 2699055
1167.3383 597.203 1184.7117 2699055
1175.6044 597.63184 1185.5624 2699055
1183.8569 598.0484 1186.3888 2764848
1191.29 598.0484 1186.3888 2764848
1200.3259 598.84808 1187.9751 2699055
1214.2098 602.04163 1194.3104 2633262
1220.8136 601.60846 1193.4512 2304297
nan nan nan 16777215
nan nan nan 16777215
nan nan nan 16777215
nan nan nan 16777215
nan nan nan 16777215
nan nan nan 16777215
nan nan nan 16777215
nan nan nan 16777215
nan nan nan 16777215
nan nan nan 16777215
nan nan nan 16777215
nan nan nan 16777215
nan nan nan 16777215
nan nan nan 16777215
nan nan nan 16777215
nan nan nan 16777215
nan nan nan 16777215
-1042.6748 612.17639 1199.5847 2897204
-1038.7371 614.29236 1203.7311 2765618
-1031.1953 614.29236 1203.7311 2831411
-1014.2794 608.66693 1192.7079 2897204
-1004.1964 607.08881 1189.6155 2765875
-994.625 605.79883 1187.0876 2699825
-988.8866 606.84143 1189.1307 2634032
-981.79889 607.06561 1189.5699 2568239
-975.20209 607.59912 1190.6154 2173481
-959.75879 602.58649 1180.793 1910566
-946.95416 599.16553 1174.0895 2634032
-938.11389 598.21912 1172.2349 3028790
-926.76917 595.64807 1167.1968 3094583
-909.83392 589.41443 1154.9818 3752513
-907.31903 592.49756 1161.0233 4410443
-895.28088 589.36151 1154.8781 4147271
-896.95831 595.27673 1166.4692 3423548
-892.99463 597.51471 1170.8546 3357755
-883.00812 595.72632 1167.3502 3094583
-878.71454 597.78094 1171.3763 2831411
-872.62054 598.63513 1173.05 3160376
-862.98987 597.05688 1169.9575 3226169
-850.24078 593.2757 1162.5481 2765618
-842.93091 593.25732 1162.5121 3094583
-837.91071 594.86414 1165.6606 3226169
-830.60754 594.86414 1165.6606 3160376
-820.75488 593.02209 1162.0511 3160376
-812.56116 592.35645 1160.7468 2568239
-808.2052 594.50171 1164.9506 2634289
-801.64557 595.05042 1166.0258 3291962
-793.55768 594.46429 1164.8772 3028533
-785.35052 593.77716 1163.5308 2765361
-774.30212 590.90881 1157.9102 3950149
-767.04742 590.90881 1157.9102 4015942
-766.72223 596.29803 1168.4705 3358012
-761.03607 597.5816 1170.9857 3226426
-754.13373 597.9259 1171.6604 3686977
-746.79291 597.9259 1171.6604 3555391
-730.52319 590.70593 1157.5126 3489598
-721.94788 589.62531 1155.395 3358012
-712.0752 587.45251 1151.1373 3752770
-703.20404 586.06995 1148.4281 4410955
-702.784 591.77496 1159.6073 3753024
-695.51874 591.77496 1159.6073 3226680
-689.17938 592.57104 1161.1674 2766129
-683.50659 593.9635 1163.8959 2962995
-673.61499 591.68024 1159.4216 3028788
-667.37689 592.59131 1161.207 3160373
-661.0144 593.41077 1162.8127 3226167
-660.35358 599.42407 1174.5961 3423547
-655.72064 601.9267 1179.5001 3423546
-646.12128 599.87543 1175.4805 3357754
-639.71503 600.77557 1177.2444 3489341
-632.33917 600.77557 1177.2444 3489341
-622.33832 598.25201 1172.2994 3357754
-614.97333 598.23242 1172.261 3160374
-610.51886 601.07782 1177.8367 3423546
-606.45306 604.38025 1184.3079 3291960
-598.04785 603.38629 1182.3602 3489339
-588.98059 601.6911 1179.0385 3752511
-581.59357 601.6911 1179.0385 3357753
-571.79669 599.16589 1174.0902 3226167
-566.68658 601.54999 1178.762 3555132
-560.06219 602.36841 1180.3656 4081476
-552.28918 601.95679 1179.5591 4147269
-541.45221 598.14923 1172.098 3160374
-535.26294 599.44189 1174.631 3291960
-527.62872 599.12994 1174.0197 3028788
-521.69458 600.76685 1177.2273 2370858
-515.37341 601.99854 1179.6409 2831409
-508.84479 603.02032 1181.6431 3357753
-499.8671 601.12708 1177.9332 3555132
-493.88193 602.82971 1181.2697 3753023
-487.72369 604.36975 1184.2874 3226680
-480.30377 604.36975 1184.2874 3358266
-475.09338 607.19366 1189.8209 3029557
-466.62262 605.87427 1187.2355 3226423
-458.85526 605.44019 1186.3849 3095094
-452.52148 606.91455 1189.2739 2569262
-443.46677 604.72784 1184.9891 3226426
-435.74023 604.30878 1184.1678 4015942
-429.58902 606.09772 1187.6733 4476493
-425.86163 611.42975 1198.1217 4213321
-416.66113 608.95404 1193.2705 3752770
-407.25864 606.08734 1187.6531 3094840
-399.36932 605.40784 1186.3214 2502703
-393.50638 607.83252 1191.0728 3094840
-383.00305 603.04456 1181.6906 3686463
-373.8717 600.27063 1176.255 3818306
-366.07355 599.56879 1174.8796 3949892
-358.70444 599.55511 1174.8529 4081478
-350.71716 598.48615 1172.7582 3555134
-341.45444 595.14832 1166.2175 3029047
-333.47595 593.95178 1163.8729 3292219
-323.05115 588.24725 1152.6947 3687234
-315.82913 588.24725 1152.6947 4147785
-310.19263 591.26935 1158.6166 4147528
-302.93353 591.26935 1158.6166 3950149
-294.6864 589.29352 1154.7449 3292219
-287.59525 589.58813 1155.3221 3029047
-277.48169 583.54181 1143.4741 3357755
-269.95737 582.76447 1141.9509 3949892
-263.77985 584.93121 1146.1968 3028790
-261.07251 595.12988 1166.1815 2700082
-253.5455 594.61273 1165.1681 3291962
-243.92964 589.02094 1154.2107 3160376
-236.41168 588.30804 1152.8138 3489341
-228.98788 587.79193 1151.8024 3555134
-221.7157 587.64404 1151.5127 3752513
-212.71935 582.7627 1141.9475 2831668
-205.62758 582.94104 1142.2969 2765618
-200.62933 589.28119 1154.7207 3555134
-196.1731 597.74725 1171.3103 3160376
-188.83447 597.74725 1171.3103 2897204
-181.6356 598.20752 1172.2122 2897204
-175.38664 601.96686 1179.5789 2436910
-167.36255 599.69629 1175.1295 2765618
-162.36089 608.54517 1192.4692 3160376
-153.93001 604.7746 1185.0807 2699825
-146.18079 603.43579 1182.4573 2831411
-137.80917 599.24768 1174.2505 3094583
-130.74367 600.58691 1176.8748 2962997
-124.17819 604.52039 1184.5825 3094583
-117.10529 606.32678 1188.1222 3160376
-109.75405 606.83942 1189.1267 2436653
-101.56802 602.47491 1180.5743 2699825
-93.928345 600.92023 1177.5278 2831411
-86.411201 599.95123 1175.629 2634030
-79.476845 603.22498 1182.0441 2568494
-72.070976 603.22498 1182.0441 3226166
-64.523476 601.90375 1179.4552 2897202
-57.135895 601.92566 1179.498 2962995
-49.710175 601.49243 1178.6492 2436651
-42.055809 597.65881 1171.137 2568237
-34.75843 598.3501 1172.4916 2962995
-27.563053 601.63843 1178.9352 2897202
-20.116943 599.85779 1175.4459 2897202
-12.725539 598.59381 1172.9691 2634030
-5.3892136 600.00659 1175.7375 2634286
1.9819121 601.45276 1178.5714 2370858
9.3836699 602.58575 1180.7915 2305065
16.817451 603.86963 1183.3074 2634030
24.147324 601.77838 1179.2095 2568237
31.528246 601.64117 1178.9406 2699823
38.868572 600.92841 1177.5438 2765616
46.093163 598.93915 1173.6459 2305065
53.446419 598.93915 1173.6459 2436651
60.726555 598.21893 1172.2345 2502444
68.321709 600.42242 1176.5524 2305065
75.693169 600.42242 1176.5524 2634030
83.323776 602.29559 1180.2229 2568493
90.718239 602.29559 1180.2229 2700079
97.735832 599.98206 1175.6895 2897202
105.32565 601.2594 1178.1925 2831409
112.74117 601.43958 1178.5455 2568493
120.51244 603.37878 1182.3456 2831666
127.67378 602.21643 1180.0679 3028788
134.06004 597.72559 1171.2678 2699823
140.52608 594.03809 1164.042 2699823
148.87001 598.26105 1172.3171 2765616
156.13887 597.96979 1171.7463 2436651
163.14429 596.74103 1169.3385 2305065
170.12578 595.53412 1166.9735 2305066
177.14146 594.54138 1165.0283 2305066
184.24554 593.91223 1163.7954 2239273
191.86937 594.94263 1165.8145 2370861
199.85651 596.9826 1169.8119 2699825
206.91417 596.20007 1168.2786 2831410
214.06274 595.72406 1167.3457 2699824
221.489 596.02667 1167.9387 2502445
229.10091 596.79364 1169.4417 1910307
237.21812 598.78851 1173.3507 1647135
245.03978 599.93988 1175.6068 2041895
253.09138 601.57062 1178.8022 2436653
260.47696 601.57062 1178.8022 2502446
267.57178 600.91766 1177.5228 2502446
274.86353 600.73016 1177.1554 2173481
283.05603 602.46954 1180.5638 2107688
290.47321 602.51227 1180.6476 2239274
297.47589 601.71448 1179.0842 2370860
305.23325 602.44476 1180.5153 2239274
312.62952 602.44476 1180.5153 2107688
320.3233 603.0047 1181.6125 1844516
327.14099 601.92749 1179.5016 2041895
336.45282 605.38556 1186.2778 2239274
343.88519 605.38556 1186.2778 2502446
349.89365 602.93176 1181.4696 2634032
359.32138 606.34973 1188.1672 2239274
367.82321 608.09821 1191.5934 1712930
375.28891 608.09821 1191.5934 2041895
382.11243 607.07794 1189.5941 2239274
391.30167 609.78339 1194.8955 1581344
399.8999 611.48346 1198.2269 1976102
410.21399 615.69623 1206.4821 2897204
419.09726 617.64789 1210.3064 2831411
427.53012 618.87823 1212.7173 2502190
438.99597 624.37939 1223.4971 2962740
445.18552 622.31604 1219.4539 3094585
450.37021 618.94135 1212.8409 2568241
460.53922 622.41492 1219.6476 2765621
468.18069 622.41492 1219.6476 2765618
475.1626 621.55219 1217.957 2831411
483.66495 622.67413 1220.1555 2831155
490.36423 621.47601 1217.8077 2239276
497.75549 621.1781 1217.224 2567983
504.58405 620.19757 1215.3026 2765619
510.29752 617.896 1210.7926 2699825
515.88739 615.51447 1206.1259 2831411
522.46436 614.3623 1203.8682 2831668
530.29791 614.69958 1204.5291 3028790
538.37091 615.30096 1205.7075 3028790
539.79309 608.38977 1192.1648 2436653
543.30707 603.99274 1183.5486 2041895
548.51379 601.5705 1178.8021 1844516
552.55621 597.95276 1171.7129 2305067
560.47742 598.5722 1172.9268 2502192
565.84216 596.48071 1168.8285 2041898
570.55627 593.76562 1163.5082 1910310
577.81189 593.73065 1163.4396 1976102
581.72296 590.30249 1156.722 2568239
589.03094 590.36334 1156.8413 2700081
595.59326 589.68457 1155.5111 2831155
603.86322 590.69244 1157.4861 2831411
610.52869 590.12549 1156.3751 2634032
623.73804 595.82288 1167.5394 2765875
630.0658 594.89069 1165.7128 2831411
638.40088 595.85358 1167.5995 2699825
647.1687 597.19385 1170.2258 3160376
657.10046 599.5661 1174.8744 3357755
662.60999 597.89551 1171.6008 3160376
671.69519 599.45258 1174.652 2502703
677.47217 598.05554 1171.9143 2897204
684.17834 597.49994 1170.8257 3226169
688.94537 595.28052 1166.4767 3226169
696.25366 595.28052 1166.4767 3357755
703.79871 595.48083 1166.8691 3226169
711.35345 595.68512 1167.2694 3423548
719.42346 596.31232 1168.4984 3555134
720.47662 591.16937 1158.4207 3291962
730.67664 593.55939 1163.104 2962997
738.00702 593.59418 1163.1721 2962996
749.50537 596.94775 1169.7437 3356728
756.83417 596.94775 1169.7437 3356728
762.20325 595.41687 1166.7438 2567468
764.17157 591.28369 1158.6447 1646365
771.38214 591.24634 1158.5715 1317400
777.98285 590.74664 1157.5923 1383193
787.58069 592.51099 1161.0496 1514779
791.73462 590.18494 1156.4916 2567467
796.8609 588.61926 1153.4237 3028018
806.23102 590.18848 1156.4985 2896945
821.54907 596.04498 1167.9746 2897202
832.80383 598.8761 1173.5223 2897458
835.69202 595.69397 1167.2867 2700079
836.07635 590.79761 1157.6921 2634030
842.84064 590.45508 1157.0209 2765616
847.86261 588.90814 1153.9896 2963253
857.80768 590.77789 1157.6536 3094840
869.73077 593.96729 1163.9032 4080708
871.0083 589.8938 1155.9211 3883329
880.8504 591.64008 1159.343 3159606
889.24603 592.39417 1160.8207 3093813
899.54669 594.39478 1164.741 3159606
907.05243 594.53131 1165.0085 3356985
921.69958 599.30914 1174.3708 3356985
927.56018 598.34338 1172.4784 3093813
938.3512 600.54816 1176.7988 2764848
942.08276 598.23584 1172.2677 2764848
947.54828 597.05182 1169.9475 3093813
955.38214 597.36682 1170.5648 3093813
962.10504 596.98761 1169.8218 3028020
969.43427 596.98761 1169.8218 2896434
976.57343 596.8714 1169.594 2435883
985.66052 597.9386 1171.6853 2962227
994.48132 598.82971 1173.4314 3093813
1002.3841 599.159 1174.0767 2896434
1010.9017 599.84827 1175.4274 2896434
1018.1339 599.77039 1175.2747 2765105
1024.5511 599.21698 1174.1903 2633262
1031.9078 599.21698 1174.1903 2962227
1037.2863 598.07648 1171.9553 2962227
1045.8639 598.78339 1173.3407 2962227
1055.8367 600.2738 1176.2611 2764848
1060.0082 598.46814 1172.7229 2501676
1066.8738 598.198 1172.1935 2238504
1071.1763 596.50415 1168.8744 2041382
1080.019 597.34448 1170.5211 2041125
1090.5458 599.09863 1173.9584 2041125
1095.6355 597.86249 1171.536 2304297
1096.4945 594.34943 1164.6521 2567469
1104.631 594.80151 1165.538 2370090
1113.4072 595.58984 1167.0828 2370090
1122.3269 596.44415 1168.7568 2370090
1126.8131 594.94659 1165.8223 2435883
1133.7913 594.77557 1165.4871 2633519
1144.7601 596.68671 1169.2322 2501676
1152.6508 596.97937 1169.8055 2567469
1157.6426 595.77643 1167.4484 2633262
1167.2468 596.94751 1169.7432 2633262
1179.1984 599.29694 1174.3469 2699055
1188.1002 600.0769 1175.8752 2699055
1199.0488 601.87457 1179.3979 2764848
1205.4117 601.36249 1178.3945 2304297
nan nan nan 16777215
nan nan nan 16777215
nan nan nan 16777215
nan nan nan 16777215
nan nan nan 16777215
nan nan nan 16777215
nan nan nan 16777215
nan nan nan 16777215
nan nan nan 16777215
nan nan nan 16777215
nan nan nan 16777215
nan nan nan 16777215
nan nan nan 16777215
nan nan nan 16777215
nan nan nan 16777215
nan nan nan 16777215
nan nan nan 16777215
nan nan nan 16777215
-1025.0646 613.60974 1187.8868 2568239
-1012.1104 610.28625 1181.4529 2634289
-1001.9827 608.6308 1178.248 2502703
-994.60065 608.6308 1178.248 2502703
-980.81873 604.68518 1170.6097 2634032
-975.15802 605.72473 1172.6222 2634032
-968.69006 606.27478 1173.687 2502446
-959.49963 605.11633 1171.4443 2568239
-951.2359 604.52893 1170.3073 2634032
-939.39203 601.63947 1164.7135 2962997
-921.64844 594.89673 1151.6603 3160376
-911.97784 593.2995 1148.5682 3423548
-903.99921 592.78638 1147.5748 3620927
-895.80383 592.12183 1146.2883 3620927
-890.50861 593.37891 1148.7219 3620927
-885.59717 594.91437 1151.6945 3357755
-884.87823 599.31458 1160.2128 3160376
-877.60919 599.31458 1160.2128 3094583
-865.15356 595.74316 1153.2988 3226169
-855.57928 594.1123 1150.1417 3686720
-846.34229 592.69 1147.3883 3752513
-839.84271 593.17676 1148.3306 3291962
-835.76495 595.39728 1152.6293 3226169
-828.15692 595.11951 1152.0916 3226169
-820.47632 594.78436 1151.4427 3029047
-811.74805 593.677 1149.299 3028790
-803.25903 592.72632 1147.4586 2831668
-794.03442 591.21088 1144.5248 2897204
-790.42847 593.88928 1149.71 3160633
-780.24323 591.62823 1145.3328 3686977
-773.06738 591.62823 1145.3328 4015942
-764.64301 590.66376 1143.4657 3950149
-755.53088 589.14478 1140.5251 3818820
-747.62494 588.54639 1139.3666 3686977
-744.33899 591.6084 1145.2944 3489598
-742.15198 595.612 1153.0449 3621184
-730.828 592.28937 1146.6127 3358012
-722.72729 591.53894 1145.16 3292219
-715.52069 591.51263 1145.109 3358012
-709.28668 592.29797 1146.6294 3489598
-699.45557 590.06488 1142.3063 3884355
-692.57513 590.30054 1142.7625 3160631
-687.41498 592.02264 1146.0963 2765615
-678.90668 590.86713 1143.8594 2962995
-671.73999 590.86713 1143.8594 2962996
-665.41589 591.61621 1145.3094 3160375
-657.23816 590.71558 1143.566 2962997
-655.15985 595.33759 1152.5138 3226169
-648.81415 596.14172 1154.0706 3620928
-640.58716 595.21594 1152.2782 3818307
-631.75446 593.69977 1149.3431 3686720
-627.6496 596.64301 1155.0409 3555134
-623.46588 599.57892 1160.7246 3489341
-619.31049 602.61182 1166.5959 3489340
-613.55603 604.14264 1169.5594 3094581
-607.62872 605.53815 1172.261 2699823
-594.83356 600.03979 1161.6168 2699823
-587.55566 600.03979 1161.6168 2962995
-582.10223 601.92639 1165.269 3094581
-574.56689 601.68079 1164.7936 2962995
-562.96814 597.1189 1155.9622 2831409
-560.63953 602.39874 1166.1835 3489339
-553.54785 602.63269 1166.6364 3818304
-545.91693 602.27789 1165.9495 3818304
-537.61346 601.16144 1163.7882 2962995
-532.63025 603.77808 1168.8536 3291960
-526.53162 605.18561 1171.5785 3884097
-520.62683 606.85883 1174.8177 3357753
-513.26624 606.85883 1174.8177 3028788
-500.14078 599.9436 1161.4305 3160374
-498.79214 607.15967 1175.4001 2831666
-492.28711 608.22119 1177.4551 3687488
-486.48093 610.19165 1181.2697 4016196
-476.3548 606.72076 1174.5504 3818817
-467.7757 605.14221 1171.4945 3358266
-462.11087 607.34357 1175.7561 3226680
-454.74438 607.34357 1175.7561 2963764
-447.43457 607.42053 1175.905 3358011
-440.2298 607.64502 1176.3397 3423805
-429.58618 603.04968 1167.4436 3556161
-420.65518 600.74103 1162.9742 4345677
-419.60162 609.79907 1180.5098 3950662
-411.62491 608.94037 1178.8474 3490368
-402.76526 606.72028 1174.5494 3555648
-395.94693 607.54974 1176.1553 3226683
-389.37775 608.80017 1178.576 3160889
-380.00638 605.63312 1172.4448 3950149
-372.34314 605.11707 1171.4459 3753027
-365.00369 605.11707 1171.4459 4147271
-353.64594 598.31879 1158.285 4279114
-343.23138 592.86475 1147.7266 4015942
-335.72363 592.30566 1146.6443 3489598
-327.79056 590.95532 1144.0302 3094840
-320.86798 591.4071 1144.9048 4015942
-314.1781 592.3183 1146.6687 4081735
-308.23846 594.71967 1151.3175 3555391
-297.40097 587.55963 1137.4564 3423804
-290.31589 587.64355 1137.6189 3555391
-282.14075 585.46967 1133.4104 3818306
-273.09448 581.32916 1125.3949 3752513
-264.66684 578.32098 1119.5713 3555134
-259.1394 581.65881 1126.033 3489341
-254.04332 586.17859 1134.7828 2831411
-246.67931 585.57507 1133.6145 2831411
-240.23201 587.17639 1136.7145 3028790
-233.24931 587.52698 1137.3932 3028790
-226.6284 588.8396 1139.9343 3094583
-219.69121 589.38922 1140.9983 4015941
-211.55527 586.65161 1135.6985 3028790
-205.13818 588.65564 1139.5782 2699825
-200.31451 595.54169 1152.9088 3094583
-193.8277 597.81323 1157.3064 3291962
-186.29543 596.91162 1155.5609 3028790
-180.86563 602.94611 1167.243 2634032
-173.3446 602.22388 1165.8448 2634032
-164.38467 596.21924 1154.2205 2897204
-157.49268 597.50745 1156.7144 3028790
-152.24031 605.44055 1172.0721 2699825
-144.51952 603.86359 1169.0193 2765618
-136.54909 601.01953 1163.5134 3094583
-129.09058 600.23492 1161.9945 3028790
-123.1071 606.625 1174.3651 3752513
-115.60284 605.85718 1172.8787 3160376
-108.10411 605.01617 1171.2505 2370860
-99.60318 598.03522 1157.7361 2568239
-92.349609 598.03522 1157.7361 2634033
-85.033913 597.59869 1156.891 2765616
-77.9869 599.1449 1159.8843 2699823
-70.885872 600.55133 1162.6071 2502444
-63.156162 596.34369 1154.4614 2765616
-55.820553 595.25018 1152.3445 2897202
-48.363468 592.34381 1146.7181 2634030
-41.071808 590.80298 1143.7352 2831409
-34.014179 592.6889 1147.3861 3160374
-26.885529 594.01624 1149.9558 2634287
-19.754608 596.24707 1154.2744 2831409
-12.521542 596.19092 1154.1658 2699823
-5.2853298 595.62689 1153.0737 2436651
1.9483861 598.49939 1158.6346 2436651
9.2287064 599.87183 1161.2916 1910307
16.437944 597.45074 1156.6046 2370858
23.632971 596.15259 1154.0916 2502444
30.463247 588.41736 1139.1169 2962995
37.779625 591.22571 1144.5536 2897458
45.184628 594.30377 1150.5123 2239528
52.459057 595.05365 1151.9641 2107686
59.776108 596.04718 1153.8875 2107686
67.413231 599.67352 1160.9077 2173479
74.732735 600.0434 1161.6237 2370858
81.646904 597.38184 1156.4712 2502444
89.159515 599.1759 1159.9443 3160374
96.407089 599.05261 1159.7057 2699823
102.5409 592.51099 1147.0417 2634030
110.25636 595.36688 1152.5704 2700080
118.05496 598.29309 1158.2352 2765873
125.31166 598.29309 1158.2352 2897202
132.45999 597.80396 1157.2883 3028788
138.98592 594.70245 1151.2842 2568237
146.22147 594.79358 1151.4606 2436907
153.84309 596.37268 1154.5176 2568493
161.04712 596.26392 1154.307 2502957
168.19798 595.97607 1153.7498 2371116
175.70882 596.93494 1155.6061 2370859
181.58145 592.47266 1146.9675 2765617
188.70863 592.28772 1146.6095 2897459
197.0519 595.79321 1153.3958 2831410
204.11113 595.30573 1152.452 2831409
210.53342 593.05725 1148.0992 2305065
218.79317 595.96246 1153.7234 2305066
227.52444 599.92505 1161.3947 1976100
234.92352 600.23828 1162.001 1712928
243.0419 602.31519 1166.0217 2370860
250.82263 603.45862 1168.2352 2568239
256.8476 600.43268 1162.3773 2502446
263.20728 598.33453 1158.3156 2568239
269.16885 595.46832 1152.7668 2041895
275.8082 594.2121 1150.3348 1844516
282.71457 593.58044 1149.1121 2107688
292.05478 597.96332 1157.5969 2173481
299.3075 597.96332 1157.5969 1976102
305.8374 596.55347 1154.8676 2634032
313.073 596.55347 1154.8676 2370860
322.78204 601.1601 1163.7855 1844773
332.67056 605.89008 1172.9423 1910309
340.01941 605.89008 1172.9423 2305067
346.10556 603.68762 1168.6786 2107688
354.24963 605.09155 1171.3965 1647137
361.29181 604.5946 1170.4344 1515551
369.07526 605.33313 1171.8641 1778723
377.31375 606.77472 1174.6549 2041895
385.93866 608.77057 1178.5187 2107688
394.12906 610.01904 1180.9355 2107945
405.32263 615.78406 1192.0961 1844517
413.42163 616.72412 1193.9159 1778469
422.05338 618.41132 1197.1821 2239019
428.40002 616.74988 1193.9657 2567214
437.48752 619.02356 1198.3674 2962996
446.52881 621.15625 1202.4961 2897717
456.3183 624.24176 1208.4694 2501419
463.34891 623.51398 1207.0604 2962226
470.26538 622.65845 1205.4042 2962483
478.52005 623.57385 1207.1763 2699568
485.97601 623.43616 1206.9097 2239530
491.93826 621.41577 1202.9984 2436652
500.50732 622.69958 1205.4838 2568239
506.74704 621.09033 1202.3684 2699825
512.13104 618.49469 1197.3436 3357755
517.11102 615.49323 1191.533 3291962
530.00696 621.86499 1203.8682 2634032
532.77942 616.34668 1193.1852 1910309
537.20886 612.87128 1186.4573 1910309
540.11865 607.78101 1176.6029 1581600
542.9248 602.71252 1166.7909 1515808
546.2583 598.35638 1158.3579 1844773
550.96521 595.59924 1153.0203 2436653
557.85962 595.24756 1152.3395 1976102
564.86212 595.01874 1151.8965 1647137
573.62958 596.63135 1155.0183 1844516
580.4151 596.16803 1154.1215 1976102
583.39746 591.85791 1145.7775 2305067
590.5246 591.80621 1145.6774 2567725
598.2934 592.39124 1146.8098 2305067
605.47925 592.39197 1146.8113 2502446
612.59357 592.32349 1146.6787 2502446
621.65009 594.11273 1150.1426 2765875
628.85608 594.11273 1150.1426 2897204
637.39313 595.35596 1152.5493 3160633
652.52551 602.66278 1166.6946 3423548
657.1897 600.24646 1162.0168 3423548
660.4989 596.65906 1155.072 3555134
670.39954 599.03931 1159.6799 3357755
678.58179 599.84943 1161.2483 3160376
681.56372 596.0943 1153.9786 3094583
686.28094 593.91962 1149.7687 2897204
693.08618 593.57837 1149.1082 3028790
701.78448 594.84882 1151.5675 2831411
710.98291 596.51294 1154.7892 3094583
718.21802 596.51294 1154.7892 3226169
723.33832 594.77405 1151.4227 3357755
727.38263 592.19342 1146.427 3357755
736.45459 593.71649 1149.3755 3226426
744.5116 594.39978 1150.6982 2897458
755.02844 597.01501 1155.761 2699566
762.21216 596.96997 1155.6738 2567723
764.44159 593.08203 1148.1472 2040867
772.56024 593.79309 1149.5238 1844001
779.77496 593.80267 1149.5424 1975330
786.54169 593.47412 1148.9062 2370088
793.94843 593.63 1149.208 3093811
801.12012 593.60889 1149.1671 3422776
807.46863 592.98364 1147.9568 3159604
817.15747 594.80084 1151.4747 2962225
821.99811 593.0882 1148.1592 2830639
829.09027 593.01562 1148.0187 2699053
839.09235 595.00781 1151.8754 2830639
841.45691 591.59637 1145.2711 2764846
846.75372 590.28668 1142.7357 2764845
858.64899 593.56036 1149.0732 3488571
868.94934 595.68616 1153.1886 3883329
874.91846 594.83228 1151.5355 3291192
880.06238 593.43591 1148.8323 3028020
887.01459 593.27167 1148.5144 3159606
891.88806 591.73083 1145.5315 3488571
899.99408 592.34229 1146.7151 3422778
909.51703 593.86914 1149.671 3356985
919.72382 595.81506 1153.4381 3225399
929.45239 597.42322 1156.5513 3225399
934.58093 596.07263 1153.9366 3422778
940.61139 595.31354 1152.4672 3356985
950.54016 597.01453 1155.7601 2764848
955.92334 595.85638 1153.5181 2830641
971.23163 600.85577 1163.1964 3291192
969.77661 595.4873 1152.8036 3356985
978.34552 596.30786 1154.3921 3356985
986.71643 596.99652 1155.7253 3028020
998.05139 599.45551 1160.4856 2962227
1006.805 600.33966 1162.1973 3422778
1007.3002 596.32214 1154.4198 3685950
1016.53 597.49597 1156.6921 3488571
1025.317 598.39465 1158.432 3291192
1031.3485 597.6839 1157.056 2962227
1043.7673 600.65887 1162.8152 2830641
1051.4666 600.89539 1163.2731 2830641
1058.7548 600.89539 1163.2731 2567468
1061.2479 598.1925 1158.0405 2304297
1069.502 598.75153 1159.1228 1975589
1076.7643 598.75153 1159.1228 2040869
1081.1915 597.18567 1156.0914 2238247
1086.4613 596.10284 1153.9952 2369833
1092.0592 595.21326 1152.2731 2172711
1099.2683 595.2077 1152.2623 2172711
1108.228 596.14392 1154.0747 2238504
1112.0403 594.31702 1150.538 2304297
1115.9318 592.5556 1147.1282 2962227
1119.8765 590.84503 1143.8165 3422778
1134.7555 594.88824 1151.6439 3028020
1147.3953 597.71405 1157.1144 2501676
1153.9152 597.33624 1156.3829 2304297
1153.4058 593.34711 1148.6604 2041125
1163.2814 594.71667 1151.3118 2041125
1181.8967 600.50989 1162.5269 2238504
1185.1302 598.46472 1158.5676 2304297
nan nan nan 16777215
nan nan nan 16777215
nan nan nan 16777215
nan nan nan 16777215
nan nan nan 16777215
nan nan nan 16777215
nan nan nan 16777215
nan nan nan 16777215
nan nan nan 16777215
nan nan nan 16777215
nan nan nan 16777215
nan nan nan 16777215
nan nan nan 16777215
nan nan nan 16777215
nan nan nan 16777215
nan nan nan 16777215
nan nan nan 16777215
nan nan nan 16777215
-1006.2352 609.60553 1166.0667 2831411
-991.97742 605.36298 1157.9514 2831411
-985.38525 605.77039 1158.7307 2699825
-976.62701 604.84241 1156.9557 2831411
-967.5946 603.72943 1154.8268 2962997
-955.49847 600.67371 1148.9817 2765618
-949.95123 601.71985 1150.9827 2765618
-939.94092 599.93323 1147.5653 2897204
-930.37439 598.40454 1144.6412 3226169
-923.08899 598.33081 1144.5001 3094583
-911.95563 595.74219 1139.5485 3357755
-904.40277 595.47009 1139.0281 3489341
-892.36255 592.21564 1132.8029 3686720
-889.47296 595.03046 1138.1871 4213064
-882.48468 595.12683 1138.3715 4278600
-879.46899 597.92554 1143.725 3160119
-874.45404 599.39978 1146.5449 3160633
-867.3772 599.47351 1146.6859 3555134
-855.72083 596.35693 1140.7245 3818306
-843.36957 592.69946 1133.7284 3950149
-840.34204 595.58807 1139.2538 3884099
-833.89142 596.07928 1140.1934 3357755
-827.23315 596.42926 1140.8628 3226169
-818.01392 594.92279 1137.9812 3226169
-805.1557 590.72003 1129.942 2897204
-802.56323 594.0412 1136.2948 3291962
-796.99915 595.20258 1138.5164 3292476
-786.36725 592.5661 1133.4733 3094840
-782.31317 594.88342 1137.9059 3686977
-775.18445 594.88391 1137.9069 3950149
-763.89191 591.65942 1131.7389 3950149
-753.72504 589.25446 1127.1387 3226426
-747.18408 589.66559 1127.925 3094840
-740.02051 589.5885 1127.7776 3621184
-735.69226 591.79059 1131.9899 3621184
-727.34601 590.77209 1130.0416 3489598
-720.27222 590.77716 1130.0514 3292219
-713.34003 590.89978 1130.2859 3358012
-706.56665 591.15765 1130.7792 3292219
-701.54138 592.89813 1134.1084 3489598
-694.43585 592.89813 1134.1084 3094840
-690.59052 595.71045 1139.4878 2436911
-682.96985 595.29083 1138.6852 3160890
-674.14673 593.80316 1135.8396 2700339
-667.65839 594.3623 1136.9091 2634032
-661.84131 595.53748 1139.157 3489341
-654.67419 595.51019 1139.1049 3357755
-647.84125 595.78967 1139.6394 3226167
-640.70105 595.78967 1139.6394 3555133
-624.03088 586.82788 1122.4971 3555132
-624.50958 593.97205 1136.1626 3489341
-616.797 593.40039 1135.0691 3686720
-614.39459 597.98383 1143.8364 3291962
-607.76721 598.51465 1144.8518 3357753
-602.33099 600.24536 1148.1622 3160374
-594.73541 599.8399 1147.3867 3028788
-587.75531 600.0528 1147.7941 2897202
-580.51013 599.99713 1147.6875 3028788
-579.60303 606.57306 1160.2661 2897202
-574.1911 608.54169 1164.0317 3028788
-555.97137 596.81232 1141.5956 3423546
-553.83063 602.26227 1152.0203 3555132
-551.33612 607.46649 1161.975 3555132
-542.94757 606.22882 1159.6075 3291960
-534.685 605.10022 1157.4487 2765616
-524.81104 602.09186 1151.6943 3291960
-517.99481 602.55658 1152.5833 3160374
-510.35748 602.0658 1151.6445 3028788
-503.55765 602.56305 1152.5957 3094581
-497.27429 603.70184 1154.7739 3160374
-493.05783 607.42053 1161.8872 3160630
-486.57925 608.42218 1163.8031 3687231
-479.66205 608.8974 1164.7122 3884610
-472.46924 609.03204 1164.9697 3687231
-463.01685 606.21259 1159.5765 3226680
-456.43292 607.11865 1161.3097 3226680
-450.65948 609.14966 1165.1946 3358266
-440.75986 605.57831 1158.3633 3424059
-431.68338 603.03729 1153.5028 3555134
-420.82443 597.87732 1143.6327 3555135
-417.63461 603.62305 1154.6233 3292476
-411.62778 605.42816 1158.076 4081735
-406.52765 608.65552 1164.2494 4147785
-399.88513 609.64935 1166.1504 3424574
-389.50024 604.86847 1157.0055 3358782
-382.25128 604.86847 1157.0055 3358525
-371.25214 598.81964 1145.4352 4739922
-363.06036 597.14978 1142.241 4871509
-356.31683 597.84259 1143.5663 4345165
