# .PCD v0.7 - Point Cloud Data file format
VERSION 0.7
FIELDS x y z rgb
SIZE 4 4 4 4
TYPE F F F U
COUNT 1 1 1 1
WIDTH 1268
HEIGHT 1
VIEWPOINT 0 0 0 1 0 0 0
POINTS 1268
DATA ascii
2405.6775 719.99103 3219.3594 3357501
2417.3213 717.46033 3208.0437 3752259
2411.1963 709.74103 3173.5278 3225915
2408.1526 703.04773 3143.5994 2765364
2427.7468 703.01837 3143.468 2699571
2446.3015 702.69086 3142.0037 2699571
2466.5369 702.84747 3142.7041 2765364
2491.3142 704.28564 3149.1348 2699571
2510.5132 704.13666 3148.4685 2633778
2528.4023 703.62543 3146.1826 2633778
2549.7434 704.07538 3148.1943 2699571
2575.8748 705.83093 3156.0442 2699571
2583.1208 702.42432 3140.812 2831157
2619.759 707.00146 3161.2781 2765364
2632.2253 705.0354 3152.4871 2765364
2651.2327 704.83765 3151.6028 2896950
2703.2881 713.36371 3189.7261 2699572
2693.0015 705.43408 3154.2698 2502193
2687.2029 698.78717 3124.5488 2567986
2701.9617 697.54346 3118.9875 2436400
2721.7969 697.61884 3119.3245 2304814
2749.3442 699.65558 3128.4319 2436400
2756.8228 696.59265 3114.7361 2567986
2763.7229 693.42755 3100.5837 2633779
2783.1489 693.42755 3100.5837 2699572
2796.6074 691.95093 3093.9814 2699572
2809.0134 690.23615 3086.3137 2765365
2827.2246 689.96143 3085.0854 2699572
2837.1035 687.6709 3074.8438 2633779
2869.1741 690.75391 3088.6289 2567986
2893.2976 691.89508 3093.7317 2567986
2902.6489 689.51208 3083.0762 2633779
2923.2549 689.81641 3084.437 2567986
2947.3374 690.9317 3089.4238 2567986
2969.3755 691.55627 3092.2166 2567987
2987.5764 691.28491 3091.0034 2633779
3006.9426 691.28491 3091.0034 2633779
3026.0386 691.22321 3090.7273 2436401
3047.5454 691.70947 3092.9019 2436400
3051.8882 688.31848 3077.7393 2502193
3069.3936 687.92004 3075.9578 2370607
3084.1465 686.91364 3071.4575 2370607
3103.3899 686.91364 3071.4575 2239021
3144.3188 691.6839 3092.7874 2304815
3186.6067 696.69287 3115.1843 2370607
nan nan nan 16777215
nan nan nan 16777215
nan nan nan 16777215
nan nan nan 16777215
nan nan nan 16777215
nan nan nan 16777215
nan nan nan 16777215
nan nan nan 16777215
-2658.6799 660.30475 2872.4343 3423807
-2643.6321 661.04205 2875.6418 3292221
-2625.6152 661.04205 2875.6418 3292221
-2602.1064 659.64978 2869.5852 3358014
-2581.9417 659.0918 2867.158 3292221
-2567.0828 659.88983 2870.6296 3423807
-2543.9941 658.56885 2864.8828 3358014
-2528.9744 659.33258 2868.2053 3555393
-2499.73 656.37225 2855.3274 3489600
-2481.8406 656.37225 2855.3274 3489600
-2461.8694 655.81769 2852.915 3489343
-2451.4666 657.82263 2861.6367 3423807
-2433.5376 657.82263 2861.6367 3686722
-2398.7163 653.22247 2841.6255 3818565
-2364.2222 648.64337 2821.7056 3621442
-2342.4612 647.51495 2816.7969 3226428
-2347.8569 653.93323 2844.7173 3423807
-2385.1013 669.38812 2911.9485 4213323
-2366.8569 669.38812 2911.9485 4081736
-2342.9756 667.78143 2904.9592 3884615
-2329.1233 669.03046 2910.3926 3753029
-2318.3186 671.1814 2919.7498 3687236
-2307.021 673.22284 2928.6304 3555650
-2289.0562 673.33575 2929.1213 3621444
-2278.8938 675.76416 2939.6855 3687494
-2260.4758 675.76416 2939.6855 3753030
-2271.1538 684.53387 2977.8352 3490113
-2233.9966 678.91168 2953.3777 3489857
-2220.5925 680.47449 2960.176 3489600
-2199.7083 679.75195 2957.0332 3555393
-2193.9382 683.72754 2974.3274 3423809
-2184.0068 686.46326 2986.2283 3226941
-2165.2974 686.46326 2986.2283 3161148
-2137.9495 683.70087 2974.2114 3029562
-2119.3152 683.70087 2974.2114 3095355
-2094.4753 681.68115 2965.4255 3095355
-2075.896 681.68115 2965.4255 3095355
-2052.6279 680.12756 2958.667 3161148
-2043.101 683.1402 2971.7725 3161148
-2020.6808 681.8576 2966.1929 3292734
-1990.2155 677.81122 2948.5903 3292734
-1973.024 678.25201 2950.5081 3490113
-1959.2043 679.87122 2957.5518 3358527
-1968.5303 689.62994 3000.0039 2963769
-1900.2343 672.12152 2923.8394 2832183
-1890.3215 675.12372 2936.8994 3029562
-1873.322 675.62903 2939.0977 3095355
-1852.2944 674.67719 2934.957 2963769
-1841.4294 677.44495 2946.9973 3029562
-1829.955 680.0423 2958.2961 3029563
-1791.1202 672.42126 2925.1433 3161148
-1780.661 675.40552 2938.1255 3028793
-1769.9276 678.34705 2950.9214 3094842
-1752.6488 678.81555 2952.9595 3094842
-1730.4939 677.38531 2946.7378 2897463
-1711.5751 677.20459 2945.9517 2831670
-1693.1177 677.20459 2945.9517 2897463
-1676.4225 677.91718 2949.0515 2831670
-1665.6589 681.07098 2962.771 2963256
-1649.2017 681.94165 2966.5586 2963256
-1624.6222 679.43524 2955.6553 3160635
-1603.1187 678.1723 2950.1614 3226428
-1579.47 675.96185 2940.5454 3095099
-1564.285 677.3642 2946.6458 3161148
-1548.8964 678.71075 2952.5034 3161405
-1524.3462 676.02673 2940.8279 3226941
-1510.4835 678.07501 2949.738 3095611
-1489.4092 676.89636 2944.6108 3029562
-1470.9603 676.89636 2944.6108 2963769
-1456.5117 678.76056 2952.7205 2963769
-1434.5818 677.14148 2945.677 2963769
-1413.0802 675.685 2939.3411 2832183
-1380.8492 668.99194 2910.2251 3095355
-1396.8245 685.78705 2983.2866 3424577
-1365.338 679.41992 2955.5886 3490113
-1352.7484 682.4104 2968.5977 3424320
-1333.8998 682.28278 2968.0425 3424320
-1314.7302 681.98511 2966.7476 3424320
-1296.7085 682.2829 2968.043 3621699
-1278.057 682.25305 2967.9133 3621699
-1271.955 689.02045 2997.3525 3490113
-1256.0294 690.58954 3004.1785 3292734
-1242.4402 693.51044 3016.8848 3556163
-1222.6219 692.99097 3014.6248 3753285
-1206.163 694.3891 3020.707 3621955
-1195.5121 699.22882 3041.7607 3621187
-1176.4545 699.22882 3041.7607 3424322
-1158.2356 699.73547 3043.9648 3555651
-1134.5876 696.92438 3031.7358 3489858
-1141.0601 712.83405 3100.9456 3753286
-1124.0557 714.37457 3107.647 3884616
-1095.6956 708.62518 3082.6365 3489858
-1074.0737 707.10571 3076.0264 3555908
-1045.9181 701.15057 3050.1204 3489858
-1034.5562 706.44128 3073.136 3160893
-1012.8749 704.75244 3065.7893 3160893
-979.99182 695.05353 3023.5974 3095100
-958.00006 692.84918 3014.0083 3226686
-936.47882 690.90332 3005.5432 3489599
-915.15454 689.02582 2997.376 3423807
-888.92023 683.29547 2972.4478 3423807
-867.95898 681.45984 2964.4626 3555393
-847.59113 680.02014 2958.1995 3555393
-840.15442 689.1225 2997.7964 3489601
-814.96198 683.74432 2974.4004 3489600
-792.83881 680.74969 2961.3735 3358014
-786.63336 691.60651 3008.6023 3358014
-771.42108 694.88312 3022.8562 3292221
-746.60229 689.45355 2999.2366 2700084
-722.34796 684.27826 2976.7234 2765877
-706.4201 686.92535 2988.2385 2765877
-690.58276 689.80707 3000.7744 2568498
-667.89124 685.81195 2983.395 2502705
-645.47614 681.87878 2966.2849 2896694
-627.00977 682.00745 2966.8447 2831670
-609.26422 682.95197 2970.9536 2765877
-594.52325 687.43024 2990.4348 2831927
-576.57404 688.36957 2994.521 3029049
-558.46191 689.17102 2998.0076 3292221
-536.14532 684.6593 2978.3806 2765877
-519.58167 687.43341 2990.4487 2831670
-503.9133 691.64404 3008.7656 2634291
-484.40964 690.71313 3004.7161 2700341
-462.83832 686.63959 2986.9954 2831670
-444.94382 687.90735 2992.5103 2765877
-426.35989 688.17371 2993.6692 2634291
-405.30774 684.29749 2976.8069 2831670
-386.65714 684.29749 2976.8069 2831670
-368.28503 684.81549 2979.0601 3160637
-348.29971 682.22876 2967.8076 2897721
-329.70551 682.22876 2967.8076 2569013
-310.72253 681.37634 2964.0994 2897721
-292.56186 682.33331 2968.2625 2503220
-275.06262 685.06769 2980.1572 2437170
-255.41548 682.461 2968.8179 2831928
-234.87772 676.8783 2944.5322 2634549
-216.11362 675.89099 2940.2373 2569268
-197.73329 676.0318 2940.8499 2700598
-179.27066 675.89117 2940.238 2963000
-160.81779 675.7594 2939.6648 2897463
-143.49983 680.97925 2962.3718 3292221
-124.54991 678.85492 2953.1309 2963256
-105.45564 675.06537 2936.6455 2765877
-87.056641 675.06537 2936.6455 2831670
-68.65007 674.99078 2936.321 2700340
-50.639126 680.17572 2958.8765 2634547
-32.190937 682.08466 2967.1807 2634291
-13.646174 684.36877 2977.1169 2568754
5.021286 686.40552 2985.9771 2569267
23.885542 690.92334 3005.6304 2700597
42.942745 694.57874 3021.532 2766391
61.807613 693.8382 3018.3105 2766391
80.677429 693.48718 3016.7834 2634804
100.03426 696.66107 3030.5906 2963769
119.20838 697.75287 3035.3401 3160892
138.22612 697.75482 3035.3486 3095099
157.24352 697.75482 3035.3486 3094842
175.96007 696.56396 3030.168 3094842
194.88705 696.35681 3029.2668 3029049
214.04764 696.94714 3031.835 2963256
233.32448 697.78882 3035.4963 2963256
251.7917 696.26489 3028.8672 2963256
270.29434 695.04559 3023.563 2897463
289.70267 696.16241 3028.4214 2831670
308.61325 696.01941 3027.7993 3160635
324.3699 689.19183 2998.0981 2963256
349.25894 701.45319 3051.437 2897976
366.92484 698.68774 3039.4067 2700597
382.93948 693.20612 3015.5608 2897976
400.68427 691.22455 3006.9407 3226941
420.17935 692.30481 3011.6401 3029819
439.04822 692.30481 3011.6401 3029562
457.27444 691.33331 3007.4138 3621186
476.56464 691.98352 3010.2424 3621187
500.60556 699.21979 3041.7214 3094843
518.10583 697.12476 3032.6077 3160636
533.90497 692.96997 3014.5334 3160893
556.33911 697.41663 3033.8774 2963257
571.75568 693.06305 3014.9385 3094843
585.28442 686.77264 2987.5742 2963257
604.0025 686.77264 2987.5742 3226429
626.10083 690.50055 3003.7913 2831670
644.92047 690.50055 3003.7913 2963256
658.36469 684.90839 2979.4644 3094842
677.05389 684.93054 2979.5608 3029049
696.84674 686.03809 2984.3787 3160635
715.63104 686.12079 2984.7385 3094842
734.98297 686.72961 2987.387 3094842
756.51935 689.29852 2998.5623 2963256
779.51019 693.03613 3014.8213 2634291
798.06396 692.74536 3013.5564 2700341
810.50507 687.28461 2989.8013 2963256
825.81311 684.44666 2977.4558 3029306
843.92279 684.005 2975.5344 3094842
857.81152 680.23523 2959.1353 3094842
879.81158 682.92096 2970.8188 2897463
904.23676 687.33893 2990.0378 3160635
923.80725 687.96222 2992.749 3226428
946.60388 690.91547 3005.5962 3160635
963.94977 689.8526 3000.9727 3226428
984.36188 690.98285 3005.8894 3226428
1003.1947 690.98285 3005.8894 3160635
1020.9051 690.224 3002.5881 3094842
1041.9615 691.71387 3009.0693 3160635
1058.0728 689.92621 3001.2927 2897463
1076.8767 689.92621 3001.2927 2700084
1093.8483 688.77234 2996.2732 2568498
1112.6208 688.77234 2996.2732 2765877
1128.8297 687.21161 2989.4836 2831670
1146.4794 686.56464 2986.6692 2831670
1162.3082 684.86554 2979.2778 2963256
1169.5372 678.23297 2950.4253 3029306
1200.3555 685.27374 2981.0537 3292221
1219.0327 685.27374 2981.0537 3489600
1235.1268 683.84357 2974.8323 3226428
1246.9935 680.15009 2958.7651 3292221
1264.2758 679.47546 2955.8303 3358014
1274.3827 675.01965 2936.4468 3555393
1317.3932 687.87109 2992.3525 3358014
1347.5424 693.7406 3017.886 2897720
1342.6475 681.65601 2965.3159 3226428
1350.7427 676.40631 2942.4788 3094842
1365.9861 674.82928 2935.6187 3029049
1382.0449 673.69165 2930.6697 3094842
1383.2107 665.41931 2894.6838 2765877
1427.6493 677.90887 2949.0154 2107947
1438.9452 674.54279 2934.3723 2107947
1457.33 674.54279 2934.3723 2305326
1469.7371 671.81042 2922.4861 2107947
1490.6056 672.96539 2927.5105 2107947
1511.8733 674.27032 2933.187 2305326
1530.2506 674.27032 2933.187 2568498
1549.0828 674.46838 2934.0486 2568755
1568.7451 675.01898 2936.4438 2568755
1595.5101 678.57764 2951.9246 2700084
1615.8334 679.34637 2955.2688 2634291
1630.7061 677.83209 2948.6814 2502962
1645.8744 676.47333 2942.7705 2568498
1671.3665 679.34064 2955.2439 2634291
1689.8818 679.34064 2955.2439 2634291
1701.6403 676.65369 2943.5549 2634291
1720.0824 676.65369 2943.5549 2634291
1738.7668 676.74786 2943.9648 2700084
1764.038 679.37689 2955.4014 2634291
1783.5364 679.7511 2957.0293 2700084
1797.7472 678.12311 2949.9473 2634291
1808.7961 675.34772 2937.874 2502705
1831.412 676.90344 2944.6416 2568498
1849.861 676.90344 2944.6416 2502705
1877.7992 680.34143 2959.5972 2634291
1885.1193 676.31506 2942.082 2502705
1925.2975 684.04095 2975.6909 2305326
1950.3417 686.29321 2985.4885 2107947
1965.4569 685.04199 2980.0457 2107947
1981.5482 684.15143 2976.1714 2173740
2003.4558 685.26678 2981.0234 2107947
2024.0282 685.90912 2983.8176 2173740
2043.8398 686.28424 2985.4495 2107947
2075.2449 690.51007 3003.8325 2173740
2094.0649 690.51007 3003.8325 2239533
2136.3582 698.18134 3037.2039 2436912
2148.4485 695.93372 3027.4263 2436912
2146.271 689.14423 2997.8911 2502192
2183.2869 694.94788 3023.1379 2502192
2202.2278 694.94788 3023.1379 2502192
2232.8496 698.60254 3039.0364 2370606
2257.2954 700.27942 3046.3308 2633778
2290.8721 704.73718 3065.7227 2962743
2341.1133 714.20453 3106.9075 2962743
2338.0842 707.39862 3077.3005 2699828
2351.3735 705.60089 3069.4802 2699571
2354.0623 700.67706 3048.0605 2699828
2367.1013 698.88843 3040.2798 2699571
2391.2385 700.37891 3046.7637 2699571
2417.5967 702.49121 3055.9526 2633778
2437.0591 702.58234 3056.3489 2765364
2460.1382 703.70648 3061.239 2699571
2468.8174 700.72614 3048.2742 2633778
2483.7783 699.56079 3043.2048 2633778
2501.0767 699.06659 3041.0547 2765364
2524.6707 700.32611 3046.5339 2765621
2545.2322 700.73199 3048.2996 2962743
2578.8718 704.70544 3065.585 3028537
2579.4624 699.65601 3043.6189 2896951
2609.2778 702.54944 3056.2058 2831157
2611.9331 698.14105 3037.0286 2699572
2611.0759 692.8645 3014.0747 2633779
2618.196 689.76526 3000.5925 2567986
2636.9958 689.76526 3000.5925 2633779
2633.4998 683.97455 2975.4021 2699572
2641.7031 681.28253 2963.6914 2699572
2664.3735 682.33307 2968.2612 2633779
2684.7126 682.77606 2970.1885 2765365
2703.3218 682.77606 2970.1885 2699572
2714.6804 680.95734 2962.2766 2699572
2735.3281 681.47754 2964.5398 2567986
2751.6182 680.91241 2962.0813 2502193
2775.1948 682.14594 2967.4473 2567986
2791.5249 681.59369 2965.0449 2502193
2810.7632 681.75409 2965.7427 2436400
2830.98 682.14819 2967.457 2567987
2856.0601 683.70129 2974.2134 2633779
2867.2268 681.92523 2966.4873 2831158
2881.6938 680.95197 2962.2532 2962744
2908.4353 682.87299 2970.6101 2897208
2939.4387 685.76398 2983.1863 2831158
2967.0916 687.84161 2992.2244 2567987
2976.7271 685.74261 2983.0933 2502193
2982.4194 682.76697 2970.1489 2436400
3011.2324 685.0885 2980.248 2502193
3029.9045 685.0885 2980.248 2567986
3068.998 689.67773 3000.2117 2436400
nan nan nan 16777215
nan nan nan 16777215
nan nan nan 16777215
nan nan nan 16777215
nan nan nan 16777215
nan nan nan 16777215
nan nan nan 16777215
nan nan nan 16777215
-2574.0688 656.62256 2781.0205 3423807
-2556.645 656.62256 2781.0205 3292221
-2537.9539 656.29498 2779.6328 3292221
-2514.9905 654.85034 2773.5144 3358014
-2493.3823 653.74097 2768.8157 3423807
-2473.0474 652.95215 2765.4749 3489600
-2461.5388 654.49915 2772.0269 3423807
-2445.8462 654.94763 2773.9265 3423808
-2424.3511 653.83771 2769.2253 3423807
-2399.8618 651.89844 2761.012 3357756
-2382.5632 651.89844 2761.012 3423038
-2369.9639 653.19354 2766.4973 3358270
-2365.9758 656.89862 2782.1897 3358014
-2334.0452 652.84314 2765.0132 3292221
-2293.8499 646.39801 2737.7158 3029049
-2279.0005 647.052 2740.4856 2436912
-2288.7593 654.75555 2773.113 2107947
-2319.2366 668.54944 2831.5347 2963256
-2313.8921 672.15033 2846.7856 3621186
-2300.0708 673.32556 2851.7632 3884358
-2287.0457 674.75415 2857.8137 3686979
-2259.7993 671.97638 2846.0491 3621186
-2248.9189 674.05981 2854.873 3621186
-2233.8999 674.92621 2858.5425 3752772
-2217.4546 675.37219 2860.4314 3620929
-2199.533 675.37219 2860.4314 3489600
-2209.0759 683.87445 2896.4414 3555393
-2169.9143 677.315 2868.6599 3489600
-2156.7175 678.8183 2875.0269 3292221
-2138.7046 678.8183 2875.0269 3226429
-2125.0679 680.21912 2880.9597 2897208
-2085.6514 673.32123 2851.7449 2766647
-2072.8914 674.98431 2858.7886 2963769
-2063.9102 677.91742 2871.2114 3095612
-2045.9211 677.91742 2871.2114 2766647
-2021.2627 675.68787 2861.7686 2700854
-2011.8722 678.56805 2873.967 2898233
-1993.717 678.51746 2873.7527 3161148
-1969.2111 676.28479 2864.2966 3029562
-1951.2654 676.28479 2864.2966 3226685
-1934.8367 676.81543 2866.5439 3161148
-1914.2814 675.89899 2862.6626 3161405
-1896.3458 675.89899 2862.6626 3029562
-1864.4291 670.86816 2841.3552 2832183
-1849.7576 672.00549 2846.1724 2832183
-1837.4884 674.04614 2854.8152 3029562
-1819.7672 674.1073 2855.0742 2963769
-1799.0956 673.06586 2850.6633 2963769
-1783.7097 674.00092 2854.6235 3029306
-1768.0437 674.8479 2858.2109 3029562
-1746.8029 673.56262 2852.7673 3095099
-1729.6377 673.83856 2853.9358 2897719
-1715.6053 675.35352 2860.3523 2765877
-1697.679 675.35132 2860.343 2765877
-1678.8368 674.98096 2858.7744 2765877
-1659.3964 674.35944 2856.1421 2831670
-1641.5017 674.35944 2856.1421 2897463
-1623.9829 674.51556 2856.8032 2897463
-1606.4752 674.67981 2857.4988 3029049
-1587.9257 674.40521 2856.3359 2963256
-1572.7275 675.56403 2861.2439 2897463
-1554.2126 675.30847 2860.1614 3029049
-1534.7195 674.61682 2857.2322 3095098
-1523.4445 677.5639 2869.7141 3161148
-1505.4647 677.5639 2869.7141 3226941
-1474.3784 671.59369 2844.4282 3226941
-1451.1421 669.09692 2833.8535 3161148
-1431.4282 668.1825 2829.9807 3029562
-1424.5645 673.31873 2851.7344 3029562
-1410.0642 674.93024 2858.5596 2963769
-1391.7599 674.73901 2857.7495 2963769
-1373.8552 674.73901 2857.7495 2897976
-1356.3741 674.94977 2858.6423 3161148
-1359.8339 685.72607 2904.2834 3424320
-1324.254 676.84113 2866.6528 3424320
-1303.8342 675.56683 2861.2559 3095612
-1290.2986 677.87372 2871.0261 3226941
-1272.3107 677.87372 2871.0261 3358527
-1250.599 675.86115 2862.5024 3490113
-1228.9965 673.85004 2853.9846 3358527
-1222.8091 680.35632 2881.5408 3226941
-1210.8142 683.77789 2896.0325 3424320
-1204.6481 690.64526 2925.1182 3687237
-1192.6493 694.32928 2940.7212 3818823
-1174.9445 694.75488 2942.5237 3950409
-1140.1415 684.92255 2900.8804 3621444
-1142.228 697.29144 2953.2671 3160893
-1124.975 698.0672 2956.5525 3424065
-1110.5981 700.68347 2967.6333 3489858
-1102.6559 707.51758 2996.5781 3424065
-1080.0297 705.0033 2985.9292 3358272
-1053.0291 699.49469 2962.5984 3358273
-1032.6538 698.26825 2957.4041 3489858
-1014.2187 698.33295 2957.6782 3226686
-994.89838 697.77917 2955.3328 3292479
-976.38232 697.77917 2955.3328 3292479
-954.60352 695.40247 2945.2664 3489858
-934.36017 694.07257 2939.6338 3489858
-912.62433 691.55811 2928.9844 3423808
-888.14374 686.81805 2908.9084 3160635
-867.3714 684.80695 2900.3909 3029049
-844.54327 681.05206 2884.4875 3489600
-827.84198 682.18182 2889.2725 3752772
-812.9693 684.90259 2900.7959 3752772
-792.44257 682.87543 2892.2102 3489600
-768.65765 677.88007 2871.0532 3292221
-759.8432 686.16418 2906.1392 3292221
-743.39612 687.79327 2913.0388 3029049
-721.68292 684.50946 2899.1309 2897463
-701.75244 682.79065 2891.8511 2831670
-684.26544 683.42126 2894.522 2634291
-663.98651 681.22174 2885.2063 2436912
-646.29834 681.63159 2886.9419 2963512
-625.07977 678.23425 2872.5532 3028536
-611.54565 683.2207 2893.6726 2700084
-594.88647 684.91394 2900.8438 2502705
-577.14886 685.43292 2903.042 2371119
-558.43353 684.78687 2900.3059 2502705
-542.22565 687.27551 2910.8459 2568498
-523.5545 686.70654 2908.4363 2634291
-503.8371 684.67468 2899.8308 2831670
-487.58563 687.37708 2911.2761 3029049
-466.16806 682.72339 2891.5664 3029049
-446.31729 680.08093 2880.3745 2765877
-429.6828 682.32306 2889.8708 2765877
-411.55231 682.28235 2889.6982 2831670
-393.14737 681.76202 2887.4944 2765877
-374.49884 680.74866 2883.2024 2765877
-362.4357 692.20984 2931.7446 3094843
-337.4429 678.88232 2875.2981 2897721
-319.5881 679.22211 2876.7371 2766135
-301.45468 678.97485 2875.6899 2832185
-285.72858 684.46289 2898.9336 2700342
-267.56586 684.46289 2898.9336 2634549
-247.66476 679.69214 2878.7278 2700085
-227.61388 673.72839 2853.4695 2371120
-209.37567 672.57098 2848.5674 2700084
-191.33377 671.88708 2845.6709 2700084
-173.6684 672.52075 2848.3547 2700084
-155.71335 672.04938 2846.3582 2634548
-137.72621 671.29968 2843.1829 2765877
-119.89786 671.216 2842.8286 2897463
-102.08302 671.19214 2842.7275 2897463
-84.355675 671.85498 2845.5349 2502962
-66.645744 673.04889 2850.5916 2371632
-48.846951 673.89117 2854.1587 2437425
-30.95233 673.62061 2853.0129 2700597
-13.095733 674.56909 2857.0298 2634804
4.8108249 675.46484 2860.8237 2437425
22.904146 680.49701 2882.1367 2569011
40.940067 680.13879 2880.6196 2568754
59.176735 682.31445 2889.8342 2568498
77.275711 682.255 2889.5825 2634548
95.220032 681.11188 2884.741 2634291
112.67868 677.41364 2869.0776 2568498
132.27119 685.79669 2904.5828 2963256
152.27873 694.04352 2939.511 3160634
169.06294 687.40491 2911.394 2765877
187.67749 688.77661 2917.2036 2897463
206.54561 690.75293 2925.574 2765877
224.86584 690.72406 2925.4517 2831670
243.0894 690.42493 2924.1848 3094842
261.51535 690.70239 2925.3599 2897463
279.31812 689.40527 2919.8662 2831670
299.23654 693.16846 2935.8047 2897463
320.36459 699.13562 2961.0776 2700083
338.28406 697.83063 2955.5505 2240046
350.78787 686.06927 2905.7371 2700597
375.16248 697.53967 2954.3184 2700597
388.50583 688.3855 2915.5474 2437425
406.4812 687.89233 2913.4585 2634804
424.00369 686.70807 2908.4426 2700597
439.45374 682.4032 2890.21 2305585
458.67453 684.06274 2897.2388 2305584
477.5621 685.1178 2901.7075 2831928
496.11526 685.63336 2903.8911 3095357
513.95544 685.16199 2901.8945 3094843
530.78931 683.42712 2894.5466 3160636
547.80304 682.03088 2888.6331 3094843
565.5191 681.57025 2886.6824 2963257
585.59851 683.89838 2896.5427 3226429
601.49744 681.35095 2885.7537 3094842
619.30713 681.05365 2884.4941 2897463
636.86255 680.5014 2882.1553 2963256
653.99176 679.53674 2878.0696 3160635
672.05646 679.56976 2878.2097 3292221
684.89331 674.45294 2856.5381 3226428
706.06049 677.59119 2869.8296 3160635
727.02374 680.38269 2881.6526 2831670
745.07819 680.38269 2881.6526 2897463
760.27881 677.83838 2870.8765 2963256
779.82233 679.19403 2876.6184 2963513
798.34943 679.62329 2878.4363 3029306
815.70709 679.06 2876.0505 3094842
833.95074 679.24268 2876.8242 3160635
852.93658 680.0094 2880.0715 3226428
874.31238 682.61023 2891.0869 3094842
894.20709 683.9726 2896.8569 3226428
912.49261 684.0744 2897.2881 3160635
931.90613 685.0014 2901.2144 3160635
950.22015 685.10016 2901.6326 3160635
967.25519 684.29047 2898.2034 3160635
983.2616 682.79626 2891.8748 3160635
1006.5056 686.29114 2906.6768 3029049
1027.6392 688.24829 2914.9661 3094842
1045.9023 688.24829 2914.9661 3292221
1070.1082 692.09174 2931.2444 3226428
1075.0537 683.55896 2895.1052 2897463
1093.1924 683.55896 2895.1052 2963256
1117.9589 687.6355 2912.3708 3358014
1129.9969 683.87799 2896.4563 3226428
1142.0408 680.24261 2881.0593 3358014
1169.2156 685.59265 2903.7185 3423807
1185.7303 684.62384 2899.6152 3621186
1199.4722 682.10742 2888.9573 3292221
1217.6067 682.12659 2889.0386 3094842
1221.7903 674.44415 2856.501 3160635
1239.4995 674.34204 2856.0684 3489857
1261.2516 676.41107 2864.8313 3621186
1282.6053 678.21136 2872.4563 3292221
1296.0247 675.8244 2862.3467 3160635
1313.9581 675.8244 2862.3467 3226428
1331.1992 675.47308 2860.8586 3226428
1345.03 673.42358 2852.1785 3226428
1358.405 671.2027 2842.7722 3028279
1396.6134 681.15088 2884.9062 2370350
1398.2651 673.24341 2851.4153 2041641
1411.031 670.81927 2841.1482 2173226
1425.4014 669.2088 2834.3271 2107434
1441.7203 668.5415 2831.501 2107691
1458.931 668.29895 2830.4736 1976361
1469.3143 664.97229 2816.3843 2502705
1505.3551 673.19867 2851.2258 2831670
1511.2034 667.88831 2828.7346 2766134
1533.1199 669.72028 2836.4934 2568498
1552.4503 670.39349 2839.3447 2502705
1570.2397 670.39349 2839.3447 2502705
1585.2678 669.22778 2834.4077 2634291
1603.0497 669.23749 2834.449 2700084
1620.8083 669.23749 2834.449 2700084
1643.1201 671.09711 2842.325 2766134
1651.183 667.15955 2825.6482 2700084
1682.8254 672.73187 2849.2488 2634291
1702.0255 673.26532 2851.5081 2700084
1709.1057 669.04333 2833.6265 2700341
1724.9669 668.31012 2830.5212 2634291
1742.9249 668.39606 2830.885 2305326
1761.0837 668.55634 2831.564 2371119
1783.0796 670.1557 2838.3376 2436912
1805.3997 671.84406 2845.4885 2502705
1826.0682 672.89081 2849.9219 2371119
1850.0986 675.14417 2859.4656 2305326
1878.0038 678.75464 2874.7573 2239533
1896.0177 678.75555 2874.7612 2173740
1916.0432 679.46991 2877.7866 2173740
1935.3234 679.90894 2879.6462 2042154
1958.2521 681.60992 2886.8503 1976361
1976.339 681.60992 2886.8503 1713189
2002.2284 684.27649 2898.144 1713189
2000.1246 677.41412 2869.0798 1910568
2051.0215 688.46478 2915.8831 2371119
2061.6282 685.91547 2905.0859 2371119
2089.0632 688.96082 2917.9839 2370606
2105.3135 688.29651 2915.1704 2370606
2120.5532 687.3161 2911.0178 2370606
2136.5586 686.59857 2907.9788 2370606
2154.7781 686.59857 2907.9788 2370606
2181.0142 689.13159 2918.707 2370606
2199.2322 689.11005 2918.616 2370606
2229.9492 692.97314 2934.9773 2568242
2276.2964 701.59045 2971.4746 2634035
2294.2651 701.39215 2970.6348 2831414
2304.6292 698.89093 2960.0413 2896950
2308.0278 694.33429 2940.7422 2896950
2335.5967 697.06329 2952.3008 2831157
2354.0938 697.06329 2952.3008 2831414
2368.5957 695.88953 2947.3293 2765364
2373.0715 691.8111 2930.0557 2567985
2393.0864 692.29053 2932.0862 2633778
2411.457 692.29053 2932.0862 2699571
2429.3765 692.16205 2931.5422 2831157
2446.9851 691.94757 2930.6338 2765364
2448.4548 687.2066 2910.5542 2831414
2484.2549 692.10004 2931.2795 2897207
2502.6204 692.10004 2931.2795 2765365
2494.301 684.77417 2900.252 2765365
2521.3982 687.20697 2910.5557 2765366
2538.6558 686.94232 2909.4348 2896951
2550.5295 685.23505 2902.2041 2831157
2548.45 679.82971 2879.3105 2765365
2568.4417 680.34674 2881.5005 2699829
2597.2329 683.1712 2893.4629 2699572
2617.7756 683.80182 2896.1338 2831158
2634.3672 683.3988 2894.427 2765365
2637.6604 679.57507 2878.2319 2567986
2649.6082 678.01788 2871.6367 2567986
2663.1375 676.88367 2866.833 2502193
2680.2402 676.66687 2865.9148 2502193
2701.5635 677.51135 2869.4915 2370607
2712.2092 675.68463 2861.7546 2567986
2745.176 679.40613 2877.5166 2765365
2763.2046 679.40613 2877.5166 2633779
2816.3313 687.97998 2913.8298 2699572
2816.5576 683.60406 2895.2961 2962744
2822.5918 680.68463 2882.9314 3028537
2858.6047 684.98602 2901.1492 2831158
2876.7812 684.98602 2901.1492 2765365
2880.4641 681.55664 2886.6245 2567986
2899.7942 681.84918 2887.8638 2502193
2917.8877 681.84918 2887.8638 2633779
2926.8923 679.73846 2878.9241 2567987
2938.4756 678.24872 2872.6145 2567986
nan nan nan 16777215
nan nan nan 16777215
nan nan nan 16777215
nan nan nan 16777215
nan nan nan 16777215
nan nan nan 16777215
nan nan nan 16777215
nan nan nan 16777215
nan nan nan 16777215
-2481.7554 654.21283 2699.5586 3226428
-2462.0627 653.47522 2696.5149 3094842
-2438.4431 651.67798 2689.0986 3029049
-2421.5952 651.67798 2689.0986 3226428
-2405.9365 652.00024 2690.4285 3358014
-2389.9546 652.23889 2691.4133 3489600
-2371.4319 651.78259 2689.5303 3423807
-2369.4692 655.90387 2706.5364 2963256
-2332.4822 650.31934 2683.4924 2700084
-2327.0312 653.51019 2696.6592 2896951
-2304.8005 652.00092 2690.4312 3225659
-2293.5137 653.58807 2696.9805 3357501
-2276.6165 653.58807 2696.9805 3357501
-2265.4534 655.24664 2703.8245 3291708
-2248.5129 655.24664 2703.8245 2634291
-2232.7014 655.57806 2705.1921 2633778
-2221.5085 657.28113 2712.2195 2765877
-2246.9092 669.92084 2764.3765 2634291
-2221.9863 667.63635 2754.9497 2897463
-2201.3389 666.61072 2750.7175 2963256
-2186.5203 667.34796 2753.7595 3226428
-2175.8792 669.38208 2762.1533 3423807
-2159.0261 669.5224 2762.7324 3621186
-2159.3064 675.02118 2785.4226 3029049
-2147.552 676.81671 2792.8315 2831670
-2125.927 675.50525 2787.4202 3160635
-2092.406 670.36102 2766.1929 3094842
-2074.1118 670.0498 2764.9087 3358014
-2056.7617 670.04102 2764.8723 3094842
-2011.8025 660.9613 2727.4055 2765878
-2001.0974 663.07635 2736.1331 2700340
-2011.9053 672.41797 2774.6807 3095099
-1994.521 672.41797 2774.6807 3291964
-1954.8997 664.85522 2743.4736 3160635
-1950.3368 669.18732 2761.3496 2699828
-1924.0876 666.08948 2748.5667 2700084
-1913.5197 668.41327 2758.1558 3160635
-1896.239 668.41327 2758.1558 3160635
-1879.673 668.66754 2759.2048 3160635
-1869.7524 671.31244 2770.1189 3095098
-1852.3967 671.31244 2770.1189 2963256
-1816.8215 664.64722 2742.6152 2765877
-1810.4696 668.64752 2759.1223 2831669
-1788.4457 666.8811 2751.8333 2897206
-1778.4958 669.62634 2763.1611 3094842
-1756.0986 667.69287 2755.1831 3029049
-1739.0369 667.76984 2755.5005 2963000
-1725.9194 669.37805 2762.1367 2963256
-1710.5293 670.12848 2765.2334 2897720
-1692.5199 669.8576 2764.1155 2765877
-1673.6161 669.22351 2761.499 2831670
-1656.3145 669.22351 2761.499 2897463
-1643.4613 671.03992 2768.9941 3029049
-1630.8688 673.00262 2777.093 3292221
-1613.4694 673.00262 2777.093 3160635
-1584.9275 668.30414 2757.7053 2765877
-1567.6497 668.30414 2757.7053 2700341
-1555.6674 670.58691 2767.125 2766647
-1534.7286 669.01678 2760.646 2897976
-1518.1281 669.32361 2761.9119 2897976
-1504.3954 670.91632 2768.4844 2964025
-1487.05 670.91632 2768.4844 3161148
-1463.8158 668.22815 2757.3916 3029819
-1446.6151 668.26288 2757.5352 3029819
-1430.8008 668.94666 2760.3564 3029819
-1405.3762 665.09906 2744.4797 2766390
-1388.2856 665.14911 2744.6863 2569011
-1372.0339 665.60742 2746.5774 2832183
-1355.7704 666.07141 2748.4922 3161148
-1336.2432 664.9234 2743.7549 3226941
-1315.5815 663.17365 2736.5347 3226941
-1316.6555 672.47913 2774.9329 3095355
-1297.5665 671.59753 2771.2952 3161148
-1282.7881 672.95343 2776.8901 2897976
-1263.5961 671.99939 2772.9534 2832183
-1241.406 669.40204 2762.2358 3029562
-1230.7118 673.01788 2777.1562 3161148
-1224.3363 679.133 2802.3896 3226941
-1206.457 678.95215 2801.6433 3161148
-1191.3336 680.33972 2807.3691 3358527
-1182.9773 685.69128 2829.4519 3358527
-1174.2671 690.99744 2851.3474 3358526
-1160.2117 693.27356 2860.7397 3161148
-1140.3104 692.07318 2855.7864 3292480
-1124.7216 693.49353 2861.6472 3292222
-1107.4275 693.89142 2863.2893 3161149
-1089.797 694.0882 2864.1011 3160893
-1072.7396 694.6626 2866.4714 3292479
-1056.9983 696.12335 2872.499 3292479
-1039.0198 696.13574 2872.5503 3226686
-1018.8962 694.68616 2866.5686 3358272
-1001.162 694.8429 2867.2153 3358272
-985.94006 696.7807 2875.2114 3095100
-967.73041 696.63989 2874.6306 3160893
-953.20789 699.19849 2885.1882 3424065
-934.69067 698.86896 2883.8286 3489602
-904.6673 689.75378 2846.2156 3227197
-876.5816 681.77911 2813.3086 3029048
-857.30688 680.47064 2807.9094 2700341
-840.22803 680.88684 2809.6267 2765877
-815.58118 675.0567 2785.5693 3094842
-799.21265 675.97351 2789.3525 3226428
-791.02362 684.00421 2822.4905 3358014
-773.55206 684.19189 2823.2649 3423807
-750.20343 679.0686 2802.124 3226428
-742.50232 688.20294 2839.8162 2897463
-720.88855 684.57397 2824.8416 2831670
-705.12048 686.45331 2832.5964 3094842
-686.18311 685.26465 2827.6917 3226428
-663.18134 679.84637 2805.3335 3423807
-645.48871 679.72394 2804.8281 3423807
-626.5116 678.20416 2798.5569 3292221
-613.72467 683.4906 2820.3711 3225659
-598.57434 686.38043 2832.2957 2700340
-577.85522 682.86609 2817.7942 2831670
-559.82147 682.40363 2815.8857 2831670
-541.18585 681.15356 2810.7273 2963256
-525.17114 683.22906 2819.292 3160635
-507.2655 682.90338 2817.948 3029049
-489.76154 683.1145 2818.8191 2831670
-473.96347 685.80981 2829.9409 3029049
-454.47711 683.17035 2819.0496 3029306
-429.37418 671.5332 2771.0298 3160635
-416.13818 678.25702 2798.7751 2700084
-398.53445 678.14044 2798.2939 2897463
-380.78357 677.75116 2796.6877 2765877
-361.37994 674.24078 2782.2024 2831670
-344.30524 674.93988 2785.0872 2831671
-326.37112 673.93915 2780.9575 2766135
-310.04874 676.34113 2790.8694 3029050
-292.56305 676.34113 2790.8694 3094843
-272.58099 670.20312 2765.5413 2831671
-256.47583 673.41119 2778.7791 2700085
-236.59399 666.44812 2750.0466 2568499
-219.08632 665.60419 2746.5642 2568499
-201.83902 665.47491 2746.0308 2568497
-184.47252 664.89191 2743.6248 2634291
-167.54712 665.9422 2747.959 2765877
-149.90045 664.03796 2740.1013 2897720
-133.20035 666.37677 2749.752 2963256
-115.44286 663.33459 2737.1987 3029049
-98.639603 665.67053 2746.8379 2831670
-81.801247 668.70691 2759.3674 2568754
-64.256767 666.05145 2748.4097 2502962
-47.28091 669.50342 2762.6541 2502962
-29.940435 668.79779 2759.7422 2700597
-12.650455 668.83258 2759.8857 2569011
4.6568122 671.09894 2769.2378 2569010
22.182943 676.466 2791.3845 2700340
39.671833 676.466 2791.3845 2766133
57.226902 677.24921 2794.6162 2634804
75.03157 679.92719 2805.667 2569011
92.50016 679.12122 2802.3411 2503218
109.73016 677.10016 2794.0012 2437425
128.97852 686.3761 2832.2778 2897977
147.17084 688.46826 2840.9109 3029562
164.56447 686.7757 2833.9268 2897720
182.06856 685.82892 2830.02 2634291
200.6315 688.68488 2841.8047 2963513
218.55638 689.06354 2843.3672 3160635
235.99054 687.95453 2838.791 3226428
252.57829 684.70648 2825.3882 3358014
271.84634 688.67395 2841.7598 2963256
290.05978 689.64618 2845.7715 2897720
307.7887 689.42053 2844.8406 2963256
325.15399 688.44977 2840.8347 2832183
343.14243 688.83063 2842.4062 2766390
360.17126 687.34259 2836.2661 2766390
376.52377 684.76459 2825.6279 2437425
395.98074 687.81042 2838.1963 2371632
412.9183 686.40643 2832.4028 2240046
430.25275 685.75061 2829.6968 2174254
447.98166 685.75061 2829.6968 2305585
464.11005 683.3938 2819.9717 2371377
481.30969 682.72943 2817.2302 2568756
496.11206 678.83197 2801.1475 2963514
515.23151 680.90588 2809.7056 3029307
529.53766 676.69202 2792.3174 2832185
546.5141 676.0509 2789.6716 2700599
561.92834 673.5769 2779.4631 2502706
580.80573 675.27808 2786.4827 2963256
598.26385 675.27808 2786.4827 2831927
614.53497 673.9762 2781.1106 3029049
631.39142 673.37036 2778.6106 3160635
648.53821 673.09839 2777.4883 2963513
664.01184 671.14948 2769.4463 3029049
683.11145 672.87146 2776.5518 3094842
704.61188 676.81396 2792.8203 2963513
727.59253 681.95282 2814.0254 3292221
739.8277 677.01526 2793.6511 3226428
752.70209 672.87744 2776.5767 3094842
772.13141 674.65399 2783.9075 3029049
791.16174 676.01111 2789.5076 3029049
810.56378 677.6203 2796.1477 3226428
823.17645 673.60571 2779.5818 3358014
845.38574 677.44763 2795.4353 3358014
868.56897 681.89825 2813.8003 3358014
885.54187 681.39307 2811.7158 3226428
906.23846 683.7171 2821.3057 3226428
925.43591 684.84277 2825.9507 3358014
931.93225 676.70349 2792.3645 3621444
957.67596 682.58264 2816.6245 3292222
978.13989 684.55414 2824.7598 3358015
994.22784 683.44739 2820.1926 4015945
1015.6924 686.01068 2830.77 4081994
1031.137 684.48981 2824.4941 3884359
1036.2361 676.26862 2790.5701 3686980
1057.0824 678.4267 2799.4751 3621186
1084.5386 684.68719 2825.3086 3489600
1101.6674 684.33142 2823.8406 3423807
1116.8971 682.82599 2817.6287 3423807
1132.5321 681.61133 2812.6162 3358014
1144.3954 678.19855 2798.5337 3358014
1158.1427 675.98846 2789.4141 3423807
1175.9871 676.20001 2790.2869 3358014
1189.4452 673.92017 2780.8794 3555393
1204.4391 672.56366 2775.282 3752772
1215.2119 668.9223 2760.2561 3555393
1237.0278 671.37653 2770.3833 3423807
1254.3851 671.37653 2770.3833 3358014
1267.6968 669.24078 2761.5703 3358014
1284.6382 669.05298 2760.7952 3160635
1310.6511 673.5318 2779.2769 3094842
1334.871 676.98395 2793.5217 2831670
1339.3845 670.48187 2766.6917 2436912
1358.1251 671.17694 2769.5598 2371376
1388.7 677.62903 2796.1838 2700084
1377.5947 663.83569 2739.2666 2568754
1398.4105 665.57452 2746.4419 2371375
1419.132 667.22675 2753.2595 2305326
1424.1355 661.53802 2729.7854 2634291
1452.7491 666.82147 2751.5872 2831670
1463.0624 663.67957 2738.6223 2765877
1472.2563 660.10864 2723.8872 2700084
1493.1791 661.81805 2730.9409 2700084
1511.1483 662.19446 2732.4941 2502705
1526.5834 661.46442 2729.4817 2568498
1540.9906 660.31018 2724.7188 2502705
1560.368 661.28748 2728.7517 2634291
1577.7704 661.41577 2729.281 2568498
1593.4933 660.84473 2726.9246 2634291
1608.8312 660.12787 2723.9666 2700084
1625.931 660.14136 2724.0222 2766134
1648.4795 662.34387 2733.1106 2634291
1665.7365 662.39685 2733.3291 2568498
1676.8154 660.01703 2723.509 2371119
1706.9984 665.12891 2744.6028 2371119
1725.2836 665.54913 2746.3369 2436912
1744.2715 666.22949 2749.1445 2371119
1769.9691 669.43427 2762.3687 2371119
1788.8865 670.03741 2764.8574 2436912
1809.595 671.29346 2770.0403 2502705
1825.0249 670.58606 2767.1213 2436912
1847.1967 672.34583 2774.3831 2107947
1870.6415 674.53186 2783.4036 2239533
1891.0101 675.57855 2787.7227 2239533
1919.7628 679.57391 2804.2092 2239533
1942.3417 681.33118 2811.4604 1976361
1954.3232 679.37305 2803.3801 2042154
1972.9728 679.74701 2804.9233 2305326
1997.8245 682.23236 2815.179 2305326
2018.8098 683.36536 2819.8542 2239277
2043.9053 685.85797 2830.1399 2239020
2061.8923 685.94293 2830.4905 2041641
2084.2927 687.48218 2836.8418 2239020
2102.0664 687.48218 2836.8418 2502192
2113.7671 685.51257 2828.7146 2633778
2146.0205 690.18579 2847.9983 2502193
2161.9915 689.58862 2845.5339 2436399
2169.6646 686.37598 2832.2773 2568242
2185.502 685.77734 2829.8071 2831157
2204.2 686.0788 2831.051 2765364
2230.2776 688.65405 2841.6775 2896950
2248.7732 688.86591 2842.552 2896950
2266.9729 688.98456 2843.0413 2699571
2294.9089 692.03729 2855.6382 2633778
2301.614 688.69006 2841.8262 2502192
2327.1062 690.97266 2851.2451 2567985
2344.97 690.97266 2851.2451 2699571
2348.6809 686.83374 2834.1663 2633778
2366.5491 686.86603 2834.2996 2633778
2385.981 687.34833 2836.2898 2633779
2386.7366 682.48303 2816.2134 2699572
2401.9089 681.78131 2813.3179 2765365
2421.8667 682.43823 2816.0286 2765622
2439.51 682.43823 2816.0286 2699829
2452.8806 681.25165 2811.1321 2699572
2467.2488 680.35693 2807.4402 2567986
2477.8889 678.45416 2799.5886 2436400
2487.2253 676.22369 2790.3848 2699572
2496.3694 673.97247 2781.0952 2896951
2509.407 672.79633 2776.2419 2896951
2532.5061 674.31537 2782.5103 2699572
2550.8418 674.55408 2783.4951 2699572
2567.7603 674.41718 2782.9302 2567986
2569.9761 670.44659 2766.5459 2567986
2591.1296 671.43652 2770.6309 2436400
2608.4885 671.43652 2770.6309 2765365
2624.3176 671.04547 2769.0171 2765365
2649.5928 673.0589 2777.3254 2633779
2669.7595 673.75696 2780.2058 2699572
2687.1785 673.75696 2780.2058 2502193
2717.0786 676.86627 2793.0361 2502193
2728.239 675.29724 2786.5618 2436400
2765.7791 680.23621 2806.9419 2502193
2799.2239 684.11194 2822.9348 2567986
2865.6382 695.94586 2871.7666 2567986
2883.6306 695.94586 2871.7666 2502193
2858.459 685.59308 2829.0466 2239278
2816.0269 671.25348 2769.8755 2173228
2859.8745 677.53009 2795.7754 2304814
nan nan nan 16777215
nan nan nan 16777215
nan nan nan 16777215
nan nan nan 16777215
nan nan nan 16777215
nan nan nan 16777215
nan nan nan 16777215
nan nan nan 16777215
nan nan nan 16777215
-2419.1372 654.10577 2631.4451 2963256
-2396.0886 652.31934 2624.2583 2700084
-2364.834 648.25879 2607.9229 2765877
-2354.8477 650.01239 2614.9778 3292221
-2346.2346 652.17236 2623.667 3226428
-2332.0259 652.79639 2626.1775 3160635
-2315.5718 652.79639 2626.1775 3226428
-2307.6909 655.23053 2635.97 3094842
-2276.0496 650.90472 2618.5674 2963000
-2266.5879 652.90509 2626.615 2962487
-2257.6021 655.07288 2635.3357 3292477
-2251.8064 658.20502 2647.9363 3423807
-2232.0925 657.28516 2644.2356 3423807
-2212.0967 656.26782 2640.1431 3358014
-2201.1184 657.93073 2646.8328 2831670
-2205.5425 664.25763 2672.2856 2897463
-2193.4675 665.67419 2677.9844 2831927
-2183.8945 667.87775 2686.8494 2831670
-2167.0613 667.87799 2686.8503 2963256
-2141.9307 665.3009 2676.4829 3160635
-2127.7375 666.10736 2679.7271 3226428
-2131.1396 672.47876 2705.3591 2831927
-2094.2241 666.12811 2679.8105 2305583
-2081.0662 667.29266 2684.4956 2502705
-2071.376 669.59717 2693.7666 2765877
-2058.3242 670.84406 2698.7827 2897463
-2021.1473 664.18353 2671.9878 3029049
-2022.5269 670.18793 2696.1431 3358014
-1990.3947 665.09546 2675.6562 3292221
-1976.0974 665.92664 2679.0002 2765877
-1962.563 667.03137 2683.4443 2765877
-1939.2231 664.7937 2674.4424 3094842
-1926.0037 666.01678 2679.3628 3094842
-1906.3224 665.00714 2675.301 2963256
-1891.6283 665.7348 2678.2283 2897463
-1872.4083 664.86835 2674.7424 2963256
-1859.2599 666.16162 2679.9456 3094842
-1839.5385 665.10205 2675.6826 3095099
-1828.1398 667.05969 2683.5583 2963256
-1808.0067 665.83716 2678.6401 2831670
-1787.8005 664.56451 2673.5203 2897463
-1770.5258 664.36774 2672.7288 2963256
-1750.2494 663.03015 2667.3477 2897463
-1734.8967 663.54993 2669.4387 2897463
-1715.9333 662.68549 2665.9612 3029049
-1701.5281 663.58154 2669.5659 2897463
-1685.6223 663.90454 2670.8652 2897463
-1671.5585 664.96667 2675.1382 2963256
-1660.2915 667.17426 2684.0193 2831670
-1643.0515 667.0022 2683.3271 2831670
-1625.1521 666.55615 2681.5327 2831670
-1606.137 665.63831 2677.8403 2831670
-1594.053 667.60406 2685.7483 2765877
-1573.5968 666.06793 2679.5686 2634291
-1552.7849 664.3465 2672.6433 2634548
-1536.04 664.3465 2672.6433 3029049
-1521.3115 665.22821 2676.1904 2963256
-1507.8193 666.67627 2682.0159 3028792
-1490.7041 666.53693 2681.4553 2897463
-1473.6289 666.4126 2680.9551 2897463
-1463.2625 669.35419 2692.7888 3029049
-1446.3912 669.35419 2692.7888 3094586
-1427.718 668.51031 2689.3943 3028793
-1409.9833 668.09106 2687.7075 2897464
-1385.4955 664.42322 2672.9519 2897464
-1366.4231 663.29431 2668.4104 2634548
-1359.425 668.07123 2687.6279 2634292
-1323.25 658.44952 2648.9199 2831671
-1311.7781 661.03186 2659.3086 2831414
-1296.1506 661.55957 2661.4316 2897463
-1278.8604 661.24127 2660.1511 2963768
-1269.7278 665.18823 2676.0295 2898233
-1258.7378 668.25482 2688.3662 2963769
-1242.3138 668.48047 2689.2742 2832440
-1233.7882 673.02094 2707.5403 3095355
-1216.8246 673.02094 2707.5403 3095355
-1199.5244 672.83215 2706.7808 3029562
-1185.0951 674.2713 2712.5703 3095355
-1172.1974 676.63647 2722.0854 3029562
-1153.8887 675.90192 2719.1304 3095355
-1143.2444 679.70215 2734.4185 3095355
-1127.8785 680.76819 2738.707 2832183
-1112.4438 681.82483 2742.958 3292734
-1100.2388 684.92529 2755.4312 3358527
-1084.9083 686.14801 2760.3499 3226941
-1068.5997 686.78156 2762.8987 3226685
-1052.2238 687.39209 2765.3547 3226430
-1035.0695 687.50592 2765.8127 3424066
-1018.8297 688.24152 2768.772 3489858
-1001.4824 688.24152 2768.772 3292479
-986.93542 690.19977 2776.6501 3160893
-969.53894 690.19977 2776.6501 2963514
-950.6272 689.1015 2772.2317 3160893
-934.54846 690.05408 2776.064 3160893
-917.15546 690.05408 2776.064 3160637
-901.39087 691.3028 2781.0876 3227453
-880.87164 688.88257 2771.3511 3226170
-861.73505 687.46796 2765.6599 2568497
-838.31268 682.50598 2745.6982 2634291
-814.10742 676.68549 2722.2825 2700084
-801.80005 680.71692 2738.5007 3226428
-787.82904 683.48138 2749.6223 2963256
-766.99768 680.28473 2736.7622 2502705
-742.34436 673.47455 2709.365 2700084
-723.30017 671.55341 2701.6362 2568498
-716.78748 681.45386 2741.4656 2568754
-709.17206 690.76648 2778.9299 2765877
-691.76123 690.76648 2778.9299 3160635
-668.57129 684.84674 2755.115 3489600
-640.99054 673.99622 2711.4639 3423807
-627.88312 678.18799 2728.3271 3226428
-612.99567 680.63776 2738.1824 3160892
-592.18671 676.46454 2721.3936 2304813
-584.01733 686.91003 2763.4158 2897463
-565.36987 685.2934 2756.9119 2963256
-542.9837 678.90015 2731.1921 2963256
-523.64191 676.02124 2719.6104 3226428
-505.77567 674.91766 2715.1707 2963256
-488.16409 674.08887 2711.8364 2897463
-474.16278 678.36536 2729.0405 2831670
-458.2204 680.08093 2735.9424 2831670
-440.14832 678.64612 2730.1702 2963256
-417.25897 669.36749 2692.8425 3029049
-401.88242 671.8667 2702.8967 2831670
-384.94791 671.8667 2702.8967 2831670
-368.99152 673.65234 2710.0803 2766134
-351.83215 673.30811 2708.6956 2634291
-332.61514 668.79169 2690.5261 2634292
-315.32925 667.88324 2686.8713 2634293
-298.49518 667.88324 2686.8713 2765878
-281.76779 668.13623 2687.8892 3094843
-262.75119 662.64807 2665.8105 2963257
-245.44864 661.03107 2659.3054 2897464
-228.68382 660.73218 2658.103 2765878
-212.44083 662.01245 2663.2534 2831928
-195.08218 659.73804 2654.1035 2634547
-179.07404 662.03253 2663.3342 2765877
-162.38742 662.03253 2663.3342 2897463
-145.283 660.13409 2655.697 2831927
-128.54955 659.64813 2653.7419 2963256
-111.92302 659.64813 2653.7419 3094842
-95.431198 660.58051 2657.4927 2897720
-79.222214 664.27856 2672.3699 2766134
-62.159969 660.88672 2658.7249 2832440
-45.272491 657.54993 2645.3008 2963769
-28.708975 657.78162 2646.2329 2963256
-12.183366 660.70245 2657.9834 2634804
4.4736757 661.28656 2660.3333 2766646
21.276628 665.51361 2677.3386 2832183
38.050987 665.51361 2677.3386 2700853
54.910755 666.55048 2681.5098 2964026
71.724777 666.67621 2682.0156 2897976
88.934479 669.73401 2694.3169 2766390
105.93614 670.49939 2697.396 2700597
123.12727 672.08838 2703.7886 2897719
142.18539 682.25153 2744.6746 3094842
159.29591 681.88452 2743.1982 2963256
176.30965 681.21515 2740.5051 3029049
193.75456 682.18274 2744.3977 3160635
211.18187 682.93555 2747.4263 3160635
227.89772 681.44757 2741.4402 3292221
246.09647 684.29144 2752.8811 3358014
263.46912 684.61621 2754.1877 3226428
280.72495 684.61621 2754.1877 3029049
298.82275 686.55066 2761.9697 3029049
314.04654 682.03162 2743.79 2897976
332.71835 685.08136 2756.0588 2963769
344.76111 674.85406 2714.9148 2897976
365.68237 682.15057 2744.2686 2503218
382.17749 680.90594 2739.2615 2371632
401.00024 683.73718 2750.6511 2174253
418.23392 683.73718 2750.6511 2239791
433.64697 680.87854 2739.1511 2173998
450.01334 679.67737 2734.3188 2173999
469.27036 682.77014 2746.761 2108206
485.86639 681.90936 2743.2981 2502963
497.60095 674.51758 2713.5613 2502964
514.58807 674.49896 2713.4863 2437170
530.60297 673.24799 2708.4536 2502963
546.4408 671.85681 2702.8569 2700085
564.22986 672.87628 2706.9583 2700084
578.17841 669.38977 2692.9321 2502705
595.57159 669.97607 2695.2908 2568755
612.45844 669.97607 2695.2908 2963256
627.14038 667.62885 2685.8481 2766134
642.66937 666.28241 2680.4314 2766134
665.36328 672.24359 2704.4131 2963513
682.30725 672.24359 2704.4131 2831670
706.76917 679.47113 2733.4893 2897463
708.17645 664.71692 2674.1335 3029049
724.08453 663.94098 2671.012 3160635
743.33673 666.1972 2680.0886 3094842
768.27417 673.33649 2708.8096 3226428
779.46588 668.38043 2688.8716 3160635
800.42535 671.83246 2702.759 3423807
830.27509 682.44897 2745.4688 3423807
844.48792 680.04248 2735.7878 3358014
859.91785 678.69238 2730.3562 3160635
879.64093 680.71722 2738.5022 3029049
902.78241 685.25934 2756.7749 3226428
922.39423 687.00195 2763.7854 3818564
933.46631 682.43719 2745.4216 3818564
951.18158 682.8064 2746.907 3818565
965.3219 680.64185 2738.199 3818565
991.20477 686.68787 2762.522 3752771
1008.5128 686.68787 2762.522 3621186
1020.322 683.00696 2747.7136 2831669
1028.5956 677.12067 2724.0332 2831670
1040.2729 673.63068 2709.9932 3292221
1057.252 673.63068 2709.9932 3094842
1074.4756 673.78418 2710.6106 3423807
1088.3693 671.87714 2702.9387 3423807
1105.3027 671.87634 2702.9355 3160635
1120.3138 670.72467 2698.3025 3358014
1137.9728 671.16895 2700.0896 3423807
1153.8773 670.58063 2697.7229 3489600
1166.8091 668.30658 2688.5745 3358014
1182.1448 667.45453 2685.1467 3489600
1197.2097 666.47565 2681.2087 3423807
1215.9512 667.54224 2685.4995 3555393
1234.3431 668.3905 2688.9121 3686979
1261.4064 673.84814 2710.8679 3094842
1293.0603 681.58051 2741.9751 2963256
1291.4412 671.80164 2702.635 2963256
1306.5198 670.84961 2698.8049 2437169
1316.7329 667.45551 2685.1506 2436912
1332.2142 666.78381 2682.4485 2963256
1332.3109 658.52472 2649.2224 3029049
1348.6782 658.41193 2648.7688 2765877
1363.6128 657.61102 2645.5466 2831670
1375.8163 655.52808 2637.167 3226428
1388.5487 653.74359 2629.988 3292221
1421.209 661.27325 2660.2795 3094842
1437.8766 661.27325 2660.2795 2766134
1443.4727 656.23987 2640.0305 2897463
1451.2666 652.30847 2624.2146 2831670
1468.0032 652.43958 2624.7422 2765877
1486.2744 653.24237 2627.9717 2700084
1504.51 654.01196 2631.0679 2700084
1520.9391 653.98816 2630.9722 2765877
1534.6757 652.81958 2626.2708 2765877
1553.4977 653.81604 2630.2795 2765877
1570.6931 654.11414 2631.4788 2634291
1590.0021 655.2771 2636.1575 2634548
1611.6404 657.36633 2644.5623 2436912
1631.5142 658.70056 2649.9299 2634291
1658.6614 662.91492 2666.884 2568755
1675.3701 662.91492 2666.884 2568498
1690.4285 662.26825 2664.2825 2436912
1715.7343 665.60968 2677.7251 2436912
1735.2428 666.65924 2681.9473 2502705
1751.9054 666.60565 2681.7319 2700084
1754.8585 661.38629 2660.7344 2634291
1781.8916 665.25513 2676.2986 2107947
