# .PCD v0.7 - Point Cloud Data file format
VERSION 0.7
FIELDS x y z rgb
SIZE 4 4 4 4
TYPE F F F U
COUNT 1 1 1 1
WIDTH 1286
HEIGHT 1
VIEWPOINT 0 0 0 1 0 0 0
POINTS 1286
DATA ascii
-931.271 593.85547 1163.6842 2437169
-923.9801 593.85547 1163.6842 2634291
-906.30566 587.12866 1150.5028 3029049
-906.07758 591.68695 1159.4348 3489600
-896.05261 589.86951 1155.8735 3358014
-893.58771 593.03986 1162.0859 2831670
-887.97723 594.15747 1164.276 2700084
-877.90845 592.28583 1160.6084 2371119
-876.76788 596.45667 1168.7814 2305326
-870.57172 597.22949 1170.2958 2436912
-860.60742 595.40857 1166.7275 2436912
-850.20819 593.25293 1162.5035 2305326
-844.25507 594.18921 1164.3381 2634291
-838.23077 595.09131 1166.1058 2765877
-831.80743 595.72345 1167.3446 2634291
-824.77039 595.92346 1167.7365 2436912
-821.78522 599.08075 1173.9233 2240302
-813.3717 598.30212 1172.3976 2371889
-807.70544 599.54858 1174.84 2437425
-801.85864 600.68268 1177.0624 2305839
-792.75397 599.37469 1174.4993 2700597
-786.85083 600.48535 1176.6758 3292734
-779.47858 600.48535 1176.6758 3095612
-777.09515 604.36536 1184.2787 2634804
-771.38171 605.70526 1186.9043 2634804
-764.16431 605.87885 1187.2444 2897976
-757.30261 606.34058 1188.1493 2898233
-745.63397 602.92462 1181.4556 2766647
-737.55219 602.36957 1180.3679 3029562
-729.30475 601.66663 1178.9905 3095355
-719.73181 599.8446 1175.4202 3227198
-703.36884 592.2674 1160.5723 2963769
-702.57874 597.78186 1171.3782 2305839
-695.97833 598.41699 1172.6227 2174253
-687.3902 597.33826 1170.5089 2436912
-679.10974 596.50665 1168.8793 2306095
-671.83606 596.55072 1168.9657 2437425
-665.33032 597.28528 1170.405 2503218
-662.40344 601.28485 1178.2423 2634804
-655.05505 601.31573 1178.3029 2569011
-647.67261 601.31573 1178.3029 2569011
-640.72736 601.72632 1179.1074 2503218
-632.3501 600.78589 1177.2646 2766390
-624.95123 600.76385 1177.2214 2634804
-615.21741 598.46979 1172.7262 2437425
-612.67432 603.19995 1181.9951 2569011
-608.17798 606.0993 1187.6764 2766390
-603.93494 609.32587 1193.9991 2766390
-593.09943 605.8988 1187.2836 2832183
-581.97565 602.08636 1179.813 2634804
-573.67462 601.13373 1177.9462 2503218
-565.99103 600.81171 1177.3152 3094842
-561.60876 604.03186 1183.6252 3489600
-552.73419 602.44183 1180.5095 2897720
-547.13062 604.42224 1184.3903 2765877
-538.91119 603.52759 1182.6371 3029049
-530.30103 602.16431 1179.9657 2502705
-524.58893 604.09985 1183.7584 2371119
-518.83282 606.03943 1187.5592 2371119
-512.11633 606.89734 1189.2402 2963256
-503.34024 605.30377 1186.1176 2963256
-495.90884 605.30377 1186.1176 2832440
-489.50211 606.57349 1188.6057 2766390
-481.71606 606.14685 1187.7697 2634804
-475.60638 607.8493 1191.1057 2305839
-468.14374 607.8493 1191.1057 2569011
-462.09036 609.7088 1194.7494 2305839
-454.7717 609.9325 1195.1877 2240046
-445.53555 607.54901 1190.5172 2766390
-435.39392 603.82849 1183.2267 3358527
-426.88617 602.28436 1180.2009 3621699
-420.42737 603.6275 1182.8329 3358527
-413.74115 604.68652 1184.9081 2898233
-405.23767 603.07977 1181.7595 2305839
-398.06311 603.42773 1182.4414 2108460
-391.12878 604.15997 1183.8762 2700597
-383.19229 603.34253 1182.2744 2832183
-373.15393 599.11823 1173.9968 2963769
-363.95786 596.10358 1168.0895 3358527
-357.46814 597.48877 1170.8038 3161148
-349.7063 596.76111 1169.3779 2569011
-342.35193 596.71259 1169.2828 2503218
-335.64008 597.80634 1171.426 2832183
-327.28412 595.95514 1167.7986 3226941
-319.67032 595.40161 1166.714 3292734
-314.58966 599.65076 1175.0403 3621699
-306.80139 598.81879 1173.4099 2897976
-300.87732 601.67371 1179.0044 2503218
-290.17377 594.87427 1165.6805 2503218
-283.37057 595.92609 1167.7417 2700597
-275.78091 595.33588 1166.5851 2963769
-270.00754 598.74121 1173.2579 2371376
-263.23654 600.06293 1175.8479 2239533
-255.49857 599.19305 1174.1433 2765877
-245.7867 593.50519 1162.9978 2634291
-238.11928 592.55737 1161.1405 2634291
-231.59633 594.48761 1164.9229 3226428
-222.3475 589.31866 1154.7941 2700341
-215.34091 589.94476 1156.021 2173740
-208.02826 589.74689 1155.6332 2436912
-200.78789 589.74695 1155.6333 2700597
-196.09512 597.50964 1170.8447 2240046
-189.94875 601.27441 1178.2219 2371632
-183.63535 604.79358 1185.1178 1976874
-176.21021 604.79358 1185.1178 1976874
-168.84541 605.00977 1185.5415 2437425
-161.29968 604.56769 1184.6752 2240046
-153.90265 604.66718 1184.8701 1976874
-146.16499 603.37067 1182.3296 2240046
-138.75734 603.37067 1182.3296 2437682
-130.79866 600.83954 1177.3698 2240046
-123.89024 603.11859 1181.8357 2437425
-116.66088 604.02576 1183.6133 2371632
-109.10715 603.26257 1182.1178 1976874
-101.47839 601.94324 1179.5325 2108460
-93.945763 601.03168 1177.7462 2174253
-86.540977 600.85223 1177.3947 1976874
-79.762779 605.39514 1186.2966 2042667
-72.116989 603.61011 1182.7988 2371889
-64.756615 604.07861 1183.7168 2240046
-56.883282 599.26434 1174.2831 2108460
-49.333576 596.93561 1169.7198 1911081
-41.835129 594.52271 1164.9917 2173740
-34.543976 594.65839 1165.2576 2305326
-27.397461 598.02393 1171.8524 2436912
-19.994658 596.21136 1168.3007 2173996
-12.64305 594.71362 1165.3657 1911081
-5.3488874 595.51691 1166.9398 1976618
1.9715773 598.31647 1172.4257 1713702
9.3473282 600.25195 1176.2184 1647909
16.716702 600.25195 1176.2184 2173740
24.045826 599.24896 1174.2529 2173740
31.282213 596.94617 1169.7406 2042154
38.594326 596.68842 1169.2355 1910825
45.893871 596.34955 1168.5714 1713446
53.222664 596.4317 1168.7324 1844775
60.624947 597.2179 1170.2731 1844775
68.060837 598.12982 1172.0599 1844775
75.493034 598.8349 1173.4415 1844518
83.194641 601.36212 1178.3938 1976874
90.770309 602.64124 1180.9003 2305839
98.120476 602.34326 1180.3164 2108460
105.45155 601.97815 1179.6008 2042667
112.96538 602.63562 1180.8893 1976874
120.83965 605.01709 1185.5558 2305839
128.26753 605.01709 1185.5558 2240046
135.10922 602.4035 1180.4344 1976874
142.43733 602.11743 1179.8738 2042667
149.82961 602.11743 1179.8738 1911081
156.90935 600.92047 1177.5283 1779495
163.8353 599.26849 1174.2913 1647909
171.1781 599.21783 1174.1919 1582116
178.53479 599.21783 1174.1919 1582116
186.1291 599.98383 1175.693 1844518
193.01137 598.48364 1172.7533 1910568
200.77127 599.71509 1175.1663 2305326
208.47618 600.70087 1177.098 2239533
215.91434 600.87695 1177.443 1976618
222.88133 599.7735 1175.2808 1713189
229.92883 598.95032 1173.6677 1252638
237.28223 598.95032 1173.6677 1252638
245.13112 600.16345 1176.0449 1450017
253.54237 602.64246 1180.9027 1647396
261.48209 603.89191 1183.351 1910568
268.79684 603.66888 1182.9139 1778982
276.24484 603.74902 1183.071 1581603
284.52197 605.58978 1186.6781 1516067
291.50397 604.65033 1184.8372 1647396
299.22906 605.26062 1186.0331 1647396
307.15207 606.23199 1187.9365 1647653
314.59488 606.23199 1187.9365 1515810
322.95068 607.95081 1191.3046 1384224
329.1618 605.64569 1186.7876 1515810
337.83347 607.86975 1191.1458 1778982
344.99286 607.33551 1190.0989 1844775
352.9863 608.26105 1191.9125 1778982
361.69223 610.35052 1196.0068 1581603
370.18301 611.99951 1199.2382 1318431
376.63202 610.27448 1195.8579 1647396
383.55655 609.37225 1194.09 1581603
391.07019 609.42261 1194.1886 1055259
402.36023 615.24548 1205.5988 1581603
409.73947 614.98401 1205.0864 2239533
418.38434 616.59723 1208.2476 2042154
426.9762 618.07635 1211.146 1976361
437.30515 621.97449 1218.7845 2436913
444.43384 621.26526 1217.3948 2437170
451.0918 619.93304 1214.7842 1910569
459.9537 621.6236 1218.0969 2173741
468.04266 622.23138 1219.288 2173742
477.21515 624.23712 1223.2183 2107694
485.31781 624.802 1224.3252 1976108
491.67221 623.13367 1221.056 1647143
498.94208 622.65894 1220.1257 1844778
504.55148 620.15759 1215.2242 1910569
512.05646 620.02582 1214.9661 2107948
517.36816 617.28113 1209.5878 2305327
524.94659 617.28113 1209.5878 2371120
532.88611 617.69971 1210.408 2371119
539.70081 616.82092 1208.6859 2173740
540.9187 609.65851 1194.6509 1647653
543.16156 603.83099 1183.2316 1384225
548.34552 601.38593 1178.4404 1318431
553.82458 599.32526 1174.4025 1778982
562.23975 600.45428 1176.6149 1647396
567.37115 598.09259 1171.9869 1450017
573.73328 597.0719 1169.9869 1383968
581.0636 597.0719 1169.9869 1581346
585.31726 593.94989 1163.8691 2042154
592.11737 593.45685 1162.9031 1976361
599.75055 593.80066 1163.5768 2107947
610.53772 597.22137 1170.2798 2173740
615.73987 595.16254 1166.2454 2107947
625.37109 597.38281 1170.5962 2173740
630.9574 595.73254 1167.3624 2173740
639.70319 597.06903 1169.9813 2108204
648.23083 598.17395 1172.1464 2305326
658.05304 600.4353 1176.5776 2831670
664.78009 599.85364 1175.4379 2502705
669.97742 597.91956 1171.6479 2042154
679.16364 599.54871 1174.8403 2371119
686.52441 599.54871 1174.8403 2568498
693.20502 598.96106 1173.6888 2568755
699.54193 598.09192 1171.9857 2634291
705.51599 596.93384 1169.7163 2634291
712.06226 596.27869 1168.4325 2700084
719.63153 596.48474 1168.8364 2831670
725.21625 595.05835 1166.0413 2437169
732.20068 594.79749 1165.53 2437169
739.99042 595.18939 1166.2981 2436911
754.04932 600.56683 1176.8353 2633778
759.36682 598.94537 1173.6581 2370606
763.05267 596.08038 1168.0441 1581090
769.93243 595.74121 1167.3794 1054746
776.9989 595.55145 1167.0076 857367
784.72083 595.86304 1167.618 1054746
791.81458 595.69623 1167.2911 1186589
798.35974 595.12354 1166.1689 2304042
805.33289 594.87732 1165.6865 2567985
814.52075 596.25684 1168.3898 2436400
824.85815 598.44568 1172.679 2370863
836.06305 601.21985 1178.115 2239789
837.01587 596.63757 1169.1359 2173740
843.06055 595.73279 1167.3629 2042154
850.85144 596.06702 1168.0178 2107947
859.42377 596.93823 1169.725 2502705
870.67163 599.63739 1175.0142 2634548
877.82214 599.4931 1174.7313 3357501
880.17865 596.10443 1168.0911 3160122
888.57507 596.82843 1169.5099 2436399
897.66248 598.00098 1171.8075 2567986
907.25214 599.48639 1174.7181 2567985
916.48065 600.71112 1177.118 2633778
927.28735 602.94244 1181.4905 2502192
934.68982 602.94244 1181.4905 2370606
942.64087 603.29358 1182.1786 2173227
946.7887 601.22424 1178.1235 2304813
956.74542 602.84692 1181.3033 2502192
963.98749 602.74738 1181.1083 2436399
972.19806 603.25037 1182.0939 2239020
982.21326 604.85706 1185.2422 2173227
987.48199 603.53857 1182.6587 2173227
995.08759 603.65741 1182.8915 2304813
1003.0013 603.96002 1183.4844 2370606
1011.4202 604.56012 1184.6604 2239020
1019.0845 604.7038 1184.9419 2304813
1025.7126 604.23492 1184.0231 2173227
1032.2561 603.72327 1183.0205 2107434
1037.7119 602.58734 1180.7946 2239020
1043.5935 601.71295 1179.0813 2370606
1052.4763 602.56927 1180.7592 2041641
1058.0791 601.54871 1178.7594 1844519
1066.8618 602.33765 1180.3053 1712933
1071.6302 600.86493 1177.4194 1712419
1075.282 598.79053 1173.3546 1449248
1083.0131 599.00049 1173.7661 1317917
1091.7074 599.73676 1175.2089 1318175
1095.3247 597.69287 1171.2037 1843492
1100.8696 596.72095 1169.2992 1843749
1108.5278 596.89978 1169.6497 1777699
1115.6554 596.79254 1169.4395 1777699
1124.7493 597.73151 1171.2794 1777699
1131.7386 597.54724 1170.9183 1975078
1142.7593 599.48004 1174.7058 2172457
1149.7573 599.29144 1174.3362 2040871
1156.674 599.06305 1173.8887 1975078
1162.4664 598.25903 1172.3131 1975078
1170.1418 598.42804 1172.6443 1975078
1180.5864 600.00226 1175.7291 2106407
1192.7892 602.44507 1180.5159 2106664
1201.1755 602.94208 1181.4897 2040871
1215.3298 606.31042 1188.0902 1646114
nan nan nan 16777215
nan nan nan 16777215
nan nan nan 16777215
nan nan nan 16777215
nan nan nan 16777215
nan nan nan 16777215
nan nan nan 16777215
nan nan nan 16777215
nan nan nan 16777215
nan nan nan 16777215
nan nan nan 16777215
nan nan nan 16777215
nan nan nan 16777215
nan nan nan 16777215
nan nan nan 16777215
nan nan nan 16777215
nan nan nan 16777215
nan nan nan 16777215
-1015.5056 607.8877 1176.8096 2107947
-1006.4387 606.86633 1174.8323 2173740
-996.37 605.2215 1171.6479 1976361
-987.32812 604.18042 1169.6326 2107947
-975.78986 601.58484 1164.6078 2239533
-971.09113 603.19855 1167.7318 2042154
-963.77496 603.19855 1167.7318 1778982
-954.69336 602.08521 1165.5764 1910568
-949.79382 603.61249 1168.5331 2239533
-926.28381 593.2442 1148.4612 2436912
-918.065 592.58368 1147.1825 2568498
-911.23364 592.81537 1147.631 2963256
-902.95789 592.10352 1146.2529 3226428
-892.17145 589.72083 1141.6403 3029049
-890.39325 593.30206 1148.5732 2831670
-879.95703 591.12555 1144.3596 2765877
-875.71716 593.10992 1148.2012 2568498
-869.68408 593.90253 1149.7356 2634291
-864.57727 595.34631 1152.5306 2765877
-853.36884 592.57739 1147.1703 2766134
-843.46265 590.6734 1143.4844 2963256
-838.34393 592.11823 1146.2814 2568498
-833.71472 593.93671 1149.8018 2568498
-826.92822 594.23663 1150.3823 2634291
-821.27673 595.36456 1152.566 2568498
-814.05554 595.36456 1152.566 2568498
-806.79175 595.33313 1152.5051 2437425
-799.39465 595.20184 1152.251 2569011
-792.69012 595.58856 1152.9996 2766390
-787.50397 597.13367 1155.9908 2963769
-785.8288 601.39453 1164.2394 3292734
-780.78503 603.133 1167.6049 3358784
-768.66925 599.38977 1160.3584 2897976
-765.04492 602.25977 1165.9143 2963769
-760.66364 604.58344 1170.4127 2897976
-753.51575 604.73193 1170.7003 2897976
-746.18097 604.73193 1170.7003 2832440
-737.25037 603.42584 1168.1718 2766390
-732.45648 605.51324 1172.2128 2832183
-722.82404 603.60254 1168.5138 2963769
-710.11285 599.05536 1159.7111 3161148
-701.88434 598.23499 1158.1228 2437682
-696.03577 599.44708 1160.4694 2174253
-684.99127 596.16272 1154.1111 2240046
-676.87213 595.38141 1152.5985 2436655
-668.06946 593.97546 1149.8768 2305839
-660.94934 594.05115 1150.0233 2305839
-653.74408 594.05115 1150.0233 2503218
-652.06158 599.12549 1159.8468 3292734
-644.84222 599.16962 1159.9321 2964026
-637.43689 599.03998 1159.6812 2897976
-631.12799 599.94958 1161.442 2766390
-624.13202 600.2196 1161.9648 2634804
-618.14142 601.4743 1164.3938 2634804
-610.84613 601.4743 1164.3938 2305839
-605.50793 603.42468 1168.1696 2042667
-598.14203 603.37726 1168.0778 1911081
-590.03967 602.57666 1166.5278 2371632
-583.89441 603.7796 1168.8567 2569011
-571.47266 598.44055 1158.5208 2437425
-561.66614 595.73798 1153.2888 2569011
-558.27496 599.85809 1161.265 2963257
-554.93628 604.14423 1169.5625 3029049
-546.18176 602.57007 1166.5151 3029049
-538.34698 601.98163 1165.376 2502705
-532.51111 603.64301 1168.5922 3292221
-525.98212 604.55402 1170.3558 3621186
-520.50031 606.71136 1174.5322 2963256
-515.01068 608.92145 1178.8107 2634291
-504.17816 604.78668 1170.8063 2634291
-496.40253 604.25085 1169.7689 2436913
-494.63297 611.11951 1183.0659 3029562
-489.59595 614.09888 1188.8336 3292734
-477.18652 607.78009 1176.6012 3029562
-470.29971 608.40741 1177.8157 2700597
-462.57416 607.95245 1176.9349 2503218
-454.39322 606.87463 1174.8483 2503218
-447.83795 607.96808 1176.9652 2634804
-440.46393 607.96808 1176.9652 2766390
-431.10468 605.18134 1171.5703 3358527
-422.54837 603.4447 1168.2083 3490113
-415.88589 604.39905 1170.0559 2963769
-409.40607 605.6579 1172.4928 2832183
-401.85733 605.35254 1171.9017 2700597
-393.74292 604.16785 1169.6083 2503218
-386.66187 604.55389 1170.3556 2766390
-379.32471 604.54669 1170.3417 3161148
-369.61353 600.68103 1162.8582 3161148
-361.23672 598.87219 1159.3563 3358527
-353.10144 597.39758 1156.5017 3358527
-343.44577 593.23511 1148.4435 3161148
-337.39001 595.24561 1152.3357 2700597
-330.17026 595.24561 1152.3357 2766390
-322.39426 594.22028 1150.3508 3226941
-315.26474 594.367 1150.6348 3226941
-309.52182 597.1958 1156.1111 2964026
-302.11252 596.86804 1155.4766 2766390
-295.14539 597.41913 1156.5435 2963769
-286.32092 594.14398 1150.203 3095355
-278.70508 593.27234 1148.5156 2766390
-271.78265 593.86975 1149.6721 2766390
-264.61188 593.94208 1149.8123 2569011
-256.95792 592.90369 1147.802 2305326
-249.76656 592.90369 1147.802 2305326
-242.91829 593.74219 1149.4252 2436912
-235.34514 592.80609 1147.613 2371119
-228.05795 592.55396 1147.1249 2700341
-220.87085 592.55396 1147.1249 3029049
-212.84883 590.23865 1142.6427 2173740
-206.6799 593.07977 1148.1428 2239533
-200.64694 596.52997 1154.8221 2502961
-194.89264 601.09778 1163.6649 2503218
-187.71234 601.4516 1164.3499 2240046
-181.18811 604.02118 1169.3242 1976874
-174.34186 605.68848 1172.552 2108460
-166.6416 604.40503 1170.0674 2371632
-159.16135 603.83813 1168.97 2174253
-151.83739 603.83813 1168.97 1845288
-144.85698 605.27368 1171.749 2042667
-136.37804 600.26666 1162.0559 2371632
-129.36023 601.48883 1164.4219 2569011
-123.42208 608.17706 1177.3698 2700597
-115.91164 607.47565 1176.0117 2305839
-108.5658 607.60004 1176.2526 1713959
-99.707344 598.66064 1158.9468 1976874
-92.095428 596.38916 1154.5496 2108460
-84.819031 596.08856 1153.9675 2042154
-77.339012 594.16742 1150.2484 1910568
-70.160446 594.40552 1150.7094 2042410
-62.932686 594.23352 1150.3763 2239533
-55.725216 594.23352 1150.3763 2305326
-48.375397 592.48993 1147.001 2042411
-41.049412 590.4809 1143.1117 2305582
-34.111057 594.37695 1150.6541 2371119
-26.904827 594.44269 1150.7812 2107947
-19.728626 595.46289 1152.7563 2305582
-12.459367 593.23059 1148.4348 2042154
-5.2612362 592.91162 1147.8173 1844519
1.9316822 593.36835 1148.7015 1713189
9.1487303 594.6734 1151.2279 1450017
16.43926 597.49854 1156.6971 1910568
23.686327 597.49854 1156.6971 2239533
30.704472 593.07672 1148.137 2502705
37.70903 590.12097 1142.4149 2042154
45.028767 592.25378 1146.5438 1647396
52.428257 594.70428 1151.2877 1647396
59.722271 595.51044 1152.8483 1647396
67.154976 597.37628 1156.4604 1581860
74.763786 600.29266 1162.1063 1778982
81.45295 595.96265 1153.7239 1911081
89.517281 601.5802 1164.5988 2634804
97.018036 602.84894 1167.0549 2174253
103.22884 596.48615 1154.7372 2108460
111.0237 599.51044 1160.5919 2108460
118.54167 600.7597 1163.0104 2371632
125.62754 599.80127 1161.1549 2174253
132.71332 598.9472 1159.5016 2305839
139.89427 598.58917 1158.8085 1911081
147.38824 599.53967 1160.6486 1911081
154.82407 600.17542 1161.8793 1977131
162.10359 600.17542 1161.8793 1911081
168.83446 598.23132 1158.1157 1647909
177.44339 602.82782 1167.014 1845545
182.67764 596.04938 1153.8917 2239533
189.73239 595.50092 1152.83 2239533
199.13597 602.09442 1165.5944 2371119
205.80487 600.24561 1162.0151 2107947
211.75452 596.49701 1154.7583 1713189
219.00682 596.54437 1154.85 1713189
227.44911 599.72638 1161.01 1384224
234.67241 599.59662 1160.7588 1252638
243.09923 602.45728 1166.2968 1581860
251.88361 606.01123 1173.1768 1910825
259.23392 606.01123 1173.1768 1976361
264.90085 602.18445 1165.7686 1844775
271.39276 600.38812 1162.2911 1384224
277.91663 598.75452 1159.1287 1450017
287.37857 603.37286 1168.0692 1713189
295.31277 604.63385 1170.5104 1515810
302.60672 604.55457 1170.3569 1581603
309.93936 604.55457 1170.3569 1976361
317.14676 604.31592 1169.8949 1647653
326.21732 607.55811 1176.1714 1252638
332.05402 604.76715 1170.7684 1384224
340.38632 606.54388 1174.208 1647396
347.23541 605.65833 1172.4937 1384224
355.16 606.64661 1174.4069 1121052
362.19583 606.10742 1173.363 1055259
370.37842 607.47052 1176.0018 1450017
378.41205 608.54095 1178.0741 1515810
386.58084 609.78357 1180.4797 1647396
395.4877 612.12189 1185.0065 1515810
404.25003 614.15448 1188.9414 1384224
414.73798 618.68774 1197.7173 1318431
420.44998 616.06195 1192.634 1581603
427.92221 616.06195 1192.634 1910569
438.84512 620.94452 1202.0862 2371121
446.37656 620.94452 1202.0862 2239534
455.651 623.32892 1206.7021 1713190
463.21136 623.32892 1206.7021 2239534
472.23224 625.26276 1210.4458 2239533
478.52289 623.57751 1207.1835 1910568
486.48312 624.08667 1208.1691 1647653
494.0527 624.08667 1208.1691 1647397
501.72986 624.22052 1208.4282 1779240
508.51984 623.26312 1206.5747 2107948
512.76544 619.2608 1198.8267 2765878
520.27637 619.2608 1198.8267 2437170
529.30225 621.03815 1202.2675 1647396
534.63507 618.49335 1197.3409 1384225
536.8866 612.50378 1185.7457 1252638
541.3031 609.11383 1179.1831 1120538
541.77557 601.43671 1164.321 1120282
546.42822 598.54254 1158.7183 1580833
550.10364 594.66791 1151.2173 1778213
557.31635 594.66791 1151.2173 1317919
563.69324 593.78735 1149.5127 1055002
575.90485 598.99786 1159.5996 1317918
583.81714 599.66241 1160.8861 1647396
586.66547 595.17328 1152.1957 1713189
595.96033 597.25378 1156.2233 1778981
603.76221 597.80609 1157.2925 1844775
609.72217 596.54309 1154.8475 1976361
616.50952 596.1098 1154.0087 1976361
624.95227 597.26868 1156.2521 2305326
631.10486 596.23724 1154.2554 2568498
637.54608 595.49884 1152.8259 2371119
650.74219 601.01569 1163.506 2634548
657.13458 600.19617 1161.9194 2700084
667.30139 602.80408 1166.9681 2568755
672.35864 600.78986 1163.0688 2831670
678.24377 599.55072 1160.6699 2568498
686.36578 600.29413 1162.1091 2371119
692.47235 599.27777 1160.1415 2371119
699.74097 599.27777 1160.1415 2371119
706.11279 598.51758 1158.6699 2371119
712.56006 597.83618 1157.3507 2502705
716.85724 595.38275 1152.6012 2502705
725.74829 596.75568 1155.259 2634291
733.94019 597.53223 1156.7623 2568498
739.59546 596.2486 1154.2773 2502705
748.86652 597.87665 1157.4291 2436913
758.0791 599.42719 1160.4308 2238763
764.12726 598.46985 1158.5775 1910055
770.35876 597.67279 1157.0344 1515297
777.60791 597.67279 1157.0344 1317918
784.04358 597.05328 1155.8352 1515297
789.48053 595.69153 1153.199 1910055
802.242 599.83105 1161.2126 2502192
806.37769 597.50458 1156.7089 2567985
810.89386 595.49902 1152.8263 2567985
821.67633 598.09015 1157.8424 2173227
828.0448 597.45099 1156.6051 2107434
835.53333 597.62415 1156.9403 2107434
842.57526 597.4776 1156.6566 2173227
844.51337 593.74524 1149.4312 2107690
851.71497 593.74524 1149.4312 2173484
865.95367 598.60986 1158.8485 3028536
873.60156 598.87537 1159.3625 3160379
881.4939 599.3028 1160.1899 2567985
888.05859 598.82782 1159.2705 2436399
894.94952 598.57886 1158.7886 2699571
903.1322 599.19086 1159.9734 2699571
911.29474 599.77997 1161.1138 2699571
919.47498 600.37122 1162.2583 2765364
928.3764 601.42041 1164.2894 2633779
937.45331 602.56592 1166.5071 2568242
944.76178 602.56592 1166.5071 2633778
952.32153 602.72491 1166.8148 2502193
958.72223 602.15356 1165.7087 2173227
964.3385 601.10181 1163.6727 2239020
974.12836 602.64783 1166.6656 2699571
981.26758 602.54327 1166.4633 2567985
987.72131 602.0224 1165.455 2502192
995.88788 602.54553 1166.4677 2239020
1003.7377 602.87091 1167.0974 2370606
1010.3002 602.42377 1166.2319 2633778
1017.0668 602.104 1165.6128 2567985
1024.3696 602.104 1165.6128 2567985
1028.5531 600.28339 1162.0883 2502192
1034.1921 599.33191 1160.2463 2107434
1042.2358 599.77753 1161.109 1975848
1052.5204 601.49762 1164.439 1910055
1058.0615 600.50183 1162.5112 1778468
1060.4858 597.76294 1157.209 1580577
1066.8448 597.26398 1156.243 1580320
1074.8395 597.68121 1157.0508 1580063
1082.0497 597.65967 1157.009 1580320
1085.7343 595.70392 1153.223 1711906
1093.9779 596.25903 1154.2976 1711906
1099.6079 595.3916 1152.6183 1646114
1115.1832 599.88531 1161.3176 1711906
1117.1613 597.05389 1155.8363 1975078
1115.8981 592.53784 1147.0938 2435629
1121.9906 591.96045 1145.976 2567215
1135.5964 595.32916 1152.4974 2435629
1154.8872 601.61682 1164.6697 1909285
1163.4601 602.27728 1165.9482 1646113
1169.5911 601.67328 1164.7791 1646113
1180.0355 603.28204 1167.8934 1646113
1187.691 603.45392 1168.2262 1712163
1202.0886 607.02838 1175.1459 1646114
nan nan nan 16777215
nan nan nan 16777215
nan nan nan 16777215
nan nan nan 16777215
nan nan nan 16777215
nan nan nan 16777215
nan nan nan 16777215
nan nan nan 16777215
nan nan nan 16777215
nan nan nan 16777215
nan nan nan 16777215
nan nan nan 16777215
nan nan nan 16777215
nan nan nan 16777215
nan nan nan 16777215
nan nan nan 16777215
nan nan nan 16777215
nan nan nan 16777215
-1003.5511 607.97943 1162.9562 2305326
-994.34698 606.80902 1160.7174 2305326
-985.1936 605.65259 1158.5054 2305326
-977.05957 605.11029 1157.468 2305326
-964.20605 601.61517 1150.7825 2305326
-955.53687 600.69788 1149.0278 2173740
-949.00214 601.11859 1149.8326 2173740
-941.86017 601.1582 1149.9084 2502705
-929.16138 597.62445 1143.1489 2634291
-915.87634 593.6557 1135.5575 2568498
-907.83905 593.05292 1134.4044 2765877
-900.73663 593.05621 1134.4108 3029049
-895.07178 594.01361 1136.2421 3226428
-887.95282 594.01361 1136.2421 3489600
-877.2088 591.56891 1131.5658 3292221
-874.51294 594.55603 1137.2797 2436912
-866.5481 593.98065 1136.1791 2634291
-859.42963 593.98065 1136.1791 2831670
-846.09509 589.64874 1127.8928 2963256
-843.43634 592.74646 1133.8182 3358014
-836.35358 592.76135 1133.8467 3094842
-831.02448 594.02991 1136.2733 2765877
-824.10034 594.17053 1136.5422 2634548
-817.70532 594.69836 1137.5519 2634291
-810.90765 594.94 1138.0142 2502705
-803.77759 594.94 1138.0142 2568498
-796.53906 594.85901 1137.8591 2634804
-789.51404 594.93732 1138.009 2437425
-791.04193 601.52094 1150.6023 3161148
-782.36298 600.39282 1148.4443 3226941
-774.7804 600.09283 1147.8706 3095355
-764.35461 597.56458 1143.0344 2569011
-759.30273 599.22937 1146.219 2569011
-755.17993 601.66626 1150.8802 2832183
-748.04089 601.72382 1150.9904 2766390
-739.73523 600.83502 1149.2902 2700597
-732.67053 600.94647 1149.5034 2634804
-725.41095 600.8988 1149.4122 2503218
-717.71564 600.4856 1148.6218 2766390
-711.63214 601.42621 1150.421 2832183
-704.42438 601.42621 1150.421 2108460
-694.23975 598.85834 1145.5092 1976874
-687.81952 599.51788 1146.7708 2437425
-680.72357 599.59619 1146.9207 2173997
-672.28204 598.47839 1144.7823 2042154
-664.68903 598.09991 1144.0585 2634804
-657.2406 597.84467 1143.5702 2569011
-651.25714 598.93115 1145.6484 2503218
-643.0274 597.953 1143.7775 2963769
-634.00061 596.20319 1140.4304 2832440
-629.8645 599.06519 1145.9048 2766390
-622.68506 599.06519 1145.9048 2766390
-617.48779 600.99445 1149.5951 2635061
-610.68683 601.38989 1150.3516 2569011
-603.46729 601.37769 1150.3282 2437425
-596.85187 601.97455 1151.4698 2371632
-589.86896 602.21075 1151.9218 2042667
-582.94769 602.5166 1152.5067 2240046
-578.00232 604.89789 1157.0618 2305839
-570.42365 604.54889 1156.3942 2174253
-560.99908 602.20941 1151.9192 2832439
-553.01624 601.37665 1150.3263 2897720
-546.12439 601.72418 1150.991 2897463
-540.18256 603.14154 1153.7021 2700084
-532.55927 602.69446 1152.847 2305583
-525.17389 602.50818 1152.4907 2831670
-519.91425 604.78943 1156.8542 2700084
-513.61963 605.91412 1159.0056 2568755
-505.96686 605.44604 1158.1102 2700084
-499.31674 606.1814 1159.517 2568498
-492.052 606.1814 1159.517 2766134
-487.90628 610.08148 1166.9771 3095355
-481.62952 611.39496 1169.4895 3161148
-473.41864 610.25592 1167.3107 2963769
-459.87933 602.10474 1151.719 2569011
-455.78214 606.25299 1159.6538 2569011
-448.64017 606.4201 1159.9735 2634804
-441.40421 606.46356 1160.0566 2766390
-434.53326 607.01837 1161.1179 2897976
-427.22577 606.97186 1161.0289 2963769
-417.91528 604.02875 1155.3993 2897976
-409.59354 602.43616 1152.3529 3095355
-402.52576 602.66388 1152.7885 3358527
-396.04166 603.78967 1154.942 2963769
-389.26178 604.49817 1156.2971 2569011
-380.37985 601.90717 1151.3411 3292734
-372.40256 600.67523 1148.9845 3819078
-363.72363 598.24072 1144.3278 3753285
-356.55408 598.24072 1144.3278 3621699
-348.12302 596.08069 1140.196 3621699
-340.40103 595.0697 1138.2622 3095355
-332.1416 593.05579 1134.41 2766390
-324.82132 592.66754 1133.6672 2832183
-318.6441 594.39404 1136.9697 3292734
-313.0195 597.25391 1142.4402 2897976
-301.73947 589.20435 1127.0428 2503218
-294.47052 588.78912 1126.2485 2437425
-289.82028 593.71808 1135.6768 2635061
-282.4144 593.10797 1134.5098 3292734
-275.98129 594.56207 1137.2911 2700597
-268.8558 594.56207 1137.2911 2305839
-262.4534 596.20459 1140.4331 2502962
-256.28076 598.47577 1144.7773 2436912
-247.48398 594.57312 1137.3124 2436912
-239.89207 593.41968 1135.106 2239533
-232.8075 593.48907 1135.2386 2239533
-225.76399 593.67078 1135.5863 2502705
-218.93787 594.45459 1137.0856 2700341
-211.40804 593.31622 1134.9081 2371119
-205.30675 596.24725 1140.5146 2042154
-199.09731 599.06433 1145.9032 2239790
-192.25177 600.10657 1147.8969 2503218
-183.62848 595.46497 1139.0183 2371632
-176.31554 594.86896 1137.8783 1976874
-169.37914 595.54675 1139.1748 2174253
-162.32422 595.84906 1139.7531 2634804
-155.55518 597.27692 1142.4843 2305839
-148.37816 597.2005 1142.338 1779495
-141.59448 598.7796 1145.3586 1976874
-134.17178 597.68085 1143.2568 2305839
-127.35326 599.30121 1146.3563 2371632
-121.64445 606.64948 1160.4122 2305839
-113.231 600.58636 1148.8146 2042667
-106.42258 602.7912 1153.032 1713959
-98.394905 597.90814 1143.6917 2042924
-90.907173 595.79681 1139.6531 2239533
-83.690849 595.25598 1138.6185 1910568
-76.373596 593.82959 1135.89 1778982
-68.967094 591.34467 1131.137 1976362
-62.065292 593.11383 1134.521 2305839
-55.262585 596.40997 1140.8259 2503474
-48.144707 596.77869 1141.5312 2240046
-40.992661 596.77869 1141.5312 2240303
-33.773491 595.59503 1139.2671 2569011
-26.725319 597.60059 1143.1034 2371632
-19.425352 593.38293 1135.0358 2371632
-12.309024 593.14319 1134.577 2371632
-5.1753936 590.27429 1129.0895 2042667
1.9010457 591.00287 1130.4832 1911081
9.0662737 596.42365 1140.8521 1712932
16.1457 593.90887 1136.0417 1647140
23.15448 591.12933 1130.725 1976361
30.276398 591.86389 1132.13 2173740
37.219612 589.4892 1127.5878 2107947
44.607605 593.79291 1135.8199 1910568
51.762302 594.23413 1136.6639 1778982
59.027775 595.68652 1139.442 1647396
66.34948 597.33173 1142.5891 1647396
73.54966 597.66901 1143.2343 1976362
80.64415 597.16376 1142.2678 2371632
87.800804 597.16376 1142.2678 2240046
95.081093 597.94122 1143.7549 1647909
102.05652 596.82684 1141.6233 1516580
109.20914 596.82684 1141.6233 2503218
116.79523 599.05017 1145.8761 2306096
123.8362 598.3819 1144.5978 2305839
130.76892 597.2923 1142.5137 2503218
137.90242 597.18536 1142.3091 2569011
144.95322 596.74841 1141.4733 1779495
152.81461 599.53278 1146.7993 1911081
159.97743 599.44952 1146.64 1976874
167.06238 599.09412 1145.9602 1779495
174.09402 598.58478 1144.9858 2305839
181.2106 598.39612 1144.625 2568755
188.17377 597.73456 1143.3596 2042154
195.7652 599.04407 1145.8644 2042154
202.4931 597.71191 1143.3163 2042154
208.93155 595.64569 1139.3639 1515810
216.73338 597.4743 1142.8618 1450017
223.34023 595.99713 1140.0363 1581603
231.57529 598.8219 1145.4396 1713446
239.18475 599.90778 1147.5166 1647396
245.81134 598.53699 1144.8945 1647396
254.07384 601.11438 1149.8246 1450017
261.62994 601.92444 1151.3741 1318431
267.50641 598.93048 1145.6471 1450017
274.68423 598.93048 1145.6471 1515810
281.51385 598.19049 1144.2317 1844775
290.5351 602.02863 1151.5734 1647396
297.88211 602.29559 1152.0841 1713189
304.58643 601.28125 1150.1438 2107947
310.14294 598.10028 1144.0592 1713189
318.99951 601.28326 1150.1477 1515810
326.33173 601.51587 1150.5925 1515810
333.62857 601.67462 1150.8962 1318431
340.8526 601.69812 1150.9412 1252895
348.65765 602.72504 1152.9055 1252638
356.98981 604.60297 1156.4977 1318431
364.1149 604.40265 1156.1144 1318431
371.11179 604.0014 1155.3469 1252638
379.46655 605.7832 1158.7552 1450017
387.88782 607.60229 1162.2349 1515810
397.0163 610.44177 1167.6663 1318431
405.37717 612.01959 1170.6843 1778982
413.45389 613.11993 1172.7891 1778983
420.80176 613.11993 1172.7891 1647397
432.72372 619.6701 1185.3184 2305327
441.0282 620.90637 1187.6831 2436913
448.52097 620.97772 1187.8197 2239534
457.68829 623.32739 1192.3141 2371120
467.15424 626.00171 1197.4297 2239534
475.35834 626.92737 1199.2002 1910569
482.04282 625.8512 1197.1417 1844776
488.95419 625.09802 1195.701 1515811
495.12515 623.43536 1192.5206 1252896
501.96667 622.65393 1191.0259 1581092
507.52853 620.3313 1186.5831 1646884
515.58209 621.07727 1188.01 1975591
522.05334 619.92297 1185.8021 1844005
526.71759 616.68549 1179.6094 1712676
531.41711 613.57831 1173.6659 1317918
529.57501 603.10608 1153.6344 923160
534.88818 600.9549 1149.5195 659988
543.02686 601.99323 1151.5056 725781
548.31427 599.88483 1147.4727 857367
552.45258 596.59009 1141.1704 1054746
557.51935 594.36938 1136.9226 988953
564.64252 594.36938 1136.9226 1252125
575.02649 597.75909 1143.4065 1252125
581.89978 597.46075 1142.8359 1383968
590.64929 599.07275 1145.9193 1778983
597.65088 598.89441 1145.5782 1713190
603.12408 597.20703 1142.3505 1713447
610.9762 597.88702 1143.6512 1713447
618.55798 598.28986 1144.4218 2173740
624.43365 597.05212 1142.0542 2700084
631.58899 597.05212 1142.0542 2634291
639.9505 598.17957 1144.2108 2502705
650.66541 601.45746 1150.4808 1581603
658.82697 602.3291 1152.1482 1778982
666.04553 602.3291 1152.1482 2173740
669.71875 599.15729 1146.0811 2568498
676.89923 599.15729 1146.0811 2436913
682.56152 597.82751 1143.5374 2173740
689.65698 597.76758 1143.4227 2173740
697.59052 598.42786 1144.6857 2239533
703.22272 597.12042 1142.1849 2173740
709.84857 596.67468 1141.3323 2239533
714.89343 594.92212 1137.98 2107947
722.53583 595.34454 1138.788 2173740
731.54596 596.87457 1141.7146 2502706
739.82605 597.7851 1143.4563 2502705
746.99329 597.78766 1143.4612 2305326
758.62439 601.32843 1150.234 2239534
763.73334 599.6814 1147.0835 2239533
771.75433 600.33026 1148.3247 1910568
777.81116 599.45337 1146.6473 1976104
785.86761 600.11951 1147.9216 2370606
792.14423 599.42676 1146.5964 2107434
796.30536 597.16003 1142.2606 2041641
804.96576 598.27771 1144.3986 2239020
812.91467 598.8515 1145.4961 2107434
820.98016 599.50043 1146.7373 2041641
828.68274 599.87524 1147.4543 1910055
835.47351 599.58942 1146.9076 1778469
841.40051 598.69373 1145.1943 1778469
847.91162 598.22534 1144.2983 2172971
856.80341 599.43036 1146.6034 2502192
863.00378 598.74805 1145.2982 2502192
869.18909 598.06659 1143.9948 2436399
880.68292 601.0191 1149.6423 2239020
886.7951 600.28088 1148.2302 2699571
891.98132 598.93268 1145.6514 2831157
899.54535 599.18988 1146.1433 2765364
907.93768 599.99048 1147.6747 2765364
914.49042 599.5722 1146.8748 2633778
921.67596 599.5722 1146.8748 2634035
926.83142 598.2619 1144.3683 2962743
937.58557 600.5578 1148.7599 2962743
946.42383 601.60083 1150.7551 2567985
953.47565 601.5011 1150.5643 2567985
959.41064 600.70367 1149.0391 2567985
966.10339 600.38904 1148.4371 2765364
967.42389 596.76508 1141.5051 2633778
980.57898 600.44104 1148.5366 2239020
988.51794 600.89264 1149.4005 1910055
996.42151 601.31647 1150.2112 2304813
1002.6387 600.72382 1149.0775 2502192
1009.7439 600.66779 1148.9703 2502192
1010.9658 597.13757 1142.2177 2502192
1018.9629 597.63068 1143.1609 2041641
1025.7231 597.39648 1142.7129 1646883
1034.59 598.38403 1144.6019 1449504
1044.2109 599.79114 1147.2935 1581090
1050.2684 599.14612 1146.0597 1581090
1055.2479 597.89905 1143.6743 1449504
1063.1654 598.32233 1144.4839 1514528
1070.3361 598.32233 1144.4839 1646113
1077.4301 598.27985 1144.4027 1646113
1084.9176 598.45502 1144.7377 1580320
1092.0074 598.40985 1144.6514 1580320
1103.0798 600.53351 1148.7135 1382941
1111.5027 601.19659 1149.9818 1382941
1112.3733 597.79242 1143.4703 2238250
1120.9342 598.53821 1144.8969 2961973
1128.7517 598.88013 1145.5509 2764594
1142.8171 602.51172 1152.4974 1909285
1155.1349 605.18207 1157.6053 1580320
1156.3412 602.034 1151.5837 1448734
1167.2271 603.93335 1155.2168 1382941
1175.9956 604.72046 1156.7224 1580320
1188.4597 607.38666 1161.8224 1777699
nan nan nan 16777215
nan nan nan 16777215
nan nan nan 16777215
nan nan nan 16777215
nan nan nan 16777215
nan nan nan 16777215
nan nan nan 16777215
nan nan nan 16777215
nan nan nan 16777215
nan nan nan 16777215
nan nan nan 16777215
nan nan nan 16777215
nan nan nan 16777215
nan nan nan 16777215
nan nan nan 16777215
nan nan nan 16777215
nan nan nan 16777215
nan nan nan 16777215
-986.10614 604.53247 1142.7402 2305326
-979.99213 605.17816 1143.9607 2305326
-971.51855 604.3656 1142.4247 2305326
-960.83667 602.15698 1138.2498 2371119
-952.4212 601.34625 1136.7173 2305326
-944.23157 600.66705 1135.4333 1844775
-935.41119 599.57312 1133.3656 2107947
-921.8125 595.37634 1125.4325 3029049
-909.13104 591.71191 1118.5056 2897463
-900.89453 590.90588 1116.9821 2700084
-898.58429 594.00494 1122.8401 2831670
-891.54932 594.00494 1122.8401 2765877
-878.09064 589.69104 1114.6855 3160635
-873.42224 591.25836 1117.6483 3621186
-866.47223 591.29413 1117.7159 2831670
-865.0976 595.1662 1125.0353 2568498
-855.58185 593.45496 1121.8005 2568498
-851.04126 595.19495 1125.0896 2765877
-841.23309 593.24915 1121.4115 3094842
-836.20959 594.67328 1124.1034 3292221
-828.2171 593.99219 1122.816 3160635
-823.27728 595.50757 1125.6805 3029049
-818.15167 596.91357 1128.3383 3094842
-813.23169 598.49542 1131.3284 2897720
-803.64496 596.64044 1127.8219 2963513
-796.19098 596.34998 1127.2728 2962999
-788.6123 595.96002 1126.5358 2766647
-787.2951 600.33759 1134.8107 3095355
-781.39532 601.2688 1136.5709 3292734
-774.27435 601.2688 1136.5709 3226941
-762.96356 597.98499 1130.3635 2634804
-752.98871 595.69647 1126.0376 2569011
-745.49036 595.34241 1125.3683 2634804
-741.01672 597.4201 1129.2958 2634804
-736.71442 599.67737 1133.5626 2569268
-730.46539 600.37854 1134.8881 2634804
-724.95587 601.70734 1137.3998 2634804
-717.82971 601.70734 1137.3998 2569011
-710.54065 601.5694 1137.139 2700854
-707.677 605.21332 1144.0272 2503218
-704.95251 609.05212 1151.2836 1911081
-689.83344 602.15106 1138.2386 2174253
-682.19324 601.70233 1137.3904 2305839
-674.83533 601.49567 1136.9998 2107947
-663.48676 597.6897 1129.8054 2042154
-655.8941 597.22168 1128.9207 2305839
-649.82959 598.14996 1130.6754 2700597
-644.39893 599.68866 1133.584 2569011
-638.80859 601.11139 1136.2733 2240046
-628.55463 598.12823 1130.6343 2305839
-619.89923 596.6156 1127.775 3029562
-613.03064 596.80768 1128.1381 3161148
-607.38611 598.20978 1130.7885 2700854
-602.98413 600.88318 1135.8419 2503218
-596.36493 601.38458 1136.7897 2240303
-590.51123 602.67932 1139.2372 2371632
-583.65967 602.97485 1139.7959 2305839
-578.51935 605.06757 1143.7517 2569268
-572.22406 605.98962 1145.4946 2569011
-562.00769 602.72986 1139.3328 3161405
-554.86938 602.72986 1139.3328 3095355
-544.2597 598.90991 1132.1119 2831670
-534.97253 596.46356 1127.4875 2634291
-528.93292 597.62109 1129.6757 2765877
-525.73083 602.05945 1138.0654 2634291
-518.60052 602.05945 1138.0654 2502705
-514.04572 605.09106 1143.7961 2700084
-507.62936 605.98633 1145.4884 2568498
-497.15338 601.99152 1137.937 2831670
-489.06192 600.80981 1135.7032 3160635
-483.52457 602.77716 1139.4221 2766390
-478.8678 605.91779 1145.3588 2963769
-472.64935 607.14783 1147.684 3161148
-464.52689 605.93231 1145.3862 2964026
-455.63782 603.66296 1141.0966 2437425
-450.22842 606.00488 1145.5234 2766390
-442.27695 604.94568 1143.5212 2963769
-435.4234 605.37799 1144.3384 2832183
-428.62381 605.90112 1145.3273 2766390
-420.22995 604.15002 1142.0172 2569011
-413.02286 604.07385 1141.8733 2700597
-406.99802 605.75476 1145.0507 2174253
-398.72617 604.09167 1141.9069 2174253
-391.08499 603.3407 1140.4873 2897976
-385.00131 605.00928 1143.6415 2832440
-377.72205 604.82672 1143.2964 2700854
-365.65704 596.82587 1128.1725 3490113
-358.53647 596.73895 1128.0082 3884871
-352.92258 599.2066 1132.6727 3753285
-345.20624 598.13275 1130.6428 3555906
-334.87253 592.38373 1119.7755 2766647
-327.85678 592.38373 1119.7755 2766390
-321.21399 593.07233 1121.0771 2832183
-314.79007 594.20483 1123.2179 2832183
-306.26514 591.33252 1117.7885 2634804
-299.34 591.48694 1118.0804 2700597
-292.60425 592.03204 1119.1107 2569011
-286.14456 593.17609 1121.2733 2305839
-279.89362 594.82129 1124.3833 2897976
-272.31079 593.64801 1122.1654 3490113
-267.08163 597.67957 1129.7861 2634804
-261.0647 600.11975 1134.3988 3292734
-254.64435 601.74323 1137.4677 3161148
-245.50806 596.85736 1128.2321 2437425
-236.34662 591.6189 1118.3298 2766134
-230.65659 595.01544 1124.7502 1976104
-223.20601 593.94128 1122.7197 2107691
-215.56145 592.26422 1119.5497 2502705
-208.97354 593.47528 1121.8389 2502705
-202.57118 595.31586 1125.3181 2042154
-195.14056 594.15839 1123.1301 2239790
-188.93037 596.76923 1128.0654 2306096
-181.86269 596.76923 1128.0654 2174253
-174.87009 597.02557 1128.5499 1516580
-167.37648 595.52087 1125.7057 2240046
-160.62665 596.64667 1127.8337 2503218
-153.56042 596.64667 1127.8337 1977131
-146.01555 594.6972 1124.1487 1450530
-138.43027 592.37726 1119.7633 2108460
-131.4146 592.37726 1119.7633 2240046
-124.30672 591.93805 1118.9331 1976874
-117.90413 595.00574 1124.7319 2173740
-111.22761 596.9931 1128.4886 2239533
-103.55489 593.54053 1121.9622 1910568
-96.511215 593.45294 1121.7966 2042154
-89.261124 591.98267 1119.0175 1713189
-82.129555 591.11481 1117.377 2042154
-75.12793 591.1076 1117.3634 1844775
-67.74408 587.78265 1111.0782 2107691
-60.788082 587.83344 1111.1742 2305839
-53.67923 586.22803 1108.1395 2569268
-47.673393 597.98114 1130.3562 2174510
-40.431637 595.62811 1125.9083 1911081
-33.149681 591.56311 1118.2244 2371632
-25.954496 587.28284 1110.1334 2371632
-19.002251 587.37823 1110.3137 2371632
-12.060536 588.09723 1111.6729 2634804
-5.0819516 586.52649 1108.7037 2503475
1.8665169 587.18585 1109.9501 1779495
8.8547716 589.45404 1114.2377 1647909
15.845436 589.81219 1114.9146 1844776
22.832897 589.86835 1115.0208 1844775
29.985762 593.17017 1121.2622 1778982
37.056602 593.90399 1122.6493 1647396
43.87215 590.96484 1117.0934 1844775
50.894039 591.23145 1117.5974 1910825
57.976189 592.04895 1119.1428 1910825
64.856567 590.85193 1116.88 1976618
71.997337 592.02924 1119.1055 2239789
79.932861 598.95282 1132.193 2240303
87.026405 598.95282 1132.193 2108460
94.345657 600.38922 1134.9082 1779495
100.4305 594.31934 1123.4344 1582116
107.72955 595.75928 1126.1562 2634804
114.78526 595.75928 1126.1562 2635061
121.6989 595.06451 1124.843 2371632
128.7188 594.93701 1124.6019 1976874
136.26973 597.14978 1128.7848 2371632
143.42957 597.51489 1129.475 1845288
150.93687 599.22522 1132.7079 1713702
158.10948 599.51276 1133.2515 1911081
165.28139 599.77307 1133.7435 1911081
172.85782 601.41931 1136.8555 1713702
179.98056 601.41931 1136.8555 1515810
186.48309 599.42572 1133.0869 1910568
193.22107 598.30743 1130.973 1976361
201.198 600.96887 1136.0039 1252638
207.10667 597.48175 1129.4124 1121309
214.65077 598.78723 1131.88 1121309
220.75925 596.13251 1126.8618 1515810
227.48523 595.25812 1125.209 1844775
235.48396 597.66656 1129.7616 1713189
243.04065 598.84528 1131.9897 1515810
250.00812 598.54651 1131.4249 1252638
257.0358 598.4043 1131.1562 1186845
265.42123 601.34607 1136.7169 1318431
271.17377 598.32471 1131.0057 1450274
275.17636 591.6944 1118.4725 1976361
283.08875 593.59161 1122.0588 1976360
292.14017 597.72742 1129.8766 1778982
299.21918 597.72742 1129.8766 1779238
307.02725 599.15009 1132.5659 1713189
313.96365 598.84595 1131.991 1844519
320.96265 598.67194 1131.6621 1910568
327.62119 597.88416 1130.173 1910568
335.5752 599.44385 1133.1212 1910568
342.67456 599.44385 1133.1212 2107947
349.2619 598.56635 1131.4625 1844775
359.08212 603.15411 1140.1346 1713189
366.68695 603.91418 1141.5714 1186845
374.52667 605.02472 1143.6707 1384224
381.46307 604.66162 1142.9843 1713189
391.12332 608.54993 1150.3344 2042154
401.6398 613.60571 1159.8912 2897464
407.5676 611.59601 1156.0923 2634292
416.76349 614.47491 1161.5343 1976362
420.6033 609.49359 1152.118 1647397
427.25156 608.68134 1150.5828 1910569
440.11292 616.60071 1165.5526 2831671
450.6926 621.117 1174.0897 2436913
461.4028 625.66528 1182.6873 2305327
469.08578 626.02972 1183.3762 2436913
475.64786 624.91016 1181.2599 2107948
482.10944 623.69495 1178.9628 2107948
489.16928 623.27863 1178.1758 1844776
494.98245 621.30988 1174.4543 1515811
502.34082 621.30988 1174.4543 1449248
509.43564 620.98877 1173.8473 1252126
516.79016 620.98877 1173.8473 1186332
524.47467 621.37964 1174.5862 1252125
527.12958 615.88336 1164.1967 1448734
530.35284 611.19214 1155.3289 1053719
534.68335 607.88599 1149.0792 856597
540.38641 606.20752 1145.9065 462352
546.56366 605.09796 1143.8091 528402
547.95398 598.78613 1131.8779 988953
552.76685 596.32782 1127.2311 1383711
559.38287 595.85229 1126.3322 1054747
565.65387 595.0257 1124.7697 1054747
573.63806 595.99933 1126.6101 1186333
588.48041 603.98828 1141.7115 1844007
592.8335 601.14893 1136.3442 1581859
599.25659 600.45105 1135.0251 1318431
605.302 599.39563 1133.03 1581603
612.38385 599.37903 1132.9987 1976361
620.58417 600.44501 1135.0137 2239790
630.34082 602.97559 1139.7972 2502705
636.77692 602.30872 1138.5366 2831670
643.83508 602.23846 1138.4038 2765877
651.6004 602.82391 1139.5105 2831670
657.61108 601.79102 1137.558 2634291
664.78851 601.83655 1137.644 2436912
671.83783 601.76636 1137.5114 2436912
678.96472 601.76636 1137.5114 2305326
683.98755 599.9209 1134.0229 2239533
690.79761 599.66492 1133.5391 2436912
696.64154 598.58392 1131.4957 2436912
702.836 597.82288 1130.0571 2371119
708.64142 596.74939 1128.028 2042154
714.32635 595.59668 1125.849 1976361
723.11121 597.02594 1128.5507 2371119
730.18195 597.02594 1128.5507 2436912
738.17987 597.77679 1129.97 2305326
746.28632 598.6004 1131.5269 2371119
755.90625 600.61108 1135.3276 2305326
759.22583 597.62494 1129.683 2239533
767.75861 598.75964 1131.8279 2173740
773.6142 597.80481 1130.0229 2173227
780.69415 597.80481 1130.0229 2304813
786.07379 596.51459 1127.584 2173227
795.57031 598.34351 1131.0413 2107434
804.01239 599.35413 1132.9517 2107434
813.67487 601.2489 1136.5333 1975848
825.16113 604.44672 1142.5781 1647140
827.16895 600.70612 1135.5073 1581090
834.55713 600.90338 1135.8801 1712676
842.67889 601.62097 1137.2366 2173227
847.04504 599.66772 1133.5444 2173227
855.35345 600.51471 1135.1454 2239020
864.76288 602.11432 1138.1692 2567985
871.0871 601.55719 1137.116 2633778
876.18152 600.16669 1134.4875 2633778
879.68304 597.71625 1129.8556 2765364
888.74762 599.05469 1132.3856 2831157
896.73083 599.6488 1133.5087 2831157
903.78217 599.6153 1133.4453 2502192
911.44794 599.98688 1134.1477 2633778
916.98108 598.95966 1132.2059 2765364
921.29474 597.15771 1128.7998 2765621
930.37219 598.44757 1131.2379 2699571
939.50183 599.75122 1133.7021 2634035
946.71802 599.82288 1133.8376 2567986
955.35828 600.78906 1135.6641 2567985
962.47363 600.78906 1135.6641 2173227
968.94598 600.39069 1134.911 2041641
977.51416 601.28735 1136.606 2239020
984.63538 601.28735 1136.606 2173227
991.13135 600.90826 1135.8894 2239020
997.46869 600.43915 1135.0026 2239020
1003.9566 600.06665 1134.2985 2239020
1013.471 601.49554 1136.9995 1975848
1018.6043 600.32257 1134.7822 1646883
1023.1334 598.81213 1131.9271 1317918
1030.9233 599.2179 1132.6941 1186332
1036.5183 598.35101 1131.0554 1317918
1048.2733 601.02777 1136.1152 1843235
1051.5906 598.86322 1132.0237 1909029
1058.0791 598.52161 1131.3779 1975078
1064.5421 598.1701 1130.7135 1843492
1071.771 598.25085 1130.8661 1580321
1079.6747 598.70465 1131.724 1514528
1094.2977 602.85437 1139.5681 1382941
1099.5288 601.80969 1137.5934 1317148
1107.4601 602.24683 1138.4197 1580320
1115.3309 602.64581 1139.1738 2106664
1117.5883 600.02576 1134.2212 2369836
1126.4093 600.94061 1135.9506 1843492
1140.0709 604.41028 1142.5092 1448734
1144.2926 602.86316 1139.5847 1514527
1151.5914 602.94641 1139.7421 1448734
1164.804 606.10583 1145.7142 1514528
1174.2932 607.30103 1147.9735 1843492
nan nan nan 16777215
nan nan nan 16777215
nan nan nan 16777215
nan nan nan 16777215
nan nan nan 16777215
nan nan nan 16777215
nan nan nan 16777215
nan nan nan 16777215
nan nan nan 16777215
nan nan nan 16777215
nan nan nan 16777215
nan nan nan 16777215
nan nan nan 16777215
nan nan nan 16777215
nan nan nan 16777215
nan nan nan 16777215
nan nan nan 16777215
nan nan nan 16777215
-972.86609 603.44183 1127.3971 2305326
-965.95056 603.53424 1127.5698 2305326
-958.78717 603.47205 1127.4536 2436912
-946.48346 600.14954 1121.2462 2502706
-939.4585 600.14954 1121.2462 2634291
-935.43036 602.07837 1124.8499 3226428
-923.01276 598.59576 1118.3434 3292221
-911.50726 595.65594 1112.851 2963256
-900.67102 593.11145 1108.0972 3621186
-893.81616 593.16968 1108.2059 3686723
-886.68439 593.04358 1107.9703 3029306
-879.25421 592.71442 1107.3553 2634548
-870.52557 591.49762 1105.082 3095356
-863.62384 591.51263 1105.1101 3226684
-855.14758 590.44073 1103.1075 2700084
-850.81146 592.23334 1106.4567 2700084
