# .PCD v0.7 - Point Cloud Data file format
VERSION 0.7
FIELDS x y z rgb
SIZE 4 4 4 4
TYPE F F F U
COUNT 1 1 1 1
WIDTH 1265
HEIGHT 1
VIEWPOINT 0 0 0 1 0 0 0
POINTS 1265
DATA ascii
-2608.9868 639.04761 2857.4299 3291190
-2592.8481 639.4826 2859.3752 3488569
-2575.8149 639.7016 2860.3542 3751741
-2579.8049 645.18134 2884.8562 3817534
-2569.458 647.1275 2893.5583 3817534
-2557.4609 648.68292 2900.5132 4146499
-2532.3992 646.92297 2892.6438 4212549
-2513.989 646.84912 2892.3137 4212292
-2500.7366 648.11096 2897.9558 4278085
-2496.646 651.78314 2914.3755 4409671
-2473.1831 650.41467 2908.2566 4212035
-2443.155 647.28656 2894.2695 4212036
-2422.9902 646.74438 2891.8452 4343622
-2394.2529 643.88855 2879.0759 4278086
-2390.1565 647.6665 2895.9683 4344134
-2357.3147 643.65338 2878.0242 4344391
-2357.8105 648.75116 2900.8184 4410441
-2340.7627 649.06366 2902.2156 4344648
-2320.0642 648.36078 2899.0728 4278855
-2314.7114 651.96906 2915.2068 4213319
-2314.4546 657.08154 2938.0667 4410698
-2279.9197 652.46637 2917.4304 4739662
-2261.1333 652.31989 2916.7754 4476747
-2259.4104 657.13379 2938.3003 3884353
-2248.9026 659.45074 2948.6602 3818817
-2238.7795 661.91986 2959.7007 4279368
-2243.0125 668.71021 2990.063 5068884
-2218.0566 666.8396 2981.6987 5068884
-2210.2014 670.12201 2996.3757 4871762
-2209.1833 675.55139 3020.6526 4739919
-2182.3333 673.10712 3009.7231 4608333
-2157.188 671.15063 3000.9751 4674126
-2135.657 670.29407 2997.1453 4674126
-2116.8789 670.29407 2997.1453 4542540
-2104.6262 672.37878 3006.4668 4410954
-2081.1477 670.88232 2999.7754 4345161
-2067.314 672.49603 3006.991 4410954
-2048.4741 672.49603 3006.991 4476747
-2020.3274 669.41235 2993.2024 4345161
-2006.2954 670.99133 3000.2627 4081989
-1987.4977 670.99133 3000.2627 3818817
-1990.7893 678.51996 3033.9263 3819073
-1971.781 678.51996 3033.9263 3687231
-1978.1405 687.33447 3073.3394 3753024
-1938.0509 680.02417 3040.6521 3884610
-1918.0303 679.68048 3039.1152 3819074
-1916.0597 685.79028 3066.4346 4147782
-1888.8406 682.89539 3053.4905 4147782
-1855.2421 677.61133 3029.8633 4213575
-1839.5989 678.84369 3035.3738 4081989
-1826.1294 680.91248 3044.624 3884610
-1803.0811 679.41547 3037.9304 3555902
-1775.9899 676.34692 3024.2097 3753024
-1761.7043 678.14148 3032.2339 3884610
-1742.7587 678.16187 3032.325 3687231
-1726.4106 679.20465 3036.9875 3687487
-1707.6073 679.29376 3037.3862 3950403
-1687.1418 678.71637 3034.8044 3818817
-1667.9454 678.64215 3034.4724 3555645
-1660.7579 683.50867 3056.2327 3687231
-1648.2903 686.29022 3068.6702 3818817
-1623.3527 683.88416 3057.9116 3621181
-1602.8662 683.31812 3055.3806 3489339
-1573.776 679.02625 3036.1899 3423546
-1553.5232 678.48895 3033.7876 3423546
-1534.386 678.4317 3033.5315 3357753
-1515.38 678.4317 3033.5315 3291960
-1494.6343 677.64294 3030.0046 3357753
-1474.5759 677.1496 3027.7986 3291960
-1446.4132 672.87311 3008.677 3555133
-1438.5142 678.03497 3031.7576 3818561
-1419.5194 678.03497 3031.7576 3819074
-1403.7579 679.60034 3038.7571 3753024
-1383.8448 679.17126 3036.8384 3687231
-1357.1129 675.33698 3019.6938 3687231
-1342.9305 677.72754 3030.3831 3687231
-1326.9448 679.26355 3037.251 3555645
-1314.7031 682.7887 3053.0134 3555645
-1296.6158 683.33716 3055.4658 3818817
-1277.4724 683.33716 3055.4658 4279368
-1252.8152 680.3429 3042.0771 4147782
-1235.1277 681.09955 3045.4604 4213575
-1215.9128 681.02441 3045.1245 4213575
-1210.4072 688.74774 3079.6587 4147782
-1196.2932 691.74365 3093.0544 4410954
-1176.9143 691.74365 3093.0544 4345161
-1154.5946 689.98627 3085.1965 4147782
-1135.6281 690.20697 3086.1833 4147782
-1124.7092 695.41125 3109.4539 4476747
-1112.3274 699.87848 3129.4285 4608333
-1103.7793 706.96149 3161.0994 4674383
-1078.7004 703.52209 3145.7205 4608333
-1052.8566 699.44647 3127.4968 4477004
-1059.3783 717.12555 3206.5466 4082246
-1032.2115 712.24243 3184.7124 4279625
-1012.3787 712.32715 3185.0913 4674641
-982.67926 705.33331 3153.8191 4542799
-961.62817 704.38745 3149.5896 4410956
-931.79651 696.83533 3115.8213 4476492
-907.35016 693.07355 3099.001 4279368
-893.41199 697.34937 3118.1199 4015941
-873.54175 697.0827 3116.9275 4015683
-855.90802 698.62927 3123.8428 3950147
-835.95154 698.30798 3122.4062 4147014
-808.91748 691.91742 3093.8313 4344649
-789.53369 691.91742 3093.8313 4410698
-767.96991 689.95886 3085.074 4081476
-751.63525 692.71851 3097.4133 4278855
-732.48254 692.95837 3098.4858 4213062
-706.09308 686.17859 3068.1709 4410185
-681.94714 681.26068 3046.1809 4673613
-672.69415 691.36584 3091.3652 4278855
-649.58417 687.40637 3073.6609 4081220
-630.32678 687.40637 3073.6609 3751741
-606.52753 682.29724 3050.8159 3685948
-586.74237 681.51801 3047.3318 3751741
-567.6499 681.51801 3047.3318 3620155
-546.89111 679.44788 3038.0752 3422776
-527.08679 678.45691 3033.6443 3488569
-508.04843 678.41467 3033.4553 3751741
-488.93896 678.27057 3032.811 3883327
-470.92072 679.68964 3039.1565 4080706
-447.45978 673.04187 3009.4314 4212292
-426.28897 669.40533 2993.1711 3751741
-407.5358 669.40533 2993.1711 3751741
-389.95679 671.42694 3002.2104 3620155
-370.45084 670.16748 2996.5791 3817277
-352.0069 670.79742 2999.3958 3555132
-333.1398 670.64655 2998.7212 3555132
-314.3519 670.64655 2998.7212 3555132
-294.79779 668.90808 2990.9478 3686718
-275.89795 668.51886 2989.2073 3620925
-257.35541 669.00177 2991.3667 3620926
-238.75795 669.40662 2993.1768 3686721
-220.32697 670.38696 2997.5603 3621185
-202.6821 674.16473 3014.4524 3621184
-184.99136 678.55078 3034.064 3752770
-165.7975 677.79639 3030.6909 3884613
-146.65549 677.08643 3027.5164 4015942
-127.67646 677.02966 3027.2625 4213321
-109.50944 682.01019 3049.5322 4279114
-91.389954 689.45465 3082.8193 3621439
-71.80584 686.87854 3071.3008 3490108
-52.091232 680.71118 3043.7241 3555645
-33.272209 685.88239 3066.8464 3358266
-14.046357 685.34039 3064.4229 3225910
5.1282229 682.01831 3049.5686 3226167
24.498379 689.43835 3082.7466 3686718
44.095261 693.88409 3102.6252 3752511
63.94931 698.41803 3122.8982 3226167
82.845352 692.81598 3097.8491 3028788
102.12532 691.94177 3093.9404 2897202
121.49748 691.87158 3093.6265 3423546
141.67291 695.7655 3111.0378 3357753
161.49701 697.20087 3117.4558 3489852
179.92686 692.95679 3098.479 3687232
200.30023 696.29559 3113.408 3687231
220.75771 699.30817 3126.8784 3621438
240.67155 700.24792 3131.0803 3818817
262.22107 705.44641 3154.3247 3621438
281.66281 704.64307 3150.7329 3621438
298.75055 698.44177 3123.0042 3687231
318.49625 698.83466 3124.7612 3621438
337.09964 696.82092 3115.7571 3752512
356.37006 696.33093 3113.5659 3687231
376.46899 697.4267 3118.4656 3753024
397.38889 699.86017 3129.3464 3621695
417.09903 700.03436 3130.1255 3819074
436.71024 700.03436 3130.1255 4148038
453.974 696.43317 3114.0232 4082245
470.89105 692.61884 3096.9678 3621695
489.62448 691.67236 3092.7356 3621438
507.00574 688.96039 3080.6094 4674126
526.3067 688.96039 3080.6094 4608333
548.33923 692.40961 3096.0322 3555645
566.86932 691.35168 3091.3018 3818817
584.67169 689.50531 3083.0459 3753024
602.82336 688.17584 3077.1016 4344904
622.10236 688.17584 3077.1016 4739408
632.28137 678.41199 3033.4434 4344907
663.29834 690.92371 3089.3882 4147271
682.81677 691.08813 3090.1233 4410443
700.60406 689.53967 3083.1997 4410443
718.16736 687.8598 3075.6885 4213061
732.05658 682.84064 3053.2456 3686718
757.0675 688.18695 3077.1511 4147269
767.677 680.50165 3042.7871 3884097
789.62817 682.99896 3053.9534 3620925
810.86273 684.77289 3061.8855 3686974
824.25018 679.99115 3040.5044 3621181
840.98834 678.12726 3032.1702 3555132
872.62018 688.08978 3076.7166 3489339
891.71613 687.9505 3076.0938 3489339
925.39972 698.83313 3124.7544 3555132
934.90381 691.38361 3091.4443 3555388
955.60223 692.34686 3095.7515 3555132
980.62872 696.34515 3113.6296 3423546
990.41956 689.57965 3083.3784 3555132
1003.9064 685.59723 3065.5713 3818304
1024.2764 686.37671 3069.0569 3884097
1043.505 686.37671 3069.0569 3883840
1065.6466 688.25812 3077.4692 3488312
1091.8032 692.61975 3096.9717 3554362
1111.4847 692.79297 3097.7463 3554362
1130.8931 692.79297 3097.7463 3620155
1147.1976 690.92371 3089.3882 3751741
1164.2388 689.55267 3083.2578 3751741
1180.6893 687.8822 3075.7886 3554618
1193.2847 684.0556 3058.6782 3422776
1208.5566 681.85999 3048.8606 3291190
1237.9713 687.58777 3074.4719 3225397
1245.1226 680.96405 3044.8547 3225397
1259.8199 678.60492 3034.3062 2173222
1287.4752 683.19202 3054.8169 3357753
1309.9661 684.94446 3062.6526 3818304
1309.266 674.69543 3016.8252 3949890
1333.7054 677.50867 3029.4045 4213062
1343.9836 673.15021 3009.916 4278855
1364.369 673.90466 3013.2893 4476234
1402.6305 683.34747 3055.5117 4278855
1413.5332 679.3866 3037.8013 3818304
1447.4176 686.42993 3069.2947 3949890
1469.8591 687.93298 3076.0154 4344648
1494.7258 690.5174 3087.5715 4542027
1507.051 687.3161 3073.2573 4081476
1527.1005 687.67395 3074.8572 3620925
1534.474 682.38574 3051.2117 3555132
1546.3882 679.22217 3037.0659 3555132
1571.2577 681.75665 3048.3987 3686718
1588.2053 680.83435 3044.2747 3686718
1618.584 685.62323 3065.6875 3291960
1641.13 687.02087 3071.937 3028788
1665.4937 689.13812 3081.4041 2962995
1701.5112 695.97369 3111.9688 3290933
1747.5232 706.69617 3159.9131 3422776
1740.5421 695.9881 3112.033 3620155
1748.9321 691.59564 3092.3928 3620155
1776.4298 694.77258 3106.5979 3620155
1802.2609 697.2359 3117.6123 3159604
1835.8837 702.62836 3141.7241 3356983
1874.0994 709.64563 3173.1011 3488569
1865.1528 698.84454 3124.8054 3488569
1873.1343 694.54468 3105.5791 3685948
1896.9094 696.12915 3112.6638 3620155
1923.5757 698.73163 3124.3005 2896432
1953.6848 702.51965 3141.2383 2896432
1975.8989 703.42151 3145.2708 2962225
1995.2428 703.29395 3144.7002 3028018
2001.4337 698.57776 3123.6125 3028275
2038.6818 704.68829 3150.9348 3291190
2058.5127 704.71887 3151.0715 3291190
2079.2024 705.03998 3152.5076 3225397
2099.2063 705.12488 3152.887 3094324
2119.6921 705.36847 3153.9763 3291960
2138.0205 704.89624 3151.8647 3028532
2159.7754 705.55206 3154.7971 3028788
2207.3899 714.56708 3195.1069 3028788
2209.7104 708.88959 3169.7205 3094581
2225.2002 707.50024 3163.5083 3160374
2251.0625 709.40424 3172.022 3226167
2261.7246 706.52673 3159.1555 2897202
2298.9932 711.93848 3183.3533 2962995
2320.9175 712.54626 3186.071 3226167
2362.3542 719.08307 3215.2998 3555132
2371.3574 715.72034 3200.2634 3752511
2380.907 712.57745 3186.2104 3884097
2395.1545 710.88129 3178.6262 3949890
2400.3218 706.54016 3159.2153 3620925
2403.7712 701.76862 3137.8799 3423546
2433.5193 704.69 3150.9424 3291703
2464.3645 707.87946 3165.2039 3488569
2489.7122 709.45142 3172.2327 3488569
2504.4751 708.00623 3165.7708 4080706
2520.1633 706.84332 3160.571 3817534
2535.1055 705.49084 3154.5234 3883583
2555.168 705.5733 3154.8921 4474695
2567.1477 703.43958 3145.3516 4606537
2575.5579 700.3678 3131.6162 3553849
2587.3193 698.24677 3122.1326 3224884
2617.7793 701.16608 3135.1858 3422263
2677.6497 711.86066 3183.0054 3487542
2710.6353 715.30255 3198.3955 3487542
2732.9863 715.9082 3201.1035 3355956
2762.0684 718.25543 3211.5989 3355956
2810.5527 725.57758 3244.3389 3355956
2845.0132 729.20013 3260.5369 3158577
2845.4138 724.10352 3237.7478 3092784
2859.9507 722.65088 3231.2527 3026991
2864.1111 718.6153 3213.208 2961198
2873.0771 715.83331 3200.7688 2895405
2900.5808 717.67657 3209.0107 2763819
2928.7412 719.65588 3217.8608 2697772
2927.8965 714.5296 3194.9395 2698286
2938.0688 712.14337 3184.2695 2830128
2940.1775 707.8479 3165.063 2830128
2944.7502 704.1994 3148.7488 3093301
2949.0303 700.52979 3132.3408 3159093
2940.5881 693.90656 3102.7258 3224886
2954.9656 692.71991 3097.4197 3290680
2980.937 694.24896 3104.2566 3356473
3018.4202 698.42175 3122.9148 3356472
3028.5793 696.25916 3113.2449 3290679
3059.6155 698.89307 3125.0222 3225143
3051.1729 692.53284 3096.5833 3356728
3053.4575 688.67242 3079.3218 3356985
3062.8628 686.45636 3069.4131 3422778
3053.0198 679.98096 3040.459 3225399
3076.4622 680.95331 3044.8066 3028020
3076.6389 676.79578 3026.2166 3028020
3100.574 677.88342 3031.0798 2962227
nan nan nan 16777215
nan nan nan 16777215
nan nan nan 16777215
nan nan nan 16777215
nan nan nan 16777215
nan nan nan 16777215
nan nan nan 16777215
nan nan nan 16777215
-2554.9121 634.53308 2760.3235 3291190
-2538.7222 634.8092 2761.5247 3291190
-2527.387 636.31146 2768.0596 3356983
-2510.0442 636.31146 2768.0596 3620155
-2487.1538 634.89526 2761.8992 3685948
-2487.0518 639.31726 2781.1353 3817534
-2475.0439 640.71954 2787.2356 3949120
-2467.3313 643.26154 2798.2937 4080706
-2447.8235 642.74274 2796.0369 4146499
-2435.8809 644.21729 2802.4514 4146499
-2418.7622 644.33441 2802.9609 4212549
-2401.2009 644.33441 2802.9609 4081476
-2391.9604 646.58368 2812.7456 3949890
-2377.9258 647.56085 2816.9963 4015940
-2359.866 647.44812 2816.5061 3950147
-2333.3425 644.99432 2805.8318 4213319
-2325.605 647.73553 2817.7563 4476234
-2303.6545 646.52972 2812.5107 4542284
-2259.3564 638.98505 2779.6902 4542027
-2280.5388 649.98602 2827.5464 4015683
-2257.405 648.42969 2820.7759 3884097
-2243.2898 649.45972 2825.2566 4015426
-2240.4006 653.78204 2844.0596 4147525
-2222.5818 653.78204 2844.0596 4213062
-2214.7542 656.74481 2856.948 4147012
-2212.5044 661.42328 2877.3003 3489083
-2205.6389 664.78748 2891.9351 3160374
-2187.52 664.78748 2891.9351 3621181
-2167.7766 664.28961 2889.7693 4016453
-2172.3218 671.28906 2920.218 4345161
-2154.7178 671.5047 2921.156 4213575
-2134.1709 670.79913 2918.0869 4279368
-2122.0393 672.74921 2926.5701 4542540
-2099.0659 671.26617 2920.1184 4739919
-2077.8516 670.32446 2916.022 4739919
-2057.4536 669.6319 2913.009 4279368
-2026.3151 665.39978 2894.5989 4213575
-2018.1852 668.71515 2909.0212 4279368
-2002.8959 669.69702 2913.2925 4345161
-1981.2406 668.54889 2908.2979 4016196
-1949.6677 664.00177 2888.5171 3621438
-1950.2155 670.41125 2916.3994 3621438
-1942.9502 674.23083 2933.0151 3818561
-1912.4301 669.97644 2914.5081 3818304
-1900.822 672.32941 2924.7439 3818304
-1885.1969 673.29346 2928.9375 3818304
-1863.8657 672.21844 2924.2612 3884097
-1843.0706 671.3175 2920.3418 3818817
-1831.5438 673.80817 2931.1765 3818817
-1815.3312 674.60785 2934.6553 3884610
-1794.6636 673.75153 2930.9302 3950403
-1778.7137 674.66693 2934.9124 3686975
-1760.0953 674.57867 2934.5283 3555389
-1731.9459 670.79712 2918.0779 3423802
-1715.9003 671.67279 2921.8872 3752768
-1707.0664 675.42072 2938.1914 3884097
-1675.5319 670.17078 2915.3533 3686975
-1659.101 670.91266 2918.5806 3686718
-1646.1807 673.10651 2928.1243 3752768
-1616.4294 668.39038 2907.6082 3686719
-1602.0735 670.00507 2914.6326 3423546
-1583.5332 669.88702 2914.1189 3555132
-1574.0481 673.64142 2930.4514 3489339
-1550.8342 671.53967 2921.3083 3291960
-1525.4235 668.42511 2907.7595 3226167
-1507.5957 668.59821 2908.5125 3225911
-1489.373 668.59821 2908.5125 3488312
-1479.777 672.5188 2925.5676 3160374
-1461.9603 672.75488 2926.5945 3226167
-1442.2236 672.10211 2923.7549 3357753
-1409.2799 665.19867 2893.7239 3357753
-1398.9539 668.9303 2909.957 3752768
-1415.937 685.99115 2984.1746 3884867
-1374.6956 674.92267 2936.0247 3884867
-1347.2548 670.42126 2916.4431 3819074
-1329.6652 670.76569 2917.9414 3818817
-1310.499 670.31342 2915.9739 3687231
-1297.7809 673.19305 2928.5007 3621438
-1292.6085 680.12555 2958.6582 3489852
-1280.7413 683.68604 2974.147 3292473
-1250.0183 677.13739 2945.6592 3621438
-1245.3623 684.72449 2978.6646 4081989
-1212.7247 676.92377 2944.73 4213575
-1190.9213 675.02277 2936.4602 4147782
-1172.5233 675.02277 2936.4602 4016196
-1160.8955 678.9823 2953.6851 4279368
-1148.6426 682.69873 2969.8521 4345161
-1130.5793 683.02728 2971.2812 4279368
-1113.7854 684.14648 2976.1499 4213575
-1100.4259 687.4494 2990.5181 4213575
-1082.335 687.85962 2992.3027 4608333
-1074.5863 694.97308 3023.2476 4674382
-1055.6448 694.97308 3023.2476 4740176
-1042.469 698.83838 3040.062 4279625
-1029.0016 702.64832 3056.636 4016453
-1012.6489 704.59515 3065.105 4477004
-995.06104 705.74133 3070.0911 4542797
-975.82599 705.74133 3070.0911 4542797
-952.40308 702.65179 3056.6509 4411210
-930.68469 700.71857 3048.2412 4345161
-907.69385 697.72638 3035.2246 4279882
-882.10046 692.56274 3012.762 4148039
-861.73279 691.36591 3007.5557 4081733
-841.55292 690.26965 3002.7866 4016196
-826.82349 693.69598 3017.6919 4345417
-797.94482 685.13391 2980.4453 4410442
-781.44922 687.04865 2988.7747 4278855
-763.71484 687.94141 2992.6587 4213062
-743.60376 686.68451 2987.1909 4147269
-724.66138 686.46979 2986.2566 4213062
-705.95154 686.46979 2986.2566 4476234
-687.56769 686.79541 2987.6731 4673613
-659.5545 677.25153 2946.1558 4542027
-648.23901 684.79736 2978.9814 4081476
-642.55096 698.91187 3040.3816 3752254
-623.31757 698.70502 3039.4819 3620925
-584.97144 676.38574 2942.3894 3357240
-568.18665 678.35583 2950.9597 3291447
-545.64948 673.3598 2929.2263 3226167
-526.95801 672.927 2927.3433 3291703
-515.01642 681.39331 2964.1733 3357240
-499.77551 685.96472 2984.0596 3685948
-474.19162 676.14343 2941.3352 3817534
-453.94019 673.43878 2929.5698 3751741
-433.62888 670.41376 2916.4104 3488569
-414.35022 668.78931 2909.3438 3817534
-396.12228 668.78931 2909.3438 3620155
-378.00293 668.98151 2910.1797 3488569
-359.29144 668.09204 2906.3105 3356727
-340.42838 666.81079 2900.7368 3357753
-322.16379 666.62341 2899.9216 3555132
-303.61383 665.78784 2896.2869 3423546
-287.60284 670.76752 2917.9495 3028788
-268.80896 669.49231 2912.4019 3357753
-249.74361 667.30603 2902.8911 3555132
-230.71819 664.89124 2892.3865 3686718
-212.77702 665.45587 2894.8428 3555901
-195.40073 668.05701 2906.158 3489599
-178.61223 673.40869 2929.439 3752770
-159.2323 669.09711 2910.6829 3752770
-141.58572 671.89581 2922.8574 3621184
-123.55019 673.40601 2929.427 3489598
-105.28645 673.98236 2931.9343 3621183
-86.916985 673.98236 2931.9343 3423803
-68.417496 672.70398 2926.3733 3555388
-50.193161 674.18567 2932.8186 3555132
-31.833036 674.50122 2934.1914 3489339
-13.758199 689.98694 3001.5569 3884097
4.9994168 683.41608 2972.9724 3620925
23.796282 688.34131 2994.3982 3489339
42.886501 693.66901 3017.5745 3686718
60.784069 682.34814 2968.3267 3226167
79.301163 681.6571 2965.3206 3357753
97.879814 681.6571 2965.3206 3357753
116.51128 681.96625 2966.6655 3357753
136.33313 688.19916 2993.7798 3160374
156.14365 692.87421 3014.1172 3357753
176.3093 697.94641 3036.1819 3752511
195.03677 696.89185 3031.5942 3620925
214.03065 696.89185 3031.5942 3423546
232.91658 696.56891 3030.1897 3818304
250.81967 693.57703 3017.1743 4081476
269.38049 692.6958 3013.3408 3686718
290.80545 698.81244 3039.9495 3818304
308.50769 695.78137 3026.7637 3752511
326.19339 693.06616 3014.9521 3555132
344.61035 692.11688 3010.8225 3686462
363.47314 692.11505 3010.8147 3686718
382.78256 692.92194 3014.3247 3423290
404.77762 698.28601 3037.6592 3423546
424.0408 698.66711 3039.3171 3620925
439.52197 693.05188 3014.8899 3752511
448.8179 678.54816 2951.7964 3686718
473.51535 687.55591 2990.9814 3555388
497.61673 695.04517 3023.561 3358522
513.27209 690.62085 3004.3147 3489852
534.02643 693.12762 3015.2192 3819074
549.50067 688.84412 2996.5854 3753280
568.97614 689.69366 3000.2812 3555645
591.93781 694.57971 3021.5361 4279367
609.58783 693.12335 3015.2007 4213062
625.34882 689.67126 3000.1836 3752511
644.16559 689.69226 3000.2751 3818304
663.14594 689.88239 3001.1021 4081476
682.99677 690.94263 3005.7141 3752768
691.55975 680.83307 2961.7361 3949890
716.57959 687.03015 2988.6946 3620925
724.73499 677.15442 2945.7334 3949890
746.44458 680.11902 2958.6296 3620925
764.98132 680.11902 2958.6296 3620925
779.47015 676.60529 2943.3445 3752511
797.5033 676.25946 2941.8401 3686718
821.37543 680.76868 2961.4561 3752511
839.92993 680.76868 2961.4561 3818304
856.51361 679.20593 2954.6577 3686718
890.25854 691.03009 3006.0947 3489339
909.09265 691.03009 3006.0947 3291960
928.55658 691.49902 3008.1348 3291960
941.66241 687.30872 2989.9062 3686718
951.97998 681.28644 2963.7083 3686718
971.85345 682.20245 2967.6931 3752511
985.94305 679.10022 2954.198 3752767
1013.7488 685.38568 2981.5408 3752511
1036.4366 688.04614 2993.1143 4014656
1055.1895 688.04614 2993.1143 4014913
1069.1588 684.98157 2979.7827 3949376
1091.2518 687.13739 2989.1609 4014913
1111.3519 687.98682 2992.856 4278085
1124.7826 684.74786 2978.7659 4146499
1143.1056 684.54425 2977.8804 3883327
1156.4746 681.42816 2964.325 4014913
1168.0078 677.34601 2946.5669 3751741
1186.8851 677.58356 2947.6003 3423289
1210.756 680.62103 2960.8137 3094324
1213.9072 672.09509 2923.7244 2699566
1227.8876 669.72919 2913.4324 3488826
1266.5922 680.72046 2961.2461 3489339
1278.2869 677.08759 2945.4426 3620925
1294.7728 676.05994 2940.9722 3686718
1298.1511 668.31305 2907.272 3884097
1346.6946 683.71069 2974.2544 4542027
1356.0201 679.04907 2953.9753 4410441
1365.4976 674.58795 2934.5688 4147269
1391.0011 678.0575 2949.6619 4147269
1409.4818 678.0575 2949.6619 4344648
1423.0691 675.73401 2939.5542 4344648
1466.1505 687.29602 2989.8508 3555132
1481.8932 685.91217 2983.8311 3686718
1486.6187 679.52692 2956.0542 3884097
1492.2361 673.70154 2930.7126 3686718
1508.8751 672.93323 2927.3704 3621181
1520.5844 670.01111 2914.6587 3686974
1548.7765 674.33496 2933.4683 3489339
1561.4741 671.89038 2922.8337 3094581
1599.7062 680.36218 2959.6877 2962483
1632.6321 686.40912 2985.9927 3291190
1656.3817 688.50464 2995.1086 2830896
1680.4541 690.68591 3004.5977 2962225
1694.0297 688.55231 2995.3162 3093811
1729.0999 695.10651 3023.8279 3488569
1751.0734 696.31067 3029.0662 3291190
1771.1289 696.73462 3030.9104 3356983
1790.1188 696.73462 3030.9104 3488569
1805.4937 695.34253 3024.8547 3620155
1833.6151 698.8374 3040.0579 3620155
1841.2731 694.54132 3021.3694 3620155
1852.0074 691.48145 3008.0583 3028018
1883.2445 696.06116 3027.9807 3159604
1912.8589 699.95569 3044.9226 3422776
1927.8524 698.47607 3038.4861 3422776
1954.0475 701.04413 3049.6575 3225397
1966.5828 698.70917 3039.5002 3159604
1983.1461 697.83649 3035.7039 3356983
2009.0645 700.24103 3046.1638 3291190
2027.1263 699.88782 3044.6272 3094581
2043.9791 699.12744 3041.3196 3094581
2064.0764 699.48071 3042.8564 3291703
2089.9827 701.77808 3052.8503 3160374
2107.9434 701.39001 3051.1621 3226167
2149.8438 708.90289 3083.8445 3226167
2180.9568 712.75659 3100.6086 2962995
2168.0071 702.26923 3054.9868 2831409
2193.7119 704.37701 3064.156 2896689
2196.5669 699.17505 3041.5266 2765616
2216.2031 699.35809 3042.3228 2896946
2241.7341 701.38226 3051.1284 3160630
2265.1165 702.70581 3056.886 3356983
2276.1179 700.1983 3045.978 3423032
2309.3069 704.50128 3064.6968 3423033
2335.1792 706.51971 3073.4771 3423289
2343.5117 703.24164 3059.217 3357240
2367.6902 704.73334 3065.7063 3356983
2385.7268 704.38763 3064.2024 3356983
2404.9253 704.38763 3064.2024 3356983
2448.8657 711.57721 3095.478 3422776
2463.3462 710.16052 3089.3154 3620155
2486.4685 711.2381 3094.0029 4080963
2497.9456 708.99353 3084.2388 4211779
2464.4873 694.1275 3019.5688 4146243
2483.4478 694.1391 3019.6196 3488056
2503.0537 694.32971 3020.4487 3290677
2543.3145 700.20398 3046.0027 3422263
2580.5242 705.15704 3067.5493 3422263
2612.5957 708.64313 3082.7144 3356213
2641.7871 711.30261 3094.2834 3487542
2661.1738 711.30261 3094.2834 3422263
2677.884 710.59235 3091.1938 3422006
2702.196 711.89508 3096.8608 3487799
2718.5759 711.10425 3093.4209 3487799
2744.9963 712.93256 3101.374 3487542
2752.7937 709.93231 3088.3225 3422006
2759.0347 706.57532 3073.719 3290420
2779.2742 706.82495 3074.8052 3224370
2800.3069 707.27155 3076.7478 3158323
2834.5732 711.03162 3093.1045 2764077
2853.0703 710.81183 3092.1484 2632748
2851.498 705.62866 3069.6008 2764333
2845.0994 699.32849 3042.1943 2895920
2864.1594 699.32849 3042.1943 2830127
2862.9277 694.40668 3020.7834 3159093
2854.085 687.71558 2991.676 3290936
2868.2705 686.62433 2986.929 3356985
2875.7549 683.95355 2975.3105 3291449
2909.9275 687.62372 2991.2764 3422778
2943.2041 691.03644 3006.1223 3357241
2959.8875 690.53467 3003.9395 3357241
2983.0483 691.54077 3008.3164 3356985
2974.3853 685.20306 2980.7463 3356985
2957.5105 677.06464 2945.3425 3159606
2952.3887 671.70099 2922.01 3093813
2952.53 667.59344 2904.1416 3093813
2968.9128 667.18622 2902.3699 3159606
nan nan nan 16777215
nan nan nan 16777215
nan nan nan 16777215
nan nan nan 16777215
nan nan nan 16777215
nan nan nan 16777215
nan nan nan 16777215
nan nan nan 16777215
nan nan nan 16777215
-2459.7263 631.73102 2675.5962 3488569
-2435.6006 629.82715 2667.5327 3488569
-2426.5059 631.81079 2675.9341 3488569
-2408.2283 631.41437 2674.2551 3488569
-2387.4707 630.35754 2669.7791 3685948
-2391.4639 635.86688 2693.1128 4014913
-2387.5823 639.34576 2707.8472 4146499
-2374.2639 640.32941 2712.0132 4212292
-2367.2297 643.03418 2723.469 4212292
-2346.9592 642.15674 2719.7527 4212292
-2323.9651 640.51569 2712.8022 4016196
-2313.5403 642.34033 2720.5303 4015683
-2299.6855 643.2326 2724.3093 3949890
-2279.3281 642.30579 2720.384 3818304
-2259.908 641.63123 2717.5269 3555389
-2245.54 642.39166 2720.7476 4015683
-2245.3154 647.24072 2741.2852 4147269
-2234.4111 649.06232 2749.0002 4147269
-2237.0354 654.87256 2773.6084 3620925
-2219.658 654.87256 2773.6084 3291960
-2191.6484 651.71094 2760.218 3423546
-2174.7302 651.82355 2760.6948 3752511
-2154.5073 650.93939 2756.9502 4147269
-2169.2383 660.68695 2798.2344 4344648
-2196.8545 674.54974 2856.948 3620925
-2149.2437 665.35187 2817.9919 3357497
-2137.8521 667.30713 2826.2732 3291704
-2138.217 672.99536 2850.3647 3226166
-2121.1365 673.24231 2851.4106 3489339
-2074.8945 664.159 2812.9397 3884610
-2073.4849 669.39349 2835.1096 3950403
-2052.9258 668.48297 2831.2532 4016196
-2019.882 663.45581 2809.9614 3950659
-2004.5612 664.21277 2813.1675 4081989
-1994.9734 666.89972 2824.5476 3884610
-1973.7294 665.70325 2819.48 3818817
-1958.3258 666.47284 2822.7397 3818817
-1944.1195 667.6676 2827.7998 3818561
-1935.6869 670.8855 2841.4287 3752767
-1917.8844 670.8855 2841.4287 3555389
-1875.6462 662.25769 2804.887 3489595
-1869.7 666.40179 2822.4387 3752511
-1858.777 668.83441 2832.7417 3818304
-1837.5377 667.56604 2827.3699 3620925
-1818.8492 667.20874 2825.8564 3555132
-1795.5948 665.15295 2817.1494 3752511
-1785.8685 668.11749 2829.7051 3884097
-1767.8605 668.01202 2829.2585 3818304
-1753.3379 669.2348 2834.4375 3949890
-1741.9244 671.68146 2844.7998 3686718
-1714.6083 667.98334 2829.137 3555132
-1699.2205 668.90356 2833.0344 3555132
-1680.5298 668.5293 2831.4495 3555132
-1660.308 667.53137 2827.2229 3752511
-1646.0192 668.9231 2833.1174 3818304
-1623.4099 666.927 2824.6631 3686974
-1604.5624 666.44928 2822.6399 3686718
-1587.6864 666.78894 2824.0784 3555132
-1574.337 668.63403 2831.8931 3489339
-1556.5944 668.63403 2831.8931 3291960
-1520.5435 660.67908 2798.2012 3291960
-1513.4697 665.27606 2817.6709 3423546
-1501.0653 667.61066 2827.5586 3357753
-1486.1272 668.86072 2832.853 3357753
-1470.3114 669.74115 2836.582 3489339
-1450.9413 669.00427 2833.4612 3423546
-1433.6996 669.24274 2834.4712 3620925
-1414.9709 668.78442 2832.5298 3357753
-1394.5758 667.51666 2827.1606 3357753
-1374.0283 666.14252 2821.3406 3555132
-1369.6309 672.66425 2848.9624 3818561
-1350.8386 672.19519 2846.9758 3884867
-1326.3154 668.82367 2832.696 3753024
-1309.3695 669.23352 2834.4319 3818817
-1288.8529 667.80444 2828.3794 3621438
-1270.9171 667.69141 2827.9006 3753024
-1258.0713 670.28711 2838.8943 3950403
-1237.8761 668.98541 2833.3811 3950403
-1217.0834 667.31812 2826.3198 3884610
-1202.9963 669.3327 2834.8521 3818817
-1203.179 679.46606 2877.7705 4016196
-1193.4379 684.21832 2897.8977 3950403
-1168.8999 680.50305 2882.1624 3555645
-1148.3147 679.00848 2875.8323 3687231
-1129.7638 678.68829 2874.4761 3884610
-1105.9417 675.13989 2859.4475 3819074
-1089.3158 675.94006 2862.8364 4016453
-1074.8757 678.14594 2872.1792 4081989
-1062.0637 681.47174 2886.2649 4213575
-1046.9618 683.41785 2894.5076 4345161
-1035.1107 687.5921 2912.1868 4279368
-1018.7485 688.86566 2917.5811 4345418
-1004.0742 691.34802 2928.0945 4148039
-981.11243 688.11035 2914.3818 3884867
-966.32336 690.59052 2924.8862 4016453
-945.80084 688.98993 2918.1072 4081989
-923.18237 685.76929 2904.4666 4015939
-901.06732 682.80066 2891.8933 3950660
-880.08673 680.5874 2882.5195 4279368
-862.15765 680.69067 2882.957 4147782
-850.32495 685.71448 2904.2346 4016196
-834.07019 687.31415 2911.0098 4213318
-815.9032 687.37433 2911.2644 4344648
-792.83978 683.21777 2893.6602 4476235
-774.02527 682.61383 2891.1021 4147270
-770.32263 695.62744 2946.2192 3949889
-741.61133 686.14197 2906.0452 4081476
-720.78851 683.66113 2895.5378 4213062
-703.29944 684.29584 2898.2261 4278855
-693.75555 692.8996 2934.666 4410441
-678.00537 695.60449 2946.1221 4015683
-659.73151 695.79913 2946.9463 4476234
-641.26801 695.79913 2946.9463 4476234
-626.76868 700.22791 2965.7039 4344648
-608.18762 700.22791 2965.7039 4344648
-581.03949 690.05353 2922.6118 4344648
-553.61584 678.87903 2875.2842 4344648
-535.29663 678.49292 2873.6489 4081476
-520.63928 682.88287 2892.2417 3818304
-496.15567 674.23633 2855.6206 4015426
-482.09833 679.64136 2878.5127 3291190
-467.61853 684.84772 2900.5635 3620155
-444.35208 677.08649 2867.6919 3685948
-424.28622 673.75342 2853.5754 3554362
-404.05585 669.85455 2837.0623 3620155
-385.64847 668.75806 2832.4182 3488569
-367.19528 667.47253 2826.9736 3620155
-349.043 666.63135 2823.4109 3751741
-330.2569 664.42523 2814.0674 3620925
-311.40958 661.84021 2803.1189 3620925
-294.1413 662.50269 2805.9246 3489339
-277.47937 664.70197 2815.2393 3489339
-259.50522 663.84283 2811.6006 3291960
-243.12749 667.23993 2825.9885 3291960
-225.50444 667.48468 2827.0249 4213062
-203.79614 654.64801 2772.6575 3950659
-189.20438 664.40955 2814.0007 3555645
-172.90883 669.57941 2835.897 3753024
-154.30275 665.9613 2820.573 3687231
-136.66634 666.13367 2821.303 3424316
-118.82687 665.2204 2817.4351 3095094
-100.98906 663.99939 2812.2637 3292473
-83.769295 667.18475 2825.7546 3357496
-66.232079 668.87134 2832.8982 3423546
-48.539761 669.65314 2836.2092 3423546
-30.843191 671.24542 2842.9531 3291960
-13.030847 671.22675 2842.874 3555132
4.8002858 673.98499 2854.5562 3620925
22.684965 673.98499 2854.5562 3555132
40.567074 673.94232 2854.3752 3291960
58.566723 675.28101 2860.0452 3226167
76.438416 674.86267 2858.2734 3291960
94.402733 675.26569 2859.9805 3489339
111.85252 672.44684 2848.0417 3357753
131.14661 679.96594 2879.8877 3291960
149.36201 680.75 2883.2083 3423546
168.08672 683.43561 2894.5828 3357753
187.39401 687.73627 2912.7974 3160374
205.58568 687.5426 2911.9771 3357753
224.82613 690.60199 2924.9348 3357753
243.15175 690.60199 2924.9348 3160374
267.33896 706.08337 2990.5039 3686718
277.56592 685.08051 2901.5493 3686974
296.51703 686.86884 2909.1235 3621181
314.83865 687.07629 2910.0022 3489339
333.95303 688.89636 2917.7109 3620925
352.48035 689.37933 2919.7566 3555132
370.66043 689.16907 2918.866 3620925
388.0499 687.5777 2912.1257 3555132
407.18781 689.08807 2918.5229 3423546
426.69125 691.06079 2926.8779 3489339
445.02905 691.06079 2926.8779 2897202
466.72986 696.07635 2948.1206 3028788
480.05664 688.69653 2916.8645 3357753
498.3317 688.69653 2916.8645 3357753
511.43005 681.79535 2887.6357 3291960
528.42407 680.38177 2881.6487 3423546
546.39923 680.28302 2881.2305 3357753
561.85071 677.14911 2867.957 2897458
578.80127 675.96014 2862.9216 3160374
597.42725 676.74048 2866.2266 3620925
614.04895 675.27118 2860.0034 3752511
631.96771 675.27118 2860.0034 3884097
651.32153 676.76215 2866.3184 4015940
670.05493 677.5459 2869.6377 3818304
688.03406 677.5459 2869.6377 3686718
706.57709 678.08698 2871.9294 3818304
718.23438 672.15717 2846.8147 3884097
735.8725 671.97632 2846.0488 3620925
754.65192 672.82159 2849.6287 3620925
769.2099 669.95105 2837.4709 3884097
789.14178 671.78497 2845.2383 3950147
806.31854 671.2442 2842.948 3949890
827.47937 673.9718 2854.5002 3818304
838.13629 668.20966 2830.0957 3686718
865.43353 675.67816 2861.7273 3423546
886.6651 678.2038 2872.4243 3489339
903.03442 676.98383 2867.2573 3752511
921.30005 677.20538 2868.1956 3752511
939.27179 677.20654 2868.2004 3686718
956.9718 677.01538 2867.3909 3752511
985.32428 684.22858 2897.9412 3949633
1002.1138 683.29651 2893.9937 4014657
1016.3245 680.67041 2882.8711 4014913
1034.3866 680.67041 2882.8711 3949377
1054.3931 681.92792 2888.1973 4015170
1076.1862 684.27905 2898.155 3751741
1092.05 682.84467 2892.0798 3685948
1106.0211 680.29285 2881.2722 4146498
1122.0204 679.0506 2876.0105 3817534
1139.2312 678.56909 2873.9714 3685948
1170.9375 686.60236 2907.9949 3357753
1190.8823 687.59851 2912.2141 3555132
1197.9127 681.22052 2885.2012 3489339
1217.2532 681.92859 2888.2 3094581
1231.2272 679.65344 2878.564 3291960
1248.0682 679.00378 2875.8125 3752511
1259.9159 675.69476 2861.7976 4015683
1277.8461 675.69476 2861.7976 4081476
1298.5615 677.14728 2867.9495 4410441
1311.4589 674.53888 2856.9021 4278855
1327.5981 673.64581 2853.1196 4015683
1344.8053 673.31116 2851.7021 4081476
1362.6721 673.31116 2851.7021 4081476
1371.4126 668.86005 2832.8503 4476234
1391.2761 669.87836 2837.1631 4344648
1409.0519 669.87836 2837.1631 3752511
1428.395 670.61426 2840.28 3884097
1446.1903 670.61426 2840.28 3818304
1460.7941 669.15234 2834.0881 3950146
1463.4213 662.30524 2805.0884 3949890
1496.4783 669.229 2834.4128 3489082
1516.5492 670.25098 2838.7412 3291190
1544.0511 674.49536 2856.7178 2830639
1574.9097 680.0921 2880.4216 2567723
1602.4691 684.15332 2897.6226 2764846
1617.3806 682.7843 2891.8242 2896689
1646.297 687.2923 2910.9172 2830895
1657.7825 684.50427 2899.1089 2962225
1674.2399 683.80731 2896.157 3291190
1699.6219 686.73132 2908.5413 3356983
1717.8846 686.74719 2908.6084 3225397
1737.8296 687.42822 2911.4929 3356983
1757.9481 688.16302 2914.605 3291190
1770.5229 685.96014 2905.2749 3356983
1788.5312 685.88562 2904.9595 3356983
1813.2362 688.35492 2915.4175 3488569
1840.4581 691.72089 2929.6738 3620155
1853.4471 689.724 2921.2161 3488569
1875.807 691.21912 2927.5486 3488569
1906.2402 695.63147 2946.2363 3620155
1925.5759 695.94836 2947.5784 3685948
1934.6177 692.5741 2933.2871 3685948
1935.2928 686.2962 2906.6982 3423546
1951.6899 685.65881 2903.9988 3094581
1988.0264 691.97351 2930.7437 3160374
2011.3082 693.67029 2937.9302 3357753
2008.0734 686.27405 2906.6045 3226167
2023.976 685.49231 2903.2935 3028788
2046.4923 686.94452 2909.4441 2897459
2070.2986 688.80017 2917.3035 2831409
2097.1521 691.62842 2929.2822 2765360
2118.1509 692.49347 2932.9458 2765103
2133.4814 691.50641 2928.7654 2962225
2145.9504 689.6167 2920.7617 2962225
2170.9644 691.75616 2929.8232 2699053
2185.0745 690.41449 2924.1406 2896432
2201.917 689.95135 2922.1792 3028018
2242.2703 696.80194 2951.1938 3028018
2269.543 699.50891 2962.6587 3093811
2282.4463 697.77899 2955.3318 3028018
2293.5132 695.51996 2945.7639 3159348
2306.937 694.0061 2939.3523 3224884
2333.4067 696.40973 2949.5325 3027505
2397.9033 710.03564 3007.2429 3290677
2413.741 709.1532 3003.5054 3291190
2413.1572 703.49707 2979.5498 4014143
2371.1392 685.94141 2905.1956 4014400
2385.5881 684.86395 2900.6323 3356470
2416.604 688.52295 2916.1294 3488056
2457.3306 694.87305 2943.0242 3553849
2482.6694 696.80963 2951.2263 3488056
2511.9792 699.82385 2963.9927 3422263
2559.626 707.86499 2998.0493 3553592
2575.8904 707.17334 2995.1201 3487799
2578.3752 702.73602 2976.3267 3422263
2601.4509 703.93427 2981.4016 3488056
2614.5242 702.42804 2975.0222 3488056
2630.2302 701.64563 2971.7083 3488056
2642.7498 700.02997 2964.8655 3553849
2668.0613 701.80176 2972.3696 3224884
2681.7361 700.50922 2966.8953 3159091
2722.7698 706.33185 2991.5562 3290679
2715.6899 699.67889 2963.3784 3488058
2723.0195 696.80334 2951.1997 3553851
2741.7185 696.85645 2951.4246 3356472
2744.3977 692.86438 2934.5168 3093300
2764.1599 693.20953 2935.9788 2698542
2782.5547 693.20953 2935.9788 2961714
2787.3616 689.84668 2921.7358 3356472
2758.6011 678.27429 2872.7227 3422008
2763.0562 674.96588 2858.7104 3422778
2795.1826 678.41614 2873.3235 3422778
2818.6904 679.74384 2878.9468 3422778
2821.6794 676.13788 2863.6743 3422778
2826.7952 673.08386 2850.7395 3093813
2816.0703 666.32013 2822.0928 3225399
2824.6074 664.17004 2812.9863 3291192
2844.2488 664.64136 2814.9827 3159606
2859.5273 664.09369 2812.6631 3159606
2865.0352 661.29749 2800.8203 3093813
nan nan nan 16777215
nan nan nan 16777215
nan nan nan 16777215
nan nan nan 16777215
nan nan nan 16777215
nan nan nan 16777215
nan nan nan 16777215
nan nan nan 16777215
nan nan nan 16777215
-2391.5913 630.44476 2601.4814 3488569
-2377.5278 631.03809 2603.9299 3225397
-2368.5029 632.98633 2611.969 3291190
-2357.5852 634.45221 2618.0178 3422776
-2330.9888 631.68964 2606.6184 3817534
-2322.6619 633.87415 2615.6326 4146499
-2320.311 637.73212 2631.5522 4212292
-2306.2202 638.39557 2634.2898 4146499
-2306.8945 643.18524 2654.054 4146499
-2285.0339 641.71588 2647.991 4212292
-2259.6118 639.21747 2637.6814 3884354
-2259.0935 643.77924 2656.5051 3818304
-2247.3203 645.17755 2662.2751 3752768
-2233.0266 645.8678 2665.1233 3752511
-2208.8191 643.67932 2656.0928 4015683
-2198.2778 645.4704 2663.4836 4081733
-2188.4414 647.4975 2671.8481 3949890
-2176.5649 648.94751 2677.8318 3884097
-2170.99 652.3136 2691.7214 3752768
-2165.4255 655.73535 2705.8413 3752511
-2155.3418 657.83197 2714.4927 3687488
-2134.8062 656.74646 2710.0134 3950404
-2122.6924 658.25519 2716.239 4279368
-2099.1836 656.22614 2707.8662 4411211
-2091.1133 659.02954 2719.4343 4213831
-2071.4104 658.1828 2715.9404 3489852
-2057.092 659.04718 2719.5071 3490108
-2077.2742 671.07153 2769.1245 3884610
-2052.6938 668.71576 2759.4038 3884610
-2016.8864 662.63153 2734.2979 3884610
-2000.1793 662.77216 2734.8779 3884610
-1983.2279 662.83344 2735.1309 3753024
-1957.662 659.99158 2723.4041 3489851
-1957.5969 665.77252 2747.2588 3292472
-1940.3845 665.77252 2747.2588 3489596
-1921.8104 665.30115 2745.3137 3686974
-1904.6102 665.30115 2745.3137 3687488
-1885.8666 664.75714 2743.0688 3884867
-1870.257 665.31793 2745.3828 3884354
-1879.5463 674.8288 2784.6289 3489595
-1835.8402 665.31238 2745.3599 3555132
-1807.4979 661.23639 2728.5408 3818304
-1792.4187 661.9809 2731.6128 3686974
-1778.0629 663.00952 2735.8574 3620925
-1765.4573 664.71716 2742.9041 3555388
-1737.1859 660.50208 2725.5105 3752511
-1729.3184 664.03802 2740.1016 3884097
-1707.9907 662.42462 2733.4438 4015683
-1690.1863 662.15881 2732.3469 3818304
-1684.3325 666.61731 2750.7446 3357753
-1654.4565 661.56232 2729.8855 3357753
-1639.3925 662.38629 2733.2859 3620925
-1621.6145 662.11969 2732.1855 3686718
-1598.938 659.82581 2722.7202 3686718
-1581.7616 659.77679 2722.5178 3686974
-1565.4803 660.104 2723.8682 3686974
-1548.8885 660.30615 2724.7021 3686718
-1527.8905 658.6134 2717.7173 3489339
-1513.988 659.97559 2723.3381 3555132
-1504.252 663.20569 2736.667 3555132
-1482.2119 661.02319 2727.6609 3620925
-1457.9382 657.78192 2714.2861 3555132
-1447.2616 660.6712 2726.2085 3620925
-1430.12 660.64294 2726.092 3620925
-1405.2889 657.01898 2711.1379 3620925
-1391.1975 658.38898 2716.791 3620925
-1376.0922 659.30707 2720.5793 3620925
-1354.4075 657.05634 2711.2922 3555132
-1343.545 660.06525 2723.7083 3358266
-1336.647 665.12439 2744.5842 3621438
-1319.4513 665.12439 2744.5842 3687231
-1289.407 658.56195 2717.5049 3687231
-1270.3923 657.53265 2713.2576 3555388
-1261.42 661.74365 2730.634 3686974
-1246.5148 662.91528 2735.4685 3424315
-1226.8353 661.54517 2729.8149 3489852
-1217.967 666.04834 2748.397 3358522
-1202.5226 667.03308 2752.4602 3358522
-1175.9166 661.76501 2730.7222 4148039
-1162.0731 663.62982 2738.417 3818817
-1155.9143 670.0047 2764.7224 3358266
-1150.5533 677.04309 2793.7659 3490109
-1126.6357 673.21057 2777.9514 3753024
-1116.6891 677.73706 2796.6294 3950403
-1095.4968 675.47382 2787.2903 3884610
-1072.4443 671.97174 2772.8394 3621181
-1050.0917 668.79993 2759.7512 3687487
-1046.8716 677.9115 2797.3494 4016196
-1030.1829 678.46307 2799.6252 3884610
-1016.0098 680.7193 2808.9353 3818817
-998.41095 680.7193 2808.9353 3950403
-974.41864 676.28198 2790.6252 4213575
-972.9248 687.58258 2837.2563 4147782
-948.4859 682.78638 2817.4651 4082246
-934.58252 685.53632 2828.8125 3753281
-915.36945 684.42242 2824.2163 4213575
-894.914 682.31744 2815.53 4147782
-875.51648 680.95062 2809.8901 4081989
-856.87476 680.12769 2806.4941 4016196
-839.29126 680.12769 2806.4941 3818817
-828.35193 685.62708 2829.187 3950403
-808.71283 684.00879 2822.5093 4212805
-794.84717 687.31042 2836.1333 4147269
-772.64648 683.39099 2819.96 4344648
-752.26453 680.93427 2809.8225 3752256
-740.0119 685.89459 2830.291 3949890
-723.65021 687.19653 2835.6633 4213062
-703.11047 684.49658 2824.522 3950147
-688.53052 687.60895 2837.365 4147526
-674.96301 691.92413 2855.1714 4213062
-656.8233 691.65967 2854.0801 4213319
-639.16748 691.90424 2855.0891 4213318
-621.38861 692.02576 2855.5906 3752767
-601.50653 689.7428 2846.1702 3621182
-579.66559 685.00549 2826.6221 4147526
-561.64154 684.62225 2825.0408 4081476
-541.22198 681.19904 2810.915 4213062
-522.66199 679.96472 2805.8218 4147269
-506.22321 681.50024 2812.158 3949890
-486.34445 678.34839 2799.1521 3554875
-467.32507 676.20422 2790.3044 3488569
-453.00122 680.95172 2809.8945 3949120
-431.3869 674.68109 2784.0193 3620155
-411.10864 670.05951 2764.9487 3685948
-391.72263 666.54956 2750.4651 3883327
-374.09521 665.84668 2747.5647 3751741
-356.88086 665.84668 2747.5647 3620155
-339.73788 665.98657 2748.1418 3554362
-322.63324 666.22052 2749.1074 3555132
-305.40921 666.22052 2749.1074 4015683
-286.02863 661.23499 2728.5349 3489339
-268.9335 661.23499 2728.5349 3423546
-251.34978 659.95203 2723.241 3489339
-235.78705 664.17511 2740.667 3555132
-218.61591 664.17511 2740.667 2436651
-198.37454 654.05231 2698.8962 1778977
-184.77722 665.99011 2748.1565 3424316
-170.53491 677.81769 2796.9622 3818306
-149.41885 661.9046 2731.2981 3686978
-132.94382 665.09332 2744.4561 3555646
-115.78358 665.29236 2745.2773 3226681
-98.639626 665.67065 2746.8384 3160888
-80.841194 660.8587 2726.9822 3357753
-63.665565 659.92334 2723.1226 3489339
-46.761307 662.14581 2732.2932 3555132
-29.717247 663.81219 2739.1697 3620925
-12.707881 671.86871 2772.4141 3752511
4.6381283 668.40637 2758.1272 3752767
21.99045 670.59589 2767.1621 3555132
39.327579 670.59589 2767.1621 3357753
56.206551 665.17389 2744.7886 3291960
73.632736 667.25116 2753.3601 3423546
90.883392 667.25116 2753.3601 3620925
107.93391 666.01617 2748.2642 3489339
125.90748 670.0332 2764.8401 3423546
144.2309 674.71515 2784.1599 3555132
161.6171 674.47546 2783.1709 3423546
179.73239 677.02887 2793.7073 3489339
198.27028 680.57971 2808.3596 3357753
217.40721 685.44037 2828.4167 3291960
235.14676 685.49469 2828.6406 3423546
252.86906 685.49469 2828.6406 3686718
269.6918 683.21576 2819.2368 3686718
288.48032 685.89087 2830.2754 3620925
306.52753 686.5957 2833.1838 3291960
322.09445 681.9718 2814.1038 3357753
341.17175 684.87469 2826.0823 3818304
358.87805 684.87469 2826.0823 3949890
375.13867 682.24554 2815.2334 4147268
393.12466 682.84949 2817.7253 4015683
410.93875 683.11572 2818.824 3555645
428.59955 683.11572 2818.824 3753024
444.74048 680.78912 2809.2236 3752512
461.08228 678.93549 2801.5747 3686461
475.86096 675.00061 2785.3376 3423546
491.79181 672.92053 2776.7544 3291960
509.45291 673.26923 2778.1934 2963252
529.92487 677.18689 2794.3591 3028788
544.28082 673.28833 2778.2722 2699823
563.42584 675.37201 2786.8701 2962995
575.46802 669.07227 2760.8748 3028788
592.34442 668.59662 2758.9121 3291960
610.28943 669.32001 2761.897 3752511
632.18591 674.21771 2782.1072 3686718
649.18481 673.76941 2780.2573 3621181
662.24536 669.36395 2762.0784 3752511
679.60602 669.41852 2762.3037 3357753
701.23816 673.5733 2779.4482 3686718
710.06757 665.5271 2746.2461 3555132
727.27368 665.5271 2746.2461 3555132
744.81763 665.82916 2747.4924 3884354
762.03149 665.82916 2747.4924 3818304
780.59045 666.97845 2752.2349 3752511
796.08752 665.51837 2746.21 3686718
812.93268 665.22314 2744.9919 3620925
832.6236 667.2207 2753.2346 3686718
847.41748 665.2926 2745.2783 3884097
867.50842 667.51703 2754.4573 3686718
889.94043 671.4209 2770.5664 3752511
907.27789 671.4054 2770.5024 3620925
929.29755 674.79028 2784.47 3818304
953.849 679.8551 2805.3694 4344904
966.28174 676.25519 2790.5146 3950147
984.51526 676.77075 2792.6421 3884097
1006.8434 680.034 2806.1077 3949377
1030.1599 683.84125 2821.8179 4212035
1051.39 686.15839 2831.3794 4212549
1069.1295 686.15839 2831.3794 4475463
1071.05 676.17163 2790.1699 3950146
1094.4609 679.85492 2805.3687 3291703
1110.5251 678.93042 2801.5537 4410184
1127.0779 678.32861 2799.0706 5528922
1147.7739 680.20081 2806.7959 4805199
1159.0662 676.52753 2791.6384 4607820
1175.4524 675.89258 2789.0183 4673356
1195.5958 677.40497 2795.259 4476233
1206.6317 673.78802 2780.334 4344648
1226.8923 675.35181 2786.7871 4213062
1244.3524 675.35181 2786.7871 4213062
1268.014 678.67108 2800.4836 4410441
1278.6285 675.01184 2785.384 4278855
1291.9387 672.8551 2776.4846 4147269
1300.7079 668.42206 2758.1919 4147269
1319.5299 669.20374 2761.4172 4344648
1330.254 665.91132 2747.8315 4410441
1341.6918 663.05573 2736.0481 4344648
1370.5895 668.79187 2759.718 4213062
1373.6055 661.91333 2731.3342 4081476
1392.6582 662.83667 2735.1443 4015683
1422.4937 668.80731 2759.7815 4147526
1429.2856 663.93036 2739.6572 4015426
1452.5146 666.71387 2751.1431 3488569
1480.9336 671.78638 2772.0745 3291190
1510.9124 677.44061 2795.4062 3554362
1531.9978 679.02362 2801.9382 3488569
1550.9282 679.62634 2804.4253 2896433
1562.3528 676.96326 2793.4363 2962226
1577.1995 675.8255 2788.7417 3225396
1599.5662 677.89984 2797.301 3225140
1613.4685 676.38074 2791.0327 3225397
1638.4137 679.47382 2803.7961 3291190
1661.621 681.78833 2813.3467 3356983
1680.2606 682.19971 2815.0442 3422776
1697.7979 682.15955 2814.8784 3159604
1703.2404 677.31061 2794.8699 3291190
1730.4041 681.11017 2810.5483 3422776
1748.0131 681.11017 2810.5483 3422776
1803.1527 695.58813 2870.2905 3488569
1790.6045 683.92651 2822.1697 3422776
1808.9064 684.16107 2823.1377 3356983
1829.2576 685.15863 2827.2539 3554362
1848.2395 685.62909 2829.1953 3422776
1864.9531 685.2572 2827.6609 3488569
1881.7886 684.93665 2826.3381 3357753
1930.1355 695.98474 2871.927 2568494
1948.1289 695.98474 2871.927 2634287
1931.0249 683.56061 2820.6599 2831666
1941.3895 680.99719 2810.0823 2897458
1956.8004 680.23407 2806.9333 2962995
1980.324 682.27972 2815.3743 2897202
2003.4668 684.15912 2823.1296 2963252
2023.9034 685.08966 2826.9692 2897458
2047.0499 686.91321 2834.4941 2765616
2063.9683 686.63354 2833.3401 2634030
2086.8047 688.31067 2840.2607 2961968
2118.344 692.80579 2858.8093 2764846
2124.6777 689.05103 2843.3157 2699053
2135.9272 686.93976 2834.6038 2764846
2149.7974 685.6991 2829.4844 3028018
2166.27 685.30219 2827.8462 3093811
2189.0979 686.90576 2834.4634 2962225
2211.2463 688.27209 2840.1013 2896689
2231.0308 688.8866 2842.6372 2962225
2242.2659 686.8725 2834.3262 2961712
2256.1433 685.69318 2829.4597 3290677
2281.5925 688.02173 2839.0684 3159091
2324.8384 695.63934 2870.502 3159091
2309.6382 685.78595 2829.8428 3093298
2344.2766 690.76831 2850.4019 3224884
2345.6428 685.94531 2830.5002 3422263
2376.2341 689.67706 2845.8989 3619642
2391.6904 688.9931 2843.0767 3553849
2407.7974 688.50537 2841.064 3488056
2426.0535 688.63477 2841.5979 3553849
2452.928 691.1908 2852.1453 3619899
2473.4185 691.92395 2855.1707 3224884
2471.3735 686.38776 2832.3259 3159091
2489.7593 686.56433 2833.0544 3290677
2515.3804 688.71954 2841.9478 3488056
2545.3213 692.0188 2855.562 3488056
2569.3108 693.66534 2862.3562 3685435
2596.7043 696.2016 2872.822 3882814
2587.7039 689.01257 2843.157 3817021
2608.8284 689.88818 2846.7703 3751228
2631.3899 691.12939 2851.8918 3685437
2647.4131 690.64813 2849.906 3685437
2646.72 685.84161 2830.0723 3619644
2652.5652 682.7821 2817.4475 3553851
2668.6919 682.39203 2815.8379 3356216
2676.8716 679.98834 2805.9192 3225399
2640.2737 666.31573 2749.5002 3225399
2660.939 667.17798 2753.0581 3356985
2683.9675 668.61774 2758.9993 3356985
2701.1721 668.59766 2758.9163 3356985
2739.7578 673.83636 2780.5334 3291192
2747.8853 671.56512 2771.1614 2962227
