# .PCD v0.7 - Point Cloud Data file format
VERSION 0.7
FIELDS x y z rgb
SIZE 4 4 4 4
TYPE F F F U
COUNT 1 1 1 1
WIDTH 1286
HEIGHT 1
VIEWPOINT 0 0 0 1 0 0 0
POINTS 1286
DATA ascii
-368.23276 592.93213 1206.0608 3029049
-362.75519 596.34955 1213.012 2568755
-357.12527 599.65741 1219.7404 2766134
-349.3627 599.45062 1219.3197 3226428
-341.08319 598.32776 1217.0358 3292221
-332.58932 596.76892 1213.865 3555393
-324.80344 596.43726 1213.1903 2700084
-316.0542 594.2782 1208.7987 2436912
-308.76114 594.81842 1209.8976 3094842
-301.32874 595.11066 1210.4921 2897463
-293.86523 595.3551 1210.9891 2897463
-285.39636 593.52148 1207.2595 2897463
-276.54944 590.78058 1201.6843 2371119
-270.57184 594.18732 1208.6139 2502705
-261.58292 590.98688 1202.104 2700084
-254.05138 590.98688 1202.104 2568498
-248.56319 595.8855 1212.0681 2305327
-240.89525 595.7027 1211.6962 2371376
-234.45862 598.65179 1217.6949 2700084
-226.42059 597.57294 1215.5004 3029049
-218.48586 596.70099 1213.7268 2502705
-210.48848 595.58899 1211.465 2436912
-203.79732 598.22809 1216.833 2239533
-196.67839 599.76776 1219.9648 2502705
-189.43515 601.0376 1222.5477 2042154
-184.10927 608.75415 1238.2437 2042154
-175.70384 606.51917 1233.6976 2436912
-167.76376 605.75879 1232.151 2634291
-160.44199 607.26532 1235.2153 2634291
-152.78673 607.59839 1235.8928 2634548
-145.13315 607.97412 1236.657 2765877
-137.00485 606.29132 1233.2341 2568498
-129.1734 605.7995 1232.2338 2305326
-121.64092 606.73645 1234.1396 2305326
-113.89482 606.66278 1233.9897 2436912
-105.30967 601.78363 1224.0653 2634291
-98.475494 606.92987 1234.533 2305326
-90.985413 608.56622 1237.8615 1976872
-83.201401 608.35834 1237.4386 1977130
-75.396217 607.93707 1236.5817 1911080
-67.648643 607.93707 1236.5817 1713701
-59.90263 607.95282 1236.6138 2042922
-52.062195 606.87262 1234.4165 1911080
-44.289211 606.33899 1233.3311 2042665
-36.550312 606.14496 1232.9364 1976871
-28.818199 605.98969 1232.6206 1845542
-21.050966 604.71191 1230.0215 1845286
-13.336178 604.33478 1229.2544 1713957
-5.6127882 602.00409 1224.5137 2240044
2.0591698 602.00409 1224.5137 2437422
9.7904863 605.67621 1231.983 2174507
17.508284 605.64313 1231.9156 2042154
25.191641 604.80341 1230.2076 2042154
32.724579 601.59192 1223.6753 2173740
40.351814 601.00403 1222.4795 2107947
48.030178 601.24377 1222.967 2042154
55.73785 601.73389 1223.9641 1976361
63.432228 601.97937 1224.4634 2042154
71.103874 601.97937 1224.4634 2239790
78.46447 599.60248 1219.6285 1976361
86.47242 602.15533 1224.8213 1976359
94.178238 602.35956 1225.2367 2042152
101.62238 600.98553 1222.4418 1976359
109.97601 604.8056 1230.2122 2173740
117.75171 605.15533 1230.9235 2239533
125.31255 604.42572 1229.4393 2436911
132.47348 601.96338 1224.4308 2436912
139.86366 600.75519 1221.9734 2436912
148.47484 604.6449 1229.8853 2436912
155.85193 603.37305 1227.2982 2371119
162.63 600.01074 1220.4591 2502705
169.92365 598.76715 1217.9296 2371119
177.85944 599.79602 1220.0223 2305325
185.74205 600.56812 1221.5928 2305326
193.5282 600.97955 1222.4297 2173740
200.70198 599.53046 1219.4821 1976361
207.79587 597.95764 1216.283 2239533
215.41624 597.95764 1216.283 1713189
222.45749 596.40503 1213.1248 1515810
230.49478 597.53705 1215.4275 1713189
239.32288 600.58124 1221.6195 1976361
247.43454 601.69458 1223.8842 1713189
255.06422 601.60419 1223.7002 1581603
263.05316 602.34167 1225.2003 1779239
270.15967 601.07404 1222.6218 1910825
277.05811 599.42609 1219.2699 2239533
284.76477 599.56836 1219.5592 2107947
295.20282 605.30383 1231.2255 1910568
303.49231 606.4538 1233.5646 1844775
311.90564 607.7879 1236.2783 1647396
319.34158 607.19904 1235.0804 1647396
327.3494 607.69958 1236.0986 1581603
334.65878 606.9104 1234.4934 1713189
341.80298 605.86414 1232.3652 1647396
352.81671 611.57153 1243.9744 1581860
360.03717 610.599 1241.9962 1844775
366.88284 609.04547 1238.8362 1910568
375.18878 609.93024 1240.636 2042154
383.0517 610.07349 1240.9272 2042155
392.16312 612.15991 1245.1713 2173740
400.1409 612.42993 1245.7205 1976361
408.63617 613.46649 1247.8289 1778982
416.45422 613.46649 1247.8289 1976362
425.582 615.36023 1251.6809 2042155
433.034 614.80634 1250.5542 1976362
441.55249 615.75934 1252.4927 2041642
448.52972 614.56726 1250.0679 2568242
457.10052 615.56207 1252.0914 2897463
465.75415 616.633 1254.2698 3489601
475.4874 619.07404 1259.235 2963257
482.92041 618.48938 1258.0458 2305327
490.66864 618.32074 1257.7028 2107948
497.24335 616.70203 1254.4102 1844775
505.90308 617.67932 1256.3981 1844262
514.31689 618.33105 1257.7238 1844262
521.67468 617.71265 1256.4658 1910055
529.51086 617.67072 1256.3805 1712676
536.38611 616.52545 1254.051 1383711
541.63275 613.56836 1248.0361 1449504
543.32776 606.72943 1234.1252 1252125
553.34003 609.23981 1239.2316 2107434
558.93359 606.88306 1234.4377 2436399
564.33075 604.38025 1229.3469 2172972
570.91858 603.20282 1226.9519 2305069
574.41736 598.8363 1218.0702 2371119
581.43817 598.20789 1216.7919 2371119
590.12122 599.28381 1218.9805 2436912
595.276 596.79498 1213.918 2634291
602.24316 596.16296 1212.6324 2371119
609.73798 596.06256 1212.4282 2239533
609.84241 588.82892 1197.7145 2239533
617.34644 588.82892 1197.7145 2897463
622.14362 586.27808 1192.526 2963256
630.34607 586.95862 1193.9103 2239533
642.71454 591.45709 1203.0604 2107947
652.94391 593.90552 1208.0406 2173740
664.10822 597.13849 1214.6167 2173740
671.83582 597.2431 1214.8295 2107947
674.87653 593.22546 1206.6575 2436912
684.54211 595.05573 1210.3802 2371119
694.01807 596.68286 1213.6899 2371119
701.80756 596.84045 1214.0105 2371119
708.14325 595.77161 1211.8364 2371376
717.89636 597.57007 1215.4946 2765877
721.26514 594.07227 1208.3799 2831670
727.50336 592.98602 1206.1704 2700084
733.8642 592.02106 1204.2075 2700084
740.78607 591.52374 1203.1959 2568755
748.32489 591.52399 1203.1965 2502192
755.72314 591.41437 1202.9735 2568241
762.87067 591.11255 1202.3596 2371120
772.02319 592.3551 1204.887 2239789
778.35468 591.42999 1203.0052 2371375
784.88934 590.67548 1201.4706 2567728
790.5578 589.28967 1198.6517 2436399
789.06494 582.64209 1185.1301 2304557
796.61298 582.73187 1185.3129 2502192
810.52509 587.4325 1194.8741 2304813
815.51984 585.64331 1191.2347 2107434
824.38391 586.63995 1193.2621 1910055
841.59552 593.50562 1207.2272 1976104
845.37634 590.86163 1201.8492 2042154
854.3429 591.85687 1203.8735 2173740
862.61359 592.35675 1204.8904 2173740
871.27948 593.11713 1206.437 2305326
876.98132 591.86389 1203.8879 2436912
887.12158 593.60205 1207.4233 2502705
895.9469 594.43835 1209.1244 2436398
904.28101 594.93738 1210.1395 2304813
909.84796 593.62274 1207.4655 2304813
918.4967 594.32385 1208.8916 2831157
929.00269 596.20544 1212.7189 3225915
939.5979 598.11328 1216.5996 2831157
952.00049 601.13177 1222.7393 2567985
960.29443 601.52838 1223.546 2436399
965.83826 600.20966 1220.8636 2041641
969.86853 597.97845 1216.3252 2239020
980.5824 599.87067 1220.1742 2765364
995.08582 604.03406 1228.6427 2831157
1003.9193 604.71808 1230.0341 2831157
1011.902 604.88318 1230.3699 2765364
1019.0574 604.55499 1229.7023 2567985
1023.7275 602.76831 1226.0681 2567985
1031.1733 602.63043 1225.7877 2436399
1044.4089 605.85321 1232.343 2173227
1052.0684 605.81781 1232.271 2239020
1058.9105 605.31567 1231.2496 2239020
1066.2662 605.11224 1230.8358 1976105
1074.281 605.28314 1231.1833 1712933
1077.7756 602.92285 1226.3824 1647140
1085.525 602.95941 1226.4568 1581346
1093.1702 602.93781 1226.413 1580321
1100.0996 602.52466 1225.5725 1580320
1106.2435 601.68994 1223.8746 1580320
1113.9115 601.68994 1223.8746 1514527
1120.1616 600.92932 1222.3275 1448734
1124.7037 599.26898 1218.9503 1645856
1130.4318 598.25867 1216.8953 1711650
1131.8876 595.01599 1210.2994 1975078
1141.1139 595.87415 1212.045 2041127
1154.1006 598.67163 1217.7352 2304044
1161.1759 598.38599 1217.1543 2501422
1169.0526 598.51453 1217.4156 2370093
1177.0062 598.68036 1217.7531 2107178
1184.7783 598.75238 1217.8995 2107178
1192.8767 598.98737 1218.3774 2107178
1201.9468 599.7041 1219.8353 2172970
1210.611 600.21051 1220.8655 1975592
1221.4999 601.80676 1224.1123 2172971
1229.4054 601.9223 1224.3473 2238763
1239.2593 602.9845 1226.5078 1975848
1253.9977 606.39557 1233.4462 1975334
1257.1473 604.19519 1228.9706 1843748
nan nan nan 16777215
nan nan nan 16777215
nan nan nan 16777215
nan nan nan 16777215
nan nan nan 16777215
nan nan nan 16777215
nan nan nan 16777215
nan nan nan 16777215
nan nan nan 16777215
nan nan nan 16777215
nan nan nan 16777215
nan nan nan 16777215
nan nan nan 16777215
nan nan nan 16777215
nan nan nan 16777215
nan nan nan 16777215
nan nan nan 16777215
-1049.6145 601.19928 1207.5687 2436912
-1053.9395 608.05957 1221.3483 2436912
-1042.99 606.14319 1217.4991 2436912
-1033.6106 605.11792 1215.4397 2502705
-1024.8805 604.46033 1214.1189 2173740
-1013.9755 602.50049 1210.1824 2107947
-1007.429 603.12054 1211.4279 2173740
-998.44287 602.27838 1209.7362 2107947
-988.62531 600.91791 1207.0037 2173740
-979.0285 599.67181 1204.5006 2239533
-968.30023 597.7077 1200.5557 1910568
-958.11853 596.05304 1197.2321 1910568
-947.93097 594.36853 1193.8485 2173740
-939.10773 593.51953 1192.1432 2502705
-929.8114 592.35547 1189.8051 2436912
-923.6037 593.15619 1191.4135 2239533
-917.14917 593.81012 1192.7269 1910568
-909.65607 593.79688 1192.7003 2239533
-900.85242 592.92084 1190.9407 2371119
-893.34314 592.88922 1190.8772 2239533
-886.00452 592.97131 1191.042 2239533
-878.06586 592.64972 1190.3961 2568498
-871.13831 593.01093 1191.1216 2568498
-864.48047 593.5636 1192.2317 2568498
-859.92908 595.58478 1196.2915 2502706
-854.76282 597.21191 1199.5598 2173740
-844.59955 595.34564 1195.8112 1976361
-831.74231 591.53003 1188.1471 1647396
-829.59149 595.32855 1195.7769 1516067
-826.88361 598.79303 1202.7355 1384481
-817.62933 597.5368 1200.2124 1713189
-804.81122 593.62872 1192.3625 2502705
-806.52106 600.46368 1206.0912 2634291
-802.13568 602.84698 1210.8783 2700084
-797.64392 605.19507 1215.5946 2568498
-790.12128 605.2666 1215.7384 2371120
-781.22217 604.27484 1213.7463 2371119
-773.18848 603.93958 1213.073 2436912
-764.16583 602.81757 1210.8192 2502705
-757.63098 603.65527 1212.5018 2239533
-748.89069 602.7348 1210.653 1976361
-743.02405 604.13202 1213.4595 2173740
-727.36768 597.51617 1200.1709 2436912
-718.64691 596.51898 1198.168 2436912
-712.6507 597.78619 1200.7131 2700084
-706.19281 598.68903 1202.5266 2765877
-699.94775 599.7937 1204.7455 2765877
-690.41052 598.07062 1201.2845 2765877
-684.62726 599.59723 1204.351 2765877
-681.5976 603.59644 1212.3837 2436912
-674.94769 604.44366 1214.0854 2436912
-667.34106 604.44366 1214.0854 2371119
-658.58209 603.38788 1211.9647 2305326
-651.35791 603.7301 1212.6521 2502705
-645.71185 605.56024 1216.3282 2831670
-637.49158 604.99121 1215.1853 3226428
-628.73608 603.89435 1212.9821 3094842
-618.89374 601.71405 1208.6027 3226428
-613.81024 604.16364 1213.5229 3423807
-604.24268 602.20581 1209.5905 3029049
-595.46667 600.99713 1207.1627 2831927
-587.90344 600.99713 1207.1627 2831670
-573.008 593.40399 1191.9111 3094842
-573.5921 601.85248 1208.8809 2436912
-567.31024 603.22644 1211.6405 2371119
-557.73987 601.09351 1207.3563 2173740
-550.17535 601.09351 1207.3563 2042154
-543.81598 602.42847 1210.0377 2239533
-535.22766 601.29712 1207.7653 2239533
-527.66064 601.29712 1207.7653 2305326
-516.19995 596.79553 1198.7234 2568498
-508.68964 596.79553 1198.7234 3094842
-499.27234 594.52484 1194.1625 3028792
-494.54755 597.85779 1200.8571 2041898
-487.15582 598.01984 1201.1825 2765877
-484.13058 603.63123 1212.4536 2897463
-476.53421 603.63123 1212.4536 2765877
-468.16757 602.63983 1210.4622 2831670
-458.27029 599.61298 1204.3824 2502705
-456.49158 607.2851 1219.7927 2568498
-447.54044 605.5144 1216.2361 2700084
-439.04086 604.30389 1213.8047 2436912
-433.12543 606.67029 1218.5577 2568498
-423.64151 604.03351 1213.2616 2568498
-416.04004 604.03351 1213.2616 2305326
-408.41135 603.99323 1213.1807 2239533
-400.5166 603.55048 1212.2914 2239533
-392.9212 603.55048 1212.2914 2371119
-383.27512 600.33832 1205.8395 2700084
-373.91281 597.4505 1200.0389 3226428
-365.64221 596.2243 1197.576 3358014
-356.1777 592.95911 1191.0176 2831670
-352.38928 599.20587 1203.5648 2700084
-344.58936 598.75549 1202.6602 3029049
-335.90399 596.71204 1198.5557 2766134
-327.87131 595.76105 1196.6455 2634291
-318.29913 591.90277 1188.8958 2765877
-312.13235 594.34387 1193.799 3160635
-303.82776 592.73425 1190.5659 3029049
-297.48041 594.95801 1195.0326 3094842
-290.01581 595.00452 1195.126 2963256
-282.68613 595.33759 1195.7949 2831670
-274.48483 593.80322 1192.713 2436912
-266.36676 592.36804 1189.8303 2107947
-258.85452 592.23627 1189.5657 2634291
-251.69133 592.91901 1190.937 2634291
-244.34032 593.18744 1191.4762 2568498
-237.05473 593.6366 1192.3784 2634291
-229.93208 594.53638 1194.1857 2634291
-222.20255 593.87463 1192.8566 2502705
-214.72894 593.87463 1192.8566 2634291
-207.04515 593.27246 1191.647 2108204
-201.2966 598.37787 1201.9017 1976361
-193.2411 596.75598 1198.6439 2107947
-184.27165 592.06635 1189.2244 2042411
-177.33107 593.77496 1192.6562 2107947
-169.03027 590.87897 1186.8394 2831670
-164.72829 602.33838 1209.8567 2436912
-158.12021 606.06421 1217.3405 2568498
-150.67131 606.78149 1218.7811 2568755
-143.64139 609.35278 1223.9458 2634291
-136.02583 609.5896 1224.4215 2239533
-128.13794 608.56128 1222.3561 2107947
-120.51138 608.72235 1222.6796 2305326
-112.72122 608.02277 1221.2744 2305326
-101.95374 589.992 1185.0577 2765877
-96.959709 605.16302 1215.5304 2502449
-89.218979 604.31604 1213.829 2174251
-81.715034 605.06439 1215.3323 2042665
-74.36692 607.23901 1219.7002 1844773
-66.581795 605.93463 1217.0802 2107945
-58.881672 605.1665 1215.5374 2436656
-51.083881 603.01721 1211.2203 2370863
-43.264492 599.8186 1204.7955 2370863
-35.882214 602.60876 1210.3998 2042154
-28.300581 602.64911 1210.4808 1844775
-20.671431 601.33679 1207.845 1844519
-13.109755 601.6051 1208.3839 1976361
-5.5527844 603.1181 1211.423 2174510
2.030894 601.26422 1207.6992 2042668
9.6184254 602.57495 1210.3319 2108717
17.093941 598.80603 1202.7617 2370863
24.676069 599.93542 1205.0302 2239533
32.106949 597.71991 1200.5801 2634291
39.27763 592.4209 1189.9365 2436912
47.202419 598.37219 1201.8903 1910568
54.825825 599.39105 1203.9368 1844775
62.439945 600.07416 1205.3088 2107947
70.144089 601.38171 1207.9352 2108204
77.705864 601.33282 1207.837 1976361
85.153404 600.48712 1206.1383 1910566
92.636948 600.01239 1205.1848 2042152
100.24588 600.36023 1205.8834 1910566
107.95575 601.22137 1207.6132 2042152
115.9106 603.24481 1211.6774 2107944
123.562 603.53717 1212.2646 2305323
131.09303 603.24188 1211.6715 2897461
139.10152 605.0556 1215.3146 2897461
145.91269 601.74347 1208.6617 2436910
153.40729 601.4375 1208.0472 2239530
160.88068 601.08099 1207.3312 2568496
167.38956 597.31488 1199.7665 2568496
174.64406 596.41876 1197.9666 2173738
183.16112 599.73053 1204.6185 2107944
189.92744 597.27448 1199.6854 2371119
197.64629 597.88684 1200.9154 2305326
206.21162 600.92108 1207.01 2107947
213.64238 600.55133 1206.2673 1581603
220.28764 598.07428 1201.2919 1252638
227.065 596.1076 1197.3417 1581603
234.79942 596.69904 1198.5295 2042154
242.30856 596.69904 1198.5295 1910824
252.04489 602.01868 1209.2146 1647653
260.2399 603.45386 1212.0973 1778982
266.94568 601.45221 1208.0768 1910568
274.51465 601.45221 1208.0768 2173740
282.90509 603.20374 1211.5948 1976361
291.72656 605.75873 1216.7268 1910568
299.57306 606.21063 1217.6345 2042411
307.18112 606.16962 1217.5521 2107947
314.80948 606.16962 1217.5521 2042154
322.27209 605.85809 1216.9264 1910568
329.89651 605.85809 1216.9264 1581603
339.36658 609.17102 1223.5808 1516067
347.4935 609.97992 1225.2056 1581603
355.73114 610.94397 1227.142 1844775
360.79657 606.53448 1218.285 1976361
369.06946 607.58801 1220.4011 2107948
378.1337 609.87512 1224.9951 2042156
386.3223 610.68701 1226.6259 1910569
394.88452 612.04639 1229.3562 2042155
401.20575 609.94678 1225.1389 2107947
410.5105 612.37665 1230.0195 2107947
418.5704 612.89417 1231.0591 2107948
427.83047 615.11853 1235.527 2239533
437.28238 617.53479 1240.3802 1975848
445.7793 618.5415 1242.4023 2502449
452.90741 617.64703 1240.6057 2568498
462.005 619.42322 1244.1733 1976362
468.98788 618.35223 1242.0222 2239533
480.35257 622.99933 1251.3563 2371118
484.17734 617.87518 1241.064 2107691
492.47287 618.52814 1242.3755 1449761
500.38013 618.68066 1242.6819 1515297
508.55017 619.1485 1243.6216 1712676
514.75977 617.2514 1239.811 1909798
521.93683 616.55365 1238.4095 2041641
528.39777 615.0426 1235.3745 1646883
533.79742 612.35791 1229.9819 1581603
539.38593 609.96307 1225.1718 1778726
546.32703 609.14355 1223.5256 1450017
550.97394 605.82416 1216.8583 1581346
559.81952 607.14899 1219.5194 1910313
564.58148 604.06903 1213.3329 2042154
566.04828 597.59204 1200.3232 1910568
573.9057 597.94312 1201.0284 1647652
578.5061 594.93567 1194.9877 2042155
584.73608 593.65948 1192.4243 2568497
590.80646 592.25555 1189.6044 2042153
597.98187 591.98047 1189.0519 1844775
605.43158 591.98047 1189.0519 1976361
612.98712 592.08258 1189.257 2173740
623.40491 594.9137 1194.9436 2568498
628.33936 592.50708 1190.1096 2765877
634.18671 591.00757 1187.0977 2371119
644.55737 593.70929 1192.5244 1910568
654.21039 595.69568 1196.5142 1976361
662.68329 596.57458 1198.2797 1976361
668.26947 594.86426 1194.8442 2239533
678.11505 596.94135 1199.0162 2568498
684.89526 596.30396 1197.7361 2568498
692.29846 596.21704 1197.5614 2568498
701.33185 597.52081 1200.1802 2568498
708.22137 596.98975 1199.1135 2700084
714.62604 596.06549 1197.2571 2765877
721.23761 595.33118 1195.7821 2700084
727.39062 594.23737 1193.585 2634291
735.21588 594.51801 1194.1487 2634291
738.99902 591.55737 1188.202 2633778
746.41455 591.53436 1188.1559 2502192
754.48743 592.02777 1189.1469 2436656
763.75891 593.44275 1191.989 2238763
768.15503 591.07886 1187.2408 1712676
772.52863 588.74323 1182.5494 1712676
776.9046 586.45367 1177.9507 1910055
783.33569 585.74396 1176.5251 1844262
786.51544 582.63885 1170.2883 2567985
795.89526 584.14166 1173.3069 2896950
803.15045 584.0719 1173.1667 2633522
815.09235 587.3808 1179.813 1844775
826.24561 590.06702 1185.2085 2239533
838.23065 593.29407 1191.6903 2436912
843.51398 591.76257 1188.6143 2305326
852.02588 592.50317 1190.1017 2239533
860.55573 593.2431 1191.588 2173740
865.42639 591.4696 1188.0258 2305326
872.86969 591.4696 1188.0258 2239533
883.41949 593.55676 1192.218 2305069
892.13983 594.39001 1193.8917 2370606
899.12152 594.06073 1193.2303 2502192
910.17743 596.40656 1197.9421 2502192
917.68292 596.40656 1197.9421 3225915
924.38623 595.88947 1196.9034 3094329
939.33026 600.65021 1206.4658 2436399
948.21545 601.49152 1208.1558 2370606
948.86621 597.13745 1199.4102 2173227
954.96259 596.25189 1197.6315 1975848
963.31757 596.77936 1198.6909 2436399
981.62885 603.41895 1212.0271 2633778
990.05066 603.92407 1213.0417 2436399
1000.5131 605.65686 1216.5222 2239020
1010.062 606.81445 1218.8474 2107434
1017.6978 606.81409 1218.8467 2304813
1024.0217 606.03735 1217.2865 2370606
1029.0543 604.51337 1214.2255 2173227
1037.4103 604.94983 1215.1022 1910055
1047.2327 606.22888 1217.6713 1910055
1052.1606 604.67657 1214.5532 2173227
1059.5762 604.56586 1214.3308 2041641
1069.731 606.00848 1217.2285 1910055
1072.8679 603.48328 1212.1564 1646883
1078.9235 602.62366 1210.4298 1581347
1087.1154 602.96106 1211.1074 1580577
1094.0812 602.61835 1210.4191 1580577
1101.8201 602.70325 1210.5896 1382942
1108.2445 602.073 1209.3236 1448734
1114.3843 601.29755 1207.7661 1382941
1111.396 595.6405 1196.4034 1382941
1112.667 592.32672 1189.7473 1909285
1124.6578 594.72577 1194.566 1909541
1133.5544 595.46771 1196.0563 1975591
1144.0557 597.03717 1199.2087 1975848
1153.8307 598.20978 1201.564 2238764
1161.9915 598.53552 1202.2184 2238764
1170.5383 599.05487 1203.2615 2172970
1177.1957 598.60657 1202.3611 2172713
1186.265 599.38281 1203.9202 2304043
1197.1793 601.0755 1207.3201 2304043
1204.7848 601.09601 1207.3613 2369836
1214.3918 602.10876 1209.3955 2369580
1222.4854 602.36316 1209.9065 2172200
1230.0658 602.36316 1209.9065 1843492
1239.3621 603.19824 1211.5839 1777699
nan nan nan 16777215
nan nan nan 16777215
nan nan nan 16777215
nan nan nan 16777215
nan nan nan 16777215
nan nan nan 16777215
nan nan nan 16777215
nan nan nan 16777215
nan nan nan 16777215
nan nan nan 16777215
nan nan nan 16777215
nan nan nan 16777215
nan nan nan 16777215
nan nan nan 16777215
nan nan nan 16777215
nan nan nan 16777215
nan nan nan 16777215
-1049.0128 608.3761 1206.8765 2436912
-1041.8293 608.59692 1207.3146 2371119
-1033.2924 608.02441 1206.179 2305326
-1019.86 604.54181 1199.2701 2173740
-1011.5396 604.06012 1198.3146 2305326
-1002.9806 603.42767 1197.0601 2173740
-994.63177 602.91315 1196.0393 2042154
-988.50635 603.74872 1197.6969 2042154
-978.02771 601.91797 1194.0652 1581603
-966.14771 599.18994 1188.6533 1384224
-956.0401 597.52722 1185.3549 1515810
-951.1618 599.13232 1188.5391 1976361
-946.07404 600.62988 1191.5099 2371119
-932.15833 596.50208 1183.3213 2568498
-924.19196 596.14575 1182.6144 2634291
-922.77917 600.0451 1190.3497 2502705
-908.6264 595.65625 1181.6433 2371119
-902.38495 596.42419 1183.1667 2700084
-892.4198 594.72333 1179.7926 2502705
-885.79559 595.23914 1180.8158 1976361
-876.67041 594.06885 1178.4943 2107947
-867.4458 592.81073 1175.9984 2568498
-861.64862 593.89343 1178.1462 2634291
-854.71216 594.2027 1178.7599 2700084
-849.82227 595.95276 1182.2314 2568498
-850.09741 601.38733 1193.0125 2436912
-838.02448 598.10547 1186.502 2436912
-830.56854 598.08948 1186.4703 1910568
-823.77502 598.55457 1187.3929 1910568
-821.39948 602.26752 1194.7585 1713189
-813.91394 602.26752 1194.7585 2042154
-799.30304 596.94611 1184.202 2371119
-794.0152 598.55286 1187.3895 2634291
-793.7558 604.0166 1198.2283 2765877
-787.72144 605.14813 1200.4729 2568755
-780.82904 605.63593 1201.4407 2436912
-773.03931 605.43042 1201.0331 2700084
-763.8559 604.11871 1198.4309 2897720
-753.73718 602.03387 1194.295 2700084
-748.24768 603.64185 1197.4849 2305326
-743.19336 605.63696 1201.4427 2239533
-735.66595 605.63696 1201.4427 2700084
-720.14124 598.98511 1188.2471 2634291
-711.38257 597.88086 1186.0564 2371119
-706.20844 599.79767 1189.8589 2568498
-699.76678 600.6673 1191.5841 2766134
-691.05084 599.58252 1189.4321 2700084
-682.36597 598.50134 1187.2874 2700084
-674.1236 597.78864 1185.8735 2634548
-672.13965 602.67181 1195.5605 2305326
-665.15948 603.13452 1196.4785 2305326
-656.37854 601.95648 1194.1415 2173740
-647.02008 600.21539 1190.6876 2436912
-645.26965 605.57373 1201.3173 2700084
-637.01038 604.87805 1199.9373 2634291
-630.06775 605.43091 1201.0341 2765877
-622.80676 605.68756 1201.5431 3226428
-617.43341 607.80859 1205.7507 3358014
-610.42517 608.35297 1206.8307 3226428
-603.55463 609.0498 1208.213 3160635
-588.83685 601.74518 1193.7224 2765877
-579.49286 599.81488 1189.8931 2765877
-567.8844 595.45978 1181.2535 2897720
-571.54028 607.20654 1204.5564 2305326
-564.21423 607.44434 1205.0282 2239533
-551.21173 601.49432 1193.2246 1976361
-543.57239 601.3136 1192.8661 2371119
-536.09869 601.3136 1192.8661 2371119
-527.93237 600.52557 1191.303 1976361
-521.51294 601.73071 1193.6937 2502706
-513.33588 600.91345 1192.0724 2963256
-506.65552 601.84985 1193.9301 3160635
-498.45502 600.98157 1192.2075 2963256
-491.24594 601.30042 1192.8401 2239533
-485.186 603.05743 1196.3256 2107947
-479.67694 605.565 1201.2999 2042154
-474.41321 608.4671 1207.0571 2634548
-466.42477 607.91217 1205.9562 2766134
-457.57758 606.20117 1202.5619 2042154
-450.76062 607.16754 1204.4791 2305326
-444.28568 608.63544 1207.391 2765877
-433.22485 603.763 1197.7252 3621186
-428.37106 607.52173 1205.1816 3621186
-420.82016 607.52173 1205.1816 2502705
-410.79303 603.88147 1197.9602 2371119
-403.37549 604.01324 1198.2217 2371119
-398.55307 608.10974 1206.3481 2568498
-388.466 604.17651 1198.5455 2239533
-376.97 597.85376 1186.0027 3029049
-369.19321 597.29382 1184.8918 3489600
-359.79837 594.03943 1178.4359 3358014
-352.91553 594.88293 1180.1093 2634291
-346.87177 597.20721 1184.7201 2502962
-339.50681 597.30865 1184.9214 3226428
-332.16034 597.44794 1185.1976 3160635
-325.03391 597.99847 1186.2897 3160635
-318.21289 599.14972 1188.5736 3686979
-310.73166 599.08331 1188.4418 3160635
-301.72095 595.99249 1182.3103 2765877
-294.42035 596.20898 1182.7399 3226685
-286.82263 595.81946 1181.9672 3160635
-279.77872 596.59033 1183.4963 3029049
-272.98645 597.95422 1186.202 2502705
-266.30753 599.64984 1189.5657 2107947
-258.16031 598.04169 1186.3755 2568498
-249.28676 594.60565 1179.5591 2897463
-240.62645 591.48383 1173.3662 2831670
-233.36447 591.71082 1173.8165 3094842
-226.07133 591.87103 1174.1343 2765877
-218.246 590.60187 1171.6166 2305326
-210.97624 590.79999 1172.0096 2436912
-205.42114 595.98724 1182.2999 2239533
-198.49348 597.43146 1185.1649 1647396
-191.35388 598.32507 1186.9377 2239533
-183.91734 598.32507 1186.9377 2107947
-176.45265 598.22961 1186.7483 2173740
-169.03027 598.27551 1186.8394 2700341
-162.79303 602.71344 1195.6432 2371119
-155.82364 604.73798 1199.6594 2371119
-148.3979 605.10712 1200.3916 2371119
-141.33492 607.07367 1204.2927 2568498
-133.65974 606.48419 1203.1234 2305326
-125.5754 603.85675 1197.9111 2239533
-118.39001 605.49274 1201.1566 2436912
-110.77032 604.97888 1200.1373 2305326
-102.15476 598.55524 1187.3943 2371119
-95.074677 600.82593 1191.8988 2502449
-87.612251 600.86157 1191.9694 2174251
-81.050079 607.65326 1205.4425 2634801
-73.42852 607.08197 1204.3093 2634801
-65.86618 606.92566 1203.9991 2568753
-57.897968 602.50519 1195.23 2437425
-50.286442 601.03461 1192.3127 2305582
-42.626812 598.37561 1187.0378 2371119
-35.282738 599.95844 1190.1779 2041898
-27.828613 600.01691 1190.2938 1910568
-20.371056 600.01691 1190.2938 2107690
-12.890421 598.94476 1188.167 2042155
-5.4497223 599.33362 1188.9384 2108204
1.9993454 599.33362 1188.9384 2174254
9.4704008 600.72839 1191.7052 1911081
16.958055 601.48218 1193.2006 2239276
24.403391 600.73291 1191.7142 2173740
31.794739 599.31708 1188.9055 2107947
39.20216 598.6842 1187.65 2239533
46.643154 598.6842 1187.65 1844775
54.04203 598.21802 1186.7252 1778982
61.533703 598.76746 1187.8152 1976361
69.168961 600.44489 1191.1428 1713446
76.607292 600.2525 1190.7612 1713189
84.067787 600.2525 1190.7612 1778980
91.652985 601.07043 1192.3838 2042152
99.331306 602.32965 1194.8818 1844773
106.53111 600.71417 1191.677 1844773
114.55853 603.67139 1197.5435 1910566
123.12329 608.92255 1207.9606 2371117
130.69154 608.92255 1207.9606 2700082
138.18942 608.61261 1207.3457 2568496
144.90451 605.06628 1200.3105 2305324
152.01926 603.4563 1197.1168 2107945
160.55539 607.37476 1204.8901 2173738
167.37265 604.73096 1199.6454 2239531
173.9166 601.3692 1192.9764 1910566
180.73894 599.20752 1188.6882 1778979
188.09119 598.90424 1188.0865 2042154
195.53491 598.90424 1188.0865 2107947
203.18039 599.49951 1189.2675 2107947
212.65727 605.26526 1200.7053 1713446
218.57343 600.84857 1191.9437 1515810
225.74823 600.06958 1190.3983 1318431
233.59526 601.07001 1192.3829 1515810
241.0659 601.07001 1192.3829 1778982
248.84914 601.82599 1193.8826 1712676
256.32919 601.82599 1193.8826 1647140
263.92105 602.08105 1194.3887 1778726
272.37408 604.23248 1198.6566 1844518
279.97675 604.43262 1199.0536 1844262
287.92004 605.3385 1200.8507 1975848
296.87506 608.27112 1206.6683 1976105
304.44675 608.29419 1206.714 2107434
311.62625 607.55151 1205.2407 2107690
319.16949 607.53638 1205.2107 1647396
326.56586 607.24872 1204.6401 1450018
334.57056 608.07983 1206.2888 1647396
342.30432 608.3927 1206.9094 1713189
350.28915 609.12848 1208.3691 1910311
357.8309 609.07904 1208.271 2173739
365.40109 609.07904 1208.271 2173740
374.89801 612.2254 1214.5127 1581860
382.30588 611.90302 1213.8732 1581859
391.06955 613.72095 1217.4795 1713189
398.69745 613.72095 1217.4795 1713189
406.82471 614.47528 1218.9758 1713446
414.46198 614.47528 1218.9758 2042155
423.33691 616.27704 1222.5502 2700085
432.84628 618.92188 1227.7969 2963257
445.7793 626.28436 1242.4023 3094843
449.8194 621.11469 1232.147 2897464
459.9863 624.43665 1238.7369 1910569
467.13062 623.61334 1237.1036 1910569
475.45853 624.37109 1238.6069 2173741
482.3461 623.24359 1236.3701 1976361
489.67798 622.71655 1235.3247 1581603
495.14413 619.87036 1229.6785 1450017
503.48447 620.65436 1231.2338 1581603
510.34 619.612 1229.166 1581603
517.55243 619.02759 1228.0066 1976618
523.64636 617.14197 1224.266 2239533
530.71661 616.44489 1222.8831 2371119
538.15979 616.19458 1222.3866 2107691
544.90729 615.16595 1220.3461 1449760
549.09711 611.31836 1212.7133 1515554
551.93878 606.09528 1202.3519 1515554
558.40814 604.94293 1200.0659 1778726
561.49585 600.20636 1190.6697 1844262
566.96161 598.10272 1186.4965 1515297
572.52301 596.15302 1182.6288 1712676
579.64862 595.86115 1182.0498 1778982
584.84869 593.62219 1177.6083 1844776
594.06976 595.46954 1181.2729 1844775
602.43036 596.41949 1183.1575 1778982
611.85461 598.38666 1187.0598 1778982
623.40491 602.36084 1194.9436 2042154
626.74915 598.40576 1187.0977 2173740
631.77887 596.13367 1182.5905 2305326
638.71692 595.69421 1181.7186 2173740
649.04675 598.39191 1187.0702 1910568
659.57385 601.20819 1192.6571 2239533
664.77875 599.16449 1188.6029 2436912
671.43945 598.46375 1187.2126 2502705
683.17236 602.24963 1194.7231 2634291
686.58685 598.69989 1187.6813 2700084
692.64618 597.50787 1185.3165 2568498
700.07581 597.51062 1185.322 2568498
707.83185 597.78906 1185.8743 2700084
715.26172 597.78906 1185.8743 2831670
721.33356 596.66577 1183.6459 2831670
729.14948 596.99323 1184.2955 2765877
736.17938 596.67706 1183.6683 2634035
741.62024 595.09216 1180.5243 2436399
748.32812 594.5451 1179.4391 2567986
760.21631 598.08435 1186.4601 2239020
764.59729 595.70612 1181.7422 1844005
770.2821 594.37946 1179.1105 1449504
776.75995 593.68427 1177.7313 1120796
781.43665 591.63837 1173.6729 1120796
787.91199 590.9798 1172.3663 1515297
796.19373 591.67578 1173.7469 2305070
799.70483 588.84613 1168.1337 2370606
811.04871 591.78314 1173.96 2041897
822.73602 594.91565 1180.1742 2107947
838.23065 600.72083 1191.6903 2634291
843.51398 599.17023 1188.6143 2700084
846.49579 596.02625 1182.3772 2173740
852.19836 594.83588 1180.0159 1976361
859.62384 594.85822 1180.0602 2239533
869.01367 596.22797 1182.7775 2568499
876.42419 596.22797 1182.7775 2502705
884.8382 596.90497 1184.1205 2831157
892.0307 596.75354 1183.8201 2567985
897.49274 595.45648 1181.2471 2304813
911.81073 600.00824 1190.2766 2502192
921.92267 601.74078 1193.7136 2699571
939.323 608.16437 1206.4565 2370606
941.3515 604.61237 1199.4102 2239020
939.89056 598.89313 1188.0646 1975848
947.33417 598.89313 1188.0646 1910055
956.26471 599.82587 1189.9148 2239020
971.01569 604.36682 1198.923 2436399
979.1933 604.77814 1199.739 2370606
988.74139 606.02325 1202.209 2239020
997.67877 606.87799 1203.9045 2041641
1002.8044 605.41858 1201.0095 1975848
1010.7361 605.6626 1201.4935 2239020
1021.9042 607.82776 1205.7888 2239020
1030.1804 608.25378 1206.6339 1975848
1035.0355 606.6684 1203.4889 1910055
1039.9403 605.13489 1200.4468 2041641
1047.8593 605.36469 1200.9026 2107434
1055.7568 605.57898 1201.3276 2239020
1064.9574 606.53223 1203.2188 2107434
1067.0171 603.43378 1197.0721 1910055
1073.2451 602.71948 1195.6552 1581090
1081.0001 602.86664 1195.947 1449761
1085.892 601.42596 1193.0891 1383968
1093.7375 601.62982 1193.4934 1383455
1101.0359 601.53192 1193.2992 1448991
1105.2129 599.74139 1189.7473 1580064
1106.6613 596.50421 1183.3256 1909285
1115.4799 597.25635 1184.8175 1975078
1122.96 597.28662 1184.8776 1975078
1131.0706 597.6496 1185.5977 1909285
1138.2249 597.50586 1185.3125 2040614
1146.803 598.10657 1186.5042 2237993
1154.9969 598.50049 1187.2856 2238250
1162.4358 598.50049 1187.2856 2172457
1171.0264 599.08978 1188.4547 2041128
1181.0872 600.41901 1191.0916 2106664
1187.9784 600.13043 1190.519 2041642
1196.9407 600.88513 1192.0162 2107178
1210.6415 603.99445 1198.1844 1976105
1218.1484 603.99445 1198.1844 1844262
1225.3749 603.85626 1197.9102 1646627
nan nan nan 16777215
nan nan nan 16777215
nan nan nan 16777215
nan nan nan 16777215
nan nan nan 16777215
nan nan nan 16777215
nan nan nan 16777215
nan nan nan 16777215
nan nan nan 16777215
nan nan nan 16777215
nan nan nan 16777215
nan nan nan 16777215
nan nan nan 16777215
nan nan nan 16777215
nan nan nan 16777215
nan nan nan 16777215
nan nan nan 16777215
-1030.7878 605.1972 1185.9088 2436912
-1031.7504 610.16046 1195.6345 2239533
-1022.5771 609.15839 1193.6709 2239533
-1012.2507 607.44952 1190.3223 2371119
-1001.5817 605.50818 1186.5181 2239533
-992.77521 604.67212 1184.8799 2305326
-984.73163 604.29169 1184.1344 2173740
-977.31268 604.29169 1184.1344 1976361
-968.53333 603.44409 1182.4735 1318431
-956.87946 600.77869 1177.2505 1450017
-946.48065 598.86597 1173.5024 2042154
-937.32825 597.71808 1171.2532 2634291
-927.42584 596.07013 1168.0239 2700084
-911.59985 590.55841 1157.2235 3160635
-905.5567 591.3468 1158.7683 3621186
-896.89471 590.42389 1156.9598 3555393
-899.51184 596.97144 1169.79 2765877
-890.03497 595.53436 1166.974 2765877
-880.0498 593.73053 1163.4393 2436912
-876.97864 596.6001 1169.0624 2305326
-872.13605 598.30273 1172.3988 2502705
-859.88531 594.909 1165.7487 2568498
-850.71338 593.60553 1163.1943 2371119
-846.23871 595.58527 1167.0739 2568498
-837.07281 594.26923 1164.495 2634291
-830.28033 594.62982 1165.2015 2634291
-822.97998 594.62982 1165.2015 2502705
-818.48065 596.67175 1169.2028 2371119
-813.01404 598.03906 1171.8821 2371119
-805.67181 598.03906 1171.8821 2568498
-799.98285 599.27753 1174.3088 2371119
-786.93213 594.97296 1165.874 2568755
-783.91827 598.24744 1172.2904 3424064
-776.57355 598.24744 1172.2904 3358014
-772.96533 601.15344 1177.9849 2765877
-767.31781 602.51416 1180.6512 2700084
-762.07538 604.22253 1183.9989 2963256
-754.65723 604.22253 1183.9989 2963256
-744.31299 601.85645 1179.3624 2897463
-736.65692 601.63843 1178.9352 2897463
-728.73694 601.19824 1178.0726 3226428
-719.70215 599.81989 1175.3717 3621186
-706.13159 594.59375 1165.1309 3029049
-703.63831 598.68347 1173.1448 2436912
-696.35944 598.74463 1173.2648 2305326
-688.47534 598.28131 1172.3568 2436912
-681.17084 598.31702 1172.4268 2436912
-673.8252 598.31702 1172.4268 2502705
-667.07721 598.85352 1173.478 2634291
-662.82196 601.66473 1178.9867 2831670
-656.77057 602.8905 1181.3887 2831670
-646.36011 600.09717 1175.915 2634548
-638.99268 600.09717 1175.915 2765877
-634.23633 602.57794 1180.7762 2897463
-625.78082 601.56134 1178.7842 2766134
-617.43732 600.62933 1176.9579 2568755
-613.1106 603.62958 1182.8369 2634291
-607.67432 605.59735 1186.6929 2897463
-601.88123 607.25391 1189.939 3029306
-594.50555 607.33533 1190.0985 3029049
-581.02606 601.10394 1177.8879 2766134
-572.23718 599.6275 1174.9948 2634291
-565.57983 600.37518 1176.4598 3094586
-559.67548 601.95251 1179.5507 3555393
-551.27356 600.84985 1177.39 3226428
-544.83929 601.89099 1179.4301 2765877
-537.87372 602.36572 1180.3604 3029306
-529.1712 600.88135 1177.4517 2502705
-523.00464 602.27539 1180.1833 2305326
-516.6651 603.50739 1182.5975 2568498
-513.26343 608.25677 1191.9042 3029049
-503.634 605.6571 1186.8099 3029049
-495.93536 605.33612 1186.181 3029049
-486.66235 603.05457 1181.7102 2897463
-479.27185 603.07129 1181.7429 2700084
-475.38779 607.56995 1190.5582 2371119
-467.38681 606.86646 1189.1798 2634291
-459.94543 606.87866 1189.2036 2436912
-452.93176 607.46478 1190.3522 2239533
-444.16183 605.67572 1186.8464 2765877
-435.23248 603.60468 1182.7881 3555393
-427.32495 602.90338 1181.4139 3753029
-421.57327 605.27277 1186.0569 3489600
-415.98572 607.96692 1191.3362 3094586
-405.85907 604.00452 1183.5717 2502705
-398.98581 604.82648 1185.1823 2305326
-391.15866 604.20599 1183.9666 2765877
-382.83508 602.78015 1181.1724 3094842
-373.36792 599.46185 1174.67 3029049
-364.63168 597.20721 1170.2521 3358014
-358.0896 598.52753 1172.8392 3292221
-350.62573 598.33014 1172.4524 2700084
-342.21603 596.47577 1168.8187 2634291
-336.6254 599.56128 1174.8649 3094842
-327.6825 596.6806 1169.2201 3292221
-320.92877 597.74554 1171.307 3423807
-315.56754 601.51471 1178.6927 3687236
-306.72595 598.67145 1173.1213 3029049
-300.87497 601.66907 1178.9952 2634548
-290.38873 595.31494 1166.5441 2568498
-282.53192 594.16235 1164.2855 2831670
-275.21719 594.11896 1164.2004 3160635
-270.50311 599.84015 1175.4114 2436912
-262.71658 598.87769 1173.5254 2173740
-254.3968 596.60919 1169.0802 2831670
-245.73814 593.38794 1162.7681 2634291
-238.1132 592.5423 1161.111 2700084
-231.49696 594.23254 1164.4231 3226428
-222.25687 589.07837 1154.3232 2897463
-215.80533 591.2171 1158.5142 2173740
-208.64095 591.48383 1159.0367 2371119
-201.37923 591.48383 1159.0367 2831670
-196.09653 597.51398 1170.8531 2305326
-189.58191 600.11322 1175.9465 2371119
-183.16922 603.25842 1182.1096 2042154
-175.76294 603.25842 1182.1096 2173740
-168.66484 604.36273 1184.2736 2436912
-160.45131 601.38788 1178.4442 2371119
-153.26942 602.17926 1179.995 2173740
-145.87503 602.17365 1179.984 2371119
-138.48207 602.17365 1179.984 2568498
-130.58516 599.85876 1175.4479 2239533
-123.34184 600.44891 1176.6042 2568498
-115.97005 600.44891 1176.6042 2502705
-108.73768 601.21973 1178.1147 1976361
-101.03171 599.29364 1174.3405 2173740
-93.572281 598.64227 1173.0641 2305326
-86.216454 598.59906 1172.9795 1977130
-79.145737 600.71185 1177.1195 2108461
-71.931412 602.05682 1179.7551 2502961
-64.386681 600.62769 1176.9546 2305839
-56.601589 596.29675 1168.4679 2173997
-49.118366 594.3316 1164.6172 1976618
-41.769604 593.59155 1163.167 2108460
-34.496632 593.84338 1163.6605 2240046
-27.37571 597.54907 1170.922 2240046
-20.035604 597.43237 1170.6932 2108460
-12.638927 594.51971 1164.9857 1911080
-5.3552942 596.23016 1168.3375 1911336
1.9712691 598.22296 1172.2424 1779494
9.3535948 600.65442 1177.007 1713701
16.694635 599.45972 1174.6659 2107947
24.016132 598.50897 1172.8029 2107947
31.294746 597.18542 1170.2094 2042154
38.56736 596.27148 1168.4185 1976361
45.856735 595.867 1167.6259 1844775
53.180374 595.95782 1167.8038 1910825
60.508953 596.07526 1168.0339 1844775
68.089294 598.37994 1172.55 1844775
75.450684 598.4989 1172.7832 1910568
83.194221 601.35907 1178.3878 2042152
90.774605 602.6698 1180.9562 2436910
98.008629 601.65668 1178.9709 2173738
105.42316 601.8161 1179.2833 2107945
112.9539 602.5744 1180.7693 2042152
120.99905 605.81512 1187.1196 2371117
128.43672 605.81512 1187.1196 2305324
135.12405 602.46967 1180.564 2107945
141.9785 600.17786 1176.0731 2173738
149.6824 601.52588 1178.7146 2042152
156.74165 600.27826 1176.2699 1844773
162.98424 596.15552 1168.1913 1778980
170.80309 597.90509 1171.6195 1713187
178.55826 599.29657 1174.3463 1647393
185.82684 599.00958 1173.7838 1778982
192.38785 596.55023 1168.9647 1778982
199.74139 596.63873 1169.1381 2436912
207.74768 598.60168 1172.9846 2239533
215.07828 598.55023 1172.8838 2042154
222.57323 598.9444 1173.6561 1647396
230.47118 600.3631 1176.4362 1252638
237.27287 598.9267 1173.6215 1317918
244.94377 599.70477 1175.1461 1646883
253.33073 602.13947 1179.917 1712676
260.72363 602.14026 1179.9186 1975848
268.13184 602.17548 1179.9875 1778469
275.9473 603.09875 1181.7968 1712676
283.9343 604.33899 1184.2271 1712676
291.31686 604.26227 1184.0767 1844262
298.67535 604.14062 1183.8384 1778469
306.89404 605.72272 1186.9386 1646883
314.41458 605.88464 1187.2557 1515298
323.00876 608.06012 1191.5188 1383711
328.13193 603.75079 1183.0745 1515554
337.2261 606.77698 1189.0044 1712677
344.9827 607.31763 1190.0638 1975848
352.49933 607.42194 1190.2682 1909798
362.05603 610.96442 1197.2098 1581090
369.45633 610.79816 1196.884 1383711
376.9552 610.79816 1196.884 1778725
383.73001 609.64789 1194.63 1580834
392.1571 611.11633 1197.5076 1186589
402.15414 614.93036 1204.9813 1712676
410.10922 615.539 1206.174 2239533
419.26114 617.8894 1210.7797 1976618
427.37476 618.65332 1212.2766 1976363
437.68805 622.5191 1219.8518 2436657
444.88425 621.8949 1218.6285 2502706
451.2103 620.09589 1215.1034 1910569
460.69403 622.62415 1220.0576 2173741
468.3381 622.62415 1220.0576 2173741
478.64297 626.1048 1226.8781 2173741
485.13574 624.56763 1223.8658 1910569
491.62488 623.07367 1220.9385 1647397
498.79401 622.47412 1219.7637 2042155
505.46271 621.27759 1217.4189 2042155
512.47095 620.52777 1215.9496 2042154
516.83612 616.64642 1208.344 2305325
524.4068 616.64642 1208.344 2239533
532.22833 616.93719 1208.9138 2436912
537.82501 614.67706 1204.485 2239533
541.58801 610.41278 1196.1289 1713189
541.42249 601.89764 1179.4431 1384225
548.42029 601.4679 1178.6011 1384224
553.68292 599.17194 1174.1021 1778982
562.00568 600.20428 1176.125 1779239
566.96582 597.66528 1171.1497 1384481
574.61389 597.98834 1171.7827 1318432
581.95551 597.98834 1171.7827 1516067
585.87848 594.51935 1164.9851 1976362
591.86444 593.20337 1162.4064 1976361
599.63757 593.68878 1163.3575 1976361
608.90149 595.62085 1167.1434 2107947
617.13043 596.50665 1168.8793 2107947
626.4491 598.4126 1172.614 2173740
631.02625 595.79761 1167.4899 2305326
640.79578 598.08875 1171.9795 2173740
650.75537 600.50354 1176.7113 2305326
658.12787 600.50354 1176.7113 2831670
663.36853 598.57996 1172.942 2568498
668.99622 597.04388 1169.932 2042154
679.30219 599.67108 1175.0801 2371119
686.66449 599.67108 1175.0801 2568498
694.08112 599.71802 1175.1721 2634291
700.85791 599.2171 1174.1904 2700084
707.66949 598.7558 1173.2866 2634291
713.2312 597.25751 1170.3506 2634291
721.75793 598.24731 1172.2902 2700084
731.04742 599.84302 1175.417 2568498
732.526 595.06171 1166.0479 2567985
739.5412 594.82806 1165.5901 2567985
751.29321 598.3717 1172.5339 2567985
762.17432 601.15979 1177.9972 2501936
766.3927 598.68958 1173.1569 1580833
771.96637 597.315 1170.4633 1054233
775.33612 594.27698 1164.5101 856597
785.04358 596.10803 1168.0983 1119769
791.0816 595.14478 1166.2106 1185819
796.44025 593.69269 1163.3651 2172714
803.75507 593.71185 1163.4027 2370606
811.55896 594.08862 1164.1411 2436399
825.25372 598.73279 1173.2415 2436399
833.96033 599.70782 1175.1521 2239533
837.57062 597.03302 1169.9108 2173996
842.50171 595.33801 1166.5892 2042154
849.80121 595.3313 1166.576 2371119
857.11017 595.3313 1166.576 2436912
871.4046 600.14221 1176.0033 2568498
874.06732 596.92883 1169.7065 3357501
878.05298 594.66486 1165.2701 3160122
888.98761 597.10553 1170.0529 2502192
897.03668 597.58405 1170.9905 2567985
907.78418 599.83789 1175.407 2765364
917.22583 601.19952 1178.0752 2633778
929.02039 604.06934 1183.6986 2567985
934.93475 603.10052 1181.8002 2436399
941.91235 602.82733 1181.2649 2239020
946.22363 600.86542 1177.4204 2239020
958.2085 603.76886 1183.1099 2436399
966.60718 604.38538 1184.318 2502192
974.3028 604.5564 1184.6531 2239020
982.3692 604.95312 1185.4304 2107434
989.29919 604.64929 1184.8351 2107434
998.87701 605.95624 1187.3961 2304813
1005.4461 605.43213 1186.3691 2370606
1015.4492 606.96844 1189.3795 2304813
1021.1347 605.92035 1187.3258 2304813
1027.079 605.03986 1185.6005 2239020
1034.5072 605.03986 1185.6005 2173227
1040.8552 604.41266 1184.3715 2436399
1047.1732 603.77704 1183.1259 2304813
1056.6206 604.94183 1185.4084 2041898
1062.1667 603.87268 1183.3132 1910055
1068.2041 603.09546 1181.7904 1712933
1071.8047 600.96271 1177.6111 1712163
1077.5297 600.04218 1175.8073 1515297
1085.8065 600.54553 1176.7936 1515041
1092.89 600.38654 1176.4821 1580064
1096.2131 598.17767 1172.1537 1777699
1101.6669 597.15308 1170.146 1975078
1110.2306 597.81665 1171.4463 1909285
1118.0729 598.08563 1171.9734 1843492
1127.5907 599.24152 1174.2384 1777699
1134.9476 599.24152 1174.2384 1975078
1139.786 597.92029 1171.6494 2238250
1147.1555 597.93536 1171.6788 2106664
1154.261 597.81335 1171.4398 2106664
1161.1705 597.59216 1171.0063 1975078
1168.7297 597.70587 1171.2292 2040872
1180.447 599.93152 1175.5905 2040871
1190.4468 601.26202 1178.1976 1975078
1198.5244 601.61127 1178.882 1909285
1211.2535 604.27686 1184.1053 1711650
nan nan nan 16777215
nan nan nan 16777215
nan nan nan 16777215
nan nan nan 16777215
nan nan nan 16777215
nan nan nan 16777215
nan nan nan 16777215
nan nan nan 16777215
nan nan nan 16777215
nan nan nan 16777215
nan nan nan 16777215
nan nan nan 16777215
nan nan nan 16777215
nan nan nan 16777215
nan nan nan 16777215
nan nan nan 16777215
nan nan nan 16777215
-1023.588 608.30927 1177.6256 2042154
-1016.2098 608.30927 1177.6256 2107947
-1006.9039 607.14685 1175.3752 2173740
-997.19653 605.72351 1172.6199 1976361
-987.0672 604.02075 1169.3235 1976361
-979.30359 603.7511 1168.8015 2042154
-971.00012 603.14203 1167.6223 2042154
-966.26685 604.75818 1170.7511 2042154
-956.81512 603.42328 1168.1669 2042411
-948.98438 603.09808 1167.5372 2239533
-932.5451 597.25433 1156.2244 2436912
-924.02771 596.4325 1154.6333 2568498
-912.27948 593.49579 1148.9481 2897463
-900.92096 590.76788 1143.6672 3094842
-896.60004 592.64807 1147.3071 2963256
-890.2027 593.17505 1148.3273 2963256
-885.39532 594.77875 1151.4319 2766134
-878.72925 595.1499 1152.1504 2568498
-871.03973 594.82831 1151.5278 2634291
-865.70374 596.12201 1154.0322 2634291
-853.35199 592.56567 1147.1476 2963256
-846.16467 592.56567 1147.1476 3029049
-835.41528 590.04974 1142.277 2568498
-833.79059 593.99072 1149.9064 2700084
-826.58606 593.99072 1149.9064 2634291
-818.87738 593.62518 1149.1987 2634291
-811.51819 593.50885 1148.9735 2634291
-805.13403 594.10992 1150.1371 2568498
-798.18164 594.29871 1150.5026 2502705
-793.61053 596.28015 1154.3384 2897720
-784.85175 595.12262 1152.0977 3029049
-779.0202 596.1839 1154.1521 3358014
-775.26245 598.867 1159.3463 3423807
-766.17511 597.44489 1156.5933 3094842
-764.50311 601.83325 1165.0886 3029049
-758.30872 602.71167 1166.7892 3029049
-752.77057 604.13397 1169.5426 3029049
-745.10114 603.85681 1169.0061 3094842
-735.60431 602.07855 1165.5636 2831670
-730.8988 604.22552 1169.72 2897463
-723.57013 604.22552 1169.72 3094842
-712.70764 601.24438 1163.9487 3160635
-706.54785 602.20984 1165.8177 2305327
-700.72052 603.48175 1168.28 2173740
-685.08002 596.23993 1154.2606 2371119
-677.40753 595.85229 1153.5101 2502705
-669.94714 595.6449 1153.1086 2371119
-663.29834 596.16241 1154.1105 2371119
-655.86945 595.98242 1153.7621 2502705
-653.53278 600.47729 1162.4637 3358014
-646.24963 600.47729 1162.4637 3160635
-638.11182 599.67419 1160.9089 3029049
-632.65387 601.39996 1164.25 2897463
-627.02075 602.99762 1167.3428 2897463
-619.70697 602.99762 1167.3428 2831670
-613.3042 603.89465 1169.0793 2502705
-606.84631 604.75842 1170.7515 2305326
-597.17975 602.40656 1166.1986 2042154
-589.72272 602.25293 1165.9011 2371119
-582.98297 602.83716 1167.0321 2568498
-573.6618 600.73297 1162.9586 2568498
-565.71509 600.03253 1161.6027 2634548
-560.38647 602.12689 1165.6571 3029049
-554.74768 603.9389 1169.165 3094842
-545.38171 601.68738 1164.8064 3160635
-537.46619 600.99677 1163.4694 2568498
-531.58264 602.59052 1166.5547 3094842
-524.9104 603.3222 1167.9711 3621443
-519.30768 605.32123 1171.8411 3029049
-512.0788 605.45483 1172.0997 2765877
-501.90811 602.0636 1165.5347 2700084
-495.42929 603.06622 1167.4756 2437169
-493.35562 609.54138 1180.0109 3160892
-486.41278 610.1062 1181.1042 3358014
-477.32947 607.9621 1176.9536 3160635
-470.67737 608.896 1178.7615 2766134
-462.00235 607.20099 1175.4801 2634291
-453.99377 606.34106 1173.8154 2634291
-446.96918 606.7887 1174.682 2765877
-438.207 604.85291 1170.9344 2831927
-430.78693 604.73529 1170.7068 3489600
-423.45209 604.73529 1170.7068 3555650
-416.92902 605.91498 1172.9906 3161147
-409.57986 605.91498 1172.9906 2897976
-400.80469 603.76691 1168.832 2832183
-394.05603 604.64832 1170.5383 2436912
-387.34204 605.61743 1172.4144 2963512
-379.38022 604.63519 1170.5129 3358014
-368.61926 599.06525 1159.7301 3160635
-361.32248 599.01428 1159.6315 3489600
-352.96701 597.17017 1156.0614 3489600
-343.69058 593.65796 1149.2621 3358014
-337.01587 594.58557 1151.0579 2831670
-330.81439 596.40686 1154.5837 2897463
-321.90741 593.323 1148.6138 3358014
-314.94693 593.76782 1149.4749 3358014
