# .PCD v0.7 - Point Cloud Data file format
VERSION 0.7
FIELDS x y z rgb
SIZE 4 4 4 4
TYPE F F F U
COUNT 1 1 1 1
WIDTH 1272
HEIGHT 1
VIEWPOINT 0 0 0 1 0 0 0
POINTS 1272
DATA ascii
-2093.7939 658.0509 2462.1267 3160633
-2077.9231 657.91003 2461.5996 3423549
-2061.0996 657.46326 2459.928 3686977
-2046.2483 657.64349 2460.6023 3686977
-2036.399 659.44629 2467.3477 3686977
-2020.9404 659.44629 2467.3477 3621184
-2000.8734 657.93103 2461.6782 3621185
-1983.4285 657.26105 2459.1714 3621184
-1982.748 662.1795 2477.574 3752770
-1964.0752 661.11914 2473.6067 3555905
-1942.8186 659.16534 2466.2964 3621440
-1932.379 660.87964 2472.7104 3819333
-1915.5364 660.41406 2470.9685 3885126
-1880.2476 653.52942 2445.2095 3885125
-1871.9629 655.99481 2454.4338 3687747
-1859.479 657.0174 2458.2598 3687490
-1836.3914 654.27899 2448.0139 3753539
-1805.4351 648.66736 2427.0178 3884869
-1788.7213 648.12109 2424.9739 3819076
-1767.2358 645.82166 2416.3704 3819332
-1757.1619 647.68872 2423.3562 3556417
-1743.0491 648.08667 2424.845 3686977
-1731.6283 649.50134 2430.1382 3686977
-1715.4194 649.12921 2428.7458 3686977
-1690.6328 645.47552 2415.0754 3621184
-1678.2366 646.52917 2419.0176 3555391
-1666.4133 647.82477 2423.8652 3555391
-1648.2146 646.64288 2419.4431 3555391
-1630.3412 645.56787 2415.4209 3489852
-1611.5372 644.10083 2409.9319 3489852
-1591.8506 642.24988 2403.0063 3489852
-1580.4412 643.73499 2408.563 3687231
-1559.8741 641.48279 2400.1365 3621694
-1545.2085 641.63727 2400.7144 3621438
-1542.8357 646.94946 2420.5901 3621438
-1527.6699 646.94946 2420.5901 3555902
-1505.9392 644.14136 2410.0835 3358266
-1499.5828 647.91913 2424.2183 3226937
-1482.2246 646.97211 2420.6748 3160374
-1462.5255 644.97314 2413.1956 3028788
-1449.4417 645.88019 2416.5894 3028788
-1437.2109 647.19055 2421.4922 3094581
-1426.3154 649.13654 2428.7732 3094581
-1420.1324 653.29236 2444.3225 3095094
-1403.1305 652.50769 2441.3865 3028788
-1387.2262 652.22168 2440.3164 2897971
-1373.6173 653.02057 2443.3054 3292473
-1349.6991 648.88116 2427.8176 3358266
-1340.0702 651.59546 2437.9734 3424059
-1325.6858 652.03333 2439.6116 3621438
-1312.5929 653.12402 2443.6924 3687231
-1295.4985 652.22595 2440.3323 3819073
-1281.0424 652.65045 2441.9207 3424059
-1266.7913 653.19098 2443.9431 3095094
-1247.7917 651.26636 2436.7419 3095094
-1240.4902 655.47522 2452.4897 3226680
-1225.303 655.57074 2452.8469 3818817
-1198.2905 649.26135 2429.2402 3621694
-1191.709 654.00208 2446.9778 3753024
-1176.3778 654.00208 2446.9778 3753281
-1157.9619 652.26434 2440.4761 3424059
-1139.7137 650.57599 2434.1589 3358266
-1124.4286 650.55609 2434.0845 3160887
-1109.423 650.69952 2434.6213 3358266
-1091.2482 648.9624 2428.1216 3160887
-1063.9535 641.6759 2400.8589 2766129
-1070.3838 654.81171 2450.0071 3621438
-1060.4916 658.1991 2462.6812 3095094
-1051.0353 661.96112 2476.7568 3029301
-1033.3263 660.5603 2471.5156 3226680
-1017.5295 660.35791 2470.7583 3095609
-995.237 655.86841 2453.9607 2897974
-1014.6633 679.16254 2541.1167 3753283
-999.82379 679.89777 2543.8677 3884869
-962.96484 665.4408 2489.7764 3687490
-969.98572 681.32947 2549.2244 4016455
-956.46362 683.07886 2555.7698 3884869
-926.09161 672.64929 2516.7471 3555904
-905.62738 669.17926 2503.7639 3490111
-895.13544 673.08551 2518.3794 3621697
-883.94861 676.6001 2531.5293 3555904
-870.68604 678.62518 2539.1062 3490111
-847.1496 672.56909 2516.447 3753283
-831.38324 672.56909 2516.447 3819333
-816.58838 673.37012 2519.4441 3621697
-800.37891 673.01324 2518.1089 3884869
-778.1297 667.4613 2497.3362 3226682
-766.14948 670.67078 2509.3445 3423805
-752.48621 672.51056 2516.228 4015942
-732.33997 668.51105 2501.2639 4213834
-716.32428 668.18976 2500.0618 4148297
-698.04523 665.69556 2490.7295 4543056
-678.85748 662.20093 2477.6541 4937558
-670.76648 669.62048 2505.4148 2897205
-657.14117 671.7384 2513.3391 3490368
-653.39612 684.30804 2560.3689 4081735
-634.74695 681.50824 2549.8933 3818306
-615.43054 677.82904 2536.1274 3555648
-595.61432 673.38971 2519.5176 3555391
-577.67468 670.888 2510.1572 3818307
-561.94775 670.888 2510.1572 4410700
-544.00153 668.16223 2499.9585 3884356
-528.65698 668.56494 2501.4653 3818563
-512.60223 668.06671 2499.6011 3687234
-495.70312 666.40192 2493.3723 3423805
-476.61722 661.59332 2475.3809 4213321
-459.20816 658.86719 2465.1809 3818563
-443.78366 658.89783 2465.2954 3358012
-428.52145 659.1803 2466.3523 3489598
-412.15695 657.72485 2460.9067 3423805
-396.9024 657.99634 2461.9226 3292219
-381.18417 657.49005 2460.0283 3292219
-366.05142 657.99359 2461.9121 3489598
-348.56418 654.12286 2447.4297 3555391
-335.98077 659.52197 2467.6309 3621184
-319.68607 657.80542 2461.2083 3621184
-303.5361 656.22778 2455.3054 3752770
-288.61545 657.28131 2459.2471 3752770
-272.74731 656.17419 2455.105 3555391
-257.78757 657.25067 2459.1326 3292219
-243.07724 659.1405 2466.2034 3292219
-228.54872 661.81323 2476.2036 3423805
-211.87947 658.22491 2462.7778 3358013
-196.44942 658.22491 2462.7778 2897717
-178.20996 648.00946 2424.5562 2502957
-162.34944 645.34644 2414.5925 2832179
-147.22128 645.34644 2414.5925 2963252
-131.26251 641.28864 2399.4099 3029301
-115.92717 639.62067 2393.1692 3161144
-101.1777 641.16992 2398.9658 3160888
-87.676987 652.55396 2441.5596 3752770
-71.712044 646.53314 2419.0325 4279114
-55.717113 636.94263 2383.1492 3950149
-41.359238 645.89551 2416.6467 3029048
-26.218197 645.89551 2416.6467 3160889
-11.067749 645.34717 2414.595 3753028
4.0504942 643.76691 2408.6824 3686977
19.366966 651.34509 2437.0366 2963255
34.635757 651.34509 2437.0366 3292219
49.922718 651.58228 2437.9241 3292219
65.197067 651.58228 2437.9241 3095097
81.330238 658.53619 2463.9424 3226426
96.702103 658.09045 2462.2747 3423805
112.40867 659.73181 2468.4158 3423805
128.69835 663.9845 2484.3274 3094840
144.83612 666.62036 2494.1897 3094840
160.30553 665.96613 2491.7419 3160633
175.7074 665.17242 2488.7722 3160633
191.13789 664.60767 2486.6589 3160633
208.03453 668.84174 2502.501 2963254
223.7135 668.84174 2502.501 2436910
236.69579 661.3075 2474.3113 2239531
255.73438 670.5802 2509.0056 2371374
271.22995 670.02655 2506.9341 2765875
286.1622 668.21808 2500.1675 2700082
301.50616 667.50879 2497.5139 2634545
317.44275 668.11682 2499.7888 2436909
332.96481 667.83624 2498.739 2502960
346.95496 664.64624 2486.8035 2568240
362.41281 664.42126 2485.9617 2502704
377.55038 663.65179 2483.0825 2305324
393.69781 664.64807 2486.8103 2502447
409.42294 664.88275 2487.6882 2437167
425.48035 665.61993 2490.4465 2239531
438.79568 662.16718 2477.5278 2700082
454.14618 661.91644 2476.5898 2700082
468.77289 660.66235 2471.8975 2634289
484.2601 660.66235 2471.8975 2502703
499.26212 660.02087 2469.4973 2831668
514.27289 659.42932 2467.2839 2699826
529.32843 658.92792 2465.408 2568496
544.77563 658.92865 2465.4109 2700082
557.71698 655.98206 2454.386 2897718
574.38275 657.45667 2459.9033 3423805
591.70813 659.58948 2467.8833 3226426
610.72546 663.45172 2482.334 3292219
625.91028 663.06213 2480.8765 3358012
641.88019 663.50293 2482.5256 3292219
658.13226 664.20758 2485.1624 3292219
676.49963 666.96527 2495.4802 3621184
689.16931 664.10785 2484.7891 3884356
706.79291 666.04498 2492.0369 3884356
720.39502 664.19061 2485.0986 3686977
735.03839 663.35437 2481.97 3686977
753.97443 666.34668 2493.1655 3884612
771.38562 667.89716 2498.9668 3489598
787.04242 667.89716 2498.9668 3358012
808.12061 672.40808 2515.8447 3226426
830.76849 678.02747 2536.8699 3423805
837.73743 670.87994 2510.127 3884613
848.30469 666.82422 2494.9524 3818563
864.26025 667.07428 2495.8879 3818563
884.5694 670.61591 2509.1392 3686977
899.86975 670.30292 2507.968 3555391
910.68463 666.71686 2494.5508 3884356
923.70868 664.84186 2487.5352 3686977
946.72711 670.10315 2507.2207 2765874
955.29089 665.1286 2488.6082 3094842
968.41095 663.43518 2482.2722 3621186
977.17401 658.8576 2465.145 3686979
993.40698 659.38074 2467.1023 3752772
1002.1571 654.99707 2450.7007 3423805
1018.5958 655.69507 2453.3123 3423805
1049.2267 665.37231 2489.5203 3753027
1051.5479 657.07629 2458.4802 3621184
1066.3035 656.67749 2456.988 3555648
1082.9775 657.45477 2459.8962 3884356
1101.0114 659.02417 2465.7681 3752770
1124.0137 663.48285 2482.4504 3423805
1130.2921 658.08276 2462.2458 3358013
1140.1095 654.86078 2450.1907 3358012
1149.9504 651.73785 2438.5061 3358013
1163.9128 651.00201 2435.7529 3424315
1194.3071 659.35699 2467.0134 3489339
1209.7014 659.32306 2466.8865 3028788
1215.819 654.29761 2448.0835 2831409
1230.1309 653.75226 2446.0432 2765616
1240.4675 651.13373 2436.2458 2963252
1248.2848 647.27252 2421.7988 3028788
1255.618 643.25598 2406.771 3160374
1269.5573 642.67889 2404.6116 3160374
1283.655 642.1947 2402.8 2962995
1289.8524 637.81506 2386.4136 3028788
1321.8193 646.13251 2417.5334 2568238
1333.6752 644.54218 2411.5833 2831411
1347.1984 643.78418 2408.7471 2962997
1363.1948 644.21179 2410.3472 3094583
1379.3831 644.71973 2412.2476 3094840
1393.6255 644.31702 2410.7407 3094583
1413.6548 646.56976 2419.1694 3094583
1431.0977 647.60419 2423.0398 3292219
1466.069 656.4657 2456.1956 3489341
1477.1001 654.53473 2448.9707 3357755
1482.1843 650.03528 2432.136 2897204
1484.0641 644.23639 2410.4392 2634032
1500.8328 644.95264 2413.1189 2765875
1523.9031 648.33545 2425.7759 3160376
1544.494 650.60712 2434.2754 3028790
1560.5682 650.95026 2435.5593 2962997
1577.9513 651.82745 2438.8413 3028790
1596.6654 653.23242 2444.0981 2962997
1611.9785 653.23242 2444.0981 2831411
1626.6952 652.99304 2443.2024 2831411
1636.4027 650.76605 2434.8701 3160376
1658.8546 653.60162 2445.4795 3291962
1674.1763 653.60162 2445.4795 3160376
1687.4844 652.82257 2442.5647 3094583
1705.7651 653.96405 2446.8357 3094583
1720.2865 653.65674 2445.6858 3028790
1740.1235 655.35681 2452.0466 3094583
1768.8662 660.35181 2470.7356 3028790
1787.1271 661.38092 2474.5862 3028790
1802.6311 661.38092 2474.5862 3028790
1816.1006 660.64081 2471.8169 3094583
1834.5482 661.70886 2475.813 3028790
1847.5276 660.8031 2472.4241 3028790
1863.8054 661.0824 2473.469 2897204
1883.0995 662.41803 2478.4663 3028790
1914.9701 668.11969 2499.7996 3094583
1933.4015 669.07806 2503.3853 3094583
1956.4467 671.60486 2512.8394 3291705
1977.1838 673.3053 2519.2017 3290935
1983.4961 670.10553 2507.2295 3093813
2007.1118 672.75592 2517.146 3093813
2028.1912 674.52142 2523.7517 3094070
2052.2854 677.25452 2533.9778 3356985
2072.8975 678.8053 2539.7803 3093813
2084.1982 677.3067 2534.1731 2896434
2100.0757 677.3067 2534.1731 2764848
2123.7812 679.8125 2543.5486 2764848
2152.3611 683.82959 2558.5786 2830898
2175.0769 685.93781 2566.4668 2764848
2202.8657 689.60339 2580.1816 2567469
2219.0312 689.60339 2580.1816 2633262
2218.5681 684.47302 2560.9863 2896434
2229.9741 683.05194 2555.6692 3028020
2236.7849 680.2536 2545.1992 3422778
2252.7312 680.2536 2545.1992 3422521
2250.0881 674.67963 2524.3438 3356728
2261.9717 673.50879 2519.9631 3422778
2284.4309 675.48132 2527.3433 3356985
2295.2966 674.02222 2521.884 3356985
2298.8232 670.44257 2508.4907 3159350
2298.4326 665.77686 2491.0337 2831667
2307.5549 663.91113 2484.053 2700082
2322.7466 663.80493 2483.6558 2305324
2325.927 660.29034 2470.5056 2962997
2349.3528 662.53149 2478.8911 3291962
2369.9434 663.94897 2484.1946 3028790
2387.3135 664.45154 2486.075 2831411
2393.9854 661.98938 2476.8628 2765618
2406.6455 661.2041 2473.9246 2765618
2427.531 662.67432 2479.4253 2831667
2444.4927 663.0614 2480.8738 2962744
2458.4097 662.62311 2479.2339 2831157
2474.7771 662.84656 2480.0698 2699571
2492.8936 663.53271 2482.6372 2699571
2509.0073 663.68066 2483.1907 2633778
2535.647 666.59393 2494.0908 2634035
2551.5496 666.66608 2494.3608 2567985
nan nan nan 16777215
nan nan nan 16777215
nan nan nan 16777215
nan nan nan 16777215
nan nan nan 16777215
nan nan nan 16777215
nan nan nan 16777215
nan nan nan 16777215
nan nan nan 16777215
nan nan nan 16777215
-2198.9094 658.67426 2408.3025 3555647
-2190.2576 660.61572 2415.4009 3226426
-2165.8372 657.79504 2405.0879 2897461
-2150.7791 657.79834 2405.0999 3292475
-2135.7104 657.79834 2405.0999 3358012
-2108.3408 653.98273 2391.1489 3226426
-2112.6174 659.99908 2413.1465 3029047
-2098.9062 660.44208 2414.7661 2963256
-2078.9185 658.90222 2409.1357 3160633
-2055.2729 656.172 2399.1536 3358012
-2030.7449 653.1178 2387.9863 3358012
-2011.1428 651.6142 2382.4888 3423805
-1991.4186 650.04828 2376.7634 3555391
-1983.8159 652.44537 2385.5278 3621184
-1972.0414 653.4964 2389.3706 3555391
-1955.4117 652.94226 2387.3445 3621184
-1937.3739 651.9057 2383.5547 3621184
-1921.6832 651.64899 2382.616 3687234
-1912.2649 653.53192 2389.5005 3753283
-1897.1096 653.46851 2389.2686 3884869
-1875.7823 651.26105 2381.1975 3950919
-1855.4041 649.3504 2374.2117 3950662
-1844.9749 650.91895 2379.9468 4016712
-1828.9049 650.50671 2378.4397 4411213
-1802.3542 646.32947 2363.1663 4082248
-1787.5483 646.32947 2363.1663 3884869
-1774.9965 647.15131 2366.1711 3885126
-1757.8975 646.31506 2363.1138 3950919
-1738.6893 644.6828 2357.1455 3753283
-1722.2604 644.06171 2354.8748 3621697
-1714.3715 646.65125 2364.3428 3621697
-1699.5582 646.65125 2364.3428 3424575
-1683.0646 646.00629 2361.9846 3292732
-1671.3883 647.21533 2366.4053 3489854
-1657.4506 647.5625 2367.6746 3555391
-1632.3696 643.52295 2352.9048 3489598
-1610.2433 640.58521 2342.1636 3160633
-1593.3054 639.67639 2338.8408 2963255
-1579.0481 639.83698 2339.428 3292472
-1563.7253 639.56482 2338.4329 3292473
-1549.9302 639.91809 2339.7246 3358266
-1538.1865 641.1333 2344.1677 3687231
-1522.7687 640.82574 2343.0432 3621438
-1509.282 641.33276 2344.897 3226680
-1497.3403 642.51276 2349.2114 3687231
-1482.6219 642.51276 2349.2114 3620925
-1475.6803 645.91687 2361.6577 3291961
-1458.882 645.03174 2358.4214 3226167
-1444.6477 645.2738 2359.3066 3160374
-1426.7214 643.8548 2354.1182 2897202
-1408.8733 642.44171 2348.9514 2897459
-1395.1494 642.89929 2350.6248 2962995
-1383.9388 644.53723 2356.6133 3029045
-1380.509 649.87317 2376.123 3160374
-1357.823 646.16187 2362.5535 3094581
-1339.8689 644.64532 2357.0085 2831409
-1331.8007 647.90436 2368.9246 3357496
-1313.1821 646.04645 2362.1316 3555132
-1300.0289 646.86566 2365.1267 3424059
-1285.2107 646.86566 2365.1267 3358010
-1289.1586 656.42108 2400.0642 3621181
-1274.1215 656.42108 2400.0642 3621182
-1253.6388 653.58209 2389.6841 3292217
-1239.8383 654.2002 2391.9441 2568494
-1226.8636 655.27466 2395.8726 2897458
-1214.0768 656.47729 2400.2698 3292217
-1195.0216 654.2782 2392.229 3291960
-1179.0828 653.75092 2390.3013 3225910
-1159.3929 651.1037 2380.6223 3357753
-1146.6162 652.32037 2385.0708 3225911
-1122.978 647.30841 2366.7456 3357753
-1108.3239 647.41016 2367.1177 3489338
-1093.3274 647.31201 2366.7588 3291960
-1078.024 647.02698 2365.7168 3292473
-1070.6593 651.56525 2382.3098 3160887
-1060.9141 654.76251 2394 3884610
-1046.1841 654.93103 2394.6162 3884610
-1025.4846 651.31311 2381.3879 3621438
-1018.1966 656.23199 2399.3728 3687231
-1003.4971 656.45007 2400.1702 3818818
-1000.4532 664.41541 2429.2937 3424575
-980.58185 661.27881 2417.8254 3161403
-960.76172 658.07892 2406.1257 3490111
-955.89874 665.1853 2432.1086 2700595
-940.66083 665.1853 2432.1086 2897974
-939.87268 675.57166 2470.0842 3753283
-924.39685 675.57166 2470.0842 3687490
-907.13147 674.24152 2465.2209 3819076
-886.12329 670.03528 2449.8416 3819333
-876.43658 674.39227 2465.772 3950662
-858.59155 672.51532 2458.9094 3885125
-849.54767 677.58954 2477.4622 3819333
-833.20526 676.92316 2475.0256 4213833
-808.21002 669.06824 2446.3057 4674642
-795.54889 671.31763 2454.5303 5069400
-778.37604 669.77362 2448.8848 4543058
-762.39526 669.21381 2446.8379 4674387
-742.11725 664.78162 2430.6326 4477009
-733.03912 670.40662 2451.1992 4016458
-714.1098 667.07007 2439 4082250
-692.21503 660.75702 2415.9175 4279630
-682.68311 666.22638 2435.9153 4740181
-669.33521 668.13684 2442.9004 4674387
-656.42371 670.58252 2451.8425 3621698
-646.41644 676.18329 2472.3206 3753283
-626.61322 671.56061 2455.4185 3753283
-610.77454 671.06097 2453.5918 3490111
-595.96478 671.69525 2455.9109 3555904
-581.44702 672.70099 2459.5881 3753026
-562.8056 668.86072 2445.5471 3753026
-547.87207 669.33551 2447.283 3818564
-534.09137 671.28644 2454.4163 3686977
-517.69043 669.96222 2449.5745 3621184
-498.95749 665.44696 2433.0654 3620927
-479.82257 660.09406 2413.4937 3029047
-466.08502 662.05963 2420.6804 3621441
-450.02039 660.74066 2415.8579 3884356
-433.61716 658.81543 2408.8186 3818563
-413.26181 650.53021 2378.5254 3621184
-399.65259 652.64172 2386.2456 3489598
-385.52258 654.03375 2391.3354 3160633
-370.54013 654.03375 2391.3354 3029047
-356.8212 656.35803 2399.8335 2963254
-342.1998 657.15356 2402.7424 2831668
-326.86697 656.59338 2400.6941 3489598
-311.79752 656.53363 2400.4756 3752770
-299.88162 663.44464 2425.7444 4279114
-284.95389 664.07458 2428.0476 4015942
-264.50497 651.18304 2380.9124 3555391
-250.96442 654.7746 2394.0442 3686977
-239.02364 663.26196 2425.0764 4410700
-222.04152 657.96295 2405.7017 3818563
-206.96906 657.96295 2405.7017 3621184
-192.2758 659.26318 2410.4556 3226426
-176.343 656.17273 2399.156 2963509
-159.88693 650.37775 2377.968 3358011
-142.5139 639.27856 2337.3862 3555390
-127.9071 639.4668 2338.0745 3489852
-112.33636 634.26123 2319.0415 2963507
-97.629219 633.10938 2314.8298 2897202
-83.898529 638.99243 2336.3401 3226423
-69.227776 638.68927 2335.2317 3226167
-55.010727 643.53125 2352.9353 3357753
-40.142086 641.50531 2345.5278 3357752
-25.441025 641.36414 2345.0115 3357753
-10.823811 645.83984 2361.376 3160374
3.9651868 644.90363 2357.9531 2765616
18.807741 647.28687 2366.6667 2502443
33.666489 647.88049 2368.8372 2568237
48.724915 650.77777 2379.4304 2371115
63.556301 649.99554 2376.5706 2568238
78.661781 651.78137 2383.1001 2963253
94.101372 655.32422 2396.0537 2963253
109.43501 657.25586 2403.1162 2831411
124.90104 659.41913 2411.0259 3094582
140.28467 660.7276 2415.8101 3094839
155.76752 662.20294 2421.2043 3094840
170.7702 661.5564 2418.8403 3160890
185.2814 659.26636 2410.4673 2963254
200.21292 658.70435 2408.4126 3029047
215.03134 657.87518 2405.3809 2831668
230.10179 657.87518 2405.3809 2700082
247.98766 665.42981 2433.0027 2831668
263.23117 665.42981 2433.0027 2963255
277.96875 664.22089 2428.5825 2963254
293.80115 665.61774 2433.6897 3094840
308.33499 664.08002 2428.0674 2962995
322.62915 662.19495 2421.175 2897202
337.22458 661.06976 2417.061 3094581
351.52554 659.48883 2411.2808 2831409
365.77106 657.93848 2405.6121 2502957
381.76376 659.52917 2411.4282 2568750
396.56445 659.01794 2409.5591 2897459
410.22229 656.7146 2401.1375 2502957
424.59097 655.67188 2397.325 2634546
438.59799 654.16113 2391.801 2502702
453.1973 653.60425 2389.7651 2371117
470.31 656.59204 2400.6892 2831925
486.45654 658.08752 2406.1572 2831667
499.27219 655.1225 2395.3162 2765875
514.32959 655.18622 2395.5491 2634543
529.64099 655.56067 2396.9182 2568751
547.68781 659.20691 2410.25 2700337
564.10425 660.7478 2415.8838 2766387
573.93134 654.69147 2393.7402 3095096
591.14545 657.15558 2402.7498 3095096
606.22833 657.18695 2402.8643 3029046
622.716 658.7027 2408.4065 2897716
641.94183 662.97467 2424.0259 3160633
655.7179 661.5509 2418.8203 3292476
672.849 663.49994 2425.9465 3094840
691.34454 666.67853 2437.5684 3160633
708.3161 668.28192 2443.4309 3094841
719.52924 664.49945 2429.6011 3160633
734.75146 664.49945 2429.6011 3226426
748.5498 663.23785 2424.9883 3226426
770.02905 668.69659 2444.947 3423805
786.96136 670.07086 2449.9717 3358012
798.9649 667.27606 2439.7532 3358012
815.79895 668.54492 2444.3923 3423805
838.78345 674.71429 2466.9495 3555391
841.77997 664.87311 2430.9673 4147528
862.0307 668.76764 2445.2068 3950149
877.35065 668.76764 2445.2068 3621184
883.95007 662.23438 2421.3193 3555391
902.62079 664.81256 2430.7458 3621184
924.60675 669.70648 2448.6394 2963255
932.8855 664.67432 2430.2402 2963254
944.35925 662.04364 2420.6218 3358012
956.35791 659.85828 2412.6316 3621440
971.47382 659.85828 2412.6316 3818563
974.42578 651.72272 2382.8857 3423805
991.88885 653.39172 2388.9878 3423806
1017.6337 660.38538 2414.5588 3555392
1025.9189 656.01001 2398.561 3686977
1041.3798 656.28278 2399.5586 3950149
1044.6492 648.9743 2372.8367 3818563
1072.9822 657.22272 2402.9951 3752770
1084.1515 654.87531 2394.4124 3160633
1096.2148 653.12463 2388.0115 3489598
1102.4293 647.98322 2369.2129 3423805
1118.2043 648.52325 2371.1875 3358012
1130.4976 647.05634 2365.824 3489598
1142.6478 645.54651 2360.3037 3292219
1157.0514 645.33203 2359.5195 3094840
1172.0022 645.42444 2359.8574 3160377
1186.192 645.10071 2358.6736 3028789
1199.1235 644.10895 2355.0474 2963252
1213.2814 643.79205 2353.8887 2962995
1238.9746 649.53009 2374.8687 3226167
1248.9412 646.98517 2365.5637 3226167
1263.6753 646.94067 2365.4011 3555132
1272.1294 643.71942 2353.6233 3489339
1275.0863 637.8222 2332.0613 3291960
1297.5309 641.69635 2346.2263 2897461
1313.1327 642.13739 2347.8389 2897204
1329.0957 642.74335 2350.0544 3160376
1344.1046 642.8797 2350.553 3094583
1359.0774 642.99603 2350.9783 2963254
1376.5316 644.27124 2355.6409 2897204
1390.8987 644.08978 2354.9775 3160376
1414.6416 648.20837 2370.0361 3291962
1439.7109 652.84283 2386.981 3160633
1444.1117 648.10608 2369.6621 2831411
1447.2292 642.89569 2350.6116 2897204
1461.9565 642.89569 2350.6116 3160376
1475.6991 642.46698 2349.0439 3291962
1493.0231 643.59058 2353.1521 3160376
1512.8755 645.77142 2361.126 2831668
1533.3092 648.15576 2369.8438 3226169
1548.1571 648.15576 2369.8438 3489341
1552.5239 643.80945 2353.9524 3291962
1562.5957 641.88843 2346.9287 3357755
1580.0709 643.01611 2351.0518 3226169
1602.2076 646.00244 2361.9707 3160376
1620.9358 647.57239 2367.7107 3226169
1634.5244 647.07922 2365.9075 3028790
1653.9958 648.90277 2372.5752 2897461
1666.8855 648.13477 2369.7671 2831411
1684.1351 649.06061 2373.1521 2831411
1704.2936 651.08148 2380.541 2765618
1719.3068 651.11884 2380.6775 2831411
1736.5308 651.98535 2383.8459 2897204
1755.9996 653.67291 2390.0161 2831668
1770.1735 653.3775 2388.936 2634032
1786.1812 653.7583 2390.3281 2634032
1806.7076 655.77289 2397.6941 2568239
1827.7098 657.92542 2405.5645 2897204
1842.7814 657.92542 2405.5645 3028790
1866.0226 660.81854 2416.1426 2897204
1886.458 662.6795 2422.9468 3094326
1898.3629 661.53802 2418.7732 3159606
1926.6277 666.0705 2435.3452 2962227
1949.0559 668.52985 2444.3374 3028020
1974.3743 671.93445 2456.7854 3291192
2002.8528 676.35352 2472.9429 3488571
2016.9592 675.88855 2471.2429 3488571
2038.2395 677.81647 2478.2917 3291192
2044.6016 674.79163 2467.2322 3093813
2068.5054 677.55817 2477.3474 3028277
2078.8772 675.88391 2471.2258 3093813
2096.4275 676.55109 2473.6653 3028020
2111.9258 676.55109 2473.6653 3093813
2127.3481 676.52698 2473.5771 3093813
2148.7393 678.38751 2480.3799 3159606
2166.4768 679.07623 2482.8979 3422778
2177.7437 677.74139 2478.0173 3356985
2180.6995 673.85724 2463.8157 2962227
2181.9285 669.49786 2447.8765 2830641
2199.8679 670.29083 2450.7759 2830641
2218.8599 671.39136 2454.7998 3093813
2221.1575 667.46008 2440.4258 3159606
2234.7126 666.94238 2438.533 3093557
2251.7014 667.44934 2440.3867 2831667
2253.1023 663.36017 2425.4355 2765875
2256.9089 660.02936 2413.2571 2765875
2267.8994 658.82977 2408.8711 2897204
2271.7961 655.59888 2397.0581 2699825
2299.9751 659.37183 2410.853 2568239
2308.2732 657.43323 2403.7649 2634032
2325.3633 658.00763 2405.865 2765618
2341.2588 658.23871 2406.71 2634032
2367.4443 661.34143 2418.0542 2700081
2389.2773 663.19647 2424.8369 2633779
2385.437 657.9469 2405.6428 2699571
2406.0496 659.46545 2411.1953 2633778
2422.7517 659.89996 2412.7839 2567985
2444.824 661.78265 2419.6677 2633778
2464.6946 663.04987 2424.301 2633778
2467.0842 659.62781 2411.7888 2633778
nan nan nan 16777215
nan nan nan 16777215
nan nan nan 16777215
nan nan nan 16777215
nan nan nan 16777215
nan nan nan 16777215
nan nan nan 16777215
nan nan nan 16777215
nan nan nan 16777215
nan nan nan 16777215
-2129.4019 652.38806 2332.176 3621184
-2118.7537 653.61078 2336.5471 3686977
-2124.3201 659.88739 2358.9849 3818820
-2109.5405 659.88739 2358.9849 3687233
-2091.1609 658.75342 2354.9312 3160633
-2070.0979 656.75201 2347.7764 3094840
-2056.8264 657.21149 2349.4189 3094839
-2040.0275 656.54236 2347.0269 3358014
-2007.3617 650.71997 2326.2129 3555392
-1998.9938 652.74664 2333.458 3621184
-1979.9161 651.28027 2328.2158 3686977
-1968.8289 652.44 2332.3618 3555135
-1954.2158 652.44 2332.3618 3686977
-1927.6454 648.41785 2317.9832 3686977
-1916.8252 649.67273 2322.4692 3752770
-1900.4207 649.03973 2320.2063 3752770
-1883.2068 648.11835 2316.9126 3818563
-1868.7413 648.13599 2316.9756 3686977
-1854.674 648.29303 2317.5369 3752771
-1840.1539 648.29303 2317.5369 3884612
-1824.1593 647.76947 2315.6653 3950405
-1804.1062 645.78473 2308.5701 4016199
-1802.9771 650.59644 2325.7712 3884356
-1769.9957 643.89929 2301.8301 3555391
-1749.1039 641.52618 2293.3467 3226426
-1743.4039 644.73193 2304.8066 3423805
-1744.8138 650.64252 2325.936 3686721
-1718.6726 646.29224 2310.3845 3555391
-1693.6218 642.28168 2296.0474 3358012
-1676.1796 641.11249 2291.8677 3292219
-1659.8645 640.35797 2289.1704 3423805
-1647.4159 641.09491 2291.8049 3489598
-1632.8658 641.0199 2291.5366 3358012
-1602.0676 634.50824 2268.2588 3094840
-1593.1438 636.62115 2275.812 3094840
-1580.9414 637.45032 2278.7761 3226426
-1559.7021 634.61755 2268.6494 3029047
-1546.832 635.16931 2270.6218 3094840
-1538.9573 637.80157 2280.0317 3358265
-1528.7192 639.49451 2286.0837 3489852
-1512.1868 638.56152 2282.7485 3489852
-1500.8649 639.83203 2287.2903 3621438
-1485.4277 639.35577 2285.5876 3489852
-1473.0826 640.21405 2288.656 3292473
-1461.9625 641.62677 2293.7063 3555645
-1447.5918 641.62677 2293.7063 3489339
-1430.9966 640.63098 2290.1465 3357753
-1416.6482 640.63098 2290.1465 3291960
-1411.1354 644.66754 2304.5764 3028788
-1387.0135 640.19824 2288.5994 2765873
-1371.9596 639.86462 2287.407 2831409
-1358.9286 640.47754 2289.5979 3028788
-1344.5836 640.47754 2289.5979 3028788
-1334.4476 642.50409 2296.8425 3094581
-1319.2839 642.12775 2295.4971 3028788
-1306.7129 643.01892 2298.6829 3028788
-1292.6772 643.20111 2299.3342 2897202
-1276.3541 642.23651 2295.886 3226167
-1266.5653 644.57532 2304.2468 3423802
-1258.3676 647.78711 2315.7283 3358009
-1252.5544 652.31567 2331.9172 3489852
-1253.2589 660.3855 2360.7654 3489596
-1239.9371 661.16888 2363.5659 2897716
-1210.1149 653.06635 2334.6008 3160630
-1192.4164 651.38843 2328.6025 3291959
-1177.4816 651.19751 2327.9199 3291960
-1158.291 648.61847 2318.7004 3292216
-1149.353 651.78821 2330.0315 3160631
-1145.0092 657.67822 2351.0874 3160631
-1124.7965 654.48828 2339.6838 3555388
-1104.8907 651.3949 2328.6255 3555388
-1090.3011 651.3949 2328.6255 3555645
-1069.1902 647.4458 2314.5083 3424059
-1054.9663 647.61597 2315.1167 3358266
-1045.2029 650.56726 2325.667 4016196
-1033.0188 652.07391 2331.053 3950660
-1018.4801 652.11627 2331.2043 3687488
-1004.7043 652.6554 2333.1318 3621438
-993.67792 655.02283 2341.5947 3621695
-983.52789 658.04755 2352.4077 3753282
-968.78931 658.04755 2352.4077 3687490
-955.73975 659.21252 2356.5723 3621954
-940.84637 659.12231 2356.2498 3555904
-925.07751 658.40613 2353.6897 3490111
-912.47656 659.95801 2359.2373 3884869
-899.68677 661.42218 2364.4714 4148041
-883.8692 660.67212 2361.79 4279627
-872.31854 663.14026 2370.6133 4279627
-859.25928 664.52722 2375.5713 4214604
-845.92859 665.74939 2379.9404 4148812
-829.81927 664.78949 2376.509 4148813
-821.00446 669.74506 2394.2241 4148813
-801.18958 665.74463 2379.9233 4675414
-781.67267 661.84473 2365.9819 4741206
-766.83002 661.82825 2365.9231 4346448
-757.11646 666.32526 2381.999 4543828
-741.07983 665.32629 2378.428 4215120
-729.1344 668.03479 2388.1104 4346448
-715.89252 669.64398 2393.863 4411985
-689.14398 658.41766 2353.7307 4280399
-672.98035 657.03442 2348.7859 4148812
-662.46332 661.2254 2363.7681 4609363
-646.49231 660.03986 2359.5298 4083276
-627.03534 655.15649 2342.0725 3885382
-616.31427 659.38544 2357.1904 3819076
-602.62927 660.57312 2361.4363 3950919
-585.28644 657.71008 2351.2014 3884869
-576.10944 664.11255 2374.0889 3555904
-562.27515 665.34338 2378.489 3753283
-543.93317 661.16193 2363.541 3753283
-532.33472 665.17279 2377.8792 3029816
-512.25397 658.51044 2354.0625 3489598
-498.89102 660.34497 2360.6206 3621184
-484.46054 660.83545 2362.374 3489598
-471.72269 663.7384 2372.7515 3818563
-450.63425 654.69818 2340.4343 3752770
-441.24588 662.62 2368.7534 3226426
-425.84491 661.74982 2365.6426 2765875
-406.56439 654.57068 2339.9785 2831668
-391.90369 654.57068 2339.9785 3094840
-376.60837 653.46948 2336.042 3029047
-366.70242 662.00879 2366.5684 3621184
-350.5311 659.4801 2357.5288 3423805
-336.67017 661.26691 2363.9163 2963254
-320.39218 658.25226 2353.1394 3686976
-302.42389 651.30658 2328.3098 3818563
-289.21051 654.41602 2339.4255 3555391
-274.93457 655.32489 2342.6746 3621184
-261.09052 657.42371 2350.1775 3555647
-247.07277 659.30994 2356.9204 3423805
-230.69287 654.73187 2340.5547 3686977
-215.93472 654.44739 2339.5378 3949893
-201.27681 654.44739 2339.5378 3950149
-185.39639 650.16034 2324.2122 3752770
-170.53059 649.00385 2320.0779 3621438
-153.38786 638.15875 2281.3086 3358266
-139.48566 639.95215 2287.7197 3687231
-123.92677 633.68512 2265.3162 3818817
-109.88534 634.55994 2268.4434 2963508
-95.604492 634.10657 2266.8228 2963507
-81.589256 635.56409 2272.0332 3357753
-67.961761 641.29657 2292.5259 3291960
-54.001968 646.12549 2309.7883 3357753
-39.190441 640.56842 2289.9226 3489083
-25.140642 648.23346 2317.324 3028788
-10.630687 648.77032 2319.2432 2699823
3.84286 639.25 2285.2097 2568237
18.259624 642.74255 2297.6948 2502444
33.006557 649.6543 2322.4033 2634030
47.754314 652.34784 2332.0322 2634543
62.397629 652.68689 2333.2441 2700079
77.253853 654.70148 2340.446 2963252
92.858727 661.40582 2364.4128 3094838
106.83528 656.26294 2346.0281 3029045
121.83625 657.89563 2351.8647 3094837
136.50179 657.5603 2350.6658 2831668
151.22943 657.5603 2350.6658 2765875
166.00041 657.73193 2351.2795 2897461
180.60123 657.25635 2349.5793 2831668
194.86737 655.72632 2344.1096 2962998
208.59119 652.71368 2333.3401 3226424
225.29556 658.81146 2355.1387 3160888
240.3961 659.758 2358.5222 3095095
253.70766 655.96936 2344.9785 3029302
269.1651 657.84009 2351.666 3160631
283.55627 657.04584 2348.8267 3226167
298.00574 656.45844 2346.7268 2962995
313.24097 657.57574 2350.7212 3028532
327.96896 657.57574 2350.7212 3028788
341.89246 656.03204 2345.2026 2963252
356.61816 656.09149 2345.415 2897972
369.77051 653.36615 2335.6724 2897971
384.92703 654.2547 2338.8489 2568750
399.71637 654.47699 2339.6436 2634800
413.3324 652.83026 2333.7568 2766386
428.67795 653.93445 2337.7041 2437164
440.91269 650.37708 2324.9871 2437164
454.92731 649.58862 2322.1685 3160630
471.22733 652.01129 2330.8291 2568752
487.48181 654.22717 2338.7505 2437420
502.73627 655.01086 2341.552 2502957
517.90942 655.64703 2343.8264 2634286
532.59418 655.64703 2343.8264 2765360
544.73193 652.5957 2332.9182 2568237
561.95789 655.6402 2343.8018 2699567
574.35266 653.03662 2334.4944 3028532
589.3053 653.39844 2335.7878 3160374
605.00476 654.55066 2339.907 3028788
621.4425 656.42822 2346.6189 2962995
637.41138 657.73517 2351.291 2897201
653.09167 658.69208 2354.7117 3028787
668.54785 659.38556 2357.1909 2962994
684.36511 660.39758 2360.8086 2831409
702.10052 663.17859 2370.7502 2897202
717.34546 663.54065 2372.0447 2962995
729.62354 661.1994 2363.675 2897203
749.5506 665.74518 2379.9253 3160377
758.72723 660.75122 2362.073 3292476
773.45221 660.68793 2361.8467 3292219
787.03516 659.6698 2358.2068 3489598
796.26837 655.11053 2341.9082 3423805
818.52209 661.23462 2363.801 3489598
833.33203 661.23462 2363.801 3489598
859.95923 670.44769 2396.7361 3752770
859.26556 658.40997 2353.7034 3884356
873.36981 657.92609 2351.9734 3423805
891.53119 660.46375 2361.0452 3423548
899.43567 655.44409 2343.1008 3226169
923.29352 662.02472 2366.6252 3292219
931.87933 657.61981 2350.8787 3292476
941.82288 654.29529 2338.9941 3160633
947.08051 647.86725 2316.0149 3160633
947.86194 638.61731 2282.948 3094583
961.05981 637.88361 2280.325 3292219
990.04871 647.49878 2314.6975 3555391
1001.7552 645.69672 2308.2556 3555134
1012.4872 643.32672 2299.7832 3424062
1028.5349 644.35345 2303.4536 3226425
1046.5345 646.55762 2311.3333 3095096
1062.3685 647.38196 2314.28 3292475
1082.2157 650.59674 2325.7722 3226682
1093.6155 648.71521 2319.0461 3291963
1108.145 648.71521 2319.0461 3489854
1112.6381 642.91577 2298.3142 3423804
1124.9751 641.7392 2294.1082 3095096
1139.9316 642.06769 2295.2825 3226169
1147.7739 638.43079 2282.2812 3094583
1160.5542 637.59631 2279.2981 3029045
1176.2144 638.34509 2281.9749 2962995
1195.0576 640.78259 2290.6885 3160374
1225.0248 649.05603 2320.2646 3620925
1239.5619 649.05603 2320.2646 3949890
1242.101 642.84644 2298.0664 3620925
1252.1473 640.62 2290.1072 3160374
1266.7343 640.74078 2290.5391 3028790
1287.9854 644.19196 2302.8762 3028790
1307.572 646.74341 2311.9973 3357755
1310.62 641.14825 2291.9956 3291962
1324.34 640.83856 2290.8884 3028790
1346.1464 644.40643 2303.6431 3357755
1360.5795 644.40643 2303.6431 3357755
1375.0304 644.41486 2303.6731 3291962
1386.2537 642.92609 2298.3511 3160376
1399.6411 642.46136 2296.6897 3226169
1414.6019 642.72095 2297.6177 3489341
1431.4158 643.80872 2301.5063 3226169
1445.8353 643.80872 2301.5063 3094840
1454.2809 641.1748 2292.0906 2962997
1483.3396 647.59167 2315.0295 2765875
1496.108 646.84119 2312.3467 2765618
1508.9471 646.13525 2309.8232 2765618
1517.8756 643.78412 2301.4185 3226169
1532.2948 643.78412 2301.4185 3489341
1539.6628 640.8493 2290.927 3160376
1564.1764 645.03918 2305.905 2831411
1582.4686 646.61035 2311.5215 3291962
1599.5398 647.65857 2315.2688 3160633
1619.2589 649.75043 2322.7468 2831668
1632.6346 649.28229 2321.0735 2699825
1648.8557 649.94409 2323.4392 2699825
1662.4924 649.58441 2322.1536 2765618
1675.351 648.92969 2319.813 2831411
1711.3141 657.15851 2349.2295 2699825
1718.9775 654.47235 2339.627 2568239
1723.9198 650.80438 2326.5146 2765618
1742.5625 652.32654 2331.9561 2765618
1762.1847 654.18707 2338.6072 2634032
1781.3372 655.84406 2344.5305 2699825
1799.0229 656.93823 2348.4421 2765618
1813.8811 656.9906 2348.6294 2568239
1825.0016 655.69922 2344.0127 2896947
1856.4279 661.66571 2365.342 3093813
1871.276 661.67584 2365.3782 3159606
1886.7377 661.901 2366.1831 3094070
1921.3204 668.77838 2390.7686 3225399
1942.5609 670.9411 2398.5 3291192
1959.6965 671.66364 2401.083 3422778
1974.5698 671.60577 2400.876 3291192
1988.3459 671.17841 2399.3481 3028020
1995.2352 668.45013 2389.5952 2962227
2012.4893 669.20917 2392.3086 3028020
2041.7678 673.92584 2409.1699 3356985
2055.8997 673.61053 2408.0427 3488571
2049.1704 666.51453 2382.6758 3225399
2073.752 669.63165 2393.8188 3159606
2092.9836 670.98895 2398.6709 3225399
2106.1128 670.38434 2396.5098 3291192
2104.7708 665.21478 2378.0293 3225399
2118.4099 664.81934 2376.6157 3028277
2132.6245 664.60883 2375.8633 2896434
2147.4731 664.59741 2375.8223 3028020
2161.002 664.18054 2374.332 2962484
2170.979 662.68518 2368.9863 3093557
2183.9253 662.11023 2366.9312 2897460
2193.2559 660.45435 2361.0115 3094583
2217.1348 663.17212 2370.7273 3094583
2226.2312 661.46167 2364.6125 2831411
2228.6924 657.81537 2351.5776 2765618
2240.1416 656.85242 2348.1353 2765618
2258.7607 657.99066 2352.2043 2765618
2273.498 657.99066 2352.2043 2765618
2282.1228 656.23297 2345.9209 2634289
2301.5095 657.57263 2350.71 2502445
2312.8462 656.6098 2347.2681 2567729
2330.3262 657.39227 2350.0652 2502192
2349.8391 658.73486 2354.8647 2436399
2364.5933 658.73486 2354.8647 2304813
2381.0815 659.21509 2356.5813 2304813
2395.866 659.2204 2356.6006 2370606
2409.708 658.96814 2355.6985 2567985
nan nan nan 16777215
nan nan nan 16777215
nan nan nan 16777215
nan nan nan 16777215
nan nan nan 16777215
nan nan nan 16777215
nan nan nan 16777215
nan nan nan 16777215
nan nan nan 16777215
nan nan nan 16777215
-2066.0767 647.08929 2262.8206 3884356
-2068.3442 652.27539 2280.9561 4147528
-2060.9314 654.45953 2288.5938 4147785
-2059.6094 658.62201 2303.1497 3884356
-2040.5248 657.12305 2297.908 3753027
-2001.615 649.17303 2270.1072 3884356
-1987.3922 649.17303 2270.1072 3752770
-1972.7145 649.02344 2269.5842 3686980
-1959.7551 649.44104 2271.0444 3686977
-1943.6342 648.80939 2268.8357 3621184
-1928.9438 648.6496 2268.2769 3489854
-1923.5671 651.64246 2278.7427 3621441
-1902.3444 649.27197 2270.4531 3753026
-1886.3973 648.67987 2268.3826 3753027
-1868.9852 647.57104 2264.5054 3687490
-1842.1281 643.14771 2249.0374 3753283
-1826.6407 642.65643 2247.3193 3818819
-1820.2617 645.38696 2256.8677 3621698
-1804.0167 644.63477 2254.2373 3621697
-1777.4705 640.16064 2238.5918 3686977
-1764.2015 640.4353 2239.5522 3621184
-1750.1702 640.4353 2239.5522 3621184
-1725.8987 636.65802 2226.3433 3489854
-1709.7324 635.83337 2223.4595 3292219
-1698.4713 636.83423 2226.9595 3621184
-1684.0363 636.65186 2226.3218 3555391
-1672.9758 637.75287 2230.1719 3292219
-1653.0728 635.47314 2222.1997 3094840
-1638.1464 635.08405 2220.8391 3160633
-1625.1317 635.43579 2222.0691 3226426
-1611.2097 635.43579 2222.0691 3292475
-1606.0066 638.90424 2234.1982 3686977
-1576.3275 632.61115 2212.1917 3423805
-1564.9281 633.60742 2215.6755 3094840
-1561.1597 637.73877 2230.1226 3358012
-1547.3623 637.81097 2230.375 3358012
-1532.6013 637.48358 2229.2302 3489598
-1517.484 637.00061 2227.5413 3357756
-1508.8527 639.25659 2235.4304 3358265
-1495.7192 639.6297 2236.7349 3621438
-1481.7054 639.6297 2236.7349 3621438
-1469.605 640.4635 2239.6509 3555645
-1457.2344 641.19458 2242.2073 3489852
-1437.1971 638.53369 2232.9023 3555389
-1423.6216 638.71954 2233.5522 3489852
-1409.6276 638.71954 2233.5522 3423546
-1395.1014 638.47589 2232.7002 3226167
-1382.3691 639.0567 2234.7312 3226167
-1375.0088 642.1582 2245.5769 3160374
-1363.2701 643.25787 2249.4224 3029045
-1340.0934 638.92706 2234.2778 2831666
-1326.0948 638.92706 2234.2778 2897202
-1312.6002 639.1723 2235.1355 2962995
-1302.7212 641.20258 2242.2351 3094581
-1283.5632 638.66016 2233.3445 3226167
-1269.7009 638.72565 2233.5737 3095094
-1254.2781 637.9989 2231.0322 2963507
-1232.8439 634.16357 2217.6204 3226680
-1217.6465 633.48547 2215.2493 3818818
-1209.1808 636.33441 2225.2117 3555645
-1207.6365 642.93463 2248.292 3358266
-1201.5452 647.24127 2263.3521 3358010
-1203.0203 655.77533 2293.1951 3226424
-1175.9779 648.78265 2268.7422 3358009
-1155.6456 645.36621 2256.7952 3621181
-1135.3002 641.8576 2244.5259 3357753
-1130.0148 646.88214 2262.0962 3226424
-1120.3491 649.49506 2271.2334 3226423
-1113.7181 653.95697 2286.8364 3292473
-1106.9114 658.43073 2302.4807 3884610
-1092.4856 658.43073 2302.4807 3884610
-1064.4948 650.14581 2273.509 3687231
-1037.458 642.22675 2245.8167 3424059
-1024.8126 643.12122 2248.9446 3358266
-1012.4986 644.25146 2252.897 4016452
-1006.6976 649.61658 2271.6582 3819074
-989.36768 647.58923 2264.5688 3555902
-975.30017 647.66937 2264.8491 3555645
-962.7063 648.74493 2268.6104 3555645
-960.60663 657.03052 2297.5845 3621696
-951.01514 660.36609 2309.2485 4016455
-930.81226 656.32251 2295.1084 4213834
-909.24304 651.17346 2277.1025 4279627
-892.30597 649.23053 2270.3083 3819076
-885.17993 654.47882 2288.6611 3950662
-870.84082 654.47882 2288.6611 4345420
-859.54944 656.80768 2296.8052 4213834
-843.96411 655.87885 2293.5571 4213834
-827.55829 654.26929 2287.9285 4279627
-817.26367 657.51959 2299.2944 4017225
-804.55908 658.91278 2304.1665 4017225
-796.4613 664.19873 2322.6511 4017482
-781.15082 663.55463 2320.3984 4149068
-764.07703 661.35968 2312.7231 3622724
-745.92175 658.12573 2301.4143 3622724
-733.12671 659.58685 2306.5237 4411984
-714.65955 655.901 2293.6345 3885384
-703.74237 659.13531 2304.9446 3820103
-689.85101 659.66113 2306.7832 3754053
-671.77179 656.11902 2294.397 3820103
-662.31104 661.0238 2311.5486 3688260
-646.01917 659.17767 2305.0928 4017225
-624.84515 652.15161 2280.5232 4017225
-604.38104 645.55493 2257.4551 3555904
-592.79846 648.35608 2267.2505 3753283
-581.33984 651.43365 2278.0125 3884869
-564.73242 648.75122 2268.6323 3358525
-553.5611 652.33649 2281.1697 3358782
-542.52521 656.27557 2294.9443 3490111
-530.36218 659.02856 2304.5713 3555647
-518.67401 662.54224 2316.8584 3029047
-499.42896 656.32733 2295.1252 3226170
-484.6214 655.74835 2293.1006 3555391
-471.11093 656.94275 2297.2773 3423805
-457.34723 657.84814 2300.4434 3555391
-446.23511 662.75061 2317.5869 3358012
-428.90576 658.43835 2302.5076 3555391
-415.39413 659.89075 2307.5864 3818563
-400.28668 658.82147 2303.8472 4147528
-382.13412 652.47278 2281.6462 3621184
-367.34821 651.60236 2278.6025 3424061
-353.34146 652.09961 2280.3413 3753283
-342.26001 658.26489 2301.9009 4608849
-325.65497 653.88177 2286.5735 4740178
-311.29709 653.81506 2286.3401 3950918
-294.67737 648.76221 2268.6707 4016711
-275.83252 638.04999 2231.2109 3950919
-267.28775 651.29199 2277.5171 3424318
-250.10902 643.80304 2251.3289 3490111
-239.45369 653.21423 2284.239 3555904
-225.14223 653.21423 2284.239 3819076
-208.92685 647.31537 2263.6111 4147785
-196.77843 654.0755 2287.251 4082248
-182.44807 654.0755 2287.251 3752771
-165.23657 642.86609 2248.0525 3753023
-150.65927 640.77124 2240.7268 3555645
-136.60553 640.70129 2240.4824 3621438
-121.8832 637.12061 2227.9609 3621438
-107.83542 636.5957 2226.1252 3555645
-94.052513 637.71075 2230.0247 3424059
-79.65062 634.28577 2218.0476 3489852
-66.349541 640.03192 2238.1414 3555388
-52.511387 642.28851 2246.0327 3621181
-38.439297 642.28851 2246.0327 3424059
-24.202017 637.93439 2230.8066 2897715
-10.575392 659.77448 2307.1797 2831921
3.8307767 651.43701 2278.0244 2502700
17.818222 641.17847 2242.1509 2371115
32.059147 645.06494 2255.7417 2831153
46.522449 649.67871 2271.8755 2700080
60.870937 650.90289 2276.1565 2568750
75.227417 651.73157 2279.0542 2897459
89.506401 651.73157 2279.0542 3029045
103.84007 652.07495 2280.2551 3029044
118.509 654.18604 2287.6375 2831666
132.97495 654.84192 2289.9309 2831668
147.25667 654.55121 2288.9143 2831668
161.32596 653.4516 2285.0691 2502703
174.7019 649.95178 2272.8306 2634289
189.37888 651.45502 2278.0872 2700082
204.23566 653.32269 2284.6184 2963254
217.76167 650.96765 2276.3828 2963509
233.22868 654.34772 2288.2026 3029302
247.83649 655.06531 2290.7122 3160375
262.64334 656.20172 2294.686 3160117
276.23056 654.33105 2288.1445 3094581
289.93991 652.91998 2283.2102 3028788
305.34406 655.27881 2291.4587 3029045
318.67987 653.1864 2284.1416 3095094
331.42618 650.11737 2273.4097 3095351
347.20108 652.99731 2283.4805 3161143
360.87039 651.84595 2279.4543 3029301
370.75571 644.20746 2252.7429 2831922
385.17581 644.71948 2254.5337 2634543
400.33093 646.38226 2260.3481 2831922
414.49274 646.38226 2260.3481 3029301
432.21042 651.74432 2279.0989 2700336
446.59821 651.90277 2279.6528 2963508
462.15561 653.70575 2285.9578 3029557
477.02686 654.45892 2288.5918 2634543
487.5144 649.32947 2270.6543 2437164
503.06363 651.0415 2276.6411 2371370
517.40375 651.13739 2276.9766 2502957
531.7428 651.22687 2277.2896 2502700
545.12018 650.16479 2273.5754 2371115
561.13116 652.21783 2280.7546 2765873
579.11438 656.40442 2295.3948 2897202
591.53448 654.23523 2287.8093 3028532
605.92822 654.29993 2288.0356 3094581
620.26349 654.29993 2288.0356 2897202
636.41711 656.17474 2294.5918 2831409
650.79346 656.17474 2294.5918 2765616
664.67273 655.68445 2292.8772 2699823
680.2807 656.88409 2297.0723 2831666
694.01758 656.26477 2294.9065 2897202
708.39587 656.26477 2294.9065 2699824
723.2453 656.6925 2296.4023 2634032
736.73328 655.89154 2293.6013 3226426
749.00708 654.06097 2287.2 3160633
769.3985 659.25458 2305.3618 3423805
783.84235 659.25458 2305.3618 3555391
789.00946 651.59357 2278.5718 3226426
804.07214 652.23181 2280.8035 3226426
815.39819 649.86957 2272.543 3029047
838.84326 657.08148 2297.7625 3029047
857.28265 660.19519 2308.6509 2963254
863.12146 653.66278 2285.8076 3094583
873.12109 650.4433 2274.5493 2765618
882.53619 646.89874 2262.1543 2962997
891.78796 643.34845 2249.7393 3357755
900.1333 639.26483 2235.4592 3028790
909.58801 636.08228 2224.3298 2700081
917.27716 631.7796 2209.2837 2897204
943.82538 640.40112 2239.4326 3489341
957.8562 640.40112 2239.4326 3555134
976.94519 643.73413 2251.0879 3028790
991.04889 643.73413 2251.0879 2962997
999.7514 640.27496 2238.9915 3357498
1018.3303 643.14923 2249.0425 3423546
1034.472 644.42676 2253.51 3094581
1045.7946 642.70813 2247.5 2963251
1055.8323 640.25623 2238.9258 3160373
1069.86 640.25623 2238.9258 3357753
1080.119 638.03009 2231.1414 3423802
1086.1559 633.39874 2214.9458 3094837
1102.3031 634.70575 2219.5164 2897202
1122.0786 638.04327 2231.1875 3028788
1143.1025 642 2245.0237 3226166
1138.5934 631.69452 2208.9863 3028788
1146.3241 628.34576 2197.2759 3028788
1172.2003 634.90485 2220.2124 3423546
1204.1542 644.56323 2253.9871 3357753
1202.108 636.00903 2224.0737 3094581
1209.6505 632.66589 2212.3831 2502443
1223.9779 632.90698 2213.2261 2897204
1250.8301 639.54639 2236.4438 3291962
1268.8665 641.5813 2243.5596 3226169
1281.5507 640.89496 2241.1594 3226169
1291.6538 638.94672 2234.3467 3094583
1314.807 643.42664 2250.0125 3028790
1332.6338 645.23242 2256.3274 2962997
1341.9354 642.91602 2248.2271 3160376
1351.5646 640.80298 2240.8379 3160376
1363.8442 639.97723 2237.9502 3291962
1377.9717 640.02643 2238.1223 3423548
1396.6196 642.15314 2245.5593 3226169
1430.759 651.28925 2277.5076 2831668
1437.9718 648.10883 2266.3857 2831411
1441.9028 643.52588 2250.3596 2962997
1454.4609 642.84473 2247.9778 3028790
1470.1007 643.52563 2250.3589 3094583
1482.3934 642.74237 2247.6199 3226169
1486.1124 638.29144 2232.0552 3489341
1500.0968 638.29144 2232.0552 2962997
1511.9897 637.40967 2228.9717 2962997
1541.0001 643.69421 2250.9482 3160376
1553.1226 642.87445 2248.0815 3226169
1569.7607 643.92175 2251.7441 3291962
1583.6248 643.82263 2251.3975 3160376
1598.9259 644.30438 2253.082 3028790
1621.853 647.82373 2265.3889 3489341
1653.0388 654.55225 2288.918 3620927
1661.0406 652.06372 2280.2158 3357755
1664.3538 647.79291 2265.281 3094583
1672.9158 645.61981 2257.6819 2765618
1696.4459 649.21136 2270.2415 2897204
1710.9534 649.31909 2270.6179 2831411
1732.524 652.08344 2280.2847 2831411
1750.912 653.61438 2285.6384 2765618
1779.0164 658.71826 2303.4861 2436653
1801.0745 661.51929 2313.281 2568239
1817.9719 662.39514 2316.344 3291192
1827.1205 660.45624 2309.5637 3291192
1854.769 665.18243 2326.0908 2896434
1863.7512 663.19275 2319.1331 2764848
1885.046 665.58124 2327.4856 2830641
1900.8524 666.01019 2328.9854 3225399
1925.6705 669.56586 2341.4194 3291192
1932.9388 667.01178 2332.488 3159606
1943.073 665.4776 2327.123 2962227
1962.4658 667.11359 2332.844 2962227
1979.8536 668.04889 2336.1147 3225399
1999.2526 669.64404 2341.6929 3422778
2004.1022 666.37817 2330.2725 3225399
2023.3097 667.89923 2335.5913 3159606
2060.874 675.41443 2361.8713 3488571
2056.7642 669.26202 2340.3569 3356985
2042.9449 660.05963 2308.1768 3422778
2061.3474 661.32397 2312.5981 3093813
2083.9155 663.89783 2321.5986 3159606
2098.4612 663.89783 2321.5986 3093813
2105.0334 661.39258 2312.8381 3159606
2118.3743 661.03387 2311.5837 2962227
2127.3071 659.31378 2305.5686 2897204
2144.4475 660.14343 2308.47 3094582
2159.709 660.38751 2309.3235 2897461
2170.8845 659.38727 2305.8257 2831411
2180.5371 657.94067 2300.7671 2897204
2191.6165 656.94086 2297.2708 2634288
2202.1848 655.80188 2293.2878 2502703
2209.7 653.77429 2286.1975 2568495
2224.0542 653.78333 2286.229 2634032
2244.0471 655.43909 2292.019 2634288
2259.8044 655.84454 2293.437 2633778
2276.8521 656.617 2296.1382 2633778
2292.8865 657.08936 2297.79 2634035
2307.2827 657.08936 2297.79 2502192
2346.7432 664.18304 2322.5962 2107434
2351.5779 661.44983 2313.0383 2304813
2362.5974 660.47913 2309.6438 2765364
nan nan nan 16777215
nan nan nan 16777215
nan nan nan 16777215
nan nan nan 16777215
nan nan nan 16777215
nan nan nan 16777215
nan nan nan 16777215
nan nan nan 16777215
nan nan nan 16777215
nan nan nan 16777215
-2027.2064 648.75226 2220.249 4147785
-2029.3418 653.92273 2237.9443 4015942
