# .PCD v0.7 - Point Cloud Data file format
VERSION 0.7
FIELDS x y z rgb
SIZE 4 4 4 4
TYPE F F F U
COUNT 1 1 1 1
WIDTH 1274
HEIGHT 1
VIEWPOINT 0 0 0 1 0 0 0
POINTS 1274
DATA ascii
690.25531 881.46637 6772.083 3818563
727.39569 875.10364 6723.1997 3884356
755.11462 858.72321 6597.353 3950149
783.79681 845.08167 6492.5488 3884356
814.69861 835.06134 6415.5649 3818820
842.12622 822.5896 6319.7476 3686977
869.09955 810.81415 6229.2803 3752770
890.03735 794.66229 6105.189 3818563
921.8963 789.19043 6063.1504 3884356
954.88263 785.07849 6031.5596 3949637
972.68732 769.27301 5910.1299 4080972
993.12054 756.62933 5812.9917 2699319
983.42822 722.74036 5552.6313 396312
989.13055 702.09442 5394.0137 593692
1008.1537 691.95551 5316.1187 1053992
1026.787 682.20612 5241.2168 987945
1060.34 682.6665 5244.7539 987435
1089.2484 680.19891 5225.7959 922155
1116.5605 676.90753 5200.5093 921899
1143.2164 673.41626 5173.6865 659238
1172.2206 671.46265 5158.6772 659237
1193.1591 665.11761 5109.9302 659237
1219.7346 662.16455 5087.2427 330527
1249.4241 661.00928 5078.3672 527393
1276.4794 658.55237 5059.4912 330781
1343.6943 676.43134 5196.8511 331290
1347.1028 662.10333 5086.7725 2370870
1367.5984 656.64197 5044.814 3686728
1499.0123 703.48083 5404.665 3686726
1612.3007 739.93195 5684.7095 3686979
1696.2268 761.62347 5851.3604 3686979
1753.847 770.83545 5922.1338 3555647
1815.0992 781.22906 6001.9849 3555645
1873.2679 789.90039 6068.605 3489853
1941.2325 802.27521 6163.6772 3621438
2010.8523 814.83801 6260.1943 3687232
2081.9275 827.4986 6357.4624 3752769
2144.2798 836.28186 6424.9419 3753027
2203.6052 843.5827 6481.0327 3752770
2288.3633 860.17938 6608.54 3884613
2384.4644 880.3739 6763.6899 3950149
2402.7578 871.63727 6696.5688 3884613
2488.9167 887.39746 6817.6499 3818563
2575.8516 902.89758 6936.7339 3818563
2655.0457 915.21521 7031.3667 3884356
2700.0229 915.52832 7033.7725 4081735
2768.6726 923.72949 7096.7798 4015942
2831.3657 929.71539 7142.7676 3818563
2908.4587 940.1698 7223.0869 3818563
2951.9441 939.60657 7218.7598 3818820
2993.3054 938.39441 7209.4468 3818563
3019.3538 932.4892 7164.0781 3884356
3043.231 926.09613 7114.9624 4015942
3081.0632 924.07312 7099.4199 3884356
3115.3574 921.06165 7076.2837 3884356
3130.3726 912.51483 7010.6201 3818563
3138.7705 902.30212 6932.1592 3555391
3160.3396 896.10297 6884.5322 3555391
3181.9158 890.07269 6838.2036 3555390
3213.1785 886.87628 6813.646 3489597
3239.687 882.46869 6779.7837 3621183
3249.7688 873.75854 6712.8657 3621184
3253.1941 863.50415 6634.0835 3621184
3226.8669 845.71082 6497.3818 3489598
3157.6052 817.24854 6278.7134 3686720
3158.9766 807.54285 6204.1475 3686977
3121.2976 788.21191 6055.6328 3752770
3096.1062 772.46094 5934.6216 3818306
3119.0825 768.95874 5907.7153 3818563
3109.2812 757.55255 5820.0845 3949636
3000.2693 722.51923 5550.9321 4080708
2907.4053 692.13287 5317.4814 4014657
2880.6313 677.99011 5208.8262 4211264
2801.2263 651.91559 5008.5024 3355186
2625.377 604.22241 4642.0879 2566183
2666.7725 607.02478 4663.6177 2763049
2760.4351 621.53473 4775.0942 2960428
2775.6768 618.26581 4749.98 3421749
2801.9326 617.49359 4744.0469 3750971
2991.3191 652.3111 5011.541 3751229
3267.0872 705.04669 5416.6953 3620414
3454.9336 737.91925 5669.2466 3620670
3585.937 758.10553 5824.333 3686720
3664.3477 766.87854 5891.7334 3686720
3990.9133 826.89264 6352.8066 3686720
4171.0889 855.68988 6574.0488 3489341
3998.2981 812.22174 6240.0942 3555134
4065.7368 817.92358 6283.8994 3620927
4238.4546 844.49231 6488.021 3489341
4332.9565 855.12024 6569.6724 3555134
4670.0303 912.96985 7014.1162 3423548
4712.0684 912.60052 7011.2783 3489341
4753.3101 912.08508 7007.3188 3555390
4771.0776 907.11591 6969.1421 3620927
4829.123 909.82556 6989.959 3555134
4901.5913 915.17926 7031.0903 3555134
4813.8721 890.79535 6843.7549 3555134
4879.2192 894.91638 6875.416 3554877
4903.8271 891.55859 6849.6191 3356985
4902.8584 883.64948 6788.855 3160376
4945.3931 883.64948 6788.855 3226169
4963.4922 879.32056 6755.5977 3489341
4962.4043 871.69452 6697.0083 3620927
4943.5244 861.09717 6615.5918 3620927
4934.1011 852.30969 6548.0796 3620927
4980.3325 853.20148 6554.9312 3686720
4843.041 822.89575 6322.1001 3818306
4725.2905 796.37506 6118.3481 3949892
4645.5586 776.63715 5966.7065 3949892
4637.5156 769.10345 5908.8271 3752513
4587.8906 754.8476 5799.3027 3752513
4486.7769 732.41089 5626.9272 3686720
4599.6777 744.98694 5723.5459 3948866
4659.7217 748.8736 5753.4062 3883329
4560.6367 727.323 5587.8384 3883329
4589.6797 726.37866 5580.5835 3883329
4366.2305 685.79047 5268.7544 3818048
4405.1025 686.70422 5275.7749 3883071
4124.2056 638.12738 4902.5713 3948606
nan nan nan 16777215
nan nan nan 16777215
nan nan nan 16777215
nan nan nan 16777215
nan nan nan 16777215
nan nan nan 16777215
4875.8901 717.05054 5508.918 3817278
4920.7427 718.56006 5520.5151 3882814
4955.3726 718.56616 5520.562 3816764
5031.2134 724.50671 5566.2017 3751486
4987.5015 713.26807 5479.8579 3751743
4838.4971 687.22797 5279.7988 3751743
4956.0771 699.14844 5371.3804 3751743
5348.7583 749.45447 5757.8691 3752000
5397.1216 751.16473 5771.0088 3949122
5433.2783 751.16473 5771.0088 4014915
5532.9053 759.88153 5837.9775 3949122
5597.373 763.68701 5867.2139 3949122
5648.2012 765.59387 5881.8638 4014915
5688.8184 766.10095 5885.7598 4014915
5745.3965 768.73712 5906.0127 4014917
5817.6304 773.42078 5941.9961 4014918
5862.1094 774.3786 5949.3545 4014661
5901.1465 774.60992 5951.1323 3948868
5940.0249 774.81775 5952.7285 3948868
5958.1147 772.32812 5933.6016 3883075
5965.9531 768.54877 5904.5659 3817282
5994.9131 767.5202 5896.6636 3883075
5990.4331 762.24921 5856.168 3751489
nan nan nan 16777215
nan nan nan 16777215
nan nan nan 16777215
nan nan nan 16777215
nan nan nan 16777215
-4511.9141 651.64197 4777.646 3422524
-4770.1426 693.53827 5084.8174 3422524
-4792.1758 701.42621 5142.6494 3422524
-4844.4673 713.87988 5233.9561 3488317
-4903.7173 727.53564 5334.0762 3356731
-4870.2979 727.53564 5334.0762 2962230
-4960.4858 746.12799 5470.3896 2369836
-5104.8882 773.19049 5668.8037 2304043
-5090.8887 776.47229 5692.8652 2435629
-4978.3271 764.6615 5606.272 2764594
-4943.2021 764.6615 5606.272 3093302
-5037.395 784.8089 5753.9863 3949894
-5059.2363 793.89319 5820.5898 4146761
-4994.0679 789.35681 5787.3306 3817795
-4947.0464 787.64331 5774.7676 3686464
-4994.1611 801.00287 5872.7158 3950148
-4923.2046 795.48309 5832.2466 3949892
-4877.1982 793.9422 5820.9492 3818306
-4879.7905 800.34894 5867.9214 3686720
-4854.5488 802.25311 5881.8823 3423548
-4741.3491 789.53949 5788.6699 3423548
-4705.0811 789.53949 5788.6699 3357755
-4715.3086 797.40228 5846.3174 3423547
-4722.7075 804.90613 5901.3335 3357753
-4697.4863 806.92493 5916.1348 3422776
-4660.4199 806.92493 5916.1348 3488570
-4680.4297 816.8866 5989.1704 3422776
-4741.9189 834.30725 6116.8936 3422776
-4703.5947 834.30725 6116.8936 3423034
-4680.7773 837.08032 6137.2256 3488570
-4645.894 837.72382 6141.9434 3620156
-4618.9536 839.82208 6157.3271 3291705
-4597.1025 842.88904 6179.813 3226168
-4572.1392 845.43243 6198.4604 3423546
-4547.7017 848.11749 6218.1465 3423804
-4524.9253 851.16144 6240.4639 3489852
-4428.5137 840.28662 6160.7324 3621181
-4392.6729 840.81458 6164.6035 3687230
-4359.3618 841.84045 6172.125 3621438
-4242.6294 826.63086 6060.6128 3489852
-4098.4385 805.74823 5907.5078 3424059
-3996.2615 792.82013 5812.7227 3424059
-3863.5662 773.54413 5671.3965 3555132
-3766.5024 761.11041 5580.2363 3489339
-3654.0562 745.30615 5464.3643 3424059
-3535.9358 728.03467 5337.7349 3424059
-3506.5977 728.88788 5343.9902 3292473
-3400.9822 713.74951 5233 3161144
-3305.6799 700.50177 5135.8716 3292473
-3204.6287 685.76349 5027.8149 3358266
-3079.1157 665.44598 4878.853 3358523
-2968.1785 647.90265 4750.2305 3358523
-2825.0303 622.90155 4566.9302 3424575
-2599.5869 579.05774 4245.48 4214602
-2572.9878 579.05774 4245.48 5201497
-2550.8926 580.08197 4252.9893 5333083
-2507.4514 576.22247 4224.6924 5267290
-2490.2964 578.38568 4240.5527 5267290
-2529.0327 593.71661 4352.9546 5135704
-2518.1621 597.60907 4381.4932 4280395
-2491.6489 597.83429 4383.144 3490879
-2829.6331 686.49475 5033.1763 3621695
-2841.6042 697.16858 5111.4336 3621441
-2875.7471 713.58728 5231.811 3686977
-2919.4324 732.77991 5372.5254 3752770
-2951.4272 749.45172 5494.7583 3884356
-2988.9268 767.93134 5630.2451 3818563
-3019.3047 785.00073 5755.3931 3884612
-3027.4709 796.63812 5840.7148 3753026
-3023.5046 805.32867 5904.4316 3818563
-3007.0325 810.86224 5945.002 3753024
-2996.9792 818.28717 5999.4395 3687487
-3004.4348 830.74207 6090.7549 3753024
-2988.2122 836.88605 6135.8013 3884610
-2956.6316 838.83295 6150.0747 3884610
-2966.3989 852.71704 6251.8691 3884610
-2970.1987 865.23431 6343.6421 3950403
-2940.7859 868.28485 6366.0078 4081989
-2912.9822 871.90106 6392.5205 3950660
-2853.0693 865.87323 6348.3262 4016453
-2813.7673 866.01849 6349.3916 4016453
-2800.5339 874.30652 6410.1567 4016453
-2766.8132 876.34656 6425.1138 4082246
-2727.2886 876.58142 6426.8354 4016710
-2698.0728 880.18634 6453.2661 4148039
-2628.4492 870.51831 6382.3828 4148039
-2610.344 877.87744 6436.3379 4148039
-2565.5793 876.36115 6425.2207 4148039
-2491.8628 864.74939 6340.0869 4213832
-2414.2759 851.39648 6242.187 4082246
-2387.9109 855.96478 6275.6807 4016453
-2358.8645 859.70886 6303.1309 4016453
-2299.0159 852.16296 6247.8066 4081989
-2261.0867 852.62134 6251.167 3884612
-2235.0706 857.66699 6288.1611 3884356
-2204.281 861.02936 6312.8125 3950149
-2182.4834 868.09119 6364.5874 4081735
-2158.1523 874.38934 6410.7642 4081735
-2144.9846 885.53503 6492.4805 3818563
-2084.1116 877.03638 6430.1709 3752770
-2059.8635 883.91895 6480.6318 3752770
-2001.2064 876.01587 6422.6895 3818563
-1936.9492 865.2868 6344.0269 3752770
-1875.8364 855.54236 6272.583 3884356
-1758.1595 819.03064 6004.8901 3753027
-1701.8105 810.11615 5939.5322 4081735
-1729.1663 841.54016 6169.9233 4081735
-1670.3375 831.49835 6096.2998 3950149
-1612.5845 821.53461 6023.2485 4081735
-1565.6089 816.71545 5987.916 3818563
-1500.1671 801.7901 5878.4878 3818563
-1451.2173 795.14966 5829.8022 3818563
-1401.9023 787.96124 5777.0986 3686977
-1329.5288 767.08777 5624.0605 3489598
-1297.9659 769.26495 5640.0229 3621184
-1275.239 776.94745 5696.3486 3686977
-1207.1541 756.64197 5547.4751 3818563
-1072.3416 692.06799 5074.0376 3884356
-1142.912 760.14789 5573.1792 3950149
-1088.2484 746.60107 5473.8579 3950149
-1063.7184 753.51874 5524.5762 3752770
-1008.8454 738.68433 5415.8149 3555391
-962.24573 729.08594 5345.4424 3621184
-940.2345 738.0976 5411.5132 3555134
-886.05786 721.58862 5290.4741 3554877
-907.84796 768.06659 5631.2368 2568496
-917.93634 808.00281 5924.0376 2634289
-882.80072 809.8194 5937.3564 2831668
-864.51257 827.93036 6070.1406 2831156
-813.81665 815.24365 5977.125 2765621
-767.18274 805.59827 5906.4082 2370863
-733.29913 809.04266 5931.6611 2106921
-707.26337 821.97546 6026.4805 2304300
-671.01355 823.82678 6040.0542 1909542
-638.10938 830.2525 6087.166 1646370
-588.57617 814.48358 5971.5522 2041129
-545.4765 806.08099 5909.9473 1975592
-500.80978 793.97028 5821.1548 1975335
-450.59302 770.46698 5648.8359 1580320
-422.50085 784.01245 5748.147 2041128
-386.97031 784.99292 5755.3359 2370093
-357.00803 798.63135 5855.3286 2435886
-329.06543 820.42908 6015.1431 2501678
-292.24432 822.86633 6033.0127 2501934
-257.98431 834.31042 6116.917 2765107
-218.98662 831.75293 6098.1665 2699314
-180.29782 829.53583 6081.9111 2765108
-142.55826 831.66809 6097.5444 2963000
-103.10249 821.6842 6024.3452 3554879
-68.928055 866.56567 6353.4028 3489854
-28.995081 862.78857 6325.7104 3555391
10.605989 860.23633 6306.9985 3489598
49.779552 854.37109 6263.9961 3621184
88.922379 853.38214 6256.7451 3686977
129.35425 861.58423 6316.8804 3555391
167.81044 855.8667 6274.9614 3423805
208.93585 863.3493 6329.8218 3423805
253.89665 881.76453 6464.8364 3555391
295.74283 885.78387 6494.3052 3555391
342.62918 902.10114 6613.939 3621184
386.51813 907.85712 6656.1396 3620927
432.07773 916.03381 6716.0889 3621184
467.40442 902.99011 6620.4561 3621184
505.12909 896.32782 6571.6104 3489598
544.61176 893.55414 6551.2744 3423805
581.95355 887.90295 6509.8418 3423805
606.49554 864.74188 6340.0317 3555391
646.71423 865.40619 6344.9023 3621184
677.92657 854.63953 6265.9644 3489598
710.04865 846.13574 6203.6172 3555391
741.64587 837.92169 6143.3936 3686977
776.25403 833.75189 6112.8223 3686977
808.61261 827.67181 6068.2446 3686977
839.54156 820.74011 6017.4238 3686977
867.53625 811.659 5950.8433 3555391
898.64868 806.12286 5910.2544 3555134
923.89789 795.97363 5835.8433 3620929
927.45941 768.62366 5635.3213 3752007
963.68018 769.35309 5640.6694 2436403
971.59406 748.23163 5485.813 462105
981.90173 730.33398 5354.5928 527902
1006.4614 723.8692 5307.1948 1053992
1026.5314 714.69226 5239.9121 922411
1058.2435 713.93823 5234.3838 856619
1084.1698 709.4436 5201.4307 922410
1110.9344 705.74377 5174.3047 856616
1138.0929 702.49695 5150.4995 725028
1163.3835 698.30792 5119.7871 724258
1185.5372 692.51141 5077.2886 724513
1216.0834 691.79199 5072.0142 592668
1245.5508 690.51117 5062.6235 658461
1267.9187 685.45593 5025.5601 462361
1335.9541 704.7359 5166.915 396823
1376.2543 708.81897 5196.8511 1186081
1383.8096 696.2384 5104.6138 3423040
1502.8687 739.05994 5418.5688 3818309
1559.2477 749.84668 5497.6538 3752771
1619.5663 762.02057 5586.9097 3686977
1678.9104 773.23071 5669.0991 3752770
1741.0848 785.25281 5757.2412 3752770
1803.9849 797.10754 5844.1567 3884356
1859.7769 805.41223 5905.0444 3818564
1931.2268 820.04181 6012.3042 3686978
1984.3477 826.47748 6059.4888 3686977
2038.067 832.9162 6106.6948 3686977
2088.2598 837.70276 6141.7891 3555648
2163.9202 852.34778 6249.1616 3686977
2229.3779 862.5249 6323.7773 3686977
2283.4023 868.00024 6363.9209 3423805
2362.6143 882.69818 6471.6821 3358012
2431.2546 893.01703 6547.3364 3686977
2476.4744 894.53357 6558.4556 3621184
2516.7515 894.24445 6556.3359 3621184
2557.8289 894.24445 6556.3359 3686977
2595.3386 893.01691 6547.3354 3621184
2636.3596 893.01691 6547.3354 3621184
2699.6692 900.45099 6601.8403 3621184
2753.4009 904.51434 6631.6313 3621184
2795.8679 904.81128 6633.8086 4015942
2786.323 888.51385 6514.3208 4081735
2829.9314 889.39203 6520.7593 3884613
2861.6064 886.5481 6499.9087 4015942
2874.6555 878.09448 6437.9292 3950149
2875.5793 866.22241 6350.8862 3950149
2912.1897 865.27759 6343.959 3950149
2937.179 860.95178 6312.2437 3884356
2941.2166 850.68115 6236.9424 3950149
2938.7651 838.82758 6150.0356 3489854
2964.1472 835.12274 6122.873 3489598
2986.3005 830.61456 6089.8203 3423805
2995.8655 822.76294 6032.2544 3489341
2964.7915 804.08514 5895.3145 3555648
2970.5479 795.73291 5834.0781 3818306
2966.3237 784.94275 5754.9683 3621184
2956.1792 772.86389 5666.4097 3555134
2971.4614 767.6405 5628.1128 3555390
2933.5303 748.95367 5491.1064 3686720
2900.7524 732.00055 5366.8115 3949121
2873.363 716.78015 5255.2202 4080195
2818.1467 695.04169 5095.8398 4080197
2651.5125 646.61896 4740.8188 3027247
2623.5596 632.71429 4638.874 2434598
2654.6304 633.19299 4642.3838 2697513
2710.115 639.42145 4688.0488 2960685
2729.3279 637.05017 4670.6636 3355699
2699.0273 623.29498 4569.8145 3684921
2918.0813 666.80835 4888.8413 3751486
3049.0137 689.49023 5055.1382 3620157
3213.1702 719.1416 5272.5337 3554876
3329.5049 737.59546 5407.832 3620925
3399.1016 745.42786 5465.2563 3489340
3498.5808 759.59192 5569.103 3423549
3706.55 796.79834 5841.8896 3423548
3677.0205 782.72119 5738.6802 3357755
3772.2634 795.21954 5830.3145 3423548
3850.8303 803.99652 5894.6646 3555134
3918.6758 810.38953 5941.5361 3489341
4164.9175 853.20764 6255.4658 3489341
4242.5894 861.01691 6312.7212 3686720
4287.875 862.16998 6321.1748 3620927
4340.9468 864.85309 6340.8472 3555134
4387.6211 866.22467 6350.9028 3620927
4425.0806 865.76855 6347.5591 3555134
4466.9546 866.17676 6350.5513 3489341
4485.7393 862.13989 6320.9546 3554877
4465.4414 850.72803 6237.2861 3488571
4462.5591 842.80322 6179.1841 3489341
4491.4917 840.97174 6165.7559 3752513
4482.4478 832.1214 6100.8682 3686720
4504.6572 829.17371 6079.2563 3620927
4545.6377 829.70166 6083.127 3489341
4520.4058 818.23553 5999.061 3555134
4547.1084 816.28186 5984.7373 3555134
4375.9023 779.12274 5712.2974 3818306
4378.9165 773.33447 5669.8599 3752513
4340.3667 760.35815 5574.7212 3686720
4354.8389 756.80334 5548.6582 3555134
4331.7725 746.83289 5475.5576 3555134
4259.8145 728.65613 5342.291 3555391
4270.1704 724.73297 5313.5273 3685950
4131.1724 695.71826 5100.8008 3685950
4119.312 688.39563 5047.1133 3817536
4188.9507 694.70038 5093.3379 3817534
4240.5474 697.94037 5117.0923 3752510
4212.0439 688.04712 5044.5581 3883070
4225.439 685.09454 5022.9106 3948607
3817.7883 614.42377 4504.7729 4145986
nan nan nan 16777215
nan nan nan 16777215
nan nan nan 16777215
nan nan nan 16777215
nan nan nan 16777215
nan nan nan 16777215
nan nan nan 16777215
4581.2275 696.11975 5103.7441 3750716
4613.2041 696.11975 5103.7441 3751486
4638.7295 695.15295 5096.6558 3817280
4704.8584 700.24261 5133.9717 3948865
4956.0547 732.62036 5371.356 3817536
4989.7339 732.62427 5371.3843 3817536
5043.8159 735.60364 5393.228 3883329
5130.8506 743.31726 5449.7822 3883329
5178.4517 745.25385 5463.9805 3949122
5212.6851 745.25385 5463.9805 3949379
5280.4858 750.02161 5498.9365 3949122
5342.5088 753.91223 5527.4614 3883329
5411.4629 758.72449 5562.7432 3817538
5474.5562 762.65869 5591.5879 3817282
5525.8877 764.91479 5608.1289 3817281
5570.3271 766.19446 5617.5107 3817282
5622.8501 768.56281 5634.875 3751489
5660.6851 768.90662 5637.3955 3751489
5689.1289 767.97839 5630.5903 3751490
5729.7144 768.69049 5635.811 3751490
5732.4551 764.34778 5603.9717 3883075
nan nan nan 16777215
nan nan nan 16777215
nan nan nan 16777215
nan nan nan 16777215
nan nan nan 16777215
-4426.2832 668.48444 4686.9712 2633008
-4481.981 681.41699 4777.646 2567215
-4551.6079 696.65546 4884.4878 2633008
-4638.0259 714.6875 5010.917 2764594
-4694.5107 728.32147 5106.5093 3027766
-4720.7749 737.42188 5170.3149 3027766
-4765.123 749.49237 5254.9453 3159352
-4836.9014 766.0752 5371.2134 3027767
-4848.5645 773.30261 5421.8872 2698801
-4866.0928 781.5741 5479.8813 2764338
-4687.2109 758.1922 5315.9429 3159096
-4653.9048 758.1922 5315.9429 3488318
-4775.0156 783.5304 5493.5977 3225145
-4740.5967 783.5304 5493.5977 3225401
-4604.0601 766.52887 5374.394 3356731
-4736.7705 794.43402 5570.0464 3555390
-4662.0254 787.70135 5522.8418 3620927
-4653.1851 792.08673 5553.5889 3818306
-4634.7358 794.89008 5573.2441 3752513
-4602.0176 795.27026 5575.9097 3752513
-4587.8066 798.87897 5601.2114 3752513
-4560.2886 800.20819 5610.5312 3752513
-4567.5859 807.71466 5663.1616 3620927
-4548.9702 810.72058 5684.2373 3357756
-4511.1323 810.32098 5681.4355 3357756
-4490.0532 812.94934 5699.8638 3357755
-4457.4365 813.5141 5703.8237 3423548
-4458.6699 820.31592 5751.5132 3489341
-4435.6904 822.73749 5768.4917 3620927
-4405.5508 823.8598 5776.3608 3686720
-4378.876 825.65417 5788.9414 3686718
-4353.4224 827.71051 5803.3594 3555133
-4317.0625 827.71051 5803.3594 3686719
-4257.4727 823.21863 5771.8657 3752768
-4223.459 823.63776 5774.8042 3818305
-4184.877 823.16559 5771.4932 3686976
-4142.6348 821.9588 5763.0322 3818305
-4076.9407 816.03668 5721.5103 3752513
-4035.8081 814.96936 5714.0269 3818306
-3943.8882 803.5354 5633.8594 3752513
-3784.2773 777.97894 5454.6743 3818563
-3730.2266 773.85565 5425.7646 3753023
-3662.6592 766.82654 5376.4814 3620925
-3584.2202 757.36987 5310.1772 3489339
-3513.6802 749.42065 5254.4424 3489595
-3442.2917 741.13843 5196.373 3489852
-3396.4622 738.25342 5176.1455 3489852
-3315.4397 727.58966 5101.3779 3753025
-3210.8591 711.49799 4988.5537 3818562
-3104.4685 694.68488 4870.6714 3753282
-2967.8145 670.69867 4702.4961 3819075
-2850.5376 650.65448 4561.9595 3754051
-2771.8706 639.10651 4480.9927 3885897
-2626.4944 611.78369 4289.4233 4543566
-2537.6741 597.20563 4187.2114 5070424
-2538.0017 603.52191 4231.4971 5136217
-2483.5186 596.80029 4184.3691 5136218
-2474.4397 600.9624 4213.5513 5135961
-2532.8059 621.77118 4359.4487 5069911
-2524.1887 626.41095 4391.9795 4543567
-2472.7507 620.40918 4349.8994 3491392
-2559.1689 649.24701 4552.0913 3489852
-2705.2771 694.04858 4866.2104 3490109
-2739.012 710.71313 4983.0508 3489851
-2791.2781 732.62579 5136.688 3489852
-2792.4495 741.48236 5198.7847 3687230
-2836.1897 761.9848 5342.5342 3424315
-2843.5662 773.09064 5420.4009 3161143
-2830.3638 778.80243 5460.4482 3160887
-2863.5483 797.57397 5592.062 3358012
-2849.7419 803.56018 5634.0332 3358266
-2816.4336 804.1286 5638.0186 3358266
-2786.8228 805.78046 5649.6001 3424059
-2762.314 808.96899 5671.9561 3621438
-2744.6038 814.25769 5709.0371 3818817
-2734.8242 822.06982 5763.8105 3950403
-2759.9443 840.72217 5894.5884 3884867
-2738.5239 845.51111 5928.1655 3819074
-2697.3079 844.23596 5919.2246 4016453
-2660.5239 844.33173 5919.8965 4016453
-2625.9067 845.1275 5925.4761 4082503
-2593.3604 846.62225 5935.9561 4082503
-2555.1079 846.27057 5933.4902 4016710
-2515.5427 845.46729 5927.8584 4082246
-2472.594 843.48572 5913.9648 4082246
-2409.7771 834.56293 5851.4043 4082246
-2363.0466 831.02179 5826.5757 4082246
-2325.4236 830.62256 5823.7769 4082246
-2270.5381 823.94635 5776.9673 4148296
-2234.522 824.01208 5777.4282 4148039
-2202.1699 825.45349 5787.5342 4082246
-2163.9839 824.7196 5782.3892 4016710
-2129.366 825.34393 5786.7661 3950917
-2098.2322 827.36353 5800.9268 4016198
-2025.9546 812.94495 5699.833 4081735
-1983.0344 810.00037 5679.1875 4147528
-2023.6768 841.7041 5901.4731 4213321
-2046.0654 866.85449 6077.811 4344907
-1974.1432 852.24445 5975.375 4081992
-1921.6237 845.6076 5928.8418 4015942
-1864.0327 836.43347 5864.519 4015942
-1827.2897 836.43347 5864.519 4015942
-1774.2446 828.81818 5811.1255 4015942
-1738.7253 829.24231 5814.0996 4147528
-1623.453 790.83435 5544.8081 3950149
-1581.8555 787.42072 5520.874 3950406
-1586.3711 807.32202 5660.4087 3950149
-1550.9069 807.32202 5660.4087 4015942
-1536.8196 818.71021 5740.2549 4213064
-1431.5286 780.89288 5475.105 4147528
-1385.2827 774.2182 5428.3066 4476236
-1331.52 762.90088 5348.957 4344907
-1258.514 739.68884 5186.2095 4213321
-1202.5829 725.54816 5087.0645 4213321
-1077.9758 668.07568 4684.1055 4213321
-1023.502 652.06763 4571.8677 4213578
-1069.8669 701.23151 4916.5723 4147528
-1062.9034 717.32074 5029.3789 4213321
-1042.8589 725.29517 5085.2905 4213321
nan nan nan 16777215
nan nan nan 16777215
-928.66669 711.04651 4985.3887 4015942
-877.21643 695.02979 4873.0898 3621184
-845.75854 694.26923 4867.7573 3489598
-821.04486 699.19513 4902.2944 3423805
-794.87842 703.21869 4930.5049 3555391
-687.11517 632.46106 4434.3994 3489598
-768.966 737.62659 5171.7505 2963256
-780.64557 781.77252 5481.2725 3160890
-753.50476 789.31573 5534.1606 3489599
-593.03894 651.18872 4565.7051 4015943
-655.03577 755.71698 5298.5884 3818309
-644.44482 783.19043 5491.2139 3489344
-603.07886 774.25262 5428.5479 3358014
-580.69012 790.06616 5539.4219 3489600
-537.28363 777.47638 5451.1509 3686723
-480.79059 742.95508 5209.1104 3818566
-467.8895 775.67297 5438.5063 3818566
-428.07227 765.40381 5366.5059 4147531
-345.50275 670.4259 4700.5835 4278860
-367.62506 779.82501 5467.6177 4147273
-333.68021 780.55359 5472.7261 4081737
-311.2771 811.53992 5689.9819 4081737
-273.14111 804.21887 5638.6514 4213323
-237.28033 802.41681 5626.0166 4213323
-203.17941 806.97559 5657.98 4147530
-167.73042 806.97559 5657.98 4015944
-134.09354 818.0304 5735.4888 3884358
-100.3606 836.37866 5864.1343 3884615
-63.777473 838.4491 5878.6509 3950151
-26.83392 834.9646 5854.2207 3818820
9.8445892 834.9646 5854.2207 3884355
46.786259 839.68774 5887.3354 3752770
84.394821 846.93915 5938.1777 3621441
120.89275 842.01758 5903.6714 3358012
158.80891 846.96613 5938.3667 3226426
197.19568 852.06927 5974.147 3226426
234.88968 853.02844 5980.8721 3489598
274.22238 858.85608 6021.7319 3358012
313.28201 862.52216 6047.436 3226426
355.99561 874.37195 6130.5186 2962996
394.22226 873.96637 6127.6748 2963253
431.28149 871.27429 6108.7998 3029304
468.08603 868.54846 6089.6885 3094840
500.53821 858.76642 6021.103 3094840
521.96497 832.76508 5838.7983 3160633
556.78595 830.13959 5820.3906 3160633
601.05829 841.06219 5896.9727 3292219
627.82404 827.64142 5802.875 3358012
663.36346 826.62286 5795.7334 3226426
697.76324 824.36365 5779.8931 3226426
733.91211 824.29175 5779.3896 3292219
767.17871 821.14166 5757.3032 3292219
800.14111 817.96356 5735.02 3226426
822.43579 804.62195 5641.4775 3358012
857.82404 804.66193 5641.7578 3291961
868.10992 782.08398 5483.4561 3225914
883.16937 765.36182 5366.2114 3357247
916.79041 765.36182 5366.2114 2239024
942.82257 759.25061 5323.3638 725020
975.22772 758.51373 5318.1973 791071
1001.8838 753.50177 5283.0566 1119785
1019.8724 742.50024 5205.9214 987945
1053.9983 743.56494 5213.3862 922410
1081.5745 740.0838 5188.9785 856617
1102.5895 732.44733 5135.437 791079
1129.703 729.1803 5112.5308 724772
1160.9999 728.71912 5109.2974 790307
1173.6824 716.91266 5026.5181 527134
1205.6876 717.21753 5028.6558 395546
1232.5168 714.50629 5009.646 527133
1260.2026 712.41394 4994.9761 527641
1315.5519 725.68262 5088.0073 461591
1381.5967 744.08386 5217.0244 396565
1383.3318 727.7998 5102.8516 2633525
1467.9272 754.86127 5292.5884 3818309
1506.2267 757.44586 5310.71 3686979
1551.6853 763.44116 5352.7451 3818565
1595.6591 768.46765 5387.9878 3818563
1644.9276 775.78308 5439.2783 3687234
1694.1864 782.797 5488.4556 3818820
1785.5039 808.57843 5669.2178 3818820
1831.1577 813.07831 5700.7681 3687234
1889.0496 822.73608 5768.4819 3752770
1936.4946 827.56677 5802.3516 3686977
1988.6741 834.20544 5848.8975 3621184
2045.1473 842.37244 5906.1592 3621184
2105.6069 851.86188 5972.6929 3621184
2158.4949 858.01007 6015.7998 3489598
2189.5842 855.43097 5997.7168 3423805
2227.1616 855.43097 5997.7168 3423805
2260.7417 853.92102 5987.1304 3489598
2300.2354 854.65759 5992.2944 3489598
2342.5852 856.41467 6004.6138 3489598
2380.2058 856.41467 6004.6138 3292219
2427.6187 859.88306 6028.9316 3292219
2476.428 863.7323 6055.9204 3292219
2539.6436 872.41406 6116.7915 3489598
2578.3162 872.53229 6117.6201 3489598
2579.0901 860.00946 6029.8179 3686977
2610.1653 857.8064 6014.3716 3752770
2645.8447 857.15765 6009.8232 3752770
2672.1482 853.53229 5984.4048 3884356
2701.7441 851.04437 5966.9609 3884356
2728.0603 847.60529 5942.8486 3884356
2753.0566 843.85431 5916.5493 3752770
2766.2009 836.61847 5865.8164 3489598
2777.0562 828.88916 5811.623 3358012
2793.1172 822.89349 5769.5859 3358012
2818.0933 819.6441 5746.8032 3555647
2822.1726 810.47552 5682.519 3752513
2789.478 791.1062 5546.7139 3884099
2786.7871 780.61792 5473.1772 3818563
2768.0818 765.95331 5370.3584 3752769
2792.1108 763.32391 5351.9229 3620927
2819.9846 761.79553 5341.207 3555134
2827.1418 754.77228 5291.9644 3883329
2811.7681 741.96625 5202.1772 3883585
2791.9009 728.28174 5106.2305 3948867
2740.8953 706.87659 4956.1519 4277058
2625.5322 669.53925 4694.3667 3026735
2607.4182 657.55396 4610.334 2368548
2644.8984 659.69769 4625.3647 2697513
2677.4524 660.57965 4631.5483 2960685
2703.7917 659.92584 4626.9644 3223857
2548.9426 615.53156 4315.7007 3553079
2772.1599 662.40839 4644.3701 3816508
2948.7114 697.27637 4888.8413 3882560
3080.6858 720.99463 5055.1382 3685950
3182.8948 737.33496 5169.7056 3620414
3244.1287 743.94952 5216.0825 3685951
3315.1799 752.66107 5277.1621 3686207
3464.2166 778.73108 5459.9478 3621184
3501.6482 779.44861 5464.9785 3620927
3549.425 782.43274 5485.9014 3620927
3634.2261 793.44287 5563.0972 3620927
3725.8486 805.71912 5649.1699 3423548
3930.0803 841.88678 5902.7544 3489341
3967.0632 841.88678 5902.7544 3423548
4008.3245 842.78656 5909.0625 3423548
4049.6125 843.67523 5915.2935 3489341
4094.2612 845.24164 5926.2759 3555134
4098.8276 838.57947 5879.5654 3489341
4138.6938 839.1936 5883.8716 3489341
4182.9463 840.67847 5894.2822 3489341
4213.4248 839.39337 5885.2715 3751487
4212.79 831.98584 5833.3354 3555391
4209.9805 824.28009 5779.3076 3621183
4195.9053 814.5188 5710.8677 3620927
4235.1211 815.18005 5715.5039 3489341
4207.9077 803.15106 5631.1646 3357755
4227.2896 800.1416 5610.0645 3291962
4207.2573 789.78314 5537.4375 3423548
4124.5303 767.92126 5384.1567 3620927
4083.3665 754.08972 5287.1792 3620927
4062.0117 744.10956 5217.2046 3686720
4041.4575 734.4342 5149.3677 3621183
4000.4973 721.23322 5056.811 3489341
3963.3789 708.92688 4970.5269 3489341
3973.4832 705.19324 4944.3491 3620413
3984.3076 701.64417 4919.4653 3620157
3936.5955 687.92029 4823.2427 3620157
3951.1206 685.19867 4804.1606 3751743
3929.5195 676.3006 4741.7729 3752000
3926.3975 670.69257 4702.4531 3817279
3792.9338 643.06946 4508.7783 3816765
3817.7883 642.49817 4504.7729 3619642
3677.0803 614.27716 4306.9058 3685435
3547.5842 588.32672 4124.9585 3159091
3421.3269 563.28485 3949.3811 3422262
nan nan nan 16777215
nan nan nan 16777215
nan nan nan 16777215
nan nan nan 16777215
4161.9453 661.30591 4636.6401 3685436
4190.1387 661.17078 4635.6924 3685437
4316.9902 676.49774 4743.1553 3751231
4419.4023 687.81152 4822.48 3882816
4516.3188 698.12213 4894.7715 3817793
4655.6138 714.80042 5011.708 3949122
4690.5322 715.33691 5015.4702 3817536
4764.4321 721.77185 5060.5874 3620157
4859.938 731.37305 5127.9048 3620157
4919.8223 735.52264 5156.999 3620157
5018.2432 745.34186 5225.8447 3620157
5050.9844 745.34186 5225.8447 3685950
5112.8281 749.60858 5255.7603 3685694
5189.5542 755.98871 5300.4937 3685694
5261.9805 761.66534 5340.2944 3619903
5313.9116 764.32233 5358.9233 3619903
5358.2124 765.85529 5369.6714 3488317
5383.1182 764.61432 5360.9707 3751489
5414.0933 764.24554 5358.3848 3619903
5449.5962 764.51636 5360.2837 3619904
5441.8291 758.75085 5319.8599 3619904
nan nan nan 16777215
nan nan nan 16777215
nan nan nan 16777215
nan nan nan 16777215
nan nan nan 16777215
nan nan nan 16777215
-4364.167 692.49756 4652.0601 3159352
-4388.3652 701.01917 4709.3066 3422524
-4453.8896 716.30237 4811.9761 3619903
-4469.6963 723.74365 4861.9648 3488318
-4487.3496 731.58795 4914.6616 3422779
-4571.6167 750.47607 5041.5479 3422522
-4610.3232 762.0957 5119.6064 3422522
-4605.4106 766.61731 5149.9814 3554108
-4622.1304 774.82898 5205.146 3422778
-4547.2837 767.69867 5157.2461 3488572
-4557.541 774.93683 5205.8706 3356985
-4550.1206 779.25195 5234.8589 3422778
-4582.1968 790.44293 5310.0376 3554363
-4544.8223 789.72955 5305.2451 3554620
-4511.583 789.72955 5305.2451 3554878
-4527.6797 798.42957 5363.6899 3686207
-4508.437 800.98126 5380.8315 4015428
-4503.3477 806.10474 5415.2505 4015942
-4413.3086 795.98468 5347.2656 4147528
-4354.5806 791.40015 5316.4678 4015942
-4345.3076 795.80219 5346.04 3818306
-4347.7368 802.43237 5390.5801 3620927
-4310.5625 801.7998 5386.3306 3489341
-4276.8149 801.7998 5386.3306 3291962
-4247.856 802.70453 5392.4082 3423548
-4219.418 803.72302 5399.2505 3620927
-4155.522 797.9494 5360.4644 3752770
-4093.198 792.38586 5323.0898 3752513
-4057.0388 791.83777 5319.4077 3620927
-4030.5332 793.1803 5328.4263 3686720
-4023.3535 798.38031 5363.3589 4015685
-3999.4763 800.32648 5376.4331 4081735
-3945.0645 796.14368 5348.334 4147271
-3918.1228 797.48035 5357.3135 4147271
-3868.679 794.22052 5335.4146 4213062
-3820.915 791.25183 5315.4712 4344648
-3776.4453 788.91901 5299.8003 4344904
-3719.7952 783.97772 5266.6055 4147269
-3656.2842 777.48914 5223.0161 3949890
-3578.4463 767.80914 5157.9883 3884097
-3524.4629 763.11792 5126.4731 3884097
-3476.4792 759.65125 5103.1851 3818304
-3467.6233 764.74939 5137.4336 3620925
-3373.5378 750.97058 5044.8701 3687231
-3287.7271 738.79053 4963.0469 3753024
-3260.2349 739.60785 4968.5376 3753539
-3130.9341 717.12225 4817.4839 4082248
-2997.5942 693.26483 4657.2144 4279627
-2890.4751 675.06207 4534.9321 4411213
-2767.2959 652.70996 4384.7749 4346190
-2712.6716 646.24146 4341.3208 4149067
-2713.7129 653.03748 4386.9751 4083019
-2686.2273 653.03748 4386.9751 4807251
-2545.5081 625.22522 4200.1377 5136217
-2509.3523 622.7829 4183.731 5070938
-2477.0298 621.25049 4173.4365 5005145
-2463.916 624.55438 4195.6313 5004889
-2522.6316 646.33319 4341.937 4939095
-2550.4934 660.59552 4437.7485 4675923
-2461.8188 644.65588 4330.6689 3096378
-2434.708 644.66168 4330.708 2635057
-2537.707 679.50641 4564.7881 3029558
-2606.3997 705.85468 4741.7905 3490109
-2646.0684 724.85992 4869.4639 3753024
-2626.2988 727.83606 4889.457 3687231
-2595.6648 727.83606 4889.457 3621438
-2684.5923 761.76202 5117.3647 3621438
-2642.616 758.91479 5098.2378 3687231
-2625.0525 763.0946 5126.3169 3621184
-2592.9346 763.0946 5126.3169 3621437
-2577.2979 768.00574 5159.3091 3621438
-2563.2432 773.51923 5196.3472 3687231
-2549.0278 779.12537 5234.0083 3687231
-2505.3564 775.75696 5211.3799 3819074
-2466.0312 773.66296 5197.313 3950403
-2451.4038 779.36511 5235.6187 3884867
-2441.0032 786.58392 5284.1133 3884610
-2430.9492 794.11456 5334.7026 3884610
-2420.6941 801.78845 5386.2544 4016710
-2355.7542 791.31036 5315.8647 4148039
-2318.8025 790.06805 5307.519 4345418
-2287.9224 790.88843 5313.0303 4411211
-2277.4636 798.89636 5366.8262 4279625
-2260.4077 804.79572 5406.4565 4213832
-2161.6746 781.35156 5248.9634 4082246
-2150.7214 789.40198 5303.0444 4082503
-2161.3118 805.73645 5412.7759 4279625
-2135.76 808.90302 5434.0488 4148296
-2109.3467 811.8407 5453.7832 4148039
-2079.1675 813.40179 5464.2705 4016710
-2029.8451 807.40076 5423.9565 4213832
-1973.8145 798.48151 5364.0391 4279625
-1940.2069 798.48151 5364.0391 4279113
-1865.274 781.17438 5247.7734 4147528
-1821.1312 776.37244 5215.5146 4081735
-1824.0802 791.83771 5319.4072 4081735
-1823.5925 806.35895 5416.958 4081735
-1775.0267 799.76855 5372.6851 4081735
-1686.0365 774.35742 5201.978 4081735
-1619.1698 758.30554 5094.145 4015942
-1504.8877 718.95551 4829.7993 4081735
-1445.8273 704.914 4735.4712 4279114
-1513.9617 753.59717 5062.5151 4081735
-1494.6487 759.90417 5104.8843 3950149
-1421.675 738.60852 4961.8242 3884356
-1380.0863 733.03076 4924.354 3752770
nan nan nan 16777215
-1130.4733 628.55249 4222.4897 4213578
-1104.0181 628.55249 4222.4897 4740178
-1161.4119 677.4624 4551.0566 5069143
-1145.902 685.23853 4603.2954 3950662
-1112.5941 682.49847 4584.8882 3884869
-1072.4272 675.29419 4536.4912 3950406
nan nan nan 16777215
-874.80804 581.68872 3907.6687 4279114
-943.16571 645.19891 4334.3169 4213321
-924.97113 651.5108 4376.7192 4213321
-897.54962 651.5108 4376.7192 4213321
-842.48853 630.81561 4237.6929 4410699
-775.91852 599.87579 4029.8455 4410699
-813.07379 649.74371 4364.8481 4081735
-790.28796 653.51562 4390.187 4016199
-708.63208 607.12244 4078.5271 4015942
-703.42676 625.2077 4200.0205 4015942
-688.78534 635.98596 4272.4263 3752770
-674.297 647.78278 4351.6753 3884355
-618.82898 619.54669 4161.9907 4410702
-596.95905 623.94305 4191.5244 4674388
-600.40204 656.41858 4409.6885 4740181
-564.56555 647.01147 4346.4937 4213836
-538.54254 648.46735 4356.2739 3555653
-522.45746 662.68402 4451.7783 4674133
-491.25275 658.24487 4421.957 4805718
-459.26843 652.16809 4381.1348 4740182
-428.7406 647.51849 4349.8994 4542547
-409.57953 660.56989 4437.5762 4477011
-385.58038 667.15106 4481.7876 4477010
-360.65857 673.04437 4521.3774 4937305
-333.91016 676.2431 4542.8657 4805718
-305.44769 676.2431 4542.8657 4213582
-298.46652 728.68835 4895.1826 4542546
-277.35147 754.6875 5069.8394 4476753
-248.77948 764.49677 5135.7363 4476753
-220.49713 778.24292 5228.0801 4410960
-189.17731 784.19434 5268.0605 4279374
-155.42717 780.45789 5242.96 4016202
-123.71394 787.68793 5291.5298 4081994
-92.480019 804.38049 5403.667 4082250
-58.784454 806.57697 5418.4229 4016457
-24.862617 807.42981 5424.1519 4279626
9.1465092 809.65472 5439.0981 3950662
43.224144 809.65472 5439.0981 3753283
78.714661 824.45312 5538.5112 3621697
115.11806 836.83215 5621.6709 3621441
149.2868 830.97217 5582.3047 3752770
184.26169 830.97217 5582.3047 3753026
219.00719 830.10284 5576.4648 3884356
253.808 829.65344 5573.4458 3687234
293.147 842.35321 5658.7603 3818819
330.7616 847.89209 5695.9692 3818562
367.61368 850.58777 5714.0786 3621183
400.9725 845.4397 5679.4946 3226425
434.80167 842.04163 5656.667 3226169
467.00769 836.24933 5617.7559 3226168
493.3385 821.48572 5518.5767 3226169
524.41553 816.04163 5482.0044 3424061
555.94073 811.92133 5454.3252 3358011
591.23938 813.47003 5464.729 3358012
620.67627 807.22565 5422.7803 3226426
653.22424 805.46558 5410.9565 3226426
681.69971 799.10522 5368.229 3292219
715.33337 799.10522 5368.229 3292219
745.71069 795.63098 5344.8896 3226426
775.60608 791.96326 5320.2505 3094840
805.20404 788.30652 5295.6855 3160376
827.51617 778.08868 5227.0439 3159865
862.48682 780.09796 5240.542 2963000
902.70135 786.52911 5283.7451 2172973
925.04639 777.48608 5222.9961 1646633
961.29327 780.34613 5242.209 1580841
983.67102 772.13055 5187.0186 1449002
1015.77 771.82721 5184.9805 1185577
1039.6174 765.46698 5142.2539 1185065
1067.6027 762.44421 5121.9478 1053480
1096.0159 759.89459 5104.8198 921893
1129.9478 761.20728 5113.6382 987686
1161.9862 761.20728 5113.6382 790821
1182.2725 753.71503 5063.3066 461853
1195.3875 742.16205 4985.6963 460826
1223.2196 740.10199 4971.8569 592666
1252.7158 739.12604 4965.3008 461591
1295.3441 745.75793 5009.8525 330517
1369.1152 769.58136 5169.8936 462100
1382.6224 759.2121 5100.2349 2107693
1414.577 759.2121 5100.2349 3357758
1447.8077 759.8819 5104.7344 3489087
1479.7905 759.8819 5104.7344 3489599
1527.7673 767.9212 5158.7407 3489598
1570.6288 773.10944 5193.5947 3489598
1615.6244 779.11627 5233.9473 3423806
1670.9862 789.78369 5305.6089 3423806
1710.4958 792.6886 5325.1235 3489598
1756.3644 798.37286 5363.3091 3489598
1801.9778 803.72986 5399.2964 3555391
1839.408 805.30682 5409.8901 3489599
1879.884 808.13611 5428.8965 3424062
1936.45 817.65869 5492.8672 3423806
1981.2675 821.97455 5521.8608 3424062
2031.6841 828.42542 5565.1963 3423805
2068.0955 829.04425 5569.3535 3621184
2124.4695 837.51233 5626.2402 3621184
2157.9189 836.81403 5621.5493 3621184
2200.3823 839.57751 5640.1138 3621184
2217.2993 832.66028 5593.645 3358012
2252.3452 832.66028 5593.645 3358012
2290.98 833.96661 5602.4209 3226426
2370.8208 850.0072 5710.1782 3094840
2359.1931 833.26434 5597.7026 3292219
2363.5549 822.57654 5525.9048 3292219
2403.5491 824.41931 5538.2842 3292219
2462.2275 832.52728 5592.7515 3423805
2516.6792 838.99847 5636.2241 3555391
2545.7595 836.94958 5622.46 3555391
2549.4727 826.73059 5553.8105 3555391
2576.7886 824.33752 5537.7344 3292219
2616.9373 826.05884 5549.2979 3423805
2640.7522 822.64673 5526.376 3489598
2649.4182 814.66479 5472.7549 3620927
2674.8608 811.97949 5454.7158 3489598
2702.8074 810.11255 5442.1738 3357755
2691.291 796.61121 5351.4746 3225912
2669.2537 780.36633 5242.3447 3226169
2640.749 762.64856 5123.3203 3094583
2691.2864 767.90942 5158.6621 3160376
2733.2395 770.62543 5176.9072 3423548
2750.9351 766.51843 5149.3174 3554364
2733.6804 752.88104 5057.7041 3686207
2709.8433 737.76416 4956.1519 4013375
2748.5142 739.81494 4969.9287 3816508
2574.2463 685.14539 4602.6694 3092014
2580.8455 679.29224 4563.3491 2368548
2628.2144 684.18054 4596.188 2697257
2657.8113 684.3866 4597.5723 2828585
2703.7917 688.7619 4626.9644 2894892
2682.802 676.16522 4542.3428 3421748
2706.5618 674.99329 4534.4697 3882300
2807.7917 692.96527 4655.2021 3882557
2973.7317 726.37415 4879.6362 3751230
3059.1543 739.63568 4968.7246 3751743
3139.2617 751.35791 5047.4722 3751743
3202.3157 758.80542 5097.5029 3751486
3325.4329 780.19757 5241.2109 3555390
3316.6758 770.53418 5176.2944 3555134
3349.1067 770.53418 5176.2944 3555134
3454.3318 787.12134 5287.7236 3555134
3487.5759 787.14728 5287.8979 3555134
3653.1257 816.75323 5486.7847 3555134
3672.8701 813.51227 5465.0127 3357755
3709.3667 814.00745 5468.3394 3423548
3764.5015 818.54626 5498.8301 3423548
3800.0249 818.77716 5500.3813 3291962
3836.7937 819.2699 5503.6909 3226169
3878.1055 820.71509 5513.3999 3291962
3906.3989 819.40417 5504.5933 3423548
3946.116 820.49152 5511.8975 3554107
3980.6499 820.49152 5511.8975 3226170
3965.0688 810.25067 5443.1016 3226169
4022.1658 814.90942 5474.3984 3094583
4012.0923 805.99542 5414.5156 3094583
3889.6177 774.83978 5205.2183 3028791
3862.2131 762.98334 5125.5693 3094583
3880.8533 760.34363 5107.8364 3160377
3865.0427 751.05273 5045.4219 3226169
3850.1497 742.08942 4985.208 3226170
3826.7109 731.63635 4914.9868 3357755
3812.9944 723.19434 4858.2749 3423548
3733.8359 702.57208 4719.7388 3489341
3738.323 697.88934 4688.2812 3423548
3749.3582 694.49255 4665.4619 3489084
3746.1296 688.52667 4625.3843 3685950
3756.3201 685.09985 4602.3638 3554364
3785.1553 685.09985 4602.3638 3488570
3802.3706 683.01257 4588.3418 3422778
3816.8074 680.4613 4571.2026 3422521
3731.3936 660.27924 4435.6235 3553851
3483.8567 611.91943 4110.7524 3356730
3449.832 601.49652 4040.7334 3159096
3373.79 583.95294 3922.8787 5593693
3382.1882 581.17267 3904.2017 7764861
3399.6108 579.97198 3896.1355 7633276
3265.4175 553.10712 3715.6628 4409162
3338.4829 561.48029 3771.9121 3685181
3797.6938 634.22284 4260.582 3751231
4052.394 672.03455 4514.5938 3816766
4037.0583 664.85077 4466.3345 3751486
4200.708 687.03949 4615.3936 3751487
4359.5664 708.14661 4757.187 3817537
4409.1533 711.33795 4778.626 3817793
4490.0527 719.50403 4833.4839 3883329
4544.064 723.28076 4858.8555 3949122
4543.7109 718.41168 4826.146 3949122
4573.9482 718.41168 4826.146 3751743
4715.8975 735.84259 4943.2432 3554364
4757.3438 737.46649 4954.1523 3620157
4843.064 745.88794 5010.7261 3817536
4937.7085 755.56659 5075.7451 3883330
4976.1387 756.5744 5082.5156 3751490
5028.7422 759.71082 5103.585 3883075
5114.8779 767.84125 5158.2036 3751489
5128.04 764.98358 5139.0068 3751489
5162.4336 765.3092 5141.1938 3817282
5174.7715 762.38135 5121.5254 3751489
5195.3022 760.68909 5110.1572 3685697
5188.7148 755.07141 5072.4185 3685696
nan nan nan 16777215
nan nan nan 16777215
nan nan nan 16777215
nan nan nan 16777215
nan nan nan 16777215
nan nan nan 16777215
-4249.0981 702.46661 4529.4004 3685695
-4304.083 716.341 4618.8604 3620158
-4358.8599 730.36835 4709.3066 3554366
-4347.9565 733.50641 4729.5405 3488827
-4371.165 742.48187 4787.4131 3488827
-4379.1943 748.98523 4829.3457 3554364
-4348.937 748.98523 4829.3457 3488571
-4356.5601 755.55475 4871.7051 3554364
-4354.71 760.56262 4903.9946 3291192
-4332.9072 762.13202 4914.1138 3225399
-4352.7383 771.09937 4971.9341 3356985
-4321.5879 771.09937 4971.9341 3422778
-4352.7451 782.29767 5044.1392 3356985
-4342.1616 786.10309 5068.6758 3422778
-4312.2852 786.44604 5070.8872 3554364
-4307.5591 791.41479 5102.9253 3554364
-4289.2417 793.94214 5119.2212 3423035
-4280.939 798.37524 5147.8052 3554364
-4217.5996 792.53381 5110.1401 3752000
-4198.0996 794.90387 5125.4219 4080708
-4140.6362 790.06659 5094.2319 3818306
-4108.7192 790.06659 5094.2319 3818306
-4090.7275 792.76532 5111.6328 3884099
-4053.1001 791.67114 5104.5781 4015685
-4023.5007 792.14026 5107.6025 4015685
-3960.03 785.89471 5067.3325 3818306
-3903.5 780.93689 5035.3652 3752513
-3885.9009 783.75031 5053.5054 3752770
-3839.7039 780.79462 5034.4478 3752513
-3800.1741 779.15692 5023.8882 3950149
-3723.26 769.76288 4963.3169 4278857
-3701.4329 771.6955 4975.7778 4344650
-3700.9863 778.15631 5017.4365 4278600
-3691.2395 782.75568 5047.0923 4147528
-3635.8123 777.66382 5014.2607 4213062
-3598.3657 776.36273 5005.8716 4278855
-3465.3494 754.23779 4863.2134 4147525
-3429.6992 753.10022 4855.8784 4081476
-3404.5154 754.26111 4863.3638 4015683
-3386.9319 757.14197 4881.939 3949890
-3379.2397 762.30658 4915.2397 4081476
-3286.7988 748.27252 4824.75 4213062
-3358.1519 771.61316 4975.2471 4147269
-3204.2185 743.14148 4791.666 4016196
-3091.0261 723.66956 4666.1138 3950403
-3055.5176 722.18665 4656.5522 3950402
-2962.4399 706.93726 4558.2266 3884610
-2911.7808 701.612 4523.8901 3950660
-2784.3647 677.50525 4368.4531 3884867
-2745.759 674.74408 4350.6499 3819588
-2717.571 674.51331 4349.1616 3820357
-2755.8452 690.94116 4455.0859 4281424
-2656.3501 672.81042 4338.1816 5070681
-2554.6062 653.72937 4215.1499 5005658
-2488.1729 643.38013 4148.4194 4808792
-2463.6714 643.76935 4150.9292 4808793
-2462.2195 650.25415 4192.7422 4808535
-2476.4023 661.05237 4262.3677 4873815
-2534.5249 683.94318 4409.9639 5005401
-2474.5872 675.12872 4353.1299 5071194
-2415.071 666.23425 4295.7793 4939094
-2420.0732 675.13806 4353.1899 4543567
-2454.4016 692.51947 4465.2627 3688001
-2526.6548 721.12567 4649.7109 3555902
-2504.7341 723.20782 4663.1367 3555902
-2512.3057 733.95514 4732.4336 3621438
-2516.8821 744.07361 4797.6763 3950403
-2469.5046 738.89185 4764.2646 4081988
-2449.7974 741.96356 4784.0708 4081479
-2440.282 748.23645 4824.5176 3950659
-2414.1804 749.51733 4832.7764 4081989
-2381.032 748.61511 4826.959 3819074
-2416.7998 769.63617 4962.5 3687231
-2378.8044 767.409 4948.1392 3884610
-2314.9033 756.65546 4878.8018 4082246
-2343.9592 776.40479 5006.1426 4147782
-2338.5312 785.11261 5062.2896 4081989
-2329.7793 792.92853 5112.6855 3884610
-2285.6926 788.76886 5085.8643 3884610
-2127.2646 744.47559 4800.2681 3819074
-2051.7002 728.32739 4696.147 3950660
-2038.7787 734.27045 4734.4668 4279368
-2116.928 773.67249 4988.5254 4410954
-2018.26 748.66577 4827.2856 4279625
-2036.209 766.81488 4944.3086 4082246
-2041.5784 780.71423 5033.9297 4147782
-2006.0653 779.17078 5023.9775 4082246
-1978.2672 780.62231 5033.3369 4147782
-1950.8062 782.25616 5043.8716 4016453
-1902.5552 775.46991 5000.1147 4016196
-1870.2635 775.07031 4997.5381 4279368
-1816.9386 765.79205 4937.7134 4213832
-1786.9855 766.2135 4940.4312 4081735
-1761.1415 768.44299 4954.8062 3818564
-1709.9633 759.49982 4897.1421 3818564
-1686.9443 762.96576 4919.4897 3950150
-1657.0508 763.39349 4922.248 4015686
-1603.0188 752.50623 4852.0483 3884357
-1561.4683 747.17041 4817.644 3752771
-1519.5436 741.44171 4780.7061 3686978
-1499.3563 746.30243 4812.0474 3818563
-1371.2559 696.54669 4491.2295 3686977
-1371.0048 711.00946 4584.4834 3423805
-1342.2815 711.00946 4584.4834 3489598
-1315.5687 712.09766 4591.5 3423805
nan nan nan 16777215
-1089.5571 616.73279 3976.6016 5068629
-980.65479 568.07983 3662.8945 5331804
-1083.0255 642.41559 4142.2002 4081993
-957.19312 581.71539 3750.8142 2700084
-1041.1877 648.68732 4182.6396 3621186
-998.12274 637.91229 4113.1636 3884614
-919.8233 603.4505 3890.959 3884614
-891.85229 601.02911 3875.3467 3160634
-874.32904 605.71014 3905.5291 2700340
-879.32098 626.7077 4040.9185 3884357
-877.89233 644.23853 4153.9546 4476493
-823.3111 622.64307 4014.7102 5068631
-798.15771 622.64307 4014.7102 4081736
-758.29413 610.79425 3938.3105 2502703
-750.44305 624.80133 4028.626 3621184
-732.49353 631.08289 4069.1287 4344907
-700.59625 625.36749 4032.2769 4608081
-672.45917 622.70648 4015.1189 4279116
-651.98309 627.20856 4044.1477 2700085
-627.93781 628.50232 4052.4895 3555136
-607.47919 633.64618 4085.6565 4607825
-592.75287 645.48486 4161.9907 4542289
-570.82831 650.21387 4192.4824 4477010
-543.28735 648.69305 4182.6763 2766135
-510.16449 640.01526 4126.7236 3752773
-484.6864 640.51367 4129.937 5002840
-458.8764 640.60492 4130.5254 5068635
-429.573 635.53864 4097.8589 5003356
-402.53775 633.39728 4084.0515 3029566
-373.68173 627.90564 4048.6423 3819083
-355.05908 640.06189 4127.0239 4937562
-333.40964 648.24268 4179.7725 5266785
-305.35605 644.30536 4154.3853 4543060
-283.16995 653.16846 4211.5332 3753287
-276.99255 704.57361 4542.9858 4345424
-259.50281 735.68298 4743.5747 4345681
-234.36888 750.36591 4838.248 4345423
-206.91182 760.86835 4905.9663 4411217
-178.88986 772.59595 4981.584 4477010
-149.76271 783.4986 5051.8828 4279887
-118.5335 786.30072 5069.9502 4148300
-86.945343 787.90155 5080.272 4477522
-55.900444 799.11737 5152.5903 4214093
-23.65181 800.26593 5159.9961 4411472
8.6005878 793.20349 5114.4585 4477522
40.340355 787.27264 5076.2173 4016968
73.155357 798.30438 5147.3481 4148298
107.47545 813.98462 5248.4517 4477006
137.96135 800.08203 5158.8101 4345677
172.57341 810.84418 5228.2026 4477519
208.04082 821.55017 5297.2339 4411726
239.54636 815.8175 5260.27 4214091
272.66849 816.31122 5263.4536 4016713
306.36893 818.24298 5275.9092 4147784
