# .PCD v0.7 - Point Cloud Data file format
VERSION 0.7
FIELDS x y z rgb
SIZE 4 4 4 4
TYPE F F F U
COUNT 1 1 1 1
WIDTH 1272
HEIGHT 1
VIEWPOINT 0 0 0 1 0 0 0
POINTS 1272
DATA ascii
-1386.9126 645.92218 2361.677 3160374
-1382.3545 650.74194 2379.2996 3160374
-1360.6735 647.51831 2367.5132 3160374
-1342.3213 645.82526 2361.3228 2765616
-1328.307 646.20477 2362.7104 3226167
-1311.6903 645.31256 2359.4482 3489339
-1300.8466 647.27252 2366.6143 3489082
-1286.019 647.27252 2366.6143 3423546
-1282.705 653.13501 2388.0493 3620668
-1267.7432 653.13501 2388.0493 3686718
-1243.2249 648.15271 2369.8328 3357753
-1246.8644 657.90759 2405.4993 2700079
-1223.6884 653.57874 2389.6719 3029045
-1212.483 655.61554 2397.1189 3357753
-1199.1986 656.56506 2400.5906 3423545
-1175.0138 651.49487 2382.0525 3358009
-1158.2738 650.47522 2378.3242 3291960
-1133.6642 644.95184 2358.1294 3160374
-1119.6057 645.3645 2359.6382 3423546
-1105.9917 646.04785 2362.1367 3423546
-1091.4584 646.20544 2362.7129 3292216
-1075.9961 645.80981 2361.2664 3226680
-1066.778 649.20312 2373.6733 3424059
-1055.5579 651.45685 2381.9136 3950403
-1045.2556 654.34979 2392.491 3884610
-1025.8125 651.5213 2382.1492 3687231
-1020.595 657.77789 2405.0249 3687487
-1005.5269 657.77789 2405.0249 3819074
-1008.9 670.02502 2449.8042 3424318
-986.20953 665.07397 2431.7017 3292732
-970.67126 664.86652 2430.9431 3490111
-958.58502 667.05457 2438.9434 2766388
-941.22687 665.58557 2433.572 2832181
-938.74493 674.76105 2467.1204 3687490
-924.30957 675.50781 2469.8508 3884869
-904.89893 672.58215 2459.1538 3884869
-885.50037 669.56427 2448.1194 3819076
-875.75635 673.86884 2463.8582 3884869
-857.69098 671.81 2456.3303 3819333
-846.49677 675.15619 2468.5652 3819332
-833.66431 677.29608 2476.3892 4345419
-804.85272 666.28888 2436.1438 4609105
-790.27417 666.86664 2438.2561 4872020
-775.24701 667.08112 2439.0403 4674641
-759.96564 667.08112 2439.0403 4740178
-737.18286 660.36133 2414.4709 4542544
-728.23621 666.01404 2435.1389 4082250
-714.25653 667.20715 2439.5012 4082250
-691.00201 659.59906 2411.6838 4213836
-680.21893 663.82166 2427.1228 4805972
-667.5993 666.40399 2436.5647 4871765
-661.73169 676.00494 2471.6685 3621184
-647.19836 677.00128 2475.3113 3884356
-626.08423 670.99365 2453.3457 3884611
-611.17511 671.50116 2455.2012 3621439
-596.51929 672.32025 2458.196 3686719
-581.80103 673.11053 2461.0857 3752768
-564.81799 671.25232 2454.2915 3752768
-547.69891 669.1239 2446.5093 3950147
-534.99884 672.42706 2458.5867 3818563
-517.60059 669.84589 2449.1492 3818306
-501.00821 668.18195 2443.0652 3752769
-485.0918 667.3429 2439.9976 3423548
-469.24298 666.54547 2437.0818 3752513
-454.02393 666.61884 2437.3501 3884096
-437.85703 665.25726 2432.3718 3818304
-415.06329 653.36597 2388.8938 3686720
-403.18726 658.41382 2407.3503 3358012
-388.67151 659.37585 2410.8677 3094840
-373.56668 659.37585 2410.8677 3029047
-358.79749 659.99329 2413.125 2831668
-344.02173 660.65234 2415.5349 2765875
-326.51889 655.8941 2398.1375 3489598
-311.4938 655.8941 2398.1375 3752770
-301.97079 668.06665 2442.6436 4147528
-286.92245 668.66223 2444.8213 4015942
-264.63788 651.51019 2382.1086 3621184
-252.14828 657.86334 2405.3376 3752770
-238.70007 662.36414 2421.7937 4344907
-223.00275 660.81128 2416.116 3950149
-207.86502 660.81128 2416.116 3555391
-189.65727 650.28497 2377.6287 3226426
-174.6665 649.93445 2376.3472 3029047
-159.31879 648.06671 2369.5181 3358012
-142.33868 638.49261 2334.5125 3555392
-127.50678 637.46539 2330.7568 3423806
-112.98421 637.91907 2332.4155 3029046
-97.701462 633.57788 2316.5427 2963253
-83.678444 637.31616 2330.2112 3226425
-69.128609 637.77441 2331.8865 3226168
-54.958542 642.92078 2350.7031 3292218
-40.069168 640.34003 2341.2673 3357754
-25.421362 640.86841 2343.1992 3292216
-10.82446 645.8786 2361.5178 3226423
3.9790134 647.1524 2366.1753 2634286
18.729446 644.59222 2356.8145 2502443
33.644619 647.45959 2367.2983 2436651
48.658714 649.89362 2376.1978 2436651
63.609882 650.54358 2378.5742 2634030
78.501541 650.45367 2378.2456 2897460
93.911613 654.00275 2391.2219 2962997
109.04764 654.92926 2394.6096 2831410
124.56353 657.63733 2404.511 3029046
139.95097 659.15588 2410.0635 3160375
155.42488 660.7464 2415.8787 3160632
170.49471 660.48907 2414.938 3226169
185.13797 658.75604 2408.6013 2897460
200.49744 659.64044 2411.8352 3029045
216.77542 663.21112 2424.8904 2963254
233.25774 666.89819 2438.3716 2634545
248.6196 667.12555 2439.2026 2831410
263.90195 667.12555 2439.2026 2897204
278.58969 665.70459 2434.0073 2831408
293.39499 664.69751 2430.3252 2962995
308.07205 663.51367 2425.9968 2962995
323.27167 663.51367 2425.9968 2897202
337.16757 660.95795 2416.6523 3028788
351.78311 659.97205 2413.0474 2700079
365.90881 658.18622 2406.5181 2634032
381.94763 659.84686 2412.5898 2436654
396.61548 659.10272 2409.8689 2831668
410.65637 657.40955 2403.6782 2502959
424.53992 655.59308 2397.0369 2634289
437.97003 653.22455 2388.3767 2502703
453.47046 653.99829 2391.2058 2371117
468.71173 654.36072 2392.5308 2831924
483.59598 654.21777 2392.0081 2831665
497.15256 652.34119 2385.147 2634799
512.62164 653.01056 2387.5942 2568750
527.77051 653.24554 2388.4534 2569006
544.27856 655.10345 2395.2466 2700336
563.40936 659.93384 2412.9077 2963252
573.84949 654.59808 2393.3989 3029302
590.3692 656.29266 2399.5947 3095096
605.67847 656.59082 2400.6848 3029303
620.79907 656.67505 2400.9927 3094840
634.26282 655.04407 2395.0293 3226425
651.78601 657.58411 2404.3164 3292219
674.27075 664.90192 2431.0725 3094840
691.62219 666.94629 2438.5474 3029047
707.55084 667.55994 2440.791 3094841
720.24384 665.15936 2432.0139 3226426
737.23083 666.74176 2437.7996 3160633
748.88336 663.53345 2426.0688 3292219
766.02655 665.22083 2432.2385 3358012
786.31763 669.52271 2447.9675 3489598
801.19965 669.14252 2446.5774 3423805
816.5282 669.14252 2446.5774 3292219
837.35535 673.56555 2462.7493 3489598
843.99359 666.62152 2437.3599 4147528
859.26434 666.62152 2437.3599 4015942
874.67145 666.72534 2437.7395 3621441
887.98065 665.25397 2432.3599 3555391
901.06171 663.66431 2426.5474 3555647
916.21722 663.62976 2426.4211 3029047
933.81665 665.33771 2432.666 2897461
947.62347 664.33203 2428.9888 3226426
959.72772 662.18335 2421.1328 3621184
965.22858 655.61633 2397.1218 3752770
978.33649 654.33832 2392.449 3423805
994.36542 655.02307 2394.9526 3423805
1016.8857 659.90002 2412.7842 3489598
1030.5065 658.94336 2409.2864 3621184
1049.2433 661.23846 2417.678 3950149
1057.2218 656.78479 2401.394 3752770
1086.6504 665.59479 2433.606 3818563
1098.3329 663.44153 2425.7329 3292219
1103.1154 657.2359 2403.0435 3555134
1109.0341 651.86542 2383.4072 3358012
1124.1847 651.9917 2383.8691 3358269
1137.6125 651.12866 2380.7136 3489342
1149.8525 649.61694 2375.1863 3292219
1164.4606 649.46454 2374.6289 3160374
1178.0293 648.74365 2371.9932 3160375
1190.8212 647.61816 2367.8782 3028787
1202.9744 646.17737 2362.6104 2962995
1217.1652 645.85278 2361.4233 2962995
1233.0094 646.40283 2363.4346 3094581
1248.739 646.88043 2365.1807 3160374
1267.1428 648.71594 2371.8918 3555132
1277.1307 646.25024 2362.8767 3489339
1289.0369 644.80054 2357.5762 3423546
1308.4563 647.09943 2365.9817 3160374
1320.6771 645.82672 2361.3281 2962995
1334.4697 645.34222 2359.5566 3094581
1348.173 644.82556 2357.6677 3028788
1361.9741 644.36658 2355.9893 2962995
1378.7209 645.2959 2359.3875 2962995
1393.5033 645.2959 2359.3875 3226167
1411.0685 646.57117 2364.05 3423546
1435.2551 650.82233 2379.5935 3226169
1444.0753 648.08978 2369.6025 2831411
1446.274 642.47137 2349.0601 2962997
1459.8976 641.9903 2347.301 3094583
1465.3387 637.95648 2332.5522 3291962
1488.6804 641.71857 2346.3076 3160376
1509.8837 644.49432 2356.4565 2831411
1528.0599 645.93683 2361.7307 3160376
1541.5286 645.38068 2359.6973 3160633
1552.3821 643.75067 2353.7375 3160376
1573.4838 646.36108 2363.282 3226169
1590.5112 647.26483 2366.5864 3094583
1609.3632 648.88751 2372.5193 3094583
1624.7319 649.08899 2373.2559 3226169
1643.2499 650.53345 2378.5374 3094583
1662.7389 652.33289 2385.1167 2897204
1677.7024 652.34076 2385.1453 2897204
1692.6461 652.34076 2385.1453 2765618
1708.1558 652.55695 2385.9358 2831411
1723.1044 652.55695 2385.9358 2896691
1748.0659 656.31635 2399.6812 2962741
1763.1007 656.31635 2399.6812 3093556
1777.9166 656.23553 2399.3857 2961970
1799.3739 658.58691 2407.9832 2764591
1815.2822 658.88513 2409.0735 2699055
1824.321 656.70563 2401.1045 3093813
1845.3979 658.85962 2408.9802 3093813
1869.2212 661.95129 2420.2842 3028277
1890.955 664.25922 2428.7227 3028278
1901.8062 662.73792 2423.1602 3093557
1926.9691 666.18854 2435.7769 2962227
1941.4432 665.9187 2434.79 3028020
1961.3466 667.50073 2440.5745 3225399
1982.1833 669.37354 2447.4221 3291192
1997.5173 669.37354 2447.4221 3422778
2002.1423 665.81232 2434.4014 3159863
2019.1072 666.37756 2436.468 3093813
2042.3876 669.00299 2446.0671 3028020
2063.5437 670.89868 2452.9985 2896435
2080.4832 671.40558 2454.8518 3093300
2100.405 672.86041 2460.1711 3093813
2122.4832 674.9798 2467.9202 3159606
2127.801 671.77704 2456.21 3093813
2156.8381 676.05505 2471.8516 3422778
2162.8721 673.11316 2461.0952 3488571
2165.2893 669.0954 2446.405 3093813
2171.8369 666.40131 2436.5547 2896434
2189.8816 667.24805 2439.6506 2896434
2205.1667 667.24805 2439.6506 3028020
2218.0667 666.53125 2437.0298 3028277
2231.561 666.00165 2435.0935 3159350
2242.7571 664.79803 2430.6929 3027509
2253.0837 663.35474 2425.4155 2830387
2262.9382 661.79254 2419.7039 2698801
2278.2312 661.83118 2419.845 3093559
2290.7664 661.07336 2417.0742 2830387
2309.2747 662.03796 2420.6011 2830387
2332.7451 664.40326 2429.2493 2830387
2343.2188 663.06018 2424.3386 2830387
2359.3425 663.32294 2425.2993 2830387
2379.5015 664.70953 2430.3691 2830387
2399.4016 666.00665 2435.1118 2764595
2416.022 666.38275 2436.4871 2764594
2422.7866 664.05286 2427.968 2764594
2444.2324 665.75079 2434.1763 2698801
2461.5496 666.31006 2436.2212 2764594
2480.3328 667.25696 2439.6831 2896180
2493.5767 666.71112 2437.6875 2830387
nan nan nan 16777215
nan nan nan 16777215
nan nan nan 16777215
nan nan nan 16777215
nan nan nan 16777215
nan nan nan 16777215
nan nan nan 16777215
nan nan nan 16777215
nan nan nan 16777215
nan nan nan 16777215
-2124.1328 650.7738 2326.4053 3621184
-2103.7378 648.97858 2319.9878 3555648
-2112.6492 656.26202 2346.0247 3753027
-2099.3914 656.71259 2347.6355 3752770
-2084.6824 656.71259 2347.6355 3226426
-2063.531 654.66858 2340.3284 3160633
-2053.9294 656.28577 2346.1096 3160633
-2028.533 652.84308 2333.8025 3489598
-2010.1385 651.62018 2329.4309 3621184
-2002.9662 654.04376 2338.095 3752770
-1984.77 652.87689 2333.9236 3555391
-1968.1124 652.2027 2331.5132 3555391
-1950.9349 651.34467 2328.446 3621184
-1936.3466 651.34467 2328.446 3752770
-1919.3286 650.52124 2325.5024 3686977
-1903.5447 650.10669 2324.0205 3752770
-1885.1764 648.79626 2319.3359 3753027
-1869.5752 648.42523 2318.0095 3752770
-1864.3922 651.69 2329.6804 3818563
-1849.796 651.69 2329.6804 3818563
-1829.9141 649.81299 2322.9705 3950406
-1815.3599 649.81299 2322.9705 4015942
-1805.1388 651.37653 2328.5598 3818563
-1774.9949 645.7179 2308.3313 3621184
-1754.9315 643.6637 2300.9878 3358269
-1767.358 653.59045 2336.4744 3555391
-1752.8737 653.64807 2336.6802 3752770
-1720.3938 646.93958 2312.6985 3555391
-1699.522 644.51917 2304.0461 3292219
-1683.3701 643.86279 2301.6995 3291963
-1666.1259 642.7735 2297.8057 3423805
-1646.7522 640.83661 2290.8816 3686721
-1632.0745 640.70923 2290.426 3423805
-1610.8448 637.98456 2280.6858 3094840
-1600.2897 639.47668 2286.02 3160633
-1586.6429 639.74915 2286.9941 3292219
-1567.1851 637.66223 2279.5337 3160633
-1552.4286 637.46741 2278.8372 3094841
-1546.5189 640.93536 2291.2346 3292219
-1532.8268 641.21277 2292.2263 3358012
-1520.0277 641.87256 2294.585 3555391
-1507.2266 642.54401 2296.9854 3752514
-1492.8323 642.54285 2296.981 3489599
-1480.1533 643.28699 2299.6411 3358012
-1467.6923 644.14148 2302.6958 3620928
-1453.2653 644.14148 2302.6958 3555645
-1443.1489 646.07135 2309.5947 3291703
-1429.3827 646.38977 2310.7332 3226167
-1417.08 647.38324 2314.2847 3160374
-1401.8206 647.03265 2313.0312 2897202
-1381.8567 644.48053 2303.908 2831409
-1366.0226 643.82104 2301.5503 2962995
-1348.1832 642.1922 2295.7275 3028788
-1338.9736 644.68323 2304.6326 3028788
-1323.6943 644.27441 2303.1711 2962995
-1306.0226 642.6792 2297.4685 2962995
-1295.4707 644.59113 2304.3032 2897202
-1282.2255 645.19086 2306.4473 3029045
-1272.2123 647.44916 2314.5203 3291960
-1253.7845 645.42786 2307.2944 3291960
-1250.1036 651.03937 2327.3545 3489339
-1246.3982 656.77032 2347.8418 3555132
-1233.4231 657.69543 2351.1489 2831665
-1205.434 650.54022 2325.5703 3160631
-1185.9185 647.83881 2315.9131 3358009
-1171.1064 647.67175 2315.3159 3357753
-1156.6003 647.67175 2315.3159 3357753
-1142.5167 647.91138 2316.1726 3226423
-1150.0587 660.57861 2361.4558 3226167
-1125.5875 654.94855 2341.3291 3555645
-1105.4037 651.69727 2329.7065 3621438
-1084.3357 647.83087 2315.8848 3621438
-1068.0746 646.77032 2312.0935 3555645
-1053.7396 646.86298 2312.4248 3358266
-1052.4055 655.05035 2341.6934 3950403
-1041.0219 657.12579 2349.1125 4016453
-1022.9357 654.96912 2341.4028 3687745
-1006.4023 653.75848 2337.075 3490109
-995.97168 656.53485 2347 3621695
-982.11694 657.10352 2349.033 3753538
-970.96368 659.52448 2357.6875 3753540
-955.83813 659.2804 2356.8149 3621697
-943.02557 660.64905 2361.7075 3687490
-929.38531 661.47217 2364.6501 3753283
-914.57001 661.47217 2364.6501 3885126
-903.44482 664.185 2374.3479 4213834
-885.41028 661.82404 2365.908 4279627
-870.58716 661.82404 2365.908 4213834
-857.99084 663.54626 2372.0647 4082764
-843.53882 663.86871 2373.2173 4082764
-827.79254 663.16583 2370.7046 4082763
-821.94446 670.51184 2396.9653 4083020
-800.47437 665.15033 2377.7988 4674900
-783.48846 663.38214 2371.478 4806487
-769.60339 664.22192 2374.48 4477522
-761.74426 670.39807 2396.5586 4609108
-742.33728 666.4552 2382.4636 4411729
-725.53156 664.73376 2376.3098 4279886
-709.237 663.4184 2371.6077 4411472
-686.11829 655.52679 2343.3965 4345679
-671.43616 655.52679 2343.3965 4213836
-662.25769 661.0202 2363.0344 4740180
-644.10315 657.60052 2350.8098 4345420
-627.91571 656.07623 2345.3606 3950150
-616.21552 659.27972 2356.8125 3950149
-602.77747 660.7356 2362.0168 4081735
-584.89935 657.27515 2349.6465 4015942
-575.95911 663.93921 2373.4695 3686977
-565.50354 669.16351 2392.1455 3884356
-546.85181 664.70959 2376.2234 3884356
-537.01666 671.02307 2398.793 3029047
-514.37488 661.23694 2363.8091 3620927
-502.53656 665.17035 2377.8704 3752770
-486.70636 663.89886 2373.3252 3620927
-472.27032 664.50897 2375.5061 4015685
-454.51358 660.33429 2360.5823 3884099
-444.28293 667.18066 2385.0571 3160376
-425.5011 661.21545 2363.7324 2765618
-410.69156 661.21545 2363.7324 2897204
-400.09613 668.25397 2388.8938 3029047
-377.58588 655.16565 2342.1052 3094840
-365.61826 660.05145 2359.5713 3555391
-350.88895 660.15332 2359.9355 3489598
-336.33984 660.6181 2361.5969 3029047
-317.44226 652.19159 2331.4736 3621184
-301.76538 649.88837 2323.24 3818564
-289.19373 654.37805 2339.2898 3752771
-275.66217 657.05914 2348.8743 3555391
-260.94574 657.05914 2348.8743 3555391
-246.85693 658.73395 2354.8613 3358012
-231.82962 657.95801 2352.0876 3752770
-216.14204 655.07574 2341.7839 3950149
-201.12668 653.95929 2337.793 3950149
-185.02106 648.84406 2319.5068 3752770
-169.20107 643.94391 2301.9895 3555648
-153.32924 637.91479 2280.4365 3358012
-139.60304 640.49072 2289.645 3621439
-124.21838 635.17621 2270.6465 3686719
-109.65394 633.22357 2263.6663 3029301
-95.782402 635.28656 2271.041 3029045
-81.557785 635.31903 2271.157 3358009
-67.524551 637.17096 2277.7776 3226424
-53.960423 645.62836 2308.0112 3358009
-39.086445 638.86853 2283.8459 3489595
-25.026955 645.30212 2306.845 3028788
-10.621711 648.22253 2317.2849 2634030
3.8296766 637.05701 2277.3701 2568237
18.284584 643.62109 2300.8354 2370858
32.842503 646.42523 2310.8599 2502444
47.554512 649.61847 2322.2751 2634030
62.30386 651.70599 2329.7378 2765616
77.291306 655.01892 2341.5808 2897459
93.053253 662.79138 2369.366 3094581
106.30353 652.99646 2334.3511 3028788
121.19045 654.40851 2339.3987 3028789
136.04347 655.35254 2342.7734 2831410
150.96643 656.41669 2346.5776 2766130
165.88373 657.26959 2349.6267 2897460
180.08209 655.36713 2342.8257 2765875
194.98691 656.12854 2345.5476 3028790
209.68248 656.12854 2345.5476 3226423
224.48572 656.4433 2346.6729 3226423
238.73807 655.20752 2342.2551 3029301
253.85759 656.35699 2346.3643 3094838
270.26089 660.51819 2361.2397 3160374
283.86942 657.77142 2351.4207 3094581
297.97748 656.39612 2346.5042 2962995
312.76364 656.57373 2347.1392 2897459
327.34656 656.32794 2346.2603 3094581
342.73105 657.64117 2350.9551 3028788
356.44608 655.77484 2344.2832 2962995
369.98141 653.73877 2337.0046 3028788
384.7374 653.93243 2337.6968 2568237
399.38379 653.93243 2337.6968 2765616
413.70676 653.42157 2335.8706 2831409
427.11407 651.54889 2329.176 2634030
442.32526 652.46069 2332.4358 2568237
455.81302 650.85333 2326.6897 3094581
470.39047 650.85333 2326.6897 2765616
485.93118 652.14618 2331.3113 2634030
499.93698 651.36365 2328.5139 2567980
515.35895 652.41833 2332.2842 2568237
529.97144 652.41833 2332.2842 2634030
545.18768 653.14166 2334.8701 2633773
560.30829 653.71558 2336.9216 2634030
574.94983 653.71558 2336.9216 2962995
587.21594 651.08179 2327.5063 3226167
602.43506 651.77051 2329.9683 2962995
618.15564 652.9563 2334.2073 2897202
635.03302 655.28101 2342.5178 2831153
652.58948 658.18549 2352.9009 2962995
667.1629 658.01959 2352.3079 2897202
682.69714 658.78802 2355.0547 2896945
702.78595 663.82599 2373.0647 2962741
717.65393 663.82599 2373.0647 2963254
728.21381 659.92188 2359.1082 2831925
739.92316 657.19409 2349.3567 3029047
755.15289 657.63849 2350.9453 3292219
774.12781 661.26508 2363.9097 3358012
789.20886 661.4917 2364.72 3489598
798.53888 656.97852 2348.5859 3423805
818.11847 660.90863 2362.6355 3423805
833.85815 661.65216 2365.2935 3489598
857.16803 668.27161 2388.957 3752770
864.35883 662.31274 2367.655 4213321
876.97406 660.64117 2361.6794 3489598
890.4339 659.65082 2358.1392 3358269
896.37921 653.21674 2335.1384 3292219
923.6972 662.31409 2367.6599 3358012
932.62341 658.14496 2352.7559 3423548
942.4162 654.70758 2340.4678 3160633
950.31049 650.07678 2323.9136 3226169
955.63049 643.85132 2301.6587 3094840
971.23993 644.64044 2304.4795 3292219
991.71149 648.58624 2318.585 3621184
1004.7922 647.65417 2315.2532 3686977
1018.884 647.39117 2314.313 3489598
1038.6545 650.69312 2326.1169 3160376
1055.6439 652.18542 2331.4517 3095350
1073.3501 654.07385 2338.2024 3423802
1081.5721 650.20984 2324.3892 3358266
1096.1351 650.20984 2324.3892 3358009
1111.6702 650.77887 2326.4233 3555388
1111.7383 642.39587 2296.4556 3292473
1130.5125 644.89795 2305.4001 3094837
1150.2876 647.9007 2316.1345 3226167
1158.3943 644.3382 2303.3992 3160374
1169.5817 642.55591 2297.0278 2962995
1184.197 642.67737 2297.4619 2897202
1203.8364 645.48981 2307.5159 3226167
1234.181 653.90735 2337.6072 3686718
1240.0775 649.32605 2321.2297 3884097
1250.4114 647.14752 2313.4419 3555132
1262.7314 646.0351 2309.4651 3160374
1275.1644 645.00488 2305.7825 3160374
1292.4794 646.43964 2310.9114 3160374
1308.01 646.96008 2312.7717 3357753
1315.9371 643.74939 2301.2942 3226167
1330.3555 643.74939 2301.2942 3094581
1347.9167 645.25391 2306.6726 3489339
1357.0586 642.73889 2297.6819 3291960
1369.7893 641.95856 2294.8923 3291960
1384.1676 641.95856 2294.8923 3226168
1401.2761 643.21191 2299.3728 3160376
1415.208 642.99628 2298.6021 3489341
1430.6047 643.44397 2300.2024 3094583
1445.0162 643.44397 2300.2024 2962997
1449.2316 638.94861 2284.1323 2831411
1482.7863 647.35004 2314.166 2699825
1498.8347 648.01996 2316.5608 2568239
1510.7976 646.92761 2312.6558 2831411
1516.5625 643.22717 2299.4275 3160376
1525.9458 641.1167 2291.8828 3489341
1545.1699 643.14148 2299.1211 3094583
1565.2769 645.49304 2307.5273 2897204
1588.6893 649.15216 2320.6082 3160376
1605.7683 650.18048 2324.2842 3160376
1635.0621 656.09167 2345.4158 2831411
1636.2762 650.73059 2326.2507 2765618
1644.6443 648.284 2317.5046 2699825
1663.9344 650.14789 2324.1677 2699825
1685.1274 652.71649 2333.3501 3028020
1734.8579 666.19952 2381.5496 2830641
1736.7588 661.24231 2363.8284 2633519
1733.255 654.32849 2339.1128 2764848
1749.3367 654.86243 2341.0215 2764848
1768.2733 656.44751 2346.6877 2699055
1787.4303 658.08746 2352.5503 2830641
1802.1698 658.08746 2352.5503 2962227
1813.9492 657.01532 2348.7175 2830898
1827.0236 656.42566 2346.6096 2896691
1856.6632 661.74963 2365.6418 3093813
1870.2898 661.32715 2364.1316 3028020
1885.1018 661.32715 2364.1316 3028020
1905.7979 663.37531 2371.4534 3093813
1922.5706 664.03656 2373.8174 3291192
1937.8518 664.17664 2374.3181 3291192
1948.2816 662.66437 2368.9121 3356985
1966.0193 663.64191 2372.4065 3028020
1982.3966 664.14886 2374.219 3028020
1998.2141 664.46228 2375.3391 3028020
2016.6265 665.62744 2379.5046 3422266
2031.5348 665.62744 2379.5046 3356985
2036.4333 662.37158 2367.8655 3291192
2054.4983 663.41449 2371.5935 3159606
2073.0391 664.59491 2375.8132 3093813
2089.073 664.96057 2377.1206 3225399
2093.2993 661.58923 2365.0686 3291192
2107.1514 661.28607 2363.9849 3093813
2126.2126 662.6106 2368.72 2962227
2142.3608 663.0152 2370.1663 2896691
2155.8257 662.58954 2368.6445 2896691
2168.1804 661.83087 2365.9324 3027765
2182.2134 661.59125 2365.0759 3027767
2193.5645 660.54736 2361.344 3290938
2214.9746 662.52606 2368.4175 3159353
2226.592 661.56897 2364.9961 3093559
2239.8186 661.09937 2363.3174 2961973
2249.845 659.69763 2358.3064 2764595
2265.7837 660.0365 2359.5178 2764594
2284.0598 661.04736 2363.1316 2896180
2297.1553 660.5556 2361.3735 2764594
2316.4893 661.8526 2366.01 2633008
2333.7778 662.55237 2368.5115 2633009
2349.156 662.70428 2369.0547 2633008
2368.2649 663.90021 2373.3298 2567215
2384.3984 664.25226 2374.5884 2435629
2411.6555 667.67963 2386.8406 2435629
2426.6099 667.67963 2386.8406 2567215
2419.7903 661.72522 2365.5547 2764594
nan nan nan 16777215
nan nan nan 16777215
nan nan nan 16777215
nan nan nan 16777215
nan nan nan 16777215
nan nan nan 16777215
nan nan nan 16777215
nan nan nan 16777215
nan nan nan 16777215
nan nan nan 16777215
-2045.0276 640.49677 2239.7671 3950149
-2051.5906 646.99188 2262.48 4213578
-2037.4154 646.99188 2262.48 4213321
-2049.5569 655.40741 2291.9084 3752770
-2035.1973 655.40741 2291.9084 3884356
-2005.5413 650.44635 2274.5601 3950149
-1996.2373 652.06226 2280.2107 3752770
-1976.7458 650.34979 2274.2222 3621184
-1964.764 651.10101 2276.8491 3686977
-1942.3394 648.3772 2267.3242 3621184
-1936.1537 651.07404 2276.7549 3555391
-1938.0784 656.55841 2295.9333 3621184
-1925.6616 657.2301 2298.2822 3884356
-1904.3181 654.84229 2289.9321 3752770
-1869.8411 647.86755 2265.5422 3818563
-1848.2318 645.27881 2256.4895 3818563
-1828.4548 643.29474 2249.5513 3818563
-1816.1487 643.92871 2251.7683 3686977
-1807.6091 645.91846 2258.7263 3686977
-1788.4242 644.10565 2252.3872 3752770
-1770.3806 642.67847 2247.3962 3752770
-1759.9949 644.03052 2252.1243 3686977
-1738.0183 641.12872 2241.9771 3489598
-1714.3341 637.54462 2229.4436 3358012
-1704.0615 638.9303 2234.2893 3423805
-1690.0631 638.9303 2234.2893 3423805
-1704.348 649.71222 2271.9927 3160634
-1678.2526 645.15271 2256.0486 3029302
-1643.4026 637.1217 2227.9648 3226681
-1631.1326 637.7821 2230.2742 3160630
-1624.8722 640.82404 2240.9114 3358266
-1616.9478 643.25696 2249.4192 3687230
-1577.6036 633.12323 2213.9824 3358012
-1573.8247 637.20941 2228.2715 3094840
-1559.8638 637.20941 2228.2715 3226426
-1551.3414 639.45111 2236.1104 3423805
-1541.6384 641.24255 2242.375 3555391
-1527.5892 641.24255 2242.375 3226426
-1516.0287 642.29688 2246.062 3292219
-1511.4757 646.36774 2260.2974 3621184
-1488.1375 642.40625 2246.4443 3621184
-1472.6178 641.77649 2244.2422 3489598
-1459.8164 642.33069 2246.1802 3423806
-1443.1178 641.16418 2242.1011 3489598
-1431.9719 642.466 2246.6533 3358268
-1414.9926 641.15045 2242.053 3555388
-1400.6837 641.03064 2241.634 3160374
-1390.1019 642.63147 2247.2319 3226167
-1380.427 644.68854 2254.4253 3226167
-1372.0334 647.39276 2263.8818 3094581
-1350.5339 643.90491 2251.6851 2962995
-1340.6796 645.95404 2258.8508 2831409
-1319.905 642.72937 2247.5745 2962995
-1300.1432 639.93365 2237.7979 3160374
-1285.1449 639.44714 2236.0967 3160374
-1267.4763 637.60663 2229.6604 3028788
-1254.7 638.2135 2231.7827 3028788
-1236.2659 635.92383 2223.7759 3226167
-1214.0371 631.60779 2208.6829 3884097
-1212.2329 637.94061 2230.8284 3423546
-1201.2577 639.53864 2236.4165 3423546
-1196.8566 644.71564 2254.5203 3489339
-1200.5175 654.41107 2288.4243 3291960
-1172.4015 646.80963 2261.8428 3489339
-1153.5648 644.2041 2252.7314 3686718
-1130.8134 639.32092 2235.6553 3423546
-1125.3441 644.20844 2252.7466 3160631
-1111.8857 644.58862 2254.0759 3226680
-1108.7223 651.0235 2276.5784 3226680
-1107.0503 658.51337 2302.7698 4016196
-1092.2139 658.26697 2301.9082 3819073
-1059.0619 646.8277 2261.9058 3621438
-1036.6396 641.72021 2244.0454 3489852
-1026.1418 643.95538 2251.8616 3555645
-1017.5789 647.48407 2264.2012 3950403
-1002.6192 646.98474 2262.4551 3818817
-989.25409 647.51489 2264.3088 3555645
-976.7879 648.65735 2268.304 3555902
-964.7666 650.13342 2273.4656 3490109
-964.96222 660.00964 2308.0022 3621696
-964.54535 669.76117 2342.1025 3884869
-936.53589 660.35828 2309.2212 4213834
-917.30591 656.94781 2297.2952 4213834
-902.52203 656.6637 2296.3015 3819076
-891.66931 659.27692 2305.4397 3884869
-878.9259 660.55518 2309.9097 4213834
-859.81952 657.0141 2297.5269 4148041
-844.86328 656.5777 2296.0007 4148041
-829.54773 655.8421 2293.4285 4213833
-818.16205 658.24237 2301.822 4148041
-806.71533 660.67877 2310.3418 4082248
-793.67584 661.87585 2314.5281 4148041
-784.51562 666.41284 2330.3936 4279626
-762.04095 659.59735 2306.5603 3753283
-745.81042 658.02753 2301.0708 3819076
-735.38104 661.61505 2313.6162 4542799
-719.69281 660.52045 2309.7883 3950662
-705.22131 660.52045 2309.7883 4082248
-693.24274 662.90442 2318.1248 4016455
-672.75037 657.07483 2297.7393 4148041
-658.35431 657.07483 2297.7393 3884869
-641.60028 654.66882 2289.3257 4082248
-627.25696 654.66882 2289.3257 4148041
-606.17773 647.474 2264.166 3489599
-595.92377 651.77423 2279.2036 3687234
-582.00885 652.18323 2280.6338 3884356
-565.42523 649.54712 2271.4155 3621184
-553.38885 652.13348 2280.4597 3423805
-540.94043 654.35852 2288.2405 3555391
-527.84021 655.89471 2293.6125 3621184
-515.71851 658.76691 2303.6565 3029047
-500.85211 658.19751 2301.6653 3226169
-485.22061 656.55908 2295.9358 3752513
-474.02838 661.01093 2311.5034 3423548
-459.38898 660.78497 2310.7134 3489341
-449.98215 668.31567 2337.0476 3291962
-433.47198 665.44824 2327.0205 3489341
-420.18024 667.49402 2334.1743 3818563
-404.43021 665.64124 2327.6953 4081735
-384.00772 655.67188 2292.8333 3621184
-368.90469 654.36334 2288.2573 3292475
-355.33087 655.77106 2293.1802 3818819
-343.90933 661.43695 2312.9934 4739923
-328.19788 658.98773 2304.4285 4674385
-313.40689 658.24628 2301.8357 3950662
-293.30466 645.73999 2258.1023 3950918
-277.98734 643.03455 2248.6414 4016455
-265.06921 645.88611 2258.6133 3424318
-250.13849 643.87891 2251.594 3424318
-237.38609 647.57391 2264.5154 3489855
-224.74126 652.05084 2280.1709 3950149
-208.04613 644.58667 2254.0691 4147528
-195.84773 650.98199 2276.4331 4147528
-181.47374 650.58252 2275.0361 3818563
-163.93263 637.79303 2230.3123 3621184
-149.95903 637.79303 2230.3123 3621184
-135.79259 636.88855 2227.1494 3686977
-121.78355 636.59967 2226.1392 3555392
-107.83495 636.59296 2226.1157 3555391
-94.440559 640.34186 2239.2253 3489341
-79.444061 632.64087 2212.2957 3489854
-66.090996 637.53784 2229.4199 3555390
-52.205292 638.54462 2232.9404 3555645
-38.136326 637.2262 2228.3301 3358010
-24.165154 636.96271 2227.4087 2963252
-10.496986 654.883 2290.0745 2962995
3.8272016 650.8291 2275.8984 2568237
17.743483 638.48901 2232.7461 2436651
32.05357 644.95276 2255.3494 2765616
46.434166 648.4458 2267.5642 2700080
60.68512 648.91589 2269.208 2568493
75.163139 651.17468 2277.1069 2831922
89.429924 651.17468 2277.1069 2963251
103.20533 648.08911 2266.3169 2897460
117.71048 649.77814 2272.2231 2765873
132.1884 650.96851 2276.386 2831924
146.45065 650.96851 2276.386 2897461
160.56325 650.36224 2274.2659 2436910
174.81223 650.36224 2274.2659 2634289
189.3259 651.27277 2277.45 2831668
203.84888 652.08545 2280.2917 2897716
219.31775 655.61926 2292.6492 2963764
233.79543 655.93774 2293.7629 3028788
248.75772 657.50031 2299.2271 3160374
263.91342 659.37494 2305.7825 3160374
278.22937 659.06586 2304.7017 3094581
289.50735 651.94592 2279.804 3028788
305.58774 655.80176 2293.2874 3028788
319.95587 655.80176 2293.2874 3226167
335.23132 657.58142 2299.5107 3291960
349.63846 657.58142 2299.5107 3357753
361.1488 652.34882 2281.2129 3029045
373.51492 649.00165 2269.5081 2962995
386.64639 647.18109 2263.1416 2831409
400.82571 647.18109 2263.1416 2962995
415.49707 647.94843 2265.825 3028788
431.84491 651.19318 2277.1716 2700080
444.14197 648.31738 2267.115 3028788
459.5694 650.04761 2273.1655 3094581
471.51871 646.90204 2262.1658 2765616
485.69189 646.90204 2262.1658 2436651
502.20197 649.92633 2272.7415 2370858
516.44141 649.92633 2272.7415 2633773
530.96118 650.26971 2273.9424 2502700
544.49854 649.42334 2270.9827 2370858
558.35846 648.99506 2269.4849 2831409
573.11139 649.60022 2271.6011 2765616
587.74805 650.04749 2273.165 3094581
603.64349 651.83276 2279.4082 3094581
615.74341 649.53186 2271.3621 2897202
634.6109 654.3125 2288.0796 2962995
648.91962 654.2854 2287.9849 2765616
664.19855 655.21667 2291.2415 2699823
681.07837 657.6543 2299.7656 2831665
695.44 657.60974 2299.6099 2897203
709.20605 657.01526 2297.531 2700080
723.60077 657.01526 2297.531 2699825
725.99518 646.33167 2260.1714 3160633
752.79431 657.36804 2298.7646 3226426
767.20007 657.37091 2298.7747 3423805
778.82355 655.03357 2290.6011 3555391
786.70319 649.68903 2271.9116 3358012
805.85083 653.67456 2285.8489 3226426
817.28888 651.37634 2277.8123 3160376
838.3858 656.72321 2296.5095 2963254
860.90576 662.98535 2318.408 2831411
858.97119 650.51971 2274.8164 3028790
872.7146 650.1405 2273.4905 2897204
874.86737 641.27753 2242.4973 2962997
891.24634 642.9577 2248.3728 3423548
905.013 642.73035 2247.5779 2962997
910.18585 636.50031 2225.7917 2568239
918.86176 632.87097 2213.1003 2897204
950.40527 644.86566 2255.0447 3489084
965.96899 645.82513 2258.3999 3423548
982.69012 647.51965 2264.3254 3028790
995.72479 646.77136 2261.7087 2897204
1011.5831 647.85236 2265.489 3357755
1032.3505 652.00397 2280.0068 3291703
1044.1154 650.43408 2274.5171 3160374
1051.7747 646.3833 2260.3518 3028788
1062.3024 644.17963 2252.6458 3028788
1078.7509 645.5769 2257.532 3291960
1086.0288 641.52112 2243.3491 3291960
1096.4686 639.41266 2235.9761 3160374
1116.5952 642.93518 2248.2939 2897202
1130.6815 642.93518 2248.2939 3028788
1152.0504 647.02533 2262.5969 3160374
1149.2396 637.60114 2229.6411 3028788
1155.8729 633.5799 2215.5793 3028788
1181.5062 639.94519 2237.8381 3489339
1209.0881 647.20428 2263.2227 3357753
1219.9716 645.46021 2257.1238 2897202
1215.167 635.55109 2222.4724 2568237
1244.6714 643.6073 2250.6443 3028788
1258.7723 643.6073 2250.6443 3160374
1272.5824 643.46014 2250.1299 3226167
1281.9563 641.09784 2241.8689 3160374
1294.9762 640.59021 2240.0938 3029045
1315.6676 643.84772 2251.4851 3094581
1331.2767 644.57532 2254.0295 3028788
1337.4738 640.7785 2240.7522 3160374
1349.64 639.89056 2237.6472 3028789
1361.6917 638.9671 2234.418 3160376
1376.6079 639.39307 2235.9075 3357755
1405.0863 646.04608 2259.1726 3160376
1419.2736 646.06104 2259.2249 2831411
1430.8922 644.91797 2255.2275 2765618
1433.478 639.76587 2237.2112 2963254
1445.3872 638.83441 2233.9539 3028790
1466.4388 641.92267 2244.7534 3028790
1479.7825 641.61035 2243.6611 3094583
1486.1583 638.31116 2232.1243 3357755
1498.8264 637.75079 2230.1648 3094583
1520.1886 640.86603 2241.0583 2831668
1542.0341 644.1261 2252.4585 3160633
1562.7216 646.84772 2261.9758 3226169
1579.9642 648.1073 2266.3806 3291962
1586.4232 644.96039 2255.376 3160376
1600.255 644.83997 2254.9548 3028790
1625.3724 649.22955 2270.3049 3423548
1639.5967 649.22955 2270.3049 3620927
1650.5547 647.94733 2265.821 3489597
1662.5533 647.09204 2262.8303 3028533
1679.1246 648.01599 2266.0613 2962483
1703.3052 651.83636 2279.4209 2962227
1713.2252 650.18121 2273.6328 2896691
1731.0162 651.51587 2278.3 2896434
1753.4385 654.5575 2288.9363 2830898
1791.6576 663.39893 2319.8542 2633262
1800.4614 661.29401 2312.4934 2633262
1824.2776 664.69269 2324.3784 3093813
1830.8469 661.80328 2314.2742 3159606
1842.6354 660.83087 2310.8738 2896434
1859.0591 661.52307 2313.2944 2830641
1874.7864 661.95874 2314.8179 2962227
1894.2223 663.68707 2320.8618 3225399
1908.7632 663.68707 2320.8618 3159606
1917.2916 661.6123 2313.6064 3094070
1928.3745 660.4436 2309.5195 2962227
1946.9998 661.85608 2314.459 2962484
1973.1498 665.78687 2328.2046 3224886
1983.8214 664.4754 2323.6184 3290935
1987.4977 660.85712 2310.9656 3225399
2002.3229 660.97144 2311.3652 3291192
2041.3103 669.00281 2339.4504 3422778
2040.4354 663.94867 2321.7766 3356985
2039.09 658.81409 2303.8213 3225399
2055.3843 659.41089 2305.9082 3159606
2078.8455 662.28253 2315.9502 3093813
2092.5588 662.03052 2315.0688 3028020
2100.9575 660.11194 2308.3599 2962227
2115.4199 660.11194 2308.3599 2962227
2125.7012 658.81598 2303.8279 3093812
2148.5315 661.4007 2312.8665 3159606
2164.9299 661.98401 2314.9062 3159607
2176.0176 660.94641 2311.2778 3093557
2194.3936 662.1217 2315.3877 3028021
2208.9001 662.1217 2315.3877 2764849
2215.4487 659.75177 2307.1003 2633009
2226.6331 658.78424 2303.7168 2764338
2240.0811 658.49451 2302.7039 2764594
2260.4231 660.22217 2308.7451 2764594
2282.7227 662.49591 2316.6963 2764594
2297.325 662.52106 2316.7844 2764594
2316.2354 663.78064 2321.189 2698802
2338.8481 666.07886 2329.2256 2633008
2364.1423 669.10742 2339.8164 2304043
2382.0564 670.02283 2343.0173 2501422
2411.9661 674.28046 2357.906 2830644
nan nan nan 16777215
nan nan nan 16777215
nan nan nan 16777215
nan nan nan 16777215
nan nan nan 16777215
nan nan nan 16777215
nan nan nan 16777215
nan nan nan 16777215
nan nan nan 16777215
nan nan nan 16777215
-2003.0823 641.03198 2193.8276 3950149
-2019.4116 650.7229 2226.9934 4147528
-2015.9585 654.12976 2238.6528 3950149
-1997.069 652.54059 2233.2141 3950149
-1974.5393 649.7312 2223.5994 3884356
-1957.8779 648.82648 2220.5032 3752770
-1945.1162 649.21051 2221.8174 3621184
-1935.775 650.74988 2227.0857 3752770
-1924.1786 651.54797 2229.8169 3686977
-1903.022 649.09686 2221.4285 3555391
-1892.9237 650.4093 2225.9202 3555391
-1872.9113 648.30939 2218.7336 3555391
-1867.7299 651.35034 2229.1406 3423805
-1854.4094 651.57727 2229.9172 3489598
-1840.4384 651.57727 2229.9172 3752770
-1804.6544 643.79565 2203.2861 3686977
-1786.385 642.19055 2197.7927 3555391
-1767.3068 640.26733 2191.2109 3621184
-1755.3932 640.93011 2193.479 3686977
-1742.6423 641.29517 2194.7285 3489598
-1726.4329 640.38306 2191.6069 3424061
-1708.4796 638.80444 2186.2043 3423805
-1689.808 636.9295 2179.7876 3423805
-1674.3372 636.24023 2177.4287 3226426
-1662.6339 636.98309 2179.9712 3489598
-1644.725 635.34106 2174.3516 3489598
-1628.8496 634.46375 2171.3491 3489598
-1618.2057 635.62646 2175.3284 3226681
-1603.6708 635.26764 2174.1003 3160633
-1589.5154 635.05438 2173.3704 3292219
-1579.1349 636.35858 2177.8337 3226426
-1565.974 636.55524 2178.5068 3423804
-1552.2152 636.51025 2178.3528 3423805
-1537.2745 635.97546 2176.5227 3357755
-1528.4885 638.00012 2183.4517 3160888
-1514.6907 637.95056 2183.282 3292475
-1505.5946 639.89825 2189.9478 3358012
-1498.311 642.6593 2199.397 3160633
-1484.531 642.6593 2199.397 3160633
-1466.5111 640.80652 2193.0562 3291962
-1450.5461 639.8252 2189.6978 3226425
-1437.6843 640.20703 2191.0044 3226425
-1430.6177 643.2016 2201.2529 3357753
-1409.9479 640.07904 2190.5664 3423546
-1393.0891 638.64221 2185.6492 3291960
-1381.7979 639.75458 2189.4561 3160374
-1369.804 640.56061 2192.2146 3160374
-1358.4762 641.69769 2196.106 3094581
-1344.837 641.755 2196.3022 3094581
-1330.6169 641.53345 2195.5439 3357753
-1326.2905 646.12708 2211.2649 3489339
-1298.3169 639.17596 2187.4758 3489339
-1275.9904 634.88629 2172.7952 3226167
-1267.6995 637.56305 2181.9561 3357753
-1254.0262 637.56183 2181.9517 3357753
-1239.8655 637.30988 2181.0894 3423546
-1226.2004 637.30988 2181.0894 3291960
-1204.0428 632.84625 2165.8135 3489339
-1190.9858 633.11871 2166.7458 3686718
-1183.5425 636.41595 2178.0303 3686974
-1172.6445 637.91095 2183.1465 3555132
-1158.9663 637.91095 2183.1465 3489339
-1141.0553 635.55328 2175.0776 3620925
-1129.5383 636.74292 2179.1492 3884097
-1115.8853 636.74292 2179.1492 4081989
-1108.6354 640.44202 2191.8086 3424059
-1100.0195 643.43475 2202.0508 3358266
-1091.9165 646.80737 2213.593 3555645
-1091.0688 654.61975 2240.3298 3555645
-1080.5309 656.74615 2247.6069 3489852
-1057.3472 651.14099 2228.4243 3489852
-1036.1698 646.63806 2213.0137 3555901
-1026.3322 649.18561 2221.7322 3095094
-1014.9041 650.78339 2227.2004 2700336
-997.37146 648.45679 2219.238 2700336
-982.37634 647.73749 2216.7761 3753280
-971.32452 649.63489 2223.2698 3884610
-953.61615 647.07074 2214.4944 3621695
-938.40216 646.14844 2211.3379 3358266
-937.07562 654.90405 2241.3027 3424316
-933.88586 662.60425 2267.6553 3950406
-909.71405 655.42529 2243.0864 3819077
-896.17529 655.802 2244.3757 3819333
-880.67804 654.7348 2240.7234 3555904
-860.84546 650.35767 2225.7434 3424318
-851.55737 653.93378 2237.9822 3424318
-837.3775 653.8103 2237.5593 3424318
-820.88898 651.8493 2230.8484 3490111
-807.06561 651.97339 2231.2729 3884869
-790.51868 649.86285 2224.05 3753283
-776.18573 649.5293 2222.9084 3555904
-762.57642 649.80023 2223.8357 3819076
-750.87189 651.7345 2230.4553 3555904
-735.77905 650.74542 2227.0703 3358525
-727.2124 655.60156 2243.6897 3753283
-710.67395 653.32074 2235.884 4082248
-694.08496 650.90082 2227.6023 3884869
-677.04114 647.94635 2217.491 3687747
-658.74664 643.64594 2202.7737 3556161
-652.73883 651.42346 2229.3909 3753283
-635.46899 648.05609 2217.8667 3884612
-616.88861 643.17175 2201.1506 3753027
-603.75916 643.87708 2203.5647 3687234
-595.01178 649.39807 2222.4595 3489598
-579.73877 647.89099 2217.3015 3686977
-565.07678 647.0094 2214.2847 3621184
-548.5033 643.83978 2203.437 3424062
-540.63281 650.98596 2227.8936 3357755
-528.77332 653.58026 2236.7722 3423805
-520.31628 660.63593 2260.9192 3094840
-505.55927 659.86377 2258.2764 3029047
-489.95587 657.91046 2251.5916 3357755
-474.05942 655.43622 2243.124 3489341
-464.37128 661.65674 2264.4126 3686720
-449.97192 661.34503 2263.3457 3950149
-434.41135 659.25073 2256.1785 3950149
-420.25262 659.2146 2256.0547 3950149
-406.11774 659.2146 2256.0547 3818563
-392.24896 659.66205 2257.5862 3818820
-382.04761 666.54138 2281.1296 3753027
-365.53409 662.51501 2267.3499 4148041
-349.23077 658.55945 2253.8125 4345676
-335.40768 659.14453 2255.8149 4411469
-321.27432 659.14453 2255.8149 4411470
-305.16779 654.91003 2241.323 4213834
-288.86591 649.82758 2223.9292 4542799
-272.05872 643.03552 2200.6846 3884869
-258.27075 643.03552 2200.6846 3490111
-245.70491 646.25 2211.6855 3686721
-230.98483 643.84399 2203.4514 3686977
-216.86713 642.91785 2200.2817 4015942
-203.12923 643.06842 2200.7971 4147785
-188.81679 641.28949 2194.709 4213578
-174.28313 638.42078 2184.8914 3424062
-161.04958 640.23145 2191.0881 3621184
-147.83571 642.46509 2198.7324 3884356
-133.49695 639.76691 2189.4983 3818563
-119.1097 636.19171 2177.2627 3555135
-105.48299 636.2793 2177.5625 3621440
-91.98774 637.30365 2181.0681 3489598
-78.058235 635.15192 2173.7041 3555647
-64.730003 638.01727 2183.5103 3423804
-51.312653 641.30438 2194.76 3291960
-37.548668 641.08014 2193.9927 3226167
-23.802622 641.08014 2193.9927 3028788
-10.088577 643.12006 2200.9739 3423546
3.7131801 645.20056 2208.094 2897202
17.501293 643.4989 2202.2703 3028788
31.169125 640.82458 2193.1179 3028788
45.180176 644.6842 2206.3269 2699823
59.22887 647.14667 2214.7544 2831409
73.06414 646.78503 2213.5166 2897202
86.832832 646.0434 2210.9785 2831666
100.83648 647.01349 2214.2983 2897459
114.92452 648.22491 2218.4443 2962995
128.75482 647.87805 2217.2573 2897460
142.23062 645.98853 2210.7908 2831925
156.08191 645.98853 2210.7908 2502960
170.1111 646.66479 2213.1052 2502704
183.83032 646.14966 2211.3423 2831668
197.72939 646.29456 2211.8379 2765874
211.74889 646.78827 2213.5278 2699825
226.5228 649.38409 2222.4114 2765873
240.45721 649.41199 2222.5068 2831666
253.9364 648.27454 2218.6143 2962995
267.61972 647.74945 2216.8171 3028788
281.50879 647.74945 2216.8171 3226167
294.9545 646.77734 2213.4902 3291960
309.25482 647.68231 2216.5874 3291960
324.68658 650.77728 2227.1794 3489339
337.46716 648.52228 2219.4622 3357753
351.37277 648.52228 2219.4622 3094581
363.4574 645.28931 2208.3977 3028788
377.2937 645.28931 2208.3977 2765616
393.93701 649.92041 2224.2468 3620925
406.47571 647.69446 2216.6289 3423546
420.36356 647.69446 2216.6289 2897202
434.05847 647.40668 2215.644 2963252
452.56744 654.09436 2238.5317 3094581
468.05127 656.13934 2245.5303 2897458
481.12442 654.78412 2240.8923 2634030
489.52737 647.33008 2215.3821 2568237
503.12903 646.97211 2214.1567 2436907
517.47888 647.56958 2216.2017 2305578
531.36407 647.56958 2216.2017 2436908
545.12244 647.41901 2215.6863 2371115
558.4444 646.77039 2213.4666 2371371
572.1156 646.54797 2212.7053 2502957
587.52814 648.25739 2218.5554 2700336
601.4281 648.25739 2218.5554 2765872
617.85834 650.9231 2227.6785 2897202
631.7619 650.86798 2227.4897 2831666
644.13123 649.26862 2222.0164 2765616
659.56818 650.76379 2227.1333 2700079
672.96692 650.22754 2225.2981 2765874
686.31854 649.66858 2223.385 2700082
704.35663 653.4798 2236.4282 3029047
715.42114 650.79852 2227.2522 3621184
729.70844 651.09558 2228.2688 3358012
743.66925 651.09558 2228.2688 3160633
757.52155 651.00232 2227.9497 3292219
772.53497 651.89227 2230.9954 3094840
781.71948 647.91937 2217.3987 2963254
794.06482 646.65924 2213.0862 3029047
814.7984 652.15619 2231.8987 3029304
832.96857 655.45062 2243.1733 3160633
836.56683 647.35962 2215.4829 3423548
846.52942 644.37714 2205.2759 3357755
860.34613 644.37714 2205.2759 3489341
875.68005 645.49542 2209.1033 3686720
888.6767 644.88293 2207.0071 2699825
902.24969 644.70105 2206.3845 1318172
909.24512 639.89557 2189.9385 1647137
916.04669 635.09857 2173.5215 2962997
938.1355 640.8855 2193.3264 3226169
953.36011 641.88379 2196.7429 3094583
967.12335 641.88379 2196.7429 3226169
989.19763 647.32239 2215.3557 3028791
1004.0196 647.9303 2217.4363 3160374
1013.049 644.83459 2206.8416 3226167
1027.1855 645.02924 2207.5078 3226167
1038.6476 643.56158 2202.4849 3226167
1050.0223 642.07904 2197.4111 3028788
1059.8992 639.73077 2189.3745 3291960
1075.4657 640.83276 2193.146 3226167
1090.0797 641.34656 2194.9043 2831409
1096.4479 637.05652 2180.2224 3028788
1119.2123 642.28143 2198.1038 3620925
1119.6277 634.70972 2172.1909 3686718
1132.4409 634.26385 2170.6648 3555132
1153.8453 638.58313 2185.447 3291960
1174.8815 642.59973 2199.1931 2962995
1186.598 641.48499 2195.3779 2700080
1196.6929 639.52905 2188.6841 2436651
1202.4945 635.34918 2174.3792 2568237
1223.5573 639.2359 2187.6809 3160374
1238.9467 640.10535 2190.6565 3160374
1251.8188 639.66943 2189.1648 3160374
1264.0969 638.94275 2186.6777 3160374
1275.4846 637.78644 2182.7205 3028788
1287.0198 636.7276 2179.0967 3160374
1307.629 640.13312 2190.7515 3291960
1316.7682 637.91107 2183.147 3226168
1329.9949 637.69464 2182.4062 3160376
1341.0332 636.44403 2178.1262 3094583
1358.723 638.34363 2184.6272 3226169
1375.8595 639.94788 2190.1174 3028790
1397.0778 643.40027 2201.9329 2897204
1403.833 640.18958 2190.9446 3028790
1412.3175 637.82196 2182.842 3094583
1426.6152 638.09998 2183.7935 3226169
1440.6837 638.27112 2184.3792 3094583
1454.3695 638.27112 2184.3792 3226169
1466.068 637.4071 2181.4221 2962997
1481.4247 638.13477 2183.9126 2897204
1498.474 639.57166 2188.8301 2897204
1510.4517 638.8374 2186.3171 3094583
1523.397 638.52197 2185.2375 3291962
1542.3124 640.69214 2192.6648 3160376
1556.0502 640.69214 2192.6648 3226169
1584.783 646.81232 2213.6099 3489341
1609.2289 651.09161 2228.2554 3818306
1613.6445 647.263 2215.1523 3555134
1623.5708 645.6911 2209.7729 3226425
1638.5247 646.12848 2211.2695 2963254
1659.1904 648.79187 2220.3848 3028790
1678.0444 650.70856 2226.9443 2962996
1691.9969 650.70856 2226.9443 2305066
1704.7468 650.24982 2225.3743 2567982
1748.4478 661.50854 2263.9055 3028277
1754.1304 658.31805 2252.9866 3094070
1772.7601 659.9986 2258.738 3159606
1786.9119 659.9986 2258.738 3159606
1809.8597 663.22198 2269.7695 2962484
1827.2102 664.35992 2273.6638 2830898
1822.0095 657.34424 2249.6538 2830641
1840.511 658.92188 2255.053 2896434
1860.5828 661.03339 2262.2793 3159606
1873.7056 660.66278 2261.011 3093813
1881.3534 658.38177 2253.2046 2896434
1898.8589 659.55872 2257.2324 2896691
1912.8145 659.49432 2257.0122 3093300
1931.4271 661.02484 2262.25 2830385
1947.6216 661.71136 2264.5996 2567725
1961.8099 661.71136 2264.5996 2764848
1954.0676 654.36731 2239.4658 3422778
1971.6915 655.56195 2243.5542 3356985
1985.7482 655.56195 2243.5542 3159606
1996.746 654.55927 2240.1226 3028020
2016.4159 656.39349 2246.4001 2962227
2031.6187 656.7583 2247.6484 3093813
2038.1526 654.33496 2239.355 2962227
2051.8479 654.22821 2238.9897 3028020
2066.7942 654.51898 2239.9849 2896434
2089.2507 657.16821 2249.0513 2764848
2126.9802 664.55377 2274.3274 2633262
2141.2295 664.55377 2274.3274 2633262
2140.2749 659.86633 2258.2852 2764848
2145.0063 656.98187 2248.4136 2962227
2151.7041 654.7334 2240.7188 2962227
2169.0991 655.74811 2244.1912 2764848
2179.324 654.59589 2240.248 2764848
2199.4937 656.42657 2246.5132 2765105
2222.5615 659.09332 2255.6399 2896179
2242.0657 660.67627 2261.0571 2896437
2256.2319 660.67627 2261.0571 2830386
2282.2146 664.11481 2272.825 2764593
2299.5781 665.01813 2275.9165 2567215
2326.7422 668.72705 2288.6096 2566959
2352.3923 671.95813 2299.6675 2830131
nan nan nan 16777215
nan nan nan 16777215
nan nan nan 16777215
nan nan nan 16777215
nan nan nan 16777215
nan nan nan 16777215
nan nan nan 16777215
nan nan nan 16777215
nan nan nan 16777215
nan nan nan 16777215
nan nan nan 16777215
-1973.6967 649.55676 2176.5791 3621184
-1958.7345 649.11768 2175.1077 3621184
-1942.5725 648.27185 2172.2737 3555391
-1924.3745 646.72998 2167.1069 3555391
-1910.7751 646.7226 2167.0823 3489598
-1903.6182 648.91119 2174.416 3358012
-1888.9904 648.56641 2173.2605 3423805
-1871.3984 647.19141 2168.6531 3358012
-1855.0704 646.23663 2165.4539 3094840
-1841.2301 646.14081 2165.1328 3094840
-1826.8475 645.85187 2164.1646 3094840
-1815.2065 646.53503 2166.4539 3095097
-1816.3855 651.8291 2184.1936 3555391
-1790.6178 647.46008 2169.5535 3424062
-1757.9183 640.4986 2146.2266 3358012
-1742.2032 639.66577 2143.4358 3423805
-1722.1567 637.21741 2135.2314 3555391
-1708.2965 637.03748 2134.6287 3686977
-1692.7021 636.203 2131.8325 3555391
-1674.2596 634.27625 2125.3762 3489855
-1658.2329 633.24115 2121.9077 3424062
-1638.766 630.86493 2113.9453 3358269
-1624.6603 630.5307 2112.8254 3226426
-1608.8901 629.53973 2109.5046 3160633
-1597.6664 630.32599 2112.1394 3225911
-1585.4611 630.73486 2113.5095 3160374
-1577.8472 632.99274 2121.0752 3357753
-1569.7587 635.0968 2128.1257 3291960
-1554.5653 634.33783 2125.5825 3094324
-1537.8618 632.94427 2120.9128 3028788
-1525.2313 633.21729 2121.8276 3094581
-1511.9374 633.21729 2121.8276 3226167
-1508.839 637.52509 2136.2627 3094581
-1495.3627 637.4859 2136.1313 3028788
-1473.2194 633.71777 2123.5049 2962995
-1463.3405 635.20477 2128.4875 2897202
-1449.6185 635.03552 2127.9204 2897202
-1450.3022 641.23248 2148.6855 2568237
-1430.0118 638.18512 2138.4744 2699823
-1422.2936 640.74396 2147.0486 2897202
-1408.8417 640.74396 2147.0486 2897202
-1394.1648 640.18146 2145.1638 3094581
-1375.8616 637.92664 2137.6082 3094581
