# .PCD v0.7 - Point Cloud Data file format
VERSION 0.7
FIELDS x y z rgb
SIZE 4 4 4 4
TYPE F F F U
COUNT 1 1 1 1
WIDTH 1277
HEIGHT 1
VIEWPOINT 0 0 0 1 0 0 0
POINTS 1277
DATA ascii
-338.81961 632.08679 1882.2018 3620925
-324.55344 627.30579 1867.9651 2831924
-310.68039 622.95526 1855.0104 3489343
-302.67133 630.48175 1877.4222 4476234
-289.75299 627.97699 1869.9637 3949890
-278.17337 628.28473 1870.8801 3949890
-266.19168 627.67163 1869.0544 3686718
-251.85558 621.19495 1849.7684 3686974
-241.53258 624.46899 1859.5179 2173479
-230.37428 625.80597 1863.4989 2699823
-218.87547 626.31128 1865.0037 2765617
-205.00987 619.71912 1845.3738 3356983
-193.82898 620.93945 1849.0077 3554875
-183.48438 625.16437 1861.5885 3620925
-171.82095 625.16437 1861.5885 3423802
-158.95665 620.47681 1847.6301 3489339
-148.32806 624.46539 1859.5071 3225910
-137.44275 627.961 1869.9161 3094068
-124.94701 624.06445 1858.3132 3094324
-112.2438 618.22443 1840.9231 3225911
-101.69134 624.24945 1858.8641 3949633
-89.760353 622.27625 1852.9884 3884096
-78.52169 625.22943 1861.7822 3028532
-67.205399 628.48718 1871.4829 3160117
-55.735073 631.37689 1880.0879 3356983
-43.920376 630.86902 1878.5754 3422776
-32.342838 634.64282 1889.813 3620155
-21.055399 651.755 1940.769 3554362
-8.9035244 652.31512 1942.4369 4014913
3.2284086 644.71918 1919.8179 4541257
15.258943 644.81549 1920.1046 4212292
27.308128 645.26758 1921.451 3817534
39.28759 644.29968 1918.5687 3554362
51.250801 643.58118 1916.4292 3817534
63.072147 641.69214 1910.8041 3685948
75.688782 647.20618 1927.2236 3883327
88.295982 651.13342 1938.918 4014913
100.38068 650.72351 1937.6974 3949120
112.33035 649.62122 1934.4152 3093811
123.34241 643.83936 1917.1981 3225397
133.16454 633.42352 1886.1823 3422776
143.82228 628.35651 1871.094 3554105
155.46097 628.01599 1870.08 2764590
167.47961 629.15051 1873.4583 2961712
179.55663 630.34143 1877.0044 3356470
191.44531 630.76532 1878.2667 3290677
203.26195 630.9165 1878.7169 3224884
217.19887 637.27222 1897.6427 2961456
229.00414 637.03833 1896.9464 3422006
240.88911 637.03833 1896.9464 3158835
252.75345 636.98651 1896.7919 3093298
267.18628 643.12152 1915.0605 3882814
278.84827 642.3465 1912.7527 3027505
288.46918 637.12726 1897.2111 3027505
299.09164 634.44574 1889.2261 3093298
310.83859 634.26288 1888.6815 3093298
325.76596 640.34491 1906.7925 3224884
336.63626 638.30408 1900.7153 2895919
344.46594 630.83423 1878.4719 3028018
354.78687 628.26959 1870.835 3883327
365.77112 627.00592 1867.0723 3685948
378.36246 628.49023 1871.4921 3422776
389.01871 626.76758 1866.3624 3685948
400.86179 627.00177 1867.0598 3422776
415.15302 630.94336 1878.7969 3225397
425.96335 629.52332 1874.5682 3356983
436.32761 627.53784 1868.656 3422776
448.55688 628.26837 1870.8313 3225397
464.12875 633.52423 1886.4821 3291190
477.41986 635.48322 1892.3154 3159605
486.85815 632.34308 1882.9648 3160374
498.35236 631.95868 1881.8202 3357753
511.61111 633.77789 1887.2375 3555132
524.33179 634.8634 1890.47 3884097
534.43164 632.79779 1884.319 4278855
543.92743 630.1217 1876.3501 4213062
556.25146 630.76587 1878.2684 4081733
563.94537 626.24182 1864.7969 4015684
575.0589 625.6217 1862.9503 3292218
588.4173 627.41992 1868.3051 3949892
603.84503 631.31146 1879.8929 4542285
612.40417 628.0105 1870.0636 4213065
619.33185 623.19177 1855.7146 4476237
630.39825 622.63843 1854.0668 4344649
641.78204 622.41296 1853.3954 2963251
651.47015 620.58026 1847.938 3094838
664.80762 622.22705 1852.8418 3291190
681.84082 627.21704 1867.7009 3291190
693.54254 627.21704 1867.7009 3883327
701.26117 623.67468 1857.1525 3554362
713.97504 624.61792 1859.9612 3356983
725.98602 624.92584 1860.8782 3685948
737.51605 624.81659 1860.553 3554362
749.617 625.18695 1861.6556 3817534
760.09546 624.21344 1858.7568 3488569
783.66022 633.854 1887.4641 3093811
792.88879 631.78473 1881.3024 3159604
802.02338 629.70227 1875.1012 3093811
814.67731 630.4032 1877.1885 3291447
827.10846 630.91431 1878.7103 3093811
841.21997 632.6748 1883.9526 2962228
853.99976 633.3988 1886.1088 3093812
865.81683 633.3988 1886.1088 3225397
872.18048 629.46307 1874.3889 3620155
899.16174 640.31415 1906.7008 3028018
910.39557 639.8136 1905.2102 3422776
925.84052 642.24725 1912.457 3225397
932.30066 638.46552 1901.1962 3028018
950.17792 642.49951 1913.2084 2633516
966.89465 645.65796 1922.6134 2633260
978.94043 645.65796 1922.6134 2830639
987.41681 643.33234 1915.6884 2764846
1002.4116 645.25861 1921.4242 2567467
1016.3398 646.46075 1925.0039 2633260
1031.0105 648.10144 1929.8894 2567467
1030.2072 640.0896 1906.0322 2435881
1040.756 639.23401 1903.4845 3225397
1052.0382 638.84308 1902.3203 3751741
1047.4105 628.90802 1872.7362 3685948
1068.3373 634.367 1888.9917 3685948
1075.3307 631.52362 1880.5248 3883327
1086.5563 631.20032 1879.5621 3949120
1091.7611 627.42389 1868.3168 3356983
1129.7119 642.34674 1912.7534 2896432
1139.5332 641.13 1909.1302 3028018
1141.2766 635.4408 1892.1892 3093811
1158.7782 638.55231 1901.4546 2962225
1162.988 634.35052 1888.9426 2896432
1186.5114 640.6618 1907.736 3093811
1187.9955 635.06567 1891.0723 3291190
1194.7981 632.39514 1883.12 3356983
1205.735 631.94366 1881.7755 3093811
1217.5249 631.94366 1881.7755 3159604
1223.7139 629.06439 1873.2019 3291190
1235.3479 629.01239 1873.047 3093811
1247.0831 629.01239 1873.047 3159604
1248.277 623.74506 1857.3621 3225654
1264.1339 625.83423 1863.5831 3422520
1275.9825 625.91901 1863.8356 3488056
1277.1515 620.81085 1848.6246 3356470
1285.6271 619.31433 1844.1685 3356470
1297.8251 619.62164 1845.0835 3290677
1308.8738 619.3797 1844.3632 3356470
1311.6306 615.2525 1832.0732 3224884
1322.5299 614.98309 1831.2711 3224884
1338.3531 616.9884 1837.2424 3290677
1357.5693 620.51025 1847.7297 3159091
1358.7882 615.81604 1833.7515 2895919
1382.609 621.35809 1850.2543 2961712
1397.656 622.89771 1854.8389 2961969
1411.501 623.88062 1857.7657 2896176
1434.2137 628.73499 1872.2208 3422263
1448.9313 630.03406 1876.0891 3817021
1475.6919 636.50665 1895.363 3882814
1490.7354 637.86237 1899.4 4145986
1528.7179 648.93414 1932.3691 3882814
1541.0002 649.00806 1932.5892 3159091
1570.338 656.20782 1954.0284 2764333
1567.2527 649.85229 1935.103 2237989
1585.5298 652.38397 1942.642 2237989
1585.901 647.56573 1928.2943 2501161
1580.1952 640.3576 1906.8303 2764333
1587.8265 638.62195 1901.6619 2895919
1600.1443 638.7829 1902.1411 2961712
1606.0907 636.41687 1895.0957 2566954
1616.53 635.85278 1893.416 2435368
1622.8875 633.70306 1887.0145 2501161
1635.8925 634.16132 1888.3793 2566954
1652.382 635.9541 1893.7178 2501161
1664.7347 636.14062 1894.2732 2566954
1683.0941 638.60358 1901.6072 2764333
1701.7256 641.13434 1909.1432 2961712
1708.6285 639.24194 1903.5079 3224884
1738.3204 645.84247 1923.1628 2895919
1752.939 646.79047 1925.9857 3159091
1772.9688 649.7085 1934.6749 3290677
1770.6471 644.45178 1919.0217 3093298
1782.6704 644.45178 1919.0217 3027505
1802.6464 647.30743 1927.5253 3159091
1821.8596 649.85309 1935.1055 3027505
1831.4722 648.96313 1932.4556 3159091
1841.2311 648.13647 1929.9939 2961712
1858.511 649.95081 1935.3965 2764333
1872.0363 650.43701 1936.8442 2961712
1881.1094 649.38007 1933.697 3093555
1896.0271 650.34131 1936.5593 3290934
1906.3052 649.70905 1934.6766 3159604
1919.051 649.92053 1935.3063 3028021
1933.8406 650.8172 1937.9763 3356985
1937.9746 648.13898 1930.0013 3620157
1954.2467 649.52832 1934.1383 3620157
1967.0698 649.76129 1934.832 3883329
1975.6932 648.61255 1931.4115 3751999
nan nan nan 16777215
nan nan nan 16777215
nan nan nan 16777215
nan nan nan 16777215
nan nan nan 16777215
nan nan nan 16777215
nan nan nan 16777215
nan nan nan 16777215
nan nan nan 16777215
nan nan nan 16777215
nan nan nan 16777215
nan nan nan 16777215
-1594.5624 605.67957 1770.7069 3554362
-1586.0151 606.65369 1773.5548 3488570
-1579.2706 608.33606 1778.4731 3422776
-1573.1127 610.26984 1784.1265 3291446
-1557.6317 608.58862 1779.2115 3685948
-1546.1841 608.4704 1778.866 3751741
-1556.8286 617.1076 1804.1168 3159604
-1546.8768 617.64728 1805.6946 2962482
-1530.6219 615.65961 1799.8835 3093811
-1519.3895 615.67755 1799.936 2962225
-1507.1962 615.30353 1798.8427 3028018
-1496.4679 615.52649 1799.4944 3093811
-1485.1935 615.52649 1799.4944 3620155
-1466.3741 612.37561 1790.2828 3751741
-1439.6793 605.86194 1771.24 3883327
-1432.1526 607.37622 1775.6671 3817534
-1418.9413 606.48456 1773.0603 3685948
-1404.8789 605.21216 1769.3405 3554362
-1391.4548 604.19672 1766.3718 3620155
-1371.1658 600.16016 1754.5708 3620155
-1361.7906 600.87402 1756.6578 3817534
-1350.7739 600.86926 1756.6438 3620155
-1344.9635 603.19934 1763.4559 3554362
-1333.9149 603.19934 1763.4559 3488569
-1310.7616 597.67987 1747.3197 3291190
-1302.027 598.69739 1750.2944 3225397
-1300.0747 602.87732 1762.5145 3356983
-1290.2908 603.46606 1764.2357 3422776
-1285.5165 606.42816 1772.8955 3225397
-1270.807 604.71436 1767.885 3094324
-1259.8145 604.75452 1768.0024 3029045
-1249.8694 605.30273 1769.6052 3226423
-1238.7822 605.30273 1769.6052 3291960
-1236.7898 609.7868 1782.7144 2831409
-1234.1536 614.03217 1795.1259 3027761
-1232.0028 618.59949 1808.4784 3685948
-1213.5676 614.99927 1797.953 3685948
-1194.3817 610.94745 1786.1074 3554362
-1184.2728 611.50586 1787.7401 3685948
-1173.076 611.508 1787.7462 3751741
-1161.6251 611.37634 1787.3613 3751741
-1155.3792 614.00818 1795.0557 4080706
-1140.6855 612.15833 1789.6475 3883327
-1129.1837 612.00159 1789.1893 3291190
-1121.6317 614.00397 1795.0432 3094324
-1108.2762 612.83783 1791.634 3357753
-1097.892 613.30743 1793.0071 3818304
-1086.6581 613.30743 1793.0071 3686974
-1074.8005 612.95172 1791.9669 3752511
-1068.7812 615.95312 1800.7416 4015940
-1049.5632 611.33075 1787.2281 3950147
-1037.3749 610.74744 1785.5228 4015683
-1029.6337 612.79816 1791.5182 3884097
-1018.4093 612.79816 1791.5182 3818304
-1001.8776 609.56915 1782.078 3686718
-990.71234 609.56915 1782.078 3489595
-979.04205 609.25488 1781.1592 3818304
-967.88251 609.25488 1781.1592 3884097
-955.18079 608.27271 1778.288 3620925
-950.22687 612.25958 1789.9436 3620925
-935.57605 610.01904 1783.3934 3555132
-925.69623 610.8728 1785.8893 3423546
-916.13281 611.95868 1789.064 3489339
-906.32941 612.9093 1791.843 3620925
-894.80377 612.70447 1791.2441 3620925
-884.1156 613.07513 1792.3278 3423546
-887.07324 623.03949 1821.4587 3818304
-875.65149 623.03253 1821.4384 4015683
-853.07446 614.98352 1797.907 3818560
-841.9278 615.06958 1798.1587 3357753
-834.21442 617.70013 1805.8491 3160374
-829.46057 622.62469 1820.246 3291960
-819.44934 623.685 1823.3458 3423546
-807.53729 623.30811 1822.244 3620924
-793.97589 621.62915 1817.3356 3751741
-776.89532 617.10596 1804.1119 3685948
-765.59198 617.10596 1804.1119 3028018
-755.7348 618.28912 1807.5709 3028018
-753.59491 625.91797 1829.874 3225397
-742.13019 625.91797 1829.874 3356983
-722.68744 619.08368 1809.8939 3356983
-708.45575 616.56671 1802.5354 3488569
-697.52576 616.88812 1803.4751 3291190
-695.82556 625.51733 1828.7026 3620155
-682.36615 623.68744 1823.353 3291190
-668.72546 621.62683 1817.3287 3028018
-654.44202 618.88678 1809.3184 3291190
-644.05591 619.80096 1811.9908 3554362
-628.43726 615.62195 1799.7734 3620155
-622.10291 620.55145 1814.1848 3225910
-617.52435 627.4483 1834.348 3291960
-608.50708 630.01141 1841.8411 3884097
-594.50751 627.41534 1834.2515 3884354
-582.03162 626.35663 1831.1564 3818304
-571.12897 626.98254 1832.9863 3620925
-552.91534 619.44342 1810.9456 3686718
-544.79865 623.13727 1821.7446 3686718
-535.0517 625.08459 1827.4376 3555133
-525.23694 627.03613 1833.1429 3685692
-509.01865 621.25934 1816.2545 3225140
-500.42319 624.73486 1826.4152 3817277
-490.70343 626.93658 1832.8519 3619899
-480.67184 628.83594 1838.4045 3028531
-471.27722 631.68225 1846.7258 2962739
-463.04099 636.26355 1860.1194 4015683
-452.11011 637.2832 1863.1003 4015683
-442.14935 639.76056 1870.3428 3423546
-432.83377 643.33179 1880.7832 3423546
-421.05008 643.33179 1880.7832 3621181
-409.90179 644.33057 1883.7032 3555132
-398.86963 645.57654 1887.3458 3884097
-387.19443 645.82605 1888.0753 3752511
-372.69049 641.22437 1874.6223 3291960
-358.40015 636.7027 1861.4032 3028788
-346.73788 636.7027 1861.4032 3160374
-331.89566 630.66028 1843.7382 3029045
-318.14972 626.34027 1831.1085 3093554
-305.51089 623.95819 1824.1444 3423546
-291.31439 618.086 1806.9771 3489339
-278.54385 614.88672 1797.624 3028788
-265.59564 611.00903 1786.2877 3686974
-259.96585 624.36713 1825.34 3948864
-246.29524 618.75397 1808.9301 3685692
-235.44644 620.03046 1812.6617 2106660
-224.59964 621.44183 1816.788 2369831
-212.1032 618.19574 1807.2981 3291190
-199.09402 613.005 1792.1228 3423033
-187.87164 613.02399 1792.1783 3225910
-179.0954 621.53455 1817.059 3489339
-167.48729 620.70563 1814.6356 3685947
-153.83629 611.63367 1788.1138 3159348
-142.63239 611.63013 1788.1034 3159604
-131.20448 610.58362 1785.0439 3093811
-120.01647 610.5625 1784.9822 2896688
-109.14496 612.31256 1790.0985 2896432
-98.784554 617.6593 1805.7297 2830639
-87.32373 616.61871 1802.6875 3159604
-76.175316 617.80267 1806.1488 3094067
-65.422646 623.16925 1821.8381 3028018
-53.878071 621.66711 1817.4465 2633260
-43.052578 629.88025 1841.4576 3093811
-31.856079 636.69177 1861.3711 3488569
-20.45392 644.88635 1885.3281 3620155
-8.6507931 645.56085 1887.2999 3751741
3.1800539 646.84802 1891.0631 3422776
14.906679 641.61963 1875.7778 3817534
26.632744 640.98743 1873.9297 4080706
38.18116 637.77472 1864.5372 3751997
49.945194 638.82526 1867.6084 3685948
61.692917 639.30792 1869.0195 3751741
74.077454 645.18298 1886.1952 4014913
85.658264 643.40436 1880.9955 3883328
97.443283 643.40436 1880.9955 3685948
108.56393 639.49091 1869.5544 3685948
117.73126 625.95428 1829.9801 3225397
130.64771 632.98462 1850.5333 3423033
141.84451 631.21631 1845.3636 3488569
153.27219 630.66449 1843.7505 3159091
164.82385 630.66449 1843.7505 3422263
175.26683 626.7002 1832.1608 3751227
186.80353 626.89362 1832.7262 3159091
198.76482 628.40704 1837.1508 3093554
210.7702 629.88654 1841.4761 3488569
222.45042 630.2912 1842.6591 3620155
235.28731 633.77142 1852.8336 3488569
247.47307 635.25311 1857.1652 3620155
261.69717 641.599 1875.7174 3751997
272.79013 640.0528 1871.1971 3159604
281.9212 634.22046 1854.1462 3093811
290.70898 628.10803 1836.2766 2765103
297.44598 618.19873 1807.3068 3488826
307.01328 614.68298 1797.0283 3949376
321.55081 621.01489 1815.5398 3159860
335.97504 626.70288 1832.1687 3225397
349.88907 631.09473 1845.0082 3751741
359.18195 627.13708 1833.438 3488569
368.93594 624.20496 1824.8658 3356983
382.00821 626.89447 1832.7286 3554362
393.49081 626.89447 1832.7286 3488569
410.53745 635.50745 1857.9088 3225397
418.15723 629.45526 1840.2152 3225397
429.68677 629.45526 1840.2152 3291190
442.89594 631.85156 1847.2208 3883327
457.7421 636.40167 1860.5231 4278085
468.88974 635.71143 1858.5051 3949120
472.52451 625.1156 1827.5282 3752511
488.82376 631.37903 1845.8394 3752511
500.38849 631.37903 1845.8394 4081476
506.63947 624.82562 1826.6804 3884097
520.35919 627.5694 1834.7018 3884097
530.48511 625.95392 1829.979 3818304
539.3183 622.91376 1821.0911 3884354
552.56799 624.99493 1827.1754 3686718
561.6543 622.37805 1819.525 3357753
574.55469 624.00769 1824.2893 3291960
587.03815 625.12976 1827.5697 3686717
595.86865 622.39343 1819.5699 4015683
604.81781 619.88135 1812.2258 4409928
621.65826 625.4007 1828.3617 4541257
630.25958 622.58148 1820.1198 3093811
644.27777 625.11835 1827.5363 3225397
654.39185 623.84467 1823.8127 3159604
664.56073 622.66608 1820.3671 3159604
684.09656 630.15564 1842.2629 3488569
690.66858 625.6532 1829.1 3554362
701.14563 624.77747 1826.5397 3356983
707.9577 620.71649 1814.6674 3620155
718.4812 619.98651 1812.5332 3882557
730.80768 620.81079 1814.9431 3948350
744.18213 622.48651 1819.842 3224884
762.73138 628.37482 1837.0566 2830383
773.81256 628.02704 1836.0398 2896175
784.73419 627.56183 1834.6798 3027762
796.11768 627.47406 1834.4232 3291190
807.21362 627.16541 1833.5208 3093811
819.59552 627.85052 1835.5237 2896433
831.94568 628.49268 1837.401 3159605
851.55981 634.52991 1855.051 3422776
858.04218 630.7514 1844.0044 3291190
868.26813 629.78857 1841.1898 2962225
889.40961 636.66479 1861.2925 3291190
904.08142 638.79169 1867.5104 2962225
916.20233 639.08496 1868.3677 2699053
932.85065 642.48895 1878.3193 2501674
946.56354 643.81171 1882.1863 2501674
963.15906 647.03833 1891.6193 3159604
970.91565 644.32074 1883.6746 3028018
979.59222 642.27161 1877.684 2633260
994.88446 644.55731 1884.3662 2435881
1007.8206 645.28082 1886.4813 3093811
1011.7383 640.28027 1871.8623 3422776
1014.0491 634.38904 1854.6392 3093811
1040.1133 643.323 1880.7577 3159604
1037.0339 634.23303 1854.1831 3488569
1048.3066 634.02484 1853.5745 3488569
1062.5392 635.59167 1858.155 3488569
1072.1649 634.39862 1854.6672 3356983
1069.1204 625.8147 1829.5719 3225397
1095.027 634.17975 1854.0273 2962225
1098.6433 629.59534 1840.6248 3028018
1111.4642 630.32629 1842.7616 3159604
1123.1459 630.40265 1842.985 3225397
1134.1135 630.08087 1842.0443 3028018
1145.6545 630.08087 1842.0443 2633260
1158.2506 630.65533 1843.7238 2764846
1169.802 630.65533 1843.7238 2764846
1183.9114 632.02081 1847.7157 2961968
1195.4878 632.02081 1847.7157 3028274
1199.9453 628.29327 1836.8181 2896175
1211.4535 628.29327 1836.8181 2830639
1214.5031 623.94763 1824.1136 2961712
1212.1365 616.92639 1803.587 3027505
1221.7887 616.09558 1801.1581 3093298
1239.6718 619.39227 1810.7961 3159091
1246.0059 616.91125 1803.5427 3224884
1254.3171 615.44489 1799.2559 3422263
1264.7212 615.0224 1798.0206 3290677
1275.8868 614.97443 1797.8805 3290677
1287.1511 614.97443 1797.8805 3422263
1295.0746 613.39215 1793.2546 3356470
1315.113 617.52576 1805.3392 3422263
1326.7587 617.68152 1805.7947 3290677
1334.8947 616.21454 1801.5059 2830126
1344.1166 615.26923 1798.7423 2764333
1361.0007 617.81793 1806.1935 2830126
1382.9218 622.59216 1820.1509 2830126
1406.8624 628.19012 1836.5165 3027505
1428.035 632.47119 1849.0323 3159091
1444.6918 634.69952 1855.5469 3159091
1458.2047 635.52203 1857.9515 2764333
1480.8607 640.28479 1871.8754 2830126
1517.7683 651.0863 1903.4537 2830126
1514.6423 644.67987 1884.7244 3356470
1527.9923 645.33093 1886.6278 3817021
1539.8126 645.33093 1886.6278 2961712
1535.1294 638.46704 1866.5612 2632747
1551.0002 640.19073 1871.6006 2632747
1562.7263 640.19073 1871.6006 2632747
1559.8387 634.24866 1854.2288 2566954
1565.9889 632.04205 1847.7778 2501161
1575.1812 631.08667 1844.9846 2632747
1586.1553 630.85394 1844.3042 2830126
1596.8672 630.521 1843.3308 2698540
1609.2869 630.86224 1844.3286 2501161
1619.4158 630.30707 1842.7056 2566954
1636.7035 632.52643 1849.1937 2698540
1653.196 634.4093 1854.6985 2632747
1667.5873 635.46533 1857.7856 2764333
1688.7446 639.06702 1868.3153 3356470
1709.8008 642.58118 1878.589 3619642
1719.9386 641.97205 1876.8081 3751228
1742.926 646.1347 1888.9777 4080193
1752.9127 645.45416 1886.988 3817277
1769.0795 647.04297 1891.6329 3093298
1786.1066 648.92334 1897.1302 2830383
1815.292 655.16687 1915.3833 2830125
1817.2091 651.55157 1904.8138 2895919
1818.228 647.66345 1893.447 2961712
1831.3059 648.09338 1894.7039 3159348
1843.1768 648.09338 1894.7039 3159091
1855.74 648.33527 1895.411 3159091
1868.0586 648.48914 1895.8608 3028274
1878.927 648.14081 1894.8425 3028019
1890.5156 648.04376 1894.5588 2962227
1925.0696 655.771 1917.1494 3422778
1906.4514 645.40173 1886.8348 3817793
1920.3291 646.09357 1888.8573 4014915
1926.6516 644.25037 1883.4689 3882816
nan nan nan 16777215
nan nan nan 16777215
nan nan nan 16777215
nan nan nan 16777215
nan nan nan 16777215
nan nan nan 16777215
nan nan nan 16777215
nan nan nan 16777215
nan nan nan 16777215
nan nan nan 16777215
nan nan nan 16777215
nan nan nan 16777215
nan nan nan 16777215
-1555.7816 605.93176 1739.7463 3488569
-1548.8457 607.48657 1744.2106 3620155
-1542.3156 609.22369 1749.1982 3291190
-1534.8418 610.61041 1753.1797 3751741
-1527.0966 611.90826 1756.906 3883327
-1517.0105 612.28015 1757.974 3356983
-1517.6836 617.03174 1771.6167 3028018
-1506.3223 616.92468 1771.3092 3159604
-1488.8159 614.28052 1763.7173 3159604
-1475.6097 613.38434 1761.1442 3159604
-1464.3241 613.27899 1760.8417 3093811
-1467.3243 619.20056 1777.8438 3356983
-1447.2903 615.41809 1766.9835 3751741
-1416.908 607.14307 1743.2244 3751741
-1405.0637 606.74481 1742.0808 3554362
-1394.1605 606.74976 1742.0951 3488569
-1373.5244 602.4856 1729.8518 3488569
-1357.1925 600.05658 1722.8777 3685948
-1344.4583 599.19208 1720.3954 3620155
-1330.3308 597.68756 1716.0758 3620155
-1318.543 597.21826 1714.7283 3225397
-1302.5381 594.81549 1707.8296 3093811
-1288.2719 593.17352 1703.1151 3028018
-1280.4427 594.4928 1706.903 3028018
-1269.5994 594.42297 1706.7024 3028018
-1262.5239 596.1311 1711.6068 3159604
-1267.5747 603.64325 1733.1757 3488569
-1254.1525 602.41193 1729.6404 3554362
-1242.5741 602.05261 1728.6086 3094837
-1227.4241 599.94116 1722.5464 3160117
-1220.7313 601.96277 1728.3507 3225910
-1209.9027 601.96277 1728.3507 3356983
-1199.1112 601.98145 1728.4043 3225653
-1205.9507 610.93225 1754.1038 3225397
-1199.9611 613.48871 1761.4438 3817534
-1190.3356 614.21655 1763.5336 4014913
-1172.0609 610.45319 1752.7283 3620155
-1161.0796 610.45319 1752.7283 3554362
-1147.5714 609.11206 1748.8777 3554362
-1138.8267 610.29779 1752.2821 3554362
-1127.8481 610.29779 1752.2821 3685948
-1117.8271 610.82104 1753.7844 3685948
-1122.0588 619.22015 1777.8999 3620155
-1104.8889 615.85858 1768.2483 3489339
-1089.4624 613.41052 1761.2195 3489339
-1082.9081 615.95898 1768.5365 3555132
-1079.7047 620.48578 1781.5338 3884097
-1056.8558 613.69928 1762.0486 3752511
-1050.3145 616.33899 1769.6277 3884097
-1043.0436 618.60248 1776.1265 4278855
-1030.5533 617.78583 1773.7817 3555389
-1019.4401 617.78583 1773.7817 3357753
-992.18652 607.89691 1745.3888 3620925
-981.42334 608.0036 1745.6951 3489339
-970.48596 608.0036 1745.6951 3357753
-960.86438 608.83734 1748.0889 3818304
-938.68445 601.64099 1727.4269 3949890
-927.86151 601.64099 1727.4269 3357753
-920.77643 604.09326 1734.4678 3291960
-912.49683 605.81104 1739.3998 3226167
-903.85614 607.3277 1743.7544 3291960
-892.06207 606.73669 1742.0576 3555132
-887.14551 610.86676 1753.9158 3686718
-878.0451 612.18341 1757.696 3555132
-864.11041 610.12018 1751.7721 3489339
-853.99817 610.73743 1753.5444 3423546
-848.54846 614.74866 1765.0614 3357753
-840.13599 616.6911 1770.6385 3357753
-829.60791 617.11176 1771.8463 3357753
-815.66504 614.96924 1765.6947 3094581
-808.90222 618.25568 1775.1307 3225653
-797.53046 618.06189 1774.5743 3291189
-785.74774 617.53967 1773.075 3422776
-780.29669 622.05005 1786.0251 3949120
-765.09387 618.8045 1776.7065 3356983
-753.27875 618.24359 1775.0959 2962225
-743.2514 619.15497 1777.7129 2962225
-732.1134 619.15497 1777.7129 2896689
-722.99188 620.8866 1782.6846 3159604
-711.82275 620.8866 1782.6846 3422776
-690.06476 611.50317 1755.7429 3620155
-677.84088 610.40131 1752.5792 3685948
-672.26306 615.3465 1766.778 3554362
-665.66638 619.50909 1778.7296 3554362
-652.53589 617.62915 1773.3319 3488569
-639.75201 616.01776 1768.7053 3356983
-631.20471 618.50104 1775.8352 3291190
-619.94354 618.36627 1775.4484 3554362
-608.41553 617.95575 1774.2695 3225397
-604.20306 625.09839 1794.7775 3291447
-600.68604 633.245 1818.1681 3949377
-582.90833 626.38239 1798.4641 3883584
-573.07886 627.95862 1802.9899 3159861
-559.06329 624.91907 1794.2626 3817791
-546.30975 623.19427 1789.3105 3949376
-535.49866 623.65955 1790.6464 3159604
-524.7998 624.27826 1792.4227 3356983
-515.24023 626.3089 1798.2532 3883327
-500.85297 622.43073 1787.118 3422776
-495.59924 629.98541 1808.8091 2962225
-485.81461 631.99933 1814.5914 3028018
-472.87683 629.90955 1808.5913 3093811
-463.19785 632.16473 1815.0664 3356726
-452.90073 633.66858 1819.3842 3291960
-445.45111 639.33698 1835.6592 3357753
-433.9501 639.33698 1835.6592 3489339
-425.76859 644.3606 1850.083 3818304
-412.4993 641.75018 1842.5879 3752511
-398.42932 637.70782 1830.9816 3094581
-389.57382 642.01923 1843.3605 3620925
-380.41733 646.08295 1855.0282 3620925
-364.46777 638.5022 1833.2623 3226167
-349.97952 633.07141 1817.6696 3226167
-335.27954 626.87946 1799.8912 3226167
-323.3989 625.71124 1796.537 3226167
-311.47025 624.36261 1792.6648 3356726
-299.27792 622.36469 1786.9286 3422776
-286.68768 619.35187 1778.2782 3817278
-275.20062 618.57507 1776.0477 3948863
-262.03073 613.79089 1762.3115 3159347
-250.36182 612.25635 1757.9056 3356470
-237.72156 608.09589 1745.9601 3751485
-228.31079 612.19366 1757.7256 3028018
-217.60684 613.06354 1760.2231 3422776
-205.1886 608.93872 1748.38 3356983
-193.32234 606.07922 1740.1698 3225140
-182.45972 606.21234 1740.552 3225397
-171.70384 606.73962 1742.066 3093811
-158.82758 599.33722 1720.8123 2962225
-148.22975 600.08044 1722.9462 3159348
-138.08342 602.9118 1731.0757 3290676
-127.64175 604.82642 1736.5728 3093298
-116.53525 603.65405 1733.2067 2632491
-105.96664 605.31323 1737.9706 2764589
-95.35231 607.06146 1742.9901 2830383
-86.248123 620.11981 1780.483 3027505
-75.09285 620.11981 1780.483 2961968
-63.710072 617.91333 1774.1478 2699309
-52.984932 622.50055 1787.3187 2764846
-41.766899 622.20367 1786.4662 2962225
-30.667034 624.0943 1791.8945 3028018
-19.613546 629.65735 1807.8672 3291190
-8.2976036 630.4859 1810.2462 3356983
3.0684304 635.51465 1824.6846 3356983
14.46764 634.06812 1820.5312 3553849
25.696337 629.71838 1808.0424 3948607
36.842274 626.62268 1799.1541 3948607
47.862144 623.33575 1789.7166 3422006
58.861599 621.08105 1783.243 3159091
69.801842 619.02075 1777.3274 3093298
81.567497 623.84027 1791.1652 3422006
92.736198 623.48047 1790.1322 3422007
103.60214 621.38257 1784.1085 3488056
115.2053 623.68427 1790.7173 3224628
126.2332 622.73956 1788.0048 3553849
137.48811 622.97748 1788.688 3422006
148.69479 622.97748 1788.688 3093298
160.08029 623.67413 1790.6881 3488313
170.7643 621.72552 1785.0933 3422520
182.97147 625.22119 1795.13 3291190
193.74687 623.70288 1790.7706 3685948
204.233 621.47058 1784.3613 3356983
216.90448 625.77472 1796.7194 3422776
229.89096 630.51813 1810.3386 4014913
245.09399 640.60889 1839.3112 3817534
256.40784 640.08466 1837.806 3356983
267.00186 637.8858 1831.4926 3093811
275.52795 631.13123 1812.0989 3225397
285.05994 627.12427 1800.5941 3159348
293.31271 620.71527 1782.1927 3619899
305.18292 622.15094 1786.3148 3949120
315.55075 620.53052 1781.6624 3356726
327.47806 621.98285 1785.8322 3291190
338.85065 622.32037 1786.8013 3356983
350.93301 623.89819 1791.3315 3620155
361.99316 623.61719 1790.5248 3422776
373.61667 624.29449 1792.4694 3422776
388.10544 629.5802 1807.6456 3685948
399.06644 629.00574 1805.9962 3751741
406.87982 623.63849 1790.5858 3488569
422.19638 629.75104 1808.1362 3225397
430.10168 624.77838 1793.8588 3488569
447.14075 632.98914 1817.4332 3028018
455.30438 628.53961 1804.6578 3422519
464.91083 626.24921 1798.0818 3554876
472.89761 621.93713 1785.701 3752511
487.27432 626.03394 1797.4636 4147525
498.53601 626.03394 1797.4636 3884096
507.62811 623.36969 1789.8141 4015683
518.49066 622.94781 1788.6027 3883840
528.36694 621.38379 1784.1122 3949376
540.10663 622.03064 1785.9694 3028275
545.52203 615.5155 1767.2632 2896945
556.50061 615.41174 1766.9652 3225397
568.07501 615.95801 1768.5336 3159860
580.62549 617.52148 1773.0227 2962225
591.83551 617.62744 1773.3269 2633260
599.37115 613.96552 1762.813 2764846
612.30792 615.86877 1768.2775 2567724
626.84033 619.2807 1778.0737 2633260
640.05511 621.29449 1783.8558 3291190
651.23157 621.29449 1783.8558 3094068
667.36658 625.94537 1797.2094 2896432
677.77612 625.16083 1794.9568 3159604
686.24274 622.6391 1787.7164 3488569
696.71436 621.98834 1785.8479 3554362
708.58746 622.58954 1787.5741 2698797
726.79449 628.65057 1804.9764 2764333
738.10321 628.65057 1804.9764 2895919
746.87677 626.52386 1798.8704 2895919
758.98944 627.21991 1800.8688 3027505
770.01678 627.01172 1800.271 3159348
776.50677 623.16815 1789.2355 3422520
789.45392 624.5423 1793.1809 3027761
804.77271 627.72791 1802.3273 3093813
819.83209 630.62567 1810.6473 3620156
826.06256 626.74573 1799.5074 3488569
835.60834 625.45178 1795.7922 3094068
852.8053 629.84314 1808.4006 2633517
868.72565 633.18878 1818.0066 2699053
881.93073 634.49432 1821.755 2699053
899.43756 638.82184 1834.1802 2764846
924.04413 648.0191 1860.5873 2962481
930.6145 644.49622 1850.4724 3159604
942.10126 644.42303 1850.2622 3159604
950.49847 642.26392 1844.0631 3159604
962.05206 642.26392 1844.0631 2962225
952.0163 628.02197 1803.1716 2962225
978.83899 638.14343 1832.2324 2962225
990.31848 638.14343 1832.2324 2896432
995.04315 633.84064 1819.8782 2830639
1019.85 642.28271 1844.1171 2896432
1022.326 636.62964 1827.8859 3291190
1022.8325 629.88892 1808.532 3554362
1041.8596 634.57642 1821.9907 3488569
1043.4387 628.65033 1804.9758 3356983
1057.26 630.14789 1809.2755 3225397
1066.9366 629.16956 1806.4666 2962225
1075.8256 627.75208 1802.3969 3027762
1079.3441 623.26306 1789.5078 3159347
1093.8385 625.13904 1794.8942 3027761
1103.7979 624.41144 1792.8051 2896432
1112.0951 622.76776 1788.0857 2764589
1130.3951 626.70239 1799.3829 2961712
1142.54 627.18066 1800.756 2764333
1151.9712 626.1745 1797.8672 2830126
1159.7925 624.32111 1792.5458 3224884
1178.6243 628.37347 1804.1809 3225141
1182.8105 624.61493 1793.3894 2895919
1180.7417 617.65491 1773.4059 2566954
1194.3923 618.97119 1777.1851 2566954
1200.392 616.33453 1769.6149 2632747
1209.6584 615.40826 1766.9553 2961712
1230.7561 620.46332 1781.4692 2895919
1241.9175 620.46332 1781.4692 2566954
1242.0427 614.99866 1765.7793 2961712
1249.1794 613.07172 1760.2466 3159091
1253.8927 609.99939 1751.4254 3027505
1270.4611 612.69775 1759.1729 2830126
1279.2865 611.64764 1756.1578 3093298
1298.1758 615.38611 1766.8917 3356470
1311.8628 616.61609 1770.4232 3225141
1320.0206 615.24841 1766.4963 2830126
1333.0812 616.16956 1769.1411 2895919
1348.7611 618.27625 1775.1898 2830126
1359.2996 618.01086 1774.428 2698796
1380.2911 622.46387 1787.2133 3027505
1399.6875 626.13147 1797.7438 3356470
1424.1884 632.0058 1814.61 3422263
1444.3467 635.87531 1825.72 3356470
1442.1761 629.93091 1808.6526 3553849
1459.2697 632.42792 1815.822 3553849
1479.8484 636.38513 1827.1838 4277829
1491.9775 636.67584 1828.0187 4277572
1503.4307 636.67584 1828.0187 4211779
1510.718 634.92505 1822.9918 3817021
1522.1395 634.92505 1822.9918 2830126
1544.3109 639.37573 1835.7704 2369575
1529.8137 628.69122 1805.0931 2237989
1537.6669 627.28125 1801.0448 2632747
1552.0201 628.52417 1804.6135 2698540
1563.5774 628.625 1804.9031 2698540
1575.6804 628.9422 1805.8138 2895919
1592.5541 631.14551 1812.14 3093298
1608.5961 632.99048 1817.4371 3093298
1614.7877 630.96051 1811.6088 3027505
1628.8268 632.00378 1814.6042 2830126
1673.1278 644.69318 1851.038 3093298
1684.7251 644.69318 1851.038 3356470
1669.3228 634.43188 1821.5758 3817021
1683.8518 635.60822 1824.9532 4277572
1713.498 642.43646 1844.5585 4212035
1736.3512 646.64343 1856.6375 3422519
1733.2842 641.20557 1841.0243 3356726
1758.8286 646.35406 1855.8066 3356469
1773.1097 647.32294 1858.5885 3027505
1780.6422 645.83148 1854.3063 2961712
1788.9126 644.62531 1850.843 3159091
1786.9644 639.77606 1836.9199 3159091
1798.3267 639.72394 1836.7703 3093042
1808.6381 639.30096 1835.5558 3027761
1813.5394 636.98322 1828.901 2961970
1827.1548 637.73596 1831.0624 3028020
1844.6338 639.8194 1837.0444 3225142
1869.7228 644.50037 1850.4843 3357242
1876.5409 642.8642 1845.7866 3488571
1873.8671 638.01642 1831.8677 3554621
nan nan nan 16777215
nan nan nan 16777215
nan nan nan 16777215
nan nan nan 16777215
nan nan nan 16777215
nan nan nan 16777215
nan nan nan 16777215
nan nan nan 16777215
nan nan nan 16777215
nan nan nan 16777215
nan nan nan 16777215
nan nan nan 16777215
nan nan nan 16777215
-1533.9845 608.13287 1715.3718 3356983
-1524.4036 608.59857 1716.6854 3356983
-1515.2577 609.24573 1718.511 3225397
-1513.7274 612.98615 1729.0616 3028018
-1497.0364 610.59692 1722.3221 2962225
-1490.7384 612.44275 1727.5288 3028018
-1488.0363 615.80365 1737.0089 3159604
-1473.9955 614.48718 1733.2955 3094068
-1454.6323 610.91589 1723.2219 3093811
-1444.4727 611.1853 1723.9819 3093811
-1436.5684 612.42035 1727.4656 3093811
-1433.6819 615.82947 1737.0818 3356983
-1419.1665 614.25745 1732.6475 3225397
-1400.1592 610.7019 1722.6184 3554362
-1382.0347 607.47925 1713.5281 3685948
-1371.299 607.47925 1713.5281 3620155
-1353.269 604.22247 1704.3418 3685948
-1342.7172 604.27936 1704.5021 3620155
-1332.038 604.27936 1704.5021 3356983
-1306.4961 597.48242 1685.33 3356983
-1291.0325 595.22119 1678.9517 3159604
-1283.3741 596.55103 1682.7028 2830639
-1269.0771 594.79144 1677.7394 3488569
-1251.302 591.3587 1668.0566 3356983
-1244.4771 593.08673 1672.9309 3028018
-1239.1581 595.56793 1679.9296 3159604
-1238.9529 600.5705 1694.0404 3422776
-1230.6794 601.71466 1697.2679 3356983
-1218.1449 600.77728 1694.6239 3225397
-1205.3728 599.70532 1691.6001 2830639
-1194.7744 599.70532 1691.6001 3028018
-1196.8267 606.112 1709.6715 3422776
-1190.51 608.35785 1716.0065 3685948
-1184.2906 610.69482 1722.5984 3751741
-1179.5033 613.81995 1731.4136 3949120
-1169.5659 614.29816 1732.7625 3883327
-1156.9049 613.34137 1730.0636 3554362
-1142.7264 611.55444 1725.0231 3356983
-1132.6067 611.92609 1726.0715 3093811
-1117.6013 609.64001 1719.623 3291190
-1106.8274 609.64001 1719.623 3356983
-1090.9628 606.80859 1711.6364 3554362
-1086.119 610.11169 1720.9535 4212292
-1072.2793 608.37701 1716.0605 3686974
-1062.7855 609.0979 1718.0939 3357753
-1053.5908 610.00671 1720.6573 3423546
-1044.3007 610.87854 1723.1166 3620925
-1029.2861 608.38495 1716.0828 3423546
-1029.5038 614.93719 1734.5648 3818304
-1018.6136 614.92346 1734.5262 4081476
-1003.3396 612.23456 1726.9415 3357753
-991.35608 611.51672 1724.9167 3291960
-974.55225 607.77692 1714.3678 3620925
-965.26343 608.69269 1716.9509 3423546
-942.40033 600.97272 1695.175 3291960
-931.64819 600.888 1694.9362 3884354
-928.49634 605.75983 1708.6782 4081476
-914.13977 603.35004 1701.8807 3489339
-907.94189 606.33173 1710.2913 3357753
-897.22638 606.33173 1710.2913 2962995
-883.88507 604.53583 1705.2256 2831410
-873.28888 604.59644 1705.3965 3094837
-864.94379 606.23633 1710.0223 3160117
-856.68304 607.97729 1714.933 3357497
-847.86877 609.36456 1718.8461 3423546
-840.88519 612.12024 1726.6191 2897202
-830.7663 612.63568 1728.073 2699823
-822.58929 614.6156 1733.6577 3225910
-822.70197 622.92523 1757.0969 3488827
-799.50269 613.5697 1730.7076 3290934
-789.00586 613.83936 1731.4683 3291190
-778.22217 613.89026 1731.6118 3422776
-764.77716 611.81348 1725.7539 3356983
-758.64948 615.61499 1736.4767 3225397
-748.49274 616.21008 1738.1554 2962225
-739.82812 618.06927 1743.3997 3291190
-728.90521 618.06927 1743.3997 3620155
-713.53119 614.23767 1732.5917 3093811
-710.92346 621.44708 1752.9275 3291190
-685.3855 608.52399 1716.4751 3422776
-673.44354 607.45276 1713.4534 3883327
-663.15051 607.85815 1714.5969 3949120
-651.6767 607.1767 1712.6748 4014913
-648.74988 614.56915 1733.5269 3883327
-641.43359 617.98444 1743.1603 3620155
-627.47925 615.01178 1734.7753 3620155
-613.67261 612.0816 1726.5101 3554362
-608.68762 618.00305 1743.2129 3422776
-595.80249 615.97321 1737.4873 3093811
-586.12201 617.24261 1741.0679 3291190
-579.77051 622.13239 1754.8606 3488569
-572.00708 625.66681 1764.8302 3356983
-559.12616 623.63275 1759.0927 2830639
-548.10492 623.63275 1759.0927 3093299
-540.80511 627.95392 1771.2814 3488312
-527.5791 625.43079 1764.1643 3356727
-516.28552 625.13959 1763.3429 2961712
-504.97739 624.8175 1762.4346 2961711
-494.24377 625.20782 1763.5355 3028018
-483.09637 625.08063 1763.1768 3028018
-473.25616 626.67853 1767.6838 3291446
-462.57098 627.20715 1769.1749 3291190
-454.40292 631.25854 1780.6029 3159604
-445.87012 634.99445 1791.1409 2896176
-433.79755 633.75195 1787.6361 2633774
-428.60306 642.7583 1813.0405 3423033
-413.78598 637.43164 1798.0154 3291703
-400.30191 633.9176 1788.1034 2962995
-386.8869 630.3139 1777.9384 2962995
-373.77881 627.01135 1768.6227 3291960
-360.98874 624.0567 1760.2886 3357753
-345.52322 616.14502 1737.9719 2897202
-338.5434 623.34265 1758.2743 2897202
-330.60303 629.19641 1774.7861 3160374
-319.48346 629.19641 1774.7861 3357753
-304.25781 620.81824 1751.1537 3159604
-287.96301 609.55017 1719.3696 3817534
-276.61905 608.29321 1715.8241 4278854
-266.0571 608.72388 1717.0388 3883840
-257.31439 613.5285 1730.5914 2896946
-244.42303 608.42883 1716.2067 2370345
-234.2655 609.97815 1720.5769 5002578
-222.33083 606.82648 1711.6869 4080706
-213.24866 611.53552 1724.9698 2962225
-200.73085 606.3689 1710.3961 3356983
-189.8616 605.88043 1709.0183 3225397
-178.95244 605.19849 1707.0948 3225397
-167.53479 602.60095 1699.7678 3422776
-156.42758 600.84314 1694.8096 2830639
-146.25574 602.68372 1700.0013 3094067
-135.79382 603.52429 1702.3723 3290677
-126.85864 611.87189 1725.9186 2895919
-116.20879 612.73438 1728.3513 3093298
-105.11703 611.20453 1724.0361 3224884
-94.062126 609.56317 1719.4062 2829869
-83.1315 608.40668 1716.1443 2566954
-72.439209 608.9101 1717.5641 2435369
-62.498272 617.00677 1740.4027 2699053
-52.142242 623.56183 1758.8926 2764846
-41.109097 623.36249 1758.3304 2501674
-29.899767 619.36786 1747.0625 2370088
-18.93808 618.85162 1745.6063 2699053
-8.1404877 629.61578 1775.9691 2896688
2.9941592 631.22852 1780.5182 3093555
14.050554 626.80743 1768.0475 3487799
25.061348 625.14679 1763.3633 3224884
36.25518 627.6712 1770.484 3422263
46.885368 621.54077 1753.1918 3093298
57.406784 616.56934 1739.1688 2961712
67.711166 611.22498 1724.0938 3027505
78.898468 614.22467 1732.5551 2961712
90.034515 616.14801 1737.9803 3027505
101.22002 617.95831 1743.0867 3356470
112.78786 621.52289 1753.1414 3422263
124.00426 622.69006 1756.4336 3422263
136.52045 629.66174 1776.0989 2961712
146.37938 624.25049 1760.8352 2632747
154.7278 613.60742 1730.8141 3224884
168.75179 625.39215 1764.0554 3487800
179.82425 625.4621 1764.2527 3290933
191.33905 626.97333 1768.5155 3685692
201.92654 625.44696 1764.21 2961968
212.41684 623.79358 1759.5463 2896176
225.31331 629.02069 1774.2905 3027762
236.22794 628.48376 1772.7759 3159348
246.63205 626.69763 1767.7379 3290933
258.39929 628.38007 1772.4835 3488312
270.71509 631.20282 1780.4457 3422776
280.65402 628.47949 1772.764 3422519
289.66162 623.95734 1760.0083 3422519
300.26971 623.08813 1757.5564 3290934
313.6572 627.84381 1770.9708 3159348
323.6799 625.76947 1765.1196 3356726
333.43076 623.32391 1758.2214 3159604
345.9675 626.07635 1765.9852 3554362
356.48654 625.11981 1763.2874 3488569
367.53409 625.11981 1763.2874 3488569
379.24084 626.20837 1766.3578 3620155
390.23456 626.09119 1766.0272 3554362
398.62729 621.92242 1754.2684 3620155
409.28131 621.41077 1752.8251 3356983
419.6275 620.4707 1750.1733 3422776
431.86459 622.30316 1755.3422 3488569
448.23831 629.85736 1776.6505 3159604
454.77536 623.55804 1758.882 3620155
464.2608 621.50385 1753.0876 3685692
475.44452 621.7655 1753.8257 4146499
486.34778 621.65686 1753.5192 3949120
497.69162 622.1037 1754.7797 4212035
508.46561 621.83435 1754.0199 3751741
518.78107 621.02753 1751.744 3751741
530.24963 621.60583 1753.3752 3225397
535.664 615.20752 1735.3274 3159604
541.34662 609.36566 1718.8492 3159091
552.79871 610.11945 1720.9755 3422006
563.1369 609.63849 1719.6188 3356214
574.57019 610.33893 1721.5945 3356469
591.90338 617.16516 1740.8494 2633003
607.81659 622.29065 1755.3069 2566954
618.81409 622.29065 1755.3069 2830126
625.36627 617.89832 1742.9175 3158835
637.54559 619.1214 1746.3673 3225397
649.37921 619.97302 1748.7697 3224884
659.43915 619.13116 1746.395 3356470
672.1983 620.80969 1751.1296 3422520
684.95844 622.43518 1755.7147 3422519
693.03857 619.82373 1748.3484 3290678
707.90259 623.26624 1758.0588 3027505
722.95935 626.77045 1767.9432 2961712
734.38055 627.06464 1768.7729 2961969
745.79388 627.34338 1769.5593 3027505
756.88068 627.34338 1769.5593 3027762
771.09119 629.89502 1776.7568 2961712
781.07043 628.96686 1774.1387 3356470
793.98224 630.39301 1778.1615 3224628
809.38495 633.73004 1787.5743 2895663
817.12256 631.05634 1780.0325 2830126
827.59106 630.53522 1778.5625 2961712
841.18738 632.37933 1783.7643 2303782
852.36316 632.37933 1783.7643 2304039
860.35907 630.0506 1777.1956 2370345
878.52167 635.13153 1791.5275 2699053
897.55658 640.70685 1807.2539 2633260
916.44916 646.04297 1822.3055 3225397
924.61176 643.77679 1815.9133 3422776
931.44946 640.65448 1807.1062 3685948
939.28479 638.2851 1800.4227 4080706
947.23492 636.04901 1794.1154 3356983
951.23981 631.24731 1780.5712 2962482
961.73499 630.81396 1779.3489 2830639
969.48016 628.60748 1773.125 2830639
981.44861 629.15833 1774.6787 3422776
980.82782 621.71686 1753.6885 3422776
992.93134 622.4165 1755.6619 3291190
1000.5816 620.33984 1749.8043 3093811
991.73309 608.19025 1715.5336 3620155
1001.7522 607.7478 1714.2856 3554362
1026.1926 615.97119 1737.4814 3093811
1044.9923 620.67157 1750.74 2896432
1059.59 622.80438 1756.7561 3094067
1072.3632 623.83209 1759.655 3093554
1083.755 624.04346 1760.2512 2961712
1090.459 621.57849 1753.2981 2961455
1103.4734 622.72369 1756.5284 2896175
1116.6932 623.96118 1760.019 2698540
1128.1666 624.20807 1760.7155 2961712
1136.5336 622.74817 1756.5974 3159091
1152.5886 625.48834 1764.3268 2895919
1160.8538 623.98926 1760.0983 2830126
1160.9164 618.15082 1743.6296 2764333
1172.3402 618.41425 1744.3727 2501161
1186.1842 619.93768 1748.6699 2764333
1197.1403 619.93768 1748.6699 3159091
1194.9336 613.18335 1729.6178 3027505
1204.5583 612.56708 1727.8794 2764333
1213.1034 611.41754 1724.637 2566954
1218.0294 608.48047 1716.3523 2895919
1229.9889 609.0777 1718.0369 3553849
1238.1625 607.80603 1714.4498 3553849
1248.9041 607.80603 1714.4498 3290677
1264.4766 610.13702 1721.025 2961969
1272.8755 608.99652 1717.808 2961712
1288.2311 611.1756 1723.9545 2830126
1301.8226 612.4884 1727.6576 2895919
1316.4639 614.26953 1732.6815 2764333
1323.5485 612.52423 1727.7585 2830126
1342.1031 616.07245 1737.7671 3224884
1363.3573 620.79272 1751.0817 3290677
1392.9692 629.21289 1774.8326 3224884
1406.2089 630.16284 1777.5122 3356470
1417.9799 630.44482 1778.3076 3422263
1429.0284 630.40381 1778.1919 3224884
1453.3386 636.16833 1794.452 4409158
1473.8083 640.17627 1805.7572 4935502
1489.3864 642.01447 1810.9423 5132881
1500.7324 642.01447 1810.9423 4606537
1495.4005 634.93311 1790.9678 3093298
1502.6779 633.27112 1786.2798 2435368
1488.8315 622.79742 1756.7365 2303782
1493.0916 619.99603 1748.8345 2698540
1515.4147 624.68134 1762.0504 2830126
1531.5363 626.76105 1767.9166 2764333
1546.88 628.49475 1772.807 3093298
1560.4285 629.47955 1775.5848 3356470
1576.2506 631.36115 1780.8923 3027505
1588.8364 631.92914 1782.4944 2895919
1600.0044 631.92914 1782.4944 2830126
1612.3328 632.38428 1783.7783 2698540
1632.9658 636.06805 1794.1691 2764333
1648.0085 637.53876 1798.3175 3027505
1653.478 635.3111 1792.0341 3159091
1660.4977 633.70526 1787.5044 3159348
1664.3239 630.91022 1779.6204 3225141
1685.1165 634.54126 1789.8625 3290934
1704.8618 637.73254 1798.8643 3357239
1717.8611 638.37506 1800.6765 3356983
1730.0039 638.69287 1801.5731 3422519
1743.1857 639.38776 1803.5331 3422263
1747.7239 636.92365 1796.5825 3290677
1765.8796 639.422 1803.6295 3159091
1775.3184 638.7522 1801.7404 3027505
1781.7616 637.0199 1796.854 3093298
1792.8198 636.94904 1796.6541 3093301
1801.5314 636.05048 1794.1195 3224627
1817.3511 637.6571 1798.6514 3159090
1832.5844 639.03949 1802.5507 3093298
1843.8781 639.03949 1802.5507 3290420
nan nan nan 16777215
nan nan nan 16777215
nan nan nan 16777215
nan nan nan 16777215
nan nan nan 16777215
nan nan nan 16777215
nan nan nan 16777215
nan nan nan 16777215
nan nan nan 16777215
nan nan nan 16777215
nan nan nan 16777215
nan nan nan 16777215
nan nan nan 16777215
-1493.025 602.29993 1669.5691 3093811
-1491.4774 605.92078 1679.6061 3225397
-1487.3901 608.55396 1686.9053 3554362
-1476.2661 608.32532 1686.2714 3356983
-1470.0574 610.13336 1691.2832 3159604
-1462.6893 611.48297 1695.0243 3028018
-1460.0889 614.85999 1704.3855 2962225
-1446.5569 613.64948 1701.03 2962225
-1434.2446 612.94232 1699.0697 3028018
-1430.2715 615.815 1707.0328 3291190
-1409.2876 611.35175 1694.6606 3225397
-1398.4271 611.24561 1694.3663 3225397
-1387.5598 611.13477 1694.0592 3028018
-1383.026 613.83331 1701.5394 3422776
-1371.9058 613.62775 1700.9696 3554362
-1344.0757 605.88641 1679.5109 3685948
-1324.9492 601.97736 1668.6749 4014913
-1312.9535 601.27167 1666.7188 3554362
-1302.511 601.27167 1666.7188 3225397
-1274.8025 593.23688 1644.4464 3291190
-1263.6041 592.81677 1643.2819 3356983
-1257.134 594.62622 1648.2977 3159604
-1248.4922 595.42999 1650.5258 3949120
-1230.1646 591.58923 1639.8793 4015169
-1224.2092 593.68378 1645.6853 3093811
-1220.5767 596.94983 1654.7388 3159604
-1204.3623 594.06573 1646.7441 3291190
-1203.5612 598.80042 1659.8684 3620155
-1183.2095 593.80579 1646.0236 3225397
-1188.433 601.67145 1667.8269 2699053
-1180.7521 603.08557 1671.7468 2830639
-1172.662 604.31403 1675.1521 3356983
-1164.0574 605.29718 1677.8774 3685948
-1163.3688 610.45197 1692.1665 3685948
-1143.2439 605.40912 1678.1877 3488569
-1139.7477 609.16003 1688.5853 3554362
-1136.4 613.06152 1699.4001 3685948
-1120.0955 609.98071 1690.8601 3883327
-1115.4556 613.25397 1699.9336 3356983
-1100.8956 611.08405 1693.9186 3225397
-1090.2828 611.08405 1693.9186 3159604
-1070.2994 605.7804 1679.217 3225397
-1060.5978 606.24872 1680.5151 3028018
-1043.1637 602.26208 1669.4642 3093810
-1043.6545 608.64832 1687.1667 3554876
-1033.0839 608.64832 1687.1667 3357753
-1025.2964 610.30493 1691.7589 3357753
-1018.6016 612.65344 1698.2689 3357753
-1009.6928 613.70581 1701.186 3818304
-995.30249 611.41333 1694.8313 3818304
-984.68384 611.41333 1694.8313 3094581
-971.26984 609.65869 1689.9675 3226167
-966.58661 613.40601 1700.3551 3489339
-950.38055 609.8429 1690.4781 3620925
-934.0116 606.09381 1680.0856 4410441
-911.36414 598.13855 1658.0337 4278855
-907.35144 602.37097 1669.766 3225910
-906.79114 609.02087 1688.1996 3225654
-894.35657 607.75867 1684.7007 3159604
-880.45569 605.45789 1678.323 2961712
-870.52551 605.86511 1679.4517 2896175
-858.836 605.04279 1677.1722 3027761
-848.328 605.04279 1677.1722 3159091
-834.78339 602.84979 1671.0934 3093555
-830.47754 607.35791 1683.5897 3028018
-821.66931 608.64679 1687.1625 3159604
-815.29126 611.79279 1695.8833 3159604
-805.87488 612.71191 1698.431 2896432
-796.00378 613.3053 1700.0758 3225397
-783.52997 611.88214 1696.131 3093811
-767.64886 607.72253 1684.6005 3028018
-758.20746 608.61603 1687.0773 3291190
-747.11951 608.19446 1685.9087 3225397
-737.7016 609.13977 1688.5291 3291190
-727.05475 609.08301 1688.3718 3225397
-717.23694 609.72949 1690.1637 3356983
-710.10858 612.71582 1698.4418 3488569
-692.51483 606.62561 1681.5598 3620155
-685.07538 609.37952 1689.1937 3817534
-673.90228 608.84668 1687.7167 3751741
-658.13544 604.08038 1674.5046 4080706
-649.26349 605.59088 1678.6915 4080706
-638.69269 605.54034 1678.5515 4014913
-631.03522 608.29651 1686.1915 3883327
-621.39124 609.19904 1688.6932 3554362
-610.8111 609.19904 1688.6932 3554362
-600.66504 609.63959 1689.9146 3422776
-594.37427 614.0791 1702.2209 3225397
-584.09271 614.48254 1703.3391 3093811
-574.56635 615.71008 1706.7419 3291190
-569.22656 621.55573 1722.9459 3291190
-558.72528 621.88245 1723.8516 2764589
-547.9248 621.88245 1723.8516 2699053
-542.01129 627.54053 1739.5358 3093811
-533.69458 630.59131 1747.9926 2764333
-518.60657 625.60168 1734.1613 2895919
-511.55939 630.30573 1747.2009 3224884
-500.48541 630.14557 1746.7568 2961712
-486.15625 625.78809 1734.6781 2764333
-475.28793 625.78809 1734.6781 3027505
-467.41391 629.82275 1745.8621 4212035
-455.9205 629.05695 1743.7393 3422776
-449.64975 635.63635 1761.9774 2896432
-438.91336 636.07538 1763.1943 3093811
-428.57816 637.13348 1766.1274 3159604
-417.51282 637.13348 1766.1274 3225654
-409.56052 642.01343 1779.6545 2765616
-394.12991 635.1156 1760.5338 3094581
-382.11365 633.48102 1756.0028 3094581
-365.15643 623.31543 1727.8239 3029045
-352.53104 620.14893 1719.0463 3291960
