# .PCD v0.7 - Point Cloud Data file format
VERSION 0.7
FIELDS x y z rgb
SIZE 4 4 4 4
TYPE F F F U
COUNT 1 1 1 1
WIDTH 1273
HEIGHT 1
VIEWPOINT 0 0 0 1 0 0 0
POINTS 1273
DATA ascii
1706.1704 652.93286 2283.2551 3357496
1725.5549 654.86041 2289.9956 3291190
1740.1627 654.95837 2290.3381 3093811
1757.9438 656.23938 2294.8176 2962225
1779.4919 658.89435 2304.1021 3093811
1800.8702 661.44415 2313.0186 3291190
1809.8373 659.43121 2305.9792 3422262
1835.377 663.44073 2320.0002 3159091
1856.9781 665.97467 2328.8613 2764589
1854.8477 660.02448 2308.054 2961968
1862.7913 657.72345 2300.0073 3027505
1883.0917 659.78717 2307.2241 3027506
1898.3735 660.07452 2308.229 3093042
1915.4907 660.99091 2311.4333 3093298
1925.6683 659.51666 2306.2783 2830639
1930.6675 656.3042 2295.0444 2896432
1941.8011 655.20905 2291.2148 3488056
1963.0817 657.52869 2299.3264 3422263
1996.2429 663.76495 2321.134 3159091
2003.8652 661.48053 2313.1458 3356470
2025.2229 663.73047 2321.0134 3488056
2041.054 664.14996 2322.4805 3488056
2047.1627 661.4223 2312.9421 3685436
2067.0955 663.16803 2319.0466 3554362
2070.96 659.77039 2307.1653 3225397
2090.9153 661.5105 2313.2505 3093811
2106.4968 661.85248 2314.4463 3422776
2121.8984 662.13354 2315.4292 3553851
2137.2881 662.40717 2316.386 3422778
2157.2751 664.09229 2322.2788 3291192
2173.6699 664.65643 2324.2515 3225399
2188.2319 664.65643 2324.2515 3291192
2205.7795 665.55725 2327.4016 3620157
2252.8374 675.29193 2361.4431 3159606
2243.3333 668.05566 2336.1384 2830641
2256.3025 667.56238 2334.4133 2962227
2272.7424 668.0957 2336.2783 3028020
2289.1321 668.60742 2338.0679 3159606
2303.5862 668.55096 2337.8704 3093813
2311.916 666.72906 2331.4993 3159606
2325.8608 666.53906 2330.835 3225399
2342.3162 667.06647 2332.6792 3225399
2351.6423 665.5697 2327.4451 3225399
2376.0361 668.32953 2337.0959 3093813
2393.2751 669.05524 2339.6338 3028277
nan nan nan 16777215
nan nan nan 16777215
nan nan nan 16777215
nan nan nan 16777215
nan nan nan 16777215
nan nan nan 16777215
nan nan nan 16777215
nan nan nan 16777215
nan nan nan 16777215
nan nan nan 16777215
-1941.157 621.21442 2126.0054 3949890
-1944.3231 626.52686 2144.1863 3884097
-1937.4808 628.66571 2151.5061 3818304
-1923.8687 628.62244 2151.3582 3818304
-1908.4602 627.98755 2149.1853 3686718
-1906.9392 631.94574 2162.7317 3489339
-1901.2814 634.57996 2171.7468 3291960
-1890.3257 635.47119 2174.7969 3817278
-1883.2036 637.67334 2182.3335 3818304
-1867.1787 636.87122 2179.5881 3620925
-1858.801 638.68469 2185.7947 3555132
-1845.3849 638.78113 2186.1245 3686718
-1831.6881 638.78113 2186.1245 3884097
-1817.494 638.60638 2185.5266 3752511
-1809.2418 640.53265 2192.1189 3620925
-1802.5297 643.03772 2200.6921 3686718
-1789.6377 643.3598 2201.7944 3489339
-1774.1957 642.76306 2199.7522 3423546
-1757.9503 641.86377 2196.6743 3358009
-1746.3602 642.66339 2199.4109 3358266
-1730.0757 641.73431 2196.2314 3489852
-1719.0547 642.75848 2199.7363 3489852
-1709.0356 644.17676 2204.5903 3489852
-1691.3999 642.724 2199.6184 3490109
-1677.6187 642.724 2199.6184 3555901
-1660.3472 641.37579 2195.0044 3489852
-1639.9569 638.79022 2186.1558 3489852
-1627.1047 639.12207 2187.2913 3621441
-1610.4258 637.9436 2183.2583 3687232
-1590.7219 635.53644 2175.02 3687487
-1581.533 637.32489 2181.1409 3358522
-1555.6787 632.3703 2164.1846 3226681
-1536.3068 629.98669 2156.0271 3292473
-1521.4406 629.42493 2154.1045 3357753
-1507.9475 629.42621 2154.1089 3292217
-1479.925 623.30811 2133.1707 3292217
-1468.2743 624.03668 2135.6641 3357753
-1461.0975 626.69763 2144.7708 3094581
-1442.374 624.4093 2136.9395 3094581
-1428.9855 624.4093 2136.9395 3291703
-1414.0486 623.72644 2134.6023 3291703
-1400.2201 623.52399 2133.9094 3160373
-1391.1155 625.44153 2140.4719 3160117
-1369.269 621.61194 2127.3657 3159861
-1357.4539 622.30573 2129.7402 3225397
-1344.1104 622.30573 2129.7402 3225396
-1327.7008 620.87195 2124.8333 3159604
-1313.5382 620.47052 2123.4595 3159604
-1311.4323 625.81421 2141.7476 3159604
-1303.306 628.36603 2150.4805 3093811
-1284.193 625.61853 2141.0776 3225397
-1267.5697 624.03882 2135.6714 3356983
-1250.8942 622.39935 2130.0605 3620155
-1247.3127 627.31 2146.8665 3225397
-1233.8619 627.31 2146.8665 3027761
-1225.9462 630.15509 2156.6033 3356983
-1212.3693 630.12122 2156.4875 3554362
-1201.3896 631.45178 2161.041 3488312
-1194.5184 634.99658 2173.1726 3685948
-1185.0771 637.24121 2180.8545 3751740
-1172.3271 637.73828 2182.5557 3620155
-1158.6527 637.73828 2182.5557 3817534
-1139.4238 634.64453 2171.9678 3751484
-1134.0397 639.28046 2187.8335 3620668
-1118.782 638.39587 2184.8062 4015683
-1105.0935 638.39587 2184.8062 3949890
-1093.5938 639.67615 2189.1875 3884097
-1081.3652 640.55719 2192.2029 3949890
-1068.8407 641.28333 2194.688 4015683
-1053.7186 640.44971 2191.835 3818304
-1039.4222 640.10242 2190.6465 3555132
-1042.764 650.7533 2227.0974 3818304
-1031.412 652.3988 2232.7288 4607820
-1003.787 643.65485 2202.8042 4081476
-999.46948 649.82086 2223.9062 3620925
-991.46387 653.72943 2237.2827 3620925
-981.92047 656.72162 2247.5229 3620925
-974.38739 661.16492 2262.7295 3423546
-952.88776 656.12262 2245.4731 3291960
-936.69989 654.64148 2240.4041 3357753
-922.23486 654.33771 2239.3645 3686718
-907.43518 653.78345 2237.4675 3752768
-900.58154 659.02643 2255.4109 3884353
-882.30145 655.94165 2244.8538 3949890
-870.88367 657.94141 2251.6975 4081476
-856.5694 657.78271 2251.1543 4081476
-850.6795 664.19629 2273.1038 4081477
-827.72754 657.27966 2249.4329 3949890
-814.57507 658.03979 2252.0342 4147525
-805.73334 662.37036 2266.855 4016196
-789.89209 660.99908 2262.1619 3358266
-765.94006 652.66644 2233.6448 3292473
-749.99945 650.97723 2227.8638 3621438
-730.94885 646.47339 2212.4502 3555645
-722.99335 651.79797 2230.6726 3555645
-704.8197 647.93896 2217.4658 3819074
-689.25336 646.36987 2212.0957 4147783
-676.11847 647.06323 2214.4688 4147525
-662.1084 646.9306 2214.0149 3950403
-647.43103 646.12634 2211.2625 3884353
-639.09814 651.75714 2230.5327 3950660
-625.12311 651.75714 2230.5327 4081989
-610.16705 650.71082 2226.9519 3687231
-590.90985 644.92126 2207.1382 3819074
-577.08148 644.92126 2207.1382 3884610
-562.72998 644.32239 2205.0886 3884610
-548.32513 643.63074 2202.7214 3818817
-531.9259 640.50177 2192.0132 3818561
-518.49121 640.87128 2193.2778 3950402
-506.97318 643.69446 2202.9397 3621438
-490.8139 640.6178 2192.4104 3292473
-483.0097 648.58313 2219.6704 3753024
-470.09341 649.95282 2224.3579 3818561
-455.18771 648.57159 2219.6309 3752767
-441.02518 648.1955 2218.3438 3752511
-426.58395 647.37213 2215.5259 3226423
-414.95682 650.90747 2227.625 3160887
-400.2883 649.75214 2223.6711 3489596
-386.35632 649.75214 2223.6711 3686718
-371.9097 648.85431 2220.5984 3686718
-359.93475 652.36646 2232.6182 3686718
-348.61102 657.39069 2249.8127 3949890
-337.52634 663.30804 2270.064 4607820
-315.05841 646.3916 2212.1702 4279111
-301.38345 646.78857 2213.5288 3884867
-287.19473 646.06805 2211.063 3950659
-273.83115 647.22485 2215.022 4147782
-259.95337 647.22485 2215.022 4279368
-245.77568 646.43616 2212.3228 4410956
-232.56589 648.25098 2218.5337 4477005
-218.62515 648.12964 2218.1184 4542799
-204.72795 648.12964 2218.1184 4345418
-190.88722 648.32141 2218.7747 4345418
-174.88324 640.61902 2192.4146 4542283
-159.57686 634.37689 2171.0518 3884610
-147.04597 639.03308 2186.9868 4016196
-133.34383 639.03308 2186.9868 3884610
-120.28469 642.46759 2198.741 4213575
-107.42973 648.02209 2217.7502 4345161
-93.356369 646.78564 2213.5188 4345161
-79.030579 643.06378 2200.7812 3884610
-65.590019 646.49408 2212.5208 3884354
-51.555309 644.33716 2205.1392 4081476
-37.581478 641.64038 2195.9099 4344648
-23.704609 638.44043 2184.9585 3752511
-10.060335 641.3197 2194.8125 4081476
3.6953502 642.10236 2197.491 3620925
17.796999 654.37158 2239.4802 3555132
31.28738 643.25592 2201.4387 3620925
45.361519 647.27179 2215.1826 3291960
58.889259 643.43604 2202.0552 3226167
71.779526 635.41321 2174.5984 3028788
86.304619 642.11346 2197.5291 3489339
99.650497 639.40369 2188.2551 3423546
113.3557 639.37604 2188.1606 3291960
127.08872 639.49445 2188.5657 3489339
140.17287 636.64258 2178.8057 2897458
154.15877 638.02911 2183.551 2962995
168.44312 640.3241 2191.4053 3029045
182.25598 640.61597 2192.4041 3028788
196.2444 641.44067 2195.2266 3028788
210.1452 641.88983 2196.7637 3094581
223.88541 641.8233 2196.5359 3160374
237.45111 641.29327 2194.7219 3226167
250.68237 639.96741 2190.1843 3160374
264.38379 639.91718 2190.0125 2765616
277.87061 639.37799 2188.1672 2897202
291.89865 640.07642 2190.5574 3159861
306.06287 640.99731 2193.709 2896688
324.06903 649.53949 2222.9434 3093811
336.9845 647.59479 2216.2878 3159604
350.1362 646.23999 2211.6514 3225397
363.33047 645.0639 2207.6265 3225397
377.71951 646.01758 2210.8901 3357496
390.02271 643.46252 2202.1458 3423032
402.1853 640.85797 2193.2322 3554618
416.41992 641.6181 2195.8337 3686204
430.99255 642.83374 2199.9939 3883583
445.34402 643.65442 2202.8027 3554362
455.95193 639.1778 2187.4822 3291190
470.18924 639.90192 2189.9604 2830896
482.73587 638.3493 2184.6467 3422776
497.22955 639.38599 2188.1946 3949376
510.11826 638.35858 2184.6785 3356983
528.68146 644.30035 2205.0132 3356983
542.61292 644.43854 2205.4861 3422776
561.92468 650.80115 2227.2612 3423033
577.19464 652.28778 2232.3489 2962739
583.32532 643.62018 2202.6853 2897202
597.12585 643.62018 2202.6853 2765359
612.53943 645.31952 2208.501 2634030
626.37634 645.31952 2208.501 2699823
640.19269 645.29871 2208.4299 2699567
652.98462 644.26813 2204.9028 2634286
666.46289 643.94336 2203.7915 2568494
680.3457 644.01471 2204.0356 2831409
695.3512 645.12476 2207.8347 2962995
709.18396 645.12476 2207.8347 2962995
722.672 644.81714 2206.782 2831666
736.49817 644.81714 2206.782 2897202
750.36792 644.85461 2206.9102 2831409
764.91797 645.46478 2208.9983 2897202
777.40454 644.34296 2205.1589 2897202
800.37073 651.79456 2230.6609 2765616
815.92719 653.05975 2234.9907 3291960
819.22565 644.63654 2206.1638 3752511
828.27686 640.94446 2193.5283 3357753
838.40283 638.19116 2184.1055 3489339
855.19122 640.51617 2192.0625 3555132
864.37122 637.15924 2180.574 3357755
882.5824 640.46057 2191.8721 3291962
900.07428 643.14661 2201.0647 3094583
926.87659 652.30402 2232.4043 3226169
940.81964 652.27368 2232.3005 3554877
946.26935 646.44208 2212.343 3620670
952.03394 640.99091 2193.6873 3357499
964.02692 639.82861 2189.7095 3883329
974.53235 637.72559 2182.5122 4014914
988.81866 638.12067 2183.8643 2699053
1004.8387 639.60852 2188.9563 1646365
1021.5467 641.48828 2195.3894 2435881
1041.265 645.18335 2208.0352 3422520
1055.099 645.18335 2208.0352 3488825
1065.3876 643.04346 2200.7117 3291446
1086.5686 647.44861 2215.7876 3160630
1100.8876 647.70526 2216.666 3423546
1109.2281 644.48212 2205.6353 3357753
1123.7737 644.89899 2207.062 3226167
1140.2014 646.3728 2212.106 3226167
1149.4264 643.77716 2203.2227 3226167
1160.2432 642.12402 2197.5649 3094581
1177.5262 644.04633 2204.1438 3489339
1182.2296 639.12341 2187.2959 3357753
1204.699 643.80762 2203.3269 2634030
1206.0895 637.24854 2180.8796 2831666
1233.6791 644.52393 2205.7783 3752511
1242.8486 642.12134 2197.5559 3884097
1252.5361 640.03601 2190.4192 3489339
1261.881 637.82269 2182.8445 3423546
1282.8591 641.47394 2195.3403 3555132
1295.4894 640.91772 2193.4368 3028788
1306.2926 639.47888 2188.5125 2568237
1315.5516 637.32178 2181.1301 2699310
1317.197 631.55841 2161.406 3423032
1337.5532 634.79248 2172.4741 3357753
1352.4142 635.37958 2174.4834 3357753
1365.7561 635.24847 2174.0347 3357753
1376.9771 634.14319 2170.252 3226167
1378.186 628.49377 2150.9177 3028788
1395.8778 630.39758 2157.4333 3094581
1416.4379 633.54785 2168.2146 3160374
1435.0315 635.76703 2175.8093 3094581
1449.5647 636.16248 2177.1626 3357752
1465.3405 637.09076 2180.3396 3554618
1491.0698 642.28955 2198.1316 3357240
1506.5226 643.0069 2200.5867 3028274
1518.7009 642.32642 2198.2578 2962481
1531.4567 641.90015 2196.7988 3094068
1546.4606 642.41528 2198.562 3225397
1567.4237 645.37512 2208.6914 3554105
1581.2617 645.37512 2208.6914 3554106
1598.4611 646.73505 2213.3455 3488826
1606.8069 644.52026 2205.7659 3291447
1616.6044 642.92059 2200.2913 3094325
1633.4952 644.14514 2204.4822 3094324
1656.3907 647.69714 2216.6382 3357497
1669.7183 647.47986 2215.8945 3423546
1683.35 647.38312 2215.5635 3685948
1697.8303 647.61163 2216.3455 3685948
1735.7667 656.71088 2247.4861 3817534
1749.6664 656.6427 2247.2529 3817534
1758.1844 654.57208 2240.1665 3751741
1776.0447 655.98486 2245.0015 3488569
1787.4548 655.01172 2241.6711 3225397
1799.2623 654.1983 2238.8872 3159604
1821.7048 657.23431 2249.2776 3159604
1837.3588 657.7934 2251.1909 3225397
1847.1328 656.25482 2245.9255 2962482
1859.134 655.52496 2243.4275 2962224
1877.3009 656.96362 2248.3511 2764590
1889.1371 656.18182 2245.6758 2896432
1897.3096 654.14862 2238.7173 3422263
1923.7184 658.38654 2253.2209 3685435
1933.1818 656.80542 2247.8098 3817021
1946.1636 656.4339 2246.5383 3093298
1955.3422 654.79413 2240.9265 2961712
1969.8983 654.9657 2241.5137 3159091
1984.9509 655.29871 2242.6533 3356470
1988.908 651.98987 2231.3293 3159091
2035.4083 662.57605 2267.5588 3027505
2036.0272 658.18347 2252.5259 3093298
2045.3851 656.65692 2247.3015 3290677
2059.4651 656.65692 2247.3015 3487799
2077.4792 657.90277 2251.5652 3422519
2096.9106 659.57758 2257.2971 3357239
2111.2673 659.64447 2257.5261 3356984
2129.127 660.79767 2261.4727 3620156
2158.7502 665.56238 2277.7791 3554363
2182.0251 668.32013 2287.217 3422777
2202.5249 670.19757 2293.6421 3291192
2205.9565 666.89056 2282.3245 3291192
2219.9385 666.79523 2281.9983 3291192
2234.6987 666.93323 2282.4707 3093813
2255.4771 668.85431 2289.0452 3093814
2283.0178 672.74377 2302.3562 3291192
2289.3469 670.37305 2294.2429 3225399
2293.0012 667.2536 2283.5671 3291192
2299.3718 664.95844 2275.7122 3225399
2315.8574 665.59869 2277.9033 3159606
2330.1292 665.59869 2277.9033 2962484
nan nan nan 16777215
nan nan nan 16777215
nan nan nan 16777215
nan nan nan 16777215
nan nan nan 16777215
nan nan nan 16777215
nan nan nan 16777215
nan nan nan 16777215
nan nan nan 16777215
nan nan nan 16777215
nan nan nan 16777215
-1895.1688 623.71271 2089.9792 3884097
-1889.176 626.06616 2097.8652 3949890
-1878.1399 626.76953 2100.2222 3949890
-1870.8726 628.74939 2106.8564 3752511
-1850.9839 626.4856 2099.2708 3423546
-1848.6023 630.15729 2111.574 3423545
-1842.4329 632.58136 2119.6968 3619642
-1829.1523 632.58136 2119.6968 3423803
-1813.1136 631.62048 2116.4771 3489339
-1803.4987 632.89978 2120.7637 3357753
-1788.1064 632.15558 2118.27 3226167
-1776.5439 632.76434 2120.3101 3094581
-1770.4098 635.33032 2128.9082 3094581
-1757.0715 635.33032 2128.9082 3160374
-1738.5033 633.4248 2122.5229 3160374
-1731.869 635.87146 2130.7214 3094581
-1719.722 636.31647 2132.2126 3226167
-1713.3591 638.92535 2140.9546 3358009
-1696.8246 637.75238 2137.0242 3358010
-1684.6218 638.2019 2138.5305 3292217
-1680.269 641.65625 2150.1055 3226423
-1663.4686 640.37457 2145.8108 3226166
-1644.042 638.05273 2138.0308 3226423
-1634.291 639.47876 2142.8091 3160374
-1600.778 631.55365 2116.2529 2831409
-1581.6234 629.20819 2108.3938 2897202
-1579.1454 633.51349 2122.8203 3225654
-1567.3164 634.1087 2124.8147 3225654
-1568.8904 640.18317 2145.1694 3356984
-1537.558 632.81921 2120.4937 3159604
-1520.9214 631.42792 2115.8318 2962482
-1505.7554 630.62817 2113.1519 3094068
-1477.0543 624.09521 2091.261 3028531
-1459.8632 622.35217 2085.4202 2962482
-1440.6649 619.71429 2076.5808 2830895
-1431.9308 621.5705 2082.8008 2896432
-1423.283 623.49872 2089.262 3027761
-1410.1931 623.49872 2089.262 3159604
-1388.7808 619.78455 2076.8164 3225397
-1371.9094 618.04596 2070.9905 3093811
-1360.6805 618.84027 2073.6521 3093811
-1341.9055 616.18475 2064.7539 3225397
-1330.5505 616.91797 2067.2109 3225397
-1333.6826 624.44861 2092.4451 2962482
-1315.8292 622.20557 2084.929 3225397
-1296.2007 619.0697 2074.4209 3159604
-1281.8969 618.43915 2072.3081 3225397
-1277.8 622.77039 2086.8215 3225397
-1264.7253 622.77039 2086.8215 3093811
-1261.707 627.77399 2103.5879 3620155
-1245.7253 626.36499 2098.8667 4015169
-1230.9888 625.55878 2096.165 3751741
-1225.899 629.69043 2110.0095 3685948
-1222.801 634.94617 2127.6208 3751741
-1207.7612 634.04871 2124.6135 3685948
-1198.7408 636.32642 2132.2461 3817534
-1178.5181 632.64197 2119.8999 3751741
-1165.9979 633.05554 2121.2856 3685948
-1162.4857 638.42566 2139.2803 3488569
-1152.6505 640.40808 2145.9231 3422519
-1147.0858 644.83789 2160.7668 3225910
-1128.1571 641.77124 2150.491 3488569
-1120.4668 645.10095 2161.6482 4014913
-1099.72 640.90277 2147.5808 4081733
-1086.0103 640.75269 2147.0779 3752511
-1077.9048 643.94684 2157.781 3818304
-1062.9974 643.10699 2154.9668 4213062
-1052.183 644.75354 2160.4841 4147269
-1042.3053 647.0246 2168.0942 3949890
-1028.7216 647.0246 2168.0942 3752511
-1017.8181 648.73303 2173.8188 3423546
-1002.7629 647.8056 2170.7112 3555132
-989.21161 647.83759 2170.8184 3949890
-978.45123 649.72375 2177.1387 3884097
-969.54077 652.90906 2187.8123 3620925
-956.78601 653.55969 2189.9924 3686975
-944.742 654.72186 2193.8867 3752511
-928.93073 653.26904 2189.0186 3884097
-918.83435 655.85187 2197.6733 3686718
-910.51373 659.80011 2210.9033 3818304
-889.2514 654.34729 2192.6316 4081476
-879.28558 657.1662 2202.0774 4015683
-865.48883 657.1662 2202.0774 4015683
-853.74347 658.74902 2207.3811 4015940
-838.58026 657.70325 2203.877 4015683
-821.80487 655.33698 2195.9478 3884097
-803.58179 651.71594 2183.8142 3620925
-786.09619 648.578 2173.2993 3621182
-768.80383 645.49158 2162.9573 3358266
-756.20197 646.30328 2165.6772 3292473
-748.23901 651.18188 2182.0247 3424059
-734.59961 651.2099 2182.1187 3424059
-722.50519 652.63458 2186.8926 3950403
-704.83105 648.97687 2174.636 4147782
-690.71381 648.51447 2173.0864 4147784
-677.71265 649.10248 2175.0569 4411213
-656.42694 641.61694 2149.9739 4279625
-645.46643 644.12146 2158.3662 4082246
-630.1969 642.34113 2152.4004 3687488
-620.8363 646.63733 2166.7966 3753281
-607.26062 646.63733 2166.7966 3819331
-591.74884 644.52856 2159.7302 4016196
-576.05096 642.11359 2151.6379 4016196
-569.23492 649.72052 2177.1279 4147782
-555.73004 649.87897 2177.6589 4213575
-540.97632 648.54822 2173.1997 3818817
-527.53845 648.76703 2173.9329 3424059
-509.6911 643.43091 2156.0522 3884610
-496.18274 643.43091 2156.0522 3687487
-470.21539 626.82239 2100.3992 3423803
-465.42706 638.3031 2138.8696 3489595
-454.65775 642.01886 2151.3206 3621438
-442.31836 643.67676 2156.876 3489595
-428.5134 643.2392 2155.4099 3489595
-414.05612 641.76227 2150.4607 3423802
-403.60892 646.61029 2166.7058 3226680
-391.74304 649.44379 2176.2007 3358522
-373.18509 640.98737 2147.8643 3884354
-362.91431 646.66486 2166.8887 3950146
-349.51758 646.99713 2168.0022 3753024
-336.01602 647.15436 2168.5291 4213575
-321.33661 644.96075 2161.1785 4410954
-309.17447 647.84894 2170.8564 4213575
-295.25055 647.1413 2168.4854 4213575
-280.65283 644.81738 2160.698 4213575
-267.11539 644.81738 2160.698 4016196
-253.9859 645.8548 2164.1743 4147782
-240.05492 644.85614 2160.8279 4279368
-227.1682 646.71094 2167.0432 4213575
-210.76161 638.1441 2138.3367 4081989
-197.36426 638.1441 2138.3367 3818817
-182.61127 633.44159 2122.5793 3884610
-169.47853 634.06219 2124.6589 3950403
-156.57779 635.73053 2130.2493 3884610
-143.59866 637.36188 2135.7156 3818817
-131.18913 642.11639 2151.6475 3818817
-118.06445 644.05872 2158.156 4016196
-103.59026 638.18964 2138.4893 4016196
-90.057594 637.23883 2135.3035 3753281
-76.392555 634.8562 2127.3196 3950146
-64.088753 645.16992 2161.8794 4081476
-51.034092 651.42682 2182.8455 4015683
-37.277569 650.02625 2178.1523 3949890
-23.473892 645.71088 2163.6921 3357496
-9.9358721 646.89471 2167.6589 3423289
3.642674 646.44934 2166.1665 3226166
17.116615 642.77795 2153.8643 3291703
30.557087 641.64075 2150.0537 3160373
44.328587 646.02374 2164.7405 3028531
57.523483 641.91852 2150.9844 3226167
70.839996 640.47131 2146.135 3094581
84.157677 639.49469 2142.8625 3094838
97.971214 642.03632 2151.3792 3226167
111.55784 642.65594 2153.4556 3357753
124.62661 640.48065 2146.1663 3555132
136.90395 635.05768 2127.9946 3226167
151.30801 639.58704 2143.1719 3094581
164.64191 639.22314 2141.9524 3226167
178.02312 639.08386 2141.4858 3226167
191.44775 639.10907 2141.5703 3291960
204.88098 639.1579 2141.7339 3226167
217.98558 638.2384 2138.6528 3160374
232.03935 640.04364 2144.7019 3226167
245.47659 640.04364 2144.7019 3291960
258.96762 640.1767 2145.1477 2765616
272.40762 640.1767 2145.1477 2897202
286.36023 641.32465 2148.9944 3028788
299.82437 641.32465 2148.9944 2896945
314.80096 644.42084 2159.3694 2699309
327.85107 643.48065 2156.219 2962225
343.21158 646.97015 2167.9116 3159604
355.50357 644.62982 2160.0696 3028018
367.74994 642.38147 2152.5356 2896432
376.63138 634.62225 2126.5356 2896432
399.09424 649.49603 2176.3757 3883327
410.5202 646.01874 2164.7236 3883070
417.14368 635.44806 2129.3027 3356983
427.30713 630.758 2113.5869 3159604
443.83835 635.46692 2129.366 3817534
458.12848 636.78607 2133.7861 3488569
471.70261 637.06329 2134.7151 3422776
486.57202 639.02637 2141.2932 3883327
502.11096 641.73987 2150.3857 3554362
516.56134 642.9566 2154.4629 3554362
530.18054 643.10315 2154.9539 3422776
549.06128 649.46613 2176.2754 3488569
562.69629 649.46613 2176.2754 3028019
572.23993 644.85553 2160.8259 2896689
583.79364 642.67078 2153.5051 2831153
595.5589 640.81244 2147.2781 2962994
610.55054 642.43109 2152.7019 2765359
627.51996 646.01575 2164.7136 2699567
638.95819 643.87506 2157.5405 2567981
651.60114 643.01184 2154.6479 2567980
661.7652 639.78717 2143.8425 2962482
674.98907 639.59009 2143.1821 2962482
689.24414 640.35883 2145.7581 3028274
704.50806 642.0174 2151.3157 3159860
717.41412 641.50543 2149.6001 2963252
731.72284 642.24341 2152.073 3094581
746.1366 643.04517 2154.7598 2962995
758.37585 641.97772 2151.1829 2765616
773.24719 643.13678 2155.0667 2831409
791.67688 647.16486 2168.5642 3620925
802.05505 644.58624 2159.9236 3818304
814.83649 643.99255 2157.9343 3423546
819.56659 637.15894 2135.0356 3226167
823.16656 629.6803 2109.9756 3226167
845.77771 636.75073 2133.6677 3028790
857.95581 635.86877 2130.7124 3028790
869.49011 634.54401 2126.2734 3226169
884.99475 636.11298 2131.5308 3160376
899.19751 636.71344 2133.543 2962997
912.07092 636.36896 2132.3884 2831411
919.6369 632.38464 2119.0376 3292218
941.95953 638.51666 2139.5852 3817793
958.9953 640.94318 2147.7161 4344650
974.76416 642.46747 2152.824 4673356
994.89386 646.78528 2167.2922 2896688
1008.4727 646.78528 2167.2922 2238503
1010.2509 639.3175 2142.2688 2962482
1024.7114 639.96619 2144.4424 3423033
1040.0969 641.16821 2148.4702 3291960
1055.5901 642.40497 2152.6145 3291960
1069.0769 642.40497 2152.6145 3291960
1082.3317 642.26727 2152.1531 3226167
1095.8156 642.26727 2152.1531 3291960
1111.4307 643.50122 2156.2878 3357753
1122.8696 642.31671 2152.3186 3423546
1135.7197 641.95776 2151.116 3423546
1148.382 641.5025 2149.5903 3357753
1159.0558 639.95966 2144.4207 3357753
1163.5294 635.06824 2128.03 3160374
1186.5442 640.29297 2145.5374 3160374
1200.9983 640.83276 2147.3462 3291960
1224.0536 645.89923 2164.3232 3489339
1237.6138 645.89923 2164.3232 4147269
1240.1591 640.21295 2145.2693 3884097
1233.9231 630.16406 2111.5967 3423546
1258.8948 636.09698 2131.4773 3028788
1274.5945 637.26965 2135.4067 2765872
1282.106 634.36646 2125.6785 2699823
1283.2231 628.39172 2105.658 3028018
1304.6506 632.3833 2119.0332 3423546
1321.6178 634.1543 2124.9675 3489339
1333.3435 633.3999 2122.4397 3423546
1336.2961 628.53412 2106.135 3357753
1357.2898 632.16608 2118.3052 3357753
1369.7371 631.78571 2117.0308 3620925
1383.3785 631.95825 2117.6089 3423802
1397.2799 632.24512 2118.5701 3489339
1408.4027 631.28113 2115.3398 3423546
1423.6569 632.16956 2118.3169 3226167
1446.2396 636.26581 2132.043 3226167
1459.5975 636.26581 2132.043 3226167
1472.3303 635.99585 2131.1382 3094581
1485.507 635.92059 2130.8862 3292217
1503.9746 638.09161 2138.1609 3423546
1520.1852 639.27515 2142.1267 3423545
1533.6062 639.27515 2142.1267 3423289
1565.3488 646.84601 2167.4958 3160631
1562.8206 640.24689 2145.3831 3160631
1575.7205 640.02686 2144.6458 3160374
1603.3424 645.73987 2163.7893 3094581
1617.9854 646.17371 2165.2429 2897202
1623.0786 642.81812 2153.9988 3357753
1646.3561 646.66034 2166.8735 3620155
1661.2991 647.19281 2168.6577 3159347
1675.1136 647.28064 2168.9521 3225397
1706.9503 654.27484 2192.3889 3686204
1709.877 650.16467 2178.6162 3883327
1726.4764 651.27747 2182.345 3620155
1741.467 651.77057 2183.9973 3488569
1752.6831 650.85431 2180.927 3291190
1782.1381 656.67285 2200.4241 3159604
1797.8335 657.37091 2202.7632 2962225
1808.5746 656.26056 2199.0427 2764846
1809.6345 651.68066 2183.696 2830639
1832.2799 654.88452 2194.4316 3093811
1846.0852 654.90448 2194.4988 3422776
1861.2257 655.39441 2196.1404 3422007
1874.9851 655.39441 2196.1404 3488056
1887.4111 654.9317 2194.5898 3488056
1904.6855 656.14587 2198.6584 3159091
1909.9414 653.23212 2188.8948 3093298
1927.7844 654.63422 2193.593 3093298
1940.0973 654.15179 2191.9766 3290677
1944.8335 651.13953 2181.8828 3224884
1969.4611 654.78247 2194.0898 3093298
1982.067 654.40588 2192.8279 3159091
1996.1038 654.5036 2193.1553 3356470
2004.8168 652.86627 2187.6689 3290421
2029.3093 656.35492 2199.3589 2895919
2035.9578 654.06396 2191.6821 2764846
2043.2417 652.00653 2184.7881 2962225
2079.5178 659.16632 2208.7795 3488569
2094.4895 659.52313 2209.9751 3620154
2111.6135 660.54852 2213.4111 3356982
2133.5469 663.05511 2221.8103 3291190
2163.5894 668.03302 2238.4907 3225397
2177.8142 668.09436 2238.6963 3225399
2185.6948 666.22113 2232.4192 3028019
2212.7896 670.19122 2245.7224 2962227
2231.4363 671.56854 2250.3376 2764848
2233.4861 667.96497 2238.2627 2830641
2246.4429 667.64801 2237.2004 2699055
2256.7991 666.56677 2233.5774 2370090
2263.0752 664.30127 2225.9861 2896434
2275.3806 663.82251 2224.3818 3093813
nan nan nan 16777215
nan nan nan 16777215
nan nan nan 16777215
nan nan nan 16777215
nan nan nan 16777215
nan nan nan 16777215
nan nan nan 16777215
nan nan nan 16777215
nan nan nan 16777215
nan nan nan 16777215
nan nan nan 16777215
-1853.3279 622.68011 2043.8373 3884354
-1849.3201 625.65649 2053.6067 4081733
-1843.3898 628.01953 2061.363 4081476
-1827.0621 626.84875 2057.52 3620925
-1811.8916 626.06116 2054.9348 3358009
-1796.799 625.28931 2052.4014 3554875
-1789.8949 627.37653 2059.2524 3685692
-1783.9333 629.82678 2067.2949 3358009
-1768.7258 629.02472 2064.6624 3291960
-1755.7899 629.02472 2064.6624 3291960
-1742.1558 628.77264 2063.835 3226167
-1730.301 629.16382 2065.1189 3160631
-1716.7899 628.9541 2064.4304 3029045
-1700.528 627.72565 2060.3984 2831409
-1695.4436 630.63617 2069.9517 2831409
-1687.6223 632.56567 2076.2849 2831409
-1677.8148 633.77478 2080.2537 2831409
-1666.7839 634.53723 2082.7561 2897202
-1657.5955 636.01849 2087.6182 2962995
-1638.775 633.79822 2080.3306 2897202
-1623.6841 632.99628 2077.6982 2831409
-1607.7682 631.85712 2073.9592 2699823
-1588.1331 629.22589 2065.3228 2502701
-1570.8708 627.49933 2059.6555 2502444
-1562.3689 629.27252 2065.4756 2634030
-1556.2113 632.0274 2074.5181 2568493
-1542.7795 631.84955 2073.9343 2962995
-1537.2445 634.93024 2084.0461 3094068
-1529.627 637.19623 2091.4839 2830896
-1501.593 630.92303 2070.8933 2830639
-1479.7471 627.16321 2058.5522 2765102
-1459.9364 624.2074 2048.8503 2633260
-1433.1775 618.20203 2029.1388 2567723
-1416.858 616.63257 2023.9873 2567724
-1410.5544 619.43311 2033.1796 2896689
-1397.816 619.43311 2033.1796 2962482
-1383.3416 618.65674 2030.6312 3159347
-1379.849 622.82288 2044.3059 3225140
-1366.9578 622.7851 2044.1819 3291447
-1339.6545 616.11835 2022.2994 3422776
-1322.7996 614.17542 2015.9221 3620155
-1306.9116 612.64838 2010.9098 3620155
-1302.5729 616.55823 2023.7432 3225654
-1305.6984 624.11279 2048.5398 3093811
-1287.2111 621.38416 2039.5835 3291190
-1268.5499 618.51593 2030.1691 3356983
-1257.2548 619.21747 2032.4719 3225397
-1257.0183 625.43573 2052.8821 3093811
-1247.925 627.33026 2059.1006 2830639
-1238.5354 629.11383 2064.9548 3291190
-1227.7325 630.20959 2068.5515 3751741
-1223.4227 634.69727 2083.2815 3225397
-1210.7709 634.90735 2083.9709 3356983
-1185.1989 628.27295 2062.1948 3554362
-1190.0508 637.79779 2093.4585 2962225
-1176.9346 637.79779 2093.4585 2962225
-1158.5201 634.89423 2083.928 3620155
-1145.4636 634.89423 2083.928 3620412
-1133.8275 635.69055 2086.5417 3883584
-1128.7572 640.22955 2101.4402 3883840
-1126.4108 646.4389 2121.8213 3752254
-1115.8943 648.05188 2127.1157 3686975
-1097.7867 645.242 2117.8928 4015683
-1079.9636 642.53271 2109 4147269
-1074.0055 646.90289 2123.3442 4278855
-1066.1724 650.23907 2134.2947 4870992
-1047.1759 646.76532 2122.8926 4805199
-1018.8915 637.39178 2092.1257 4542027
-1015.261 643.39777 2111.8394 4147269
-1022.7836 656.72375 2155.5796 3291960
-990.56464 644.54712 2115.6118 2897202
-970.84717 640.28503 2101.6223 3555132
-970.74707 649.02142 2130.2981 3949890
-957.40009 649.02142 2130.2981 3884354
-943.7547 648.81635 2129.6248 4081476
-928.92902 647.78223 2126.2305 4015683
-919.78943 650.74084 2135.9417 3949890
-906.40704 650.74084 2135.9417 4147269
-895.58557 652.60687 2142.0667 3620925
-896.47296 663.19177 2176.8096 4344648
-880.62164 661.52936 2171.353 4542027
-853.51135 651.2243 2137.5286 3884354
-840.10571 651.21399 2137.4946 4015683
-826.51984 651.06128 2136.9934 3884097
-812.78583 650.78497 2136.0864 3686718
-798.00647 649.64838 2132.356 3555132
-784.64661 649.64838 2132.356 3686718
-770.51825 649.00116 2130.2314 3752511
-757.46362 649.2514 2131.0527 3291961
-744.11194 649.2514 2131.0527 3752511
-738.62384 656.23792 2153.9849 3555388
-725.12848 656.23792 2153.9849 3555389
-700.90051 646.34076 2121.4993 3818817
-692.38379 650.82928 2136.2319 3424059
-682.66602 654.34363 2147.7671 3950405
-669.07922 654.21613 2147.3486 4344905
-643.82556 642.44165 2108.7009 3687231
-629.61658 641.4256 2105.366 3818817
-616.33374 641.32977 2105.0515 3884610
-601.49548 639.57587 2099.2947 3950403
-587.87238 639.06458 2097.6165 3884610
-574.3924 638.68896 2096.3835 4410954
-557.51654 634.43152 2082.4092 3950403
-546.29889 636.56305 2089.4055 3884610
-542.46051 647.60889 2125.6616 4279368
-527.31451 645.37152 2118.3179 3884610
-512.09534 642.92676 2110.2932 3489852
-497.10208 640.64362 2102.7993 3819074
-477.97601 632.76489 2076.9387 4213575
-460.78674 627.08099 2058.2825 3753024
-452.13846 633.02783 2077.8018 3292473
-442.73602 638.24011 2094.9102 3555645
-431.008 640.31586 2101.7234 3555132
-418.83881 641.84637 2106.7471 3292216
-407.05344 644.0838 2114.0911 3555645
-393.5054 643.58893 2112.4668 3292473
-384.63229 650.97168 2136.6992 3555645
-369.49353 647.90009 2126.6174 3818561
-352.68008 641.55237 2105.7822 3884610
-341.49115 645.34027 2118.2153 3818817
-328.68802 646.26086 2121.2368 4345161
-318.16379 651.92828 2139.8394 4345161
-304.37283 651.10651 2137.1418 3950403
-286.88669 641.94061 2107.0564 3818817
-274.66379 644.2356 2114.5894 3818817
-260.44489 641.8443 2106.7402 3818817
-245.70918 637.85608 2093.6497 3555902
-232.26555 636.9613 2090.7126 3753024
-220.38762 640.50995 2102.3606 4213575
-207.32822 640.85785 2103.5024 3621438
-194.48274 641.95905 2107.1169 3621438
-179.24345 634.74359 2083.4336 4147782
-167.29309 638.95636 2097.2612 3292473
-152.72302 633.02881 2077.8049 3424059
-139.70184 633.01483 2077.759 4410954
-126.99977 634.59241 2082.9373 4345161
-113.94952 634.59241 2082.9373 3818818
-100.78595 633.8797 2080.5979 4147269
-89.004204 642.93707 2110.3271 3160374
-75.782349 642.93707 2110.3271 3291960
-62.786789 645.2627 2117.9607 4015427
-49.878674 649.9743 2133.4255 4014913
-36.811592 655.30573 2150.925 3883070
-22.765274 639.2959 2098.3757 3488312
-9.6863365 643.81812 2113.219 2501674
3.5894639 650.30908 2134.5244 2830639
16.801472 644.11957 2114.2085 2962225
30.302231 649.57703 2132.1216 3488569
43.516857 647.43799 2125.1006 3620155
57.359814 653.45923 2144.8643 2961968
70.254318 648.44061 2128.3916 2764846
83.151581 645.04462 2117.2449 2830638
96.395096 644.8996 2116.7688 3093810
108.98203 640.92822 2103.7334 3159861
121.75163 638.77222 2096.6567 3028788
135.2533 640.50293 2102.3374 3094581
148.56467 641.10522 2104.3145 3489339
161.1331 638.66467 2096.3037 3555132
174.67725 640.16785 2101.2375 3555132
187.87921 640.29413 2101.6521 3291960
201.38138 641.35992 2105.1504 3291960
214.96249 642.53076 2108.9934 3291960
227.29764 640.05737 2100.875 3160374
240.1311 639.18115 2097.999 3160374
253.60326 640.00775 2100.7122 2962995
267.36707 641.45251 2105.4543 2962995
280.55838 641.45251 2105.4543 3028019
293.25531 640.37286 2101.9106 2962225
307.49524 642.61072 2109.2559 2896689
321.1655 643.52258 2112.249 2962225
334.39938 643.52258 2112.249 3159604
346.22281 640.91162 2103.679 2962225
359.1254 640.4165 2102.054 2830639
371.94196 639.80853 2100.0583 2830639
386.1579 641.56702 2105.8301 3093811
397.8931 639.22388 2098.1394 3159604
408.16025 634.74768 2083.447 3159604
419.50623 632.17462 2075.0012 3291190
433.9761 634.32233 2082.0508 3620155
448.30936 636.15082 2088.0525 3488569
461.05325 635.6842 2086.521 3422776
476.85938 639.34906 2098.55 3488569
493.8425 644.35291 2114.9744 3751741
505.84283 642.76379 2109.7583 3751741
521.09741 645.28534 2118.0349 3028018
531.45398 641.76703 2106.4866 2764846
546.05359 643.41876 2111.9082 3028275
563.02899 647.72559 2126.0447 3488569
579.34674 651.09424 2137.1016 3883070
588.43878 646.37347 2121.6067 3619899
597.34143 641.65796 2106.1287 3685691
606.34357 637.25073 2091.6628 3817277
616.526 634.24432 2081.7947 3488313
633.70398 638.40991 2095.4675 3027761
646.71429 638.29309 2095.084 2961968
661.96796 640.35083 2101.8384 2963252
677.47247 642.56635 2109.1104 3291960
687.65717 639.74786 2099.8591 3423546
696.54065 635.84741 2087.0566 3291960
711.87073 637.86707 2093.6858 3226167
724.98828 637.86707 2093.6858 3226424
736.45551 636.44086 2089.0044 3094581
755.14874 641.20007 2104.6257 2962995
767.78931 640.74481 2103.1313 2897202
780.96613 640.74481 2103.1313 2963252
790.79785 638.0459 2094.2727 2765616
798.24341 633.54126 2079.4871 3160374
815.52167 636.85986 2090.3799 3752511
826.9577 635.58337 2086.1899 3160376
840.37311 635.84424 2087.0461 2831411
847.96619 631.75934 2073.6382 3226169
862.44287 632.84882 2077.2141 3094583
878.16278 634.8045 2083.6335 3028790
892.61768 635.80188 2086.9072 3160376
907.75482 637.24945 2091.6587 2831411
919.78784 636.50775 2089.2241 2305067
935.35449 638.19781 2094.7715 2831411
964.34564 648.87408 2129.8142 2897202
971.53668 644.79041 2116.4104 2897202
988.39789 647.14832 2124.1499 2699823
1008.1436 651.30707 2137.8003 3094581
1025.2316 653.66229 2145.5308 3423546
1019.1296 641.36261 2105.1592 3423546
1040.0806 646.18457 2120.9866 3357753
1050.9695 644.71252 2116.1548 3489339
1058.5564 641.27679 2104.8774 3423546
1077.6661 644.82013 2116.5081 3423546
1088.0703 643.13184 2110.9666 3226167
1097.4229 640.87 2103.5422 3291960
1110.627 640.88422 2103.5889 3489339
1127.4467 642.96002 2110.4026 3555132
1134.0308 639.21826 2098.1208 3489339
1139.9045 635.16644 2084.8215 3357753
1158.4337 638.17828 2094.7073 3291960
1171.5577 638.17828 2094.7073 3423546
1191.8629 642.04681 2107.405 3423546
1216.0312 647.88873 2126.5801 3686718
1212.6168 639.06744 2097.6257 2962995
1208.7952 630.22308 2068.5957 3160374
1226.275 632.55432 2076.2476 3423546
1241.9993 633.94061 2080.7979 2831409
1251.6456 632.22803 2075.1765 2831409
1266.536 633.1723 2078.2759 3290934
1285.7236 636.22369 2088.2917 3291960
1298.569 636.10687 2087.9082 3555132
1308.2618 634.46356 2082.5144 3555132
1315.8588 631.84631 2073.9236 3884097
1335.3915 634.95544 2084.1289 3949890
1351.8049 636.53558 2089.3154 3818304
1357.2476 632.96906 2077.6089 3818560
1369.4348 632.58582 2076.3511 3752767
1382.3687 632.55139 2076.238 3752767
1396.4639 633.04419 2077.8555 3752511
1409.8253 633.19824 2078.3611 3489339
1418.3739 631.20764 2071.8274 3292217
1432.3514 631.64728 2073.2703 3226167
1445.123 631.55194 2072.9575 3226167
1460.0103 632.37463 2075.658 3358010
1477.6198 634.35156 2082.1467 3358010
1490.665 634.35156 2082.1467 3160631
1508.3971 636.32874 2088.6365 3291447
1517.8439 634.8067 2083.6406 3094324
1537.3225 637.47046 2092.384 3291446
1567.1158 644.33026 2114.8999 3685948
1565.484 638.26251 2094.9839 3883327
1586.292 641.36859 2105.179 3817534
1616.1869 648.06714 2127.1658 4212549
1626.1719 646.73792 2122.8027 4804685
1650.6476 651.14648 2137.2732 4541770
1663.2994 650.85742 2136.3242 4213063
1651.0762 640.91681 2103.696 3817790
1678.6847 646.47327 2121.9341 3620155
1691.9792 646.47327 2121.9341 3488569
1693.2783 641.92572 2107.0076 3488569
1713.1909 644.45038 2115.2944 3685948
1730.2906 645.88635 2120.0076 3883327
1747.1193 647.19995 2124.3193 3817534
1766.8699 649.56793 2132.0918 3751741
1790.662 653.37506 2144.5879 3751741
1795.6066 650.2995 2134.4932 3554362
1802.351 647.91663 2126.6716 3356470
1820.1064 649.49786 2131.8618 3488056
1837.0437 650.7663 2136.0251 3422263
1864.0006 655.54004 2151.6941 3488056
1880.8483 656.71552 2155.5525 3422263
1882.9487 652.76184 2142.5752 3356470
1889.4711 650.38617 2134.7776 3356470
1902.0183 650.10327 2133.8489 3224884
1918.2222 651.06537 2137.0068 3290677
1945.0951 655.61023 2151.9246 3356470
1958.5776 655.61023 2151.9246 3356469
1959.5593 651.45435 2138.2837 3422264
1963.1482 648.21576 2127.6536 3093300
1982.8677 650.31122 2134.5315 2896434
2021.1176 658.4151 2161.1311 3488571
2026.8666 655.89392 2152.8557 3620157
2055.8477 660.87421 2169.2026 3488570
2065.8303 659.72198 2165.4207 3291192
2080.709 660.13818 2166.7866 3093812
2101.6121 662.44788 2174.3679 2962227
2120.5872 664.12396 2179.8694 3028021
2134.0427 664.0611 2179.6631 3093812
2147.8574 664.11005 2179.8237 3093812
2160.6179 663.83453 2178.9194 3093813
2169.6179 662.41443 2174.2581 3225399
2186.668 663.45441 2177.6716 3093814
2200.0776 663.38379 2177.4399 3225399
2207.3416 661.47235 2171.166 3225399
2216.3557 660.10559 2166.6797 3159606
nan nan nan 16777215
nan nan nan 16777215
nan nan nan 16777215
nan nan nan 16777215
nan nan nan 16777215
nan nan nan 16777215
nan nan nan 16777215
nan nan nan 16777215
nan nan nan 16777215
nan nan nan 16777215
nan nan nan 16777215
-1807.4257 619.67999 1993.2168 3555132
-1795.131 619.74677 1993.4314 3423546
-1782.6415 619.74677 1993.4314 3357753
-1791.6146 627.26105 2017.6013 3423546
-1774.4415 625.66296 2012.4611 3489339
-1752.8109 622.45917 2002.1559 3423033
-1740.2688 622.45984 2002.1582 3422775
-1729.6974 623.17059 2004.4443 3291960
-1716.7461 623.02802 2003.9857 3357753
-1703.4332 622.75116 2003.0952 3291960
-1692.7174 623.42664 2005.2679 3160374
-1688.8967 626.67084 2015.7029 3094581
-1676.2678 626.67084 2015.7029 2962995
-1667.0708 627.96362 2019.8612 2831666
-1650.6241 626.52441 2015.2319 3029044
-1632.1417 624.28436 2008.0269 2831409
-1627.7694 627.44855 2018.2045 2634286
-1611.7657 626.14362 2014.0071 2634286
-1601.509 627.0683 2016.9814 2765616
-1589.1844 627.19159 2017.3781 2700080
-1577.6658 627.63751 2018.8124 2765873
-1562.921 626.79681 2016.1083 2700080
-1552.3291 627.62146 2018.7607 2502701
-1545.7567 630.09814 2026.7269 2436651
-1542.3269 633.90747 2038.9797 2568237
-1529.552 633.90747 2038.9797 2962995
-1511.5511 631.72333 2031.9543 3094838
-1496.2291 630.63116 2028.4415 3094324
-1495.306 635.64117 2044.5563 2897202
-1454.5183 623.64526 2005.9711 2568494
-1442.316 623.80347 2006.48 2436651
-1434.4017 625.83527 2013.0154 2634030
-1412.0957 621.56824 1999.2904 2831409
-1398.6449 621.15765 1997.9696 2897459
-1379.9954 618.40991 1989.1315 3028788
-1359.9058 614.96094 1978.0377 3094581
-1351.1245 616.60919 1983.3394 3226167
-1346.5819 620.24036 1995.0192 3423290
-1334.1184 620.25708 1995.073 3948863
-1318.7339 618.9032 1990.7183 3883070
-1299.5035 615.70142 1980.4194 3620155
-1290.704 617.42749 1985.9716 3422776
-1279.0229 617.79535 1987.1548 3357497
-1275.9092 622.34943 2001.803 3489082
-1263.6608 622.49396 2002.2679 3555132
-1251.338 622.60443 2002.6233 3620925
-1231.9667 619.17468 1991.5914 3686719
-1220.3932 619.63391 1993.0685 3423803
-1221.6967 626.70825 2015.8234 3028018
-1210.6138 627.51001 2018.4022 3291190
-1204.205 630.7771 2028.9109 3948863
-1191.4932 630.7771 2028.9109 4146242
-1169.8466 625.99597 2013.5322 3751485
-1160.0369 627.51367 2018.4139 3685948
-1154.567 631.43842 2031.038 3751997
-1133.3857 626.76208 2015.9963 3752768
-1125.1781 629.23572 2023.953 3818561
-1116.5437 631.52429 2031.3143 3818561
-1107.6183 633.69922 2038.3099 3949890
-1101.0618 637.2959 2049.8789 4081476
-1091.8131 639.40094 2056.6497 4147526
-1079.804 639.92035 2058.3203 4213062
-1064.3442 638.38263 2053.3743 3752511
-1057.5348 642.0592 2065.2 4081476
-1048.1331 644.2334 2072.1934 4344648
-1030.5236 641.354 2062.9319 4213062
-1020.6012 643.2464 2069.0188 4147269
-1002.6035 640.03241 2058.6809 4476234
-991.46948 641.1734 2062.3508 4278855
-993.82275 651.18176 2094.543 3884097
-978.2804 649.57526 2089.3755 4015683
-961.42603 647.04218 2081.228 4015683
-943.71417 643.85449 2070.9746 3884354
-933.99756 646.10876 2078.2256 3884097
-921.90198 646.75781 2080.3132 4081476
-907.06262 645.47296 2076.1804 3949890
-901.64148 650.95026 2093.7983 4015683
-888.52319 650.95026 2093.7983 4081476
-874.9447 650.60809 2092.6978 3818304
-861.83337 650.60809 2092.6978 3884354
-849.28864 651.04254 2094.0952 4015683
-835.75055 650.71716 2093.0486 4015683
-816.84674 646.13702 2078.3164 3686718
-803.82544 646.13702 2078.3164 3620925
-791.08862 646.36938 2079.064 3621181
-778.14862 646.44086 2079.2937 3489595
-767.2771 648.26233 2085.1526 3686718
-752.54395 646.82776 2080.5383 3752511
-740.716 647.88373 2083.9348 3358266
-726.60248 646.94263 2080.9077 3950403
-708.08093 641.97058 2064.915 4279368
-692.04059 639.10498 2055.6978 3621438
-678.45575 638.44135 2053.563 3753024
-665.9848 638.82043 2054.7825 4016196
-658.65411 644.24237 2072.2222 4016198
-644.56018 643.13397 2068.657 3687488
-627.99304 639.46173 2056.8452 3687231
-613.11792 637.39459 2050.1963 3753024
-599.17072 636.22437 2046.4323 3687231
-585.84412 635.67645 2044.6697 3424059
-573.31561 635.98914 2045.6757 3621438
-564.66943 640.72156 2060.8975 4345161
-548.39166 636.81329 2048.3264 3950403
-535.10712 636.27679 2046.6008 3292217
-515.98676 628.60455 2021.9227 3292216
-508.3869 634.9342 2042.2822 3884353
-492.56219 631.05328 2029.7993 3818817
-477.81342 628.38171 2021.2059 3358009
-465.99545 629.52393 2024.88 4410698
-451.05661 626.396 2014.8191 3818817
-443.95056 634.27887 2040.1744 3292217
-432.76715 636.63092 2047.7399 3489852
-421.16928 638.49841 2053.7468 3621181
-412.39743 644.90302 2074.3472 3160374
-394.95715 637.7276 2051.2673 3357753
-380.60828 635.22906 2043.2306 3291960
-372.8688 643.97156 2071.3511 3423547
-363.37698 650.20892 2091.4138 3620668
-350.27365 650.20892 2091.4138 3358010
-338.09106 651.98462 2097.1252 3095094
-324.95193 651.98462 2097.1252 3358523
-312.12531 652.638 2099.2271 3687231
-297.58173 649.60095 2089.4583 3621438
-283.60223 647.57245 2082.9336 3555645
-267.71692 640.78662 2061.1067 3489852
-254.31277 639.55267 2057.1377 3555645
-242.39645 642.12836 2065.4224 2963508
-229.40944 641.99811 2065.0037 3029301
-213.5856 633.43921 2037.4735 3621438
-201.01913 634.06671 2039.4919 3424059
-189.02567 636.70947 2047.9924 3490108
-176.10344 636.38092 2046.9357 3950403
-163.21745 636.14203 2046.1672 3884610
-150.59349 636.97064 2048.8325 3950403
-137.28593 634.79285 2041.8275 4147782
-125.21793 638.48798 2053.7131 4345161
-112.35078 638.48798 2053.7131 4410441
-99.159676 636.40887 2047.0255 4542027
-86.645149 638.6994 2054.3931 3818304
-75.064445 649.87366 2090.3354 3489082
-62.239193 652.71936 2099.4888 3422519
-48.819794 649.18945 2088.1348 3291190
-35.74992 649.42456 2088.8909 3422776
-22.712437 650.85913 2093.5054 3751741
-9.6513205 654.61304 2105.5798 2501674
3.5271914 652.09894 2097.4932 2633260
16.607759 649.71741 2089.8328 3028018
29.753876 650.86945 2093.5383 3488569
42.992252 652.71729 2099.4819 3225397
56.045464 651.54663 2095.7166 3159604
68.526054 645.42706 2076.033 2633260
81.438797 644.68097 2073.6331 2633260
93.815285 640.47919 2060.1179 3093811
106.97391 641.98761 2064.9697 3488569
119.91158 641.98761 2064.9697 3291190
133.11359 643.26495 2069.0784 3225911
146.3344 644.39838 2072.7241 3949890
157.95454 638.87292 2054.9514 3620925
171.17262 640.15637 2059.0796 3423802
184.41464 641.34314 2062.8967 3357753
196.01297 637.03247 2049.0315 3160374
208.99117 637.46063 2050.4087 3094581
221.8376 637.46063 2050.4087 3028788
236.73134 643.02161 2068.2957 2962995
250.58203 645.31927 2075.686 3226167
264.29736 647.05872 2081.281 3620668
277.82709 648.2016 2084.9573 2831153
289.26431 644.57904 2073.3052 2764846
301.43658 642.83533 2067.6965 3159348
314.21835 642.48169 2066.5588 3159604
327.48834 643.11475 2068.5952 3028018
340.73685 643.65894 2070.3457 3159604
353.70819 643.65894 2070.3457 3094068
365.90253 642.29498 2065.9585 2962482
380.25583 644.68451 2073.6445 2699053
389.69775 638.8645 2054.9243 2830896
405.21112 643.05188 2068.3931 3488569
417.32599 641.75366 2064.2173 3422776
425.41956 634.5354 2040.9996 3159604
438.4039 634.82056 2041.9166 3225397
450.86661 634.35541 2040.4207 3225397
465.44107 636.80536 2048.3008 3356983
482.3923 642.28821 2065.9368 3356983
493.85568 640.36865 2059.7625 3356983
512.17395 647.20911 2081.7649 3159604
521.19708 642.25568 2065.832 3028018
532.81024 640.65656 2060.6885 3093811
544.53967 639.26959 2056.2273 2699053
560.24207 642.50311 2066.6279 2962225
578.04034 647.93982 2084.1152 3620155
584.10339 640.27264 2059.4536 3423032
594.71619 637.81628 2051.5527 3291190
608.21936 638.49823 2053.7461 2831151
618.87335 636.22284 2046.4272 2896946
631.91431 636.44385 2047.1381 2502957
648.33783 639.99506 2058.5608 3028788
662.86658 641.57391 2063.6392 3160374
676.78546 642.51337 2066.6609 3686718
685.65753 638.71625 2054.4473 3620925
695.50269 635.94879 2045.5458 3357753
707.86456 635.54114 2044.2345 3423546
714.50537 630.10266 2026.7415 3555132
730.70032 633.13251 2036.4871 3291960
742.28186 632.12958 2033.2611 3226167
752.53473 630.0481 2026.566 3489339
765.23181 630.0481 2026.566 3291960
778.11383 630.19788 2027.0479 3423546
793.18243 632.08539 2033.119 3555132
807.16071 633.05798 2036.2474 3226170
818.5412 631.99469 2032.8273 3291962
826.35565 628.25275 2020.7911 3226169
842.38013 630.77136 2028.8925 3357755
856.59778 631.88239 2032.4659 3226169
873.13257 634.64496 2041.3519 3226169
886.78668 635.26416 2043.3438 3160377
902.74042 637.48969 2050.5022 3489341
920.59814 640.97852 2061.7239 3686721
933.51544 640.97852 2061.7239 3423546
949.13757 642.8103 2067.616 3357753
960.38226 641.66803 2063.9419 3094581
980.99249 646.73053 2080.2256 3094581
1000.4865 650.93402 2093.7461 3160374
1005.0203 645.42126 2076.0142 3160631
1020.3683 646.90552 2080.7883 3357753
1038.2876 649.96191 2090.6194 3423546
1049.3739 648.71814 2086.6187 3357753
1056.4976 645.08533 2074.9336 3357753
1071.0618 646.02869 2077.968 3686718
1084.0808 646.02869 2077.968 3620925
1092.6307 643.39703 2069.5032 3555132
1104.0782 642.51331 2066.6606 3555132
1116.7456 642.35175 2066.1409 3620925
1124.1958 639.22723 2056.0911 3226167
1134.3995 637.72162 2051.248 3028788
1140.8998 634.19104 2039.892 3423546
1153.5461 634.11731 2039.6548 3752511
1167.2821 634.63751 2041.328 3555132
1186.256 637.96344 2052.0259 3226167
1197.9928 637.36768 2050.1096 3357753
1210.3707 637.12207 2049.3196 3423546
1220.8268 635.88055 2045.3263 3028788
1238.1555 638.2074 2052.8105 3028788
1247.9927 636.66455 2047.8479 3422520
1262.2261 637.37299 2050.1267 3357497
1275.0448 637.35999 2050.085 3423546
1288.0187 637.42407 2050.291 3226167
1303.4967 638.71387 2054.4397 3423546
1317.954 639.48322 2056.9143 3686718
1327.3906 637.8252 2051.5813 3818561
1336.7119 636.1441 2046.174 3884097
1347.4973 635.185 2043.0891 3884097
1358.2834 634.24438 2040.0635 3686718
1368.0295 632.84021 2035.5469 3620925
1370.28 628.02649 2020.0635 3226167
1398.0092 634.87146 2042.0806 3159861
1406.3318 632.85913 2035.6079 3225396
1408.0071 627.91864 2019.7164 3422776
