# .PCD v0.7 - Point Cloud Data file format
VERSION 0.7
FIELDS x y z rgb
SIZE 4 4 4 4
TYPE F F F U
COUNT 1 1 1 1
WIDTH 1276
HEIGHT 1
VIEWPOINT 0 0 0 1 0 0 0
POINTS 1276
DATA ascii
964.79871 819.12347 9465.624 3950149
992.38812 793.75586 9172.4814 3950149
1015.3472 767.66461 8870.9766 3884356
1034.3427 741.44037 8567.9346 3818820
1051.4718 716.53204 8280.0986 3818563
1103.3491 716.53204 8280.0986 3818820
1155.4038 716.64203 8281.3701 3818563
1216.1237 721.88617 8341.9697 3752770
1138.7905 648.12708 7489.625 3752770
1283.6794 701.67548 8108.4199 3818821
1174.442 617.52637 7136.0088 3884102
1129.8514 572.29401 6613.3135 3949642
1023.8705 500.26639 5780.9766 2041392
1018.5084 480.64355 5554.2192 133397
1045.8706 477.25006 5515.0044 462108
1055.8893 466.41251 5389.7686 922407
1103.5577 472.36218 5458.5215 922665
1144.1687 475.02411 5489.2822 791337
1157.6361 466.59027 5391.8228 791080
1192.4462 466.99316 5396.4785 856875
1222.0175 465.37869 5377.8218 726059
1243.6149 460.89569 5326.0171 857388
1260.5042 454.94766 5257.2832 857388
1301.9069 457.92484 5291.6865 791597
1330.1248 456.23175 5272.1216 791595
1355.6362 453.71487 5243.0371 857386
1391.1091 454.57224 5252.9443 791847
1472.8541 470.16077 5433.0825 792100
1482.8596 462.66187 5346.4268 2437436
nan nan nan 16777215
2583.3933 771.19391 8911.7598 3819340
2719.0159 794.50818 9181.1748 3819594
2745.9058 785.74249 9079.8809 3819849
2688.4817 753.69586 8709.5566 3753799
2750.4573 755.7312 8733.0762 3753799
2937.6938 791.43323 9145.6416 3819848
3083.2671 814.75952 9415.1953 3885129
3283.958 851.50159 9839.7793 3885385
3503.4937 891.68573 10304.14 4017228
3668.2266 916.72015 10593.432 4017228
3752.8918 921.21069 10645.324 3885385
3946.1013 951.72327 10997.921 3819593
4190.52 993.32733 11478.688 3688264
4377.8921 1020.233 11789.605 3753800
4592.1841 1052.4153 12161.497 3819851
4771.3032 1075.6178 12429.621 3819850
4798.0532 1064.2775 12298.574 3819850
4934.3008 1077.1998 12447.902 3885387
5031.6494 1081.3604 12495.979 3819594
5149.123 1089.6521 12591.798 3819594
5229.3169 1089.9233 12594.934 3622472
5335.6338 1095.5507 12659.961 3688006
5477.9482 1108.2959 12807.242 3622471
5542.521 1105.1715 12771.138 3819850
5552.0718 1091.321 12611.084 4082508
5732.8784 1111.0491 12839.057 4148301
5678.6729 1085.3153 12541.684 4082507
5704.0854 1075.2931 12425.868 4082764
5775.4453 1074.0857 12411.916 4082250
5942.0293 1090.3844 12600.261 3950664
5981.8931 1083.3069 12518.475 3885128
6027.1299 1077.3732 12449.905 3950921
5866.687 1035.2947 11963.655 3950664
5956.2183 1037.8344 11993.003 3950149
6031.3584 1037.8344 11993.003 3884870
6137.7349 1043.1432 12054.351 3950405
6257.8467 1050.629 12140.855 3753027
6281.2271 1041.8898 12039.867 3687234
6357.4028 1042.0114 12041.272 3686977
6718.0342 1088.2072 12575.102 3621184
6596.7554 1056.1757 12204.951 3621184
6611.4263 1046.3949 12091.928 3620927
6789.751 1062.4441 12277.389 3752769
6913.7358 1069.726 12361.536 3686720
7345.7559 1123.9791 12988.475 3884099
7427.1328 1123.9791 12988.475 4147530
7501.8472 1122.9819 12976.951 4147530
8067.5518 1194.7162 13805.897 4344909
7587.5278 1111.7104 12846.7 4805460
7290.4102 1056.965 12214.073 4871254
7366.9355 1056.965 12214.073 4871254
7726.6582 1097.179 12678.777 4608339
8087.3164 1136.7058 13135.541 4542546
8335.6318 1159.8051 13402.472 4476753
8643.665 1190.6699 13759.139 4278861
8719.2754 1189.2247 13742.44 4081481
8805.376 1189.2247 13742.44 4081224
8947.9463 1196.7776 13829.719 4081224
9477 1255.3815 14506.934 4081224
9495.7588 1245.9172 14397.566 3752516
9372.5859 1218.1838 14077.084 3883845
9362.5049 1205.5294 13930.853 3818052
9549.5352 1218.2545 14077.902 3686466
9455.8154 1195.2587 13812.167 3818052
9437.75 1182.1564 13660.759 3949638
9547.0957 1185.1053 13694.837 3949895
9715.335 1195.2473 13812.035 4015431
9679.167 1180.2845 13639.129 4015431
9645.0771 1165.8351 13472.153 4081224
9616.7822 1152.3304 13316.098 4147274
9434.3408 1120.7465 12951.119 4147017
9311.9688 1096.7764 12674.124 4081224
9391.376 1096.7764 12674.124 4081224
9326.917 1080.1155 12481.596 4147274
9493.6748 1090.2858 12599.121 4147017
9572.6123 1090.2858 12599.121 4147017
9387.7812 1060.4891 12254.798 4147017
9636.0293 1079.7019 12476.815 4081224
10106.438 1123.2977 12980.601 4147017
10231.74 1128.1465 13036.632 4081224
10379.259 1135.3484 13119.856 4015431
10330.363 1121.1211 12955.447 4015431
10411.532 1121.1211 12955.447 3818309
10517.578 1123.7791 12986.162 4015431
10496.604 1112.9286 12860.776 3818052
10504.267 1105.2566 12772.12 3752259
10588.131 1105.6577 12776.756 3554880
10656.145 1104.4103 12762.341 3489087
10736.104 1104.4103 12762.341 3423037
10899.688 1112.9489 12861.012 3356730
11269.863 1142.3022 13200.213 3290938
11391.568 1146.2266 13245.562 3225145
11493.229 1148.0918 13267.115 3290938
11422.857 1132.869 13091.204 3356474
11504.878 1132.869 13091.204 3225145
11679.378 1141.9109 13195.69 3225145
11862.262 1151.6396 13308.113 3093559
11795.764 1137.1903 13141.141 3093559
11798.553 1129.575 13053.139 2896437
11801.233 1122.0541 12966.229 2764594
11791.687 1113.4813 12867.164 2764594
11963.482 1122.0328 12965.983 2632751
11826.927 1101.7444 12731.534 2764594
11906.694 1101.7444 12731.534 2764594
12032.3 1105.9576 12780.223 2764337
12389.883 1131.2966 13073.034 2830387
12313.89 1116.9738 12907.522 2830387
12299.936 1108.4286 12808.776 2698801
12401.369 1110.3252 12830.692 2698801
12503.345 1112.2455 12852.883 2698802
12572.821 1111.2687 12841.596 2567216
12677.968 1113.4371 12866.653 2567216
12845.943 1121.0612 12954.755 2567216
12741.346 1104.9514 12768.595 2633009
12718.604 1096.0972 12666.276 2633009
12797.962 1096.0972 12666.276 2632753
13049.11 1110.7197 12835.251 2633009
13311.317 1126.0985 13012.966 2567216
nan nan nan 16777215
nan nan nan 16777215
nan nan nan 16777215
-7857.2744 761.73242 8211.083 3095357
-7914.5259 772.3396 8325.4229 3029563
-7837.2891 769.87634 8298.8701 3160893
-7779.6021 769.31348 8292.8027 3226429
-7750.1558 771.5545 8316.96 3226685
-7681.4824 769.89429 8299.0635 3292222
-7634.689 770.41925 8304.7227 3292221
-7619.4146 774.15387 8344.9795 3160636
-7710.2612 788.79681 8502.8232 3226428
-7873.3296 811.0835 8743.0625 3226428
-7924.2427 822.04791 8861.252 3226427
-7884.8091 823.72821 8879.3652 3423807
-7882.1006 829.29639 8939.3877 3226428
-7717.8535 817.82678 8815.751 3358014
-7662.5024 817.81433 8815.6162 3292221
-7607.27 817.81433 8815.6162 3160634
-7544.3447 816.98126 8806.6367 3159866
-7477.4087 815.69836 8792.8076 3160122
-7459.6035 819.79584 8836.9766 3225915
-7456.4067 825.57208 8899.2412 3160122
-7448.6265 830.92401 8956.9326 3160379
-7463.9077 838.94934 9043.4414 3226172
-7459.3833 844.85431 9107.0938 3291965
-7230.9189 825.29114 8896.2129 3357501
-7140.4868 821.30054 8853.1963 3160379
-7088.6343 821.7196 8857.7139 3094585
-7057.5508 824.5719 8888.46 3029050
-7001.8613 824.5719 8888.46 3160379
-6956.7583 825.82855 8902.0059 3094586
-6933.4951 829.71899 8943.9434 3028793
-6955.8218 839.17291 9045.8516 3028793
-6997.7012 851.16052 9175.0723 2897463
-7017.0376 860.58203 9276.6309 2897464
-6924.8242 856.36597 9231.1836 2897720
-6804.3398 848.55328 9146.9668 3095099
-6722.1255 845.4209 9113.2021 3160635
-6668.4819 845.85913 9117.9248 3160635
-6653.9746 851.31177 9176.7021 3226172
-6613.8877 853.55835 9200.9189 3160636
-6500.5137 846.30316 9122.7119 3160893
-6396.584 840.15979 9056.4893 3160636
-6273.7349 831.39917 8962.0547 3226686
-6059.7217 810.29016 8734.5098 3160891
-6019.438 812.23871 8755.5146 3029562
-5754.0449 783.56842 8446.4639 3095355
-5453.8467 749.58221 8080.1099 3095354
-5260.7148 729.81226 7867 3292477
-4921.7598 689.24731 7429.7305 3424062
-4851.0591 685.83289 7392.9248 3555648
-4618.5449 659.25513 7106.4307 3555648
-4441.0586 640.09125 6899.8535 3358526
-4074.4854 593.02954 6392.5532 3358782
-4027.5767 592.02155 6381.6875 3555904
-3734.814 554.49249 5977.1431 3424576
-3248.3308 487.15091 5251.2358 3490368
-3168.0601 479.97418 5173.874 3490111
nan nan nan 16777215
nan nan nan 16777215
-2716.3118 424.565 4576.5918 4477519
-2722.8652 430.12979 4636.5776 4608335
nan nan nan 16777215
nan nan nan 16777215
nan nan nan 16777215
-4126.3511 680.89502 7339.6978 3226426
-4279.9844 714.20569 7698.7695 3292476
-4451.8652 751.35541 8099.2241 3423805
-4506.2109 769.29614 8292.6162 3423805
-4605.2642 795.37708 8573.7549 3423806
-4634.6025 809.89093 8730.207 3555391
-4615.1294 816.11987 8797.3516 3555648
-4565.707 817.13928 8808.3398 3424061
-4526.2446 819.98785 8839.0469 3555391
-4508.5664 826.90265 8913.584 3555646
-4531.7754 841.58374 9071.8389 3424059
-4550.3345 855.76337 9224.6885 3226680
-4630.8096 882.10187 9508.6035 3292473
-4669.8589 901.13312 9713.751 3489852
-4711.9561 921.26282 9930.7383 3555645
-4658.106 922.92108 9948.6133 3555645
-4617.4175 927.26721 9995.4629 3489852
-4606.6831 937.83112 10109.336 3489852
-4594.3579 948.36115 10222.844 3555645
-4547.5396 951.9682 10261.727 3095094
-4559.0181 968.05756 10435.161 3292473
-4433.1299 955.02216 10294.646 3489852
-4433.5542 969.21509 10447.639 3489852
-4416.9702 980.05945 10564.535 3555645
-4358.207 981.73242 10582.569 3753024
-4290.499 981.41095 10579.104 3555388
-4279.1958 994.18408 10716.792 3423802
-4228.98 998.17963 10759.862 3358266
-4172.8169 1000.8782 10788.951 3358265
-4144.769 1010.5203 10892.888 3358265
-4037.7026 1000.8976 10789.16 3489595
-3940.6804 993.47925 10709.194 3489851
-3941.5496 1010.9108 10897.098 3555646
-3874.8491 1011.3214 10901.523 3555647
-3814.6904 1013.4847 10924.844 3621697
-3762.2988 1017.8285 10971.666 3753026
-3716.7546 1024.2207 11040.571 3753539
-3652.074 1025.4821 11054.168 4148041
-3590.2529 1027.6106 11077.112 4148041
-3517.3381 1026.5852 11066.06 4016455
-3442.728 1025.0139 11049.121 3950661
-3364.5718 1022.3005 11019.873 4148041
-3282.2937 1018.1949 10975.616 4082248
-3234.644 1024.8854 11047.736 3753283
-3191.5703 1033.3501 11138.981 3687746
-3141.6538 1039.9282 11209.89 3621696
-3080.6848 1043.0651 11243.703 3555904
-3019.3809 1046.2324 11277.847 3556160
-2934.5378 1041.2 11223.599 3686976
-2869.9812 1043.2948 11246.18 3686976
-2808.0061 1046.4572 11280.269 3686976
-2774.3135 1060.595 11432.667 3752770
-2710.7771 1063.7708 11466.9 3686977
-2639.3918 1063.9556 11468.893 3818563
-2565.8477 1063.2561 11461.353 3884356
-2497.8748 1064.8915 11478.98 3884356
-2434.1433 1068.4855 11517.724 3818563
-2370.6299 1072.3979 11559.897 3752770
-2308.5029 1077.2039 11611.702 3752770
-2243.9404 1081.1492 11654.23 3686977
-2173.3794 1082.3724 11667.417 3752770
-2101.4092 1082.9546 11673.692 3687234
-2030.5679 1084.1816 11686.919 3753283
-1957.6664 1084.3593 11688.834 3753283
-1885.8044 1085.1489 11697.346 3753540
-1811.8932 1084.7754 11693.32 3753283
-1743.8246 1088.0159 11728.25 3819076
-1668.946 1087.1057 11718.438 3884869
-1594.4532 1086.3745 11710.558 3884869
-1521.5848 1086.7329 11714.421 3819076
-1448.8036 1087.1931 11719.382 3818306
-1390.4005 1099.0679 11847.385 3818563
-1313.7402 1097.0365 11825.488 3752770
-1239.948 1097.3003 11828.332 3752770
-1172.4893 1103.5587 11895.795 3752770
-1099.6393 1105.2482 11914.006 3686977
-1022.8357 1102.9205 11888.915 3818820
-947.67169 1102.1342 11880.438 3884356
-873.23712 1102.1342 11880.438 3818563
-799.87054 1103.6078 11896.323 3950149
-723.81885 1101.2988 11871.434 3884356
-645.30719 1094.2894 11795.876 3686978
-570.25244 1092.0872 11772.137 3752770
-494.72421 1088.1893 11730.119 3752770
-421.17239 1088.037 11728.478 3686978
-347.08777 1086.1527 11708.167 3686720
-273.86969 1086.6971 11714.035 3555132
-198.55283 1076.2638 11601.569 3555132
-125.72891 1075.0968 11588.989 3818304
-53.049732 1073.6683 11573.592 3884096
19.359457 1067.9888 11512.368 3818303
91.154068 1064.0905 11470.347 3818049
162.36482 1059.8181 11424.293 3949891
233.94156 1059.8181 11424.293 3884099
304.28204 1055.5297 11378.065 3620927
375.86847 1056.3708 11387.133 3555391
441.99951 1044.0574 11254.4 3621184
507.85834 1034.5776 11152.214 3818562
577.86969 1034.8271 11154.902 3950149
634.70673 1013.976 10930.139 4081735
688.60944 992.95496 10703.543 4081735
737.27039 968.77722 10442.919 4147528
784.61224 946.94885 10207.62 4081735
826.41028 922.22424 9941.1016 4081992
874.75427 907.75818 9785.165 4279627
898.05701 870.90295 9387.8848 4411213
927.53925 844.20282 9100.0713 4345420
964.88593 827.33862 8918.2832 4345421
990.04419 802.44165 8649.9072 4477007
1032.101 793.11456 8549.3662 4608591
1046.1394 764.23944 8238.1074 4345420
1063.8572 740.6413 7983.7314 4148041
1090.4471 725.06177 7815.7925 4081992
1088.5575 692.69849 7466.9326 3950662
1095.6543 668.48523 7205.9263 3950149
1124.2915 658.81061 7101.6387 4016201
1114.3043 628.10114 6770.6064 4015944
1129.5555 613.34857 6611.5811 4015947
1019.6243 534.07019 5757.0015 1910319
1018.5084 515.25836 5554.2192 199447
1050.3073 513.79083 5538.3999 462623
1063.2263 503.47678 5427.2202 988456
1104.0513 506.60703 5460.9624 856873
1142.6235 508.54651 5481.8691 791337
1155.6797 499.34772 5382.7109 856872
1190.1792 499.67316 5386.2192 922411
1222.7726 499.20245 5381.145 791595
1243.8013 494.16232 5326.8154 857388
1265.3601 489.59079 5277.5366 857388
1303.387 491.46161 5297.7026 922925
1330.4735 489.21671 5273.5039 922923
1354.9207 486.13361 5240.2695 857641
1394.5493 488.51453 5265.9346 661030
1475.7858 505.02386 5443.897 727076
1430.4946 478.46677 5157.6255 2635069
nan nan nan 16777215
nan nan nan 16777215
2437.0527 763.40228 8229.083 3688263
2511.8762 770.53925 8306.0156 3754056
2590.1096 778.41125 8390.8721 3885128
2663.9761 784.68378 8458.4863 3950921
2823.7212 815.51404 8790.8213 4016455
2971.7944 841.85828 9074.7979 3950662
3114.6155 865.75336 9332.375 3818819
3275.552 893.71051 9633.7393 3621697
3438.1123 921.09113 9928.8877 3884869
3522.7588 926.99573 9992.5361 3885126
3716.4734 960.89392 10357.94 3819076
3948.2615 1003.3033 10815.092 3753026
4196.4976 1048.3907 11301.112 3555903
4366.6792 1072.8057 11564.292 3687490
4443.7529 1073.9221 11576.327 3819332
4507.3154 1071.7899 11553.343 3884871
4540.1426 1062.5321 11453.548 4016454
4611.9082 1062.5333 11453.562 4147784
4896.4131 1110.7965 11973.813 4016455
4988.7471 1114.6652 12015.516 4148040
5083.7026 1118.9958 12062.198 4148041
5220.9517 1132.3727 12206.394 3950918
5310.4897 1135.1646 12236.489 3884869
5451.1201 1148.6431 12381.78 3884871
5580.167 1159.3368 12497.053 3884870
5590.1699 1145.344 12346.219 3950663
5637.7617 1139.3298 12281.388 3950662
5520.2407 1100.5592 11863.46 3885126
5480.6284 1078.1449 11621.846 3950148
5524.1621 1072.4602 11560.568 3818563
5518.6631 1057.5267 11399.594 3950149
5532.4126 1046.6163 11281.985 3950149
5512.0112 1029.6021 11098.58 3884356
5525.2515 1019.2176 10986.64 3818563
5518.0322 1005.3608 10837.271 3752770
5462.894 983.21655 10598.567 3752770
5443.7876 968.01123 10434.662 3752770
5473.7153 961.78247 10367.52 3752770
5553.2534 964.3147 10394.815 3818563
5635.3511 967.2276 10426.215 4081478
5759.9648 977.28729 10534.653 4081478
5751.8047 964.84662 10400.55 3949636
5949.4585 986.82263 10637.439 3949893
6197.5474 1016.5846 10958.258 3752514
6285.5347 1019.7206 10992.062 3818307
6387.1802 1024.9806 11048.762 3884099
6656.4023 1056.731 11391.016 3686720
6324.5327 993.39441 10708.28 3489342
6534.3369 1015.5752 10947.377 3423295
6762.6572 1040.1429 11212.205 3489085
6830.6997 1039.8073 11208.586 3620671
6854.4224 1032.8004 11133.056 3686464
7025.8931 1047.9725 11296.604 3686464
7127.7686 1052.5649 11346.108 3818050
7496.1489 1096.0332 11814.673 3884100
7655.0327 1108.3197 11947.114 3818051
7739.6104 1109.7141 11962.146 3818051
7881.5825 1119.2319 12064.744 3818051
8201.3125 1153.572 12434.912 3752771
8219.4082 1145.2382 12345.077 3818308
8319.6855 1148.4037 12379.199 3818052
8419.6357 1151.4658 12412.207 3818051
8295.707 1124.1344 12117.589 3818052
8229.2383 1105.0145 11911.487 3818052
8333.1055 1108.9053 11953.428 3883845
8421.5498 1110.6927 11972.695 4015174
8534.8506 1115.6979 12026.647 4015431
8703.9746 1127.8488 12157.629 4015432
8806.0703 1131.1791 12193.526 3949639
8908.2939 1134.468 12228.98 4015431
9038.3379 1141.2137 12301.696 4080968
9067.4297 1135.2065 12236.941 4081224
8938.9893 1109.7432 11962.459 4015432
8888.9326 1094.3531 11796.562 3818053
8858.0469 1081.5577 11658.636 3818053
8346.0732 1010.7119 10894.954 3817797
8247.2002 990.63623 10678.548 3883845
8285.6357 987.24414 10641.983 3949382
8305.8564 981.75323 10582.794 3818053
8617.1865 1010.4859 10892.518 3686466
8718.3125 1014.3113 10933.753 3752260
8760.2314 1011.2426 10900.674 3818053
8828.5283 1011.2426 10900.674 3818052
8879.165 1009.2355 10879.038 3752260
9041.2959 1019.835 10993.296 3883845
9250.041 1035.4926 11162.076 3818052
9341.5488 1037.8895 11187.914 3883845
9332.5811 1029.1707 11093.929 3949638
9518.5674 1041.9207 11231.367 3818309
9565.1182 1039.3328 11203.472 3752259
9786.2363 1055.6127 11378.96 3752259
9918.5342 1062.1454 11449.38 3554880
9768.0049 1038.5148 11194.654 3752259
9928.2041 1048.0217 11297.134 3620417
9998.9834 1048.0217 11297.134 3620417
10261.143 1067.9396 11511.839 3554623
10277.475 1062.1735 11449.682 3422781
10227.914 1049.7244 11315.488 3488317
10272.459 1047.0386 11286.536 3422524
10340.132 1046.7308 11283.219 3422524
10408.173 1046.4641 11280.344 3290938
10596.671 1058.2305 11407.18 3027766
10705.476 1061.9341 11447.102 2961716
10924.048 1076.4041 11603.081 2896180
10928.26 1069.7006 11530.82 2961973
11009.634 1070.5884 11540.391 2961973
11081.938 1070.5884 11540.391 2896180
11063.85 1061.9125 11446.869 2896180
11183.582 1066.4912 11496.226 2764594
11391.411 1079.3588 11634.931 2567215
11580.014 1090.2523 11752.358 2566958
11734.799 1097.8446 11834.199 2435629
11787.047 1095.8088 11812.255 2501166
11677.009 1078.8055 11628.967 2633009
11738.236 1077.7375 11617.455 2698802
11938.639 1089.3822 11742.979 2895924
12107.424 1098.017 11836.057 2830131
nan nan nan 16777215
nan nan nan 16777215
nan nan nan 16777215
nan nan nan 16777215
-7213.0034 751.16785 7587.4795 3029564
-7122.2207 746.6344 7541.6875 3226429
-7095.9893 748.85272 7564.0942 3291965
-7048.4395 748.83582 7563.9238 3292222
-6971.4668 745.67181 7531.9639 3358013
-6948.0537 748.23224 7557.8267 3226428
-6952.686 753.86877 7614.7612 3226428
-6998.8994 764.12305 7718.3389 3291964
-6994.207 768.92346 7766.8271 3226427
-6979.1343 772.64197 7804.3877 3357757
-7069.6553 788.18555 7961.3916 3424061
-7068.5464 793.66162 8016.7051 3489342
-7107.0098 803.6911 8118.0122 3489342
-7174.6465 817.18805 8254.3438 3358012
-7190.7178 824.96503 8332.8984 3291962
-7025.311 811.88324 8200.7598 3094840
-6947.998 808.86426 8170.2651 3226169
-7049.2329 826.7406 8350.833 3423549
-6968.4038 823.37213 8316.8086 3489341
-6930.4214 825.05371 8333.7939 3489341
-6912.3418 829.14819 8375.1514 3423548
-6902.4092 834.28998 8427.0889 3357499
-6728.8789 819.58472 8278.5518 3292219
-6644.3457 815.57507 8238.0508 3291962
-6592.7314 815.57507 8238.0508 3291962
-6437.8164 802.69501 8107.9507 3554877
-6446.1592 810.12769 8183.0273 3686720
-6395.8877 810.25415 8184.3047 3620927
-6437.8101 822.15637 8304.5283 3357755
-6468.936 832.86261 8412.6709 3160375
-6588.2939 855.19781 8638.2764 3160376
-6615.8379 865.88605 8746.2383 3160119
-6521.6523 860.68799 8693.7324 3094583
-6375.7412 848.51843 8570.8086 3028790
-6319.3022 848.15063 8567.0938 3226168
-6265.6919 848.15948 8567.1826 3291705
-6179.8843 843.77234 8522.8691 3292219
-6152.1523 847.30731 8558.5752 3358012
-6061.9595 842.22626 8507.252 3358012
-5982.1582 838.51172 8469.7314 3358012
-5871.4258 830.35626 8387.3545 3292218
-5686.1533 811.41663 8196.0469 3423805
-5397.4478 777.23737 7850.8052 3292219
-5279.647 767.26617 7750.0869 3292219
-4998.7588 733.18909 7405.8774 3489341
-4696.6851 695.33698 7023.5366 3424061
-4579.2964 684.36981 6912.7583 3424575
-4336.7788 654.31427 6609.1704 3358782
-4234.5742 645.05328 6515.6255 3490111
-4092.3933 629.46295 6358.1494 3226939
-4004.3423 621.97394 6282.5034 3226939
-3808.4929 597.42627 6034.5493 3424318
-3734.814 591.74298 5977.1431 3424318
nan nan nan 16777215
nan nan nan 16777215
nan nan nan 16777215
nan nan nan 16777215
-2553.9727 426.00848 4303.0737 4215120
-2684.7295 452.59674 4571.6392 4478292
-2498.4993 425.74387 4300.4009 4149327
nan nan nan 16777215
nan nan nan 16777215
-3679.1196 647.88129 6544.1909 3358525
-4027.7639 717.2699 7245.0791 3555134
-4069.2214 732.9126 7403.0845 3555647
-4143.4702 754.8902 7625.0781 3686977
-4226.8423 779.06207 7869.2358 3686977
-4241.0063 790.89789 7988.7891 3753027
-4279.1001 807.53247 8156.813 3884356
-4278.9087 817.25671 8255.0371 3884356
-4322.5874 835.70062 8441.3369 3752771
-4308.6831 843.33069 8518.4082 3752768
-4317.5713 855.66931 8643.0391 3555644
-4314.7246 865.96619 8747.0469 3424058
-4370.0654 888.35645 8973.209 3358266
-4432.707 912.83374 9220.4521 3358266
-4472.4971 933.18951 9426.0635 3489852
-4484.0967 948.12939 9576.9697 3555645
-4433.1216 950.06415 9596.5127 3555645
-4377.7378 951.09412 9606.917 3555901
-4307.6694 948.91815 9584.9375 3621438
-4251.3652 949.75555 9593.3965 3753024
-4195.4297 950.7005 9602.9414 3621438
-4132.0503 949.96161 9595.4775 3687231
-4044.4465 943.5495 9530.709 3819074
-4038.6404 956.31415 9659.6436 3950403
-3987.6812 958.61261 9682.8604 4016195
-3829.0432 934.6969 9441.29 4147782
-3795.4016 941.02209 9505.1797 4082246
-3677.6355 926.35876 9357.0674 3950659
-3671.2102 939.72034 9492.0312 3819074
-3690.9961 960.34167 9700.3252 3753281
-3661.1311 968.51886 9782.9219 3884867
-3606.5701 970.32996 9801.2168 3950917
-3683.0002 1008.0569 10182.293 3950661
-3619.2048 1008.0569 10182.293 4016455
-3473.1765 984.74164 9946.7871 3819076
-3452.1025 996.64948 10067.067 3819076
-3393.7283 998.03137 10081.025 4016455
-3391.5603 1016.3084 10265.641 4213834
-3332.2615 1017.8414 10281.125 4279627
-3252.3635 1013.0187 10232.411 4213834
-3188.2544 1013.0187 10232.411 4213834
-3134.509 1016.3792 10266.355 4279627
-3063.5964 1014.1974 10244.317 4148040
-3003.8979 1015.7141 10259.637 3950916
-2959.8831 1022.7161 10330.363 3819073
-2910.0518 1027.9764 10383.499 3621952
-2846.2739 1028.4384 10388.164 3687488
-2783.8777 1029.4326 10398.206 3621952
-2733.8557 1035.16 10456.059 3819074
-2659.6477 1031.7858 10421.977 3753280
-2594.3508 1031.7858 10421.977 3621438
-2584.4023 1054.3666 10650.062 3687232
-2517.8149 1054.4246 10650.648 3621439
-2446.6423 1052.5132 10631.342 3687231
-2382.7236 1053.7029 10643.358 3621695
-2315.9673 1053.6698 10643.024 3621695
-2252.4082 1055.1327 10657.801 3621439
-2186.8147 1055.7028 10663.56 3555645
-2123.7407 1057.5634 10682.354 3621438
-2064.3389 1061.4333 10721.443 3686977
-2004.7841 1065.4823 10762.342 3752770
-1941.0127 1067.4941 10782.663 3752770
-1875.2681 1068.5266 10793.092 3621441
-1808.7091 1069.155 10799.439 3686977
-1753.6577 1076.899 10877.661 3686978
-1694.6901 1082.767 10936.933 3687490
-1631.996 1086.6483 10976.138 3753283
-1568.9259 1090.6097 11016.151 3621954
-1509.6475 1097.6926 11087.695 4082248
-1432.7333 1092.0172 11030.368 4016712
-1367.4612 1095.0896 11061.402 4081735
-1299.6825 1096.3755 11074.392 3950149
-1234.6897 1100.2892 11113.923 3950149
-1151.2668 1087.2651 10982.368 4015942
-1092.7393 1097.5912 11086.671 3950149
-1026.9224 1101.5004 11126.156 4015942
-968.21997 1114.1659 11254.09 4015942
-897.95514 1114.4706 11257.168 4081735
-828.85687 1116.3986 11276.643 4015942
-759.22833 1117.905 11291.858 4147528
-683.38849 1109.6357 11208.331 3950149
-615.00903 1112.9731 11242.042 3884356
-543.68573 1111.1575 11223.702 3950149
-471.43115 1106.6161 11177.831 3818563
-401.59412 1107.1553 11183.276 3753027
-331.18631 1106.0162 11171.771 3818306
-257.30026 1089.5377 11005.323 3884099
-187.75903 1086.1279 10970.881 4015685
-118.75951 1083.7228 10946.587 4081735
-50.04895 1080.9844 10918.927 4015942
18.055281 1062.9558 10736.822 4016199
84.027176 1046.7904 10573.536 4279114
151.60455 1056.0613 10667.181 4213321
221.12233 1069.0402 10798.279 4344907
282.80508 1046.9327 10574.975 4213321
338.54126 1015.3824 10256.286 4147528
400.93927 1010.6916 10208.905 3818820
455.37003 989.97095 9999.6074 3884356
516.14801 986.39209 9963.458 4015942
583.22675 994.32751 10043.613 4279114
633.63116 975.05823 9848.9766 4344907
695.33807 975.05823 9848.9766 4147785
737.21814 949.52179 9591.0342 4081992
778.27844 926.85815 9362.1113 4213321
821.78522 910.08057 9192.6426 4279114
869.03131 899.37067 9084.4629 4279627
898.09454 872.31641 8811.1904 4148041
931.62958 852.48749 8610.9004 4148040
980.50098 848.09473 8566.5293 4279627
1009.639 827.97516 8363.3027 4279627
1029.0869 802.28644 8103.8237 4213833
1040.4109 772.9776 7807.7778 4016199
1042.7357 739.91541 7473.8193 3884869
1056.5771 717.51593 7247.5645 3950663
1073.7791 699.15045 7062.0562 4081734
1084.8328 678.39392 6852.396 4213323
1089.851 655.5871 6622.0264 4147530
nan nan nan 16777215
931.65497 520.77576 5260.3091 1844526
1029.562 555.84082 5614.498 199703
1045.7965 545.95215 5514.6138 462621
1057.4116 534.36169 5397.5396 922663
1101.298 539.29236 5447.3442 922409
1140.0735 541.49921 5469.6348 856873
1154.9624 532.56293 5379.3701 791080
1188.6658 532.56293 5379.3701 857132
1222.1984 532.48846 5378.6182 857388
1245.8124 528.21259 5335.4282 857389
1269.4169 524.15631 5294.4561 989231
1303.0789 524.35376 5296.4502 923181
1331.9271 522.6524 5279.2651 923179
1354.0116 518.44373 5236.7539 792360
1394.5493 521.33264 5265.9346 660517
1471.646 537.43927 5428.626 792354
1430.7593 510.70444 5158.5796 2963778
nan nan nan 16777215
nan nan nan 16777215
2322.9717 776.55084 7843.8706 3622213
2429.9485 795.48322 8035.105 3753542
2506.6091 803.92407 8120.3652 3753285
2594.2847 815.49152 8237.207 3687492
2694.1377 830.3609 8387.4014 3753284
2814.6372 850.90308 8594.8955 3753283
2930.541 869.31073 8780.8301 3753283
3082.9082 897.65704 9067.1533 3687490
3234.0791 924.63568 9339.6621 3687490
3317.6516 931.67218 9410.7373 3753283
3446.0005 950.81757 9604.123 3687490
3613.1011 979.81458 9897.0195 3884869
3811.7805 1016.2523 10265.074 3819076
3829.5217 1004.0417 10141.735 3819333
3893.0627 1004.0417 10141.735 3753540
4042.6831 1025.8855 10362.378 3819079
4127.0898 1030.7515 10411.528 3884869
4283.3916 1053.1426 10637.699 4016455
4454.1582 1078.3496 10892.312 4016455
4545.4126 1083.8363 10947.733 4082248
4635.7656 1088.9482 10999.369 4082505
4764.2578 1102.7383 11138.66 4082248
4847.1431 1105.7261 11168.841 3950662
4938.6797 1110.5745 11217.813 3950663
4848.4966 1074.9963 10858.441 3819077
4855.9331 1061.7472 10724.613 3753284
4835.771 1042.9077 10534.318 3819077
4888.1353 1040.0063 10505.012 3884869
4923.3486 1033.5818 10440.116 3884870
4991.8203 1034.2159 10446.522 3950149
4998.0879 1022.1128 10324.271 4015685
5023.6777 1014.2202 10244.547 3950149
5026.8784 1002.0634 10121.752 3818563
4843.9951 953.57745 9632.001 3818563
4819.8359 937.14642 9466.0322 3818563
4649.1562 892.97229 9019.833 3818563
4692.7632 890.52338 8995.0967 3752770
4519.7041 847.5047 8560.5693 3686977
4668.5381 865.14648 8738.7676 3884356
4663.8398 854.25745 8628.7783 4015942
4513.9351 817.32574 8255.7344 4147785
4672.5537 836.46149 8449.0225 4016199
4843.8657 857.41528 8660.6758 4147786
nan nan nan 16777215
nan nan nan 16777215
nan nan nan 16777215
nan nan nan 16777215
5133.8418 860.54431 8692.2812 3818563
5824.8608 966.12561 9758.748 3818309
6026.9097 989.25403 9992.3662 3818307
6221.2549 1010.6555 10208.54 3686720
6248.7012 1004.7841 10149.234 3752513
6223.3218 990.62238 10006.188 3884099
6612.3096 1042.0438 10525.592 3818562
6805.0596 1061.8298 10725.447 3884099
7004.5503 1082.2701 10931.914 3884099
7167.8438 1096.776 11078.437 3884099
7293.0229 1105.2277 11163.807 3884099
7487.373 1123.9017 11352.431 3949892
7733.1104 1149.8652 11614.687 3949891
7832.9058 1153.8463 11654.899 3884099
8110.2632 1183.6686 11956.131 3949891
8064.8115 1166.2629 11780.318 3884099
8107.3301 1161.7794 11735.03 3818306
8180.8545 1161.7794 11735.03 3949892
8217.8789 1156.6423 11683.142 4015685
8112.2954 1131.7015 11431.216 4081478
8168.3823 1129.5535 11409.519 4015685
8391.7412 1150.3732 11619.816 4015685
8119.8687 1103.5302 11146.659 4015685
8447.002 1138.1997 11496.854 4081477
8444.751 1128.275 11396.605 4015685
8333.7725 1104.1121 11152.537 3949892
7817.9673 1027.1627 10375.278 4015685
8111.9521 1056.999 10676.653 3818306
8019.7373 1036.4368 10468.955 3884100
7694.4077 986.32562 9962.7871 3884099
7532.3257 957.77887 9674.4395 3818306
6804.2427 858.29218 8669.5322 3752770
7551.1704 944.96661 9545.0234 3884099
7957.5698 987.99963 9979.6953 3752513
7946.2456 978.90204 9887.8018 3752513
7981.2534 975.60864 9854.5352 3686463
7934.7129 962.47406 9721.8643 3818562
8111.1826 976.3844 9862.3721 3818306
8193.9453 978.88983 9887.6787 3949635
8041.6001 953.48132 9631.0293 3949635
8071.4395 949.8916 9594.7705 3884099
8009.1353 935.59131 9450.3242 3884100
8058.1006 934.40344 9438.3252 3884099
8382.1514 964.89893 9746.3584 3818306
8675.3877 991.43176 10014.364 3884100
8995.8506 1020.6728 10309.725 3949636
9065.0205 1021.1883 10314.932 3883843
9129.6465 1021.1883 10314.932 3949637
9467.5518 1051.5408 10621.52 3884100
9066.5322 999.97162 10100.624 3884101
8815.5459 965.55017 9752.9365 4015173
8876.6504 965.55017 9752.9365 3949380
9097.5986 982.81805 9927.3574 4014917
9183.9766 985.4126 9953.5645 4146247
9287.876 989.83929 9998.2783 3949382
9434.6396 998.74432 10088.228 3949126
9689.7324 1018.9222 10292.042 3948869
9468.2061 989.04572 9990.2627 4014918
9726.4287 1009.347 10195.324 4014404
9663.9404 996.31934 10063.732 3948612
9726.9932 996.31934 10063.732 3948611
9760.9941 993.36279 10033.868 3817025
9869.2002 997.94751 10080.179 3553854
9939.0312 998.61823 10086.953 3619646
10002.229 998.61823 10086.953 3160122
9925.1357 984.69946 9946.3613 3225659
9957.8643 981.78235 9916.8955 3225915
10075.73 987.24329 9972.0557 3094329
10369.731 1009.7886 10199.784 3094073
10525.302 1018.6602 10289.396 3225659
nan nan nan 16777215
nan nan nan 16777215
nan nan nan 16777215
nan nan nan 16777215
-6611.9331 731.91791 6955.2036 2897463
-6574.7153 732.62646 6961.937 2963256
-6531.0967 732.62646 6961.937 3029049
-6488.272 732.71613 6962.7886 3029306
-6500.3608 739.05029 7022.981 3357245
-6457.5845 739.19049 7024.313 3423549
-6455.9551 744.07501 7070.7295 3555134
-6445.0249 747.94763 7107.5298 3620927
-6400.0649 747.89746 7107.0527 3555134
-6356.2051 747.97614 7107.8003 3620927
-6366.5195 754.47583 7169.5654 3620927
-6335.4531 756.12915 7185.2764 3686720
-6416.1362 771.23877 7328.8589 3620927
-6599.5117 798.99921 7592.6582 3621184
-6477.2085 789.88568 7506.0547 3686977
-6441.4336 791.26794 7519.1899 3686720
-6326.271 782.84674 7439.166 3686720
-6273.0186 782.01855 7431.2954 3620927
-6226.1768 781.98309 7430.9585 3620927
-6186.2666 782.82422 7438.9517 3555134
-6159.4492 785.34747 7462.9297 3620927
-6184.0464 794.51501 7550.0459 3686720
-6219.7817 805.26587 7652.2085 3620927
-6135.2886 800.49713 7606.8921 3686720
-6072.0273 798.44556 7587.397 3555134
-5973.4165 791.6767 7523.0742 3555134
-5983.0654 799.26221 7595.1567 3555134
-5928.1138 798.27032 7585.7319 3423548
-5906.8647 801.8374 7619.6289 3423548
-6122.2124 837.84161 7961.7666 3357755
-6198.7817 855.28906 8127.5645 3423548
-6241.1758 868.27124 8250.9297 3423548
-6187.2188 867.95386 8247.9141 3423548
-6002.5645 849.14227 8069.1528 3423548
-5924.291 845.18793 8031.5757 3423548
-5912.4155 850.7196 8084.1421 3291962
-5854.0327 849.59735 8073.4775 3226426
-5812.854 850.97406 8086.5601 3358012
-5736.209 847.13721 8050.0996 3226426
-5582.71 831.78162 7904.1802 3292219
-5461.6621 821.02954 7802.0054 3489598
-5235.7021 794.16974 7546.7646 3621184
-5032.6748 770.33051 7320.2275 3489598
-4889.9282 755.36462 7178.0112 3555648
-4740.6895 739.10876 7023.5366 3687234
-4492.459 706.97009 6718.1318 3753283
-4254.1577 675.80084 6421.9395 3687747
-4131.6641 662.60883 6296.5796 3621697
-4000.7231 647.79468 6155.8052 3490111
-3822.0554 624.88898 5938.1387 3424574
-3655.8003 603.58234 5735.668 3490111
-3492.0278 582.2666 5533.1108 3555904
nan nan nan 16777215
nan nan nan 16777215
nan nan nan 16777215
nan nan nan 16777215
-2474.6655 434.18134 4125.8994 3688006
-2440.8503 432.76907 4112.479 4345936
-2537.3909 454.68573 4320.7466 4674901
-2498.4993 452.54468 4300.4009 4214350
-2485.3557 455.07138 4324.4116 3556677
-2872.4062 531.73743 5052.9468 3161919
-3531.1279 660.96429 6280.9521 3227195
-3688.2114 698.14789 6634.2974 3490367
-3860.345 739.06055 7023.0781 3752514
-3915.1699 758.19904 7204.9458 3884356
-3886.209 761.36896 7235.0684 3819076
-3920.4951 777.15106 7385.0415 3753540
-3946.0137 791.55151 7521.8843 3819077
-4015.3989 815.20569 7746.6636 4016455
-4016.5696 825.42047 7843.7319 4016455
-4091.5342 851.24109 8089.0972 4082247
-4149.8569 874.20355 8307.3037 4147783
-4156.1851 886.65717 8425.6465 4279368
-4221.9585 912.27612 8669.0957 4082245
-4243.8618 928.95984 8827.6357 4082245
-4192.3745 929.80719 8835.6885 3950659
-4151.7871 933.12701 8867.2354 3950402
-4122.9663 939.21735 8925.1104 3818817
-4082.7705 942.84821 8959.6133 3687231
-4032.9409 944.32452 8973.6426 3687231
-3976.718 944.32452 8973.6426 3292473
-3916.5776 943.38086 8964.6748 3160887
-3840.6992 938.5639 8918.9004 3555645
-3768.3381 934.47675 8880.0615 3686974
-3739.7263 941.27875 8944.6992 3819074
-3700.0615 945.46326 8984.4639 4016197
-3634.9109 943.16431 8962.6172 4147529
-3589.4106 945.97198 8989.2979 4082248
-3538.4319 947.40234 9002.8896 4016455
-3465.0747 942.79016 8959.0615 4082505
-3398.7651 939.97516 8932.3115 4148041
-3388.3174 952.77386 9053.9346 4082248
-3356.1775 959.80505 9120.749 3884869
-3288.9431 956.86957 9092.8545 3950662
-3255.7683 963.91425 9159.7979 4016712
-3216.7891 969.46252 9212.5215 4279884
-3116.8433 956.50391 9089.3799 4213834
-3049.9075 953.38184 9059.7109 4148298
-3005.3787 957.27826 9096.7383 4148041
-2988.5745 970.32697 9220.7363 4016455
-2937.3518 972.495 9241.3379 4082248
-2873.7944 970.58423 9223.1807 4148041
-2837.5396 978.00525 9293.7012 4016712
-2798.7856 984.85803 9358.8203 3950662
-2732.3337 982.04877 9332.125 3884869
-2682.7771 985.3219 9363.2285 3884870
-2647.0876 993.94843 9445.2041 3819332
-2562.6384 984.24213 9352.9678 3819075
-2511.8774 987.32306 9382.2451 3884868
-2497.8081 1005.3192 9553.2568 3884611
-2421.4551 998.51569 9488.6055 3819074
-2362.0061 998.51569 9488.6055 3753026
-2332.7651 1011.6156 9613.0898 3752770
-2272.8098 1011.7374 9614.248 3687233
-2228.5508 1019.0434 9683.6738 3621184
-2170.1189 1020.0959 9693.6758 3686977
-2112.082 1021.4002 9706.0703 3686977
-2018.912 1005.2878 9552.959 3686977
-1957.4681 1004.471 9545.1973 3818563
-1897.4987 1004.3833 9544.3633 3818563
-1837.7002 1004.3833 9544.3633 3686977
-1805.2804 1019.85 9691.3398 3752770
-1745.5829 1020.4474 9697.0166 3686977
-1694.0339 1026.0231 9750 3686977
-1633.0093 1026.0621 9750.3711 3555391
-1559.4038 1017.8922 9672.7344 3489855
-1511.8607 1026.7614 9757.0166 3621184
-1456.8594 1031.0996 9798.2402 3621184
-1403.1554 1036.778 9852.2002 3686720
-1363.04 1053.4814 10010.929 3949636
-1294.3435 1048.6406 9964.9287 3818306
-1232.77 1049.3727 9971.8848 3884356
-1178.4036 1056.6453 10040.993 4081735
-1127.4042 1067.9274 10148.204 4015942
-1066.3619 1070.4766 10172.429 4081735
-1021.5842 1090.715 10364.748 4081992
-916.35419 1044.7766 9928.21 4081735
-863.70148 1056.4586 10039.221 4213321
-803.95001 1060.611 10078.678 3950149
-738.95612 1057.9653 10053.538 4015942
-673.20917 1053.6481 10012.512 4016199
-615.89929 1063.0054 10101.433 4081735
-555.0058 1067.6127 10145.214 4081735
-485.47479 1054.6476 10022.011 4015942
-425.05191 1060.5563 10078.159 3950149
-366.06567 1072.7369 10193.908 4081735
-298.93048 1061.139 10083.697 4015942
-234.94366 1057.4963 10049.081 4081992
-169.16667 1040.1787 9884.5176 4344907
-106.60416 1034.0392 9826.1748 4213834
-45.165432 1036.9163 9853.5146 4082505
16.553148 1035.8685 9843.5586 4213321
76.778107 1016.6943 9661.3516 4279114
138.95944 1028.9113 9777.4463 4344907
203.23671 1044.4235 9924.8535 4410700
262.36749 1032.4158 9810.748 4213321
323.83487 1032.4158 9810.748 4015942
392.61768 1052.0175 9997.0166 4147528
441.90817 1021.1818 9703.9941 4016199
495.78891 1007.1292 9570.4561 3950406
555.75079 1007.1292 9570.4561 4015942
612.04077 1001.123 9513.3818 3687234
695.48199 1036.6531 9851.0146 3752770
742.18677 1016.0969 9655.6748 3686977
767.76965 971.90143 9235.6982 3818563
799.1828 940.7641 8939.8086 3752770
854.75598 940.2829 8935.2354 3621184
887.71582 916.51379 8709.3652 3686977
911.37775 886.45404 8423.7158 3752770
957.24023 880.09656 8363.3027 3818563
974.39392 849.37366 8071.3521 3752770
985.18323 816.40833 7758.0918 3884356
1009.6802 797.36816 7577.1587 3950149
1042.7357 786.49347 7473.8193 3818563
1043.9087 753.53931 7160.6655 4015942
1075.5535 744.39038 7073.7261 3950149
1079.4753 717.53802 6818.5557 3884358
1089.6599 696.73444 6620.8652 3753029
1005.1639 619.13757 5883.4849 4015690
931.35223 553.37897 5258.6001 1647147
1014.5826 582.23505 5532.811 264982
1043.1826 578.86969 5500.8311 462623
1067.1687 573.24109 5447.3442 922664
1105.0454 575.19171 5465.8804 791079
1138.3071 574.69507 5461.1606 791080
1154.264 565.74567 5376.1172 791337
1187.4026 565.48633 5373.6528 922667
1223.9197 566.80603 5386.1934 923438
1246.0859 561.5871 5336.5996 923438
1275.0826 559.63898 5318.0869 857388
1304.55 557.99133 5302.4302 988974
1330.8418 555.10095 5274.9639 857386
1354.2854 551.19147 5237.813 857383
1394.8628 554.27539 5267.1187 660515
1441.842 559.70184 5318.6846 1055269
1475.1652 559.70184 5318.6846 3226437
nan nan nan 16777215
2031.9377 737.62531 7009.4399 3555652
2276.0938 808.77765 7685.5801 3621700
2396.772 834.01471 7925.4004 3358527
2498.5662 851.78949 8094.3091 3424320
2549.2793 851.78949 8094.3091 3621699
2634.7656 863.18158 8202.5645 3753284
2753.552 884.83844 8408.3633 3687747
2845.4253 897.19623 8525.7959 3687490
2936.8203 908.95062 8637.4941 3753283
3011.8586 915.30878 8697.9141 3819076
3140.9753 937.58337 8909.583 3819076
3265.1724 957.63708 9100.1484 3753283
3401.5657 980.51831 9317.5811 3753540
3553.1584 1006.9347 9568.6084 3753283
3609.5122 1005.9324 9559.084 3884869
3661.0874 1003.6528 9537.4209 3884869
3832.0862 1033.6594 9822.5664 3687493
3893.6274 1033.6594 9822.5664 3753283
4032.3242 1053.8235 10014.18 3819333
4031.8354 1037.5518 9859.5537 3687490
4268.8774 1081.9747 10281.692 3819076
4355.6279 1087.551 10334.682 3884869
4465.3223 1098.6086 10439.76 3950662
4415.9595 1070.7789 10175.303 3950662
4560.1523 1090.0067 10358.019 3885125
4430.7354 1044.212 9922.8447 3753283
4248.9038 987.50287 9383.9541 3687490
4292.4717 984.01257 9350.7861 3687490
4392.2456 993.32751 9439.3037 3819076
4452.6421 993.60785 9441.9678 3819333
4515.689 994.46448 9450.1084 3819334
4553.0166 989.70837 9404.9121 3688004
4566.7554 980.01166 9312.7666 3753028
4599.4917 974.5849 9261.1982 3753283
4600.5371 962.66217 9147.8994 3818563
4363.7119 901.87079 8570.2168 3950406
4280.8896 873.9989 8305.3584 3884356
4309.1748 869.20819 8259.834 3687234
4218.9937 840.91876 7991.0073 3621184
4247.7036 836.71204 7951.0322 3621440
4057.4946 789.98004 7506.9517 3687490
4104.5278 789.98004 7506.9517 3818563
4004.3018 761.9588 7240.6738 3950406
nan nan nan 16777215
nan nan nan 16777215
nan nan nan 16777215
nan nan nan 16777215
nan nan nan 16777215
nan nan nan 16777215
5250.6157 925.70215 8796.6797 3818308
5434.1279 948.10413 9009.5586 3818564
5365.0254 926.42432 8803.542 3818563
5411.5 924.94025 8789.4395 3818563
5466.5684 924.94025 8789.4395 3949892
5803.8296 972.21094 9238.6387 3949892
6186.4761 1026.0754 9750.498 3950149
6302.7568 1035.1398 9836.6338 4015685
6470.6763 1052.4274 10000.913 3949892
6658.9014 1072.6544 10193.124 4015685
6890.8779 1099.4778 10448.019 4081478
7034.832 1111.884 10565.912 3949892
7101.6758 1111.985 10566.872 4081478
7090.96 1100.052 10453.476 4081478
7131.5654 1096.2263 10417.121 4015942
7218.6528 1099.5502 10448.706 4015685
7388.7568 1115.3456 10598.807 4015685
7481.0425 1119.2175 10635.601 4015685
7587.2803 1125.0901 10691.405 4213064
7321.521 1076.1804 10226.631 4147271
7391.1919 1076.9961 10234.382 4081478
7373.4102 1065.1644 10121.948 3884099
7582.0176 1085.9597 10319.561 3949892
7423.769 1054.3036 10018.741 3884099
7159.9009 1008.3041 9581.6221 3949892
7080.5317 988.836 9396.6221 3884099
6929.105 959.70862 9119.833 3818306
6514.5459 894.91101 8504.0801 3884099
6233.853 849.40485 8071.6484 3686720
6062.2339 819.37354 7786.269 3752513
6050.5815 811.2702 7709.2656 3818306
6543.2266 870.37653 8270.9365 3818306
6595.0464 870.37653 8270.9365 3818306
6772.0391 886.7674 8426.6934 3752513
6827.5503 887.12024 8430.0459 3752513
6943.4907 895.25909 8507.3877 3752770
6984.0493 893.62866 8491.8936 3752513
7125.2788 904.8064 8598.1133 3686720
7313.0117 921.67755 8758.4346 3752513
7546.3789 944.00598 8970.6152 3818306
7602.4575 943.99036 8970.4668 3686720
7379.4702 909.578 8643.4561 3752513
7585.0713 928.10913 8819.5518 3620927
7891.6646 958.6402 9109.6797 3752769
8068.5093 973.08478 9246.9424 3884099
8366.1064 1001.7825 9519.6494 3686977
8392.0469 997.77545 9481.5713 3686720
8270.832 976.45154 9278.9355 3686720
7738.4097 907.2171 8621.0215 3752769
7455.2407 867.96136 8247.9854 4014658
7468.2881 863.49506 8205.543 4014915
7568.8423 869.13831 8259.1689 3949122
7459.2803 850.74078 8084.3433 3949122
7450.8271 844.04547 8020.7197 4080451
7532.1841 847.54541 8053.9785 3949378
7688.6704 859.39636 8166.5947 4080451
7923.9834 879.84326 8360.8955 4080706
7976.3677 879.84326 8360.8955 4212293
8376.0127 917.89844 8722.5225 4212550
8424.2422 917.19946 8715.8809 4081482
8622.9863 932.79144 8864.0469 4081224
8672.4863 932.1427 8857.8818 4212810
8727.9834 932.1427 8857.8818 4278860
8783.9287 932.19012 8858.333 4410189
8629.8057 910.08368 8648.2617 4475981
8669.3604 908.5506 8633.6924 4409675
8660.2744 901.97046 8571.1641 4343882
8543.4922 884.32404 8403.4746 4277833
8545.8926 879.15454 8354.3506 4146247
nan nan nan 16777215
nan nan nan 16777215
nan nan nan 16777215
nan nan nan 16777215
-5966.8999 699.63226 6276.6826 3226428
-6083.064 717.98474 6441.3296 3160635
-6074.9058 721.81049 6475.6523 3226428
-6034.3584 721.81335 6475.6782 3226684
-6012.0039 724.00732 6495.3608 3489087
-6036.3945 731.89886 6566.1592 3620927
-6031.084 736.27283 6605.3994 3621183
-5991.9043 736.54388 6607.8315 3621183
-5951.8843 736.71466 6609.3633 3620927
-5973.6401 744.58801 6679.9985 3620927
-5957.1616 747.77307 6708.5728 3752513
-5915.1304 747.77307 6708.5728 3686720
-5960.2583 758.87036 6808.1309 3686720
-6021.7363 772.2243 6927.9346 3686720
-6022.9492 777.98767 6979.6401 3752256
-6006.7153 781.56531 7011.7363 3752513
-5971.0469 782.64825 7021.4521 3555134
-5962.2915 787.30109 7063.1948 3555134
-5929.8418 788.8714 7077.2822 3423548
-5901.5527 791.02295 7096.585 3620927
-5894.4106 796.06311 7141.8027 3489341
-5866.2344 798.31805 7162.0322 3423548
-5824.27 798.71686 7165.6104 3357755
-5778.5576 798.60388 7164.5962 3160376
-5746.0151 800.32343 7180.0229 3094583
-5751.0903 807.35101 7243.0703 3226169
-5716.8779 808.93121 7257.2471 3291962
-5688.1875 811.3244 7278.7173 3357755
-5659.6187 813.77374 7300.6914 3423548
-5755.603 834.31793 7485.0015 3423548
-5764.2432 842.43433 7557.8174 3423548
-5789.3179 853.10712 7653.5669 3357755
-5758.3662 855.63312 7676.229 3423548
-5652.814 847.02356 7598.9893 3489341
-5497.9194 830.8114 7453.543 3423548
-5459.4116 832.05963 7464.7422 3291962
-5431.3296 834.93237 7490.5142 3226426
-5348.5996 829.38116 7440.7119 3160633
-5285.4839 826.80048 7417.5596 2831668
-5211.7432 822.49731 7378.9536 2831668
-5171.4697 823.44592 7387.4644 3094840
-4835.0303 776.82776 6969.2344 3555391
-4657.499 755.12384 6774.5195 3752770
-4448.9873 727.9516 6530.7466 3752770
-4289.9473 708.44476 6355.7427 3686977
-4173.4082 695.65668 6241.0156 3555904
-4094.094 688.89038 6180.3125 3490111
-4045.3811 687.19312 6165.0859 3621697
-3920.7476 672.44214 6032.749 3555904
-3683.4741 637.89716 5722.832 3555904
-3499.2979 611.95874 5490.1279 3555904
-3308.5291 584.34094 5242.3579 3687490
-3159.7361 563.65729 5056.7964 3621697
nan nan nan 16777215
nan nan nan 16777215
nan nan nan 16777215
-2556.9438 475.1853 4263.0786 3688006
-2512.4619 471.8476 4233.1343 4609108
-2530.675 480.33856 4309.3105 4674901
-2478.1223 475.43604 4265.3281 4345936
-2472.4392 479.51675 4301.9375 3622470
-2763.9978 541.97125 4862.2417 3293249
-3360.1184 666.20251 5976.7705 3555904
-3487.8608 699.32324 6273.9102 3621953
-3646.6455 739.4939 6634.2974 3752770
-3706.0403 760.20349 6820.0913 4015942
-3672.7898 762.17078 6837.7402 4015942
-3715.2205 780.07489 6998.3657 3818563
-3724.5212 791.36743 7099.6758 3752770
-3758.0356 808.14001 7250.1489 3621441
-3817.3535 830.93964 7454.6938 3621184
-3823.1558 842.51086 7558.5039 3884356
-3849.2837 858.90778 7705.6069 3818564
-3933.2241 888.7851 7973.6479 3818564
-3954.0181 904.97827 8118.9238 4147529
-3926.1687 910.31525 8166.8042 4081736
-3895.981 915.24384 8211.0205 4081991
-3865.3564 920.20032 8255.4873 3950660
-3844.8689 927.73724 8323.1035 3950403
-3802.8381 930.21173 8345.3037 3884610
-3763.8059 933.4989 8374.7939 3753024
-3744.7456 941.90259 8450.1865 3884610
-3710.1995 946.59613 8492.2949 3818817
-3630.5439 939.75012 8430.876 3884610
-3569.7834 937.66486 8412.1689 3818817
-3517.0789 937.66486 8412.1689 3884612
-3472.1511 939.7699 8431.0537 3949893
-3419.3279 939.7699 8431.0537 4016198
-3385.7822 945.15125 8479.332 3950662
-3353.8569 951.16376 8533.2725 3950919
-3307.1677 953.11615 8550.7881 3950662
-3255.5657 953.6936 8555.9688 4082505
-3230.3442 962.14771 8631.8145 4082504
-3170.8201 960.49896 8617.0225 3950919
-3104.1689 956.59674 8582.0137 3950662
-3050.7249 956.69861 8582.9277 3819076
-3001.0813 958.0174 8594.7588 3950662
-2931.4241 952.87878 8548.6582 4148041
-2870.1445 950.32281 8525.7275 4082248
-2828.1875 954.18896 8560.4131 4081992
-2783.8479 957.38519 8589.0879 3950662
-2754.2668 965.88312 8665.3262 4016198
-2697.9192 965.14734 8658.7246 3884869
-2650.1621 967.5177 8679.9902 3819076
-2609.3347 972.57007 8725.3174 3884612
-2569.1511 978.08392 8774.7842 3884869
-2526.4131 982.84515 8817.499 4016455
-2471.1687 982.84515 8817.499 3819333
-2427.0068 987.3537 8857.9473 3819076
-2375.7131 989.10406 8873.6504 3884869
-2350.3936 1002.0114 8989.4473 3884869
-2274.7104 993.55469 8913.5791 3884869
-2214.7219 991.69989 8896.9385 3753540
-2145.4922 985.50452 8841.3574 3819333
-2082.7617 982.04529 8810.3232 3753026
-2028.8468 982.66742 8815.9043 3687233
-1972.1716 981.94995 8809.4678 3686977
-1905.597 976.12042 8757.1689 3753281
-1835.3086 967.98651 8684.1963 3753281
-1781.3483 968.23041 8686.3848 3753281
-1732.1333 971.15027 8712.5801 3884609
-1692.2444 979.65924 8788.917 3686974
-1650.9147 987.87836 8862.6543 3686974
-1598.6342 989.88885 8880.6904 3621437
-1544.7537 991.01782 8890.8193 3621693
-1492.0238 992.99695 8908.5752 3621693
-1438.6443 994.68079 8923.6816 3621438
-1378.2612 991.46295 8894.8125 3489598
-1326.8358 994.68896 8923.7549 3686977
-1276.6228 999.14777 8963.7568 4015942
-1223.8452 1001.9175 8988.6045 4081735
-1177.1647 1010.1865 9062.7891 4147272
-1083.8438 977.24066 8767.2188 4279114
-1039.7346 987.5174 8859.416 4081735
-990.5929 993.90399 8916.7129 3950149
-946.11969 1006.0181 9025.3926 4015942
-899.73749 1017.5132 9128.5205 3950149
-857.21503 1035.2305 9287.4688 3950149
-790.2265 1023.8295 9185.1855 3884613
-732.67841 1023.8295 9185.1855 3884356
-667.3606 1012.0465 9079.4766 3752770
-613.34491 1016.8044 9122.1621 4015942
-558.3877 1020.8192 9158.1787 4081735
-506.53049 1032.0696 9259.1113 4015942
-438.76266 1009.6189 9057.6973 3884613
-382.50943 1010.9301 9069.46 3818563
-328.05383 1018.2784 9135.3848 3686977
-266.60565 1002.4406 8993.2979 3818563
-213.88016 1019.7009 9148.1465 3752770
-154.10689 1003.6965 9004.5645 3818563
-97.905655 1005.907 9024.3965 3686977
-41.948296 1020.0911 9151.6475 3686977
15.232044 1009.6465 9057.9453 3686977
71.98288 1009.6465 9057.9453 3752770
129.53322 1015.9171 9114.2002 3818563
186.95268 1017.638 9129.6396 3752770
244.15269 1017.638 9129.6396 3818564
299.50629 1011.4028 9073.7012 4015942
357.16779 1013.7072 9094.375 3884356
413.07022 1011.072 9070.7334 3884356
465.4071 1001.4022 8983.9814 3686977
521.69458 1001.4022 8983.9814 3818306
578.26935 1001.9001 8988.4482 3555391
636.30493 1004.6159 9012.8135 3621184
