# .PCD v0.7 - Point Cloud Data file format
VERSION 0.7
FIELDS x y z rgb
SIZE 4 4 4 4
TYPE F F F U
COUNT 1 1 1 1
WIDTH 1270
HEIGHT 1
VIEWPOINT 0 0 0 1 0 0 0
POINTS 1270
DATA ascii
2492.2903 685.39117 2757.3052 3159603
2520.7319 688.4408 2769.5737 3423292
2526.7603 685.36926 2757.217 3292219
2548.1165 686.46875 2761.6404 3357755
2565.4189 686.46875 2761.6404 3292219
2580.793 685.95618 2759.5784 3358012
2591.2439 684.15057 2752.3145 3489340
2623.2075 688.01123 2767.8457 3160376
2640.5491 688.01123 2767.8457 3159606
2619.428 678.05499 2727.792 3225399
2631.9055 676.86859 2723.0193 3225142
2647.313 676.44623 2721.3201 3291192
2664.1072 676.38129 2721.0588 3356985
2695.3887 679.97198 2735.5039 3291192
2699.4238 676.68719 2722.2893 3225399
2685.6465 669.00647 2691.3901 2962227
2693.9053 666.87659 2682.8218 2896434
2706.8469 665.92523 2678.9946 3159863
2723.6318 665.92523 2678.9946 3422778
2740.0103 665.8266 2678.5977 3291192
nan nan nan 16777215
nan nan nan 16777215
nan nan nan 16777215
nan nan nan 16777215
nan nan nan 16777215
nan nan nan 16777215
nan nan nan 16777215
nan nan nan 16777215
nan nan nan 16777215
-2283.9585 633.03821 2484.4026 4015942
-2275.8689 635.12451 2492.5906 4015942
-2260.2522 635.12451 2492.5906 3949892
-2236.1785 632.73169 2483.1997 3818306
-2227.7341 634.75861 2491.1545 3620927
-2219.5469 636.88788 2499.511 3686977
-2205.8523 637.45593 2501.7402 3818306
-2198.2769 639.81311 2510.9912 3884099
-2183.0325 639.95605 2511.5522 3950149
-2182.9929 644.59082 2529.7417 3620927
-2154.936 640.9599 2515.4919 3489341
-2136.6567 640.20514 2512.5298 3752513
-2120.915 640.20514 2512.5298 3620927
-2118.2488 644.18158 2528.1357 3752770
-2115.0869 648.06604 2543.3804 3686720
-2104.3376 649.66699 2549.6636 3752513
-2074.6973 645.41571 2532.979 3489598
-2066.7615 647.90295 2542.7405 3686720
-2066.3804 652.81549 2562.02 4081735
-2070.5232 659.24542 2587.2549 4673615
-2060.0645 661.09106 2594.498 4476493
-2054.9075 664.68079 2608.5864 4015942
-2032.7874 662.79742 2601.1948 3818563
-2024.0084 665.26862 2610.8933 3686977
-2009.1554 665.76733 2612.8506 3818563
-1992.8851 665.80078 2612.9817 3686977
-1967.4529 662.74847 2601.0027 3687234
-1946.8445 661.28369 2595.2542 3686977
-1936.1495 663.18994 2602.7354 3555648
-1928.5408 666.1947 2614.5276 3621184
-1911.9359 666.11658 2614.2212 3489598
-1889.0153 663.81775 2605.1992 3621184
-1881.9 667.08148 2618.0078 3555391
-1859.6313 664.98383 2609.7754 3686977
-1844.6611 665.48193 2611.7305 3686977
-1832.547 667.02863 2617.8005 3160633
-1806.2109 663.37982 2603.4805 3029047
-1789.8993 663.37982 2603.4805 3292475
-1779.7765 665.69464 2612.5652 3555391
-1748.9752 660.24622 2591.1824 3686977
-1730.4528 659.37445 2587.761 3752770
-1701.1141 654.32568 2567.947 3752770
-1684.9414 654.29327 2567.8196 3686977
-1667.2456 653.66296 2565.3459 3621184
-1652.6283 654.23907 2567.6069 3621184
-1641.1753 656.09155 2574.8772 3621184
-1622.1079 654.90662 2570.2268 3621185
-1600.8098 652.78827 2561.9131 3489598
-1588.6953 654.40985 2568.2771 3423803
-1572.6042 654.40985 2568.2771 3489852
-1553.4166 653.10791 2563.1677 3358266
-1532.9961 651.25507 2555.896 3358266
-1528.4296 656.16931 2575.1824 3555645
-1512.2952 656.16931 2575.1824 3358266
-1489.5524 653.271 2563.8076 3160887
-1472.1052 652.65735 2561.3994 3226680
-1456.9783 653.07025 2563.0198 3226680
-1444.2972 654.60077 2569.0266 3292473
-1427.0605 654.07788 2566.9744 3095094
-1408.3192 652.84558 2562.1379 3029301
-1387.9824 650.83667 2554.2539 3095094
-1371.9792 650.83667 2554.2539 3160374
-1353.543 649.66882 2549.6707 3094581
-1339.9045 650.80341 2554.1235 3094581
-1333.5339 655.53821 2572.7056 3160374
-1310.2856 651.9906 2558.7827 3357496
-1294.254 651.9906 2558.7827 3226680
-1279.8778 652.83496 2562.0964 3292473
-1268.5728 655.28717 2571.7205 3358266
-1251.2289 654.64301 2569.1921 3358266
-1235.9845 655.09479 2570.9653 3292473
-1216.493 653.27777 2563.8342 3095094
-1197.4156 651.63739 2557.3965 3358266
-1179.3501 650.51074 2552.9749 3424059
-1170.8364 654.69415 2569.3931 3160887
-1161.891 658.74939 2585.3081 3095094
-1152.8588 662.86945 2601.4775 3424059
-1129.0713 658.50201 2584.3372 3489852
-1112.8796 658.50201 2584.3372 3160887
-1083.4832 650.57324 2553.2202 2963508
-1104.3882 673.06281 2641.4819 3687231
-1094.2277 677.01593 2656.9963 3621437
-1055.5092 663.14893 2602.5742 3358523
-1023.4182 653.07593 2563.042 3029558
-1009.1399 654.22992 2567.571 2897715
-1007.8668 663.98914 2605.8718 3095606
-989.14502 662.38525 2599.5771 3160888
-973.98022 663.14941 2602.5762 3095352
-954.84949 661.19336 2594.8994 3292474
-941.16412 663.00549 2602.0115 3424575
-939.76746 673.69098 2643.9473 3753283
-939.29791 685.43646 2690.0435 3819333
-905.01465 672.48535 2639.2158 3687490
-883.29553 668.56195 2623.8181 3687490
-868.81635 670.07343 2629.75 4279370
-852.34015 670.07343 2629.75 3819075
-839.909 673.31616 2642.4763 3687490
-820.07013 670.63153 2631.9402 3490111
-800.9837 668.46454 2623.4358 3621953
-784.51208 668.43469 2623.3188 3555904
-768.66461 668.94684 2625.3286 3621954
-751.98022 668.73706 2624.5054 3621697
-735.13086 668.36792 2623.0566 3753283
-721.86237 671.31201 2634.6108 3885125
-711.08313 676.763 2656.0037 3884356
-687.86646 670.35443 2630.8528 4081989
-674.57056 673.53674 2643.342 3621438
-659.56049 675.12463 2649.574 3621438
-641.40332 673.49005 2643.1587 3687231
-624.94287 673.59753 2643.5806 3424058
-626.88043 694.08112 2723.97 2831152
-605.31946 688.96564 2703.8938 2831408
-578.19147 677.03674 2657.0781 3357753
-556.26166 670.66791 2632.0833 3226167
-539.77081 670.66791 2632.0833 2962995
-526.30865 674.54968 2647.3174 2962995
-507.08405 671.05817 2633.6147 3094581
-489.66833 669.80621 2628.7012 2699823
-476.25143 674.1272 2645.6594 3291960
-462.56281 678.36145 2662.2771 3620926
-443.45874 674.67352 2647.8035 3621184
-421.57401 666.30408 2614.9568 3884099
-404.23935 664.73993 2608.8184 3884099
-386.4408 662.24908 2599.0427 3423548
-370.15698 662.24908 2599.0427 3686977
-352.73932 660.12714 2590.7151 3752513
-337.38895 661.85583 2597.4995 4147271
-321.21222 662.05664 2598.2876 4015685
-303.60245 659.16748 2586.949 3686977
-291.37296 668.29272 2622.7615 3752770
-272.10419 661.39844 2595.7043 3292219
-255.84129 661.39844 2595.7043 3292219
-238.61235 658.73151 2585.2378 3358012
-222.99556 660.45081 2591.9854 3358012
-207.61243 663.18671 2602.7227 3555391
-191.30557 663.18671 2602.7227 3686977
-174.50194 661.30408 2595.3342 3094840
-157.54755 658.4046 2583.9548 3094839
-140.83949 655.98834 2574.4719 2963253
-123.94508 651.96667 2558.6887 2963253
-109.85636 663.70087 2604.7405 3752769
-92.628868 657.25818 2579.4556 3358009
-76.750427 659.68762 2588.9902 2897202
-60.079048 654.77722 2569.719 3028787
-43.832546 652.59735 2561.1638 2831408
-27.61343 648.54285 2545.2517 2963508
-11.649639 647.59784 2541.543 2831667
4.3593607 660.54474 2592.354 2765875
20.56702 659.44684 2588.0452 3489598
36.206211 649.12512 2547.5369 3489598
51.749092 643.92108 2527.1133 3555391
66.92955 637.70221 2502.707 3621184
82.453949 636.49927 2497.9858 3489598
98.475204 638.90369 2507.4221 3358012
114.18498 638.90369 2507.4221 3884356
129.92924 639.0733 2508.0879 3489855
151.04556 662.77863 2601.1208 3358012
167.45372 663.21954 2602.8513 3029047
183.72955 663.10461 2602.4004 2897461
200.63332 665.09003 2610.1921 3226426
217.24538 665.88196 2613.3003 3358012
233.54715 665.67859 2612.5022 3292219
250.0208 665.95966 2613.6052 3621184
267.99673 669.96167 2629.3115 3292219
284.88962 670.94952 2633.1882 3160633
301.30118 670.75769 2632.4353 3555391
319.29474 673.9248 2644.865 3160633
335.92599 674.0459 2645.3403 3226426
352.18323 673.44037 2642.9639 3292219
368.62024 673.21759 2642.0896 3423805
385.17374 673.21759 2642.0896 2831668
399.7352 669.87933 2628.9883 2568496
415.24503 668.33167 2622.9143 2766132
432.81363 670.08923 2629.812 3160633
449.75891 670.78821 2632.5554 3226426
467.35611 672.37567 2638.7854 2766132
487.78043 677.78308 2660.0071 2239531
497.19406 668.039 2621.7656 2239531
513.01868 667.25653 2618.6948 2699826
530.69934 668.86188 2624.9951 2700081
547.21246 668.94348 2625.3154 2897714
560.3642 665.03101 2609.9607 2831921
575.82214 663.99982 2605.9136 2832178
593.10181 665.06824 2610.1067 2897971
610.82782 666.56641 2615.9863 3095094
629.02893 668.49115 2623.5403 3226424
645.74255 668.77728 2624.6633 3160118
661.12604 667.70587 2620.4585 2962995
675.69501 665.88379 2613.3074 3160374
692.79053 666.57874 2616.0349 3094838
709.18079 666.57874 2616.0349 2897202
722.75787 663.99432 2605.8921 3029045
738.57111 663.53296 2604.0815 3423546
756.39221 664.85645 2609.2756 3489339
770.42651 662.86584 2601.4634 3357496
786.83319 662.9566 2601.8196 2832178
803.1344 662.9566 2601.8196 2897715
826.24915 668.46899 2623.4534 3226936
841.48157 667.51367 2619.7041 3818563
852.48395 663.30353 2603.1812 4147528
873.53333 666.92218 2617.3828 4015943
889.28656 666.43848 2615.4844 3884357
902.58789 664.16797 2606.5737 3818564
922.29987 666.61169 2616.1641 3818818
938.88708 666.75098 2616.7107 3818561
968.10327 675.70007 2651.832 3621438
982.59973 674.24658 2646.1279 3555645
1006.0538 678.88611 2664.3359 3687231
1022.3629 678.63123 2663.3357 3621693
1033.4187 674.95361 2648.9026 3687230
1047.9305 673.61383 2643.6445 3555391
1072.1149 678.43646 2662.5713 3358012
1084.3313 675.65399 2651.6514 3818563
1094.6287 671.77789 2636.4392 3884099
1118.4999 676.22339 2653.886 3621184
1136.5038 677.0434 2657.104 3884356
1149.0797 674.65283 2647.7222 3950406
1167.0065 675.42719 2650.7612 3818563
1183.1576 675.16663 2649.7385 3884356
1197.9039 674.12262 2645.6414 4147528
1214.908 674.36035 2646.5742 4081735
1230.2021 673.6554 2643.8076 4081735
1232.2445 665.80878 2613.0132 4081735
1256.526 670.02686 2629.5671 3753027
1277.7229 672.51208 2639.3208 3621184
1293.1841 671.95355 2637.1287 3884356
1306.3221 670.21716 2630.3142 4015942
1310.5079 663.98828 2605.8684 4015942
1322.3218 661.72992 2597.0054 4279114
1328.6667 656.823 2577.7478 3950149
1358.6527 663.58044 2604.2678 3358012
1377.7303 664.91302 2609.4976 3423805
1393.7437 664.75275 2608.8687 3094840
1391.9645 656.20837 2575.3357 2765875
1406.8218 655.61285 2572.9983 3489341
1419.7434 654.13885 2567.2136 3357754
1436.8562 654.60742 2569.0525 3160374
1444.0178 650.58215 2553.2551 3226167
1476.6497 657.99469 2582.3462 3883841
1492.8289 657.99469 2582.3462 3818304
1500.7772 654.40564 2568.2607 3686718
1532.8167 661.28613 2595.2637 3818304
1548.027 660.83801 2593.5049 3752511
1543.6516 652.12506 2559.3103 3423546
1556.0756 650.6153 2553.3853 3489339
1580.7188 654.19324 2567.4272 3357753
1595.5585 653.6828 2565.4238 3226167
1603.4805 650.37659 2552.4485 3291960
1618.1753 649.85571 2550.4043 3489339
1644.4591 653.95367 2566.4868 3226167
1672.0745 658.49652 2584.3157 3226167
1693.0953 660.38019 2591.7083 3094580
1709.1909 660.32526 2591.4927 2897461
1723.6156 659.63184 2588.7712 3028790
1739.835 659.63184 2588.7712 3160376
1761.8774 661.81915 2597.3555 3029047
1785.4454 664.53424 2608.011 3028790
1790.5033 660.37311 2591.6804 2897204
1792.7155 655.24677 2571.5618 2765618
1821.826 659.95563 2590.042 3160376
1861.1492 668.24811 2622.5864 3291962
1885.6487 671.11969 2633.8562 2962997
1894.4984 668.41986 2623.2605 3028790
1896.7556 663.46045 2603.7969 2962997
1914.4675 663.94537 2605.7 2897204
1940.3589 667.2348 2618.6096 2831668
1963.0293 669.37079 2626.9924 2897204
1981.7356 670.13068 2629.9749 2831411
1991.1539 667.76324 2620.6836 2700082
2005.3176 667.01294 2617.739 2962997
2032.3009 670.50439 2631.4414 2897205
2047.2659 670.00629 2629.4866 2765618
2063.5383 669.94067 2629.229 2634032
2081.4934 670.41803 2631.1025 2568236
2097.978 670.41803 2631.1025 2568493
2093.6404 663.8161 2605.1926 2831666
2123.4177 668.04913 2621.8057 3292217
2140.9001 668.37885 2623.0994 3620926
2155.4912 667.80768 2620.8579 3621184
2206.0352 678.29987 2662.0352 3489600
2218.7 677.07495 2657.228 3489341
2230.4006 675.57629 2651.3464 3489341
2247.0122 675.57629 2651.3464 3489340
2243.0864 669.44702 2627.2915 3620156
2265.8362 671.31024 2634.604 3291190
2286.4165 672.50848 2639.3064 2764846
2309.0132 674.27832 2646.2524 2567467
2333.2344 676.4939 2654.9475 2699053
2349.8684 676.4939 2654.9475 2896432
2366.947 676.62097 2655.4463 2830639
2377.7554 674.96637 2648.9526 2896432
2395.4502 675.27588 2650.1675 2764846
2412.0542 675.27588 2650.1675 2962226
2433.302 676.56702 2655.2346 3093813
2454.7136 677.88586 2660.4106 3488058
2470.9705 677.77307 2659.9678 3554107
2485.009 677.05731 2657.1587 3422778
2493.5796 674.87122 2648.5793 3291962
2508.5806 674.44293 2646.8984 3291962
2525.1064 674.42755 2646.8379 3226426
2524.2959 669.81219 2628.7246 3292219
2533.0059 667.76636 2620.6958 3226426
2551.3926 668.28168 2622.7183 3358012
2567.8247 668.28168 2622.7183 3028790
2586.2922 668.80804 2624.7839 3290935
2596.6702 667.24902 2618.6653 3291192
2610.2048 666.51562 2615.7871 3093813
2621.0347 665.10504 2610.2512 3291192
2641.5273 666.14868 2614.3472 3422778
2663.374 667.51886 2619.7244 3488571
2676.427 666.68182 2616.4395 3291192
nan nan nan 16777215
nan nan nan 16777215
nan nan nan 16777215
nan nan nan 16777215
nan nan nan 16777215
nan nan nan 16777215
nan nan nan 16777215
nan nan nan 16777215
nan nan nan 16777215
-2226.314 632.15344 2421.6992 3489341
-2221.5369 635.12555 2433.0847 3357755
-2206.1663 635.08905 2432.9451 3357755
-2188.8606 634.49115 2430.6545 3620927
-2175.561 635.05432 2432.812 3620927
-2165.4153 636.55255 2438.5515 3818306
-2151.9651 637.09369 2440.6248 4015685
-2141.9456 638.66565 2446.6465 3949892
-2133.3857 640.69855 2454.4343 4081478
-2121.3196 641.70038 2458.2722 4015685
-2113.2866 643.94568 2466.8738 4015685
-2096.7261 643.60651 2465.5745 3818306
-2077.1594 642.33282 2460.6951 3752513
-2061.1709 642.15479 2460.0129 3489341
-2041.8569 640.93018 2455.3218 3226169
-2034.2927 643.40326 2464.7957 2962997
-2031.0226 647.28259 2479.657 3489341
-2006.5824 644.42291 2468.7019 3686720
-2010.5962 650.72791 2492.8555 3555134
-2012.4274 656.41974 2514.6602 3226426
-1997.0807 656.55396 2515.1746 3160633
-1967.3768 651.93286 2497.4717 3160633
-1966.4823 656.86072 2516.3496 3029047
-1945.6019 655.13849 2509.752 3226426
-1928.1174 654.54095 2507.4629 3489598
-1916.751 656.02765 2513.1582 3621184
-1904.9247 657.38019 2518.3396 3555391
-1889.1465 657.38019 2518.3396 3686977
-1868.9968 655.84625 2512.4631 3621184
-1866.2444 660.44287 2530.0723 3621184
-1848.3536 659.71503 2527.2839 3621184
-1831.1616 659.2262 2525.4114 3621184
-1820.0297 660.92957 2531.9368 3621184
-1791.363 656.23926 2513.9688 4015686
-1769.5724 654.00702 2505.4175 4081735
-1757.4026 655.32239 2510.4565 4081992
-1741.674 655.32239 2510.4565 4015942
-1718.6407 652.54901 2499.832 3818820
-1701.4863 651.97723 2497.6416 4015942
-1679.2826 649.44214 2487.9299 3752770
-1660.2584 648.10065 2482.7908 3752770
-1645.8275 648.54376 2484.4883 3686976
-1630.2614 648.54376 2484.4883 3687231
-1616.6903 649.34503 2487.5579 3621182
-1606.1681 651.39838 2495.4241 3686976
-1583.4871 648.51257 2484.3689 3686976
-1572.4178 650.37219 2491.4929 3489855
-1566.0215 654.22131 2506.2383 3292219
-1534.3143 647.46741 2480.365 3358267
-1518.774 647.46741 2480.365 3292473
-1502.1249 646.98981 2478.5354 3358266
-1489.1235 648.08978 2482.7493 3489852
-1485.7708 653.45654 2503.3086 3555901
-1457.5732 647.89423 2482.0002 3424059
-1439.5078 646.76428 2477.6714 3555388
-1423.6858 646.62866 2477.1519 3555646
-1397.141 641.56616 2457.7581 3489852
-1392.9542 646.77197 2477.7009 3160888
-1379.7612 647.86627 2481.8931 3226680
-1363.2362 647.4032 2480.1189 3094324
-1348.1285 647.61023 2480.9121 3094325
-1332.4272 647.53363 2480.6187 3028788
-1316.1904 647.19189 2479.3096 3094581
-1305.5554 649.62946 2488.6475 3160374
-1288.5101 648.89764 2485.844 3094838
-1272.9355 648.89764 2485.844 3094581
-1255.4965 647.93536 2482.1577 3226167
-1239.8494 647.88544 2481.9663 3357753
-1226.4761 649.03748 2486.3796 3358522
-1209.1261 648.08765 2482.741 3424059
-1194.3232 648.49615 2484.3059 3490109
-1180.2092 649.29437 2487.3638 3621438
-1158.4863 645.87189 2474.2527 3358523
-1145.0465 647.03717 2478.7168 2963508
-1132.8845 648.96649 2486.1079 2897715
-1134.6827 659.05811 2524.7673 3884610
-1108.4698 652.9353 2501.3118 4016196
-1100.2534 657.38965 2518.3757 3818817
-1088.8488 660.04095 2528.5325 3884610
-1071.6615 659.21344 2525.3625 3753024
-1055.8394 659.21344 2525.3625 3358266
-1042.415 660.73334 2531.1851 3029301
-1020.554 656.87 2516.385 3555645
-1012.1241 661.66583 2534.7573 3160887
-996.78967 662.02887 2536.1482 2766129
-983.70996 663.92542 2543.4136 3424059
-963.26825 660.8338 2531.5701 3358266
-947.4071 660.8338 2531.5701 3029301
-929.55615 659.42224 2526.1624 3160887
-917.13928 661.88342 2535.5908 3292732
-902.82788 663.03992 2540.0212 3029560
-904.35358 676.07751 2589.9668 3621697
-885.37622 673.98383 2581.946 3819076
-864.99664 670.72491 2569.4614 3687490
-851.9823 673.16174 2578.7966 3819076
-831.46399 669.64911 2565.3403 3621954
-825.90118 678.2804 2598.4058 3358525
-793.35175 664.65021 2546.1899 3489598
-778.75201 665.80682 2550.6211 3555135
-764.37372 667.20532 2555.9785 3555391
-748.43781 667.27496 2556.2451 3555391
-733.12646 667.91663 2558.7034 3818563
-710.9007 662.14679 2536.5999 3818563
-707.10687 673.67346 2580.7571 3818563
-684.01178 666.92065 2554.8879 3884356
-672.36261 671.27161 2571.5559 2831922
-653.492 668.44946 2560.7446 3555388
-641.86133 673.07727 2578.4731 4081988
-622.01617 669.10767 2563.2661 4147782
-607.64728 670.97467 2570.4182 4082245
-590.87427 670.21631 2567.5132 4871252
-572.92633 668.04553 2559.1973 3950149
-554.7948 665.52954 2549.5588 3357498
-539.79272 666.7298 2554.1567 3818306
-526.44824 670.11328 2567.1184 3950146
-505.6611 663.93774 2543.4607 3752510
-492.75204 668.04095 2559.1794 3357753
-476.46143 667.68134 2557.802 3094840
-467.55331 678.0022 2597.3398 4015686
-447.2377 671.92883 2574.0735 4344650
-427.06155 665.61835 2549.8989 4410443
-410.42511 664.54883 2545.8018 3884099
-392.92938 661.94531 2535.8279 3686720
-377.72821 663.15063 2540.4453 3949635
-364.44992 667.98645 2558.9707 4147271
-342.20743 656.08105 2513.3628 3423548
-326.00916 655.17419 2509.8887 3291705
-310.10391 654.79401 2508.4324 3620927
-293.81213 653.51367 2503.5273 3358012
-277.49527 652.02985 2497.843 3029047
-261.9996 652.41351 2499.313 3358012
-246.26225 652.20593 2498.5176 3489598
-232.1503 656.56714 2515.2249 3555391
-216.15948 655.86279 2512.5266 3489598
-200.41774 655.86279 2512.5266 3423805
-184.86713 656.54163 2515.1272 3686977
-170.59784 662.32153 2537.2693 3358012
-154.14664 659.94788 2528.176 3292476
-136.92619 653.35999 2502.9387 3029047
-121.94711 657.14624 2517.4434 3160888
-106.17455 657.14624 2517.4434 3095096
-89.295929 649.10614 2486.6426 2765874
-73.358696 645.95685 2474.5781 2831152
-58.236137 650.21576 2490.8936 2831409
-42.770588 652.36133 2499.113 2897202
-26.963026 648.75592 2485.301 3028788
-11.362128 647.0636 2478.8181 2897460
4.1677117 646.95117 2478.3875 3094840
19.613901 644.26831 2468.1096 3489598
34.695683 637.25787 2441.2534 3686977
50.012352 637.53137 2442.3013 3818563
66.059883 644.81067 2470.1873 3160633
81.576164 645.12543 2471.3931 3226426
97.01593 644.83105 2470.2654 3686977
112.08951 642.51868 2461.407 4871251
127.57195 642.82587 2462.584 3621184
144.24899 648.43689 2484.0789 3489598
160.70363 652.05249 2497.9299 3555135
177.29932 655.54797 2511.3206 3489598
197.07953 669.28839 2563.9583 3621184
212.72794 667.9834 2558.959 3555391
225.96844 659.8302 2527.7253 3489598
242.89278 662.79736 2539.092 3423805
258.80096 662.79736 2539.092 3160633
274.99808 663.49445 2541.7625 3094840
291.16238 664.04034 2543.8538 3094840
306.2298 662.15784 2536.6421 3226683
322.23911 662.39722 2537.5591 3029304
339.83588 665.72382 2550.303 2897461
353.55701 661.50049 2534.1238 2897718
366.14856 655.61749 2511.5869 2502704
382.39847 656.49994 2514.9675 2634290
400.33176 660.08826 2528.7139 2568753
418.67343 664.05115 2543.895 2371117
437.07034 667.80768 2558.2859 2765619
453.71637 668.7179 2561.7729 2765876
476.03796 677.64514 2595.9719 3292729
485.02536 667.62823 2557.5986 3095351
498.98627 664.87909 2547.0669 2831922
514.98047 664.9256 2547.2451 2634799
533.02405 667.53589 2557.2446 2963508
544.09711 661.51904 2534.1948 2831922
562.45856 664.45337 2545.436 2897715
576.43109 662.18408 2536.7427 2766129
591.83563 661.63745 2534.6487 2700336
607.716 661.63745 2534.6487 2700592
625.55884 663.71967 2542.6252 2963251
638.89215 661.03259 2532.3315 2897202
660.21863 666.54559 2553.4512 3160374
676.21686 666.54559 2553.4512 2962995
697.85919 671.98047 2574.2715 2634030
699.05792 657.92908 2520.4424 3160374
713.72314 656.89264 2516.4717 3423546
733.72571 660.70715 2531.0847 3094581
750.0636 661.13007 2532.7048 3028532
764.84155 660.18903 2529.0999 3029301
783.0885 662.21973 2536.8794 2897715
795.17615 659.06464 2524.7925 3029301
810.99475 659.06464 2524.7925 3687231
827.72894 659.79443 2527.5884 4147527
840.58514 657.46368 2518.6594 4016199
860.45331 660.60217 2530.6826 3885126
876.30878 660.60217 2530.6826 3753540
893.59094 661.65851 2534.7292 3818563
908.37811 660.86292 2531.6814 3686977
927.20929 662.98608 2539.8152 3686977
947.33759 665.94952 2551.1675 4015942
966.74908 668.31903 2560.2449 3818563
982.78973 668.31903 2560.2449 3555391
999.646 668.86469 2562.3352 3752770
1014.2809 667.93024 2558.7556 3621184
1043.6532 676.57892 2591.8875 3686977
1058.252 675.53186 2587.8765 3752770
1067.8218 671.35468 2571.874 3884356
1096.1898 678.9447 2600.9504 3818563
1115.5554 680.81824 2608.1277 4213321
1117.3296 672.05664 2574.5632 3884356
1131.9922 671.18634 2571.229 3752770
1143.6608 668.59015 2561.2834 3818563
1166.446 672.47473 2576.1648 3818563
1171.5771 666.21429 2552.1819 3621184
1180.4517 662.22241 2536.8896 3884356
1182.3361 654.46735 2507.1809 4015942
1198.5503 654.74371 2508.2397 3621184
1215.1613 655.22699 2510.0908 3358012
1233.7971 656.77563 2516.0237 3226426
1252.3666 658.25037 2521.6731 3292219
1268.1656 658.25037 2521.6731 3160633
1288.7876 660.72296 2531.1453 3292219
1313.5143 665.21417 2548.3506 3752770
1318.3754 659.65765 2527.0642 3621184
1333.6648 659.38892 2526.0349 3489598
1349.4911 659.38892 2526.0349 3423805
1356.5068 655.13379 2509.7339 3226426
1371.4543 654.76294 2508.3132 3291962
1389.1779 655.71082 2511.9443 3357755
1393.3044 650.29138 2491.1833 3620925
1406.2662 649.07001 2486.5044 3686974
1424.5786 650.31793 2491.2849 3424059
1440.1873 650.31793 2491.2849 3424059
1457.432 651.04877 2494.0847 3621437
1484.7441 656.21362 2513.8706 3686461
1503.4213 657.49365 2518.7742 3620925
1508.6052 652.90741 2501.2048 3423546
1515.3654 649.09064 2486.5833 3423546
1533.3304 650.10211 2490.4583 3357753
1547.946 649.6875 2488.8699 3291960
1560.1208 648.26697 2483.428 3226167
1575.6803 648.26697 2483.428 3357753
1593.804 649.31165 2487.4299 3226167
1619.0378 653.20471 2502.3438 3291960
1640.3771 655.46686 2511.0098 3686718
1645.8159 651.39282 2495.4028 3489341
1685.9781 661.00922 2532.2419 2962997
1701.8434 661.00922 2532.2419 2765618
1696.1387 652.70868 2500.4436 2699825
1724.889 657.69769 2519.5559 3028790
1741.3082 657.93701 2520.4727 3094840
1753.5916 656.62341 2515.4404 3226169
1772.3721 657.74426 2519.7344 3357755
1792.14 659.20868 2525.3442 3291962
1809.5022 659.77026 2527.4956 3291962
1825.3378 659.77026 2527.4956 3357755
1833.6259 657.06561 2517.1345 3291962
1849.545 657.11841 2517.3367 3028790
1872.2092 659.54645 2526.6382 2963254
1892.7838 661.20386 2532.9875 3028791
1909.3585 661.448 2533.9229 3160376
1915.3241 658.04315 2520.8792 2831411
1937.5234 660.22577 2529.2407 2962998
1964.9236 664.1308 2544.2004 2897205
1973.9781 661.82233 2535.3567 2700082
1991.9547 662.51794 2538.0217 2831411
2002.0065 660.58777 2530.6274 3160374
2037.5885 667.04578 2555.3672 3094581
2047.324 665.00763 2547.5593 2962995
2058.7197 663.53607 2541.9221 3226167
2085.7532 667.08875 2555.5317 3291960
2097.0146 665.58112 2549.7563 3620925
2119.7256 667.70288 2557.8845 3686720
2144.2642 670.36426 2568.0798 3818305
2176.3674 675.33325 2587.1155 3489340
2176.4658 670.37103 2568.1057 3619898
2179.8486 666.48584 2553.2222 3159348
2221.7322 674.34302 2583.322 3028018
2233.7874 673.09851 2578.5544 3028018
2245.1953 671.67822 2573.1135 2830639
2261.7568 671.80902 2573.6145 2764846
2277.8813 671.80902 2573.6145 2830639
2296.0325 672.40253 2575.8882 2830639
2308.1311 671.2276 2571.3872 2699053
2339.2148 675.55182 2587.9526 2633260
2358.9653 676.56592 2591.8376 2633261
2347.5857 668.69897 2561.7004 2830384
2345.6685 663.61597 2542.228 3160633
2369.2288 665.76062 2550.4441 3292219
2394.5811 668.37689 2560.4666 3423548
2411.6631 668.66522 2561.571 3423548
2426.5088 668.33374 2560.3013 3291962
2436.3711 666.64307 2553.8245 3358011
2452.3713 666.64307 2553.8245 3489341
2465.7217 665.92731 2551.0825 3555390
2481.7051 665.92731 2551.0825 3620927
2513.2566 670.078 2566.9834 3423804
2525.1892 668.97858 2562.7715 3422522
2521.8608 663.87555 2543.2224 3291192
2536.4333 663.51935 2541.8579 3159606
2558.7896 665.1911 2548.2622 3225399
2575.4126 665.3609 2548.9126 3291192
2584.239 663.52679 2541.8865 3356985
2598.4937 663.1004 2540.2529 3291192
nan nan nan 16777215
nan nan nan 16777215
nan nan nan 16777215
nan nan nan 16777215
nan nan nan 16777215
nan nan nan 16777215
nan nan nan 16777215
nan nan nan 16777215
nan nan nan 16777215
-2152.9436 625.91522 2341.8896 3555134
-2158.1667 631.7392 2363.6802 3291962
-2165.4814 638.26001 2388.0781 3423548
-2152.187 638.755 2389.9302 3555134
-2129.1511 636.34534 2380.9143 3555134
-2120.5017 638.23181 2387.9727 3686720
-2121.5286 643.07819 2406.1057 4410443
-2109.8906 644.12744 2410.0315 4278857
-2078.9722 639.26337 2391.8323 4081478
-2066.8977 640.16498 2395.2056 3949892
-2057.5986 641.94568 2401.8682 4015685
-2042.55 641.94568 2401.8682 3752513
-2023.4456 640.66144 2397.0632 3752513
-2026.0742 646.29059 2418.125 3620927
-2004.3032 644.16272 2410.1636 3423548
-1994.8676 645.99719 2417.0271 3686720
-1993.1251 650.37006 2433.3884 3555134
-1988.7166 653.93353 2446.7214 3094583
-1967.1212 651.85718 2438.9526 3160376
-1938.1815 647.29553 2421.885 3028790
-1917.3789 645.40088 2414.7961 3226426
-1923.764 652.70044 2442.1077 3489598
-1913.0132 654.25641 2447.9294 3423805
-1905.7504 657.04016 2458.345 3358012
-1892.5442 657.80347 2461.2009 3358012
-1871.313 655.76715 2453.5818 3621184
-1855.9406 655.76715 2453.5818 3555391
-1838.7878 655.13287 2451.2087 3686977
-1816.0565 652.48358 2441.2961 3687233
-1807.4523 654.90802 2450.3674 3621697
-1798.5371 657.26044 2459.1692 3753283
-1781.8359 656.78357 2457.385 3819076
-1750.4144 650.82526 2435.0916 4016456
-1729.1533 648.573 2426.6648 4148042
-1723.8779 652.33002 2440.7217 4016455
-1716.0468 655.17847 2451.3794 3950662
-1690.7043 651.33234 2436.9888 3818819
-1662.2137 646.1922 2417.7568 3753026
-1644.7267 645.27448 2414.3232 4015942
-1621.7977 642.18494 2402.7634 3884613
-1610.1282 643.53766 2407.8247 3686720
-1587.765 640.60144 2396.8389 3555390
-1572.9064 640.66602 2397.0803 3489596
-1559.7325 641.42456 2399.9185 3358266
-1545.0643 641.57739 2400.4902 3423803
-1535.274 643.77863 2408.7263 3489595
-1520.1825 643.77863 2408.7263 3423290
-1505.8073 644.08496 2409.8723 3160374
-1485.2463 641.72485 2401.042 3225911
-1468.7113 641.07367 2398.6057 3225911
-1455.907 642.05438 2402.2749 3357496
-1449.0968 645.7265 2416.0144 3423290
-1436.2351 646.75116 2419.8481 3620668
-1413.8269 643.45288 2407.5076 3555132
-1398.7432 643.45288 2407.5076 3423546
-1384.4855 643.8371 2408.9451 3554876
-1349.5485 634.50708 2374.0364 3357753
-1350.1848 641.88074 2401.6252 3291960
-1337.5201 643.026 2405.9104 3160374
-1326.3925 644.94476 2413.0896 2962995
-1303.183 640.96539 2398.2004 2831666
-1286.2792 640.03076 2394.7036 2962995
-1271.2756 640.03076 2394.7036 3028788
-1259.73 641.79242 2401.2949 3029045
-1249.7197 644.38849 2411.0081 3094581
-1233.4792 643.79614 2408.7917 3028788
-1216.9155 643.01843 2405.8821 3160374
-1201.4165 642.79077 2405.0303 3291960
-1190.228 644.89294 2412.8955 3226167
-1177.2561 646.07043 2417.3013 3423546
-1165.2363 647.80798 2423.8022 3620925
-1152.1714 649.00269 2428.2725 3752511
-1139.4611 650.43176 2433.6194 2831409
-1130.3817 654.00043 2446.9717 2634287
-1105.7352 648.53668 2426.5288 3028788
-1097.5765 652.72589 2442.2029 3160374
-1091.993 658.58667 2464.1311 3029301
-1072.1249 655.87683 2453.9922 3226680
-1056.9691 656.01288 2454.5012 3226680
-1044.017 657.54089 2460.2185 3029301
-1025.6134 655.62982 2453.0681 3095094
-1002.4071 650.5437 2434.0381 3160887
-992.41534 654.00891 2447.0034 3555645
-970.23767 649.42627 2429.8572 3160887
-965.93646 656.85382 2457.6477 3226680
-961.09613 664.14948 2484.9448 3818817
-945.52722 664.14948 2484.9448 3555645
-924.58643 660.31305 2470.5906 3424059
-911.26135 661.87756 2476.4443 3753280
-894.08459 660.65021 2471.8521 3358269
-880.06317 661.75208 2475.9749 2897718
-870.62915 666.40497 2493.3838 3555390
-860.78625 670.90912 2510.2363 3160634
-847.55463 672.89062 2517.6501 3095097
-829.11475 670.73383 2509.5803 3621184
-816.75208 673.50507 2519.9492 3752771
-797.61292 670.68738 2509.4067 3818563
-777.43237 666.86316 2495.0981 3490111
-761.7998 666.86316 2495.0981 3621697
-750.14392 670.41724 2508.3958 3621697
-736.79956 672.58197 2516.4954 3490111
-721.0329 672.58197 2516.4954 4016455
-699.25458 666.84888 2495.0447 4410956
-680.61359 663.91394 2484.0635 4345420
-662.70526 661.57306 2475.3049 4213578
-649.80853 664.24292 2485.2944 4213832
-635.63831 665.71008 2490.7839 4147786
-620.03284 665.71008 2490.7839 4016455
-597.26422 657.8208 2461.2659 4148041
-582.77631 658.87531 2465.2112 4016712
-577.77893 671.00909 2510.6104 5069143
-559.07855 667.46252 2497.3408 4213834
-544.29663 668.5246 2501.3145 3489598
-526.17261 665.42297 2489.7097 3752770
-508.85947 663.18878 2481.3503 3752770
-493.3522 663.24146 2481.5474 3489598
-476.69925 661.70721 2475.8069 3555391
-464.81171 666.90704 2495.2625 3686977
-447.68738 664.69379 2486.9812 4015942
-430.202 661.76538 2476.0247 4015942
-416.52502 664.69537 2486.9873 3358269
-400.35693 663.72339 2483.3506 3818306
-383.13336 660.85211 2472.6077 3489341
-368.61157 662.59552 2479.1306 3818306
-353.07904 662.59552 2479.1306 3949892
-334.00739 655.64825 2453.1372 3357755
-317.68839 653.69495 2445.8286 3423548
-300.98874 650.72052 2434.6997 3620927
-285.23062 649.57281 2430.4055 3292219
-270.14197 649.90625 2431.6531 3292219
-254.90691 649.90625 2431.6531 3292219
-239.75352 650.12769 2432.4817 3292219
-225.50481 652.99896 2443.2246 3423805
-211.11682 655.85565 2453.9131 3687233
-193.76007 649.21405 2429.0632 3818563
-178.26408 648.20624 2425.2925 4081735
-163.59067 650.2804 2433.053 3555648
-148.64096 651.5697 2437.877 3621184
-133.3669 651.5697 2437.877 3950149
-117.6795 649.28906 2429.3438 3818820
-102.29455 648.2475 2425.4468 3489598
-87.098373 648.2475 2425.4468 2963255
-72.326912 652.07654 2439.7734 2766130
-57.515755 657.50421 2460.0811 2963252
-41.265701 644.43481 2411.1814 3095350
-25.862938 637.14362 2383.9011 3160887
-10.779326 628.52954 2351.6711 3029302
4.0476823 643.32001 2407.0103 3226426
19.009779 639.33234 2392.0903 3292219
33.916626 637.82141 2386.4373 3753027
48.686951 635.45331 2377.5767 3950405
64.075897 640.3772 2395.9998 3292219
79.788925 646.05609 2417.2476 3226426
95.407425 649.27979 2429.3091 3555391
110.38725 647.86792 2424.0266 3160633
125.57452 647.86792 2424.0266 2897716
140.47867 646.56482 2419.1509 2831665
155.63541 646.56482 2419.1509 2765873
171.62663 649.72394 2430.9709 2831921
186.8916 649.84277 2431.4155 3160630
203.06885 652.87677 2442.7673 3160888
218.37354 652.87677 2442.7673 3291962
234.13867 654.16315 2447.5806 2963254
250.45207 656.72913 2457.1812 2897461
266.87552 659.26971 2466.6868 3094840
282.33008 659.26971 2466.6868 3160633
297.3446 658.29547 2463.0417 2963254
312.28711 657.26587 2459.1895 2963254
331.54608 664.99072 2488.0923 2502960
344.04227 659.06659 2465.9268 2568497
357.66721 655.72095 2453.4092 2371118
372.64774 655.034 2450.8386 2568497
389.78931 658.04962 2462.1221 2634290
405.3493 658.26733 2462.9365 2634289
420.37518 657.63348 2460.5649 2831669
435.03592 656.49341 2456.2993 2634546
449.72733 655.47601 2452.4927 2502703
464.42615 654.53619 2448.9763 2436654
484.29477 660.70959 2472.0742 2173739
495.65103 655.24707 2451.636 2436654
511.13922 655.41113 2452.2498 2502957
529.35535 658.96136 2465.5332 2371371
544.5238 658.62408 2464.2712 2568750
559.92316 658.57697 2464.095 2700336
569.99487 652.43414 2441.1113 2568750
573.68134 639.49463 2392.6975 2502957
596.42926 647.9212 2424.2261 2831666
618.4425 655.15106 2451.2769 2765616
635.58746 656.99823 2458.188 2699823
654.50354 660.54547 2471.4602 2634030
671.72693 662.25989 2477.8748 2765616
687.85791 662.84412 2480.0608 3291960
695.85101 655.73389 2453.4575 3489339
714.42584 658.68719 2464.5073 3291960
733.1236 661.6264 2475.5044 3423289
746.04077 659.33502 2466.9314 3292473
765.16162 662.50818 2478.8037 3358266
786.1286 667.1217 2496.0654 3292473
801.76727 667.1217 2496.0654 3621438
808.05524 659.49023 2467.512 3884612
819.40717 656.20062 2455.2036 3884355
834.78979 656.20062 2455.2036 3752771
850.62677 656.55133 2456.5159 3555391
867.18835 657.43884 2459.8367 3686977
883.23486 657.9118 2461.6062 3423805
900.1897 659.03339 2465.8027 2897461
917.66724 660.49347 2471.2656 2897461
949.59918 672.13605 2514.8269 3818819
957.97803 666.99951 2495.6084 4015942
962.75812 659.5625 2467.7825 3753027
981.60083 661.84241 2476.3127 3489598
1003.412 666.02161 2491.9495 3555648
1020.5627 667.02673 2495.7102 3621184
1036.1992 667.02673 2495.7102 3753027
1051.7828 666.99335 2495.5852 3489598
1062.6072 663.98694 2484.3367 3094840
1084.7175 668.01782 2499.4182 3423805
1096.6794 665.77295 2491.019 3686977
1104.5725 661.1557 2473.7434 3686977
1118.9966 660.52124 2471.3696 3423805
1129.5665 657.66022 2460.665 3489598
1164.7606 669.02008 2503.1682 3358012
1179.6741 668.58386 2501.5361 3884356
1168.967 653.82898 2446.3301 3555391
1192.2365 658.21381 2462.7361 3489598
1207.6663 658.21381 2462.7361 3555391
1223.2865 658.31628 2463.1196 3358012
1242.0808 660.10303 2469.8049 3160633
1255.2712 658.90436 2465.3198 3358012
1269.2557 658.14661 2462.4846 3358012
1278.543 655.00049 2450.7134 3292219
1295.694 655.90985 2454.116 3489598
1314.0964 657.42407 2459.7815 3489598
1329.5077 657.42407 2459.7815 3094840
1331.1213 650.67957 2434.5464 2897461
1341.7976 648.46759 2426.2703 3028790
1354.6904 647.36444 2422.1428 3160374
1371.8427 648.29858 2425.6379 3291960
1382.4553 646.1557 2417.6204 3226167
1387.8706 641.65637 2400.7859 3226167
1396.6858 638.80859 2390.1306 3489339
1431.0641 647.58899 2422.9829 3226167
1453.4797 650.82861 2435.1042 2831409
1468.7365 650.82861 2435.1042 2634030
1471.4664 645.33484 2414.5488 3028788
1478.5156 641.82782 2401.4272 3160374
1491.6118 640.99011 2398.293 3226167
1507.6417 641.41718 2399.8909 3291960
1525.2793 642.513 2403.991 3423546
1533.8599 639.80957 2393.876 3555132
1546.2473 638.73102 2389.8406 3752511
1561.2205 638.73102 2389.8406 4213062
1593.894 645.90393 2416.6782 3620927
1646.5635 660.96863 2473.0435 2765875
1662.0577 660.96863 2473.0435 2699825
1660.7714 654.35687 2448.3052 3028790
1674.1398 653.5874 2445.4263 2962997
1689.3895 653.55969 2445.3225 2897204
1702.5193 652.71967 2442.1797 2897204
1717.8204 652.71967 2442.1797 2897205
1735.106 653.4671 2444.9763 3094583
1754.6001 655.026 2450.8088 3160376
1769.9552 655.026 2450.8088 3291962
1783.5043 654.3634 2448.3296 3226169
1797.9528 654.03918 2447.1167 3160375
1813.2847 654.03918 2447.1167 3029044
1828.3738 653.95233 2446.7917 3028787
1844.1666 654.11658 2447.4062 2831408
1861.1748 654.70557 2449.6099 3094581
1887.8406 658.65442 2464.3848 2962994
1913.9456 662.34509 2478.1936 3028788
1917.2679 658.15564 2462.5186 3094837
1938.2762 660.05585 2469.6282 3028788
1953.7493 660.05585 2469.6282 3028788
1966.5854 659.172 2466.3213 3226167
1989.1772 661.54645 2475.2053 3094581
2003.6628 661.20905 2473.9429 2963252
2032.7632 665.66272 2490.6067 3160374
2048.3677 665.66272 2490.6067 3357753
2055.9858 663.08698 2480.9695 3357753
2074.7585 664.12048 2484.8364 3489338
2096.8555 666.19476 2492.5972 3357752
2112.4722 666.19476 2492.5972 3159347
2134.4192 668.17633 2500.0115 3159603
2152.8369 669.03235 2503.2141 3225397
2181.5862 673.06342 2518.2966 3159604
2197.5906 673.13275 2518.5562 2764846
2209.0469 671.81793 2513.6367 2501674
2216.9297 669.44269 2504.7495 2699053
2228.0491 668.07129 2499.6184 2764846
2242.8977 667.82947 2498.7136 2830895
2251.4417 665.72675 2490.8462 2830639
2280.644 669.7193 2505.7847 3028275
2296.0264 669.62689 2505.4387 3422778
2296.9685 665.35278 2489.447 3619900
2310.5908 664.78455 2487.321 3422778
2327.7529 665.2356 2489.0085 3291192
2363.3596 670.91675 2510.2649 3620157
2381.5693 671.61676 2512.884 4080708
2386.1826 668.49841 2501.2166 4014658
2385.9766 664.07947 2484.6829 3685950
2405.9019 665.28455 2489.1917 3423034
2422.3223 665.51117 2490.0396 3423035
2447.936 668.24457 2500.2666 3422778
2451.4529 664.9494 2487.9377 3291192
2468.4229 665.32196 2489.3315 3028020
2477.2949 663.52087 2482.593 2896434
2484.4084 661.27423 2474.187 2962227
2505.0354 662.63007 2479.2598 3028020
2520.5688 662.63007 2479.2598 2962227
2525.1023 659.75598 2468.5063 3159606
nan nan nan 16777215
nan nan nan 16777215
nan nan nan 16777215
nan nan nan 16777215
nan nan nan 16777215
nan nan nan 16777215
nan nan nan 16777215
nan nan nan 16777215
nan nan nan 16777215
nan nan nan 16777215
-2111.7263 632.55896 2312.8174 3226169
-2110.8313 636.65955 2327.8103 3094584
-2108.7729 640.46393 2341.7202 3357756
-2093.5305 640.28931 2341.0818 3620927
-2077.2883 639.80438 2339.3086 3620927
-2054.0889 637.15448 2329.6199 3423548
-2053.0435 641.3877 2345.0977 3423548
-2062.7822 649.07532 2373.2061 3752513
-2029.6776 643.29553 2352.0735 3752513
-2006.6925 640.66211 2342.4448 3752513
-1996.2072 642.00995 2347.3728 3752513
-1979.2839 641.29187 2344.7473 3621184
-1956.0055 638.48859 2334.4978 3752513
-1956.3757 643.42078 2352.5312 3949892
-1949.4387 646.00629 2361.9846 4081478
-1962.1506 655.19238 2395.5718 3686463
-1958.4124 658.98492 2409.4382 3620927
-1930.5719 654.66315 2393.6367 3686720
-1906.0984 651.4245 2381.7952 3686463
-1888.548 650.51929 2378.4856 3555391
-1875.9672 651.3252 2381.4321 3621184
-1861.0468 651.3252 2381.4321 3555648
-1854.6685 654.33893 2392.4512 3621184
-1839.679 654.33893 2392.4512 3818563
-1821.8737 653.32916 2388.7593 3818563
-1802.4976 651.73474 2382.9294 3686977
-1783.526 650.26111 2377.5415 3686977
-1769.9415 650.74329 2379.3044 3818820
-1757.0773 651.50073 2382.074 3686977
-1749.5217 654.25641 2392.1494 3752770
-1737.8234 655.49707 2396.6858 3884099
-1712.5209 651.58325 2382.3757 3818563
-1686.8315 647.45215 2367.2712 3753027
-1672 647.45215 2367.2712 3621184
-1652.9448 645.80206 2361.238 3226426
-1624.1515 640.2832 2341.0593 3292219
-1604.5348 638.31427 2333.8604 3226427
-1591.1887 638.82666 2335.7339 3160887
-1571.6219 636.82788 2328.4258 3160374
-1555.3225 636.12805 2325.8669 3160374
-1539.7064 635.69708 2324.2913 3357753
-1524.9739 635.62622 2324.032 3555132
-1510.954 635.85382 2324.8643 3357753
-1506.2295 640.03571 2340.1545 3028788
-1486.7301 637.9599 2332.5647 3028788
-1473.6134 638.60889 2334.9375 3357753
-1461.7754 639.83051 2339.4043 3160374
-1451.9034 641.94629 2347.1401 3028788
-1427.2657 637.50989 2330.9194 3226680
-1415.6736 638.86908 2335.8889 3489852
-1403.8401 640.14655 2340.5598 3489852
-1389.2085 640.16162 2340.615 3489852
-1374.5437 640.16162 2340.615 3358523
-1359.8683 640.15656 2340.5964 3358266
-1346.9382 640.98193 2343.6143 3621182
-1325.0665 637.52362 2330.9695 3424316
-1312.9576 638.73749 2335.408 3226167
-1302.1813 640.6344 2342.3435 3291960
-1290.4677 642.10815 2347.7319 3028788
-1275.4496 641.9527 2347.1636 2765616
-1253.4257 638.22644 2333.5393 3028788
-1238.2802 637.95581 2332.5498 2897202
-1223.8966 638.07605 2332.9895 2963252
-1212.9337 640.00403 2340.0388 3028788
-1198.371 640.05664 2340.231 3094581
-1183.704 640.05408 2340.2217 2831409
-1161.783 636.07983 2325.6907 3160374
-1153.0112 639.29535 2337.4475 3357753
-1143.8938 642.39954 2348.7974 3357753
-1129.1779 642.39954 2348.7974 3423546
-1127.749 650.05847 2376.8005 3226167
-1107.4738 646.91357 2365.302 2962995
-1088.5809 644.50183 2356.4839 3226167
-1077.4615 646.68945 2364.4824 3357753
-1064.3706 647.7381 2368.3167 3357497
-1052.8252 649.77032 2375.7471 3291960
-1039.1866 650.55054 2378.5999 3226680
-1026.6787 652.07147 2384.1609 3095094
-1008.6031 650.04895 2376.7659 3489852
-991.38361 648.52588 2371.197 3687231
-976.52728 648.52588 2371.197 3489852
-963.17523 649.54028 2374.906 3424316
-953.61768 653.18555 2388.2341 3555902
-942.66003 655.97284 2398.4253 3687488
-925.31256 654.33185 2392.4253 3753281
-914.50671 657.33887 2403.4197 3489852
-902.72711 659.73492 2412.1804 3489852
-893.80334 664.33521 2429.0005 3753281
-876.48206 662.74512 2423.1865 3687747
-861.29999 662.74512 2423.1865 3687490
-846.3653 662.93878 2423.8948 3687746
-838.57043 668.83429 2445.4504 3490111
-815.69171 662.69458 2423.0017 3556161
-803.48602 665.15753 2432.0071 4279627
-787.224 664.29272 2428.8452 4016455
-772.00647 664.29272 2428.8452 4082248
-758.13373 665.47308 2433.1609 4279883
-743.15063 665.70728 2434.0171 4082505
-727.90076 665.70728 2434.0171 4214347
-712.71222 665.76453 2434.2266 4346448
-696.45312 664.80243 2430.7087 4346192
-680.10693 663.71234 2426.7231 4411985
-668.7417 667.54437 2440.7341 4543571
-653.44971 667.54437 2440.7341 4608593
-638.09937 667.48328 2440.5107 4608591
-620.26892 664.76123 2430.5581 4345420
-598.07288 657.10565 2402.5671 4345420
-582.58087 656.61066 2400.7573 4213834
-575.76245 666.12427 2435.5417 4279627
-565.36462 671.90198 2456.6667 5003350
-545.16492 666.02808 2435.1902 4214090
-528.4826 664.23694 2428.6411 3818819
-511.36642 661.77814 2419.6511 3884356
-489.34357 652.62512 2386.1851 3818820
-474.90344 653.32684 2388.7507 3687234
-464.61676 659.974 2413.0547 3555391
-450.51874 661.47235 2418.533 3818563
-435.55545 661.76038 2419.5862 3621184
-425.05145 669.08868 2446.3806 3555134
-402.07739 656.60144 2400.7236 3686977
-386.85678 656.29724 2399.6113 3818563
-374.15982 660.42279 2414.6956 3620927
-358.78952 659.97858 2413.0715 3686720
-346.586 665.57672 2433.5398 3686720
-326.32199 655.4986 2396.6914 3423548
-311.30597 655.4986 2396.6914 3489341
-294.13525 650.73163 2379.262 3291962
-278.17389 648.27405 2370.2764 3226426
-263.32339 648.27405 2370.2764 3094840
-247.23337 645.04022 2358.4524 3358012
-233.45465 647.80878 2368.575 2897461
-218.57579 647.69318 2368.1523 3226426
-203.73039 647.66711 2368.0571 3818563
-188.45258 646.1543 2362.5259 3818563
-175.42053 652.74017 2386.6057 3686977
-159.44086 648.56329 2371.3337 3621184
-144.14503 646.5954 2364.1387 3621184
-131.75984 658.72839 2408.5005 3818563
-116.13097 655.68604 2397.3765 3884613
-99.710831 646.60828 2364.1858 3818563
-85.307266 649.7218 2375.5696 3292219
-70.423592 649.7218 2375.5696 3094840
-55.456696 648.74829 2372.0103 3358012
-40.052597 640.0752 2340.2991 3423805
-25.384079 639.92853 2339.7627 3818564
-10.669796 636.65009 2327.7756 3029045
3.9079533 635.59515 2323.9185 2897203
18.412865 633.69678 2316.9775 3226425
33.226517 639.41357 2337.8799 3160632
47.858242 639.20233 2337.1074 3094582
62.501896 639.2121 2337.1431 3226168
77.204422 639.70587 2338.9485 3291961
91.952148 640.35693 2341.3291 2831410
106.5863 640.14673 2340.5605 2568495
120.80127 637.77435 2331.8862 2371373
135.41127 637.77435 2331.8862 2502701
151.18033 642.70184 2349.9026 2371372
165.9032 642.70184 2349.9026 2305324
179.87668 640.03528 2340.1531 2765876
195.40678 642.89209 2350.5984 2831925
211.45848 646.94421 2365.4141 2831668
227.08594 649.25269 2373.8545 2963254
241.29393 647.46844 2367.3306 3094840
256.40359 648.17017 2369.8965 3094840
271.7774 649.42627 2374.4893 3094840
285.41577 646.6203 2364.2297 2963254
300.56763 647.35095 2366.9011 3029047
316.55045 649.71838 2375.5571 2963254
331.34644 649.54663 2374.9292 2634289
345.96661 649.05981 2373.1492 2700338
361.31497 649.92297 2376.3052 2766131
376.4014 650.26526 2377.5566 2897461
391.95007 651.34967 2381.5215 3029047
407.41327 652.21765 2384.6953 2897461
422.48383 652.41791 2385.4275 2897462
438.88464 654.58868 2393.3643 2963254
450.76831 650.10126 2376.957 2831668
466.59253 651.4021 2381.7134 2305577
479.65289 648.88348 2372.5044 2436908
495.12939 649.68652 2375.4407 2700336
510.95615 650.88892 2379.8369 2502957
525.86658 650.88892 2379.8369 2502701
539.99335 649.94568 2376.3882 2502700
554.84198 649.89868 2376.2163 2305578
564.17059 643.55725 2353.0303 2700592
581.05249 645.93567 2361.7263 3226423
601.16772 651.70093 2382.8059 2699823
617.17499 652.84155 2386.9763 2568237
633.60059 654.36017 2392.5288 2699823
662.30688 668.19849 2443.1257 2634030
677.61377 668.19849 2443.1257 2831409
678.06903 653.87665 2390.761 3094581
693.26068 654.07745 2391.4951 3094581
708.60797 654.41345 2392.7236 3094581
722.51367 653.43176 2389.1343 3029301
741.92249 657.36584 2403.5186 3160886
758.83636 658.97681 2409.4087 3292729
772.37903 657.65442 2404.5737 3226681
789.90869 659.71259 2412.0989 3226680
800.66016 656.13873 2399.0317 3292473
810.70673 652.12952 2384.3728 3358010
832.14703 657.26465 2403.1484 3292219
841.30103 652.68549 2386.4058 3358012
865.68622 659.87628 2412.6975 3423805
876.74158 656.83392 2401.5737 3555391
892.89655 657.65033 2404.5586 3292219
907.96191 657.65033 2404.5586 3160633
921.03241 656.229 2399.3621 3358012
936.85718 656.7843 2401.3923 3555391
953.04187 657.57031 2404.2661 4213321
966.06116 656.18182 2399.1895 3753026
989.7973 662.0036 2420.4756 3226426
1004.9623 662.0036 2420.4756 3686977
1022.9839 663.85742 2427.2537 3358012
1046.2277 668.99609 2446.042 3029047
1046.7303 659.65485 2411.8877 3094840
1067.3319 663.06555 2424.3584 3423805
1081.4534 662.41156 2421.967 3753027
1086.4982 656.29279 2399.5952 3884356
1099.635 655.16229 2395.4617 3358012
1106.1643 650.17859 2377.2397 3423805
1126.0658 653.08264 2387.8579 3621184
1142.1823 653.74426 2390.2769 3686977
1169.6217 660.78564 2416.0222 3950149
1164.8589 649.68671 2375.4412 3753027
1195.8344 658.54883 2407.844 3489598
1210.9203 658.54883 2407.844 3423805
1216.4205 653.39996 2389.0181 3489598
1230.0096 652.6684 2386.3433 3423805
1241.2793 650.73828 2379.2864 3292219
1256.611 650.95825 2380.0906 3358012
1269.646 649.99744 2376.5774 3292219
1290.4022 652.96582 2387.4307 2765875
1285.7688 643.16583 2351.5991 3029304
1299.5369 642.68835 2349.8533 2897204
1313.381 642.25879 2348.2827 2700079
1327.3523 641.90027 2346.9719 2831409
1337.4178 639.68146 2338.8594 3226167
1361.6021 644.19043 2355.3455 3029045
1376.359 644.19043 2355.3455 3160374
1381.476 639.72644 2339.0237 3423546
1417.8031 649.65704 2375.3328 3028788
1422.5073 645.04181 2358.4583 2897202
1422.8899 638.58197 2334.8391 2962995
1436.0619 637.93494 2332.4734 2897459
1452.4091 638.6972 2335.2605 3094581
1466.9896 638.67523 2335.1802 3028788
1483.1364 639.32874 2337.5696 2765616
1495.8632 638.5097 2334.575 2897202
1501.7103 634.7984 2321.0054 2897202
1516.2521 634.7984 2321.0054 3094581
1543.0348 639.87445 2339.5649 2765618
1582.2529 649.96338 2376.4529 2765617
1599.2017 650.80151 2379.5173 2699823
1605.139 647.18439 2366.2922 3028788
1617.9563 646.38208 2363.3586 3028788
1632.3228 646.20758 2362.7207 3028788
1646.0029 645.76697 2361.1096 2963251
1659.7948 645.37769 2359.6863 2962994
1671.3766 644.14349 2355.1738 3160374
1703.4877 650.77368 2379.4155 3028788
1713.8208 649.04114 2373.0811 3029044
1728.89 649.1167 2373.3572 3160374
1748.3071 650.80945 2379.5464 3094581
1763.2158 650.80945 2379.5464 3226167
1782.4493 652.3924 2385.3342 3160374
1802.052 654.08301 2391.5156 3094581
1809.8461 651.495 2382.053 2963251
1829.385 653.14258 2388.0769 3028018
1846.1439 653.77893 2390.4036 3028275
1865.2363 655.22467 2395.6897 3094068
1881.6445 655.71204 2397.4717 3290934
1894.8677 655.09052 2395.1992 3356726
1909.3406 654.90741 2394.5298 3290677
1926.1852 655.53436 2396.822 3028788
1942.9058 656.10962 2398.9255 2963252
1959.8702 656.758 2401.2959 2962995
1977.3199 657.55768 2404.2197 3160374
1985.995 655.44934 2396.5112 3094581
1965.713 643.88757 2354.238 2831409
