# .PCD v0.7 - Point Cloud Data file format
VERSION 0.7
FIELDS x y z rgb
SIZE 4 4 4 4
TYPE F F F U
COUNT 1 1 1 1
WIDTH 1269
HEIGHT 1
VIEWPOINT 0 0 0 1 0 0 0
POINTS 1269
DATA ascii
1452.5814 666.74451 2751.2695 3620156
1469.819 666.74451 2751.2695 3422776
1499.8835 672.49573 2775.0015 3554362
1527.2458 676.91736 2793.2471 3422776
1558.8812 683.11133 2818.8059 3159604
1572.6895 681.44208 2811.918 3093811
1573.3828 674.19006 2781.9932 3225397
1585.6798 672.01471 2773.0166 3225397
1609.2987 674.63269 2783.8196 3225397
1633.8588 677.58484 2796.0015 3356983
1653.6096 678.5011 2799.7822 3356983
1670.2328 678.1283 2798.2439 3422776
1689.9438 679.00391 2801.8569 3159604
1694.0618 673.66064 2779.8083 3094837
1721.8762 677.75348 2796.6973 3489339
1739.3983 677.75348 2796.6973 3423546
1757.8285 678.1037 2798.1426 3291960
1775.3599 678.1037 2798.1426 3423546
1793.8315 678.45947 2799.6106 3291960
1812.8041 678.99591 2801.824 3357753
1834.3025 680.45898 2807.8613 3423546
1853.7214 681.13025 2810.6313 3357753
1871.3311 681.13025 2810.6313 3357753
1909.6158 688.58557 2841.395 2436907
1918.5023 685.40039 2828.2515 2502700
1934.0544 684.633 2825.085 2700080
1935.1117 678.7951 2800.9954 2963508
1951.1285 678.26245 2798.7974 2963252
1978.0017 681.47961 2812.0728 2831666
2015.9127 688.40918 2840.6672 2962995
2033.7102 688.40918 2840.6672 2831411
2046.2769 686.65393 2833.4241 2765617
2068.833 688.25189 2840.0183 2700079
2089.4922 689.19714 2843.9187 2765873
2116.2866 692.13287 2856.0327 2764590
2148.0493 696.63062 2874.5923 2567467
2143.9175 689.50952 2845.2075 2699053
2145.4031 684.29755 2823.7009 3093811
2168.2573 685.93085 2830.4404 3028018
2187.166 686.29962 2831.9622 2962482
2210.3503 687.99316 2838.9504 2962225
2228.1372 687.99316 2838.9504 2961968
2245.6577 687.91156 2838.6138 2895919
2247.9321 683.19763 2819.1621 3290677
2265.595 683.19763 2819.1621 3224884
2283.2156 683.185 2819.1099 3290677
2295.6094 681.62048 2812.6543 3093298
2326.5488 685.54456 2828.8467 3224884
2339.5801 684.17236 2823.1843 3422263
2366.616 686.8855 2834.3796 3488056
2385.4448 687.19385 2835.6523 3553592
2403.2109 687.19385 2835.6523 3684921
2436.0247 691.46509 2853.2771 3750714
2453.9014 691.46509 2853.2771 3684921
2467.1582 690.17273 2847.9443 3487542
2474.3052 687.20197 2835.6855 3355956
2495.4705 688.13922 2839.5532 3421749
2517.5881 689.32397 2844.4421 3488056
2549.0847 693.04199 2859.7839 3488056
2567.0022 693.04199 2859.7839 3685435
2587.3711 693.69928 2862.4963 3882814
2585.9272 688.53955 2841.2051 3751228
2611.8608 690.69012 2850.0793 3751228
2629.7175 690.69012 2850.0793 3817021
2647.271 690.61102 2849.7529 3685435
2652.4568 687.32819 2836.2065 3751228
2660.2114 684.75024 2825.5688 3553849
2733.6826 699.01038 2884.4121 3422263
2696.0676 684.86462 2826.0408 3291190
2689.4536 678.72705 2800.7146 3356983
2679.4321 671.81476 2772.1914 3356983
2695.532 671.49866 2770.8872 3356983
2712.8926 671.49866 2770.8872 3356984
2738.5818 673.54706 2779.3398 3291192
2749.1228 671.86755 2772.4094 3028020
2754.3049 668.90759 2760.1953 2830641
2757.564 665.52045 2746.2185 2962227
2749.4844 659.45581 2721.1934 2896434
2765.9434 659.31512 2720.6128 2962227
2771.6787 656.63562 2709.5562 2962227
nan nan nan 16777215
nan nan nan 16777215
nan nan nan 16777215
nan nan nan 16777215
nan nan nan 16777215
nan nan nan 16777215
nan nan nan 16777215
nan nan nan 16777215
nan nan nan 16777215
-2341.5691 633.13214 2547.0691 4344391
-2326.8989 633.48285 2548.48 4475720
-2306.9768 632.39868 2544.1184 4672586
-2299.8367 634.82764 2553.8899 4541000
-2285.1711 635.19879 2555.3831 4475207
-2265.8757 634.27924 2551.6838 4343878
-2249.8887 634.27924 2551.6838 4278085
-2233.6846 634.21765 2551.4358 4278085
-2243.9812 641.73383 2581.6733 4146499
-2224.6621 640.82812 2578.0298 3751741
-2190.8586 635.70636 2557.4248 3817534
-2180.5498 637.37659 2564.1443 4014913
-2176.0242 640.77466 2577.8147 4014913
-2170.3225 643.87469 2590.2859 4146499
-2152.2026 643.30945 2588.012 4278085
-2139.5032 644.36816 2592.271 4343621
-2122.6072 644.16949 2591.4719 4146757
-2106.3708 644.16949 2591.4719 4081219
-2103.7405 648.36279 2608.3413 4081476
-2087.3982 648.36279 2608.3413 3818560
-2092.8032 655.1709 2635.73 4542027
-2068.7754 652.7998 2626.1912 4542027
-2062.2815 655.96783 2638.936 4410442
-2066.9851 662.77759 2666.3315 4542029
-2030.7152 656.45312 2640.8884 4542029
-2008.0392 654.45526 2632.8511 4081989
-1983.8728 651.93451 2622.7102 4213575
-1969.6132 652.65436 2625.6062 4476747
-1947.7938 650.86029 2618.3887 4345418
-1952.9567 658.12842 2647.6282 3884610
-1946.0269 661.41107 2660.8342 3950403
-1929.0374 661.30188 2660.3948 4016196
-1913.2645 661.61151 2661.6406 4147782
-1896.5886 661.61151 2661.6406 4279368
-1878.7089 661.18787 2659.9363 4016196
-1862.8578 661.47705 2661.0996 3818817
-1852.0787 663.58868 2669.5945 3950403
-1839.1606 664.96539 2675.1331 3950403
-1822.4001 664.96539 2675.1331 3949634
-1804.3733 664.49908 2673.2571 3884353
-1783.1392 662.83179 2666.5496 3950146
-1760.6266 660.6532 2657.7852 3752768
-1745.7163 661.31293 2660.4392 3686718
-1729.9913 661.67383 2661.8911 3752511
-1710.8729 660.73114 2658.0989 3686717
-1707.2405 665.80939 2678.5283 3752511
-1697.1948 668.46246 2689.2017 3818561
-1666.3206 662.88293 2666.7554 3949890
-1648.3616 662.38025 2664.7332 3620925
-1635.8522 664.07959 2671.5696 3686718
-1621.3251 664.98651 2675.218 3752511
-1597.876 662.21478 2664.0674 3686718
-1580.9069 662.09833 2663.5989 3621181
-1562.1814 661.23608 2660.1301 3555132
-1549.0227 662.73688 2666.1677 3555132
-1528.3433 661.01764 2659.2512 3423546
-1510.3101 660.4176 2656.8374 3620925
-1493.3676 660.28644 2656.3098 3555132
-1475.395 659.69177 2653.9175 3555132
-1459.5872 660.0625 2655.4089 3489339
-1433.0087 655.51489 2637.114 3094581
-1418.2959 656.35229 2640.4829 3160374
-1408.1505 659.34814 2652.5349 3226167
-1390.6384 658.92493 2650.8325 3423546
-1378.1821 660.91602 2658.8425 3620925
-1356.0533 658.26062 2648.1599 3620925
-1337.1572 657.12805 2643.6038 3423546
-1320.9697 657.31494 2644.3555 3620925
-1299.5823 654.88611 2634.5845 3555132
-1294.4263 660.6795 2657.8909 3489339
-1272.2014 657.79822 2646.2998 3489339
-1254.0502 656.9751 2642.9883 3423546
-1237.4911 656.9751 2642.9883 3620925
-1222.781 657.97003 2646.991 3620925
-1214.6006 662.55426 2665.4331 3357753
-1195.1284 661.02081 2659.2642 3094581
-1179.069 661.35834 2660.6221 3291960
-1159.887 659.92889 2654.8713 2962995
-1141.52 658.92834 2650.8462 2569006
-1123.845 658.30353 2648.3325 3161143
-1112.9668 661.70093 2662.0002 3555901
-1104.7704 666.82043 2682.5959 3753281
-1093.7892 670.3913 2696.9612 3818817
-1076.7416 670.29773 2696.585 3489852
-1051.9716 665.31714 2676.5481 3489852
-1036.5776 666.20123 2680.1047 3424059
-1026.5903 670.64636 2697.9873 3358266
-1009.6866 670.64636 2697.9873 3358266
-983.66199 664.48499 2673.2004 3818817
-978.08557 672.16266 2704.0874 3950403
-961.36877 672.32007 2704.7207 4016453
-942.63794 671.04938 2699.6089 4213832
-926.49939 671.61139 2701.8699 4148296
-909.57129 671.61139 2701.8699 4148039
-892.18835 671.26917 2700.4929 4082246
-880.90161 675.58905 2717.8716 4148039
-866.1286 677.35272 2724.967 4148039
-850.42657 678.44629 2729.3662 4081989
-850.67877 692.57373 2786.2004 3621438
-807.29797 671.02545 2699.5125 3753281
-801.49103 680.45453 2737.4453 4081989
-783.6496 679.85553 2735.0356 4081989
-763.74292 677.39795 2725.1487 4213575
-743.67474 674.68146 2714.2205 4082246
-732.87213 680.44049 2737.3889 3752768
-730.23499 694.23846 2792.8977 3489339
-704.48346 686.19952 2760.5574 2897202
-677.54346 676.56921 2721.8147 3225654
-663.4989 679.65088 2734.2122 4015426
-651.57483 685.12555 2756.2368 3752255
-642.41693 693.88617 2791.4805 2633774
-622.17517 690.83026 2779.1865 3290933
-595.75598 680.54169 2737.7961 3554362
-580.79797 683.12354 2748.1826 3554362
-571.97241 693.29639 2789.1077 3554105
-548.56201 685.87482 2759.251 4475207
-532.69055 687.70306 2766.606 4015940
-515.35693 687.70306 2766.606 3292217
-491.05688 678.08337 2727.9062 3621438
-474.21646 678.44214 2729.3496 3357497
-457.49533 679.00482 2731.613 3028018
-440.38092 679.00482 2731.613 4146242
-418.12027 670.74915 2698.4009 4343622
-396.23007 662.41705 2664.8813 4146499
-379.9169 663.08582 2667.5715 3554362
-363.07632 662.85321 2666.6357 3685948
-346.0152 662.17615 2663.9119 3685948
-328.6402 660.79919 2658.3726 3424059
-311.74481 660.2912 2656.3289 3620925
-294.9325 659.91168 2654.8022 3884097
-277.03665 656.9176 2642.7571 3489339
-260.4389 656.81659 2642.3506 3489339
-243.81111 656.62097 2641.5637 3686718
-226.74101 655.11884 2635.5208 3226167
-210.72435 656.66357 2641.7351 2831409
-195.44458 660.96356 2659.0339 3291960
-179.45653 663.44659 2669.0229 3291960
-165.50334 674.73572 2714.4387 3555388
-145.58218 661.49353 2661.1658 3818047
-128.90916 661.49353 2661.1658 3752511
-111.53943 657.38739 2644.647 3949890
-95.102043 658.30206 2648.3267 3949890
-78.7015 659.91235 2654.8047 3291960
-62.047081 659.68652 2653.8962 3423546
-45.553299 661.62842 2661.7085 3423546
-28.876869 661.62842 2661.7085 3423546
-12.182334 660.64655 2657.7583 3357753
4.5097804 666.62341 2681.8032 3686718
21.345667 667.67303 2686.0259 3620925
37.874245 662.42242 2664.9028 3555132
54.278099 658.87079 2650.6147 3620925
70.448769 654.81586 2634.3018 3818304
86.643318 652.48004 2624.905 3555132
103.7392 656.59442 2641.4568 3555132
121.19308 661.53064 2661.3152 3686718
137.86705 661.53064 2661.3152 3489339
155.17102 664.22742 2672.1643 3489339
171.71649 663.46838 2669.1106 4015683
189.05682 665.64264 2677.8574 3621181
206.66591 668.33148 2688.6748 3423546
223.74229 669.02222 2691.4536 3423546
240.28679 668.13715 2687.8928 3423546
259.86679 675.25574 2716.5308 3620925
276.88669 675.25574 2716.5308 3949890
292.05969 671.01245 2699.4602 4015427
310.29111 673.87579 2710.9792 3818817
329.13254 677.698 2726.356 3950660
345.87015 677.0249 2723.6482 4016196
365.99203 682.72821 2746.5923 3950402
379.71783 676.52374 2721.6318 3884610
398.43237 679.3587 2733.0369 4016195
415.75018 679.67664 2734.3159 3950403
428.46097 672.73584 2706.3933 3753280
444.73828 671.71014 2702.2671 3818304
458.66983 667.3468 2684.7134 3884097
473.02887 663.89203 2670.8149 3291960
497.41565 674.26636 2712.5505 2962996
511.46747 670.40863 2697.031 2831409
526.914 668.56732 2689.6235 2831409
543.63452 668.40643 2688.9763 2831666
561.21857 669.2851 2692.5112 2831666
578.60071 669.87872 2694.8992 2963252
598.23328 672.97021 2707.3362 3226167
604.74084 661.53369 2661.3274 3423546
627.33478 667.83575 2686.6804 3292217
644.16766 667.83575 2686.6804 3620155
658.07031 664.87524 2674.7703 3356727
678.24414 668.24042 2688.3083 3554361
691.43884 664.73297 2674.198 3488312
717.11908 673.11078 2707.9016 3554105
734.17639 673.19464 2708.239 3555389
737.9292 661.35089 2660.592 3621181
751.69122 658.80273 2650.3408 3489339
773.54199 663.30072 2668.4363 3620925
793.46552 665.99072 2679.2581 3817790
808.92975 664.90405 2674.8862 3949120
825.68878 664.90405 2674.8862 3949120
836.9715 660.58197 2657.4985 3948864
852.92096 660.03973 2655.3174 4081476
900.00024 683.14746 2748.2791 3752511
911.21368 678.67462 2730.2849 3818304
931.05438 680.67389 2738.3279 4147269
938.1142 673.42596 2709.1697 4213062
953.36298 672.20972 2704.2766 4344648
969.28168 671.5 2701.4216 4081476
999.71667 680.69867 2738.4275 3489339
1015.7991 679.97937 2735.5337 3949890
1030.4973 678.37262 2729.0698 4279114
1042.2823 674.93182 2715.2275 4542543
1061.2013 676.14697 2720.1162 4805458
1076.5956 675.11353 2715.9585 5003094
1099.1842 678.55341 2729.7971 4937301
1126.0377 684.48047 2753.6416 4542287
1138.2081 681.43787 2741.4014 3950406
1137.8403 671.09076 2699.7754 3489599
1156.8427 672.30389 2704.6555 4015942
1173.7881 672.30389 2704.6555 4081479
1190.364 672.09521 2703.8159 4147270
1207.0449 671.95087 2703.2354 4278856
1221.1478 670.3952 2696.9768 4278857
1236.2865 669.44281 2693.1455 4213064
1253.0303 669.37366 2692.8672 4213064
1272.3635 670.67114 2698.0872 4410443
1289.2679 670.67114 2698.0872 4542030
1294.6606 664.76031 2674.3081 4607822
1310.1238 664.10529 2671.6729 4476237
1340.4662 670.91406 2699.0642 4410443
1361.7675 673.08423 2707.7949 4607822
1363.8495 665.81842 2678.5647 4410441
1389.0173 669.86249 2694.834 3686718
1394.8032 664.57465 2673.5613 3621181
1415.6055 666.48218 2681.2351 3686205
1443.4342 671.61432 2701.8813 3093811
1436.8638 660.80743 2658.4058 3159604
1459.6017 663.57257 2669.5298 3488569
1479.2571 664.88953 2674.8276 3620155
1498.6151 666.0448 2679.4753 3291190
1520.1527 668.13239 2687.8738 3422776
1532.543 666.19794 2680.0916 3620155
1551.9622 667.32782 2684.637 3620155
1568.6742 667.2818 2684.4519 3554362
1593.535 670.66644 2698.0681 3422776
1617.3018 673.52429 2709.5652 3554362
1642.9081 677.08087 2723.8733 3685948
1647.1735 671.8598 2702.8691 3553849
1655.5876 668.41986 2689.0303 3554105
1670.0745 667.47632 2685.2344 3422519
1687.7365 667.80798 2686.5688 3356983
1714.2646 671.60663 2701.8506 3488826
1731.4498 671.70642 2702.252 3488569
1750.5502 672.54004 2705.6057 3357496
1768.7428 673.01239 2707.5059 3422776
1785.7062 673.01239 2707.5059 3422776
1805.5336 674.08167 2711.8074 3291190
1831.4755 677.39246 2725.1267 3488569
1844.2091 675.80206 2718.7285 3488312
1854.7294 673.43707 2709.2144 3488569
1862.791 670.23047 2696.3142 3159604
1877.3492 669.39783 2692.9646 3028018
1897.1095 670.4184 2697.0703 3290934
1926.8777 674.92645 2715.2061 3685947
1951.5753 677.59509 2725.9419 3159348
1968.6542 677.59509 2725.9419 2962227
1991.2354 679.47266 2733.4954 3093811
2010.0513 680.04437 2735.7952 3093554
2030.708 681.22382 2740.5403 3093811
2041.3104 679.03906 2731.751 2830639
2062.3735 680.34137 2736.99 2830639
2066.5176 676.08691 2719.8745 3093811
2090.1851 678.23718 2728.5249 3093811
2115.7812 680.97333 2739.5325 2962225
2132.5369 680.8429 2739.0078 2962481
2149.2798 680.71057 2738.4753 2896176
2160.3301 678.79163 2730.7556 3027248
2168.7346 676.07819 2719.8394 2961712
2172.2505 671.89484 2703.01 3619385
2187.9053 671.50183 2701.429 3619386
2251.8743 685.82941 2759.0684 3619642
2235.7268 675.72443 2718.4163 3553849
2251.7627 675.42572 2717.2146 3685435
2291.1914 682.09564 2744.0474 3553849
2308.6338 682.16949 2744.3447 3553592
2325.7036 682.13306 2744.198 3684921
2342.8738 682.12634 2744.1709 3750714
2370.0493 685.01154 2755.7781 3750714
2387.3152 685.01154 2755.7781 3487542
2396.4197 682.68658 2746.4248 3421749
2419.7654 684.42285 2753.4097 3421749
2445.3149 686.75342 2762.7856 3619128
2452.3103 683.87708 2751.2141 3487542
2475.6389 685.56403 2758.0005 3290677
2491.7449 685.24115 2756.7017 3290677
2516.749 687.35303 2765.1978 3553849
2534.4336 687.45062 2765.5903 3685435
2532.4817 682.25671 2744.6956 3619642
2548.6394 681.97882 2743.5774 3620154
2555.5503 679.24689 2732.5869 3620412
2563.5798 676.84662 2722.9309 3685691
2587.2822 678.58875 2729.9395 3554362
2592.7444 675.55542 2717.7366 3422776
2615.8657 677.13281 2724.0823 3422776
2627.8384 675.82263 2718.8115 3422776
2631.7676 672.47406 2705.3401 3620155
2644.5645 671.41968 2701.0984 3488569
2659.4512 670.90594 2699.0317 3488571
2666.9973 668.55853 2689.5881 3488571
2666.9441 664.3476 2672.6477 3159606
2676.6047 662.59387 2665.5925 3028020
2676.5493 658.47162 2649.0088 3291192
2697.1611 659.45331 2652.958 3488571
2703.8748 657.04559 2643.272 3488571
nan nan nan 16777215
nan nan nan 16777215
nan nan nan 16777215
nan nan nan 16777215
nan nan nan 16777215
nan nan nan 16777215
nan nan nan 16777215
nan nan nan 16777215
nan nan nan 16777215
-2277.9819 631.38171 2477.9016 4410441
-2269.9771 633.48029 2486.1377 4344648
-2266.8828 636.98773 2499.9028 4213062
-2238.4514 633.37476 2485.7236 3950404
-2235.3586 636.93109 2499.6807 4145986
-2218.3069 636.5321 2498.1147 4080706
-2202.3008 636.42963 2497.7124 4014913
-2188.7812 637.04938 2500.1448 4278086
-2174.1448 637.35065 2501.3271 4278085
-2168.0312 640.17291 2512.4036 3949120
-2146.1077 638.33398 2505.1863 3620925
-2138.5823 640.7821 2514.7942 3884354
-2126.4907 641.88812 2519.135 3752768
-2119.4192 644.53748 2529.5325 3884354
-2104.4453 644.80542 2530.584 3884354
-2100.4312 648.461 2544.9304 3884097
-2078.5024 646.59949 2537.6248 3949890
-2054.5308 644.06885 2527.6931 4015683
-2035.9169 643.19135 2524.2495 4344648
-2038.9955 649.20709 2547.8586 5002833
-2029.2406 651.1994 2555.6775 4542794
-2048.1685 662.5011 2600.0317 4081988
-2024.5955 660.12646 2590.7124 4279623
-2020.8125 664.2182 2606.7708 4410954
-1981.8059 656.70465 2577.2832 4476748
-1968.1479 657.53632 2580.5474 4345163
-1953.6698 658.10553 2582.7812 4410953
-1905.281 647.16589 2539.8477 4279368
-1891.1263 647.76813 2542.2114 4081989
-1899.1782 656.05164 2574.7207 3753024
-1880.5217 655.17194 2571.2681 3950403
-1862.9537 654.65948 2569.2571 4147782
-1853.0011 656.83752 2577.8049 4279368
-1842.9923 659.03387 2586.4246 4147782
-1829.8833 660.1507 2590.8076 3884610
-1811.6567 659.4248 2587.9587 3687231
-1793.1868 658.59631 2584.7073 3950403
-1777.2412 658.68842 2585.0686 4279368
-1762.9149 659.38788 2587.8137 4279368
-1748.0129 659.88287 2589.7566 4345161
-1719.4775 655.19238 2571.3484 4081989
-1726.4325 664.06439 2606.167 3753024
-1705.5717 662.30438 2599.2598 3884610
-1690.0548 662.60553 2600.4419 3950659
-1671.3163 661.63727 2596.6418 3686718
-1651.2982 660.13843 2590.7595 3686718
-1625.9865 656.47253 2576.3723 3883840
-1609.0374 656.14331 2575.0803 3686974
-1590.0178 654.95453 2570.415 3752511
-1574.1774 655.06445 2570.8462 3620925
-1559.6436 655.72589 2573.4421 3686718
-1544.1862 656.00879 2574.5525 3620925
-1530.2295 656.94208 2578.2151 3752511
-1514.6732 657.20111 2579.2317 3752767
-1497.8931 656.92902 2578.1638 3620925
-1483.0751 657.52081 2580.4866 3489339
-1463.9908 656.2135 2575.3557 3686718
-1443.4979 654.23853 2567.605 3620925
-1429.4913 655.19196 2571.3467 3489339
-1412.5991 654.82953 2569.9243 3357753
-1385.5962 649.71771 2549.8625 3357753
-1372.5555 651.10999 2555.3267 3291960
-1356.8889 651.27478 2555.9734 3357753
-1342.7576 652.18921 2559.562 3291960
-1332.6268 655.09229 2570.9556 3423546
-1311.089 652.39038 2560.3516 3489339
-1292.9165 651.31683 2556.1384 3555132
-1272.5524 649.09839 2547.4321 3489339
-1260.5516 651.14386 2555.4595 3489339
-1247.5808 652.73438 2561.7017 3555132
-1234.7622 654.44696 2568.4229 3620925
-1217.6578 653.90326 2566.2891 3423546
-1201.1093 653.64752 2565.2854 3621182
-1182.5905 652.2981 2559.9895 3555132
-1170.7637 654.65344 2569.2332 3291960
-1162.3823 659.02795 2586.4014 3489339
-1155.745 664.52899 2607.9905 3621438
-1130.2852 659.20996 2587.1155 3555645
-1114.076 659.20996 2587.1155 3292216
-1081.0966 649.14026 2547.5962 3292473
-1082.0045 659.4212 2587.9446 3819074
-1086.3586 672.14722 2637.8887 3950660
-1062.2844 667.40552 2619.2798 3621438
-1033.1351 659.27661 2587.3772 3358266
-1015.0999 658.09381 2582.7351 3358266
-1009.9731 665.37677 2611.3176 3489852
-997.61218 668.05524 2621.8296 3424059
-991.23993 674.90094 2648.6958 3489852
-964.51453 667.88593 2621.165 3950403
-946.88611 667.03638 2617.8308 4016453
-930.4845 667.03638 2617.8308 4082246
-921.75812 672.63708 2639.8113 4608333
-903.80615 671.58734 2635.6914 3950403
-902.6167 683.18597 2681.2112 4016453
-883.86401 681.67896 2675.2966 4542540
-857.97565 674.50385 2647.1375 4345161
-841.88684 674.90173 2648.699 4016196
-821.8371 672.07642 2637.6108 3884610
-805.87811 672.54919 2639.4663 3950660
-793.29565 675.9187 2652.6902 3884610
-778.21698 677.25995 2657.9541 3950403
-761.57471 677.26947 2657.9915 4081989
-747.53491 679.64545 2667.3162 4147782
-730.01544 678.89417 2664.3674 4410954
-712.65674 678.26062 2661.8813 4476236
-696.16412 678.4408 2662.5884 3620926
-683.60876 682.56116 2678.7588 4607819
-666.8255 682.56116 2678.7588 4147269
-648.4859 680.92688 2672.3452 4213062
-634.33752 683.72357 2683.321 4212549
-622.39124 689.11078 2704.4634 4278598
-610.2312 694.55609 2725.834 3752511
-585.79309 685.93793 2692.0115 3620155
-564.62152 680.74725 2671.6401 3356983
-548.81555 681.90613 2676.1882 2962225
-547.15015 701.26135 2752.1492 3159604
-516.39966 683.38611 2681.9966 3356983
-497.4126 680.39935 2670.2749 3488569
-481.4024 681.41833 2674.2739 3949120
-464.20309 680.76703 2671.7178 3948863
-442.3255 672.94946 2641.0371 4080963
-424.83609 671.45978 2635.1909 4081476
-405.13913 666.2196 2614.6252 3950147
-388.27039 665.3844 2611.3477 3489596
-368.3873 659.08295 2586.6169 3818304
-352.23825 659.18939 2587.0349 3949890
-336.64874 660.40387 2591.801 4081476
-320.41031 660.40387 2591.801 4015683
-302.70566 657.22046 2579.3076 3884097
-290.04449 665.24573 2610.8032 4081476
-271.70032 660.41675 2591.8518 3555132
-255.46156 660.41675 2591.8518 3620925
-236.31198 652.38092 2560.3145 3686718
-220.89462 654.22839 2567.5652 3686718
-206.10139 658.35986 2583.7793 3752511
-190.45009 660.22107 2591.0837 3818304
-175.37105 664.59772 2608.2603 3357753
-157.31366 657.42712 2580.1187 3357753
-140.9236 656.38 2576.0093 3160374
-123.69413 650.64667 2553.5083 2962995
-110.1543 665.50092 2611.8049 4081476
-93.635399 664.40015 2607.4849 3620925
-77.298706 664.40015 2607.4849 3094581
-60.294304 657.12323 2578.926 3028788
-44.351536 660.32428 2591.4888 2897202
-27.868452 654.53235 2568.7581 3094581
-11.730145 652.07312 2559.1064 2962995
4.3493323 659.02521 2586.3906 2962995
20.553871 659.02521 2586.3906 3752511
35.981316 645.09302 2531.7126 3752511
52.063187 647.82941 2542.4517 3818304
67.366982 641.87006 2519.064 3752511
82.692696 638.34222 2505.2188 3620925
98.529854 639.2583 2508.8137 3620925
114.19406 638.95453 2507.6216 4147269
129.44353 636.68427 2498.7119 3752511
151.01038 662.62427 2600.5151 3752511
167.90384 665.00226 2609.8479 3291960
184.69438 666.58679 2616.0664 3291960
201.34454 667.44763 2619.4451 3489339
217.70587 667.29346 2618.8398 3555132
233.93332 666.77924 2616.8218 3620925
252.79907 673.35986 2642.6479 3752767
269.35608 673.35986 2642.6479 3686718
284.85632 670.87103 2632.8804 3357753
302.48581 673.39484 2642.7852 3621694
319.04367 673.39484 2642.7852 3358266
336.39825 674.99347 2649.0591 3226680
350.5943 670.4021 2631.0398 3358009
370.83173 677.25653 2657.9407 3883840
385.6412 674.03467 2645.2961 3291704
399.43362 669.37396 2627.0049 3225910
417.61874 672.1521 2637.908 3160374
432.34451 669.36292 2626.9617 3489339
451.4668 673.33545 2642.552 3489339
466.96924 671.81915 2636.6011 3028788
489.3121 679.91132 2668.3596 2370858
496.10638 666.57758 2616.0303 2370858
510.78098 664.34607 2607.2727 2962995
527.64569 665.01324 2609.8911 3093555
543.78156 664.74933 2608.8552 3159604
558.47778 662.7923 2601.1746 3159347
574.77502 662.7923 2601.1746 3225140
590.69934 662.37421 2599.5339 3225397
606.98621 662.37421 2599.5339 3422519
624.29407 663.45923 2603.792 3554362
641.69763 664.58813 2608.2227 3291190
655.49359 662.0174 2598.1335 3291190
672.67072 662.90338 2601.6106 3291190
688.97058 662.90338 2601.6106 3291190
700.44409 658.36688 2583.8069 3159604
719.6369 661.12708 2594.6394 3159604
733.01776 658.54382 2584.5012 3685948
752.39789 661.34552 2595.4968 3751484
764.88477 658.09784 2582.751 3817277
786.82056 662.94598 2601.7778 3029045
805.54437 664.94598 2609.627 2831409
824.10553 666.73474 2616.6472 3555389
840.8418 667.00623 2617.7126 4213062
850.95276 662.11218 2598.5056 4410441
872.75043 666.32452 2615.0371 4278855
889.20807 666.37964 2615.2534 4213062
903.53577 664.86548 2609.311 4147269
920.90582 665.60413 2612.21 4015683
936.54187 665.08551 2610.1746 4081476
970.73627 677.53784 2659.0444 3884097
981.37323 673.40497 2642.825 3884097
1002.6711 676.60345 2655.3774 3949890
1016.7019 674.8736 2648.5886 3752510
1027.4161 671.0332 2633.5166 4015682
1049.9646 674.92139 2648.7761 3686974
1074.6094 680.01501 2668.7664 3555131
1080.0962 673.01514 2641.2949 4015682
1091.5662 669.89844 2629.0632 4147269
1114.6102 673.87177 2644.657 3949889
1129.3204 672.7641 2640.3096 4147269
1143.6915 671.48932 2635.3066 4278854
1160.2025 671.48932 2635.3066 4015682
1177.4385 671.90295 2636.9302 4147272
1196.8596 673.53491 2643.335 4344907
1206.0948 669.46844 2627.3757 4344651
1220.1633 668.15808 2622.2332 4410444
1225.0618 661.9278 2597.782 4344647
1247.3785 665.14899 2610.4238 4015683
1273.5934 670.33862 2630.7908 3818304
1291.8914 671.28186 2634.4924 4081476
1308.2683 671.21564 2634.2327 4410440
1314.5277 666.02496 2613.8616 4476233
1317.8558 659.49506 2588.2344 4410441
1324.7755 654.89941 2570.1985 4147526
1354.3262 661.46735 2595.9749 3620925
1381.5336 666.74854 2616.7012 3686718
1376.6193 656.58521 2576.8145 3226423
1391.6615 656.06549 2574.7749 3292217
1408.4037 656.34998 2575.8914 3488826
1423.1743 655.7196 2573.4175 3619898
1438.9073 655.54187 2572.72 3554105
1448.1829 652.45868 2560.6196 3554105
1470.1217 655.08582 2570.9302 4014913
1495.7979 659.30328 2587.4819 3949120
1521.7458 663.54889 2604.144 3883071
1538.9038 663.91229 2605.5701 4014912
1564.5518 667.89227 2621.1899 3751741
1580.9744 667.89227 2621.1899 3620155
1582.1057 661.49884 2596.0984 3423547
1602.1589 663.06647 2602.2507 3423546
1616.7679 662.37207 2599.5256 3291960
1631.6167 661.78882 2597.2363 3292217
1658.6958 666.12872 2614.2688 3555132
1671.8625 664.85126 2609.2551 3423802
1691.7727 666.25415 2614.761 3357753
1711.5065 667.5614 2619.8914 3160630
1714.729 662.46484 2599.8896 3027762
1731.7108 662.72986 2600.9297 3356983
1758.1202 666.56439 2615.9785 3356983
1783.0569 669.7749 2628.5784 3356983
1798.778 669.49652 2627.4858 3356983
1805.8254 666.02423 2613.8586 3159604
1811.203 662.00409 2598.0813 2962225
1852.6964 671.13843 2633.9297 3488312
1893.4227 679.836 2668.064 3554362
1915.7748 681.84186 2675.936 3356983
1931.4207 681.44678 2674.3855 3356983
1932.6681 676.02216 2653.0962 3291190
1939.4348 672.60413 2639.6819 3225397
1958.2452 673.38538 2642.748 3159604
1982.4297 675.98602 2652.9546 3093811
2002.0432 676.9978 2656.9253 3159604
2009.1013 673.78223 2644.3054 3159604
2029.5977 675.08911 2649.4343 3225397
2048.1782 675.74268 2651.9993 3093811
2062.8445 675.10468 2649.4956 2896432
2073.1882 673.07361 2641.5244 2962225
2101.3086 676.80023 2656.1499 2764846
2118.4543 676.9613 2656.782 2830639
2129.1782 675.08386 2649.4138 3225654
2143.6372 674.4104 2646.7708 3554362
2159.6514 674.23285 2646.074 3620412
2156.9385 668.2561 2622.6177 3883584
2211.8362 680.08344 2669.0352 3949377
2228.4348 680.04565 2668.8867 3883326
2241.8315 679.0387 2664.9348 3751741
2249.1919 676.23169 2653.9185 3685692
2245.9922 670.31415 2630.6948 3488313
2263.8567 670.72375 2632.3022 3159091
2281.5764 671.08484 2633.7195 3093298
2309.7803 674.50226 2647.1313 3224370
2329.658 675.45691 2650.8779 3290163
2355.6521 678.15887 2661.4819 3224370
2372.3269 678.15887 2661.4819 3289906
2376.6274 674.64618 2647.696 3224113
2396.3591 675.53217 2651.1733 2961712
2411.8418 675.21649 2649.9343 3159091
2433.0225 676.48932 2654.9297 3422263
2438.9475 673.53198 2643.3235 3751228
2458.8926 674.46014 2646.9661 3816764
2475.4768 674.46014 2646.9661 3751484
2485.9031 672.7937 2640.4258 3620411
2498.4902 671.73004 2636.2517 3620155
2505.2253 669.11749 2625.9983 3422775
2518.3955 668.24646 2622.5798 3554362
2531.9148 667.47876 2619.5671 3554361
2536.3257 664.33527 2607.2302 3620155
2542.3552 661.65314 2596.7041 3422777
2571.7568 665.04926 2610.0322 3422778
2588.1096 665.04926 2610.0322 3422778
2599.8206 663.86395 2605.3806 3422778
2608.1396 661.83276 2597.4089 3422778
2623.8931 661.7016 2596.8943 3422778
2641.8552 662.12561 2598.5583 3620157
2641.1458 657.89349 2581.949 3488571
nan nan nan 16777215
nan nan nan 16777215
nan nan nan 16777215
nan nan nan 16777215
nan nan nan 16777215
nan nan nan 16777215
nan nan nan 16777215
nan nan nan 16777215
nan nan nan 16777215
-2231.7456 633.69574 2427.6074 3423546
-2224.9604 636.10425 2436.8342 3489339
-2205.7175 634.9599 2432.4502 3489339
-2187.7571 634.17126 2429.4292 3752511
-2172.5359 634.17126 2429.4292 3818304
-2156.8745 634.04193 2428.9336 3949890
-2154.9143 637.96692 2443.9697 3884097
-2133.3958 636.11627 2436.8804 4279111
-2120.8108 636.92206 2439.967 4409415
-2112.2964 638.97083 2447.8157 4278598
-2096.9602 638.97083 2447.8157 4147526
-2082.7158 639.30597 2449.0996 4147269
-2066.1628 638.93225 2447.668 3949890
-2058.9209 641.4538 2457.3276 3555388
-2034.9125 638.75031 2446.9709 3291960
-2019.5814 638.75031 2446.9709 3028788
-2012.4679 641.36932 2457.0039 3291960
-2011.314 645.94244 2474.5232 3884097
-1997.2622 646.41235 2476.3232 3818304
-1996.4604 651.21161 2494.7085 3686975
-1987.3756 653.36334 2502.9517 3950659
-1968.1089 652.17548 2498.4009 4016196
-1948.7677 650.94354 2493.6816 3753023
-1930.1222 649.92603 2489.7837 3818817
-1925.6508 653.70355 2504.2549 4081989
-1909.1289 653.41888 2503.1643 4016196
-1885.2948 650.60602 2492.3887 3884610
-1863.5353 648.46802 2484.1982 3884610
-1851.9987 649.88141 2489.6125 4016453
-1853.3545 655.88123 2512.5974 4279368
-1837.257 655.75439 2512.1113 4279368
-1810.5165 651.79382 2496.939 4081989
-1800.4106 653.80505 2504.6438 4542539
-1788.9651 655.36084 2510.6038 4871248
-1777.0121 656.75659 2515.9507 4674126
-1758.5891 655.76483 2512.1514 4476747
-1734.8718 652.763 2500.6519 4279368
-1718.2183 652.38861 2499.2175 4213575
-1706.3447 653.83887 2504.7732 4213575
-1692.7819 654.66278 2507.9294 4213575
-1673.9617 653.44983 2503.283 4279368
-1660.6792 654.39612 2506.908 4279368
-1652.4854 657.38483 2518.3572 4345161
-1643.9541 660.29559 2529.5081 4279368
-1637.4399 664.08105 2544.0098 3819074
-1590.812 651.51245 2495.8611 3753023
-1574.4866 651.22791 2494.771 3686462
-1560.3549 651.854 2497.1694 3620925
-1537.3735 648.75836 2485.3105 3489339
-1524.2433 649.79895 2489.2969 3620925
-1510.0461 650.40155 2491.6055 3620925
-1495.9495 651.06055 2494.1299 3620925
-1482.3964 651.97241 2497.623 3818561
-1456.814 647.55676 2480.7073 3752767
-1444.1381 648.8446 2485.6409 3752511
-1428.073 648.62134 2484.7854 3949890
-1404.6024 644.99237 2470.8835 3686718
-1396.6317 648.47949 2484.2422 3423546
-1384.4657 650.07532 2490.3555 3423546
-1367.116 649.24567 2487.1772 3226167
-1350.1831 648.59723 2484.6931 3226167
-1334.8353 648.70392 2485.1018 3226167
-1325.1483 651.59662 2496.1836 3291960
-1309.5089 651.59662 2496.1836 3291960
-1289.0576 649.17334 2486.9001 3291960
-1272.6597 648.75696 2485.3052 3226167
-1255.0427 647.70123 2481.2607 3423546
-1238.2552 647.05243 2478.7751 3555132
-1224.4125 647.94537 2482.196 3555132
-1210.6982 648.93036 2485.9692 3620925
-1195.1229 648.93036 2485.9692 3752511
-1183.6963 651.21283 2494.7131 4015427
-1164.0173 648.95557 2486.0659 3883840
-1148.4464 648.95837 2486.0767 3291703
-1129.7438 647.1673 2479.2153 3094581
-1138.6355 661.354 2533.5627 4213318
-1110.8118 654.31476 2506.5964 4279112
-1094.7439 654.09778 2505.7651 4213062
-1090.6229 661.11633 2532.6523 4278855
-1068.3051 657.1488 2517.4531 3949890
-1052.5325 657.1488 2517.4531 3554876
-1039.2017 658.69653 2523.3823 3423290
-1025.4526 660.02295 2528.4636 3621695
-1011.0212 660.94489 2531.9954 3424060
-997.85187 662.73431 2538.8506 3292473
-988.92908 667.44788 2556.9077 3621694
-971.37671 666.39655 2552.8801 3818817
-946.36011 660.10352 2528.7722 3753024
-930.51654 660.10352 2528.7722 4081989
-918.86255 663.12701 2540.355 4082246
-903.96649 663.8761 2543.2246 3753024
-899.41748 672.38739 2575.8303 4542540
-881.90204 671.33911 2571.8145 4739919
-865.78882 671.33911 2571.8145 4345161
-857.37921 677.42584 2595.1318 4213575
-840.86627 677.22156 2594.3494 4213575
-817.57257 671.44049 2572.2026 3358266
-796.16193 667.00452 2555.209 3687231
-797.74457 682.04486 2612.8269 4081989
-770.88019 672.8847 2577.7354 3753024
-755.86188 673.89398 2581.6018 3555902
-740.98053 675.07208 2586.115 3819074
-722.16895 672.64227 2576.8066 4213575
-703.50653 670.24335 2567.6167 4739919
-697.19983 679.77924 2604.1475 5200217
-681.92303 680.81659 2608.1213 5003603
-672.54095 687.93445 2635.3889 3226682
-656.02942 687.93445 2635.3889 3950403
-638.84668 687.21234 2632.6228 5661021
-621.63666 686.42188 2629.5947 4805712
-601.45251 682.21503 2613.4788 4674126
-582.76678 679.51978 2603.1536 4213831
-563.86725 676.41284 2591.2512 3555132
-548.4964 677.48016 2595.3401 4147269
-536.22522 682.55835 2614.7939 4738379
-519.84277 682.55835 2614.7939 4541000
-497.95465 675.0943 2586.2 3685692
-481.97089 675.40192 2587.3787 3094838
-468.08411 678.77191 2600.2886 3818561
-445.07129 668.67401 2561.6047 4542284
-422.45081 658.43207 2522.3691 4542284
-408.17999 660.91364 2531.8757 4081476
-394.16898 664.03351 2543.8276 4015683
-379.64005 666.50714 2553.3037 4147269
-366.44171 671.63715 2572.9561 4213319
-342.86472 657.34131 2518.1904 3686718
-326.76666 656.69647 2515.7205 3423802
-310.81949 656.30499 2514.2207 3686718
-293.33917 652.46167 2499.4973 3620925
-277.91779 653.02258 2501.6462 3291960
-262.23401 652.99719 2501.5491 3555132
-245.84827 651.10956 2494.3176 3752511
-233.01567 659.01459 2524.6006 3686718
-217.02415 658.48627 2522.5769 3621181
-201.21942 658.48627 2522.5769 3620925
-186.99808 664.10956 2544.1189 3818304
-171.10771 664.30103 2544.8525 3620925
-154.04327 659.50537 2526.4807 3620925
-137.2617 654.96106 2509.072 3357753
-122.62568 660.80286 2531.4514 3423546
-106.44052 658.79242 2523.7495 3357753
-90.429283 657.34467 2518.2034 2897202
-73.322411 645.63733 2473.3542 2765873
-58.501793 653.18182 2502.2561 2765616
-43.244339 659.58722 2526.7944 2963252
-27.117338 652.46881 2499.5247 3028788
-11.436935 651.32385 2495.1384 3226167
4.1907315 650.52454 2492.0764 3291960
19.48674 640.09137 2452.1084 3489339
34.583382 635.19513 2433.3513 3949890
50.080807 638.40393 2445.644 4147269
66.349846 647.64099 2481.03 3489339
82.197449 650.03864 2490.2151 3423546
97.206345 646.09668 2475.1138 3818304
112.24718 643.42249 2464.8694 5068371
127.40208 641.96997 2459.3049 3818304
144.80511 650.93671 2493.6555 3686718
161.35535 654.69678 2508.0598 3818304
177.99849 658.13312 2521.2239 3620925
198.12236 672.82983 2577.5251 3752511
213.71994 671.09833 2570.8921 3686718
226.4473 661.22845 2533.0818 3620925
243.70703 665.01923 2547.6038 3752511
260.30911 666.65967 2553.8882 3357753
276.07523 666.09326 2551.7183 3291960
292.98398 668.1947 2559.7688 3423546
307.00848 663.84155 2543.0923 3357753
322.38757 662.70239 2538.7283 3226167
338.29352 662.70239 2538.7283 3226167
354.30246 662.89514 2539.4668 3160374
370.22824 662.92249 2539.5713 2502444
384.83286 660.67926 2530.978 2897202
400.8811 660.99408 2532.1838 2765873
420.2464 666.54596 2553.4524 2568237
437.46521 668.41101 2560.5972 2962995
453.43243 668.29944 2560.1697 3028788
475.02014 676.19629 2590.4216 3489339
485.59369 668.41052 2560.5955 3291960
496.94257 662.15594 2536.6348 3094581
513.74292 663.3277 2541.1238 3159604
530.66217 664.578 2545.9133 3291190
541.9469 658.90472 2524.1799 3093811
558.27118 659.50665 2526.4858 3356983
573.88391 659.25793 2525.533 3291190
588.04132 657.39569 2518.3989 3093811
603.14282 656.65851 2515.575 3093811
621.10077 658.98969 2524.5054 3291190
635.88049 657.91656 2520.3945 3159604
658.6048 664.91632 2547.2095 3356983
674.04645 664.40625 2545.2556 3225397
692.16272 666.49536 2553.2585 2962225
696.6106 655.62573 2511.6184 3356983
709.83032 653.30969 2502.7461 3620155
730.40594 657.71771 2519.6326 3422776
746.70776 658.17212 2521.3733 3356983
764.40936 659.81592 2527.6707 3291960
783.20679 662.31976 2537.2625 3094838
797.45355 660.95221 2532.0237 3291960
813.2074 660.86279 2531.6809 4015683
832.83307 663.86304 2543.1746 4410441
841.10504 657.8703 2520.2173 4344648
859.52759 659.89154 2527.9602 4213062
876.32532 660.61469 2530.7305 4147269
893.03754 661.24878 2533.1597 4081476
907.41162 660.15973 2528.9875 3949890
923.11951 660.06177 2528.6123 4015940
941.06506 661.5401 2534.2756 4213062
958.06873 662.31824 2537.2566 4147269
978.57117 665.45032 2549.2551 3884354
999.87103 669.01526 2562.9121 4081476
1009.077 664.50342 2545.6277 3884097
1039.0848 673.61737 2580.542 3818304
1055.828 673.98456 2581.9487 4015684
1066.625 670.60229 2568.9917 4147528
1087.4617 673.53876 2580.241 4147271
1109.3582 677.03601 2593.6387 4542029
1110.5939 668.00525 2559.0427 4278858
1121.9016 665.20337 2548.3093 4015942
1138.1747 665.38287 2548.9968 4081478
1157.5787 667.36261 2556.5808 4213063
1163.8844 661.83984 2535.4238 3949893
1179.7697 661.83984 2535.4238 4147272
1187.6215 657.39301 2518.3887 4213066
1202.2699 656.77563 2516.0237 3818304
1213.7314 654.45593 2507.1372 3489339
1235.3009 657.57617 2519.0903 3489339
1252.2091 658.1676 2521.356 3423546
1264.4412 656.31714 2514.2673 3226167
1297.1602 665.01538 2547.5889 3489595
1313.1217 665.01538 2547.5889 4015940
1315.191 658.06433 2520.9604 3818304
1327.7283 656.45386 2514.7908 3752511
1344.0559 656.73322 2515.8611 3620925
1359.8186 656.73322 2515.8611 3686718
1367.9646 653.09686 2501.9307 3620412
1389.3524 655.79321 2512.26 3620412
1395.0787 651.11951 2494.3557 4080706
1404.8779 648.42926 2484.0496 3949377
1429.0299 652.34998 2499.0693 3686462
1451.1306 655.2594 2510.2151 3555389
1470.1061 656.71039 2515.7737 3620925
1501.9154 663.8028 2542.9438 3423803
1505.735 658.50555 2522.6506 3488569
1520.8448 658.20459 2521.4978 3685691
1530.9778 655.77802 2512.2019 3555132
1555.4557 659.48285 2526.3945 3555132
1569.3242 658.66016 2523.2429 3555132
1582.8483 657.71075 2519.606 3555132
1608.507 661.77246 2535.166 3555132
1634.1559 665.75092 2550.4067 3620925
1640.8293 661.99652 2536.0242 3358010
1647.3082 658.23645 2521.6196 3488569
1660.6737 657.27338 2517.9304 3619899
1671.6527 655.39282 2510.7261 3620155
1696.6224 658.98138 2524.4736 3225397
1711.6932 658.69446 2523.3743 3028018
1742.0781 664.25189 2544.6641 3291190
1761.2333 665.46552 2549.3135 3160631
1774.1255 664.31219 2544.8953 3489596
1787.3187 663.29114 2540.9836 3423803
1822.1404 670.24377 2567.6184 3358009
1832.6343 668.20453 2559.8062 3423802
1845.3586 667.00677 2555.2178 3423548
1856.0359 665.09607 2547.8982 3422519
1871.999 665.09607 2547.8982 3225397
1888.7944 665.38916 2549.021 3291190
1904.7649 665.38916 2549.021 3291190
1922.4818 665.99426 2551.3389 3291190
1941.907 667.17615 2555.8667 3159604
1958.3263 667.31451 2556.3967 3159604
1972.8613 666.81372 2554.4783 3356983
1989.3356 666.97119 2555.0815 3028018
2005.7238 667.09753 2555.5654 3028018
2029.3907 669.62354 2565.2424 3356983
2055.5332 672.92029 2577.8718 3422776
2063.2683 670.18665 2567.3994 3356983
2071.7871 667.7478 2558.0566 3422776
2100.8997 671.93298 2574.0896 3422776
2118.7693 672.4859 2576.2078 3949120
2142.3523 674.83026 2585.1885 4080963
2158.5493 674.83026 2585.1885 4146499
2167.3062 672.52155 2576.3442 3883584
2181.8218 672.02069 2574.4255 3817534
2183.521 667.6087 2557.5237 3422776
2210.4761 670.92651 2570.2339 3159090
2229.2246 671.72357 2573.2874 3290421
2244.2639 671.3996 2572.0461 3159091
2260.4053 671.40753 2572.0764 3027505
2278.3108 671.93567 2574.0999 3027505
2296.4263 672.51782 2576.3298 3027505
2304.2612 670.10217 2567.0759 2896176
2326.0359 671.74579 2573.3723 2896175
2344.5544 672.43286 2576.0044 2830382
2347.2808 668.61218 2561.3679 2830126
2362.7415 668.44604 2560.7314 3488826
2363.3069 664.09662 2544.0693 3619898
2390.2488 667.16766 2555.8342 3751741
2421.2112 671.31256 2571.7126 3751742
2423.4631 667.49487 2557.0876 3685951
2432.5537 665.59857 2549.8232 3751744
2454.7327 667.28491 2556.2834 3949123
2472.49 667.75525 2558.085 4212294
2474.4561 663.98212 2543.6309 4278085
2491.1052 664.17212 2544.3586 3817533
2496.8877 661.4809 2534.0488 3488571
2512.512 661.41443 2533.7942 3422778
2533.6272 662.78528 2539.0457 3422778
2542.4124 660.93359 2531.9521 3356985
2551.614 659.21252 2525.3591 3554364
2567.4363 659.21252 2525.3591 3488571
2577.0994 657.64087 2519.3381 3488571
nan nan nan 16777215
nan nan nan 16777215
nan nan nan 16777215
nan nan nan 16777215
nan nan nan 16777215
nan nan nan 16777215
nan nan nan 16777215
nan nan nan 16777215
nan nan nan 16777215
-2168.6958 630.49481 2359.0244 3752511
-2169.7588 635.13239 2376.376 3555132
-2156.7832 635.69623 2378.4858 3621181
-2144.228 636.39276 2381.0918 3686718
-2122.405 634.3291 2373.3706 3818304
-2113.4312 636.10376 2380.0105 3884097
-2119.9824 642.6095 2404.3521 4410441
-2103.6394 642.21906 2402.8911 4344648
-2061.218 633.80414 2371.4065 4475207
-2055.9297 636.76794 2382.4956 4212549
-2046.2798 638.41443 2388.6558 4147269
-2032.7567 638.86774 2390.3521 4081476
-2013.9576 637.65741 2385.8235 3949890
-2010.4805 641.31635 2399.5137 3686718
-1983.5627 637.49701 2385.2234 3620925
-1973.6802 639.13605 2391.356 3818304
-1968.634 642.37842 2403.4873 3686718
-1960.792 644.7514 2412.366 3489339
-1946.9291 645.16595 2413.9172 3357753
-1931.1691 644.95361 2413.1226 3291960
-1911.5446 643.43701 2407.4482 3226680
-1915.2848 649.82349 2431.3435 3687487
-1912.5897 654.11163 2447.3877 3884610
-1900.5513 655.24768 2451.6382 4016196
-1880.114 653.48303 2445.0359 4016196
-1863.8794 653.16217 2443.8352 3950403
-1848.4709 653.12787 2443.7068 3753024
-1820.5701 648.64209 2426.9233 4015942
-1814.9062 652.07031 2439.75 4147784
-1804.0316 653.66864 2445.7302 4147529
-1787.1666 653.10522 2443.6221 4082249
-1765.3414 650.70367 2434.6367 4543057
-1756.5891 653.12103 2443.6814 4871764
-1754.4766 658.07129 2462.2031 4805715
-1736.5198 657.11383 2458.6206 4345163
-1703.453 650.37024 2433.3892 4016197
-1694.6307 652.84491 2442.6482 3884610
-1680.8104 653.42175 2444.8064 4016196
-1666.7013 653.89575 2446.5801 4081989
-1653.7406 654.83337 2450.0881 4081989
-1642.8092 656.59961 2456.6965 4147782
-1620.1385 653.66296 2445.709 4344904
-1592.2839 648.55878 2426.6113 4279111
-1590.1338 653.92676 2446.696 3950403
-1574.8044 653.92676 2446.696 3752511
-1548.9425 649.51019 2430.1711 3686718
-1526.1622 646.31091 2418.2012 3555132
-1506.2244 644.26331 2410.5398 3423546
-1487.9987 642.914 2405.4915 3423546
-1466.9833 640.31946 2395.7837 3620925
-1456.5354 642.33148 2403.3118 3489339
-1445.432 644.09344 2409.9043 3621181
-1436.3525 646.80402 2420.0459 3818304
-1413.5436 643.32391 2407.0249 3686974
-1402.4723 645.1684 2413.9263 3686718
-1388.7708 645.82983 2416.4011 3884097
-1370.3079 644.2674 2410.5549 3555132
-1355.9875 644.63934 2411.9468 3489339
-1349.8716 648.96411 2428.1279 3489339
-1327.9918 645.72241 2415.9993 3160374
-1309.1844 643.91718 2409.2446 3094581
-1291.6892 642.72272 2404.7756 3094838
-1276.2719 642.5462 2404.115 3160374
-1259.1797 641.51215 2400.2461 3160374
-1250.4382 644.75891 2412.394 3291704
-1233.6611 643.89105 2409.147 3226166
-1224.0231 646.77405 2419.9338 3226424
-1208.8615 646.77405 2419.9338 3357754
-1189.1591 644.31378 2410.7285 3423289
-1177.3301 646.11102 2417.4531 3751741
-1166.3901 648.44946 2426.2024 3883327
-1154.5969 650.36896 2433.3843 4080963
-1138.196 649.70972 2430.9177 3094581
-1124.615 650.66394 2434.488 2831409
-1113.5099 653.09662 2443.5901 3160374
-1100.3815 654.39398 2448.4441 3357753
-1092.9794 659.18152 2466.3569 3226167
-1075.4126 657.88812 2461.5176 3489339
-1056.8141 655.91669 2454.1414 3423802
-1041.9847 656.26093 2455.4294 3291960
-1022.1855 653.43848 2444.8691 3226167
-1007.2365 653.67792 2445.7649 3225910
-997.92126 657.63733 2460.5793 3621694
-982.505 657.63733 2460.5793 3358522
-965.05573 656.25488 2455.4067 3490108
-953.19623 658.69037 2464.5193 4147782
-937.75519 658.69037 2464.5193 3950403
-922.24658 658.64203 2464.3384 3818817
-905.60571 657.76971 2461.0747 4345161
-898.11743 663.63013 2483.0015 3753024
-887.91699 667.65771 2498.071 3358266
-869.37708 665.44666 2489.7981 4016196
-853.77771 665.44666 2489.7981 4081989
-840.52112 667.30658 2496.7571 3950403
-829.07941 670.70526 2509.4736 4081989
-818.66315 675.08099 2525.8455 4345161
-808.05615 679.46881 2542.2627 3884610
-780.32129 669.34119 2504.3699 3753024
-773.08643 676.74329 2532.0649 4081989
-751.70886 671.8158 2513.6287 3818817
-736.92352 672.69519 2516.9189 3753024
-719.21808 670.8891 2510.1614 4213318
-692.36035 660.27417 2470.4451 5003091
-676.8822 660.27417 2470.4451 4805712
-671.73065 670.58301 2509.0161 4476494
-659.64362 674.29645 2522.9102 4016195
-644.63574 675.13318 2526.0408 3621438
-631.49701 678.01886 2536.8376 4410954
-624.62366 687.95416 2574.0112 5003091
-597.67523 675.71973 2528.2354 5068884
-589.95337 685.14795 2563.5115 5398105
-573.66956 684.88226 2562.5173 4608079
-556.59784 683.63342 2557.8447 3818050
-535.4068 677.10101 2533.4036 4344648
-517.97681 675.07135 2525.8093 4278855
-499.51038 671.5202 2512.5227 3949890
-480.80054 667.40021 2497.1074 3949891
-465.08484 667.29895 2496.7288 4015683
-443.28818 658.16211 2462.5427 4213062
-430.92764 662.88159 2480.2009 4344648
-418.22919 667.41492 2497.1626 3555132
-402.3851 667.08575 2495.9309 4015683
-384.1181 662.55066 2478.9629 3555132
-368.10727 661.68903 2475.739 3949890
-352.07953 660.71985 2472.1125 4147269
-334.95483 657.50806 2460.0957 3620925
-319.0661 656.52979 2456.4353 3752511
-303.39536 655.92352 2454.167 3818304
-286.8241 653.20178 2443.9834 3489339
-271.34543 652.80151 2442.4858 3489339
-256.2106 653.23016 2444.0896 3489339
-240.13219 651.15448 2436.3235 3555132
-227.08037 657.56134 2460.2949 3620925
-211.20279 656.1228 2454.9126 3950147
-195.50731 655.06836 2450.9673 4147525
-179.89 654.11841 2447.4131 4410441
-164.00169 651.91425 2439.166 3752767
-149.23724 654.18347 2447.6565 3818560
-133.90192 654.18347 2447.6565 4147526
-118.39751 653.25067 2444.1663 4147012
-102.9807 652.5957 2441.7158 3752511
-88.23275 656.69031 2457.0359 3160117
-73.132263 659.3374 2466.9402 2831409
-57.676121 659.3374 2466.9402 3160374
-41.592278 649.53479 2430.2634 3226167
-25.837423 636.51508 2381.5493 3357753
-10.809673 630.29901 2358.2917 3291960
3.9912615 634.35266 2373.4587 3423546
19.065989 641.22272 2399.1633 3489595
33.938789 638.23822 2387.9968 4015683
48.900333 638.23822 2387.9968 4147525
64.18998 641.5174 2400.2659 3423803
80.403946 651.03595 2435.8799 3423546
95.920105 652.76868 2442.363 3818304
110.20048 646.77179 2419.9253 3423803
125.36206 646.77179 2419.9253 3029045
140.76483 647.8819 2424.0789 2963252
156.56042 650.40759 2433.5291 2897459
172.52434 653.12238 2443.6865 3160374
188.3067 654.76318 2449.8257 3357753
204.07184 656.10144 2454.8325 3423546
218.85071 654.30334 2448.105 3489339
235.57057 658.16376 2462.5491 3291960
251.57469 659.67279 2468.1951 3160374
267.64569 661.17224 2473.8054 3291960
283.2619 661.44562 2474.8281 3489339
297.91196 659.55157 2467.7415 3226167
313.46619 659.74744 2468.4744 3226167
332.73798 667.38123 2497.0366 2568237
345.57773 662.008 2476.9324 2568237
360.09296 660.16821 2470.0486 2634030
374.48981 658.27191 2462.9536 2699823
391.21112 660.45001 2471.103 2699823
406.69336 660.45001 2471.103 2831409
421.71548 659.73022 2468.4099 2897459
436.68195 658.97736 2465.593 2765616
450.12646 656.05774 2454.6692 2699823
464.03589 653.98621 2446.9185 2634030
482.36942 658.08289 2462.2463 2436651
495.46655 655.00317 2450.7234 2764590
508.42606 651.93213 2439.2329 2764846
528.65302 658.08716 2462.2622 2633260
539.32703 652.33838 2440.7529 2830639
554.61908 652.33838 2440.7529 3093811
565.987 647.84656 2423.9468 2962225
571.01849 636.52637 2381.5916 2830639
594.70087 646.04364 2417.2009 3093811
615.72742 652.27484 2440.5151 3028018
631.43457 652.70551 2442.1265 2962225
653.5022 659.53485 2467.679 2962225
668.96295 659.53485 2467.679 3028018
682.05554 657.25275 2459.1404 3620155
695.75702 655.64532 2453.126 3685948
710.68707 655.23999 2451.6096 3620155
727.99957 657.00208 2458.2024 3620155
742.93378 656.58911 2456.6575 3423803
762.76569 660.43365 2471.0417 3489339
783.88556 665.2182 2488.9434 3555388
796.54297 662.77472 2479.801 3884354
806.04205 657.84723 2461.3645 4147526
818.61475 655.56598 2452.8293 4147269
834.34979 655.85468 2453.9094 4015940
849.72424 655.85468 2453.9094 3818304
869.3432 659.07251 2465.949 3949890
882.5036 657.36707 2459.5681 3884097
898.47699 657.7796 2461.1116 3094581
918.0564 660.77362 2472.3137 2962995
945.93781 669.54449 2505.1304 4213062
954.78528 664.77655 2487.291 4278855
961.22504 658.51227 2463.853 3818304
978.7829 659.94244 2469.2039 3686974
1009.2863 669.92065 2506.5378 3752768
1024.9905 669.92065 2506.5378 3949891
1038.1312 668.27051 2500.3638 4015685
1042.564 661.14716 2473.7114 3752513
1056.7144 660.30469 2470.5593 3423547
1075.6436 662.42963 2478.51 3686719
1091.1722 662.42963 2478.51 4015684
1101.7557 659.46967 2467.4351 3949893
1114.8419 658.06891 2462.1941 3818304
