# .PCD v0.7 - Point Cloud Data file format
VERSION 0.7
FIELDS x y z rgb
SIZE 4 4 4 4
TYPE F F F U
COUNT 1 1 1 1
WIDTH 1285
HEIGHT 1
VIEWPOINT 0 0 0 1 0 0 0
POINTS 1285
DATA ascii
-927.15771 601.95551 1289.8168 3555388
-912.73401 597.80133 1280.9156 3489595
-898.72321 593.84631 1272.4412 3160631
-889.95306 593.31439 1271.3014 3160374
-881.05652 592.68774 1269.9587 3226167
-876.09058 594.71802 1274.309 3884097
-866.33093 593.50159 1271.7024 3884097
-853.52429 590.15564 1264.5331 3358010
-845.98718 590.42474 1265.1097 3489339
-840.99951 592.49506 1269.5458 3949890
-832.87488 592.37378 1269.2859 3818304
-831.95605 597.42462 1280.1084 3489339
-818.36969 593.38867 1271.4606 3226167
-817.27899 598.42297 1282.2476 3160374
-809.20325 598.39185 1282.1809 3226167
-791.61041 591.25183 1266.882 2568494
-777.30865 586.4502 1256.5934 2370858
-770.04205 586.91229 1257.5836 2239272
-765.39062 589.39789 1262.9094 2831666
-761.25043 592.33313 1269.1989 3291960
-761.71704 598.95276 1283.3828 2963252
-746.24335 593.04578 1270.7258 3226425
-737.33618 592.28613 1269.0981 3620926
-727.0235 590.36865 1264.9895 3818304
-725.08167 595.28125 1275.5157 3226167
-721.15662 598.65686 1282.7488 3489339
-707.15594 593.65033 1272.0211 3160374
-696.93634 591.73993 1267.9277 2634030
-688.94684 591.70074 1267.8439 2502444
-680.88489 591.59784 1267.6233 2699823
-685.08893 602.27563 1290.5028 3488569
-678.81903 603.89081 1293.9636 3620155
-669.67114 602.95367 1291.9557 3554362
-663.94495 605.11212 1296.5806 3620155
-657.40424 606.57257 1299.7098 3422776
-649.79565 607.0719 1300.7798 3093811
-640.5968 606.07935 1298.653 2830639
-626.81995 600.67426 1287.0714 2435881
-612.49341 594.5946 1274.0446 2501930
-609.97162 599.96552 1285.5529 3489596
-606.3468 604.38074 1295.0134 3818304
-595.74561 601.86768 1289.6285 4279112
-581.97504 596.03949 1277.1405 4213319
-576.73822 598.91064 1283.2925 3094838
-569.80017 600.07135 1285.7795 2831409
-557.48029 595.51636 1276.0195 3225140
-548.85406 594.83191 1274.553 3356983
-545.31073 599.71722 1285.0208 3685948
-536.74347 599.14099 1283.7861 3817534
-527.64099 597.94073 1281.2142 3422776
-519.62 597.94788 1281.2296 3225397
-511.47079 597.80542 1280.9243 3028275
-499.53082 593.1571 1270.9644 2304295
-494.81656 597.07721 1279.364 2633260
-487.02219 597.34857 1279.9454 3028018
-477.88025 595.94849 1276.9456 3291190
-468.11063 593.70471 1272.1377 3291190
-459.28848 592.60565 1269.7827 3291190
-450.52493 591.5448 1267.5096 3422776
-442.17596 590.99994 1266.3422 3488569
-434.59714 591.48334 1267.3781 3356983
-429.36777 595.24182 1275.4314 3093811
-423.25656 597.89722 1281.1211 3093811
-416.38388 599.5589 1284.6815 3356983
-407.85638 598.85614 1283.1758 2764846
-398.44092 596.79517 1278.7596 2699053
-392.86411 600.51721 1286.735 2699053
-385.97885 602.35339 1290.6693 3225397
-378.74377 603.71039 1293.577 2764846
-369.72025 602.21368 1290.37 2830639
-363.60773 605.49762 1297.4066 2896432
-355.75787 605.97253 1298.4242 3356983
-347.62286 605.97253 1298.4242 3291190
-339.88498 606.68152 1299.9432 3093811
-330.85849 605.0686 1296.4873 3225397
-322.64752 604.90344 1296.1334 2501674
-315.10294 606.01141 1298.5074 3093811
-306.27533 604.6452 1295.5801 3488569
-297.01474 602.32648 1290.6117 2896432
-289.73285 604.00299 1294.204 3356983
-279.61548 599.69476 1284.9727 3949120
-269.54535 595.23529 1275.4174 4146499
-261.04599 594.07819 1272.938 3488569
-252.40947 592.52606 1269.6123 3356983
-245.36349 594.72827 1274.3309 4080706
-236.6922 593.00659 1270.6418 3356983
-228.0264 591.1792 1266.7263 3356983
-218.11424 585.87225 1255.355 3159604
-209.97168 585.09937 1253.699 2896432
-200.89832 581.57178 1246.1404 2962225
-195.47833 588.76263 1261.5483 3028018
-186.28123 584.70386 1252.8514 2962482
-179.01628 586.61932 1256.9558 3554362
-171.72299 588.61401 1261.2297 2962225
-164.25307 590.1665 1264.5563 3093811
-156.46545 590.67694 1265.65 3159604
-149.2562 593.54181 1271.7887 2896432
-141.97505 596.42786 1277.9727 3291190
-134.38699 598.29254 1281.9681 3159604
-126.89005 600.82568 1287.396 2962225
-119.37276 603.59985 1293.3402 3093811
-111.46735 604.67279 1295.6392 3620155
-104.41812 610.92334 1309.0323 3685948
-95.82811 608.45648 1303.7466 3028531
-87.82473 609.60175 1306.2006 2370601
-79.716644 610.18091 1307.4415 1778721
-71.826546 612.75244 1312.9515 2897202
-63.600498 612.75244 1312.9515 2896945
-55.12125 609.95062 1306.948 2567467
-47.278061 614.4375 1316.5621 2699053
-39.046234 614.7027 1317.1304 2830639
-30.68186 612.46405 1312.3336 2699053
-22.492985 613.37219 1314.2795 2567467
-14.299201 615.11816 1318.0205 2567724
-6.0284791 613.80316 1315.2029 2633260
2.2036812 611.58478 1310.4496 2567467
10.339091 607.18243 1301.0166 2699053
18.464832 606.34406 1299.2202 3093811
26.563517 605.40204 1297.2017 2764846
34.766911 606.72876 1300.0446 2765103
43.074734 609.02832 1304.9718 3225397
50.887012 604.70544 1295.7092 3422776
58.768566 602.28204 1290.5165 3291190
66.71875 601.06311 1287.9047 2699053
73.658005 591.98254 1268.4476 3356983
81.297913 589.75323 1263.6708 3291190
90.685539 599.47278 1284.4971 2830639
99.077187 601.56067 1288.9708 2962225
107.04986 600.98169 1287.7302 2962225
115.10348 600.90649 1287.5691 2699053
122.62193 598.23022 1281.8346 2962225
131.08968 600.22955 1286.1187 3159604
139.14761 600.22955 1286.1187 3027505
147.41136 601.06879 1287.9167 2632747
155.35756 600.59326 1286.8979 3093298
162.51021 597.24829 1279.7306 3093041
170.40605 596.82074 1278.8146 2830126
178.74481 597.91327 1281.1554 2500904
185.05257 592.40997 1269.3634 2237732
195.99025 601.57129 1288.9935 3554362
204.84619 603.87061 1293.9203 2896432
212.47182 602.5061 1290.9966 2764846
220.06334 601.14856 1288.0878 3028018
227.4464 599.33771 1284.2076 2830639
235.49237 599.33771 1284.2076 3225397
243.17497 598.44354 1282.2916 3422776
251.98627 600.29535 1286.2595 3225397
260.18985 600.62952 1286.9756 3225397
268.21274 600.539 1286.7817 2633260
275.53082 598.92181 1283.3164 2370344
283.89581 599.60742 1284.7855 3093811
289.01218 593.58307 1271.8771 3093811
296.9809 593.58307 1271.8771 2896432
306.75107 597.08966 1279.3907 2896432
312.85394 593.46094 1271.6155 2501931
321.04837 593.88159 1272.5167 2764333
330.81198 597.11414 1279.4431 3356470
338.33167 596.23926 1277.5686 3356470
347.14374 597.62982 1280.5481 3027505
357.46747 601.50116 1288.8433 3093298
366.71777 603.43512 1292.9872 3027505
373.65686 601.56458 1288.9791 2566954
383.23843 603.93738 1294.0634 2698540
390.24094 602.23181 1290.4088 2830126
398.32571 602.23181 1290.4088 2304551
409.36252 606.60614 1299.7817 2699052
420.66745 611.1994 1309.6238 2764845
426.56961 607.9173 1302.5912 2435880
433.0621 605.58386 1297.5913 2370088
443.69699 609.02234 1304.959 2370087
455.34894 613.70721 1314.9973 2501674
462.08832 611.72217 1310.7439 2699053
470.52542 612.01465 1311.3706 2962225
481.32745 615.32043 1318.454 3225397
491.41278 617.61389 1323.3682 2962225
500.31512 618.36902 1324.9862 3291190
504.44278 613.29468 1314.1133 3225397
515.09869 616.19269 1320.3229 3291190
521.01093 613.41406 1314.3691 3291447
527.52704 611.42188 1310.1006 2633004
538.4635 614.53571 1316.7725 2501161
545.65521 613.34607 1314.2235 2830126
551.85602 611.0946 1309.3993 2369575
558.54602 609.44287 1305.8601 2106403
565.08331 607.67462 1302.0712 2632747
568.69879 602.85938 1291.7535 2435368
578.3421 604.47949 1295.225 2106403
588.14954 606.224 1298.9629 2830126
595.65289 605.57831 1297.5795 2830127
604.44092 606.23865 1298.9943 2501674
612.91064 606.56628 1299.6963 2764846
620.21002 605.74231 1297.9308 2567467
625.33282 602.84143 1291.7151 2962225
632.8493 602.29272 1290.5394 2896431
640.90216 602.2619 1290.4734 2962229
651.10419 604.22638 1294.6826 3817536
654.55957 599.9585 1285.5378 3620157
664.56012 601.72076 1289.3138 4015172
672.86896 601.92731 1289.7563 3883329
676.44092 597.94177 1281.2166 3422778
678.03113 592.31854 1269.1675 3620158
694.54791 599.71405 1285.014 3751744
703.76135 600.70624 1287.14 3817536
711.81586 600.698 1287.1223 3817536
720.96216 601.60095 1289.057 3554618
723.14447 596.73718 1278.6354 3422263
728.9903 594.97003 1274.8489 2961712
740.0921 597.48438 1280.2365 2764333
749.75732 598.79749 1283.05 2961712
754.0473 595.83533 1276.703 3027505
762.04626 595.83533 1276.703 3093298
771.48761 596.95142 1279.0945 3027505
779.65656 597.07013 1279.3489 2830383
787.03003 596.58344 1278.306 2895919
794.04315 595.83618 1276.7048 3093298
802.04211 595.83618 1276.7048 3422263
803.74133 591.20233 1266.7759 3225397
814.69537 593.39996 1271.4849 2962225
821.89191 592.84485 1270.2953 3028274
829.85071 592.84485 1270.2953 2962481
841.00745 595.10773 1275.144 2962482
849.40961 595.39722 1275.7643 3028018
857.12695 595.20575 1275.354 3159091
861.5473 592.74945 1270.0909 3290677
866.11139 590.43616 1265.1342 3422263
879.90845 594.40198 1273.6317 2961712
887.9184 594.42218 1273.675 3027505
898.86835 596.39276 1277.8975 3356470
902.69293 593.64264 1272.0046 3356470
910.5744 593.58521 1271.8817 3093298
919.25391 594.04456 1272.866 3159091
929.16223 595.2832 1275.52 3093555
934.29803 593.46924 1271.6332 3159091
942.26526 593.46924 1271.6332 3093298
951.44763 594.22821 1273.2595 2830126
958.72577 593.79517 1272.3315 2764333
965.73431 593.20361 1271.0641 2764333
969.21704 590.47375 1265.2147 2830126
973.82098 588.4657 1260.912 3093298
985.82196 590.92395 1266.1793 3619646
995.9021 592.20068 1268.915 3817024
991.79828 585.08972 1253.6782 3751230
999.65295 585.08972 1253.6782 3290677
1026.0748 595.87219 1276.7821 3224884
1036.1227 597.05255 1279.3112 3224884
1049.0533 599.86328 1285.3337 3290677
1056.7312 599.65039 1284.8776 3290677
1059.7206 596.80029 1278.7706 3619642
1064.7805 595.15033 1275.2354 3751228
1068.3633 592.70551 1269.9967 3817021
1076.1614 592.61798 1269.8092 3488056
1084.1172 592.61798 1269.8092 3948607
1097.2924 595.45038 1275.8782 3948607
1110.8859 598.4671 1282.3422 3685435
1117.8258 597.88177 1281.088 3553849
1125.8794 597.89618 1281.1189 3224884
1137.1285 599.59546 1284.7599 2830382
1145.178 599.59546 1284.7599 2895919
1153.4908 599.73242 1285.0533 2961712
1160.9752 599.43976 1284.4263 2830126
1169.4165 599.64172 1284.859 2632747
1172.7279 597.22852 1279.6882 2501161
1185.1455 599.45398 1284.4568 2830126
1193.3187 599.51715 1284.5922 2830126
1194.9766 596.32806 1277.7589 2895919
1189.3213 589.55634 1263.249 3027505
1198.8224 590.33765 1264.923 3488056
1217.3079 595.50366 1275.9923 3159091
1241.1985 603.22925 1292.546 2764333
1244.6335 600.9776 1287.7214 2764333
1258.6571 603.83484 1293.8436 3224884
1267.1135 604.00165 1294.2012 3290677
1274.806 603.80457 1293.7788 3159091
1281.7183 603.24274 1292.5751 3422263
1288.6292 602.68744 1291.3851 3553849
1291.558 600.28821 1286.2443 3422262
1274.6044 588.73505 1261.4891 3159093
1282.2155 588.60077 1261.2015 2566956
1297.3469 591.89923 1268.269 2566956
nan nan nan 16777215
nan nan nan 16777215
nan nan nan 16777215
nan nan nan 16777215
nan nan nan 16777215
nan nan nan 16777215
nan nan nan 16777215
nan nan nan 16777215
nan nan nan 16777215
nan nan nan 16777215
nan nan nan 16777215
nan nan nan 16777215
nan nan nan 16777215
nan nan nan 16777215
nan nan nan 16777215
nan nan nan 16777215
nan nan nan 16777215
-1086.0483 590.91992 1249.4855 4014913
-1065.3278 583.85437 1234.5455 4146501
-1049.8956 579.60498 1225.5603 4278344
-1043.2814 580.19678 1226.8116 3751740
-1048.5562 587.45837 1242.166 3751741
-1042.8873 588.65137 1244.6887 3751741
-1033.2058 587.58044 1242.4243 3291190
-1028.3062 589.2334 1245.9193 3159604
-1021.195 589.63458 1246.7677 3685948
-1013.6734 589.80328 1247.1243 3883327
-1006.1122 589.95123 1247.4371 3291190
-1007.7776 595.55414 1259.2844 3093811
-1010.2989 601.75513 1272.3962 3159604
-1004.4471 603.02802 1275.0876 3291190
-997.55933 603.69434 1276.4967 3093811
-990.03851 603.98529 1277.1118 3225397
-984.3656 605.41742 1280.14 3159604
-971.492 602.40802 1273.7769 3225397
-963.51141 602.40802 1273.7769 3422519
-953.31958 601.01398 1270.8291 3356983
-945.35736 601.01398 1270.8291 3159347
-934.02716 598.85449 1266.2629 3093811
-923.10474 596.92175 1262.1761 3093811
-915.85718 597.35248 1263.0869 2962225
-907.99695 597.38757 1263.1611 2961968
-898.35083 596.23804 1260.7305 3028018
-886.06451 593.30029 1254.5187 3225140
-878.62488 593.58417 1255.119 3160374
-872.4657 594.74615 1257.5759 3291960
-863.47229 593.97968 1255.9552 3555132
-850.36237 590.34125 1248.2618 3226424
-846.32703 592.99347 1253.87 3423546
-837.12421 592.04095 1251.8558 3423546
-829.68518 592.32953 1252.4661 3226167
-822.82111 593.03809 1253.9642 3291960
-818.43408 595.56268 1259.3025 3357753
-811.55823 596.30786 1260.8781 3489339
-804.5127 596.94165 1262.2183 3884354
-790.37653 592.27472 1252.3501 3818560
-775.60846 587.03583 1241.2727 2502444
-755.26611 577.42908 1220.9595 1712671
-750.33557 579.5293 1225.4003 1844258
-753.1579 587.72278 1242.7252 2896432
-749.77301 591.19305 1250.063 3291190
-747.15582 595.34839 1258.8494 3225140
-739.38776 595.44421 1259.052 3488570
-732.5351 596.28729 1260.8346 3554876
-723.77686 595.58069 1259.3405 3291960
-719.92242 598.93817 1266.4398 3160374
-708.04657 595.62274 1259.4294 3489339
-697.40082 593.27905 1254.4738 3226167
-691.29132 594.78491 1257.6578 2502444
-686.19299 597.20551 1262.7761 1976100
-679.3338 598.13208 1264.7355 2436908
-675.35181 601.64392 1272.1611 3225653
-665.96301 600.3653 1269.4575 3093811
-658.22491 600.56189 1269.8732 3159604
-650.2688 600.56189 1269.8732 3488569
-645.21674 603.27716 1275.6146 3093811
-638.13959 604.14343 1277.4463 3159604
-628.82727 602.88873 1274.7932 3028018
-620.49561 602.55402 1274.0854 2962225
-606.6217 596.75842 1261.8308 2896432
-602.11755 600.14886 1268.9999 3291190
-592.50488 598.47021 1265.4503 3620155
-583.79614 597.67133 1263.7611 4409671
-577.49432 599.34857 1267.3076 4212292
-571.53918 601.43732 1271.7242 3356983
-562.43402 600.22345 1269.1576 3093811
-555.39471 601.21106 1271.2458 3093811
-547.04016 600.78296 1270.3406 3225397
-539.08105 600.78296 1270.3406 3488569
-533.38397 603.34167 1275.7509 3883327
-523.63391 601.32385 1271.4843 3685948
-513.51465 598.81323 1266.1757 3225397
-502.18341 594.78833 1257.665 2633260
-497.30038 598.3941 1265.2894 2106916
-489.37296 598.3941 1265.2894 2041123
-478.81711 595.1272 1258.3817 2172709
-469.47519 593.28503 1254.4865 3028018
-463.68097 595.9397 1260.0996 3028018
-454.15939 593.81287 1255.6025 2962225
-444.9306 592.00061 1251.7705 3291190
-437.62265 592.72485 1253.302 4014912
-428.45966 590.91724 1249.4797 3685948
-422.08661 592.96167 1253.8027 4014913
-414.23111 592.96167 1253.8027 3422776
-413.0209 602.65808 1274.3055 3094068
-406.12442 604.27612 1277.7268 3028018
-396.51834 601.8465 1272.5894 3028018
-387.51556 600.25165 1269.2172 2830639
-382.79309 605.35895 1280.0165 2830639
-374.77341 605.35895 1280.0165 3291190
-367.00525 605.77417 1280.8944 3356983
-358.39227 604.78229 1278.7971 2962225
-349.41455 603.11548 1275.2727 2370088
-343.42981 606.65771 1282.7626 3028018
-335.14938 606.21722 1281.8312 4409671
-324.40851 601.19537 1271.2126 4212292
-320.43771 608.7829 1287.2563 2633260
-310.84637 605.80835 1280.9667 2238502
-302.04709 604.26068 1277.6941 2962225
-289.74466 595.42963 1259.0211 3291190
-282.98361 597.81073 1264.0559 3949120
-275.0639 597.81073 1264.0559 3817534
-266.51828 596.4101 1261.0942 3686204
-257.20248 593.14764 1254.1959 3422776
-249.19571 592.79358 1253.4473 3291190
-241.56483 593.33972 1254.6021 3554362
-232.98488 591.51306 1250.7396 3488569
-224.64226 590.1828 1247.9268 3028018
-215.96553 587.84717 1242.9882 2896432
-207.16766 584.99463 1236.9567 3159604
-199.20921 584.38293 1235.6632 3159604
-192.47942 587.47174 1242.1943 2962225
-185.71777 590.71954 1249.0618 3225397
-178.04085 591.21375 1250.1068 3488569
-170.90166 593.62128 1255.1974 2962225
-163.02547 593.57764 1255.1052 3883327
-154.73058 591.92786 1251.6167 3817534
-147.42419 594.08527 1256.1785 3554362
-139.92644 595.67145 1259.5323 3488569
-133.11644 600.54993 1269.8479 3159604
-125.29783 601.20911 1271.2417 3225397
-116.7509 598.22595 1264.9338 2896432
-108.83713 598.28876 1265.0667 2830639
-101.5502 602.078 1273.0789 3093811
-92.991341 598.32922 1265.1522 3554362
-86.139679 605.88995 1281.1392 3028275
-79.246613 614.68329 1299.7324 2830639
-71.179169 615.33844 1301.1178 3159604
-62.98008 614.87775 1300.1437 2633260
-54.396549 609.96936 1289.765 2567467
-46.311337 609.91101 1289.6416 2633260
-38.42881 613.06146 1296.3031 2896432
-30.402054 614.98273 1300.3657 3225397
-22.169687 612.62915 1295.389 3291190
-14.145111 616.61511 1303.8173 3356983
-5.9473023 613.62415 1297.4929 3291190
2.1800437 613.10406 1296.3932 3028018
10.261197 610.65503 1291.2148 2567467
18.332935 610.052 1289.9397 2304295
26.277094 606.8714 1283.2145 2501674
34.345013 607.36987 1284.2684 2764846
42.504639 608.99298 1287.7004 3291190
50.398556 606.89856 1283.2719 3554362
58.404255 606.54126 1282.5165 2370088
65.429314 597.31805 1263.014 2699053
73.25621 596.61536 1261.5283 3883327
80.896812 594.68011 1257.4363 3028018
89.215202 597.6286 1263.6708 2830639
97.692551 601.07452 1270.957 3093811
105.69597 601.30475 1271.444 2962482
113.54977 600.7113 1270.1891 3159604
121.79092 602.11047 1273.1476 3225397
129.23141 599.62268 1267.8873 3028018
137.17902 599.63971 1267.9232 2764077
146.04825 603.46301 1276.0074 2501931
153.71646 602.18445 1273.304 2896689
161.5554 601.66791 1272.2118 2633517
169.49246 601.5481 1271.9585 2830896
176.64909 598.79376 1266.1344 2567467
183.86134 596.45642 1261.1923 2172709
194.30211 604.3537 1277.8909 3422776
202.30849 604.3537 1277.8909 2830639
210.34398 604.43732 1278.0677 2304295
217.68002 602.57867 1274.1376 2962225
225.42448 601.94202 1272.7915 3093811
233.39719 601.93762 1272.7821 2896432
241.01338 601.04437 1270.8933 3159604
248.08029 598.8822 1266.3215 3291190
256.63074 600.32446 1269.3711 3225397
264.59546 600.35101 1269.4274 2633260
271.77225 598.6405 1265.8104 2172709
278.09686 595.20306 1258.542 2567467
286.50861 596.29907 1260.8595 2830639
294.45645 596.39667 1261.0658 2764846
301.7052 595.11011 1258.3455 2962225
309.47488 594.89056 1257.8812 2764846
318.24216 596.55182 1261.3939 2567210
327.87946 599.724 1268.1014 3159091
335.92636 599.90588 1268.4861 3553849
343.8208 599.81335 1268.2904 3224884
351.69778 599.69531 1268.0408 2764333
359.64246 599.69531 1268.0408 2369575
370.47565 604.40771 1278.0051 2369575
379.30832 605.72607 1280.7927 2237989
386.68753 604.71692 1278.6588 2764332
394.86938 604.97839 1279.2117 2370344
401.44901 602.82349 1274.6553 2370088
413.09995 608.2193 1286.0646 2304296
422.58685 610.28345 1290.4292 2106917
431.93933 612.07965 1294.2272 2370090
439.59393 611.44794 1292.8915 2501676
448.22934 612.17871 1294.4366 2633262
458.89563 615.60791 1301.6876 2764846
465.7655 613.91339 1298.1046 2830639
473.89856 613.91339 1298.1046 3093811
484.40466 616.93573 1304.4952 3028018
493.50809 618.10101 1306.9592 3028275
499.87384 615.85535 1302.2108 2699053
507.36163 615.04199 1300.491 2435881
515.75037 615.32928 1301.0984 2370088
523.34552 614.67548 1299.7159 2698797
531.06531 614.18585 1298.6807 2764333
537.84027 612.63477 1295.401 2632747
547.75085 614.6485 1299.6589 2501161
552.09125 610.44415 1290.769 2106403
558.65442 608.78357 1287.2577 2040610
567.4751 609.59528 1288.974 2106403
572.22406 606.07159 1281.5233 2172196
584.67059 610.68555 1291.2793 3488056
592.7608 610.68555 1291.2793 3290677
601.06403 610.90192 1291.7369 2764846
608.38049 610.12305 1290.0901 2830639
616.23322 609.89532 1289.6084 2764846
622.01398 607.64941 1284.8595 2896432
629.61151 607.21301 1283.9368 3225400
634.73267 604.42944 1278.051 3422779
639.86035 601.72131 1272.3248 3488570
647.83185 601.72131 1272.3248 3291192
652.47498 598.66748 1265.8674 3817536
664.09277 602.00952 1272.9342 4409673
670.37048 600.48895 1269.7189 4804431
677.36377 599.63739 1267.9183 4014915
685.79205 600.06122 1268.8145 3751743
696.42084 602.37866 1273.7147 3488571
703.61176 601.70374 1272.2875 3488571
708.21967 598.85968 1266.2739 3357242
719.46277 601.62714 1272.1256 3158837
725.77521 600.25604 1269.2264 2961968
730.27063 597.42816 1263.2469 2764333
731.18274 591.76086 1251.2637 2632747
742.18048 594.28973 1256.6108 3027505
752.24561 596.02661 1260.2834 2895919
760.15009 596.03314 1260.2972 2961712
766.60291 594.91309 1257.929 3422263
771.65192 592.73755 1253.3287 3224884
784.09546 596.22858 1260.7104 3093298
791.10205 595.55688 1259.2903 3619642
794.08026 591.89587 1251.5491 3488056
803.98834 593.42126 1254.7745 3027505
809.60071 591.77722 1251.2982 3093298
817.44043 591.77722 1251.2982 3027505
827.03748 593.03729 1253.9626 2829870
835.37683 593.38031 1254.6879 2961969
844.74158 594.43842 1256.9253 3093298
850.8623 593.21539 1254.3392 3356470
848.80902 586.36798 1239.8605 3685435
859.30243 588.23358 1243.8053 3553849
872.75897 592.07581 1251.9296 3422263
882.61041 593.42572 1254.7838 3224884
889.04468 592.47449 1252.7726 3093298
897.53632 592.89899 1253.6702 3159091
903.85876 591.89569 1251.5487 2961712
909.80322 590.66412 1248.9446 2830126
913.45148 587.97559 1243.2598 2895919
931.13324 594.28937 1256.6101 2961712
939.58887 594.65808 1257.3896 2895919
946.31427 593.93475 1255.8602 2961712
952.89691 593.13434 1254.1678 3027505
949.50189 586.18732 1239.4785 3159091
965.14685 591.01227 1249.6807 3685435
975.58722 592.59802 1253.0338 3619642
985.98694 594.13409 1256.2817 3817021
991.75323 592.87592 1253.6213 3685435
995.09473 590.19928 1247.9617 3093298
1002.9135 590.19928 1247.9617 3488056
1014.9219 592.64563 1253.1344 4606537
1023.1149 592.84363 1253.5531 3422263
1038.9396 597.42712 1263.2448 3290677
1046.8541 597.42712 1263.2448 3422263
1052.4187 596.09601 1260.4302 3553849
1060.1516 596.00385 1260.2352 3817021
1069.6304 596.88721 1262.103 3488056
1083.1914 600.01886 1268.725 3290677
1091.1404 600.01886 1268.725 3817021
1098.964 599.95044 1268.5802 3619642
1106.912 599.95044 1268.5802 3422263
1117.489 601.36517 1271.5717 3290677
1119.3043 598.07825 1264.6216 3290677
1131.8135 600.51141 1269.7665 2698796
1138.5969 599.89392 1268.4607 2830126
1146.8372 600.04718 1268.7848 2830126
1154.7166 600.0108 1268.7079 2764333
1161.2318 599.271 1267.1436 2566954
1168.8829 599.12341 1266.8315 2830126
1178.1283 599.78949 1268.2399 2764333
1186.994 600.25458 1269.2234 2895919
1186.3206 595.92175 1260.0616 3093298
1196.2526 596.93842 1262.2114 3488056
1208.9138 599.29462 1267.1936 3290677
1223.7026 602.66797 1274.3264 2830126
1227.2109 600.47803 1269.6958 2698540
1231.8463 598.86414 1266.2833 3093298
1240.605 599.26263 1267.126 3093298
1249.7334 599.83356 1268.3331 3093298
1255.9452 599.00616 1266.5836 3027505
1260.0861 597.20776 1262.7809 2895919
1263.4351 595.05878 1258.2369 3159091
1259.3348 589.44977 1246.3768 3093299
1255.9664 584.25031 1235.3827 2764336
1281.8611 592.64374 1253.1304 2632749
nan nan nan 16777215
nan nan nan 16777215
nan nan nan 16777215
nan nan nan 16777215
nan nan nan 16777215
nan nan nan 16777215
nan nan nan 16777215
nan nan nan 16777215
nan nan nan 16777215
nan nan nan 16777215
nan nan nan 16777215
nan nan nan 16777215
nan nan nan 16777215
nan nan nan 16777215
nan nan nan 16777215
nan nan nan 16777215
nan nan nan 16777215
-1068.7673 589.18036 1229.6039 3422778
-1057.5286 587.21753 1225.5074 4014915
-1044.573 584.26581 1219.3472 4146500
-1038.7896 585.31165 1221.5298 3751741
-1031.9452 585.77069 1222.4879 3751741
-1022.9795 585.02356 1220.9287 3751741
-1015.4616 585.09943 1221.087 3291190
-1015.9166 589.80518 1230.9078 3225397
-1008.0802 589.73236 1230.7559 3817534
-997.07318 587.78943 1226.7009 4146499
-989.38751 587.78943 1226.7009 3422776
-991.40948 593.60175 1238.8312 3093811
-997.43121 601.91968 1256.1904 3093811
-991.80164 603.28271 1259.035 3093811
-984.1615 603.43481 1259.3525 3159604
-975.55585 602.99268 1258.4297 3159604
-967.6333 602.96887 1258.3801 3291190
-959.40216 602.75092 1257.9252 3159604
-951.91345 602.99957 1258.4441 2830639
-940.42987 600.70074 1253.6465 2699053
-932.57544 600.70074 1253.6465 2830639
-902.9527 586.56 1224.1351 3159604
-896.45898 587.33044 1225.743 3159604
-904.06421 597.43115 1246.8229 2896432
-894.63293 596.3515 1244.5698 2896432
-884.85687 595.02112 1241.7933 2962225
-870.94946 590.86438 1233.1183 3093811
-867.01929 593.46246 1238.5404 3225654
-859.80096 593.83643 1239.3209 3226167
-851.98242 593.79895 1239.2427 3094581
-842.2934 592.44513 1236.4172 3357496
-834.54681 592.44513 1236.4172 3423290
-828.742 593.83643 1239.3209 3094581
-820.41144 593.42712 1238.4667 3423546
-806.2644 588.7627 1228.7321 3620925
-801.6629 591.0459 1233.4971 3489595
-798.58105 594.50494 1240.7161 3751484
-791.31183 594.88397 1241.5071 3422519
-789.19049 599.17908 1250.4708 2830639
-768.34601 589.20245 1229.6499 2172709
-755.26611 585.03833 1220.9595 1712158
-746.80835 584.40594 1219.6398 1843744
-746.65918 590.32959 1232.0022 2699053
-739.10901 590.46436 1232.2834 3291190
-735.96716 594.16089 1239.998 3356983
-728.4408 594.35883 1240.4111 3291449
-721.70007 595.20905 1242.1854 3292216
-713.91742 595.20905 1242.1854 3160374
-705.57721 594.73907 1241.2047 2699823
-689.4679 587.63702 1226.3829 2699566
-682.66748 588.39832 1227.9717 2831666
-674.21283 587.73492 1226.5872 2568237
-680.13312 599.73181 1251.6244 2239272
-674.01984 601.27374 1254.8424 2896945
-662.29205 597.78448 1247.5603 3028018
-647.62885 591.53076 1234.5089 3159604
-647.97754 599.00305 1250.1035 3356983
-640.14526 599.00305 1250.1035 3488569
-630.01257 596.82385 1245.5555 3422776
-627.46222 601.86298 1256.072 4014913
-620.66693 602.90662 1258.2501 3751741
-613.19464 603.31104 1259.0941 3554362
-602.29779 600.31268 1252.8367 3225397
-594.23553 600.09772 1252.3881 3159604
-589.43549 603.21552 1258.8948 3225397
-579.61536 601.21069 1254.7108 3291190
-572.44147 601.93341 1256.2191 4212292
-566.53156 604.02386 1260.5818 3685948
-558.2688 603.62939 1259.7585 3488569
-549.71021 602.89911 1258.2345 3554105
-540.76129 601.71338 1255.7598 3094068
-528.95245 597.26324 1246.4725 3291190
-524.87585 601.5415 1255.4011 3685948
-518.03412 602.7326 1257.887 3620155
-506.22375 598.09021 1248.1984 3028018
-494.34485 593.21991 1238.0342 2764846
-485.0629 591.36035 1234.1534 2501674
-475.96686 589.6709 1230.6274 2699052
-471.48956 593.74207 1239.124 3423033
-461.43433 590.8078 1233.0002 3093811
-454.61368 591.98566 1235.4584 2962225
-447.9801 593.45203 1238.5187 2633260
-440.22037 593.45203 1238.5187 3620156
-436.22629 598.61945 1249.303 3225398
-427.8017 597.78479 1247.561 4080707
-422.08661 600.77563 1253.8027 6186082
-414.15668 600.6676 1253.5774 4672843
-407.08679 601.82697 1255.9968 3159604
-400.44525 603.67767 1259.8593 3093811
-392.71161 603.9234 1260.3721 2830639
-385.5318 605.04828 1262.7197 2370088
-379.07166 607.37354 1267.5724 2699053
-371.54465 608.05225 1268.9889 3225397
-363.25735 607.48914 1267.8137 3225397
-354.26846 605.70142 1264.0828 3422776
-344.94336 603.2439 1258.954 3554362
-339.71021 607.99493 1268.8693 2962225
-332.21152 608.82178 1270.5948 2699053
-323.30844 607.05225 1266.902 2304295
-312.99402 602.47705 1257.3536 3291190
-303.49866 599.28284 1250.6874 4278085
-295.66269 599.28284 1250.6874 3488569
-288.02679 599.69934 1251.5566 3554362
-278.95944 597.07538 1246.0804 3883327
-270.1105 594.78119 1241.2926 3883327
-261.66626 593.26855 1238.1357 3751741
-251.79916 588.33893 1227.8478 2962225
-244.85378 590.14044 1231.6074 2896432
-237.3992 590.79205 1232.9673 3159604
-230.38414 592.61798 1236.778 3488569
-221.29126 589.04028 1229.3114 3422776
-213.56998 588.98712 1229.2006 3356983
-206.147 589.78351 1230.8625 3093811
-198.3644 589.57281 1230.4229 3356983
-189.66335 586.505 1224.0204 3422776
-181.14891 583.78009 1218.3335 3488569
-174.91035 588.47229 1228.1261 2962225
-168.89861 594.39465 1240.4858 3028018
-161.69148 596.47858 1244.835 3883327
-153.65497 595.55908 1242.916 3751741
-146.29091 597.28693 1246.522 2962225
-138.73715 598.39148 1248.8271 2962225
-131.26213 599.98798 1252.1589 3225397
-123.57497 600.75604 1253.762 3225397
-115.1855 597.98242 1247.9735 2699053
-107.36655 597.98242 1247.9735 2962225
-100.093 601.25861 1254.8108 3554362
-91.778145 598.30493 1248.6466 3356983
-84.282845 600.64148 1253.5228 3028018
-76.312508 599.72485 1251.6099 2830639
-68.771095 602.35529 1257.0995 3422776
-61.354134 606.89709 1266.5781 2567467
-53.524227 608.0968 1269.0819 2830639
-45.681423 609.54309 1272.1002 3356983
-37.455479 605.40784 1263.4701 3356983
-29.733015 609.37494 1271.7494 3028018
-21.838825 611.43878 1276.0565 2699310
-13.878774 612.97748 1279.2678 2699309
-5.8644056 613.04456 1279.4077 3093811
2.1436889 610.8244 1274.7743 2961968
10.141923 611.51038 1276.2059 2830638
18.078243 609.50421 1272.019 2633260
26.080244 610.26245 1273.6016 2633260
33.994457 609.09259 1271.16 2501674
42.054775 610.48767 1274.0715 2699053
49.592529 605.06201 1262.7484 2896432
57.135712 601.18652 1254.6603 2238502
64.87738 600.08423 1252.3599 2962225
71.981361 593.95795 1239.5745 3291190
80.036011 596.10541 1244.0563 2699053
87.830414 596.10541 1244.0563 2435881
95.458076 595.0661 1241.8871 2567467
104.14952 600.31494 1252.8413 2699053
112.19398 601.36029 1255.0229 2962225
119.93173 600.7323 1253.7124 3291190
126.96632 596.87598 1245.6643 3093811
135.8116 601.4856 1255.2844 2895919
143.45134 600.54358 1253.3185 2567724
151.52905 601.43781 1255.1847 2633260
159.22006 600.78455 1253.8214 2699053
167.14235 601.02441 1254.322 2896432
175.28433 601.99731 1256.3524 2962225
183.52223 603.20178 1258.8661 2896432
191.21906 602.60187 1257.6141 2962225
199.76524 604.62018 1261.8263 2765102
208.55223 607.18591 1267.1809 2633260
215.04893 603.13995 1258.7371 2896432
222.28868 601.3905 1255.0861 3028018
230.15218 601.3905 1255.0861 2699053
238.31815 602.15479 1256.681 2764846
245.65788 600.84924 1253.9564 2896432
253.5695 600.9801 1254.2295 2896432
262.43735 603.30121 1259.0736 2435881
269.11368 600.59595 1253.4279 2435881
274.42917 595.0932 1241.9437 2501674
281.49124 593.5769 1238.7792 2896432
290.74399 596.63733 1245.1664 2896688
298.64664 596.83978 1245.5889 2830639
306.45062 596.83978 1245.5889 2699053
314.94208 598.14539 1248.3136 2698540
323.17618 598.91083 1249.911 2566954
332.64505 601.87421 1256.0956 2698540
340.55432 601.94397 1256.2411 2764333
348.80426 602.599 1257.6082 3093298
356.94885 603.04724 1258.5436 2369575
365.48578 604.12451 1260.7919 3159091
375.73386 607.9248 1268.723 3159091
381.55319 604.55066 1261.6812 2830126
391.83313 608.23749 1269.3755 2633260
400.02118 608.59503 1270.1217 2567467
408.77222 609.77844 1272.5914 2633260
417.05148 610.22638 1273.5262 2501674
425.59814 611.04132 1275.2271 2435881
431.87296 608.62457 1270.1833 2567467
438.54376 606.8432 1266.4657 2830895
452.44199 614.94855 1283.3813 2633260
459.38773 613.48621 1280.3295 2896432
468.30862 614.6665 1282.7927 3225397
476.3187 614.63159 1282.7198 3159604
484.35532 614.63159 1282.7198 2962225
494.08078 616.73969 1287.1194 2172709
500.85086 615.15021 1283.8022 2238502
508.89429 615.15021 1283.8022 2633260
516.50665 614.63727 1282.7317 3290677
524.47809 614.56079 1282.5721 3159091
532.23553 614.23969 1281.902 3422263
543.19086 617.56378 1288.8392 3422263
547.37592 613.20605 1279.7448 3093298
554.00366 611.67102 1276.5413 2369575
562.00153 611.67102 1276.5413 2369575
570.51141 612.2204 1277.6877 2764333
580.23242 614.03625 1281.4774 3224884
587.34601 613.08093 1279.4836 3027504
595.36237 613.08093 1279.4836 2633516
602.3136 611.99866 1277.225 2764846
609.24384 610.92377 1274.9817 3159604
617.17615 610.86847 1274.8662 2896432
622.74725 608.50732 1269.9387 2896432
627.64459 605.55585 1263.7789 3356983
635.56256 605.55585 1263.7789 3159604
640.02893 602.30768 1257.0001 2962227
647.08551 601.54639 1255.4114 3685949
654.08575 600.75159 1253.7527 3488569
664.3205 602.91132 1258.2599 3225396
670.65253 601.51984 1255.356 3225397
678.78845 601.75983 1255.8568 3356983
686.36157 601.5011 1255.3169 3356985
691.59985 599.22528 1250.5673 3422777
699.75684 599.50092 1251.1426 3225399
707.94244 599.7948 1251.7559 3290423
714.12292 598.40198 1248.8491 3553848
721.38861 597.93884 1247.8826 3422263
725.27344 594.71344 1241.1511 3422263
730.85223 592.93073 1237.4307 3290677
741.61957 595.35059 1242.481 3159091
750.32312 596.08069 1244.0046 3093298
756.40381 594.73352 1241.1931 2830126
764.24243 594.78192 1241.2941 2698540
770.73169 593.78967 1239.2234 2961712
780.15448 595.05487 1241.8638 3159091
789.90222 596.54047 1244.9641 3356470
795.05298 594.5592 1240.8292 3159091
800.05835 592.50867 1236.5499 3290677
801.23291 587.68762 1226.4885 3553849
806.79724 586.14746 1223.2742 3290677
823.52521 592.67035 1236.8873 2895919
829.35388 591.30096 1234.0294 3290677
838.18738 592.07928 1235.6538 3290677
844.99152 591.4231 1234.2843 3356470
850.06934 589.58136 1230.4407 3356470
856.78784 588.90051 1229.0198 3290677
869.91156 592.59509 1236.7303 3159091
871.19696 588.2312 1227.6229 2961712
882.51318 590.65729 1232.686 2764589
890.51416 590.84161 1233.0708 2961712
900.73444 592.48254 1236.4954 3488056
904.64374 589.97968 1231.272 3488056
911.10156 589.16718 1229.5763 2961712
920.90033 590.51062 1232.38 2895919
932.14728 592.75256 1237.059 2961712
936.53229 590.63013 1232.6294 2961712
941.52582 588.92297 1229.0667 3159091
949.97028 589.38452 1230.0299 3619642
958.3526 589.80048 1230.8979 3488056
968.07568 591.02826 1233.4603 3356470
977.16986 591.85571 1235.1873 3619642
983.58838 591.06238 1233.5315 3290677
992.52057 591.78009 1235.0293 3093298
1005.5151 594.89008 1241.5198 3751228
1011.01 593.54938 1238.7218 3488056
1020.9455 594.81628 1241.3658 3093298
1027.1414 593.90179 1239.4573 3224884
1034.907 593.90179 1239.4573 3224884
1047.2463 596.50702 1244.8943 3553849
1055.046 596.50702 1244.8943 3619642
1063.4673 596.85583 1245.6223 3553849
1077.2468 600.185 1252.5702 3751228
1086.1903 600.79108 1253.8351 3817021
1091.0264 599.13287 1250.3745 3751228
1098.8604 599.13287 1250.3745 3356470
1109.062 600.41461 1253.0494 3422263
1118.4221 601.22601 1254.7428 2895919
1122.6718 599.2981 1250.7192 2764333
1131.1583 599.64288 1251.4388 2961712
1139.4882 599.90045 1251.9763 3027762
1146.5383 599.48529 1251.11 2961969
1155.2427 599.93494 1252.0483 2895919
1164.6627 600.74762 1253.7444 2830126
1171.2468 600.09644 1252.3854 2764333
1178.4283 599.75793 1251.679 2895919
1189.7833 601.53394 1255.3854 3093298
1198.8243 602.12445 1256.6177 3093298
1207.8185 602.68384 1257.7852 2830126
1211.9526 600.82666 1253.9093 2764333
1217.5024 599.69061 1251.5385 2764333
1224.6763 599.36395 1250.8567 2961712
1231.3113 598.77948 1249.6368 3027505
1233.8947 596.24451 1244.3464 2895919
1243.2882 597.01147 1245.9471 3159091
1248.6598 595.84967 1243.5225 2961969
1254.7271 595.03217 1241.8164 3290678
1244.7639 586.66956 1224.3638 3488058
1256.8521 588.73865 1228.6819 3159093
nan nan nan 16777215
nan nan nan 16777215
nan nan nan 16777215
nan nan nan 16777215
nan nan nan 16777215
nan nan nan 16777215
nan nan nan 16777215
nan nan nan 16777215
nan nan nan 16777215
nan nan nan 16777215
nan nan nan 16777215
nan nan nan 16777215
nan nan nan 16777215
nan nan nan 16777215
nan nan nan 16777215
nan nan nan 16777215
nan nan nan 16777215
-1057.1313 590.34546 1216.2168 3751743
-1054.4302 593.11224 1221.9169 3685947
-1045.3519 592.30627 1220.2563 3422776
-1032.6763 589.435 1214.3411 3356983
-1018.0272 585.38629 1206 3422776
-1016.6013 588.93762 1213.3164 3291190
-1008.843 588.84625 1213.1282 3291190
-1001.2424 588.84625 1213.1282 3291190
-994.14526 589.14465 1213.7429 3356983
-988.17786 590.12225 1215.757 2962225
-988.276 594.7655 1225.3229 2896432
-984.10986 596.89496 1229.71 2896689
-980.63818 599.4826 1235.0409 3093811
-976.88165 601.93579 1240.095 3225397
-971.66577 603.52197 1243.3628 3159604
-959.84705 600.99945 1238.1659 3159604
-946.3808 597.39581 1230.7418 2830639
-941.62836 599.27875 1234.6208 2896432
-932.61609 598.45929 1232.9327 2764846
-925.60657 598.92206 1233.8861 2699053
-914.93439 597.00275 1229.9319 3028018
-900.51086 592.58215 1220.8248 2896432
-895.15186 594.10193 1223.9558 2764846
-885.35046 592.67407 1221.0142 2633260
-871.89075 588.75104 1212.932 2699053
-864.46381 588.86847 1213.174 3159604
-856.12732 588.36298 1212.1326 3620155
-848.89795 588.61609 1212.6539 2830639
-843.4184 590.09802 1215.707 2698796
-835.80157 590.09802 1215.707 3292217
-830.98608 592.09399 1219.8191 3358010
-823.34357 592.09399 1219.8191 3160374
-815.84027 592.19507 1220.0273 2897202
-814.29492 596.66364 1229.2334 3423546
-806.59338 596.66364 1229.2334 3555132
-795.88879 594.42078 1224.6127 3751484
-786.86322 593.40045 1222.5106 3619898
-779.9342 593.95667 1223.6565 3225397
-777.44 597.93481 1231.8522 2896688
-762.48962 592.31653 1220.2775 1975330
-753.38434 591.17096 1217.9175 1712158
-746.16168 591.49438 1218.5837 1843744
-740.18005 592.81842 1221.3115 2764846
-733.33209 593.46906 1222.6519 3225397
-726.67084 594.28601 1224.3351 3422519
-721.04504 595.97638 1227.8175 3357240
-711.6449 594.5498 1224.8785 3554105
-706.34631 596.55621 1229.0121 3290934
-695.09003 593.51971 1222.7563 3159347
-687.07996 593.21832 1222.1354 3159604
-679.52399 593.30658 1222.3171 3290933
-670.66461 592.24585 1220.1318 2764846
-668.73486 597.35059 1230.6486 2764846
-663.47461 599.5647 1235.2101 3159604
-653.25391 597.29559 1230.5353 3225397
-643.70978 595.59821 1227.0383 3159604
-636.59875 596.13831 1228.151 3620155
-629.3089 596.52209 1228.9418 3554362
-623.18146 598.03094 1232.0502 3488569
-616.3573 598.90063 1233.8419 3620155
-608.62689 598.90063 1233.8419 3422776
-601.93915 599.93976 1235.9828 3028018
-594.15033 599.89435 1235.8892 3159861
-582.40735 595.80255 1227.4594 2633260
-571.78888 592.76715 1221.2058 3356983
-568.95996 597.83411 1231.6448 3751741
-563.07532 599.78564 1235.6652 4343878
-558.80762 603.53784 1243.3954 3818048
-550.71692 603.20874 1242.7174 4015427
-538.24744 598.00531 1231.9974 3949890
-527.93372 595.08038 1225.9716 3686718
-518.18311 592.7132 1221.0947 3291960
-511.88641 594.28497 1224.3329 3685948
-510.15057 601.28015 1238.7441 3620155
-500.27185 598.74567 1233.5227 2962225
-492.54343 598.74567 1233.5227 2962481
-480.94473 593.96588 1223.6754 2830383
-472.6842 593.22064 1222.1401 2698540
-465.58167 593.92804 1223.5975 2435368
-460.8537 597.73901 1231.4489 2764333
-451.97385 596.20294 1228.2843 3028019
-444.35538 596.30646 1228.4976 3685948
-437.2142 597.06537 1230.061 3817533
-430.76102 598.80792 1233.651 3028017
-423.80545 599.90308 1235.9071 3620155
-420.08008 605.69641 1247.8425 5067601
-412.15482 605.539 1247.5182 3883327
-401.86609 601.83594 1239.8893 3356983
-393.94498 601.6026 1239.4084 3225397
-387.83255 604.17743 1244.7131 3094068
-380.46872 604.86853 1246.1368 3093811
-373.67673 606.51672 1249.5323 3159604
-360.04514 596.89642 1229.7129 3159604
-355.99847 603.0932 1242.4794 3225397
-349.29965 604.97357 1246.3533 3159604
-342.21317 606.25317 1248.9895 2830639
-334.04443 605.63055 1247.7068 2699053
-326.61526 606.35107 1249.1912 3488569
-317.52109 603.94006 1244.224 3554362
-307.08514 598.79126 1233.6166 3620155
-300.09601 600.27112 1236.6654 3751741
-293.34332 602.31494 1240.8761 3356983
-283.91849 598.83417 1233.705 3554362
-274.94339 596.13348 1228.1411 3817534
-266.01727 593.3866 1222.4821 3883327
-257.564 591.56287 1218.7249 4080706
-247.35162 585.46399 1206.1602 3225397
-239.94569 585.83282 1206.9199 3225397
-232.38397 585.83282 1206.9199 3751741
-225.27721 587.01837 1209.3623 3488569
-217.09459 585.38538 1205.9982 3685948
-210.86266 589.08429 1213.6185 3685948
-203.87636 590.87366 1217.3049 2830639
-196.24957 590.87366 1217.3049 3225397
-187.82472 588.37366 1212.1545 3356983
-179.06927 584.5838 1204.3467 3291190
-172.74947 588.76154 1212.9536 2962482
-165.6523 590.55243 1216.6432 3554362
-158.4382 592.07922 1219.7886 3422776
-151.62045 595.31689 1226.4589 3620155
-143.93633 595.31689 1226.4589 3225397
-136.87674 598.04578 1232.0808 3225397
-128.68674 595.86664 1227.5913 3028018
-121.52372 598.4679 1232.9504 2830639
-113.74433 598.18091 1232.3593 2567467
-106.216 599.26862 1234.6 3028018
-98.27343 598.00641 1231.9998 3159604
-91.114037 601.70105 1239.6113 3291190
-83.348785 601.71045 1239.6306 3620155
-76.167 606.36676 1249.2235 3620155
-68.54985 608.22662 1253.0552 3291447
-60.93861 610.62689 1258.0001 2962225
-53.056843 610.62689 1258.0001 2962225
-45.164597 610.48505 1257.708 2764846
-36.866898 603.64471 1243.6156 3422776
-28.995998 601.99921 1240.2256 3225397
-21.455467 608.51862 1253.6567 2830896
-13.600919 608.51862 1253.6567 2896432
-5.7594385 609.90247 1256.5077 2896175
2.1133916 610.02374 1256.7576 2895919
9.9765043 609.36029 1255.3906 2896175
17.873182 610.4281 1257.5906 2830895
25.69832 609.14673 1254.9507 2699053
33.469151 607.4801 1251.5172 2764846
41.309921 607.47461 1251.5059 2633260
49.021072 605.86884 1248.1978 2764846
56.884949 606.33282 1249.1536 2764846
64.125526 600.84448 1237.8466 2962482
71.568512 598.23218 1232.4648 2896689
79.299698 598.30322 1232.6112 3291446
87.178047 599.37335 1234.8159 2567467
94.880653 599.15936 1234.375 2567467
101.87038 594.81512 1225.425 2962225
109.62922 595.2558 1226.333 3028018
117.50684 596.24146 1228.3636 2896432
125.21019 596.27612 1228.4351 2896432
133.55585 599.18842 1234.4348 2764589
141.1618 598.64496 1233.3152 3028274
149.2989 600.2934 1236.7113 2699053
157.04727 600.2934 1236.7113 2567467
164.31905 598.55731 1233.1346 2830639
171.9373 598.18256 1232.3625 2896432
179.03307 596.10028 1228.0728 2962225
188.37469 601.35931 1238.9073 2962225
196.9747 603.92828 1244.1997 3093811
204.83844 604.13013 1244.6156 3028018
212.72887 604.39294 1245.1571 2962225
219.45981 601.45953 1239.1138 3028018
227.22324 601.45953 1239.1138 2896432
234.84448 601.09552 1238.3639 2830639
242.22556 600.15985 1236.4362 2501674
250.836 602.23376 1240.7087 3159604
258.10513 601.05939 1238.2893 3159604
264.46854 597.90588 1231.7926 2962225
269.84412 592.76129 1221.1938 2764846
276.99896 591.70111 1219.0096 3225654
284.11316 590.61334 1216.7687 2962225
292.03696 591.22144 1218.0214 2370088
300.94122 593.73291 1223.1956 2567467
313.26614 602.70074 1241.6709 2764589
320.41864 601.52374 1239.2461 2698796
328.25433 601.65466 1239.5157 2566954
336.02029 601.65466 1239.5157 2632490
344.37296 602.68146 1241.6312 2764076
352.15216 602.68146 1241.6312 2764333
360.95648 604.39801 1245.1675 2829869
370.76804 607.69275 1251.9552 2895919
378.61194 607.69275 1251.9552 2698540
386.86148 608.33063 1253.2694 2435881
395.8161 610.02979 1256.77 2501674
404.32556 610.98999 1258.7482 2699053
412.21204 610.98999 1258.7482 2764846
418.2561 608.31042 1253.2278 2764846
426.88846 609.42474 1255.5234 2370088
436.18805 611.4339 1259.6627 2501674
444.34848 611.80322 1260.4236 2896432
452.52045 612.17529 1261.1902 2896688
460.42221 612.17529 1261.1902 2633516
470.79224 615.40179 1267.8373 2962225
477.37585 613.65381 1264.2362 3028018
487.68039 616.66797 1270.4458 2238502
496.58124 617.83887 1272.8582 2238502
503.62271 616.69598 1270.5035 2370090
511.44357 616.52814 1270.1577 2698799
520.9502 618.36639 1273.9449 2961714
529.39111 618.90332 1275.051 3948610
537.82648 619.41791 1276.1112 4014403
544.89862 618.3703 1273.953 3685438
551.71716 617.06934 1271.2727 4277574
558.32355 615.57153 1268.187 2698540
565.59595 614.83978 1266.6794 2237989
570.26508 611.3374 1259.464 2698540
581.75543 615.14349 1267.3051 2764333
589.6955 615.14349 1267.3051 2962225
595.68964 613.1405 1263.1786 3093811
604.00256 613.54553 1264.0131 2962225
609.53882 611.15601 1259.0902 2435881
614.62073 608.37781 1253.3667 2238502
620.23077 606.18597 1248.8511 2830639
627.19806 605.35864 1247.1466 3028018
634.1803 604.56598 1245.5135 2962483
643.40704 605.90625 1248.2748 2830897
649.83807 604.6131 1245.6107 2962225
653.39423 600.7077 1237.5648 3225397
662.64337 602.06641 1240.364 3422776
669.62518 601.35742 1238.9034 3291190
677.42255 601.38873 1238.9679 2896432
684.05658 600.39825 1236.9274 3225397
691.04327 599.73602 1235.563 3225654
696.29926 597.60309 1231.1688 3158834
704.71173 598.19629 1232.3909 3619642
711.24908 597.20221 1230.3429 3685435
709.54395 589.38275 1214.2334 3553849
718.78973 590.72913 1217.0072 3356470
726.41461 590.72913 1217.0072 3356470
733.63971 590.40735 1216.3442 3159091
741.75848 590.80396 1217.1614 3093298
746.93762 588.87494 1213.1873 3224884
754.53857 588.87494 1213.1873 3093298
765.34662 591.35291 1218.2924 3027505
774.17419 592.26678 1220.175 3027505
782.49286 592.77728 1221.2268 2830126
789.20258 592.07086 1219.7715 2961712
794.31281 590.18958 1215.8956 3685435
803.58533 591.40723 1218.4042 3751228
810.29236 590.73163 1217.0125 3619642
817.91736 590.73163 1217.0125 3619642
828.51129 592.85626 1221.3894 3422263
836.55615 593.13452 1221.9626 3290677
843.52972 592.65503 1220.975 3290679
851.01794 592.54254 1220.7432 3224885
858.66632 592.54254 1220.7432 3093299
864.92773 591.59393 1218.7888 3093300
871.10443 590.60449 1216.7504 2830383
884.14441 594.24506 1224.2507 3027505
894.39594 595.96503 1227.7941 3356470
898.25964 593.43555 1222.5829 3224884
903.20905 591.66003 1218.925 2961712
912.22894 592.55835 1220.7758 2632747
918.31512 591.55194 1218.7023 2632747
926.80286 592.09631 1219.8239 2830126
931.96509 590.52472 1216.5861 2961712
939.4267 590.42371 1216.3779 3224884
947.04761 590.42371 1216.3779 3159091
956.70697 591.68433 1218.9751 2895919
961.70758 590.06659 1215.6422 2895919
974.77222 593.38312 1222.475 3290677
982.44373 593.39056 1222.4902 3159091
988.33551 592.3313 1220.308 3290677
997.70142 593.35437 1222.4156 3159091
1004.0978 592.60931 1220.8807 3224884
1013.674 593.73792 1223.2059 3290677
1021.5533 593.86334 1223.4642 3356470
1033.2689 596.20038 1228.2789 3422263
1039.1848 595.18109 1226.179 3488056
1049.3929 596.61707 1229.1373 3619642
1061.7725 599.25757 1234.5774 3488056
1068.2896 598.57513 1233.1714 3488056
1074.4142 597.68427 1231.3361 3553849
1078.2476 595.54047 1226.9194 3553849
1091.6121 598.65405 1233.334 3619642
1101.7124 599.94641 1235.9965 3488056
1112.8318 601.77167 1239.7568 3356470
1124.4159 603.82129 1243.9794 3224884
1130.1833 602.74054 1241.7528 3093298
1135.1984 601.27606 1238.7357 3093298
1143.9088 601.77551 1239.7648 3027505
1147.8929 599.79858 1235.6919 2698540
1156.1066 600.0434 1236.1962 2632747
1161.7097 598.93903 1233.921 2435368
1162.8232 595.54987 1226.9388 2237988
1175.0591 597.8642 1231.7068 2237989
1177.748 595.32269 1226.4708 2369574
1180.8435 593.01819 1221.723 2369575
1188.4979 593.01819 1221.723 2632747
1203.9006 596.85956 1229.637 2764333
1206.714 594.45032 1224.6735 2698540
1207.5186 591.0882 1217.7469 2830126
1218.0267 592.4884 1220.6316 3093298
1229.2872 594.23486 1224.2296 3093298
1232.8096 592.24225 1220.1245 3027506
1236.7053 590.45245 1216.4373 3027507
1236.4629 586.72095 1208.7496 3093300
nan nan nan 16777215
nan nan nan 16777215
nan nan nan 16777215
nan nan nan 16777215
nan nan nan 16777215
nan nan nan 16777215
nan nan nan 16777215
nan nan nan 16777215
nan nan nan 16777215
nan nan nan 16777215
nan nan nan 16777215
nan nan nan 16777215
nan nan nan 16777215
nan nan nan 16777215
nan nan nan 16777215
nan nan nan 16777215
nan nan nan 16777215
-1041.3046 588.97327 1198.0082 3883327
-1046.5396 596.23199 1212.7729 3817534
-1037.1086 595.18042 1210.6338 3817534
-1019.6998 589.5011 1199.0818 3356983
-1009.4368 587.89929 1195.8236 2830639
-993.25958 582.80328 1185.458 3159604
-990.60223 585.62311 1191.1937 3488569
-984.53937 586.45721 1192.8904 3356983
-981.5448 589.14581 1198.3591 2962482
-977.45563 591.21375 1202.5654 3093811
-971.79034 592.35309 1204.8829 3093811
-965.35303 593.03601 1206.272 3159604
-961.62006 595.40411 1211.0889 3225397
-955.60663 596.38672 1213.0875 3225397
-948.70264 596.82483 1213.9786 3028018
-938.74866 595.33575 1210.9498 2962225
-931.70068 595.68036 1211.6508 3028275
-923.94458 595.57422 1211.4348 3159604
-915.35712 594.92584 1210.1161 2962225
-905.65271 593.53479 1207.2865 2830639
-897.60193 593.21301 1206.6321 2765102
-895.00159 596.51862 1213.3558 2172709
-881.26685 592.39618 1204.9706 2106916
-871.8512 591.13086 1202.3969 2567467
-858.63971 587.2475 1194.4978 2962225
-847.68323 584.85168 1189.6245 3620155
-834.94556 581.1734 1182.1428 3949120
-811.70227 570.05133 1159.5198 4475720
-834.72736 591.51575 1203.1797 4278598
