# .PCD v0.7 - Point Cloud Data file format
VERSION 0.7
FIELDS x y z rgb
SIZE 4 4 4 4
TYPE F F F U
COUNT 1 1 1 1
WIDTH 1282
HEIGHT 1
VIEWPOINT 0 0 0 1 0 0 0
POINTS 1282
DATA ascii
841.57288 604.3064 1471.7319 2042154
838.42615 595.52185 1450.338 1844775
844.96948 593.73468 1445.9855 2305326
860.18634 598.01532 1456.4105 2700341
869.48615 598.13562 1456.7036 2568498
891.58533 606.96698 1478.2115 2436912
902.7323 608.23737 1481.3054 2700084
911.5285 607.91418 1480.5183 2700084
919.14539 606.81885 1477.8508 2568498
918.11267 600.09192 1461.468 2502705
927.29108 600.10602 1461.5024 1844775
936.44781 600.10602 1461.5024 1647396
956.71118 607.1546 1478.6686 2239277
966.39911 607.42084 1479.3169 1976104
978.87677 609.41882 1484.1829 1713190
988.35382 609.52875 1484.4506 1778982
989.51624 604.5567 1472.3416 1910055
993.31183 601.27039 1464.338 2305326
1016.9921 609.97058 1485.5265 2436912
1018.3872 605.26807 1474.074 2239532
1027.6228 605.26807 1474.074 2239020
1038.4561 606.20074 1476.3455 2304813
1049.0901 607.00171 1478.2961 2239020
1058.3521 607.00171 1478.2961 2304813
1074.8184 611.09778 1488.2717 2173227
1080.944 609.29468 1483.8805 2173227
1085.8093 606.81805 1477.8489 2699571
1101.9172 610.6131 1487.0914 2962743
1114.266 612.27899 1491.1486 2502192
1123.6085 612.27899 1491.1486 2699314
1132.5028 612.0368 1490.5586 2633778
1141.8416 612.0368 1490.5586 2699571
1150.299 611.56818 1489.4172 2765364
1165.0682 614.43585 1496.4014 2699571
1166.1221 610.08221 1485.7985 2370863
1175.431 610.08221 1485.7985 2042153
1189.4441 612.50458 1491.6979 2041641
1199.2109 612.7196 1492.2216 2436399
1208.5601 612.7196 1492.2216 2502192
1219.3488 613.44379 1493.9852 2502192
1228.3578 613.26843 1493.5581 2502192
1233.3594 611.11005 1488.3016 2502193
1235.3938 607.52496 1479.5706 2436399
1254.5222 612.33691 1491.2896 2304813
1266.231 613.48291 1494.0804 2502192
1277.8459 614.56702 1496.7207 2567985
1283.2723 612.68066 1492.1267 2436399
1285.1279 609.12909 1483.4772 2436399
1292.1315 608.05096 1480.8516 2502192
1302.9553 608.77325 1482.6106 2633778
1316.9252 610.94476 1487.899 2436399
1326.2472 610.94476 1487.899 2239020
1331.5248 609.09454 1483.3931 2173227
1335.7825 606.80676 1477.8213 2041641
1333.3042 601.5116 1464.9254 1975848
1349.8231 604.80066 1472.9357 2239020
1357.8885 604.28308 1471.6752 2567985
1367.5981 604.49933 1472.2018 2239020
1389.5663 610.09479 1485.829 2173227
1396.3319 608.98547 1483.1273 2173227
1411.6896 611.61322 1489.5271 2502192
1423.7671 612.7948 1492.4047 2765364
1433.6207 613.00995 1492.9287 2699571
1446.7434 614.61115 1496.8282 2699571
1461.1876 616.74945 1502.0359 2896950
1471.6243 617.17975 1503.0837 3028536
1481.031 617.17535 1503.0731 2896950
1491.9048 617.7785 1504.542 2962743
1507.1305 620.16486 1510.3538 2896950
1515.4882 619.71289 1509.2531 2831157
1525.9346 620.11542 1510.2334 2765364
1540.2408 622.0719 1514.9982 2765364
1559.668 626.05994 1524.7107 2567985
nan nan nan 16777215
nan nan nan 16777215
nan nan nan 16777215
nan nan nan 16777215
nan nan nan 16777215
nan nan nan 16777215
nan nan nan 16777215
nan nan nan 16777215
nan nan nan 16777215
nan nan nan 16777215
nan nan nan 16777215
nan nan nan 16777215
nan nan nan 16777215
nan nan nan 16777215
nan nan nan 16777215
-1293.3474 611.43683 1466.8341 2700085
-1284.2079 611.46094 1466.892 2765877
-1279.3856 613.55585 1471.9176 3029049
-1263.2032 610.1936 1463.8517 2897719
-1252.1272 609.26691 1461.6284 2700341
-1240.1184 607.86932 1458.2756 2042667
-1233.5349 609.13 1461.3 1976362
-1228.4718 611.16595 1466.1843 2568498
-1215.5991 609.31812 1461.7512 2700084
-1198.1754 605.14362 1451.7367 2568498
-1195.6857 608.50549 1459.8018 2436912
-1184.7378 607.58148 1457.5851 2634291
-1173.817 606.65704 1455.3674 2831670
-1163.925 606.25409 1454.4008 2765877
-1151.2336 604.37512 1449.8931 2766134
-1135.2053 600.7005 1441.0776 2502705
-1134.14 604.9483 1451.2681 1779239
-1126.8378 605.91095 1453.5775 1844775
-1118.1117 606.11755 1454.0731 2173740
-1108.8193 606.01801 1453.8342 2371119
-1100.9276 606.68866 1455.4432 2502705
-1094.197 608.01575 1458.6268 2568498
-1086.8021 608.99292 1460.9711 2502705
-1078.334 609.38013 1461.9 2502705
-1070.0474 609.8775 1463.0933 2436912
-1062.1534 610.60925 1464.8486 2371119
-1054.7996 611.66681 1467.3857 2436912
-1046.1392 611.97882 1468.1343 2436912
-1037.5387 612.3316 1468.9806 2502705
-1029.0685 612.76831 1470.0283 2897463
-1021.0554 613.48761 1471.7539 2765877
-1009.4187 612.02289 1468.2401 2700084
-1000.2197 612.02289 1468.2401 2502705
-990.40991 611.64569 1467.3352 2436912
-984.94257 613.96826 1472.907 2502705
-976.11938 614.22308 1473.5183 2502705
-963.69818 612.1972 1468.6582 2437169
-957.98004 614.4314 1474.0181 2371119
-950.50336 615.57025 1476.7502 2765621
-939.97675 614.73694 1474.751 2700084
-938.9259 620.14557 1487.7263 2700084
-929.14215 619.83691 1486.9858 3029049
-911.72675 614.37927 1473.8931 2963256
-902.49237 614.37927 1473.8931 3029306
-905.92059 623.08856 1494.7865 3029304
-899.15814 624.89752 1499.1262 2568496
-889.76569 624.89752 1499.1262 2634290
-873.76923 620.20996 1487.8809 3029048
-856.10638 614.22571 1473.5247 3094841
-856.51843 621.22052 1490.3051 2897462
-847.54053 621.48395 1490.9371 3029049
-830.28705 615.61743 1476.8633 3226428
-825.1889 618.73279 1484.337 2963256
-815.8891 618.73279 1484.337 2963256
-797.17889 611.5141 1467.0195 3029048
-794.18542 616.32391 1478.5582 2831669
-786.76794 617.77356 1482.0358 2568499
-777.75677 617.99146 1482.5586 2305327
-766.33478 616.27588 1478.4429 1976362
-757.94238 616.9845 1480.1428 2239533
-746.71393 615.37341 1476.278 2173740
-737.33905 615.26862 1476.0266 1910568
-724.1012 611.89685 1467.9376 1910569
-710.67566 608.27765 1459.2552 1976361
-703.92352 610.35046 1464.2279 2239532
-691.0351 607.0871 1456.399 2173738
-680.57776 605.90082 1453.5532 2305324
-665.93817 600.90839 1441.5764 2371117
-657.0661 601.05469 1441.9274 2568495
-651.24225 604.03223 1449.0704 2700082
-641.25165 603.17462 1447.0131 2831668
-631.81873 602.82452 1446.1732 3029304
-622.08893 602.17682 1444.6194 2436910
-610.13129 599.32172 1437.77 2305324
-601.12323 599.32172 1437.77 3292221
-590.32642 597.51123 1433.4266 2700084
-590.9726 607.40594 1457.1641 2436912
-581.60889 607.1615 1456.5776 2502705
-572.43677 607.11249 1456.4601 2371119
-563.07916 606.86212 1455.8593 2568498
-553.66003 606.53583 1455.0767 2963256
-542.52386 604.28632 1449.6801 3029049
-535.69092 606.83484 1455.7939 2634291
-527.86761 608.33032 1459.3816 2502705
-524.43744 615.03058 1475.4554 2568754
-513.1842 612.6322 1469.7018 2897720
-507.34219 616.72406 1479.5181 2831927
-499.84384 618.9173 1484.7797 2897463
-494.07477 623.37555 1495.4751 2963513
-483.25861 621.5152 1491.012 2700597
-475.12234 623.09601 1494.8043 2700597
-460.35413 615.86798 1477.4645 2832439
-449.46326 613.63708 1472.1124 2700854
-446.315 622.10474 1492.4264 2371632
-432.14511 615.24347 1475.9662 2437425
-420.4639 611.70258 1467.4717 2766646
-410.30869 610.27325 1464.0426 2634291
-403.57986 613.99127 1472.9622 2305326
-391.08038 608.89856 1460.7448 2107947
-384.40109 612.84076 1470.202 2634291
-371.49283 606.802 1455.7152 3029049
-361.65381 605.59888 1452.8289 3358014
-352.55139 605.59888 1452.8289 2107947
-344.9082 608.17194 1459.0016 1713189
-335.18188 607.11194 1456.4586 2502705
-326.91956 608.71844 1460.3127 2700084
-317.39276 607.99536 1458.578 2634291
-311.98605 615.35577 1476.2357 2700084
-303.18393 616.26428 1478.4152 2765877
-292.33429 612.93701 1470.4331 2436912
-283.12158 612.93701 1470.4331 2371119
-274.43729 614.11957 1473.2699 2436913
-265.10712 613.88873 1472.7162 2568498
-254.60292 610.82465 1465.3654 2305326
-243.94281 607.14325 1456.5337 2239533
-234.49139 606.30084 1454.5129 2700341
-227.71548 612.58795 1469.5956 2765877
-218.43375 612.37964 1469.0959 2634291
-210.16652 615.12256 1475.676 2436912
-201.03716 615.47827 1476.5294 2436912
-193.33803 620.45819 1488.4763 2897463
-182.10385 614.02338 1473.0392 2963257
-172.8748 614.02338 1473.0392 2897463
-164.07649 615.63953 1476.9164 3226428
-154.58853 614.7066 1474.6783 3884615
-144.5522 611.33594 1466.592 3292477
-135.43715 611.66833 1467.3894 3226428
-126.46831 612.75751 1470.0024 3226684
-117.25829 612.75751 1470.0024 2502705
-108.44649 615.01593 1475.4203 2766132
-98.677322 611.75989 1467.6091 2963512
-89.79406 613.89136 1472.7224 2963510
-81.911652 624.13708 1497.302 2897719
-72.126991 620.66406 1488.9701 2766132
-62.3647 616.38019 1478.6932 2436910
-53.100246 616.38043 1478.6938 2371118
-44.060467 619.53992 1486.2733 2502704
-34.969849 623.48639 1495.7408 2568496
-25.519827 621.56848 1491.1399 2436911
-16.219719 623.1955 1495.0431 2371117
-6.8537407 623.28009 1495.246 2436910
2.4951787 618.50574 1483.7925 2371117
11.70858 614.15118 1473.3458 2305581
21.171852 620.9646 1489.6912 2107948
30.574818 622.38116 1493.0895 1910823
39.929489 622.38116 1493.0895 2042152
49.345501 623.15588 1494.948 2173738
58.711819 623.15588 1494.948 1976359
68.065102 623.03662 1494.6619 2107945
77.445435 623.16388 1494.9672 2239531
87.197052 625.92883 1501.6003 2173738
96.826981 627.36682 1505.05 2239531
105.80026 624.67261 1498.5865 2371117
115.34557 625.51965 1500.6187 2239531
124.13708 622.45923 1493.2769 2502704
133.61615 623.03387 1494.6553 2502704
142.54976 621.15631 1490.1511 2568496
152.25423 622.66217 1493.7637 3029048
160.3398 617.75629 1481.9945 2765878
169.43007 617.04663 1480.2919 2371119
178.80894 617.40698 1481.1565 2305326
186.18385 611.15381 1466.1552 2634291
194.20073 607.49683 1457.3821 2700341
202.93295 606.30554 1454.5242 2436912
213.1423 609.44019 1462.0442 2436912
222.19902 609.15668 1461.364 2371119
231.17645 608.68677 1460.2367 2239533
238.85631 604.96619 1451.311 1647396
247.68677 604.32581 1449.7748 1581603
258.40436 608.17224 1459.0024 1844775
267.74918 608.63531 1460.1133 1910568
277.36493 609.66333 1462.5795 2042154
288.66309 614.20538 1473.4758 2239276
297.8949 614.20538 1473.4758 1910311
308.36057 616.67291 1479.3955 2107690
317.26517 615.96576 1477.699 2041897
327.75894 618.29657 1483.2905 1844519
338.68307 621.28821 1490.4675 1909799
347.53525 620.42047 1488.3859 1910055
355.47119 618.00513 1482.5914 1581346
363.5079 615.88361 1477.502 2107434
374.97192 619.53009 1486.2498 2173227
384.33368 619.61053 1486.4429 2108204
393.64673 619.61053 1486.4429 2239533
401.86935 617.93396 1482.4207 2239533
412.66455 620.1994 1487.8555 2239533
415.8038 611.11273 1466.0565 2173740
424.19052 609.96442 1463.3018 1910568
437.0925 615.22003 1475.91 1976361
446.33957 615.22003 1475.91 2042154
458.12695 618.65057 1484.1398 1910568
461.38303 610.65308 1464.9539 1713189
469.9408 609.84772 1463.0217 1713189
483.96411 616.03015 1477.8534 2042154
491.44467 613.80859 1472.5239 1976361
496.7876 609.04834 1461.104 1647396
505.89243 608.98877 1460.9612 1844775
509.80957 602.79749 1446.1083 2107947
517.61743 601.34247 1442.6178 2305326
530.6665 605.92181 1453.6036 2305326
539.77014 605.91772 1453.5938 2305326
547.32983 604.20941 1449.4956 2371119
554.40381 602.02942 1444.2657 2371119
560.23822 598.59491 1436.0264 2371119
567.92834 597.22052 1432.7291 1910568
576.61365 596.91901 1432.006 2107947
589.30768 600.71313 1441.108 2239533
600.12402 602.50757 1445.4128 2042154
608.60358 601.9375 1444.0453 1976361
615.5921 599.93103 1439.2318 2042154
622.55316 597.95612 1434.4939 2239533
631.54071 597.95612 1434.4939 2371119
641.12964 598.51752 1435.8407 2502705
651.08521 599.40094 1437.96 3029049
658.29602 597.76788 1434.0422 2502705
668.45416 598.81903 1436.564 2305326
678.89545 600.09253 1439.6191 2371119
687.89368 600.07385 1439.5743 2173740
697.12122 600.25311 1440.0044 2107947
705.2345 599.48059 1438.1511 1976361
710.05115 595.96063 1429.7068 2042154
722.5379 598.8858 1436.7242 2371119
734.95026 601.67816 1443.4231 2371119
740.59802 598.93201 1436.8351 2371119
747.49579 597.25055 1432.8013 2371119
758.18268 598.60052 1436.0399 2502705
762.02679 594.57983 1426.3942 2568498
776.17621 598.59985 1436.0382 2239533
789.73572 602.07806 1444.3824 2305326
801.06732 603.79816 1448.5089 2371119
809.5257 603.33832 1447.4058 2239533
818.80725 603.49536 1447.7826 2239533
827.87799 603.49536 1447.7826 2107947
834.4845 601.71844 1443.5197 2042154
835.18921 595.76965 1429.2487 2107947
850.1828 600.03168 1439.4733 2634291
860.04242 600.61896 1440.8821 2765877
876.40271 605.68665 1453.0394 2502705
885.99255 606.01917 1453.837 2502705
893.20001 604.73193 1450.749 2700084
889.59113 596.22119 1430.3319 2765877
897.56537 595.56622 1428.7605 2502705
908.24316 596.70026 1431.4811 2173740
924.49799 601.44037 1442.8525 1910568
937.4574 603.96552 1448.9104 2305326
946.53534 603.96552 1448.9104 2042154
962.50543 608.32153 1459.3605 1778982
970.85016 607.82153 1458.161 1712933
978.10236 606.6532 1455.3583 1778726
974.76941 599.00189 1437.0027 2239020
993.73993 605.0708 1451.562 2436912
1001.0633 604.0022 1448.9984 2371376
1010.1417 604.0022 1448.9984 2042411
1018.0672 603.31891 1447.3593 1713189
1022.9466 600.85852 1441.4568 1975848
1030.7891 600.16644 1439.7964 2370349
1043.6696 602.39423 1445.1409 2436399
1058.9869 605.97803 1453.7385 2370606
1065.6685 604.60138 1450.4359 2436399
1077.7129 606.26483 1454.4265 2436399
1095.7947 611.26825 1466.4297 2239020
1107.203 612.49664 1469.3766 2304813
1116.8098 612.71655 1469.9041 2370606
1131.6289 615.76904 1477.2271 2502192
1138.4099 614.43353 1474.0232 2699571
1135.6694 608.02197 1458.6418 2831157
1139.0682 604.97333 1451.3281 2633778
1148.1613 604.97333 1451.3281 2304813
1168.938 611.08124 1465.981 2304813
1176.0458 610.00385 1463.3964 2436399
1184.7543 609.76703 1462.8282 2239020
1193.449 609.52686 1462.252 2239020
1202.1819 609.30957 1461.7308 2370606
1209.1724 608.21918 1459.115 2502192
1218.3141 608.21918 1459.115 2436399
1232.1355 610.53802 1464.6777 2173227
1238.8774 609.34052 1461.8049 1975848
1247.8705 609.25964 1461.611 2107434
1257.6937 609.58234 1462.3851 2370606
1265.3068 608.83679 1460.5967 2567985
1267.105 605.32416 1452.1698 2765364
1278.0446 606.19751 1454.265 2633778
1288.1843 606.68182 1455.4269 2502192
1297.303 606.68182 1455.4269 2633778
1310.5227 608.5863 1459.9957 2370606
1314.8442 606.36078 1454.6567 1975848
1323.1295 605.98132 1453.7463 1778469
1328.9821 604.50049 1450.1938 1712676
1328.9028 600.35992 1440.2606 2304813
1350.3892 605.95221 1453.6765 2502192
1360.8888 606.57257 1455.1648 2633778
1370.505 606.79364 1455.6951 2765364
1385.0002 609.15759 1461.3662 2633778
1396.5642 610.20978 1463.8904 2699571
1408.3065 611.32556 1466.5673 2831157
1421.0083 612.84076 1470.2021 2831157
1432.2848 613.72571 1472.3251 2896950
1442.9072 614.3208 1473.7528 2963000
1451.1128 613.88599 1472.7096 2896950
1460.3397 613.88599 1472.7096 3028536
1470.8657 614.42859 1474.0114 3028793
1480.1008 614.42859 1474.0114 3357501
1485.5468 612.86536 1470.2611 3094329
1502.1478 615.89508 1477.5294 2831157
1514.2223 617.04309 1480.2836 2699571
nan nan nan 16777215
nan nan nan 16777215
nan nan nan 16777215
nan nan nan 16777215
nan nan nan 16777215
nan nan nan 16777215
nan nan nan 16777215
nan nan nan 16777215
nan nan nan 16777215
nan nan nan 16777215
nan nan nan 16777215
nan nan nan 16777215
nan nan nan 16777215
nan nan nan 16777215
nan nan nan 16777215
-1275.2456 611.8927 1446.3042 2503218
-1267.0408 612.3067 1447.2827 2371632
-1258.9429 612.77881 1448.3986 2569011
-1242.2449 609.0412 1439.5642 2765877
-1233.1299 608.99402 1439.4526 2634291
-1225.0215 609.44684 1440.5229 2634292
-1215.9961 609.44684 1440.5229 3094842
-1211.8304 611.9007 1446.323 3292221
-1189.0505 604.92157 1429.8268 2897463
-1180.0922 604.92157 1429.8268 2502705
-1178.2881 608.61682 1438.5612 2371119
-1168.2913 608.10486 1437.351 2502705
-1161.1473 609.08124 1439.6588 2765877
-1153.5634 609.84045 1441.4532 2700084
-1130.8154 602.53174 1424.178 2173740
-1126.1823 604.83557 1429.6235 1318688
-1118.2729 605.40277 1430.9642 1055259
-1116.0253 609.06903 1439.6299 1252638
-1105.9247 608.4743 1438.2241 1778982
-1088.9253 604.04303 1427.7501 2436912
-1078.6494 603.29877 1425.991 2568498
-1076.6033 607.18353 1435.1733 2502705
-1068.7844 607.85065 1436.75 2371119
-1059.7827 607.85065 1436.75 2502705
-1054.2559 609.86078 1441.5013 2502705
-1047.8693 611.40399 1445.1489 2305326
-1035.312 609.34222 1440.2756 2107947
-1031.0897 612.19305 1447.014 2568498
-1025.9673 614.55524 1452.5975 2634548
-1016.1728 614.13617 1451.6068 2765877
-1007.1749 614.19513 1451.7463 2634291
-996.78149 613.39648 1449.8586 2502705
-988.46014 613.87012 1450.978 2568498
-976.22949 611.90204 1446.3262 2831670
-969.36505 613.29211 1449.6119 2502705
-962.65796 614.80914 1453.1975 2568498
-953.96924 615.07727 1453.8314 2436912
-945.73584 615.64716 1455.1783 2371120
-938.0423 616.58289 1457.3901 2766390
-926.94012 615.27441 1454.2974 3095354
-916.14996 614.14923 1451.6378 3161148
-911.02521 616.8374 1457.9917 2832183
-901.89038 616.8374 1457.9917 2700596
-889.74542 614.75751 1453.0756 2897718
-879.3316 613.84308 1450.9142 3029048
-871.05981 614.42053 1452.2791 2502704
-862.0741 614.50128 1452.4698 2436910
-859.15662 618.95544 1462.998 2634290
-853.73712 621.68365 1469.4467 2700083
-852.71118 627.70569 1483.6807 2963255
-832.15204 619.323 1463.8668 3160633
-817.80548 615.42865 1454.6619 3094841
-806.14777 613.49274 1450.0861 2963255
-798.3927 614.5166 1452.5061 3094841
-784.12433 610.49298 1442.9956 3160634
-775.72589 610.99896 1444.1915 2700083
-770.19928 613.80548 1450.8253 2634290
-766.08734 617.82001 1460.3142 2371118
-750.16052 612.28815 1447.2389 2042153
-743.00061 613.86414 1450.9639 2371118
-732.69965 612.85187 1448.5713 2305324
-721.49615 611.0498 1444.3119 2239532
-711.84387 610.53247 1443.089 2173739
-701.16199 609.1073 1439.7205 2173739
-692.44415 609.37354 1440.3496 2239533
-680.97821 607.19641 1435.2036 2239533
-669.83746 605.25476 1430.6144 2173740
-658.77771 603.33472 1426.076 1976361
-650.12469 603.59637 1426.6945 2568497
-638.59375 601.15607 1420.9264 2700082
-627.23682 598.81293 1415.3881 2765875
-620.00574 600.39795 1419.1344 2963511
-613.34564 602.58997 1424.3157 2765875
-601.45142 599.62854 1417.3159 2042153
-591.81799 598.86609 1415.5137 2634291
-586.31543 602.32404 1423.6871 2436912
-581.34558 606.44458 1433.4266 2502705
-571.66248 605.7005 1431.668 2502705
-563.57916 606.65485 1433.9236 2502705
-551.24884 602.99438 1425.2715 2568498
-545.38983 606.40863 1433.3417 2831670
-532.09833 601.53491 1421.8219 2897207
-530.33356 609.74799 1441.2347 2569268
-521.34924 609.80115 1441.3604 3292734
-515.5141 613.60455 1450.3503 3095355
-509.01385 616.73865 1457.7583 2897976
-496.89307 613.0528 1449.0463 2964026
-491.33282 617.47461 1459.4978 2766391
-485.46487 621.67004 1469.4144 2963256
-474.31628 619.13483 1463.422 2568498
-465.14749 619.13483 1463.422 2634035
-455.55133 618.55457 1462.0504 2700084
-446.50775 618.71613 1462.4323 2108204
-439.29184 621.47009 1468.9418 2239533
-423.35156 611.73535 1445.9323 2502962
-412.41531 608.96381 1439.3812 2963513
-403.39713 608.96381 1439.3812 3160635
-396.52911 612.28387 1447.2288 2436912
-381.78177 603.30804 1426.0129 2436912
-372.72473 603.10968 1425.5441 2568497
-365.2204 605.47565 1431.1364 2700083
-356.88208 606.54327 1433.6599 2831669
-347.92194 606.58191 1433.7512 2107946
-339.87958 608.2652 1437.73 2634291
-332.22324 610.74969 1443.6024 2765877
-325.0864 614.35504 1452.1243 2831670
-315.50311 613.41162 1449.8943 2831670
-305.93924 612.45099 1447.6237 2634291
-295.87186 610.39294 1442.7593 2700084
-287.31897 611.4281 1445.2061 2634291
-279.85303 614.91907 1453.4574 2568498
-270.39899 614.12939 1451.5909 2568498
-261.0242 613.47107 1450.0348 2502705
-251.93929 613.47107 1450.0348 2305326
-242.83112 613.41229 1449.8959 2436912
-232.86752 611.10413 1444.4403 2436912
-222.6981 608.04736 1437.2151 2700084
-216.30672 615.48309 1454.7905 2831670
-207.19202 615.48309 1454.7905 2765877
-198.17094 615.77405 1455.4783 2963512
-188.72739 614.71698 1452.9799 3095355
-180.28238 616.97009 1458.3053 3161405
-171.21385 617.21594 1458.8865 3095611
-161.55598 615.24518 1454.2283 3161148
-152.13716 614.00366 1451.2937 3555906
-142.79506 612.93359 1448.7644 3161148
-133.51524 612.00372 1446.5665 2766646
-125.0165 614.77948 1453.1274 2437168
-116.00486 615.27087 1454.2889 2107947
-106.42771 612.591 1447.9547 2700084
-96.695084 608.43341 1438.1276 3489598
-87.97702 610.46136 1442.9209 2568496
-79.426193 614.24707 1451.869 2042152
-70.761208 618.01501 1460.7753 2568496
-61.757313 619.50287 1464.292 2436910
-52.435059 617.75909 1460.1702 2173738
-43.319744 618.23151 1461.2869 2371117
-34.406322 622.6106 1471.6376 2502703
-25.186058 622.6106 1471.6376 2305325
-15.992854 623.66589 1474.132 2371117
-6.7621703 624.14673 1475.2684 2239788
2.4619961 619.40472 1464.0601 2963255
11.614601 618.3302 1461.5201 1778981
20.643631 614.52441 1452.5245 2107947
29.850271 616.71692 1457.7069 2107945
38.836163 614.38983 1452.2065 1910566
48.286827 618.90338 1462.8749 2239531
57.687416 621.43726 1468.8643 2107945
66.851334 621.0752 1468.0084 2173738
75.929474 620.10016 1465.7037 2239531
85.150322 620.37524 1466.354 1778980
94.337479 620.37524 1466.354 1778980
103.3932 619.58759 1464.4922 2173738
112.56366 619.55981 1464.4266 2173738
121.02618 615.93341 1455.8551 2568496
129.25876 611.72705 1445.9126 2502703
138.31784 611.72705 1445.9126 1844773
148.13794 614.88586 1453.3789 2371117
155.54413 608.23938 1437.6689 2568498
164.55156 608.23938 1437.6689 1976361
172.73851 605.36389 1430.8723 1910568
182.1306 606.78729 1434.2367 2568498
192.45303 611.03064 1444.2665 3226428
201.40616 610.74054 1443.5808 2568498
211.24112 613.03461 1449.0032 2371119
219.46921 610.66846 1443.4105 2436912
226.65039 605.69189 1431.6476 2831670
236.20152 607.18658 1435.1804 1647396
245.99661 609.1756 1439.8818 1581603
255.22169 609.66235 1441.0323 1976361
265.72501 613.06488 1449.0748 1976361
274.14258 611.5896 1445.5876 1976361
283.19962 611.5896 1445.5876 2173740
292.87042 612.87396 1448.6234 2042154
301.98688 612.95581 1448.817 2371119
313.31711 617.39532 1459.3104 3029306
322.46014 617.39532 1459.3104 3095099
331.76385 617.69452 1460.0176 2371119
341.18201 618.18494 1461.1769 2173740
350.67017 618.77332 1462.5675 1910568
359.15927 617.61371 1459.8267 2305583
368.70319 618.28052 1461.4027 2765108
375.94617 615.15009 1454.0034 2436912
387.10123 618.41754 1461.7266 2107947
397.68805 620.64716 1466.9966 1976361
406.6185 620.24939 1466.0565 2107947
413.26651 616.4646 1457.1105 1976361
419.99893 612.96655 1448.8423 1713189
429.26971 613.24274 1449.4952 2568498
440.99219 616.93738 1458.2279 2963513
450.20291 617.03943 1458.4692 2436912
459.00131 616.58356 1457.3916 1844775
465.32889 612.89105 1448.6639 1778982
474.39307 612.87543 1448.627 1647396
482.8649 612.10938 1446.8163 1844775
492.23996 612.49554 1447.729 1778982
496.13861 606.17657 1432.7932 1778982
506.29398 607.59088 1436.1361 1910568
514.11493 606.20319 1432.8561 2371119
520.11328 602.75104 1424.6963 2634291
528.34424 601.95892 1422.8241 2634291
538.27502 603.0976 1425.5156 2371119
546.81189 602.6629 1424.488 2371119
549.70081 596.11731 1409.0165 2568498
558.52869 596.11731 1409.0165 2107947
566.01532 594.70795 1405.6853 2436912
576.21863 596.15253 1409.0997 2568499
588.5379 599.70966 1417.5076 1976361
595.31207 597.5946 1412.5083 2042154
602.95233 596.39819 1409.6804 2239533
614.28979 598.84052 1415.4532 2502705
625.31201 600.91046 1420.3459 2371119
634.40979 601.09888 1420.7913 2239533
648.72131 606.15375 1432.7393 2634291
651.41345 600.36182 1419.0491 2436913
660.6618 600.68689 1419.8175 2107947
667.82599 599.13361 1416.1461 2305326
678.18695 600.45142 1419.2609 1976361
687.51239 600.83008 1420.1559 1844775
696.43469 600.85132 1420.2061 2042154
699.08484 595.52893 1407.6257 2371119
706.96075 594.73535 1405.7501 2239533
721.9151 599.84283 1417.8224 2042154
729.98615 599.17633 1416.2469 2239533
739.33942 599.56555 1417.167 2173997
748.57251 599.84937 1417.8378 2042154
757.54309 599.91852 1418.0013 1976361
766.28168 599.80457 1417.7319 1976361
775.11023 599.76276 1417.6332 2107947
778.50507 595.56506 1407.7113 2239533
788.78705 596.6712 1410.3257 2239533
804.26593 601.64038 1422.0712 2371119
811.61108 600.48279 1419.3351 2700084
817.48682 598.27502 1414.1166 2305326
824.61395 597.02045 1411.1512 2239533
836.44495 599.16205 1416.2133 2371120
845.66437 599.40753 1416.7936 2371119
858.86194 602.43842 1423.9575 2371376
868.86517 603.18933 1425.7324 2634291
879.04486 604.04626 1427.7579 2634291
885.31189 602.22437 1423.4515 2634291
893.43585 601.68939 1422.187 2305326
904.1853 602.91565 1425.0854 2042154
917.21185 605.62146 1431.4811 2173740
924.23535 604.34949 1428.4746 2305326
929.66913 602.07245 1423.0924 2107947
944.7381 606.01935 1432.4215 2173740
953.71265 606.01935 1432.4215 2173740
961.74255 605.42468 1431.0159 2239019
965.20306 601.99103 1422.9 2239020
979.63684 605.40167 1430.9615 2239533
983.1651 602.07202 1423.0914 2371119
991.3692 601.63995 1422.0701 2239533
1003.9574 603.85242 1427.2997 2107947
1006.4427 600.00287 1418.2007 2042410
1007.9945 595.66913 1407.9572 2173740
1031.7135 604.39642 1428.5856 2305326
1046.9893 608.07001 1437.2686 2436399
1056.3066 608.24994 1437.6938 2239020
1067.8433 609.69391 1441.1069 2304813
1079.2448 611.03723 1444.282 2304813
1090.7772 612.43158 1447.5779 2304813
1100.0491 612.54425 1447.8442 2239020
1109.769 612.90259 1448.6912 2304813
1114.7073 610.63568 1443.3329 2502192
1123.7502 610.63568 1443.3329 2370606
1131.1764 609.76416 1441.2729 2370606
1141.6799 610.55212 1443.1355 2239020
1151.2563 610.83582 1443.806 2304813
1159.8286 610.58655 1443.2168 2173227
1163.1282 607.58673 1436.1263 2304813
1171.813 607.4245 1435.7428 1975848
1178.9735 606.48059 1433.5117 2239020
1188.462 606.7395 1434.1238 2370606
1200.2043 608.13654 1437.4258 2304813
1207.4468 607.24963 1435.3295 2304813
1217.6962 607.87689 1436.8121 1975848
1226.4935 607.77545 1436.5724 1844262
1226.2451 603.22565 1425.8181 2107434
1245.0559 608.04962 1437.2203 2436399
1254.5536 608.28864 1437.7853 2831157
1262.6449 607.84729 1436.7421 2896950
1269.7711 606.95081 1434.6232 2962743
1273.1522 604.28937 1428.3325 2699571
1281.8716 604.18115 1428.0767 2699572
1295.9628 606.58875 1433.7675 2436399
1307.697 607.86768 1436.7903 2436399
1307.8824 603.79749 1427.1698 2567985
1316.8242 603.79749 1427.1698 2765364
1330.0573 605.75195 1431.7894 2633778
1339.7858 606.09479 1432.5999 2239020
1351.7253 607.4267 1435.748 2304813
1365.7211 609.65881 1441.024 2567985
1373.0778 608.91742 1439.2716 2633778
1383.6443 609.59991 1440.8848 2765364
1393.5428 609.98114 1441.7859 2765621
1402.576 609.98114 1441.7859 2831157
1415.4097 611.62335 1445.6675 2634035
1427.0809 612.74561 1448.3201 2962743
1435.6379 612.52496 1447.7986 3028536
1446.3661 613.2276 1449.4594 3160122
1449.5651 610.74915 1443.6012 3357501
1458.1888 610.57294 1443.1847 3225915
1469.3271 611.44525 1445.2466 3028536
1490.0594 616.27496 1456.6622 2765364
nan nan nan 16777215
nan nan nan 16777215
nan nan nan 16777215
nan nan nan 16777215
nan nan nan 16777215
nan nan nan 16777215
nan nan nan 16777215
nan nan nan 16777215
nan nan nan 16777215
nan nan nan 16777215
nan nan nan 16777215
nan nan nan 16777215
nan nan nan 16777215
nan nan nan 16777215
nan nan nan 16777215
-1250.4988 608.85724 1418.2378 2436656
-1239.8669 608.0011 1416.2434 2305326
-1228.3518 606.69617 1413.2039 2370863
-1219.7762 606.83478 1413.5267 2502705
-1208.5653 605.65472 1410.778 2502705
-1206.8424 609.24713 1419.1459 3029306
-1200.4214 610.50348 1422.0724 3226685
-1192.988 611.25989 1423.8344 2963256
-1172.5542 605.31641 1409.99 2568498
-1163.433 605.16711 1409.6421 2502705
-1153.4873 604.58325 1408.2822 2305326
-1144.6641 604.58325 1408.2822 2305326
-1139.8672 606.72644 1413.2744 2239533
-1127.9388 605.07764 1409.4337 2173740
-1122.5205 606.92249 1413.7311 1318688
-1113.6631 606.92249 1413.7311 1186845
-1111.2695 610.47345 1422.0024 1252638
-1103.432 611.06702 1423.385 1581603
-1084.5746 605.51782 1410.459 1713189
-1075.7375 605.51782 1410.459 2436912
-1062.9951 603.30121 1405.2958 2568498
-1057.6118 605.25922 1409.8567 2436912
-1051.3414 606.73816 1413.3018 2568498
-1040.7841 605.74719 1410.9934 2634291
-1028.7305 603.86108 1406.6 2765877
-1020.8111 604.39001 1407.832 2436912
-1019.8374 609.07635 1418.7482 2239533
-1012.4975 610.00964 1420.922 2634291
-1010.5479 614.23584 1430.7662 2897463
-999.65228 613.05127 1428.0071 2831670
-990.70532 613.05127 1428.0071 2634291
-982.80591 613.70538 1429.5308 2568498
-974.05237 613.83325 1429.8286 2700084
-952.51678 605.83362 1411.1947 2700084
-951.68781 610.97772 1423.177 2436912
-949.08466 615.06927 1432.7076 2568498
-941.49023 615.97339 1434.8136 2700084
-934.05457 616.99982 1437.2046 2766134
-925.05005 616.99982 1437.2046 2897976
-915.44641 616.59631 1436.2646 3160892
-910.0542 619.04956 1441.9791 3095099
-901.01971 619.04956 1441.9791 2634804
-888.59491 616.69653 1436.4982 2371376
-878.71466 616.07947 1435.0608 2437169
-859.05548 608.52264 1417.4583 3029305
-857.80573 613.98462 1430.1812 2634548
-853.93134 617.66357 1438.7506 2042155
-834.62842 610.14209 1421.2306 1713187
-835.85199 617.62592 1438.663 2371118
-826.83838 617.62592 1438.663 2700083
-817.10876 617.08527 1437.4037 2436911
-807.93182 616.95453 1437.0991 2568497
-793.25647 612.57489 1426.8975 2436912
-777.95673 607.60773 1415.3271 2700084
-769.73718 608.11957 1416.5194 3226428
-763.45966 610.19556 1421.3551 2568755
-761.21179 615.57928 1433.8956 2436912
-753.21179 616.38434 1435.771 2437167
-741.1394 613.836 1429.835 2700339
-730.84918 612.71942 1427.2341 2700082
-721.90717 612.71942 1427.2341 2568496
-710.57867 610.66858 1422.4569 2305324
-697.33313 606.89716 1413.672 2173738
-689.19373 607.52985 1415.1458 1976360
-678.94025 606.29108 1412.2603 1910566
-667.81451 604.23047 1407.4603 1910567
-659.54633 604.73474 1408.635 2042409
-650.03339 604.09583 1407.1469 2107945
-644.33765 607.03571 1413.9948 2436910
-628.33972 600.21649 1398.1104 2700339
-619.6366 600.27112 1398.2377 2700339
-610.9035 600.29797 1398.3003 2766132
-601.65662 599.81335 1397.1714 2634289
-595.32593 602.26459 1402.8812 2371118
-580.32483 595.88641 1388.0243 2568498
-572.87091 597.18158 1391.0411 2371119
-568.02069 601.27301 1400.5714 2568499
-563.40723 605.74725 1410.9935 2437169
-555.11444 606.34534 1412.3867 2371376
-545.69934 605.71704 1410.9231 3094842
-534.39062 602.93152 1404.4347 2700341
-530.67291 608.76074 1418.0129 2173996
-521.78857 608.76074 1418.0129 2897976
-515.80701 612.20593 1426.038 3490370
-502.37161 606.76971 1413.3752 3358527
-497.24854 611.3584 1424.0638 3029819
-487.10956 609.83502 1420.5154 2437425
-480.77582 613.10767 1428.1384 2832183
-471.82812 613.10767 1428.1384 3424577
-465.79135 616.96338 1437.1198 2700854
-456.66055 616.79205 1436.7207 2765877
-446.41818 615.0824 1432.7383 2897463
-435.43079 612.25494 1426.1522 2897463
-428.62177 615.30737 1433.2623 2963256
-417.38654 612.00043 1425.5592 2963256
-406.53052 609.11688 1418.8425 2963256
-397.60403 609.06024 1418.7106 2963256
-384.71246 602.78827 1404.101 2700084
-377.97531 606.09143 1411.7953 2831927
-369.42572 606.57709 1412.9264 2700085
-359.28995 604.41815 1407.8976 2831671
-350.29855 604.12415 1407.2126 2700085
-342.54065 605.99713 1411.5756 2502705
-336.76926 611.57697 1424.5729 2963256
-330.00449 615.60748 1433.9613 2502705
-316.18341 606.33203 1412.3556 2371376
-307.33456 606.33203 1412.3556 2502705
-299.34259 608.07263 1416.4102 2371119
-293.06375 613.50598 1429.0662 2897463
-283.04279 611.20099 1423.6971 3094842
-272.96295 608.61469 1417.6727 2897463
-263.42715 607.10834 1414.1638 2963256
-254.17044 606.1626 1411.9609 2765877
-248.38139 613.71686 1429.5574 2634291
-239.64812 614.28931 1430.8909 2634291
-230.22337 613.065 1428.0391 2766134
-220.99014 612.27228 1426.1925 2897463
-212.90579 614.72992 1431.9172 3029049
-204.54114 616.5589 1436.1775 3292221
-195.84406 617.508 1438.3883 3160635
-186.49135 616.38177 1435.7649 2831927
-177.29912 615.69855 1434.1736 2568755
-167.95932 614.40277 1431.1552 2568754
-160.09381 618.6579 1441.0668 3094842
-151.06508 618.6579 1441.0668 3423807
-141.23433 615.16461 1432.9297 3226171
-132.17805 614.79926 1432.0787 2831670
-123.4345 615.94135 1434.739 3029049
-114.13 614.24377 1430.7849 3226429
-104.45959 610.11969 1421.1785 2831667
-95.451553 609.45618 1419.6328 3358012
-86.146629 606.56598 1412.9005 2831668
-78.048286 612.48224 1426.6816 2173738
-69.563881 616.50757 1436.058 2436910
-60.893303 619.83374 1443.8058 2568496
-51.497429 615.64972 1434.0598 2568496
-42.676193 618.0188 1439.5782 2042152
-33.877388 622.06958 1449.0138 1976359
-24.806223 622.25403 1449.4435 1976359
-15.707368 621.55597 1447.8174 2173738
-6.6300602 620.96753 1446.4468 2042152
2.4366686 622.06311 1448.9988 1515808
11.464407 619.32483 1442.6204 1581601
20.492987 619.02631 1441.9249 1844776
29.313437 614.54706 1431.4912 1844773
37.992264 609.89307 1420.6505 1844773
46.948399 610.61255 1422.3264 2305324
56.691879 619.70911 1443.5155 2239531
65.741943 619.76556 1443.647 2305324
74.351013 616.15387 1435.234 2239531
83.358223 616.26489 1435.4928 1713187
92.011681 613.99377 1430.2025 1844773
101.44437 616.86407 1436.8884 2371117
110.44691 616.86407 1436.8884 2239531
119.39225 616.5686 1436.2001 2371117
127.55951 612.57794 1426.9045 2502703
136.49951 612.57794 1426.9045 2239531
144.8867 610.24957 1421.481 2371117
153.77295 610.17114 1421.2982 2239533
161.74625 606.677 1413.1592 2042154
170.60013 606.677 1413.1592 2108204
181.70337 614.28131 1430.8723 2173740
191.18327 615.94067 1434.7375 2305326
198.61841 611.15912 1423.5996 2436913
207.55873 611.22107 1423.7439 2436912
215.94669 609.71826 1420.2434 2305326
223.00662 604.73322 1408.6315 2305326
231.83211 604.73322 1408.6315 1976618
243.07375 610.8045 1422.7736 1910568
251.98785 610.8045 1422.7736 2042154
261.15292 611.39197 1424.1421 1976361
269.9642 611.13977 1423.5546 2173740
277.7977 608.76099 1418.0135 2371120
288.95541 613.58856 1429.2585 2436913
299.62317 617.1167 1437.4769 2239533
309.62625 619.10999 1442.1199 2831670
319.52472 620.78687 1446.026 2963256
325.60172 615.15155 1432.8993 2897463
328.5755 604.1131 1407.187 2173740
337.09253 603.57703 1405.9382 2173740
351.97906 614.18256 1430.6422 2502705
363.84732 619.12543 1442.1559 2041898
372.88287 619.12543 1442.1559 2239533
382.22229 619.61804 1443.3033 1976361
392.39624 621.40948 1447.4762 2107947
400.39703 619.75616 1443.6251 2107947
408.86386 618.88141 1441.5874 2042154
414.21072 613.42395 1428.8751 1976361
424.48929 615.34644 1433.3533 1647396
436.13547 619.13074 1442.1682 2239533
443.35052 616.59869 1436.2703 2107947
449.77487 613.0896 1428.0964 1976361
458.99768 613.45764 1428.9537 1844775
468.2843 613.8952 1429.9729 1713189
471.82059 606.91943 1413.724 1844775
485.52106 613.03448 1427.968 1910568
494.13214 612.61847 1426.9989 2107947
502.33282 611.71741 1424.9001 1910568
505.58997 604.93298 1409.0968 1976361
513.56848 603.93353 1406.7687 2173740
519.89069 601.05292 1400.0587 2173740
525.66022 597.63953 1392.1078 2634291
536.01508 599.46564 1396.3615 2371119
546.95935 601.88177 1401.9895 2239533
553.26654 599.19946 1395.7415 2436912
561.24219 598.37946 1393.8313 2502705
568.70032 597.04132 1390.7144 2634291
579.3501 599.04358 1395.3784 2568498
588.30792 599.263 1395.8894 2568498
594.90137 597.10278 1390.8575 2502705
603.90686 597.39099 1391.5289 2831670
612.62524 597.39099 1391.5289 2831927
623.36188 599.33148 1396.049 2305327
632.31592 599.52808 1396.507 2173740
640.21912 598.73657 1394.6632 2305326
649.17108 598.93396 1395.123 2107947
657.94995 598.96857 1395.2036 1976361
666.94342 599.19507 1395.7312 1976361
678.23468 601.45331 1400.9915 1976361
687.03778 601.47565 1401.0435 1910568
694.33838 600.19861 1398.0687 1844775
703.09778 600.19861 1398.0687 2371119
714.06641 602.06134 1402.4077 2634291
722.05792 601.39917 1400.8654 2502705
731.19952 601.6994 1401.5646 1910568
744.06927 605.02386 1409.3085 1713189
751.90363 604.22394 1407.4452 1910568
758.87451 602.75677 1404.0276 1778982
766.75256 602.03546 1402.3475 1713189
774.61462 601.31812 1400.6765 2042154
783.84021 601.66345 1401.481 2107947
792.83429 601.82544 1401.8583 2173740
802.98767 602.85425 1404.2546 2173740
811.82178 602.88098 1404.3169 2173740
819.89081 602.34503 1403.0686 2305326
822.46722 597.82806 1392.547 2634291
833.02411 599.14581 1395.6165 2634291
843.71582 600.53217 1398.8458 2568498
852.95294 600.86542 1399.6219 2568498
860.96631 600.33838 1398.3944 2634291
868.82751 599.71704 1396.947 2568498
876.922 599.26746 1395.8999 2371119
885.66766 599.26746 1395.8999 1976361
898.98999 602.33386 1403.0425 1778982
907.78052 602.33386 1403.0425 1779239
914.74652 601.13483 1400.2496 1910568
928.33978 604.27246 1407.5582 2173740
933.57605 601.96252 1402.1775 2436912
937.79681 599.04688 1395.386 2305069
951.21906 602.00854 1402.2848 2041897
962.9577 603.86029 1406.5981 2239020
972.63025 604.39459 1407.8427 2239276
977.86188 602.18445 1402.6945 2173483
984.0343 600.58789 1398.9756 2502448
997.36426 603.34937 1405.4081 2634291
1004.4568 602.32233 1403.0156 2371119
1023.5906 608.47107 1417.3381 2371118
1029.9917 607.01007 1413.9351 2371632
1036.42 605.58997 1410.6271 2239020
1047.9451 607.14679 1414.2534 2239020
1059.3401 608.60272 1417.6449 2304813
1068.2975 608.64569 1417.745 2304813
1079.2905 609.83813 1420.5226 2173227
1088.577 610.05469 1421.027 2041641
1094.8705 608.604 1417.6479 2172970
1103.7524 608.604 1417.6479 2436143
1114.6619 609.71301 1420.2311 2502192
1122.7954 609.2981 1419.2646 2633778
1131.6876 609.2981 1419.2646 2567985
1138.045 607.94403 1416.1106 2173227
1138.9681 603.73041 1406.2955 1910055
1148.6794 604.20404 1407.3988 1910055
1162.2094 606.66376 1413.1283 1975848
1169.5576 605.88391 1411.3118 2239020
1177.8038 605.57739 1410.5978 2173227
1186.6416 605.57739 1410.5978 2173227
1195.126 605.39832 1410.1807 2239020
1202.417 604.62183 1408.3719 2304813
1211.2616 604.6322 1408.3961 2173227
1217.8207 603.50977 1405.7816 2370606
1226.6284 603.50977 1405.7816 2699828
1236.8368 604.19397 1407.3755 2896950
1241.9623 602.4032 1403.204 2962743
1242.7413 598.54413 1394.2148 2699571
1258.791 602.04242 1402.3636 2633778
1270.1096 603.24518 1405.1653 2567985
1279.4432 603.495 1405.7473 2567985
1287.6324 603.20544 1405.0728 2567985
1293.1654 601.68384 1401.5284 2502192
1302.1597 601.78247 1401.7581 2567985
1314.9995 603.64496 1406.0966 2370606
1330.7906 606.82843 1413.512 2304813
1334.4419 604.47083 1408.0203 2502192
1351.1874 608.0365 1416.3259 2567985
1361.5043 608.6817 1417.8289 2502192
1369.3213 608.20819 1416.7258 2436399
1377.0996 607.72363 1415.5972 2436399
1383.6617 606.71204 1413.2408 2370606
1381.0131 601.70026 1401.5667 2699571
1401.7114 606.85962 1413.5846 3028536
1424.7303 612.95264 1427.7773 3028536
1437.9987 614.80084 1432.0824 3094329
1432.5449 608.67133 1417.8047 3160122
1441.428 608.67133 1417.8047 3226172
1459.7654 612.63922 1427.0472 2765621
nan nan nan 16777215
nan nan nan 16777215
nan nan nan 16777215
nan nan nan 16777215
nan nan nan 16777215
nan nan nan 16777215
nan nan nan 16777215
nan nan nan 16777215
nan nan nan 16777215
nan nan nan 16777215
nan nan nan 16777215
nan nan nan 16777215
nan nan nan 16777215
nan nan nan 16777215
nan nan nan 16777215
-1218.2512 601.76703 1381.6648 2502705
-1217.6809 605.78986 1390.9012 2239534
-1209.3574 605.98572 1391.351 2371119
-1201.1844 606.2605 1391.9818 2568498
-1197.1873 608.66223 1397.4962 2436912
-1187.2228 608.04315 1396.0748 2436912
-1174.6476 606.06787 1391.5396 2436912
-1159.839 602.90216 1384.271 2371119
-1148.3795 601.44263 1380.92 2436912
-1146.5079 605.02069 1389.1353 2502705
-1138.2463 605.25562 1389.6746 2239533
-1130.4324 605.73395 1390.7729 2239533
-1123.5338 606.71405 1393.0233 2305326
-1116.8501 607.82654 1395.5775 2107947
-1108.6809 608.14172 1396.3011 1844775
-1102.0359 609.3045 1398.9709 2107947
-1091.5717 608.35754 1396.7966 2239533
-1082.8202 608.35754 1396.7966 1910568
-1072.256 607.33069 1394.439 1976361
-1061.7476 606.31885 1392.1158 2173740
-1047.7567 603.2851 1385.1504 2436912
-1039.2316 603.37415 1385.3547 2700084
-1035.092 606.03235 1391.458 2502705
-1021.5665 603.19366 1384.9403 2700084
-1016.3979 605.28296 1389.7374 3094842
-1003.5521 602.797 1384.0297 2765877
-995.97638 603.46082 1385.5538 2173740
-996.91833 609.34265 1399.0585 2436912
-992.39642 611.95947 1405.0668 2634548
-982.89197 611.52319 1404.0649 2634291
-975.02527 612.10712 1405.4058 2700084
-966.55646 612.32025 1405.8951 2700084
-954.45929 610.21765 1401.0675 2634291
-945.82843 610.31268 1401.2858 2239533
-937.41473 610.55096 1401.8328 2963256
-932.73267 613.24707 1408.0232 3160635
-924.53473 613.66119 1408.9739 2963256
-916.21625 614.00232 1409.7572 2831670
-905.79108 612.92468 1407.2828 2962999
-905.72412 618.90387 1421.0111 3029049
-898.43188 620.0155 1423.5635 2503218
-887.59247 618.67706 1420.4904 2371632
-878.2699 618.37933 1419.8068 2305840
-863.15143 613.953 1409.6439 2437682
-851.07599 611.62207 1404.292 2503218
-846.02966 614.34656 1410.5475 2568755
-843.53278 618.99939 1421.2306 2305326
-822.73352 610.17761 1400.9756 1844776
-822.12793 616.30371 1415.0413 1976362
-815.10297 617.69861 1418.2439 2173740
-806.21716 617.69861 1418.2439 2239533
-792.23779 613.7525 1409.1836 1976361
-776.95563 608.69684 1397.5757 2173740
-767.82629 608.40125 1396.897 2305325
-761.54529 610.38171 1401.4442 2437168
-755.61047 612.68909 1406.7421 2569010
-749.87933 615.21808 1412.5486 2568753
-741.08118 615.26117 1412.6476 2502959
-732.26337 615.28882 1412.7109 2634289
-722.01886 614.1037 1409.9899 2634289
-712.07239 613.14569 1407.7904 2568753
-703.25208 613.14569 1407.7904 2371374
-696.8241 615.25793 1412.64 1844516
-677.46088 605.85645 1391.0542 1581601
-669.01282 606.09869 1391.6104 1647394
-658.79333 604.72119 1388.4476 1647137
-646.77112 601.62994 1381.3501 1976102
-639.3988 602.83899 1384.126 2305067
-630.02643 602.16949 1382.5889 2502446
-619.87836 600.72968 1379.2831 2371117
-609.7951 599.31287 1376.0299 2568496
-597.07629 595.22797 1366.651 2634289
-591.55737 598.30634 1373.7189 2831668
-587.78528 603.26831 1385.1118 3226427
-579.38208 603.55469 1385.7693 2437169
-571.68256 604.59406 1388.1558 2306096
-561.75708 603.27502 1385.1271 2503475
-552.69452 602.8559 1384.1648 2437425
-544.95844 603.89319 1386.5465 2437682
-539.2959 607.29926 1394.3668 2634804
-531.29712 608.14325 1396.3047 2832183
-523.49872 609.24866 1398.8428 2569011
-514.49445 608.96454 1398.1903 3161148
-506.00192 609.28668 1398.9301 3358527
-498.49005 610.82196 1402.455 3226941
-489.70325 610.82196 1402.455 2634804
-478.48404 607.73248 1395.3616 2569011
-467.93909 605.40033 1390.007 3621699
-458.35852 604.25116 1387.3684 3029562
-457.45551 614.7182 1411.4009 2700341
-447.59512 613.32397 1408.1997 2766134
-435.69366 609.02063 1398.3191 2765877
-426.93277 609.02063 1398.3191 2700084
-418.88855 610.06433 1400.7156 2700084
-410.12225 610.07867 1400.7484 2700084
-398.34711 605.51996 1390.2815 2963256
-389.49658 605.30237 1389.782 3489600
-381.75577 606.83887 1393.3098 2765877
-372.89624 606.62738 1392.8242 2634291
-362.73679 604.24036 1387.3435 2897463
-354.04465 604.24036 1387.3435 3029049
-344.20303 602.22919 1382.726 2634548
-337.30716 605.40125 1390.0089 2765877
-330.60388 609.09619 1398.4926 2765877
-321.84189 609.09619 1398.4926 2634291
-312.51593 607.99902 1395.9735 2634291
-303.76974 607.99902 1395.9735 2436912
-294.97147 607.89166 1395.7271 2634291
-285.22092 605.75537 1390.8221 3226428
-277.42188 607.7597 1395.4241 3029049
-269.03622 608.56744 1397.2787 2765877
-261.29117 610.92743 1402.6971 3160635
-250.59354 606.30792 1392.0907 2831670
-242.83461 608.72174 1397.6329 2765877
-235.77454 613.13361 1407.7626 2831670
-226.67062 612.36682 1406.002 2897463
-218.68039 614.66833 1411.2863 2765877
-209.99112 615.11603 1412.3143 2765877
-201.81294 617.16626 1417.0216 3094842
-192.25063 614.97754 1411.9962 3358014
-183.46922 615.19611 1412.498 2963513
-174.57945 615.05511 1412.1743 3029049
-165.62776 614.66919 1411.2883 2897463
-157.57759 617.77411 1418.4172 2963256
-148.92003 618.72662 1420.6042 2897720
-139.52774 616.55365 1415.615 2897463
-130.65848 616.55365 1415.615 3094842
-121.98684 617.55408 1417.9121 3160635
-112.43888 613.927 1409.5842 2897463
-103.6074 613.927 1409.5842 2765875
-94.768623 613.87976 1409.4757 2502960
-85.779198 612.74664 1406.8741 2173738
-77.045837 613.39264 1408.3574 2634289
-68.59716 616.76544 1416.1013 2634289
-59.802471 617.56702 1417.9418 2305324
-50.942951 617.86206 1418.6191 2239531
-42.130741 618.97681 1421.1787 2042152
-33.301178 620.36584 1424.3679 2042153
-24.427828 621.65753 1427.3336 2042154
-15.477292 621.34253 1426.6104 1976361
-6.5231867 619.82697 1423.1306 1647652
2.3778365 615.85602 1414.0133 1976360
11.230287 615.48431 1413.1599 1778981
19.995659 612.77185 1406.932 1450017
28.761875 611.73712 1404.5563 2107944
37.52961 611.21198 1403.3505 2568496
46.63488 615.3399 1412.8282 2371117
55.4771 615.23358 1412.5842 2371117
64.234428 614.3446 1410.5431 2305324
73.085602 614.45966 1410.8071 2371117
81.924744 614.45966 1410.8071 2239531
90.204971 610.67584 1402.1195 2173738
98.916702 610.22559 1401.0858 2239531
107.69494 610.22559 1401.0858 2173738
117.0508 613.25189 1408.0342 2107945
125.20176 609.9837 1400.5304 2436910
133.88351 609.56024 1399.5581 2305324
143.07506 611.36725 1403.707 1976359
152.24422 612.87488 1407.1685 2436913
160.95592 612.47662 1406.2542 2305326
169.4975 611.50598 1404.0255 2042154
178.08084 610.77435 1402.3458 1910568
187.00272 611.21808 1403.3645 2042154
194.82741 608.19678 1396.4276 2371119
203.85178 609.01935 1398.3162 2371119
211.92242 607.04218 1393.7766 2042154
220.65967 607.05536 1393.8069 2042154
229.53802 607.44104 1394.6924 2371119
238.94408 609.14368 1398.6016 2305326
247.70674 609.14368 1398.6016 2173740
256.65329 609.58032 1399.6042 2107947
263.93884 606.17346 1391.7821 2371119
272.65878 606.17346 1391.7821 2371119
284.52185 612.9447 1407.3289 2173740
291.98792 610.12109 1400.8458 2305326
299.43423 607.42224 1394.6493 2634291
308.85593 608.77008 1397.7438 2502705
319.32007 612.04156 1405.2552 2897463
328.5755 612.88293 1407.187 2634291
335.26416 609.01776 1398.3125 2371119
344.02502 609.01776 1398.3125 2371119
357.15543 616.56091 1415.6317 2305326
366.50061 617.36243 1417.472 2042154
375.38153 617.36243 1417.472 1910825
383.88184 616.75098 1416.0681 1778982
393.6355 618.13531 1419.2466 2239533
402.33987 617.84717 1418.585 2305326
408.26157 613.39062 1408.3527 2437169
419.13492 616.40485 1415.2734 3029049
426.05807 613.60516 1408.8452 3160635
434.88492 613.60516 1408.8452 2831670
442.41351 611.80981 1404.7231 2107947
450.87634 611.3512 1403.6702 1778982
460.4552 612.39453 1406.0657 1910568
467.68649 610.33502 1401.337 2173740
476.9288 610.92743 1402.6973 2239533
484.47842 609.36945 1399.12 2305326
493.14676 609.24884 1398.8431 2305326
498.68918 605.33807 1389.864 2042411
507.55536 605.52692 1390.2975 2107947
510.01111 598.19055 1373.4531 2173740
512.31903 590.92719 1356.7764 2634548
519.55963 589.4975 1353.4938 2502705
537.76215 600.3515 1378.4148 2173740
545.58691 599.45996 1376.3678 2436912
554.11755 599.35968 1376.1375 2371119
561.23102 597.75305 1372.4486 2305326
570.15729 598.09662 1373.2374 2305326
578.78217 598.11841 1373.2875 2502706
586.28967 597.00177 1370.7238 2568498
594.87769 597.00177 1370.7238 2568498
602.44 595.98712 1368.394 3160635
612.13367 597.07977 1370.9028 2765877
615.5105 592.06604 1359.3911 2371376
623.16779 591.25037 1357.5184 2173740
638.91125 598.02539 1373.0739 2239533
648.41553 598.85803 1374.9856 2239533
658.66547 600.34845 1378.4077 2371119
667.33636 600.3797 1378.4794 2634291
671.09229 596.0448 1368.5265 2831670
676.97589 593.68518 1363.1088 2897463
693.97705 601.0127 1379.9327 2371119
705.22211 603.23615 1385.0378 2239533
709.05688 599.14392 1375.6421 1845032
717.67572 599.14392 1375.6421 1647396
732.74512 604.46515 1387.8597 1976361
741.44049 604.46515 1387.8597 2371119
749.41925 603.88776 1386.5339 2173740
756.59729 602.68573 1383.774 2173740
764.63141 602.18512 1382.6246 2107947
770.96649 600.37262 1378.4631 2371119
779.69934 600.44684 1378.6335 2371119
788.09918 600.26575 1378.2178 2239533
796.73413 600.26575 1378.2178 1976361
