# .PCD v0.7 - Point Cloud Data file format
VERSION 0.7
FIELDS x y z rgb
SIZE 4 4 4 4
TYPE F F F U
COUNT 1 1 1 1
WIDTH 1270
HEIGHT 1
VIEWPOINT 0 0 0 1 0 0 0
POINTS 1270
DATA ascii
1228.2185 663.63354 2604.4761 3752511
1247.9064 665.43054 2611.5286 3752511
1274.0477 670.57776 2631.7292 4081476
1284.2815 667.32764 2618.9739 4015940
1299.1903 666.55811 2615.9539 4278085
1309.6462 663.55164 2604.1548 4278085
1316.2345 658.68372 2585.0503 4212292
1333.5624 659.24316 2587.2458 3685948
1350.0604 659.38391 2587.7983 3620155
1360.2991 656.50037 2576.4817 3356983
1366.718 651.86279 2558.281 3356983
1388.1122 654.39227 2568.2083 3620155
1398.6578 651.80817 2558.0669 3554362
1418.4369 653.53687 2564.8511 3554362
1430.4454 651.68677 2557.5903 3883327
1460.5465 658.02893 2582.4805 3949120
1464.4879 652.57544 2561.0779 3817534
1491.762 657.52448 2580.5007 3883327
1515.2992 660.73792 2593.1121 4080706
1526.0591 658.37079 2583.8223 3949120
1534.712 655.15393 2571.1975 3685948
1548.9451 654.36127 2568.0867 3554362
1570.5977 656.68713 2577.2146 3555132
1586.7448 656.68713 2577.2146 3226167
1605.5251 657.76605 2581.4487 3357753
1637.0087 663.97577 2605.8193 3686718
1645.2113 660.71338 2593.0159 3291960
1672.0742 664.93542 2609.5854 3160374
1687.5857 664.60522 2608.2898 3094581
1687.9928 658.39001 2583.8977 2831408
1707.5294 659.68335 2588.9734 3094583
1729.3209 661.81531 2597.3403 3226168
1761.3586 667.79218 2620.7971 2897202
1777.7788 667.79218 2620.7971 2962995
1787.4493 665.28003 2610.938 2962995
1801.1361 664.29474 2607.071 2962995
1813.0302 662.67188 2600.7021 3488569
1842.6111 667.48499 2619.5916 3488569
1892.7764 679.60394 2667.1533 3291190
1904.559 677.84998 2660.2698 3225397
1915.1967 675.7226 2651.9207 3225397
1923.1603 672.69647 2640.0442 3093811
1940.6189 673.01483 2641.2937 3291190
1962.4872 674.84412 2648.4729 3225397
1979.0807 674.84412 2648.4729 3159604
1995.0128 674.62048 2647.5952 3028018
2013.6324 675.30176 2650.269 3225653
2035.9037 677.18665 2657.6663 3094067
2053.9148 677.63531 2659.427 2830639
2070.6692 677.66541 2659.5454 2764846
2087.332 677.66541 2659.5454 2699053
2103.6465 677.55328 2659.1052 2830639
2120.3066 677.55328 2659.1052 3159604
2140.6089 678.70801 2663.637 3488569
2167.2627 681.8432 2675.9414 3883071
2184.0283 681.8432 2675.9414 4211779
2211.2415 685.08008 2688.6448 4014400
2228.9243 685.33759 2689.6553 3882814
2247.6487 685.90918 2691.8984 3685435
2244.4268 679.82477 2668.0198 3488056
2275.8525 684.24731 2685.3765 3356213
2265.5552 676.15277 2653.6089 3027762
2295.2781 680.03314 2668.8376 2764333
2325.4443 683.98779 2684.3579 2961712
2347.7703 685.59613 2690.6699 2895919
2357.2354 683.4527 2682.2578 2961712
2362.5669 680.1496 2669.2947 2961712
2380.1277 680.38879 2670.2334 2895919
2406.1445 683.02515 2680.5798 2764333
2422.9392 683.02515 2680.5798 3159091
2425.845 679.13678 2665.3196 3553849
2452.1833 681.81696 2675.8384 3619642
2461.0449 679.63434 2667.2725 3685435
2471.5161 677.92273 2660.5552 3488056
2485.0535 677.0694 2657.2063 3619642
2492.8538 674.67474 2647.8083 3356470
2502.4836 672.80377 2640.4653 3553849
2527.5271 675.07404 2649.3752 3685435
2543.9526 675.02795 2649.1943 3488056
2560.5505 675.02795 2649.1943 3553849
2578.4292 675.36334 2650.5107 3488056
2581.4158 671.81879 2636.5999 3422263
2584.5081 668.34662 2622.9731 3422265
2591.8179 666.00214 2613.772 3488058
2600.1426 663.94617 2605.7031 3422265
2606.1619 661.33093 2595.4395 3619644
2617.4619 660.07977 2590.5293 3488058
2633.6924 660.07977 2590.5293 3422265
2646.2983 659.17694 2586.9861 3027507
nan nan nan 16777215
nan nan nan 16777215
nan nan nan 16777215
nan nan nan 16777215
nan nan nan 16777215
nan nan nan 16777215
nan nan nan 16777215
nan nan nan 16777215
nan nan nan 16777215
-2257.4812 641.0033 2455.6018 3620155
-2242.6582 641.16394 2456.2173 3751741
-2226.9048 641.05908 2455.8154 3817534
-2215.0701 642.08862 2459.7595 4080706
-2197.5872 641.48383 2457.4426 4146499
-2181.8926 641.39636 2457.1074 4278085
-2170.9233 642.70636 2462.126 4212292
-2159.1289 643.78918 2466.2742 4343878
-2149.9421 645.67084 2473.4824 4212292
-2135.687 646.04651 2474.9216 4081219
-2117.7683 645.31134 2472.1052 3884354
-2122.3359 651.46783 2495.6899 3686718
-2100.5903 649.57855 2488.4524 3555388
-2077.4692 647.23254 2479.4651 3357753
-2064.6414 648.08215 2482.72 3357753
-2057.095 650.61505 2492.4233 3686975
-2053.4944 654.44427 2507.0925 4015683
-2048.8604 658.00067 2520.7166 3949890
-2021.9617 654.40637 2506.9473 4213062
-2022.9631 659.85632 2527.8252 4015683
-2004.6674 659.04822 2524.7295 3753280
-1991.3307 659.87048 2527.8796 3818817
-1974.0112 659.37567 2525.9839 3884610
-1957.6663 659.20087 2525.3145 4016196
-1941.4929 659.0816 2524.8574 3818817
-1922.1697 657.88226 2520.2629 3818817
-1906.3796 657.88226 2520.2629 4081989
-1892.9432 658.70142 2523.4009 4016196
-1871.9288 656.87506 2516.4045 4147783
-1860.2217 658.31152 2521.9072 4015942
-1828.6187 652.6712 2500.3 4345160
-1808.9983 651.24738 2494.8455 4608333
-1805.5142 655.65833 2511.7434 4410954
-1801.1406 659.82111 2527.6904 4213575
-1768.9352 653.77155 2504.5151 4213575
-1753.2434 653.77155 2504.5151 4213575
-1737.0492 653.58234 2503.7905 4081989
-1722.9335 654.17896 2506.0759 4148038
-1706.0226 653.71545 2504.3005 4147269
-1681.464 650.28577 2491.1616 4081733
-1665.8561 650.28577 2491.1616 4278855
-1642.8589 647.3739 2480.0068 4213062
-1630.3711 648.58734 2484.6553 4015683
-1622.0087 651.48108 2495.741 3686718
-1598.4335 648.26154 2483.4072 3686974
-1582.9224 648.28131 2483.4829 3818304
-1560.0217 645.24506 2471.8513 3620925
-1535.5865 641.50684 2457.5308 3686718
-1519.7306 641.31323 2456.7891 3620925
-1503.9391 641.14313 2456.1375 3620925
-1489.3169 641.47321 2457.4019 3884097
-1477.4271 642.99933 2463.2483 3884097
-1453.7971 639.39417 2449.4375 3686718
-1445.7875 642.65546 2461.9309 3555388
-1431.6132 643.21729 2464.0833 3752511
-1412.0684 641.35211 2456.938 3555132
-1404.1243 644.77289 2470.0425 3291960
-1394.1389 647.32208 2479.8081 3226167
-1384.6249 650.15002 2490.6418 3357753
-1368.5449 649.92426 2489.7769 3489339
-1349.4723 648.25574 2483.385 3423546
-1335.4385 648.99707 2486.2249 3489339
-1324.3518 651.20496 2494.6831 3489339
-1313.6886 653.67645 2504.1509 3555132
-1291.4275 650.36682 2491.4722 3489082
-1273.0303 648.94586 2486.0288 3422776
-1259.1404 649.81592 2489.3618 3620412
-1243.5437 649.81592 2489.3618 3685948
-1233.109 652.54749 2499.8262 3554362
-1216.2031 651.88086 2497.2725 3751741
-1194.7574 648.73187 2485.209 3949120
-1177.6033 647.86072 2481.8716 3751741
-1158.8147 646.05499 2474.9541 3356983
-1155.9873 653.21954 2502.4006 3291190
-1144.7185 655.74548 2512.0771 4278085
-1122.2163 651.8172 2497.0286 4278085
-1105.8302 651.38043 2495.3552 4080706
-1103.1102 659.09656 2524.9148 4278085
-1076.6749 652.66138 2500.2625 4014913
-1060.0706 652.08344 2498.0483 3817534
-1049.6531 655.35101 2510.5662 3488569
-1032.8123 654.64667 2507.8677 3555646
-1018.6205 655.62543 2511.6174 3423546
-997.00269 651.7804 2496.8875 3357753
-993.08844 659.57062 2526.731 3818304
-981.45416 662.40289 2537.5811 3687487
-966.0835 662.76526 2538.969 3621694
-947.70831 661.04388 2532.3748 3950403
-954.35065 677.01123 2593.5437 4147782
-928.9317 670.39374 2568.1929 3818817
-927.85016 681.41638 2610.4192 4345418
-908.17126 678.93158 2600.9001 4410954
-889.39111 677.0401 2593.6543 4213575
-890.35687 690.3894 2644.7937 4016196
-866.07562 684.29706 2621.4546 4016196
-847.62567 682.66547 2615.2043 3226680
-825.66449 678.08606 2597.6611 3555645
-811.78705 680.09479 2605.3564 3883840
-789.23346 674.76813 2584.9507 3884097
-775.31763 676.75806 2592.5737 3950146
-758.17712 675.95813 2589.5093 3818817
-743.91089 677.74176 2596.3423 4213575
-722.94391 673.36407 2579.5718 4279111
-704.53986 671.22784 2571.3882 4081733
-687.59369 670.41315 2568.2671 3949890
-673.35931 672.26672 2575.3679 3489339
-657.22382 672.26672 2575.3679 3291961
-647.64954 679.14697 2601.7253 4542027
-625.75128 673.12555 2578.658 4805455
-607.03436 670.29785 2567.8254 4870992
-595.14752 675.06342 2586.0818 3686718
-580.7207 677.13397 2594.0139 3620925
-560.35553 672.2002 2575.1133 3686974
-544.13354 672.09143 2574.6965 4014656
-528.05249 672.15533 2574.9412 3817534
-511.91968 672.15533 2574.9412 3620155
-492.06448 667.1087 2555.6084 3159604
-484.48532 678.92548 2600.877 3884354
-459.73886 666.67041 2553.9292 4344905
-442.81058 665.27753 2548.5933 4344905
-426.84286 665.27753 2548.5933 4213575
-413.19461 669.0332 2562.9807 3752767
-397.13675 669.0332 2562.9807 3949890
-382.23367 671.06055 2570.7473 4278855
-360.48697 660.7229 2531.145 3620925
-344.96124 661.36066 2533.5884 3489339
-329.06357 661.31256 2533.4041 3817534
-312.58472 660.03235 2528.4998 3817277
-295.8942 658.14471 2521.2683 3160374
-279.86545 657.59906 2519.178 3489339
-263.58087 656.35107 2514.3972 3884097
-248.36588 657.77722 2519.8606 3555132
-233.11856 659.30554 2525.7153 3686718
-216.88408 658.06134 2520.949 3555132
-200.68562 656.73944 2515.885 3752511
-186.59206 662.6676 2538.595 3620925
-169.7892 659.18213 2525.2424 3555132
-152.81831 654.26093 2506.3901 3226167
-137.95567 658.27228 2521.7571 3226424
-122.45638 659.8905 2527.9563 3291704
-105.22402 651.26306 2494.9058 2896945
-89.500168 650.59076 2492.3301 2962225
-73.875847 650.51062 2492.0232 2962224
-58.568684 653.92865 2505.1172 3028018
-42.593231 649.65613 2488.7498 3093811
-26.912603 647.54266 2480.6533 2963252
-11.370541 647.54266 2480.6533 3028788
4.1527419 644.62744 2469.4854 3489339
19.34473 635.42676 2434.2388 3752767
34.595993 635.42676 2434.2388 4015683
50.248573 640.5426 2453.8369 3555132
65.977959 644.01099 2467.1238 3226167
81.222328 642.32715 2460.6733 3555132
97.624504 648.87604 2485.7612 4673613
112.54418 645.125 2471.3914 3949890
129.66045 653.34967 2502.8992 3686718
145.84599 655.61572 2511.5803 3686718
162.52124 659.42743 2526.1824 3752511
181.1393 669.74597 2565.7112 3818560
197.21426 669.74597 2565.7112 3555132
211.06018 662.74652 2538.8972 3555132
232.5864 679.15466 2601.7549 3752511
247.06979 674.19543 2582.7566 3226167
260.6405 667.50848 2557.1396 3160374
277.69351 669.99768 2566.6755 3291960
292.10925 666.19983 2552.1265 3357753
307.93018 665.83453 2550.7271 3226167
325.2829 668.65399 2561.5281 2765872
344.37817 674.62201 2584.3909 3094838
358.58594 670.90955 2570.1687 2502444
373.49106 668.76471 2561.9524 2831409
389.7301 669.08691 2563.1865 2700080
408.2052 673.07043 2578.4468 2436908
426.88074 677.06854 2593.7632 2765873
441.90631 675.19659 2586.592 2831666
464.55753 684.69635 2622.9841 3685948
477.96567 680.38928 2606.4844 3685948
487.04044 670.40198 2568.2244 3093811
503.9093 671.43878 2572.1963 3093811
519.70166 671.02142 2570.5974 3093811
531.73639 665.92328 2551.0669 2962225
548.69794 667.11279 2555.6238 3225397
560.78259 662.47345 2537.8513 3093811
578.86243 664.97711 2547.4424 2962225
593.07483 663.02283 2539.9558 2830639
608.98846 663.02283 2539.9558 3291190
624.10608 662.17828 2536.7205 3093811
643.5885 665.89178 2550.9463 3291190
658.28162 664.59003 2545.9595 3225397
671.87854 662.26941 2537.0696 2896432
675.66095 650.60547 2492.3865 3225397
690.81281 650.16901 2490.7146 3620155
715.75409 658.76178 2523.6323 3422776
731.34613 658.56433 2522.876 3159604
747.19647 658.60291 2523.0237 3356727
774.79767 668.78284 2562.0217 3094837
781.38306 660.77747 2531.3542 3160374
791.7453 656.22107 2513.8992 3949890
809.46698 657.82312 2520.0364 4278855
825.25586 657.82312 2520.0364 4213062
843.99915 660.13397 2528.8889 4015683
860.25732 660.45172 2530.1062 4015683
876.73889 660.92645 2531.9248 4015939
893.76782 661.78955 2535.2312 3949889
911.63544 663.2326 2540.7595 3949889
929.66852 664.74457 2546.5515 4015682
944.68054 664.08167 2544.012 4015682
962.11041 665.11237 2547.9604 3818304
976.52667 664.06 2543.929 3818561
991.19397 663.20947 2540.6707 3818047
1009.4415 664.74341 2546.5471 3949120
1043.8132 676.68268 2592.2849 3950146
1049.671 670.05426 2566.8923 4081476
1061.1785 667.17798 2555.8735 4015685
1085.1381 672.09955 2574.7275 4278856
1100.1697 671.42834 2572.1562 4015684
1106.3756 665.46802 2549.323 3950148
1118.5857 663.23737 2540.7776 3949892
1133.5774 662.69531 2538.7012 3949893
1142.2917 658.54938 2522.8186 3884099
1157.2004 658.039 2520.8633 3949890
1169.2656 655.94714 2512.8499 4147269
1177.1923 651.62006 2496.2732 3752511
1195.9012 653.29663 2502.696 3423546
1216.7576 656.08771 2513.3882 3423546
1242.3643 661.33612 2533.4941 3357753
1261.4785 663.03967 2540.0203 3356726
1282.1698 665.51935 2549.5195 3685948
1298.1433 665.51935 2549.5195 4014913
1301.1504 658.95258 2524.3633 3751741
1314.368 657.65253 2519.3828 3751741
1316.2799 650.79352 2493.1069 3685948
1332.8584 651.26178 2494.9009 3488569
1361.8263 657.70282 2519.5754 3620155
1377.6122 657.70282 2519.5754 3751741
1372.4785 647.82849 2481.7483 4080706
1388.0724 647.84943 2481.8286 3949120
1410.5505 651.04742 2494.0796 3883327
1426.1766 651.04742 2494.0796 3685948
1440.7946 650.59216 2492.3354 3685948
1474.1204 658.5036 2522.6433 3488569
1478.1802 653.3125 2502.7568 3356983
1494.3429 653.52338 2503.5647 3620155
1507.3818 652.37787 2499.1765 3685948
1521.8911 651.88586 2497.2915 3489083
1549.1312 656.80139 2516.1223 3423802
1554.9404 652.62317 2500.116 3358010
1592.5768 661.75317 2535.0918 3752511
1599.3687 658.01282 2520.7632 3489595
1618.7767 659.48553 2526.4048 3423546
1630.4155 657.79498 2519.9287 3357753
1639.7975 655.23523 2510.1226 3884097
1651.7239 653.73114 2504.3606 3357755
1660.7697 651.12598 2494.3804 2765874
1688.8992 655.98157 2512.9817 2831666
1723.6202 663.28418 2540.957 3029044
1739.5403 663.28418 2540.957 3160374
1759.7977 664.92316 2547.2356 3357753
1775.7571 664.92316 2547.2356 3358010
1796.8383 666.82397 2554.5173 3358010
1813.0535 666.90137 2554.814 3423802
1822.1913 664.39685 2545.2195 3423803
1837.0748 664.01263 2543.7476 3356726
1856.5236 665.27087 2548.5679 3225397
1872.0547 665.11584 2547.9739 3225397
1894.4601 667.38501 2556.6667 3225397
1907.3092 666.27795 2552.4258 3225397
1929.4718 668.41571 2560.6152 3093811
1947.371 669.05341 2563.0581 3225397
1966.8324 670.21301 2567.5005 3291190
1996.1963 674.70081 2584.6926 2962225
2011.4528 674.38647 2583.4885 3225397
2016.1171 670.55426 2568.8079 3422776
2049.2615 676.18024 2590.3601 3356983
2069.4011 677.46033 2595.2639 3291190
2091.51 679.36005 2602.5415 3554362
2107.8157 679.36005 2602.5415 3554362
2133.4839 682.35449 2614.0129 3949120
2133.1172 677.03992 2593.6536 3883584
2162.27 681.10425 2609.2234 4014401
2190.3193 684.76251 2623.2378 3553849
2195.7761 681.35583 2610.1873 3422263
2195.1436 676.12396 2590.1445 3224884
2215.4543 677.37219 2594.9265 3159091
2230.4053 676.97552 2593.4067 3093298
2239.8745 674.93274 2585.5811 2961712
2254.4924 674.45953 2583.7686 2961712
2267.4744 673.50726 2580.1204 2961712
2286.8538 674.4552 2583.7517 2895919
2305.1665 675.07745 2586.1355 2961712
2325.1104 676.16534 2590.3032 2830126
2348.3442 678.18835 2598.053 2830126
2364.6221 678.18835 2598.053 3159091
2367.5349 674.38153 2583.4695 3488056
2377.2041 672.53778 2576.4062 3685435
2399.1228 674.16095 2582.6245 3685692
2407.6641 672.02863 2574.4558 3685692
2403.407 666.3761 2552.8018 3685949
2424.875 667.88379 2558.5776 3751741
2463.8672 674.16663 2582.6462 3949120
2469.8098 671.38342 2571.9841 3949376
2480.7344 669.98187 2566.615 3948351
2483.0576 666.29028 2552.4729 3619642
2506.3679 668.24146 2559.9475 3356470
2510.2437 665.01917 2547.6035 3290680
2517.1787 662.64294 2538.5005 3290679
2524.1287 660.30048 2529.5269 3290679
2528.4165 657.29523 2518.0142 3356472
2552.0222 659.31793 2525.7629 3356472
2565.5825 658.73657 2523.5356 3290679
2578.5354 658.00726 2520.7419 3093300
nan nan nan 16777215
nan nan nan 16777215
nan nan nan 16777215
nan nan nan 16777215
nan nan nan 16777215
nan nan nan 16777215
nan nan nan 16777215
nan nan nan 16777215
nan nan nan 16777215
-2184.9753 635.22772 2376.7327 3554362
-2187.5068 640.32751 2395.814 3751741
-2177.6909 641.85858 2401.5425 3883327
-2165.3535 642.66266 2404.5508 4014913
-2156.9844 644.66394 2412.0388 4212292
-2147.9734 646.50037 2418.9097 4475464
-2120.8896 642.88458 2405.3811 4278085
-2109.23 643.92584 2409.2771 4212292
-2106.9897 647.87848 2424.0662 4278085
-2091.8794 647.9024 2424.1555 4344391
-2069.853 645.76892 2416.1731 3884353
-2087.4087 656.04413 2454.6182 3489339
-2065.7837 654.06653 2447.219 3357753
-2044 652.00867 2439.5195 3357753
-2040.877 655.91718 2454.1433 3489339
-2029.1234 657.09027 2458.5325 3489339
-2017.9828 658.4812 2463.7368 3357753
-2001.4036 658.10535 2462.3303 3226167
-1983.9764 657.44263 2459.8508 3226167
-1962.7417 655.49799 2452.5747 3489596
-1950.863 656.67181 2456.9668 3818817
-1942.1241 658.92969 2465.4148 3950403
-1924.4668 658.17358 2462.5857 4016196
-1910.1362 658.55225 2464.0024 4016196
-1894.2407 658.39313 2463.4072 3621438
-1870.0349 655.31921 2451.906 3753024
-1857.1667 656.20038 2455.2029 4081989
-1844.2999 657.09674 2458.5566 4082246
-1821.7249 654.52008 2448.916 4147783
-1808.5465 655.3045 2451.8511 4015685
-1790.8447 654.44934 2448.6511 4608333
-1777.2506 655.09344 2451.061 4871505
-1756.0256 652.9115 2442.8975 4674126
-1752.6263 657.37732 2459.6064 4345161
-1738.4049 657.82715 2461.2896 3884610
-1705.8342 651.27936 2436.7908 3884867
-1688.3734 650.43433 2433.6289 3950660
-1673.2754 650.49249 2433.8464 3950403
-1656.4211 649.86261 2431.4897 4015683
-1638.3846 648.75287 2427.3376 4213319
-1620.1754 647.55334 2422.8496 4213062
-1593.277 642.82538 2405.1597 4147269
-1594.2999 649.37982 2429.6836 4015683
-1581.9271 650.55182 2434.0686 3818304
-1555.8766 646.06708 2417.2888 3621182
-1528.7612 641.04767 2398.5083 3555132
-1504.4456 637.1142 2383.791 3489339
-1481.7109 633.77808 2371.3088 3620925
-1470.7029 635.4411 2377.5312 3423546
-1470.3676 641.79663 2401.3105 3555132
-1444.4596 637.0061 2383.3865 3818304
-1434.8457 639.3761 2392.2542 3884097
-1419.8856 639.38873 2392.3015 3555132
-1403.7076 638.84741 2390.2761 3686718
-1392.3921 640.53125 2396.5762 3818304
-1386.1577 644.61469 2411.8545 3160374
-1365.4803 641.99768 2402.0627 3291960
-1365.0555 648.95032 2428.0764 3489339
-1351.6945 649.84045 2431.407 3752511
-1337.0374 650.12073 2432.4556 3686718
-1311.1188 644.86859 2412.8044 3620925
-1302.6637 648.18341 2425.207 3620925
-1285.9752 647.43134 2422.3931 3686718
-1275.0986 649.62238 2430.5908 3423546
-1258.5347 648.93365 2428.0142 3159604
-1237.9989 646.15509 2417.6179 3356983
-1222.8517 646.15509 2417.6179 3422776
-1208.1091 646.37152 2418.4277 3422776
-1195.6204 647.8147 2423.8274 3620155
-1185.5513 650.62274 2434.334 3883327
-1169.2451 650.03662 2432.1409 4080706
-1162.0808 654.58453 2449.157 2962225
-1146.7361 654.58453 2449.157 2896432
-1121.0265 648.58777 2426.72 3291190
-1117.4991 655.4364 2452.3445 3554362
-1091.8132 649.29846 2429.3789 3488569
-1076.5924 649.29846 2429.3789 3620155
-1063.1299 650.37408 2433.4036 3685948
-1051.7856 652.79572 2442.4641 3356983
-1029.8134 648.59521 2426.7478 3356983
-1010.7271 646.11365 2417.4629 3488312
-1003.5695 651.29816 2436.8608 3686718
-985.10608 649.19208 2428.981 3291960
-970.87415 649.85229 2431.4512 3357496
-966.22064 657.04712 2458.3708 4147269
-950.5282 656.84668 2457.6211 3950403
-936.36829 657.71619 2460.8743 3687231
-923.4657 659.51263 2467.5959 4081989
-917.36505 666.31085 2493.0317 3621438
-901.74542 666.31085 2493.0317 3358266
-893.25073 671.66833 2513.0769 3950403
-876.22504 670.68829 2509.4099 4016196
-870.30103 678.32507 2537.9834 3489852
-850.91107 675.55536 2527.6204 3884610
-846.15869 684.52197 2561.1694 4278598
-840.14355 692.79407 2592.1196 3620925
-809.05756 680.31085 2545.4133 3489082
-801.28406 687.32257 2571.6479 3686461
-772.91016 676.58893 2531.4875 4081476
-756.7049 676.28082 2530.3347 3555132
-739.95978 675.4668 2527.2891 3884097
-724.46338 675.78192 2528.4683 4673613
-710.1416 677.23132 2533.8911 4542284
-692.32172 675.33478 2526.7952 4476747
-673.8562 672.70496 2516.9556 3620927
-657.02881 671.6236 2512.9094 4015942
-640.58203 670.88776 2510.1562 4608334
-616.01434 661.39563 2474.6411 4476494
-600.5249 661.41205 2474.7026 4608079
-585.02008 661.41205 2474.7026 5002837
-573.74646 666.32599 2493.0881 4015942
-564.14978 673.51691 2519.9934 3752770
-543.06311 667.00952 2495.6458 4147272
-527.37079 666.93829 2495.3794 4081476
-511.73648 666.93829 2495.3794 3950146
-498.53918 670.2146 2507.6377 3555132
-478.66202 664.4317 2486.0007 3752511
-463.41803 664.90747 2487.7808 4015683
-447.8313 664.90747 2487.7808 4279111
-434.68555 668.66229 2501.8296 3292216
-417.46078 666.18878 2492.575 4015683
-401.34497 665.36139 2489.4792 3555132
-385.44275 664.83557 2487.5117 3883584
-370.00436 665.09912 2488.498 4146499
-353.34598 663.0965 2481.0049 3817534
-336.36743 660.28101 2470.4707 3685691
-320.35843 659.18884 2466.3845 3883071
-301.95908 652.81836 2442.5488 3751485
-287.31421 654.31793 2448.1597 3489596
-272.07812 654.56421 2449.0811 3489339
-256.21765 653.24811 2444.1567 3555132
-241.10249 653.78564 2446.168 3555132
-228.21986 660.86102 2472.6409 3621181
-212.72801 660.86102 2472.6409 3950147
-195.85481 656.23267 2455.3237 4147526
-178.34929 648.51605 2426.4517 3950146
-163.60728 650.34644 2433.3 3687231
-148.64561 651.59009 2437.9534 4015683
-133.48633 652.15314 2440.0601 4081476
-117.8576 650.27173 2433.0205 3818304
-102.82626 651.617 2438.054 3226167
-87.422951 650.66321 2434.4854 2831666
-72.145203 650.43835 2433.644 2897459
-56.51141 646.02277 2417.1228 3160117
-40.933556 639.24774 2391.7739 3225910
-25.792294 635.40326 2377.3894 3291703
-10.981312 640.30707 2395.7373 3423033
4.0655751 646.16376 2417.6504 3423034
18.933578 636.76953 2382.5015 3884097
33.834309 636.27344 2380.6453 4213062
48.749786 636.27344 2380.6453 3620925
65.119598 650.80811 2435.0273 3357753
80.613617 652.73364 2442.2319 3752511
95.174133 647.69214 2423.3689 3620925
110.79113 650.23834 2432.8958 2962995
125.03368 645.07751 2413.5862 2962483
140.65744 647.38757 2422.2292 3291703
156.36072 649.57794 2430.4248 3094324
173.15945 655.52673 2452.6824 3160374
188.64906 655.95367 2454.2798 3357753
203.65179 654.75092 2449.7798 3423546
220.43774 659.04816 2465.8579 3226167
236.9453 662.00464 2476.9197 2962995
252.8007 662.88763 2480.2236 3291960
268.34009 662.88763 2480.2236 3291960
283.04968 660.95001 2472.9739 3094581
298.08112 659.92603 2469.1426 3291959
322.80011 679.3924 2541.9768 2764846
332.60687 667.11829 2496.0527 2699053
347.06506 664.85724 2487.5928 2699053
362.6506 664.85724 2487.5928 2830639
378.52545 665.36572 2489.4954 2765103
394.27084 665.61548 2490.4299 2830639
409.87418 665.61548 2490.4299 2962225
425.53043 665.6983 2490.7397 2896689
439.63007 663.42627 2482.2388 2633260
455.05191 663.23657 2481.5291 2699053
471.06482 663.8924 2483.9829 2567467
485.71735 662.65033 2479.3357 2435881
500.37656 661.49414 2475.0098 2764846
518.73798 665.1546 2488.7056 2699053
534.33044 665.1546 2488.7056 2764846
546.28595 660.75543 2472.2458 2962225
561.21594 660.09747 2469.7842 2962225
570.80273 653.35889 2444.5713 2830639
588.7937 656.3407 2455.7278 2896432
606.42743 658.78265 2464.8645 2896689
621.82922 658.73883 2464.7007 2830639
636.16504 657.59521 2460.4219 2896432
650.80768 656.81543 2457.5042 2962482
667.80939 658.39752 2463.4236 3554362
681.36346 656.58582 2456.645 3554362
698.30975 658.05084 2462.1265 3554362
714.47595 658.73328 2464.6799 3554362
729.70166 658.53815 2463.9497 3554362
747.37585 660.51501 2471.3462 3291961
772.59082 668.94067 2502.8711 3555132
781.46704 663.16577 2481.2642 3818304
789.23688 656.69562 2457.0559 3884354
803.2002 655.52777 2452.6863 3949890
818.76538 655.68665 2453.2808 3884097
834.13599 655.68665 2453.2808 3752767
852.38342 657.90717 2461.5889 3884097
868.10364 658.13281 2462.4331 3752511
881.75299 656.80792 2457.4761 3226167
902.18652 660.49536 2471.2727 2831409
932.00031 670.80975 2509.8645 3950147
941.90381 666.68915 2494.447 4410441
948.48041 660.38672 2470.8662 3818304
960.62994 658.10461 2462.3276 3621181
983.49097 663.11682 2481.0811 3751997
1002.8215 665.62964 2490.4829 3621182
1018.4252 665.62964 2490.4829 4015683
1033.8954 665.54376 2490.1616 3555132
1041.0308 660.1748 2470.0735 3226167
1057.545 660.82385 2472.5017 3620925
1073.0361 660.82385 2472.5017 3752767
1082.7987 657.34619 2459.49 3818561
1098.2081 657.34619 2459.49 3818304
1105.1654 652.35699 2440.8228 3686718
1106.8394 644.42798 2411.156 3489339
1143.5936 656.86206 2457.6785 4147269
1141.4843 646.93964 2420.5535 3686718
1167.9333 653.25073 2444.1667 3555132
1187.4266 655.55841 2452.8008 3752511
1204.3779 656.42157 2456.0305 3620925
1227.5924 660.63354 2471.7898 3619898
1241.1096 659.58698 2467.8738 3685948
1254.5411 658.52112 2463.886 3554362
1258.588 652.61499 2441.7881 3620155
1269.4181 650.32581 2433.2229 3751741
1298.2264 657.19183 2458.9126 3685948
1319.079 659.91681 2469.1082 3356983
1304.3466 644.9823 2413.2297 3028018
1321.2876 645.87262 2416.561 3028018
1340.2107 647.70068 2423.4009 3291190
1353.1007 646.60474 2419.3003 3356983
1363.3416 644.28119 2410.6067 3291190
1382.1641 646.01953 2417.1108 3291190
1398.4891 646.56561 2419.1541 3488569
1417.9211 648.521 2426.4702 3225397
1436.6936 650.13647 2432.5144 2896432
1450.3689 649.43561 2429.8923 3028018
1458.0414 646.08948 2417.3723 3159604
1486.674 652.00433 2439.5032 3357239
1501.9583 652.00433 2439.5032 3423032
1511.7588 649.64789 2430.6863 3291704
1532.4866 651.98724 2439.4392 3554619
1552.882 654.1405 2447.4956 3686205
1568.2083 654.13708 2447.4829 3752254
1582.1871 653.57721 2445.3882 3818304
1603.4034 655.98907 2454.4124 3357753
1616.8088 655.18982 2451.4219 3225396
1640.0183 658.34131 2463.2131 2830382
1645.7589 654.48688 2448.7917 3028018
1670.0599 658.0166 2461.9983 3225397
1687.9807 658.99084 2465.6436 3290933
1705.4698 659.78052 2468.5981 3159348
1721.2471 659.89966 2469.0439 3159604
1740.4801 661.32971 2474.3945 3290933
1762.5386 663.79871 2483.6323 3356982
1774.8964 662.60297 2479.1584 3356983
1790.1906 662.51471 2478.8281 3356983
1805.7211 662.51471 2478.8281 3422776
1823.3556 663.27997 2481.6914 3291190
1841.9916 664.39362 2485.8582 3093811
1856.4042 663.97797 2484.303 3028018
1871.8511 663.9361 2484.1462 3225397
1897.1265 667.35229 2496.9282 3291190
1917.1104 668.86646 2502.5935 3159604
1922.3369 665.24908 2489.0588 3291190
1941.8002 666.57703 2494.0276 3159604
1960.0637 667.47528 2497.3884 3356983
1969.3398 665.323 2489.3354 3422776
2000.0076 670.37469 2508.2366 3225397
2020.8202 672.07001 2514.5798 3291190
2039.2991 672.96906 2517.9436 3356982
2055.7852 673.2016 2518.8137 3553849
2063.8408 670.69116 2509.4207 3619642
2080.3147 670.93347 2510.3274 3685435
2114.3279 676.7865 2532.2268 3619642
2130.1934 676.7865 2532.2268 3224884
2133.52 672.83234 2517.4321 3290420
2153.772 674.23468 2522.679 3290677
2174.2131 675.67535 2528.0693 3093298
2203.7346 679.89661 2543.8633 2632747
2200.3801 673.98724 2521.7532 2567210
2206.053 670.90753 2510.2302 2896175
2217.7815 669.69995 2505.7122 2895919
2232.8105 669.49902 2504.9602 2961712
2248.1123 669.38208 2504.5229 2961712
2285.0703 675.67029 2528.0505 3685435
2288.7759 672.10736 2514.7195 3948607
2299.6111 670.67242 2509.3506 3619642
2310.8999 669.38824 2504.5459 3488056
2350.0747 676.14465 2529.8252 3553849
2365.925 676.14465 2529.8252 3882814
2359.0601 669.69623 2505.6982 4080193
2367.8845 667.75757 2498.4446 4014400
2383.5378 667.75757 2498.4446 3422263
2387.5049 664.50488 2486.2744 3422263
2409.2737 666.21698 2492.6804 3422263
2418.6777 664.50989 2486.2932 3488056
2429.4673 663.20288 2481.4031 3159090
2440.3894 661.94843 2476.7095 2961715
2445.1763 659.05621 2465.8882 3027507
2452.6746 656.92657 2457.9199 3159093
2468.0742 656.92657 2457.9199 3224886
2477.928 655.45959 2452.4312 3159093
2487.116 653.83569 2446.3552 3290679
2508.9473 655.5351 2452.7136 3093300
nan nan nan 16777215
nan nan nan 16777215
nan nan nan 16777215
nan nan nan 16777215
nan nan nan 16777215
nan nan nan 16777215
nan nan nan 16777215
nan nan nan 16777215
nan nan nan 16777215
-2154.0952 640.85291 2343.1423 3488569
-2151.8721 644.58441 2356.7859 3620155
-2142.1655 646.11041 2362.3655 3883327
-2123.8872 645.05438 2358.5042 3883327
-2109.1106 645.05438 2358.5042 3949120
-2090.3484 643.82678 2354.0159 3883327
-2086.5579 647.22589 2366.4438 4014913
-2073.3386 647.72809 2368.28 3883327
-2050.7039 645.27478 2359.3101 3883070
-2037.418 645.7489 2361.0435 3818048
-2029.0459 647.79871 2368.5383 3620925
-2029.3746 652.67706 2386.375 3686718
-2014.4233 652.67706 2386.375 3949890
-1984.25 647.70825 2368.2075 4081476
-1983.9852 652.5011 2385.7314 3818304
-1981.4572 656.61658 2400.7788 3489339
-1966.4155 656.61658 2400.7788 3489339
-1953.3103 657.26813 2403.1611 3686718
-1938.2538 657.26813 2403.1611 3686718
-1913.3303 653.89606 2390.832 3949890
-1905.2761 656.28143 2399.5535 3818817
-1891.6676 656.77637 2401.363 3753024
-1874.2634 655.95074 2398.3445 3687231
-1859.1039 655.90381 2398.1729 3818817
-1843.1344 655.56793 2396.9448 4081989
-1824.0732 654.11786 2391.6431 4147782
-1808.7993 654.01324 2391.2605 4147782
-1792.5195 653.54004 2389.5303 4016196
-1774.7775 652.5213 2385.8054 3950149
-1757.4608 651.64294 2382.594 4015941
-1746.3344 653.06451 2387.7915 4345161
-1730.9258 652.89539 2387.1733 4081989
-1732.5121 659.18958 2410.1865 3489596
-1693.3671 649.96063 2376.4429 3686974
-1669.2239 646.3772 2363.3408 3818817
-1652.0193 645.44049 2359.916 3752511
-1637.2338 645.44049 2359.916 3686975
-1624.4742 646.24652 2362.863 3950147
-1597.7261 641.45123 2345.3301 3752511
-1583.0319 641.45123 2345.3301 3620925
-1568.0549 641.33563 2344.9075 3949890
-1545.652 638.15186 2333.2666 3818561
-1522.5508 634.61621 2320.3394 3489339
-1505.9336 633.74109 2317.1394 3423033
-1489.3304 632.85486 2313.8994 3489083
-1474.8694 632.87042 2313.9561 3291447
-1464.8032 634.79083 2320.9778 3356983
-1443.9913 632.04626 2310.9429 3422519
-1426.1515 630.5603 2305.5095 3620924
-1419.5608 634.06836 2318.3362 3818560
-1404.6562 633.89716 2317.7102 3818304
-1390.6882 634.14935 2318.6323 3686974
-1385.2358 638.33099 2333.9216 3555132
-1365.3768 635.89233 2325.0051 3686718
-1352.4878 636.68219 2327.8931 3950147
-1341.5167 638.40198 2334.1812 3818560
-1331.1378 640.44458 2341.6494 3884354
-1312.0234 638.28302 2333.7463 3686974
-1309.3052 644.13916 2355.158 3160374
-1294.5494 644.13916 2355.158 2765616
-1292.6105 650.59009 2378.7444 3028788
-1290.8739 657.29456 2403.2578 3357496
-1249.6984 643.83844 2354.0583 3291446
-1235.3585 644.0517 2354.8381 3356983
-1219.4835 643.46008 2352.675 3159861
-1199.937 640.89301 2343.2891 3159604
-1189.3573 643.1109 2351.3984 3291190
-1173.1807 642.32019 2348.5071 3554362
-1162.8843 644.76953 2357.4629 3554362
-1148.6505 645.07086 2358.5645 3620155
-1138.2178 647.54242 2367.6013 3554362
-1120.7943 646.04962 2362.1431 3225397
-1101.653 643.51343 2352.8701 3422776
-1087.1133 643.63293 2353.3069 3488569
-1074.0685 644.65295 2357.0364 3554362
-1058.4705 644.14752 2355.1885 3356983
-1045.724 645.38776 2359.7231 3356983
-1036.96 649.15662 2373.5032 3356983
-1021.4595 648.75665 2372.0408 3751741
-999.51196 644.1897 2355.3428 3884097
-987.04333 645.68665 2360.8159 3489339
-973.2854 646.37286 2363.325 3555132
-969.3363 653.69507 2390.0972 3620925
-940.44666 644.164 2355.2488 3818561
-931.34082 648.09607 2369.6255 4081476
-926.71887 655.32629 2396.0613 3753280
-917.71631 659.64581 2411.8547 3884610
-905.86359 662.0271 2420.5613 4082246
-891.41736 662.56177 2422.5164 3950403
-890.76801 673.5473 2462.6826 3818817
-879.1015 676.44287 2473.2695 3884610
-861.40625 674.72003 2466.9705 3818817
-843.86328 673.05573 2460.8853 3753024
-837.38629 680.31995 2487.4453 4608333
-831.24847 688.14032 2516.0388 4279368
-810.21124 683.69037 2499.7686 3950403
-788.37549 678.37787 2480.3445 3950403
-771.22687 676.96594 2475.1821 4213575
-757.7243 678.76221 2481.7498 4410954
-743.13171 679.6369 2484.9478 4608333
-720.03583 672.60571 2459.24 4871762
-704.91162 672.87653 2460.23 4871764
-692.11884 675.43463 2469.5833 4871764
-675.71912 674.50934 2466.2 4740434
-662.38403 676.67133 2474.105 5068628
-642.28613 671.86285 2456.5237 5134678
-621.737 666.33459 2436.3108 4410955
-608.02045 668.03503 2442.5281 4279369
-593.94598 669.41992 2447.5918 4937299
-578.2171 668.96411 2445.925 5068628
-550.84747 654.64923 2393.5857 4147782
-535.85095 654.64923 2393.5857 3950404
-525.41803 660.38519 2414.5581 4212806
-506.19482 655.08527 2395.1802 4147525
-497.58466 663.61603 2426.3711 3950146
-481.798 662.81165 2423.4299 3620925
-469.85391 667.41321 2440.2546 3818047
-456.94492 670.90759 2453.031 3817534
-439.33694 667.50586 2440.5933 3751998
-424.04593 667.50586 2440.5933 3883327
-408.14221 666.50537 2436.9353 4014913
-392.72498 666.25256 2436.0107 3883327
-376.22836 664.07404 2428.0454 3686205
-361.01593 664.07404 2428.0454 4014913
-345.3905 663.28094 2425.1458 3883070
-329.01062 660.89941 2416.4382 3751741
-312.17651 657.33167 2403.3936 3422776
-295.45087 653.64221 2389.9038 3356983
-281.33917 655.65063 2397.2471 3094581
-264.15195 650.31384 2377.7344 3357753
-253.75377 662.05212 2420.6528 3094581
-237.0352 657.74432 2404.9023 3226167
-220.86633 654.48053 2392.969 3884097
-205.16791 652.23706 2384.7661 3949890
-190.47942 653.10382 2387.9353 3950147
-175.23131 652.03607 2384.0312 3884097
-159.83179 650.15344 2377.1479 3555132
-145.61281 653.17944 2388.2119 3818304
-130.10023 650.43134 2378.1638 4147269
-114.38443 645.82483 2361.3213 4015683
-100.30885 650.48633 2378.365 3357753
-85.833397 653.72888 2390.2207 3291960
-70.819199 653.37164 2388.9146 3555132
-55.040993 643.88531 2354.2297 3620925
-40.291012 643.88531 2354.2297 3818047
-25.504253 642.95807 2350.8396 3423033
-10.667875 636.5354 2327.3564 3225397
3.9283035 638.90491 2336.02 3356983
18.706718 643.81006 2353.9546 3554106
33.581543 646.24567 2362.8601 3291190
47.993198 641.00482 2343.698 3488313
62.595367 640.16797 2340.6382 3619642
77.461868 641.83905 2346.748 3224884
92.243179 642.38373 2348.7395 2961969
106.28979 638.36591 2334.0493 2764846
121.44971 641.19775 2344.4033 2830383
137.15599 645.99182 2361.9319 2764589
152.15611 646.8501 2365.0698 2633773
166.4333 644.75543 2357.4111 2962482
181.20322 644.75543 2357.4111 3160118
197.27936 649.05292 2373.124 3028531
213.37128 652.79633 2386.811 3094324
228.32538 652.79633 2386.811 3291703
243.02847 652.12274 2384.3481 3225654
258.86227 654.38556 2392.6218 3225910
273.05023 652.46771 2385.6096 3094325
287.9968 652.46771 2385.6096 3029044
303.98227 654.70532 2393.7908 3160374
319.1235 654.99957 2394.8667 2896432
334.85925 656.43292 2400.1074 3028018
351.84119 660.08099 2413.4458 3159604
366.2991 658.88824 2409.085 3159604
382.16394 660.22052 2413.9561 3159604
396.86221 659.51276 2411.3682 3225140
411.82846 659.28589 2410.5388 3159604
426.58484 658.75104 2408.583 3159604
441.67538 658.75104 2408.583 2962225
455.63385 657.11835 2402.6135 2699053
472.99487 660.34039 2414.3943 2567467
484.18341 655.01245 2394.9138 2962225
499.64151 655.60712 2397.0881 2962225
518.81158 660.89563 2416.4246 2764846
528.22797 653.81171 2390.5234 2764846
542.91553 653.46295 2389.2483 2567467
550.28546 644.56152 2356.7021 2962225
577.64709 658.93011 2409.238 3488569
592.74176 658.93011 2409.238 2830639
605.72235 656.63843 2400.8589 2896432
616.79352 652.43799 2385.5007 2764846
633.70184 654.46472 2392.9111 2764846
653.12726 658.93726 2409.2639 3093811
661.2345 652.04681 2384.0706 3225397
675.4082 651.31079 2381.3794 3225397
689.19128 650.23798 2377.457 3291190
703.51172 649.70691 2375.5154 3225397
718.77173 650.04761 2376.761 3160631
734.98041 651.21497 2381.0291 3685948
751.32709 652.45569 2385.5657 3554362
766.4668 652.62048 2386.168 3422776
784.92224 655.54803 2396.8721 3357239
798.50269 654.37061 2392.5671 3423032
813.49286 654.37061 2392.5671 3357240
826.32843 652.66888 2386.345 3489339
841.69458 652.99078 2387.522 3620925
858.77399 654.60742 2393.4329 3489339
873.76965 654.60742 2393.4329 3489339
886.14899 652.68048 2386.3875 3357753
912.35553 660.8327 2416.1943 3489339
925.12006 659.14148 2410.0107 3686718
937.34015 657.12286 2402.6301 4476491
959.28564 661.87842 2420.0176 4212292
974.44781 661.87842 2420.0176 3489339
986.50403 659.80096 2412.4221 3752511
1001.3096 659.59747 2411.678 3620925
1017.04 660.00018 2413.1504 3094581
1029.0634 658.02057 2405.9124 3028788
1039.248 654.93939 2394.6467 3489339
1053.7085 654.60229 2393.4141 3884097
1068.704 654.60229 2393.4141 4015683
1063.9656 642.68213 2349.8306 3489339
1079.738 643.30774 2352.1179 3752511
1117.3401 656.7475 2401.2576 3818561
1120.7908 650.02332 2376.6721 3884097
1148.1033 657.13324 2402.668 4081476
1149.0732 649.17664 2373.5764 3949890
1177.4696 656.72009 2401.1575 3884097
1192.5135 656.72009 2401.1575 3883070
1198.7247 651.9165 2383.594 3751741
1209.6537 649.76514 2375.7283 3685948
1223.712 649.32678 2374.1252 3488569
1234.0433 646.94489 2365.4165 3685948
1248.052 646.5246 2363.8796 3554362
1271.238 650.81244 2379.5574 3028018
1269.6427 642.46112 2349.0225 3291190
1284.411 642.48663 2349.1157 3225397
1300.4753 643.15247 2351.5503 3159604
1315.2085 643.15247 2351.5503 3159604
1330.4679 643.40692 2352.4807 3488569
1342.889 642.29828 2348.4272 3356983
1370.1072 648.21436 2370.0581 3488569
1393.9923 652.4436 2385.5212 3488569
1410.1777 653.01746 2387.6196 3291190
1420.2604 650.78302 2379.4497 3225397
1419.4933 643.67505 2353.4609 3159604
1432.8252 643.04083 2351.1421 3291190
1450.3588 644.28595 2355.6946 3356983
1466.0464 644.69421 2357.1875 3291190
1487.1442 647.44977 2367.2625 3028018
1500.9565 647.01038 2365.656 3159604
1504.5282 642.20837 2348.0984 3356983
1530.3126 646.88904 2365.2122 3554362
1533.6672 642.08942 2347.6636 3356727
1557.2383 645.76453 2361.1006 3093811
1578.7589 648.52802 2371.2048 3093811
1611.2814 655.71729 2397.491 3422776
1617.1903 652.0434 2384.0581 3225397
1631.6528 651.85388 2383.3652 3225397
1653.6082 654.63416 2393.5305 3159604
1665.1091 653.26288 2388.5168 3225397
1679.7241 653.12689 2388.0195 3356983
1703.6942 656.59863 2400.7134 3159604
1716.2871 655.66327 2397.2935 3225397
1735.0178 657.06873 2402.4321 3422776
1749.8597 656.98981 2402.1436 3291190
1766.6023 657.61975 2404.447 3291190
1781.6669 657.61975 2404.447 3291190
1798.174 658.14777 2406.3774 3225397
1811.1678 657.39178 2403.6133 3225397
1839.6002 662.20563 2421.2141 3225141
1852.4231 661.36786 2418.1509 3159603
1872.563 663.1347 2424.6111 3159861
1891.0557 664.29456 2428.8518 3290933
1913.7479 666.89935 2438.3757 3159604
1926.3132 665.96179 2434.9478 3159604
1937.9771 664.72974 2430.4431 3159605
1949.4706 663.45905 2425.7969 3093811
1964.6689 663.45905 2425.7969 3093810
1987.0016 665.84973 2434.5381 3290677
2003.0122 666.10162 2435.459 3224884
2016.6616 665.57043 2433.5168 3356470
2032.6733 665.82104 2434.4331 3685435
2029.0659 659.68927 2412.0137 3224884
2065.5234 666.57782 2437.2002 3158577
2081.4072 666.77454 2437.9194 3290677
2104.9102 669.39142 2447.4873 3422263
2132.0315 673.11267 2461.0935 3356470
2152.5842 674.72168 2466.9766 3159348
2158.2222 671.66602 2455.8042 3159091
2156.7808 666.46606 2436.7915 3159091
2166.7737 664.84778 2430.8745 3093298
2194.8945 668.77551 2445.2354 3093298
2252.9788 681.71515 2492.5466 3422263
2237.0791 672.24451 2457.9192 3619642
2236.6714 667.52686 2440.6702 3685435
2245.1497 665.50726 2433.2859 3356470
2264.2632 666.64612 2437.45 3422263
2287.8552 669.07953 2446.3472 3356470
2306.9604 670.17712 2450.3601 3224884
2309.6306 666.51727 2436.9788 3224884
2318.0203 664.54523 2429.7683 3290677
2338.1611 665.94586 2434.8894 3422263
2352.6191 665.72021 2434.0645 3356470
2365.4497 665.03992 2431.5771 3422263
2378.4497 664.41577 2429.2949 3159091
2393.6702 664.41577 2429.2949 2961715
2399.0073 661.68982 2419.3281 2830128
2394.2717 656.23737 2399.3923 3159093
2401.6707 654.15796 2391.7896 3224886
2405.2756 651.07745 2380.5264 3159093
2428.5339 653.32202 2388.7332 3093300
2443.4373 653.3053 2388.6719 3093300
nan nan nan 16777215
nan nan nan 16777215
nan nan nan 16777215
nan nan nan 16777215
nan nan nan 16777215
nan nan nan 16777215
nan nan nan 16777215
nan nan nan 16777215
nan nan nan 16777215
nan nan nan 16777215
-2096.7598 642.38745 2296.4255 3422776
-2080.5085 641.81262 2294.3706 3488569
-2070.3142 643.11127 2299.0129 3685948
-2062.8669 645.28735 2306.7922 3554362
-2056.2075 647.74243 2315.5686 3422776
-2032.0652 644.68585 2304.6418 3554362
-2024.4646 646.87103 2312.4534 3685948
-2017.0017 649.1319 2320.5359 3817534
-2002.4628 649.1319 2320.5359 3686718
-1988.345 649.26941 2321.0273 3818304
-1978.9143 650.95074 2327.0378 4081733
-1972.9462 653.8045 2337.2395 4213062
-1937.5483 646.87537 2312.469 4278855
-1935.451 651.04346 2327.3691 3949890
-1924.8002 652.37573 2332.1318 4015683
-1906.5659 651.13849 2327.709 4081476
-1891.9821 651.13849 2327.709 4147269
-1887.4059 654.60938 2340.1169 4015683
-1875.537 655.58563 2343.6067 3950146
-1863.832 656.63495 2347.3579 3753281
-1850.8707 657.25482 2349.5737 3884610
-1832.3029 655.87769 2344.6509 4081989
-1812.0132 653.85718 2337.4277 4081989
-1797.3687 653.85718 2337.4277 4081989
-1780.6814 653.10803 2334.7498 4081989
-1757.7572 650.03998 2323.782 4147782
-1742.6802 649.84686 2323.0916 4147782
-1728.213 649.87982 2323.2095 3950403
-1719.4963 652.09418 2331.1255 3818817
-1712.3805 654.95874 2341.3657 3818817
-1694.5867 653.75342 2337.0569 3555132
-1679.9445 653.75342 2337.0569 3357753
-1651.9138 648.49756 2318.2681 3620925
-1627.4917 644.5777 2304.2551 3818304
-1609.5839 643.19061 2299.2966 3884097
-1584.2114 638.7688 2283.4895 3489339
-1561.5045 635.35089 2271.271 3489339
-1545.9227 634.79596 2269.2871 3423546
-1531.705 634.79596 2269.2871 3291960
-1527.726 639.07898 2284.5984 3686718
-1513.4122 639.07898 2284.5984 3686718
-1481.2502 631.47009 2257.3979 3620925
-1460.4221 628.5929 2247.1123 3423803
-1447.7517 629.20502 2249.3005 3358010
-1438.038 631.12677 2256.1704 3686718
-1418.8091 628.86926 2248.1003 3489596
-1408.9779 630.77356 2254.908 3555132
-1405.123 635.41919 2271.5151 3555132
-1387.8158 634.01416 2266.4924 3489339
-1366.1974 630.59015 2254.2522 3555132
-1356.5613 632.68311 2261.7341 3620925
-1353.5955 637.96399 2280.6123 4015683
-1334.5598 635.70282 2272.5291 4081476
-1318.8627 635.00037 2270.0178 4015683
-1300.1062 632.79346 2262.1287 4015683
-1296.6112 638.04797 2280.9126 3818304
-1285.7953 639.77686 2287.093 3949890
-1273.1473 640.62292 2290.1177 3357753
-1274.7367 648.73383 2319.1128 2831151
-1259.302 648.26807 2317.4478 3094325
-1234.0912 642.7002 2297.5435 3291190
-1218.5986 642.12183 2295.4758 3356983
-1203.8422 641.92206 2294.7617 3356983
-1189.4647 641.92206 2294.7617 3356983
-1172.8169 640.68176 2290.3279 3356983
-1154.7705 638.63733 2283.0193 3422776
-1146.6592 642.10492 2295.4155 3751741
-1130.4164 641.04938 2291.6421 3685948
-1118.609 642.51434 2296.8792 3554362
-1105.4818 643.24951 2299.5071 3685948
-1092.4321 644.0498 2302.3682 3620155
-1074.7233 642.08789 2295.3547 3422776
-1059.1432 641.36188 2292.7593 3554362
-1043.7156 640.70947 2290.427 3620155
-1028.7054 640.29877 2288.9587 3422776
-1022.3527 645.34125 2306.9849 3422776
-1011.8642 647.88025 2316.0613 3620412
-1005.7358 653.3255 2335.5271 3950147
-977.88263 644.61072 2304.3733 3884097
-957.54651 640.66425 2290.2654 3555132
-947.74219 643.75134 2301.3013 3555132
-940.82361 648.92426 2319.7935 4212805
-930.42706 651.82294 2330.1558 4542284
-920.79224 655.3562 2342.7866 3883840
-911.86163 659.51331 2357.6475 3883840
-900.25201 661.83771 2365.9568 3555388
-892.1601 666.86932 2383.9441 3818817
-877.13617 666.80261 2383.7056 4147781
-864.37988 668.48737 2389.7283 4148039
-849.60779 668.6449 2390.2915 4147525
-842.2099 674.71594 2411.9944 4147782
-825.2348 673.19598 2406.5608 4345161
-810.15698 673.19598 2406.5608 4410954
-798.12579 675.77563 2415.7825 4279112
-775.11536 668.97919 2391.4863 4410697
-762.32605 670.9101 2398.3892 4410697
-748.88776 672.33612 2403.4868 4345161
-743.94305 681.60248 2436.6125 4410954
-729.96875 682.81079 2440.9321 4476747
-706.95966 675.43896 2414.5791 4739919
-697.58722 681.05823 2434.667 4542540
-684.31451 683.03577 2441.7363 4410697
-656.26239 670.01465 2395.188 4476747
-633.48724 661.89764 2366.1711 4081989
-626.95905 670.77405 2397.9028 4016453
-606.41974 664.72803 2376.2893 4345161
-592.67706 666.01526 2380.8909 4279368
-578.38074 666.73077 2383.4487 4213575
-556.47455 658.47943 2353.9517 4542540
-533.51215 648.495 2318.2588 4213575
-520.83777 650.80688 2326.5237 3818817
-508.7095 653.95398 2337.7739 4147526
-494.06262 653.95398 2337.7739 4278855
-482.66592 658.38745 2353.6228 3555388
-468.55225 659.2774 2356.8042 3555132
-454.77509 660.71417 2361.9404 3949890
-442.58719 664.63422 2375.9539 3423546
-430.17017 668.47113 2389.6702 3160374
-407.27533 655.71533 2344.0703 3488826
-391.9679 654.67792 2340.3618 3949120
-378.70309 657.10413 2349.0352 4080450
-362.8241 655.00714 2341.5388 4212036
-349.00494 656.60883 2347.2644 3817534
-334.80753 657.60846 2350.8379 3093811
-318.75867 654.89618 2341.1421 3488569
-305.5051 657.94232 2352.0315 3949120
-290.72345 657.83948 2351.6638 3357497
-276.53122 659.13062 2356.2793 3423546
-261.81158 659.23932 2356.668 4081477
-246.05153 656.58472 2347.1782 4147269
-230.99873 655.59985 2343.6577 4147269
-214.34853 649.63995 2322.3521 4081732
-199.39537 648.32996 2317.6689 3818304
-185.44614 650.33484 2324.8359 3752511
-169.77374 646.12335 2309.7808 3686718
-155.75784 648.01892 2316.5569 3489339
-141.63763 649.82532 2323.0146 3555132
-126.31016 645.87231 2308.8833 4081476
-111.84429 645.87231 2308.8833 4147269
-97.343369 645.63983 2308.0522 4278855
-82.753334 644.63208 2304.4497 4147269
-67.935493 641.04871 2291.6396 3620925
-53.84137 644.20392 2302.9192 3620925
-39.39056 643.83936 2301.6157 3817790
-24.845356 640.61969 2290.1062 3620412
-10.414907 635.60162 2272.1675 3225398
3.8453934 639.67145 2286.7163 3423546
18.236221 641.9187 2294.7498 3554875
32.551991 640.70721 2290.4189 3751484
46.657219 637.36096 2278.4568 3883327
60.196445 629.66223 2250.9351 3751741
75.687904 641.4306 2293.0049 3028018
90.054291 641.4306 2293.0049 2896432
103.80714 637.66174 2279.532 2699310
118.80943 641.55139 2293.4368 2699053
133.68434 643.98798 2302.1472 2896432
149.02393 647.97052 2316.384 2962482
163.53679 647.97052 2316.384 2962225
177.955 647.62604 2315.1526 3225397
192.21825 646.81207 2312.2427 3291190
207.3813 648.9278 2319.8062 3225397
221.91562 648.9278 2319.8062 3225397
236.07869 647.909 2316.1641 3093811
249.78815 645.83533 2308.751 2896432
265.38361 648.59808 2318.6274 2962225
280.487 649.9339 2323.4026 3093811
296.37399 652.86395 2333.8772 3225397
309.68027 650.10089 2323.9998 3488569
327.19534 656.02466 2345.1763 3422776
340.26688 652.91284 2334.052 3291190
355.99799 654.95044 2341.3362 3291190
370.79538 655.177 2342.146 3422263
385.11975 654.58228 2340.02 3356470
399.64227 654.35565 2339.2097 3290677
415.38016 656.06464 2345.3191 3159604
428.81995 654.15112 2338.4785 3356983
443.29208 653.88684 2337.5339 3488569
457.9375 653.88684 2337.5339 3291190
470.78751 651.40271 2328.6536 3028018
486.85962 653.39221 2335.7656 2962225
500.85703 652.56238 2332.7991 2962225
514.88483 651.81805 2330.1384 2896175
529.48383 651.81805 2330.1384 2830639
538.71283 645.3847 2307.1401 3093811
557.4621 650.3949 2325.0508 3554362
574.76489 653.50531 2336.1699 2633260
586.72675 650.53943 2325.5674 2764846
600.20776 649.36078 2321.354 2699053
614.69165 649.29736 2321.1272 2765102
627.39545 647.3999 2314.3442 2896432
643.43988 648.95752 2319.9124 2830639
657.97491 648.95752 2319.9124 2962225
670.46509 646.98438 2312.8586 3291190
684.59979 646.64801 2311.6562 3356983
698.2594 645.88617 2308.9329 3093811
713.28583 646.39386 2310.7478 3159604
729.59595 648.02155 2316.5664 3159604
744.10992 648.02155 2316.5664 3159604
756.013 645.79126 2308.5935 2962225
768.8006 644.38605 2303.5703 2962225
790.40643 650.28772 2324.6675 3159604
804.97113 650.28772 2324.6675 3225140
816.05872 647.52863 2314.8042 3225141
830.09906 647.16791 2313.5149 3422519
847.87225 649.67993 2322.4949 3488826
862.16034 649.48175 2321.7864 3554875
878.36145 650.70734 2326.1677 3620668
898.3006 654.61694 2340.1438 3620925
914.47241 655.69971 2344.0146 3752255
930.88129 656.91559 2348.3611 3817277
956.06567 664.19006 2374.366 4147525
