# .PCD v0.7 - Point Cloud Data file format
VERSION 0.7
FIELDS x y z rgb
SIZE 4 4 4 4
TYPE F F F U
COUNT 1 1 1 1
WIDTH 1284
HEIGHT 1
VIEWPOINT 0 0 0 1 0 0 0
POINTS 1284
DATA ascii
338.61874 609.65448 1342.1592 2305326
346.83109 609.30896 1341.3984 1976361
355.27106 609.37012 1341.5332 2568498
364.73596 611.14594 1345.4425 2568498
372.75778 610.47809 1343.9723 2436912
381.24716 610.58856 1344.2155 2502705
389.80688 610.80444 1344.6908 2239533
398.23181 610.80444 1344.6908 2173740
407.17184 611.57825 1346.3943 2305326
416.004 612.1618 1347.6791 2502705
424.06555 611.61078 1346.4659 2568498
433.67825 613.27472 1350.129 2436912
438.8327 608.6911 1340.0382 2436912
447.22845 608.6911 1340.0382 2305326
457.12286 610.69324 1344.4459 2173740
464.99359 609.96826 1342.85 2173740
469.89301 605.44073 1332.8824 1975592
479.55762 607.10376 1336.5437 1581604
484.18051 602.43665 1326.269 1647396
492.73868 602.74084 1326.9387 2042154
498.26782 599.39117 1319.5645 2371119
506.53534 599.39117 1319.5645 2239533
517.58936 602.63562 1326.707 2305326
527.10492 604.01459 1329.7428 2173740
532.81335 601.05579 1323.2291 1976618
540.22217 600.07648 1321.0731 1844775
545.53027 596.82849 1313.9226 2436912
557.55902 600.92041 1322.931 3094842
565.7403 600.80646 1322.6801 2436912
574.02734 600.80646 1322.6801 2436912
583.39453 601.92102 1325.1338 2436912
589.68994 599.87933 1320.639 2766134
594.51349 596.4176 1313.0181 2963256
602.28149 595.96393 1312.0193 3226428
607.87823 593.40302 1306.3813 2173740
616.52844 593.8512 1307.368 1910568
628.10394 597.06836 1314.4507 3029049
639.52838 600.06055 1321.0381 2765877
650.29694 602.36877 1326.1195 2305326
658.6275 602.38885 1326.1638 2634291
666.93628 602.38885 1326.1638 2568754
673.60382 600.92462 1322.9403 2765364
678.55554 597.98401 1316.4664 2897720
686.80365 597.98401 1316.4664 2765877
694.58429 597.58185 1315.5811 2502705
705.29968 599.68445 1320.21 2239533
713.28766 599.44611 1319.6853 2371119
721.42816 599.34003 1319.4518 2568498
728.12769 598.05267 1316.6177 2634291
736.70422 598.31873 1317.2034 2568755
744.78632 598.1817 1316.9017 2436912
752.10541 597.44159 1315.2723 2436911
758.8396 596.258 1312.6666 2305324
767.24457 596.39844 1312.9758 2239531
774.44482 595.60931 1311.2386 2568496
781.83997 594.98523 1309.8646 2436909
790.70166 595.47845 1310.9506 2436910
799.36206 595.81152 1311.6838 2436910
807.28394 595.59302 1311.2028 2436910
814.2738 594.69824 1309.2328 2371119
823.76788 595.63196 1311.2883 2371119
836.52521 598.88336 1318.4464 2502705
843.98566 598.31622 1317.1979 2371120
844.18933 592.66547 1304.7577 2436912
852.36414 592.66547 1304.7577 2239533
865.97302 596.40808 1312.9971 2173740
873.46124 595.90454 1311.8885 2107947
881.30487 595.65051 1311.3293 2042410
889.06726 595.34692 1310.6609 2107177
898.65259 596.2583 1312.6674 2107434
907.05035 596.37238 1312.9185 2239020
914.15009 595.63861 1311.3031 2304813
922.52185 595.73944 1311.525 2370606
932.21118 596.6817 1313.5995 2502192
938.91791 595.71515 1311.4716 2502192
948.02142 596.27295 1312.6995 2370606
966.224 602.49475 1326.397 2502192
971.39789 600.55573 1322.1282 2699571
979.65082 600.53699 1322.0869 2633778
990.83685 602.30145 1325.9714 2502192
997.68982 601.42462 1324.041 2699571
997.9931 596.64648 1313.5219 2896950
1004.8948 595.85907 1311.7885 2765364
1014.3502 596.58643 1313.3896 2567985
1033.5475 602.98553 1327.4774 2633778
1041.9836 603.0545 1327.6292 2831157
1050.3016 603.0545 1327.6292 3094329
1055.8119 601.45508 1324.108 2567985
1066.4189 602.76129 1326.9836 2633778
1074.844 602.82361 1327.1208 2502192
1081.0298 601.63873 1324.5123 2304813
1088.9667 601.43896 1324.0726 2041641
1102.639 604.38605 1330.5607 2107434
1107.1776 602.32001 1326.0122 1844262
1113.374 601.17987 1323.5022 1844262
1124.1847 602.52979 1326.474 1844262
1122.8521 597.39911 1315.1788 1975848
1131.004 597.3526 1315.0764 1712933
1133.9423 594.573 1308.9572 1975848
1135.8578 591.3009 1301.7535 2436399
1144.9908 591.80597 1302.8655 2765364
1155.4775 592.9986 1305.4911 2304813
1171.0867 596.78485 1313.8265 2370606
1182.556 598.42328 1317.4336 2633778
1190.5709 598.3031 1317.1689 2699828
1200.6218 599.20062 1319.1449 2633778
1209.96 599.73267 1320.3162 2699571
1218.5254 599.87701 1320.6339 2699571
1226.147 599.55792 1319.9314 2634035
1228.6912 596.77698 1313.8091 2699571
1233.5945 595.17126 1310.2742 2107434
1238.9698 593.81305 1307.2841 1975848
1252.7729 596.48529 1313.1671 2239020
1264.0763 597.94025 1316.3702 2633778
1275.4127 599.39203 1319.5663 2699828
1285.2434 600.12189 1321.1731 2567985
1300.3318 603.28174 1328.1295 2699571
1309.681 603.75574 1329.173 2633778
1315.1366 602.44006 1326.2765 2699572
1322.3669 601.94879 1325.1949 2765364
1319.9546 597.10162 1314.5239 2765364
1326.8672 596.50671 1313.2142 2765621
1343.7544 600.37567 1321.7318 2567215
1359.1989 603.55664 1328.7347 2501165
nan nan nan 16777215
nan nan nan 16777215
nan nan nan 16777215
nan nan nan 16777215
nan nan nan 16777215
nan nan nan 16777215
nan nan nan 16777215
nan nan nan 16777215
nan nan nan 16777215
nan nan nan 16777215
nan nan nan 16777215
nan nan nan 16777215
nan nan nan 16777215
nan nan nan 16777215
nan nan nan 16777215
nan nan nan 16777215
-1132.4185 595.61774 1293.5099 2831670
-1139.4049 603.61212 1310.8715 3226428
-1126.1104 600.90057 1304.9828 3029049
-1114.4998 599.0545 1300.9736 2436912
-1111.4232 601.80225 1306.9409 2371119
-1104.1289 602.28992 1308 3358014
-1096.1709 602.42023 1308.283 3884358
-1074.1732 594.7785 1291.6874 3686979
-1068.9786 596.39551 1295.1991 2502705
-1061.5186 596.76355 1295.9984 2831670
-1054.7511 597.52966 1297.6621 2963256
-1047.6388 598.11084 1298.9242 2963256
-1038.2482 597.3902 1297.3593 2700341
-1026.798 595.46381 1293.1757 2831670
-1021.5494 597.13177 1296.7981 2634291
-1013.4246 597.13177 1296.7981 2634291
-1002.5278 595.48535 1293.2225 2897463
-993.83759 595.13336 1292.458 2963256
-982.12488 592.95081 1287.7181 3029049
-977.18848 594.85718 1291.8582 3094842
-969.65765 595.20276 1292.6088 3292221
-959.02258 593.63269 1289.199 2700084
-955.19684 596.28668 1294.9628 2371119
-948.5141 597.18738 1296.9188 2831670
-939.50995 596.62946 1295.7072 2831670
-934.6441 598.71277 1300.2314 2897720
-927.28461 599.22119 1301.3357 3029049
-910.00763 593.27307 1288.418 3029049
-910.38556 598.83154 1300.4894 2568498
-907.22797 602.14374 1307.6825 2568496
-900.29846 602.98993 1309.5203 2436910
-892.94873 603.56775 1310.7751 2371117
-890.23822 607.32111 1318.9264 2239531
-878.69714 605.06415 1314.0249 2042152
-870.46429 605.06415 1314.0249 1976359
-867.92139 609.05695 1322.696 1910823
-848.66016 601.28174 1305.8105 2107945
-838.68481 599.99823 1303.0232 2305324
-840.53479 607.2326 1318.7341 2502703
-822.96271 600.44012 1303.9828 2831668
-811.93988 598.33771 1299.417 3029047
-806.96545 600.69501 1304.5364 2436910
-810.41699 609.43695 1323.5214 2568752
-804.09766 610.93604 1326.7769 2634289
-797.08929 611.93732 1328.9514 2239531
-789.99243 612.89111 1331.0228 1910566
-780.64264 612.09875 1329.302 2173738
-770.93097 611.00256 1326.9213 1778980
-762.19135 610.66125 1326.1801 1581601
-751.461 608.69983 1321.9204 2568496
-742.46228 608.11298 1320.646 3094840
-731.48999 605.87823 1315.7928 2568496
-729.83948 611.40161 1327.788 2371117
-722.61975 612.33313 1329.811 2371117
-709.86023 608.53729 1321.5675 2568496
-697.37988 604.89404 1313.6554 2831668
-691.7569 607.18268 1318.6257 2568496
-687.45648 610.70166 1326.2678 2831668
-673.47882 605.60468 1315.1987 2568496
-664.8808 605.27887 1314.4912 2042152
-652.31366 601.28625 1305.8203 1384479
-648.85095 605.6911 1315.3864 1515808
-644.14111 609.03003 1322.6376 1779237
-635.26471 608.46521 1321.411 1976359
-619.76178 601.45477 1306.1863 1976359
-611.57819 601.45477 1306.1863 2634546
-602.12506 600.18945 1303.4384 2897461
-594.30334 600.53778 1304.1948 2897461
-586.9967 601.42358 1306.1185 2700082
-578.10187 600.68414 1304.5128 2831668
-569.92871 600.68414 1304.5128 3094840
-561.54974 600.46411 1304.0349 2765875
-554.3822 601.55206 1306.3976 1712420
-546.98651 602.42139 1308.2855 1910824
-542.75562 606.85565 1317.9155 2239533
-531.37274 603.30676 1310.2084 2239533
-520.89777 600.69354 1304.5332 2634291
-513.02747 601.04852 1305.3041 2765877
-502.69357 598.48206 1299.7303 2765877
-498.61047 603.39532 1310.4006 2173740
-492.07111 605.45099 1314.865 2371119
-483.98611 605.64252 1315.2809 2305325
-477.32327 607.65112 1319.6431 1844773
-468.83325 607.36346 1319.0183 1976359
-459.56146 606.03461 1316.1323 2107945
-450.74936 605.27435 1314.4813 2239531
-442.78738 605.64862 1315.2942 2436910
-435.08737 606.40222 1316.9308 2305324
-427.24387 606.9812 1318.1881 2173738
-417.76526 605.21405 1314.3505 2107945
-407.20816 601.78217 1306.8973 1976359
-397.67212 599.74933 1302.4825 2634289
-388.89133 598.79413 1300.4082 3160633
-381.19678 599.50647 1301.9552 2502703
-372.9711 599.3963 1301.7159 1844773
-361.32852 593.6673 1289.2742 2502703
-349.02441 586.56445 1273.8489 2963256
-341.04337 586.56445 1273.8489 2371120
-336.16327 592.02563 1285.709 2634290
-329.63602 594.7829 1291.6969 3029306
-321.74786 595.16162 1292.5194 2963256
-313.74835 595.34857 1292.9254 3029049
-304.9632 594.01514 1290.0295 3292221
-296.6994 593.65228 1289.2416 3226428
-289.85968 596.19818 1294.7705 2371119
-281.56281 595.80731 1293.9216 2568496
-274.36362 597.78479 1298.2162 2634289
-266.5499 598.5033 1299.7766 2371117
-259.77271 601.66791 1306.6492 2897461
-251.71519 601.97656 1307.3195 2634289
-240.32112 594.05811 1290.1229 2700339
-230.96564 590.80322 1283.0542 2897461
-225.12625 596.63196 1295.7125 2371117
-219.29094 602.90796 1309.3423 2173738
-210.04396 599.92743 1302.8694 2173738
-201.78517 599.6424 1302.2504 2042152
-194.88943 603.55463 1310.7466 2436910
-189.71053 613.36182 1332.045 2700082
-182.43843 616.99255 1339.9299 3094840
-174.21696 617.60797 1341.2665 2436911
-164.20369 611.61188 1328.2446 2239532
-156.4126 613.69446 1332.7673 2107945
-148.06239 613.69446 1332.7673 1778980
-137.76752 605.15222 1314.2162 1910566
-129.76886 606.25165 1316.6038 2568496
-121.93659 608.33032 1321.118 2634289
-114.01103 610.21252 1325.2056 2305324
-106.49861 614.77509 1335.1143 2239531
-98.74852 618.62677 1343.4789 2568496
-90.309654 618.47913 1343.1583 2700082
-81.979988 619.12585 1344.5629 2502703
-73.362762 617.50037 1341.0327 2436910
-64.832954 616.28528 1338.3939 2173738
-56.489521 616.74408 1339.3904 2173738
-48.08173 616.53772 1338.9421 2239531
-39.692204 616.52777 1338.9205 2371117
-31.29464 616.35425 1338.5437 2436910
-22.837168 614.44183 1334.3904 2502703
-14.492175 615.09436 1335.8076 2436910
-6.1247234 615.27502 1336.2 2305324
2.2455325 614.87769 1335.337 2042152
10.579241 612.9892 1331.2357 2107945
18.904875 612.50421 1330.1825 2042152
27.23786 612.4812 1330.1326 1910823
35.444721 610.29742 1325.39 1713187
43.188793 602.48663 1308.4272 1976359
51.470108 603.46698 1310.5563 2634289
59.873379 605.41071 1314.7775 2042152
68.36898 607.70496 1319.7599 2371117
76.876198 609.59625 1323.8673 2436909
84.287682 603.27667 1310.1429 2305325
92.49614 603.27667 1310.1429 1713187
100.93813 604.67566 1313.1812 1910566
109.93151 608.91809 1322.3944 2042152
117.94936 607.54083 1319.4036 2173738
126.13608 607.15692 1318.5698 2042152
133.28174 602.11719 1307.6249 2173738
142.47231 606.36426 1316.8483 1713187
150.51273 605.51929 1315.0132 1844773
158.81146 605.74719 1315.5083 2436910
167.89326 608.79218 1322.121 2436910
176.94609 611.45062 1327.8944 2568495
184.11768 607.6615 1319.6655 2502707
192.46577 607.91412 1320.2141 2634291
198.59979 601.4408 1306.156 2568499
206.10078 599.45569 1301.845 2765877
216.36324 605.34796 1314.6412 2568499
222.93567 600.86249 1304.9001 2436913
230.75815 599.94446 1302.9064 2305327
239.10016 600.39368 1303.882 2371119
246.73389 599.09344 1301.0582 2831668
255.30089 600.06995 1303.179 3160633
263.11414 599.26929 1301.4401 2700341
271.88364 600.62909 1304.3932 1910568
279.26901 598.9411 1300.7274 1910825
287.64133 599.40552 1301.736 2305582
295.60547 599.01715 1300.8926 2634291
304.47858 600.44226 1303.9874 1844775
316.26007 607.37842 1319.0507 1844775
326.2348 610.57965 1326.0029 2107947
332.6463 607.11865 1318.4866 2107947
342.38324 609.74762 1324.196 2305326
350.32828 609.13654 1322.8689 2568498
356.79596 606.04431 1316.1534 2831670
368.59973 611.95068 1328.9805 1910568
374.67538 608.29639 1321.0444 1778982
381.11606 605.37994 1314.7107 1976361
387.82358 603.00177 1309.5459 1910568
397.85062 605.77649 1315.5718 2371119
408.85385 609.89471 1324.5155 2502705
419.08185 612.71576 1330.642 2568498
426.32358 611.14575 1327.2324 2634291
434.06711 610.34155 1325.4858 2371119
442.3717 610.34155 1325.4858 2239533
451.04382 610.83936 1326.5669 2371119
459.39032 610.88599 1326.6682 2371119
466.73096 609.61731 1323.913 2567985
470.54382 603.86554 1311.4219 1976105
477.26294 601.97693 1307.3203 1778982
488.81177 606.14099 1316.3635 1778982
495.48965 604.22711 1312.207 1778982
503.8623 604.40857 1312.6011 1844775
512.08618 604.40857 1312.6011 1713189
518.95471 602.83417 1309.182 1779239
527.85571 603.633 1310.9169 1384224
535.04663 602.48175 1308.4166 1581603
544.20685 603.54932 1310.7351 2239533
550.94635 601.94037 1307.241 2568498
558.27777 601.01575 1305.2329 2502705
565.85114 600.37457 1303.8405 1910568
574.02014 600.37457 1303.8405 2371119
586.6308 604.95502 1313.7878 2765877
588.29584 598.2774 1299.286 2897720
596.84106 598.68347 1300.1678 3160635
605.75116 599.43958 1301.8099 2239533
611.78571 597.36792 1297.3109 2371119
622.57782 599.93512 1302.886 3160635
630.87543 600.06317 1303.1641 2765877
640.94757 601.85419 1307.0538 2634291
649.13672 601.85419 1307.0538 2568755
657.78418 602.27399 1307.9653 2502705
667.68378 603.81561 1311.3135 2567728
675.83099 603.75439 1311.1804 2371119
681.50171 601.50879 1306.3037 2305326
685.1355 597.53998 1297.6846 2371119
694.9267 598.9715 1300.7933 2239533
702.29443 598.30511 1299.3462 2239533
709.94751 597.89441 1298.4542 2173740
716.45404 596.53839 1295.5093 2107947
722.47894 594.8161 1291.769 2107947
730.23621 594.54248 1291.1748 2502706
737.58453 593.94556 1289.8784 2436913
746.52399 594.62897 1291.3625 2371117
754.58795 594.60779 1291.3167 2305323
763.01978 594.8739 1291.8945 2502703
766.64313 591.42493 1284.4044 2502959
778.19177 594.09808 1290.2097 2436910
786.9519 594.60931 1291.3199 2371117
794.82794 594.44891 1290.9716 2436909
803.01776 594.52399 1291.1346 2371120
811.76288 595.0047 1292.1786 2239533
817.38623 593.21021 1288.2815 2305326
828.0611 595.08112 1292.3446 2371119
835.65747 594.72485 1291.5709 2305326
844.24017 595.07068 1292.3219 2371119
851.41052 594.42389 1290.9172 2173740
859.27661 594.27039 1290.584 2173740
868.27167 594.89325 1291.9366 2305326
875.28583 594.1601 1290.3444 2173484
885.22565 595.40808 1293.0546 2107434
892.94696 595.15466 1292.5044 2173227
900.3526 594.69739 1291.5112 2304813
908.15894 594.51056 1291.1056 2370606
914.88092 593.62354 1289.1791 2370606
925.12982 595.02032 1292.2125 2896950
932.802 594.75 1291.6255 3028536
938.19604 593.04431 1287.9213 2699571
949.82471 595.27509 1292.7659 2436400
957.92432 595.27509 1292.7659 2699571
961.29779 592.36285 1286.4413 2896950
978.89978 598.19391 1299.1046 2699571
987.90881 598.72095 1300.2493 2765364
997.20203 599.41022 1301.7462 2896950
1005.3578 599.41022 1301.7462 2897207
1014.7894 600.16473 1303.3846 2633778
1028.3668 603.33954 1310.2795 2831157
1030.733 599.93854 1302.8936 3094329
1038.8961 599.93854 1302.8936 2831157
1052.1809 602.87329 1309.2668 2699571
1063.8185 604.82599 1313.5076 2502192
1059.2852 597.62543 1297.8701 2239020
1067.4167 597.62543 1297.8701 2173227
1082.6808 601.58856 1306.4769 2173227
1092.2172 602.33362 1308.0948 2041641
1099.4301 601.79565 1306.9266 1778469
1106.0889 600.96466 1305.1219 1778469
1115.4503 601.60339 1306.5092 2041641
1125.0742 602.37354 1308.1816 1975848
1127.7018 599.41364 1301.7535 2239020
1128.9241 595.75464 1293.8073 2370606
1138.8524 596.70941 1295.8807 2699571
1151.054 598.83325 1300.4932 2436399
1157.465 597.93591 1298.5444 2107434
1161.6761 595.92273 1294.1722 2239020
1174.9615 598.56 1299.8998 2567985
1183.1058 598.56 1299.8998 2567986
1192.4186 599.14709 1301.1748 2567985
1200.8127 599.26788 1301.437 2567985
1208.4479 599.01062 1300.8784 2765364
1202.0081 591.82703 1285.2776 2633778
1205.344 589.52008 1280.2676 1910055
1224.238 594.80273 1291.74 1778469
1232.3313 594.80273 1291.74 1975848
1247.2512 598.07629 1298.8492 2304813
1260.5173 600.51953 1304.1552 2436400
1270.1552 601.21387 1305.6631 2502193
1280.8582 602.40027 1308.2396 2633778
1290.0925 602.88531 1309.293 2304813
1297.5868 602.55603 1308.578 2633778
1304.8892 602.14246 1307.6798 2699571
1311.1677 601.26459 1305.7733 2765364
1315.3158 599.42657 1301.7817 2567985
1330.665 602.68457 1308.8571 2436399
1339.1029 602.79144 1309.0892 2370606
nan nan nan 16777215
nan nan nan 16777215
nan nan nan 16777215
nan nan nan 16777215
nan nan nan 16777215
nan nan nan 16777215
nan nan nan 16777215
nan nan nan 16777215
nan nan nan 16777215
nan nan nan 16777215
nan nan nan 16777215
nan nan nan 16777215
nan nan nan 16777215
nan nan nan 16777215
nan nan nan 16777215
nan nan nan 16777215
nan nan nan 16777215
-1119.6548 601.17725 1288.1492 2700084
-1109.5026 600.05145 1285.7369 2502962
-1093.4293 595.68353 1276.3778 2371119
-1099.3302 603.31061 1292.7205 2831670
-1088.5232 601.81366 1289.5128 3094842
-1079.1986 601.11987 1288.0264 2634291
-1073.6658 602.5437 1291.0771 2436912
-1056.4407 597.37762 1280.0077 2568498
-1048.421 597.37762 1280.0077 2700084
-1043.3016 599.04285 1283.5759 2831670
-1034.4257 598.56024 1282.5417 2897463
-1024.7552 597.60687 1280.499 3029049
-1012.7009 595.23724 1275.4215 3029049
-1005.594 595.76099 1276.5437 2568498
-996.20056 594.92755 1274.7579 2634291
-987.32886 594.39484 1273.6165 2634291
-975.48187 592.04755 1268.5869 2897463
-967.38678 591.95758 1268.3942 3292221
-957.63397 590.84338 1266.0067 3358014
-948.6814 590.20844 1264.6462 3292221
-946.45917 593.78516 1272.3102 2502705
-943.97144 597.25476 1279.7445 2502705
-932.62402 595.13013 1275.192 2700084
-930.59375 598.9657 1283.4105 2634291
-925.17731 600.66968 1287.0616 2765877
-916.14691 600.03662 1285.7052 2963256
-898.58392 593.75427 1272.2439 2436912
-903.15002 602.11255 1290.1533 2239533
-896.7514 603.24573 1292.5814 2568495
-890.91223 604.77942 1295.8677 2502703
-882.79327 604.77942 1295.8677 2568496
-871.91284 602.87018 1291.7766 2502703
-861.96973 601.57916 1289.0104 2502703
-853.57941 601.35779 1288.536 2173738
-851.79944 605.83368 1298.1266 2437166
-838.74463 602.29944 1290.5537 2568496
-833.31055 604.22211 1294.6735 2436910
-823.21399 602.76868 1291.5592 2634289
-812.92645 601.14514 1288.0804 2897461
-799.98767 597.50879 1280.2888 2831925
-799.77448 603.39978 1292.9115 2765875
-795.70129 606.4693 1299.4886 2634289
-787.55963 606.4693 1299.4886 2568496
-781.07227 607.75665 1302.2469 2568496
-771.8017 606.88257 1300.374 2042152
-765.70721 608.51398 1303.8696 2700338
-758.14313 608.99994 1304.911 2765875
-751.55273 610.28723 1307.6693 2568496
-742.92114 609.92712 1306.8977 2700082
-734.73303 609.92712 1306.8977 2436910
-727.9342 611.09344 1309.3967 2502703
-717.33844 609.0625 1305.045 2502703
-711.13141 610.75391 1308.6693 2568496
-701.38123 609.40637 1305.7819 2765875
-690.67938 607.19037 1301.0336 2831668
-682.2243 606.92017 1300.4547 2963511
-678.14252 610.58112 1308.299 2897461
-669.73975 610.39349 1307.897 2831668
-659.85406 608.83289 1304.5531 2897461
-642.7738 600.51172 1286.7231 2436910
-632.948 598.84271 1283.147 1844773
-635.61548 609.10291 1305.1316 2107945
-622.29791 604.11261 1294.4388 2305324
-606.65948 596.70776 1278.5724 2239531
-598.64886 596.70776 1278.5724 2502960
-593.86804 599.97076 1285.5641 2897718
-586.09015 600.25403 1286.171 2963511
-579.96478 602.26123 1290.4719 2239531
-571.71545 602.08838 1290.1016 2239531
-564.69812 603.22662 1292.5405 2568496
-555.25409 601.76807 1289.4152 2765875
-547.79309 602.44727 1290.8705 2304813
-541.67371 604.64435 1295.5782 1910568
-533.13959 604.172 1294.566 2305326
-524.71423 603.81006 1293.7905 2305326
-516.10852 603.22589 1292.5389 2634291
-509.3952 604.87036 1296.0625 2700084
-501.14252 604.71051 1295.72 2107947
-494.2059 606.15967 1298.8251 1844775
-486.54919 606.75928 1300.1099 1778982
-480.23288 609.07941 1305.0812 1713187
-472.48697 609.63519 1306.2722 1712931
-466.21774 612.1496 1311.6598 2042152
-456.49606 610.13977 1307.3533 2436653
-446.27066 607.37091 1301.4204 2502703
-438.18085 607.45966 1301.6106 2568496
-430.02588 607.45966 1301.6106 1976359
-420.67035 605.73102 1297.9066 2107945
-411.56332 604.29907 1294.8384 2305324
-402.39362 602.71564 1291.4456 2568496
-394.30234 602.71564 1291.4456 2766132
-385.33325 601.34583 1288.5104 3094840
-377.26031 601.34583 1288.5104 2173738
-365.85129 595.91187 1276.8669 2042152
-357.11752 594.68988 1274.2487 2305580
-347.27695 591.52673 1267.4709 3292477
-338.32037 589.75659 1263.6781 3686979
-331.56369 591.82831 1268.1172 2765877
-324.54761 593.5274 1271.7578 3029049
-317.504 595.26031 1275.4709 2831670
-307.78903 591.94525 1268.3677 2502705
-299.8649 591.98975 1268.4631 3555393
-291.1535 590.44025 1265.1429 3292221
-286.96832 598.23981 1281.8551 2173741
-278.35107 596.98291 1279.162 2173738
-267.9516 591.71582 1267.8762 1910566
-259.98126 591.65515 1267.7461 2436910
-256.83344 602.91132 1291.8647 2765875
-247.39975 599.66388 1284.9065 2634289
-239.36441 599.70148 1284.9871 2831668
-231.55385 600.32446 1286.3219 2568496
-224.39993 602.75616 1291.5323 2173738
-216.12329 602.24121 1290.429 2305324
-207.14078 599.64282 1284.8613 2239531
-200.47202 603.8031 1293.7758 1976359
-192.63963 604.66168 1295.6154 2305324
-186.55006 611.30676 1309.8539 2502703
-178.80023 612.87262 1313.209 2502703
-170.30522 611.91205 1311.1508 2173740
-161.57224 609.95569 1306.9589 2042152
-153.01152 608.47552 1303.7874 1910566
-144.69933 607.87238 1302.495 2173738
-136.49657 607.68445 1302.0923 2371117
-128.55954 608.73077 1304.3342 2042152
-120.92807 611.46423 1310.1913 1976616
-112.77715 611.77802 1310.8635 1910566
-105.13255 615.10327 1317.9888 1976359
-96.877151 615.11731 1318.0188 2239531
-89.255211 619.53088 1327.4758 2371117
-80.640846 617.25513 1322.5995 2371117
-71.994865 614.18842 1316.0283 2239531
-63.532036 612.0929 1311.5382 2436910
-55.275455 611.65698 1310.6042 2305324
-47.465332 616.87134 1321.7771 2107945
-39.138802 616.15997 1320.2529 2305324
-30.815022 615.12225 1318.0293 2305324
-22.532427 614.44781 1316.5842 2502703
-14.270931 613.90198 1315.4147 2436910
-6.0249214 613.44086 1314.4266 2568496
2.2050369 611.961 1311.2557 2765875
10.386752 609.98145 1307.014 2107945
18.595549 610.63647 1308.4176 1910566
26.79808 610.74786 1308.6564 1976616
34.931614 609.60303 1306.2032 1910566
42.502094 600.93182 1287.6234 1778980
50.569458 600.93182 1287.6234 2502703
59.057541 605.24359 1296.8622 2239531
67.350685 606.75623 1300.1034 2371117
75.518547 606.93549 1300.4875 2173739
83.666504 606.93549 1300.4875 2239533
91.66333 605.9364 1298.3468 2436910
99.898567 606.54779 1299.6567 2107945
107.87904 605.63678 1297.7047 1778980
115.20956 601.46033 1288.7557 1845030
123.48104 602.42151 1290.8153 2173738
131.70894 603.06506 1292.1942 2371117
139.66165 602.44696 1290.8699 1976359
148.61848 605.99084 1298.4634 2107945
156.75377 605.99084 1298.4634 2173738
165.64702 608.77655 1304.4323 2371117
173.91772 609.11987 1305.168 2568496
182.17015 609.37122 1305.7065 2568496
189.55 606.80762 1300.2135 2371117
196.58646 603.40118 1292.9146 2371117
204.86385 603.92267 1294.0319 2305324
213.74644 606.12054 1298.7413 2371117
220.09396 601.23224 1288.267 2239531
228.75224 602.77869 1291.5807 2107944
237.03285 603.25836 1292.6084 2239531
244.31001 601.23682 1288.2769 2371116
252.94051 602.5686 1291.1305 2436911
261.02985 602.5686 1291.1305 2765877
268.40372 600.96667 1287.698 2502192
276.68094 601.42181 1288.6732 2172971
284.1434 600.13031 1285.906 2370606
293.23355 602.25299 1290.4543 2633522
300.48654 600.5899 1286.8907 2107177
311.02939 605.41742 1297.2346 1975591
320.0032 607.02264 1300.6742 2041641
327.42734 605.68146 1297.8005 1449248
335.45813 605.50049 1297.4126 1778725
344.32498 606.80127 1300.2 1910568
353.19431 608.04626 1302.8676 1581860
360.94415 607.35126 1301.3784 1384224
369.07959 607.32153 1301.3146 1450017
379.41345 610.83234 1308.8373 1713189
387.13504 610.078 1307.2209 1844775
394.85461 609.35181 1305.6649 2239533
403.98703 610.79114 1308.749 2568498
412.30414 610.96515 1309.1218 2371119
420.50623 610.96515 1309.1218 2436912
427.53424 609.29193 1305.5367 2239533
437.08728 611.21252 1309.652 2042154
445.28723 611.20514 1309.6361 2371119
452.52518 609.90137 1306.8425 2107947
461.23901 610.59778 1308.3347 1449761
467.67035 608.30103 1303.4135 1844775
475.46277 607.82312 1302.3894 1450274
483.11981 607.1911 1301.0353 1252895
490.65924 606.43475 1299.4146 1647396
499.61234 607.42181 1301.5295 1647396
509.77451 609.82361 1306.6758 1581603
518.16223 610.06024 1307.1829 2107947
523.81433 607.11877 1300.8802 2042154
531.51575 606.60626 1299.7821 1844775
538.9397 605.79749 1298.0491 1910568
546.53888 605.20679 1296.7833 2173740
552.87665 603.25696 1292.6053 2305326
560.9516 603.23151 1292.5509 2239533
571.19012 605.50031 1297.4124 2436912
579.66785 605.86517 1298.1941 2568498
581.37915 599.24548 1284.01 2963256
591.1286 600.9787 1287.7238 3292221
600.25317 602.03839 1289.9944 3358014
610.51019 604.19067 1294.6062 2897463
618.22174 603.80042 1293.7699 3029049
624.66907 602.20154 1290.344 2831670
633.32751 602.74786 1291.5145 2963256
639.85474 601.27765 1288.3644 2963256
648.4314 601.74603 1289.3679 2634548
655.89154 601.17938 1288.1538 2501936
663.8609 601.08765 1287.9573 1976359
665.56537 595.39374 1275.7568 1713187
672.21613 594.20728 1273.2146 2042153
684.75739 598.1944 1281.7579 2173740
692.78796 598.1944 1281.7579 2436912
702.53693 599.66113 1284.9006 2568498
708.26672 597.70288 1280.7047 2239533
716.29071 597.70288 1280.7047 2371118
721.70398 595.54846 1276.0884 2700083
727.00702 593.35138 1271.3806 2568495
735.05524 593.41803 1271.5236 2305323
742.59076 593.07385 1270.786 2239531
748.95624 591.81244 1268.0831 2371117
758.56573 593.11395 1270.8719 2107944
765.38623 592.23035 1268.9786 2042152
771.48163 590.80969 1265.9346 2042152
781.60944 592.47449 1269.5018 2173738
786.32697 590.04608 1264.2983 2897463
791.92572 588.32074 1260.6014 2634291
803.22211 590.82043 1265.9575 2239533
813.47345 592.51001 1269.5779 2436912
821.13342 592.29767 1269.1229 2371119
827.88318 591.43921 1267.2834 2305326
835.82312 591.43921 1267.2834 2107947
844.78766 592.15753 1268.8225 2173740
854.17236 593.15399 1270.9578 2239790
862.50439 593.40796 1271.502 2370606
870.01788 593.0993 1270.8405 2173227
877.9801 593.0993 1270.8405 2107434
888.10016 594.54382 1273.9358 2239020
893.71088 592.97076 1270.5651 2304813
901.97272 593.16895 1270.9897 2831157
913.09937 595.23114 1275.4084 3160122
915.85345 591.84705 1268.1573 3160122
922.38434 590.94086 1266.2156 2896950
928.85358 590.01086 1264.2229 2502192
940.0033 592.04462 1268.5806 2962743
938.63452 586.22583 1256.1125 3160122
947.23248 586.6767 1257.0787 2370606
969.96545 595.80261 1276.6329 2567985
983.49042 599.16943 1283.8472 2765364
990.37628 598.46979 1282.3479 2896950
1001.6108 600.38812 1286.4583 2896950
1011.2487 601.32635 1288.4686 2831157
1019.3605 601.34943 1288.5181 2962743
1027.9561 601.65533 1289.1736 3028536
1037.7677 602.6626 1291.3319 2502192
1045.3687 602.38049 1290.7274 2633778
1047.0911 598.74121 1282.9294 2304813
1053.5835 597.8642 1281.0503 1910055
1069.7703 602.45996 1290.8977 2107434
1080.0685 603.69543 1293.5449 2173227
1083.431 601.0647 1287.9081 2041641
1094.1198 602.5072 1290.999 1910055
1102.8232 602.84344 1291.7194 1844262
1110.0806 602.38995 1290.7477 1910055
1120.818 603.81781 1293.8073 1910312
1118.8706 598.44061 1282.2854 2502192
1119.376 594.44257 1273.7188 2633778
1127.3562 594.44257 1273.7188 2502192
1142.5518 598.2204 1281.8135 2173227
1151.7045 598.80359 1283.0632 2173227
1153.4287 595.54327 1276.0773 2304813
1162.1128 595.89661 1276.8344 2304813
1170.1125 595.89661 1276.8344 2370606
1178.9418 596.31616 1277.7333 2370606
1189.5311 597.61432 1280.5149 2370606
1191.9257 594.80566 1274.4967 2436399
1197.7137 593.71649 1272.1631 2502192
1206.009 593.87653 1272.5059 1910055
1219.1278 596.39398 1277.9 1910055
1228.6577 597.13434 1279.4865 2107434
1241.2223 599.33051 1284.1921 2239020
1244.3518 596.97186 1279.1383 2370606
1260.5492 600.87262 1287.4965 2370606
1272.1367 602.54034 1291.0699 2436399
1281.8209 603.29114 1292.6786 2502192
1289.9199 603.29114 1292.6786 2633778
1298.0219 603.29248 1292.6815 2699571
1306.6294 603.52734 1293.1848 2633778
1315.7892 604.01276 1294.225 2502192
1320.8811 602.63647 1291.2759 2436399
nan nan nan 16777215
nan nan nan 16777215
nan nan nan 16777215
nan nan nan 16777215
nan nan nan 16777215
nan nan nan 16777215
nan nan nan 16777215
nan nan nan 16777215
nan nan nan 16777215
nan nan nan 16777215
nan nan nan 16777215
nan nan nan 16777215
nan nan nan 16777215
nan nan nan 16777215
nan nan nan 16777215
nan nan nan 16777215
nan nan nan 16777215
-1105.7484 601.63873 1272.1501 2305326
-1098.6202 602.1004 1273.1262 2305326
-1087.6094 600.42517 1269.5841 2371119
-1084.2616 602.98706 1275.0011 2634291
-1078.3065 604.1261 1277.4097 2568498
-1070.3031 604.1261 1277.4097 2371119
-1057.3903 601.33411 1271.506 2568498
-1046.1539 599.46033 1267.5439 2568498
-1035.0756 597.64923 1263.7144 2568498
-1027.953 598.11182 1264.6925 2634291
-1019.5697 597.84229 1264.1226 2700084
-1010.992 597.45367 1263.3009 3094842
-999.84998 595.53162 1259.2367 3029049
-994.61475 597.12506 1262.6061 2634291
-983.02332 594.89758 1257.8961 2765877
-975.25354 594.96545 1258.0397 2831927
-964.34625 593.1048 1254.1053 2831670
-950.85291 589.61005 1246.7158 3029049
-943.98114 590.19727 1247.9575 3029306
-940.96393 593.22449 1254.3584 2765877
-939.21783 597.11078 1262.5758 2502962
-932.18182 597.67139 1263.7612 2634291
-924.72394 597.96881 1264.3901 2568498
-917.63922 598.51477 1265.5446 2371119
-911.2417 599.52234 1267.675 2502962
-902.35236 598.89386 1266.3462 2568755
-894.41833 598.89386 1266.3462 2634291
-889.03314 600.61584 1269.9873 2305327
-885.21198 603.43506 1275.9485 2173738
-877.14899 603.38782 1275.8485 2502703
-865.57599 600.90283 1270.5941 2568496
-853.38977 597.94214 1264.3339 2963254
-846.47894 598.65692 1265.8451 2436910
-847.22089 604.84863 1278.9374 2502959
-833.08508 600.43561 1269.6062 2831668
-825.72998 600.87189 1270.5286 2766132
-817.59473 600.74323 1270.2566 2700082
-811.77521 602.33032 1273.6125 2700082
-803.79559 602.33032 1273.6125 2700082
-795.12811 601.80969 1272.5116 2634289
-787.099 601.76654 1272.4204 2897461
-781.70837 603.76044 1276.6364 2568496
-773.95972 603.95538 1277.0486 2502703
-767.41071 605.10034 1279.4696 2634289
-752.62469 599.70612 1268.0636 2634289
-744.67987 599.70612 1268.0636 2700082
-744.84717 606.30939 1282.0261 2963254
-736.83752 606.328 1282.0654 2897461
-730.84424 608.02454 1285.6527 2436910
-723.14233 608.32159 1286.2809 1976359
-715.52911 608.70074 1287.0826 1976359
-707.46515 608.70074 1287.0826 2502703
-698.62701 608.02704 1285.658 2963254
-690.5719 608.02704 1285.658 2634289
-677.32648 603.40308 1275.8807 2765875
-668.80817 602.93018 1274.8809 3489598
-663.03571 604.95123 1279.1543 2765875
-658.02557 607.72571 1285.0209 2436910
-645.46906 603.51312 1276.1135 2436910
-638.04456 604.05341 1277.256 2963254
-631.64294 605.58826 1280.5012 2766132
-621.81158 603.83191 1276.7875 2568496
-610.69501 600.7655 1270.3037 2502703
-603.07953 601.10779 1271.0273 2502703
-592.966 598.93597 1266.4352 2305325
-581.73572 595.56195 1259.3009 2502704
-580.58105 602.55212 1274.0814 2436912
-571.72998 601.63806 1272.1487 2173740
-562.39954 600.18665 1269.0797 2239534
-552.21667 597.77087 1263.9717 2568496
-544.86688 598.39624 1265.2939 2502703
-536.93945 598.39624 1265.2939 2436912
-528.13025 597.39886 1263.1849 2502705
-522.51587 600.03986 1268.7694 2107947
-512.92432 598.12482 1264.7201 2239533
-505.00049 598.12482 1264.7201 2502705
-501.9296 603.96436 1277.0676 2436912
-495.43228 605.80328 1280.9561 2568498
-481.47577 598.4317 1265.3689 2173740
-476.57562 602.258 1273.4595 1844775
-471.3038 605.73682 1280.8154 1779493
-466.04028 609.34705 1288.4492 1779237
-456.90616 607.93457 1285.4625 2108201
-448.59116 607.58087 1284.7146 2437166
-440.88669 608.05615 1285.7196 2305324
-432.8454 608.07611 1285.7617 2436910
-423.93408 606.85126 1283.1719 2239531
-413.75677 603.73187 1276.5759 2173738
-405.46161 603.28992 1275.6415 2502703
-397.08365 602.70453 1274.4037 2107945
-387.92001 600.87817 1270.5419 2239531
-377.38788 596.81104 1261.942 2831668
-367.90961 594.27209 1256.5736 2305324
-361.99857 597.51025 1263.4205 2371117
-353.06714 595.7962 1259.7963 2700082
-343.57892 593.04279 1253.9741 3094842
-336.66769 594.71259 1257.505 3160635
-328.86581 594.8515 1257.7987 2436912
-320.44717 593.85419 1255.6899 2963513
-312.45151 593.61029 1255.1742 2897463
-305.03162 594.47595 1257.0046 2568498
-297.1561 594.47595 1257.0046 2897463
-288.78281 593.45306 1254.8417 2305326
-280.82526 593.2511 1254.4147 2173741
-273.3927 594.17865 1256.3759 2305324
-262.15005 586.63489 1240.4248 1976359
-254.54863 587.02753 1241.255 2568496
-249.3242 593.09918 1254.0935 2371117
-241.46692 593.09918 1254.0935 2371117
-234.95216 596.50769 1261.3007 2634289
-227.08815 596.6087 1261.5142 2305324
-219.91093 598.58636 1265.6959 2173738
-212.69156 600.5929 1269.9387 2436910
-204.20389 599.03485 1266.6443 2502702
-196.42928 599.52716 1267.6853 1976103
-190.31848 605.35315 1280.0043 2568496
-184.19131 611.63745 1293.2921 2568496
-176.21086 612.06268 1294.1913 2700082
-168.61618 613.93347 1298.1471 2436913
-159.83678 611.46179 1292.9207 1778980
-150.81514 607.75 1285.0723 1515808
-142.74632 607.67578 1284.9153 2305323
-134.69594 607.67578 1284.9153 2305324
-126.21671 605.61816 1280.5645 1778980
-120.39861 616.91656 1304.4547 1976616
-112.05938 616.00177 1302.5205 2042152
-103.53461 613.84326 1297.9562 1910823
-95.348785 613.49762 1297.2253 2107945
-87.053192 612.31537 1294.7256 1976359
-78.988907 612.68439 1295.5059 2239531
-70.766251 611.76874 1293.5698 1976359
-62.824417 613.35803 1296.9303 1910566
-54.762825 614.07654 1298.4496 2042152
-45.963531 605.33044 1279.9562 1910566
-37.922443 604.98322 1279.222 2239531
-30.068079 608.22705 1286.0809 2634289
-22.219576 614.00775 1298.3041 2765875
-14.039088 611.99341 1294.0448 1976359
-5.8983178 608.57001 1286.8062 2107945
2.1503301 604.7475 1278.7235 2436910
10.184377 606.08331 1281.5481 2239531
18.213673 606.08331 1281.5481 2107945
26.386234 609.39203 1288.5443 2173738
34.386063 608.09576 1285.8033 2107945
42.118309 603.4577 1275.9963 1844773
50.018223 602.3186 1273.5876 2042409
58.399254 606.48938 1282.4067 2305324
66.496758 607.06299 1283.6195 2173738
74.403419 605.9585 1281.2842 1778980
82.351913 605.37671 1280.054 1844775
90.154434 603.92029 1276.9744 1976359
97.617401 600.61212 1269.9794 1976359
105.94192 602.70398 1274.4026 1515808
113.50477 600.47314 1269.6855 1515808
121.82703 602.28906 1273.5251 2371117
129.53755 601.04315 1270.8907 2436910
137.22736 599.85101 1268.37 1515808
146.25798 604.32965 1277.84 2107945
155.17084 607.88196 1285.3513 2239531
163.47591 608.82019 1287.3352 2239531
171.3566 608.16418 1285.948 2371117
179.06371 606.97858 1283.4412 2436910
186.57704 605.2663 1279.8206 2305324
192.82678 599.76489 1268.1879 1910566
201.1861 601.00073 1270.8011 1515808
209.37347 601.6485 1272.1708 1976359
217.53003 602.16339 1273.2595 2107945
226.12914 603.82361 1276.77 2107945
234.07727 603.69153 1276.4907 2305324
240.39882 599.51178 1267.6527 2173738
248.34108 599.51178 1267.6527 1581857
256.4985 600.01514 1268.717 2370860
266.09164 603.74579 1276.6055 2699571
273.36255 602.14355 1273.2175 2370606
280.64343 600.65338 1270.0667 1778469
289.27725 602.06128 1273.0436 1581090
297.97476 603.52271 1276.1337 1581090
307.13428 605.81891 1280.989 1515297
315.66629 606.79199 1283.0465 1712676
322.49527 604.52435 1278.2517 1449504
328.53003 600.91394 1270.6176 1515297
340.02631 607.22766 1283.9678 1646627
349.12115 609.06012 1287.8425 1383711
357.59598 609.75262 1289.3066 1581091
361.58496 602.93445 1274.8898 1844262
372.3804 607.5152 1284.5758 2042154
382.05569 610.1134 1290.0697 1910568
389.80383 609.59033 1288.9635 2371119
398.98062 611.27716 1292.5304 2436912
407.18445 611.43597 1292.8661 2305326
416.38104 613.05017 1296.2793 2107947
424.08847 612.45203 1295.0145 2107947
432.20209 612.45203 1295.0145 1910568
439.84634 611.79907 1293.6339 1844775
447.92688 611.76562 1293.5632 1779239
455.87537 611.55627 1293.1205 1647139
463.27914 610.63623 1291.175 1647395
471.36874 610.63623 1291.175 1449760
478.10757 608.91583 1287.5374 1450017
486.04593 608.75494 1287.1971 1515810
494.93884 609.77533 1289.3547 1515810
504.57635 611.66553 1293.3516 1844775
516.40143 616.10602 1302.7408 2634291
520.31653 611.11786 1292.1935 2173740
524.06177 606.08612 1281.5541 1778982
534.86206 609.24237 1288.2279 2305326
541.39276 607.51392 1284.573 2239533
549.57068 607.65723 1284.8761 2173740
555.02625 604.82983 1278.8976 2502705
560.51062 602.11383 1273.1547 2502705
568.48724 602.11383 1273.1547 2436912
576.34607 601.99066 1272.8942 2700084
587.30127 605.06085 1279.3861 3094842
596.80841 606.57666 1282.5913 3160892
603.85693 605.58655 1280.4977 3160635
606.91376 600.67169 1270.1053 3029049
614.86346 600.664 1270.0891 2963256
621.76837 599.6488 1267.9425 2765877
629.71234 599.6488 1267.9425 2700084
636.64447 598.6972 1265.9303 2502705
644.43262 598.56409 1265.6488 2567985
652.42322 598.61993 1265.767 2305327
659.09412 597.47821 1263.3528 2042154
665.1546 595.81671 1259.8396 2042155
675.40332 597.90192 1264.2487 2173741
681.74902 596.52356 1261.3342 2042154
688.88452 595.86011 1259.9313 2173740
697.87897 596.80127 1261.9214 2239533
705.81207 596.82385 1261.9691 2239533
714.28894 597.30072 1262.9774 2502706
719.59528 595.1449 1258.4191 2634548
726.52435 594.36334 1256.7665 2436912
736.03259 595.68591 1259.5631 2371119
744.92792 596.48969 1261.2626 2502705
751.86755 595.72705 1259.65 2107947
759.61548 595.61401 1259.411 2305326
765.02258 593.68671 1255.3358 2436912
772.28741 593.22565 1254.3608 2436912
777.65826 591.33368 1250.3604 2700085
784.75513 590.77881 1249.1871 2765877
794.60199 592.28473 1252.3713 2371119
802.27533 592.15692 1252.1011 2305326
809.76947 591.90063 1251.5591 2239533
814.19116 589.42493 1246.3243 2107947
820.4881 588.341 1244.0323 2042154
831.73804 590.79565 1249.2227 2502705
839.55585 590.78937 1249.2094 2502961
847.38263 590.78937 1249.2094 2305070
855.98676 591.32642 1250.345 2304813
865.89081 592.74365 1253.3417 2173227
875.35114 593.83435 1255.6479 2304813
882.80029 593.55334 1255.0538 2831157
890.8717 593.69202 1255.347 2765364
900.87506 595.10455 1258.3337 2765364
908.75897 595.10455 1258.3337 2831157
900.9975 584.94727 1236.8564 2831157
915.50848 589.29968 1246.0594 2567985
923.74548 589.57416 1246.6399 2699571
933.09174 590.54608 1248.6951 3291708
939.88275 589.89813 1247.3248 2436399
955.29297 594.62585 1257.3215 2436399
968.07599 597.6543 1263.7252 2633778
976.91467 598.21832 1264.9177 2831157
987.00702 599.53473 1267.7013 2896950
996.39508 600.40576 1269.5431 2831157
1006.5684 601.73248 1272.3484 2962743
1004.7787 595.94293 1260.1066 3160122
1012.6737 595.94293 1260.1066 3160122
1032.3928 602.84747 1274.7059 2831157
1045.5336 605.83411 1281.0211 2633778
1049.5403 603.52295 1276.1342 2304813
1054.9872 602.06854 1273.059 2239020
1065.9089 603.73694 1276.5868 2239020
1074.1349 603.86499 1276.8575 2304813
1078.5466 601.86267 1272.6237 1975848
1087.8521 602.60059 1274.1838 1910055
1096.2726 602.84106 1274.6925 1975848
1105.1044 603.30261 1275.6683 1975848
1113.2429 603.38184 1275.8358 2041641
1115.1975 600.13202 1268.9642 2041641
1123.3854 600.25885 1269.2324 2107434
1126.6821 597.78882 1264.0096 1975848
1134.6016 597.78882 1264.0096 1975848
1141.4741 597.24109 1262.8514 2107434
1148.9609 597.02008 1262.3842 2041641
1154.9673 596.03802 1260.3076 2041641
1162.8634 596.03802 1260.3076 2304813
1174.4375 597.9104 1264.2667 2567985
1179.3928 596.41077 1261.0957 2502192
1188.0129 596.77191 1261.8593 2502192
1195.5411 596.58337 1261.4607 2436399
1205.7241 597.7135 1263.8502 2107434
1215.4813 598.61902 1265.765 2173227
1223.988 598.90106 1266.3613 2041641
1236.228 600.99432 1270.7875 1712676
1242.6881 600.26892 1269.2537 1975848
1250.6405 600.26892 1269.2537 2436399
1261.2871 601.55396 1271.9708 2502192
1269.3286 601.5882 1272.0432 2567985
1279.2081 602.48767 1273.9452 2567986
1285.6763 601.7793 1272.4473 2567985
1291.7534 600.89764 1270.5831 2502192
1299.714 600.89764 1270.5831 2304813
nan nan nan 16777215
nan nan nan 16777215
nan nan nan 16777215
nan nan nan 16777215
nan nan nan 16777215
nan nan nan 16777215
nan nan nan 16777215
nan nan nan 16777215
nan nan nan 16777215
nan nan nan 16777215
nan nan nan 16777215
nan nan nan 16777215
nan nan nan 16777215
nan nan nan 16777215
nan nan nan 16777215
nan nan nan 16777215
nan nan nan 16777215
-1097.6577 605.10675 1262.8418 2371119
-1089.9921 605.24365 1263.1274 2371119
-1077.1534 602.48914 1257.3788 2371119
-1068.0182 601.78064 1255.9003 2436912
-1057.5522 600.30627 1252.8232 2436912
-1049.7029 600.30627 1252.8232 2436912
-1043.3918 601.19257 1254.673 2568755
-1033.8269 600.20325 1252.6083 2634291
-1023.3501 598.66541 1249.3988 2765877
-1013.1025 597.23895 1246.4219 2897463
-1005.3119 597.25 1246.4449 2963256
-993.73926 594.99677 1241.7424 2897463
-986.58203 595.37256 1242.5267 2831670
-979.02478 595.51093 1242.8156 2634291
-970.5061 595.06207 1241.8788 2568498
-959.6687 593.17279 1237.9359 2568498
-949.75189 591.82629 1235.1259 2568498
-939.50824 590.25238 1231.8411 2963256
-933.73669 591.48529 1234.4142 2436912
-930.56183 594.39746 1240.4918 2239533
-922.78979 594.39746 1240.4918 2437169
-917.64728 596.10565 1244.0566 2700084
-909.51941 595.88715 1243.6007 2436912
-901.72778 595.88715 1243.6007 2239533
-894.97919 596.58234 1245.0515 2502705
-889.75159 598.31256 1248.6625 2634291
-884.05347 599.75427 1251.6713 2700084
-876.95142 600.26086 1252.7285 2239533
-875.60059 604.74878 1262.0946 1844773
-861.38696 600.35358 1252.922 2107945
-856.03595 602.11127 1256.5902 2700082
-843.78424 599.00275 1250.1029 2568496
-841.63959 603.07812 1258.6082 2305324
-838.09674 606.21942 1265.1638 2502703
-825.71295 602.96466 1258.3712 2831668
-815.86377 601.51587 1255.3477 3094840
-809.50708 602.63885 1257.6913 2897461
-802.15424 603.03503 1258.5181 2700082
-794.3269 603.0788 1258.6094 2634289
-782.61218 600.1424 1252.4813 2305324
-771.10968 597.31097 1246.5721 1910566
-762.33478 596.55597 1244.9966 1844773
-755.40485 597.24414 1246.4327 2173738
-756.88617 604.66626 1261.9225 2831668
-747.16425 603.20056 1258.8635 2634289
-739.87628 603.68951 1259.8839 2765875
-734.61169 605.85767 1264.4088 2700082
-726.70642 605.87146 1264.4377 2634289
-717.73859 604.99011 1262.5983 2371117
-710.57666 605.62811 1263.9298 2107945
-704.80957 607.48285 1267.8005 1844773
-696.86639 607.48285 1267.8005 1844773
-693.35864 611.39392 1275.9629 2700082
-680.33258 606.90521 1266.5951 3029304
-665.86584 601.01019 1254.2924 3423805
-660.55804 603.34003 1259.1545 3489598
-653.07739 603.71741 1259.9423 2634289
-640.72504 599.54559 1251.2357 2700082
-628.97052 595.83667 1243.4954 2305324
-627.64966 602.04272 1256.4473 2634289
-622.81714 604.99524 1262.6091 2831668
-615.81079 605.88501 1264.4659 3029047
-605.35095 603.35577 1259.1875 2765875
-594.6778 600.54437 1253.3202 2502703
-586.54852 600.26111 1252.729 2305323
-580.26068 601.88013 1256.1078 1778980
-572.04883 601.52057 1255.3575 1515808
-564.33673 601.68378 1255.6981 1581601
-553.04071 597.9765 1247.9611 2107945
-548.12598 601.16168 1254.6084 2436910
-539.87177 600.72357 1253.6941 2371117
-532.01453 600.72083 1253.6885 2502192
-520.53107 596.56201 1245.0092 2765877
-512.73065 596.56201 1245.0092 3094842
-504.19751 595.69623 1243.2023 2634291
-499.34689 599.22241 1250.5613 1910568
-494.24011 602.54871 1257.5032 2371119
-488.80969 605.58179 1263.8331 2502705
-478.14536 602.12372 1256.6162 2107947
-471.38406 603.54724 1259.587 2042154
-467.31747 608.5282 1269.9822 1910823
-460.58939 610.15594 1273.3793 2305581
-452.6113 610.15594 1273.3793 2107945
-444.01871 609.31274 1271.6195 2239531
-435.34109 608.31995 1269.5476 2371117
-427.38699 608.31995 1269.5476 2305324
-416.93524 604.69751 1261.9877 2305324
-408.36694 603.71948 1259.9465 2765875
-398.52274 600.77948 1253.8108 2831668
-389.49365 598.97473 1250.0443 2239531
-382.58569 600.42468 1253.0704 1910566
-371.43835 595.14288 1242.0475 2107945
-365.78522 598.62665 1249.3179 2371117
-356.7038 596.52942 1244.941 2963254
-347.1008 593.44666 1238.5074 3029047
-339.82397 594.29102 1240.2697 2897463
-332.14935 594.46289 1240.6283 2765877
-324.75845 595.16309 1242.0895 2634291
-317.16177 595.51111 1242.8159 3029049
-307.63663 592.16473 1235.832 2897463
-299.89377 592.16473 1235.832 2502705
-290.0787 587.96454 1227.0664 1778982
-282.39075 587.96454 1227.0664 2107947
-276.01727 590.77802 1232.938 2305327
-269.79648 594.08972 1239.8495 2305324
-261.34296 592.53546 1236.6058 2371117
-252.37125 589.6756 1230.6373 2568496
-245.15054 590.85565 1233.1001 2305324
-238.01671 592.32867 1236.1743 2107945
-231.88684 596.48334 1244.845 2765875
-224.52283 597.64215 1247.2633 2502703
-216.8625 598.06732 1248.1506 2700082
-209.9317 600.61145 1253.4601 2305581
-202.29105 601.24353 1254.7793 2305581
-194.67311 601.99695 1256.3517 2042665
-187.61375 604.61401 1261.8134 2042921
-179.96111 605.46521 1263.5898 2502703
-173.53065 610.69592 1274.5062 2568496
-165.04684 608.85651 1270.6674 2436912
-157.36043 609.92126 1272.8895 2305325
-149.24377 609.34308 1271.6829 2173739
-141.8546 611.83746 1276.8885 2305324
-132.55453 605.89545 1264.4877 1976360
-123.63859 601.06537 1254.4075 1581601
-116.61311 605.39386 1263.4409 2042152
-110.2697 614.15161 1281.7181 2042152
-102.01942 612.83063 1278.9613 2305324
-93.575058 610.01904 1273.0936 2436910
-85.6231 610.19275 1273.4561 2305324
-77.819992 611.5719 1276.3344 2305324
-69.868729 611.9693 1277.1637 2042152
-61.866909 611.9693 1277.1637 1647394
-53.779041 610.99182 1275.1238 1647394
-45.661072 609.27155 1271.5336 1581601
-37.435165 605.07953 1262.7849 2042152
-29.56007 605.83051 1264.3522 2634289
-21.556664 603.53888 1259.5697 2700082
-13.66915 603.71918 1259.9459 1581601
-5.7751989 603.71918 1259.9459 2305324
2.1162314 603.00061 1258.4463 2897461
9.9971228 602.77966 1257.9851 2107945
17.885582 603.00861 1258.463 1976616
25.954565 607.32166 1267.4642 2107945
33.817276 605.91785 1264.5345 2042152
41.67453 604.96783 1262.5519 2371117
49.461357 603.46161 1259.4084 2305324
57.602379 606.0968 1264.908 2173738
65.344315 604.40314 1261.3733 1778980
73.247208 604.40314 1261.3733 1779236
81.4561 606.68219 1266.1296 1910568
89.225037 605.57074 1263.8102 1910566
97.030098 604.86578 1262.3387 2042152
104.93905 604.86578 1262.3387 1647394
112.6865 604.00012 1260.5322 1844773
119.89766 600.56165 1253.3563 2173738
128.9198 606.05939 1264.83 2042152
136.84435 606.05939 1264.83 1844773
144.55026 605.1441 1262.9197 1976359
153.12738 607.78174 1268.4243 2173738
161.1989 608.25128 1269.4043 2173738
168.84189 607.13574 1267.0763 1910566
176.78841 607.1629 1267.1328 2107945
184.79153 607.37372 1267.5729 2173738
192.77351 607.50055 1267.8375 1779237
200.08208 605.57916 1263.8276 1581601
207.57234 604.33301 1261.2269 1778980
215.08337 603.23657 1258.9387 2173738
222.97102 603.23657 1258.9387 2173738
230.94026 603.44977 1259.3837 2107945
237.69771 600.58716 1253.4094 2107945
245.5247 600.5235 1253.2766 1778980
254.4084 602.96832 1258.3789 1910309
262.39505 603.20398 1258.8707 2304813
270.20673 603.03534 1258.5188 2699571
278.09171 603.03534 1258.5188 1975848
286.85254 604.88214 1262.373 1449504
294.99191 605.35461 1263.359 1910055
303.84052 607.21973 1267.2515 1975848
311.79935 607.2569 1267.3291 2239020
318.21445 604.36035 1261.2841 2239020
324.71127 601.75568 1255.8481 1778982
335.72052 607.43878 1267.7087 1647396
344.35397 608.65997 1270.2572 1515810
