# .PCD v0.7 - Point Cloud Data file format
VERSION 0.7
FIELDS x y z rgb
SIZE 4 4 4 4
TYPE F F F U
COUNT 1 1 1 1
WIDTH 1268
HEIGHT 1
VIEWPOINT 0 0 0 1 0 0 0
POINTS 1268
DATA ascii
-1919.9349 645.05878 2117.2913 2700084
-1902.6326 643.69299 2112.8083 2700084
-1883.6508 641.73602 2106.3848 2766134
-1867.7322 640.80231 2103.3201 2700084
-1857.4977 641.81927 2106.6582 2700084
-1849.6781 643.69128 2112.8027 2700084
-1833.8829 642.7948 2109.8601 2700341
-1813.6088 640.30389 2101.6841 2700084
-1799.1478 639.84393 2100.1746 2700084
-1781.2896 638.16016 2094.6477 2634291
-1765.7928 637.30365 2091.8364 2568498
-1752.6868 637.30365 2091.8364 2502705
-1741.5806 638.03625 2094.2412 2568498
-1720.3882 635.05682 2084.4617 2568498
-1705.0895 634.22406 2081.7283 2568498
-1691.6792 634.08624 2081.2759 2634291
-1673.8075 632.26111 2075.2852 2700084
-1659.2745 631.67841 2073.3726 2700084
-1650.6238 633.34344 2078.8379 2568242
-1633.6813 631.82825 2073.8643 2371119
-1613.1663 628.89587 2064.2395 2502705
-1599.1493 628.46991 2062.8413 2502705
-1580.0636 626.02875 2054.8286 2371119
-1565.0831 625.18738 2052.0669 2568242
-1551.6539 624.95685 2051.3103 2436912
-1541.6282 626.10474 2055.0779 2239533
-1530.6838 626.89575 2057.6743 2239533
-1515.6847 626.02533 2054.8174 2305326
-1498.0209 624.03009 2048.2683 2371119
-1483.9276 623.50061 2046.5304 2305326
-1474.6456 625.00104 2051.4553 2371119
-1466.3937 626.96826 2057.9124 2371119
-1454.1871 627.26459 2058.885 2239533
-1442.3636 627.73285 2060.4221 2173740
-1427.6453 626.93835 2057.8142 2305326
-1413.0981 626.20526 2055.408 2371119
-1405.7062 628.65863 2063.4607 2371119
-1394.7439 629.54596 2066.3733 2371119
-1387.3439 632.073 2074.6677 2371119
-1374.3455 632.073 2074.6677 2634291
-1366.6184 634.52045 2082.7012 2897463
-1353.5541 634.51318 2082.6772 2831670
-1343.4337 635.89929 2087.2268 2634291
-1329.9219 635.69141 2086.5447 2502705
-1318.1006 636.29565 2088.5278 2700084
-1306.4397 636.99011 2090.8074 2634291
-1297.499 639.03839 2097.5305 2765875
-1280.7113 637.22437 2091.5762 2897461
-1274.1089 640.49286 2102.3044 2700082
-1262.4852 641.27917 2104.8853 2502703
-1240.297 636.65906 2089.7207 2305324
-1224.6504 635.33423 2085.3721 2502703
-1211.0935 635.07654 2084.5264 2831924
-1196.905 634.47833 2082.563 3160633
-1183.2825 634.17035 2081.552 3226427
-1170.2408 634.17035 2081.552 2897461
-1157.2542 634.2005 2081.6509 3094840
-1154.3464 639.81763 2100.0881 3358013
-1131.6868 634.49036 2082.6023 3292220
-1121.7655 636.26385 2088.4236 3160633
-1113.1292 638.81665 2096.8027 3029047
-1103.2463 640.7066 2103.0061 2963511
-1091.1652 641.3501 2105.1182 3094840
-1081.5626 643.48407 2112.1226 3094840
-1066.6564 642.47626 2108.8147 3094840
-1049.3899 640.00372 2100.699 2831925
-1040.625 642.71924 2109.6123 2700082
-1029.08 643.76538 2113.0459 2831668
-1016.0835 643.91907 2113.5503 2831669
-1003.675 644.45422 2115.3069 3029305
-995.22388 647.5788 2125.5627 3094842
-976.17279 643.79736 2113.1509 3029305
-962.28595 643.36456 2111.7302 3160891
-955.61346 647.8103 2126.3228 3226428
-940.3493 646.47522 2121.9404 3226428
-927.05475 646.47522 2121.9404 3292221
-909.87781 643.72852 2112.9248 3028793
-897.12885 644.07965 2114.0776 2963511
-883.88354 644.07965 2114.0776 3029048
-872.96564 645.80157 2119.7292 2502704
-858.51929 644.92596 2116.8552 2634289
-845.90192 645.4184 2118.4717 2831669
-834.17114 646.61371 2122.395 2634291
-819.1554 645.26019 2117.9524 2897463
-806.97614 646.1333 2120.8181 3029306
-793.13165 645.67993 2119.3301 2963256
-780.62457 646.31836 2121.4258 3555393
-763.52185 643.10815 2110.8887 3555906
-750.29651 643.10815 2110.8887 3358527
-736.19446 642.3432 2108.3779 3095355
-722.9848 642.3432 2108.3779 3095612
-709.35809 641.96582 2107.1392 3095355
-695.63629 641.48639 2105.5654 3292734
-685.63416 644.48474 2115.4072 3226941
-669.8233 642.03363 2107.3618 3095355
-666.18829 651.3894 2138.0706 3161148
-652.79266 651.3894 2138.0706 3292477
-630.15845 641.97766 2107.178 2897207
-613.24634 638.11719 2094.5068 2963256
-601.039 639.09052 2097.7017 3028792
-587.47858 638.63647 2096.2112 2897463
-573.90619 638.14838 2094.6091 2831670
-563.21112 640.91168 2103.6792 2765877
-552.60419 643.9101 2113.521 2700341
-539.6673 644.27417 2114.7161 2897463
-528.22119 646.4812 2121.9602 2831927
-517.38074 649.5625 2132.074 3029305
-504.02261 649.5625 2132.074 2831927
-486.67807 644.28503 2114.7517 2897720
-473.66547 644.60754 2115.8103 2766390
-461.0423 645.49384 2118.7192 2831927
-447.74893 645.46655 2118.6296 2897463
-435.58673 647.11804 2124.0505 2963256
-425.88177 652.63928 2142.1729 3029049
-410.29623 649.2149 2130.9331 2963256
-395.53741 646.91235 2123.3752 3094842
-381.98917 646.49823 2122.0161 3094842
-369.89954 648.612 2128.9541 3029049
-359.51129 653.97894 2146.5701 3160635
-348.23163 658.07831 2160.0256 3423807
-329.92825 648.69934 2129.2407 3292221
-314.72501 644.8822 2116.7117 3094842
-300.95117 643.78699 2113.1169 3094842
-287.37378 643.03046 2110.6338 3094842
-273.38422 641.23438 2104.7383 2831670
-259.36163 639.17474 2097.978 2963513
-246.23344 639.21698 2098.1167 3160635
-233.81601 641.2132 2104.6689 3029049
-220.04323 639.50903 2099.0752 3160635
-206.71466 638.9613 2097.2773 3226428
-192.93695 636.85663 2090.3691 2634548
-179.84015 636.85663 2090.3691 2700084
-168.73183 644.45148 2115.2979 2963513
-155.89551 646.17853 2120.9668 3292222
-142.3644 645.07928 2117.3586 3226429
-129.14491 645.31134 2118.1201 2436912
-115.09222 640.95618 2103.8252 2305325
-101.77274 640.086 2100.969 1976361
-88.418816 638.70837 2096.4473 2371119
-76.091225 645.55756 2118.9285 2371119
-62.74535 644.83685 2116.5627 2765877
-49.154263 640.53436 2102.4407 2436912
-35.932232 639.65167 2099.5435 2371119
-22.974026 645.15814 2117.6174 2042411
-9.6832275 643.61151 2112.541 2042411
3.5775437 648.14941 2127.4358 2305839
16.90659 648.14941 2127.4358 2371632
30.275383 649.00153 2130.2327 2503218
43.46727 646.7002 2122.679 2371632
56.665424 645.54858 2118.8989 2437682
69.968178 645.79962 2119.7229 2700597
83.497253 647.7262 2126.0466 2569011
96.786957 647.52118 2125.3738 2371632
110.18015 647.97449 2126.8616 2437425
123.37424 647.28528 2124.5994 2437168
136.56407 646.71021 2122.7117 2568498
149.4463 644.90979 2116.8022 2436912
162.78253 645.20233 2117.7625 2239533
176.18907 645.70844 2119.4236 2239533
189.46791 645.70844 2119.4236 2239533
202.04883 643.48566 2112.1277 2107947
215.93036 645.42377 2118.4893 1910568
228.94048 644.68347 2116.0593 2239533
242.19824 644.68347 2116.0593 2240302
255.39415 644.5274 2115.5471 2107947
267.13318 640.89142 2103.6125 2041897
279.48511 638.9986 2097.3999 2042154
292.76782 639.30835 2098.4165 2371119
306.76019 641.07458 2104.2139 2305839
319.61328 640.41241 2102.0405 2305839
333.09415 641.0108 2104.0044 2569010
344.44931 637.6286 2092.9031 2700595
358.05118 638.50098 2095.7664 2503216
372.543 640.84247 2103.4519 2634802
387.04092 643.03406 2110.6455 2634802
401.35788 644.79022 2116.4097 2832181
415.21066 645.7121 2119.4358 2371630
428.48959 645.7121 2119.4358 2173738
441.82971 645.80157 2119.7292 2239531
458.24258 650.24603 2134.3174 2502703
470.50241 648.7124 2129.2837 2766131
479.39301 642.74597 2109.7 2765875
493.26605 643.60077 2112.5056 2765875
506.57706 643.69672 2112.8206 2963254
518.78809 642.4256 2108.6484 2568753
531.99945 642.4256 2108.6484 2042410
544.57849 641.68066 2106.2031 1845545
558.15765 642.12146 2107.6501 2108460
571.72748 642.53131 2108.9954 2437425
584.94098 642.53131 2108.9954 2700597
597.24048 641.5495 2105.7727 2503218
610.06543 641.16235 2104.502 2437425
622.2793 640.16296 2101.2217 2569011
633.75214 638.45844 2095.6267 2569011
649.83264 641.37079 2105.186 2240046
665.38452 643.65582 2112.6863 2371120
684.64301 649.36743 2131.4336 2173997
697.99707 649.36743 2131.4336 2173740
703.73987 642.41931 2108.6277 2634291
718.42993 643.74445 2112.9773 2897720
724.56586 637.49542 2092.4658 2502705
738.73877 638.414 2095.481 2305326
751.54639 638.14124 2094.5857 2568498
767.21991 640.26953 2101.5715 2502705
780.44714 640.31903 2101.7339 2436912
793.53992 640.25824 2101.5344 2502705
809.08801 642.14825 2107.738 2436912
824.56659 643.92328 2113.5642 2239533
834.70288 641.53619 2105.729 2371119
849.98566 643.11731 2110.9187 2371119
869.91278 648.11011 2127.3069 2371119
875.55585 642.47089 2108.7971 2042154
896.57751 648.11615 2127.3267 2568755
910.47418 648.521 2128.6553 2897463
915.49103 642.68036 2109.4846 2831670
939.38544 650.06964 2133.7385 2963256
952.75403 650.06964 2133.7385 2897463
959.63013 645.70111 2119.3997 2634291
970.98834 644.42651 2115.2161 2765877
984.47504 644.57983 2115.7192 2765877
992.97021 641.50433 2105.6245 2700341
1006.0357 641.42352 2105.3591 2766134
1020.6517 642.32043 2108.3032 2700084
1029.5702 639.65472 2099.5535 2634291
1039.1053 637.43451 2092.2659 2502705
1055.2244 639.25824 2098.252 2568498
1065.2361 637.38263 2092.0957 2634291
1079.0474 637.79858 2093.4609 2700341
1103.9298 644.66986 2116.0146 2371376
1107.7694 639.23523 2098.1765 2371119
1120.9338 639.24597 2098.2117 2700084
1132.1902 638.18079 2094.7156 2436912
1145.0566 638.03723 2094.2444 2239533
1158.1777 638.03723 2094.2444 2436912
1168.7139 636.62921 2089.6228 2634291
1183.1899 637.37469 2092.0696 2700341
1196.2974 637.37469 2092.0696 2568498
1207.9749 636.62103 2089.5959 2700341
1221.0754 636.62555 2089.6108 2963256
1237.7086 638.45215 2095.6062 3095099
1250.8381 638.45215 2095.6062 3094842
1264.9957 638.97137 2097.3105 3029306
1274.3329 637.07013 2091.0698 3094842
1287.0266 636.86841 2090.408 2963513
1291.7482 632.76569 2076.9414 2634291
1302.0582 631.45502 2072.6394 2634291
1319.2787 633.48846 2079.3137 2502705
1332.6914 633.67157 2079.9148 2568498
1346.8375 634.19653 2081.6379 2831670
1344.3014 626.93146 2057.7915 2765877
1373.4427 634.43713 2082.4277 1976617
1397.8185 639.62103 2099.4429 1910568
1406.4019 637.54926 2092.6426 2173740
1430.1913 642.34521 2108.3845 2305583
1444.2068 642.70386 2109.5615 2700084
1457.4238 642.70386 2109.5615 2897463
1481.0342 647.24591 2124.4702 3094842
1493.7679 646.99615 2123.6504 3292221
1505.6851 646.40021 2121.6943 3358014
1529.8147 651.01166 2136.8306 3358014
1531.1117 645.91101 2120.0886 3029049
1542.4946 645.11633 2117.4802 2436912
1555.6152 645.05579 2117.2815 2568755
1569.3517 645.24945 2117.9172 2765877
1588.8326 647.78198 2126.2297 3292221
1603.7201 648.4151 2128.3079 2963256
1616.2062 648.07489 2127.1912 2963256
1629.074 647.89203 2126.5911 2897463
1644.8531 648.86072 2129.7705 2700084
1665.0314 651.53516 2138.5488 2634291
1683.8175 653.6264 2145.4131 2371119
1692.0327 651.61371 2138.8066 2371119
1708.4786 652.77728 2142.626 2371119
1735.5818 657.96301 2159.6472 2568498
1746.3304 656.9165 2156.2122 2502705
1761.5262 657.54596 2158.2783 2502705
1775.6218 657.75836 2158.9753 2436912
1789.0474 657.72125 2158.8535 2371119
1799.7963 656.70795 2155.5276 2371119
1816.7439 657.95471 2159.6199 2371119
1831.1007 658.25171 2160.5947 2436912
1842.5519 657.50745 2158.1519 2371119
1864.5121 660.49683 2167.9639 2239533
1878.0951 660.49683 2167.9639 2239533
1884.7928 658.09283 2160.0732 2305326
1900.4479 658.82831 2162.4873 2436912
1911.0531 657.81506 2159.1616 2305326
1917.3876 655.35645 2151.0916 2305326
1931.3843 655.53271 2151.6702 2305326
1949.3424 657.04187 2156.6235 2305326
1950.9283 653.04974 2143.5203 2305326
1962.1604 652.31915 2141.1221 2239021
1970.7996 650.74219 2135.946 2173229
1985.5371 651.18671 2137.405 2107436
1997.8932 650.84937 2136.2979 2370608
2009.6106 650.30988 2134.5271 2436400
2022.2548 650.07544 2133.7576 2567986
2033.2864 649.3291 2131.3079 2567986
2028.3439 643.52441 2112.2551 2370607
2037.1586 642.13147 2107.6829 2436399
2050.3638 642.13147 2107.6829 2370606
2059.5759 640.88892 2103.6045 2107436
2073.5168 641.12427 2104.377 2107435
2079.228 638.82806 2096.8401 2239021
2116.1555 646.09155 2120.6812 2633779
2125.1499 644.78925 2116.4065 2436400
2118.0491 638.6499 2096.2554 2436400
2130.5464 638.45917 2095.6294 2436400
2147.0769 639.47205 2098.9539 2567986
nan nan nan 16777215
nan nan nan 16777215
nan nan nan 16777215
nan nan nan 16777215
nan nan nan 16777215
nan nan nan 16777215
nan nan nan 16777215
nan nan nan 16777215
nan nan nan 16777215
nan nan nan 16777215
nan nan nan 16777215
-1879.7454 644.47498 2072.9705 2436912
-1862.9323 643.1543 2068.7224 2436912
-1848.0101 642.4726 2066.5298 2305326
-1834.1735 642.16125 2065.5283 2173740
-1821.2323 642.16125 2065.5283 2436912
-1802.3036 640.03497 2058.689 2568498
-1789.7256 640.1496 2059.0576 2436912
-1770.7965 637.9776 2052.0715 2436912
-1754.6763 636.79333 2048.2622 2305326
-1733.4093 633.7099 2038.3444 2305326
-1717.4452 632.53387 2034.5616 2371119
-1699.1919 630.49084 2027.9901 2239533
-1681.5574 628.64832 2022.0636 2042154
-1667.8431 628.25452 2020.797 2042154
-1659.6493 629.95007 2026.2507 2107947
-1639.29 627.01862 2016.8215 2305326
-1624.1718 626.06171 2013.7438 2239533
-1608.5913 624.9104 2010.0405 2239533
-1592.4207 623.50983 2005.5354 2107947
-1578.1481 622.836 2003.368 2107947
-1562.6298 621.65582 1999.572 1976361
-1549.8943 621.57257 1999.3042 1910568
-1536.2672 621.1275 1997.8727 2042154
-1523.6304 621.07874 1997.7158 1844775
-1515.132 622.73016 2003.0277 2042154
-1508.4832 625.17566 2010.8937 2042154
-1496.2916 625.34589 2011.4413 2239533
-1486.4973 626.52942 2015.248 2436912
-1462.2758 621.60028 1999.3934 2371119
-1443.1481 618.77008 1990.29 2502705
-1430.0692 618.50671 1989.4427 2765877
-1429.1058 623.52466 2005.5831 2502705
-1429.6169 629.2807 2024.0975 1976361
-1419.4459 630.39569 2027.6841 2173740
-1398.2618 626.59558 2015.4609 2305326
-1387.2679 627.33429 2017.837 2305326
-1378.5382 629.11993 2023.5804 2371119
-1369.7288 630.90192 2029.3124 2239533
-1362.1356 633.28278 2036.9706 2173740
-1349.7594 633.46405 2037.5533 2831670
-1332.8756 631.51294 2031.2778 2963255
-1320.7887 631.81891 2032.262 2700083
-1312.9159 634.16644 2039.8127 2700084
-1304.5062 636.29822 2046.6696 2963254
-1299.2264 640.0141 2058.6218 2502703
-1281.17 637.44745 2050.3662 2568495
-1265.1141 635.83423 2045.1772 2831667
-1250.0067 634.66962 2041.4313 2765875
-1238.4745 635.315 2043.5071 2897461
-1227.3679 636.1944 2046.3357 3029049
-1212.3247 635.03027 2042.5914 3029049
-1199.5272 635.03027 2042.5914 2897463
-1191.7418 637.71234 2051.2183 2963513
-1171.1697 633.53595 2037.7847 3094842
-1158.2162 633.43408 2037.4572 3292222
-1144.724 633.0321 2036.1642 3292219
-1134.2184 634.29132 2040.2145 3226426
-1121.6016 634.38513 2040.5161 3292219
-1107.7372 633.76721 2038.5286 3226425
-1093.7941 633.08936 2036.3484 3160633
-1079.8728 632.40833 2034.1578 3094583
-1079.2546 639.59479 2057.2732 2897204
-1065.4535 639.04797 2055.5144 2962997
-1052.5016 639.00336 2055.3708 3226426
-1037.2255 637.52911 2050.6289 3160376
-1024.3777 637.52911 2050.6289 3028790
-1013.1624 638.55804 2053.9385 3094583
-1003.0449 640.31427 2059.5874 3094583
-989.93164 640.17883 2059.1519 3028790
-976.01801 639.51556 2057.0183 2962997
-985.54211 654.39697 2104.8848 3423293
-968.38678 651.72681 2096.2961 3554880
-943.90332 643.98352 2071.3896 3489087
-930.83331 643.91986 2071.1848 3291708
-917.85675 643.91986 2071.1848 3028536
-904.24237 643.466 2069.7251 2699315
-889.95178 642.5108 2066.6526 2831158
-877.82928 643.11572 2068.5984 3028536
-865.91791 643.89575 2071.1074 3028536
-851.26306 642.62854 2067.0312 2634291
-841.69244 645.21948 2075.3652 2897463
-829.81134 646.09283 2078.1743 2963256
-810.90076 641.43372 2063.188 2634291
-801.23468 644.0545 2071.6179 2963256
-787.57471 643.49835 2069.8291 2897463
-776.28613 644.89355 2074.3169 2963256
-764.58136 645.98474 2077.8267 3489600
-748.25232 643.13904 2068.6733 3292221
-733.78595 641.8222 2064.4377 3029562
-721.86725 642.7265 2067.3464 2832439
-708.20355 642.08179 2065.2727 3226941
-694.22906 641.12604 2062.1985 3292734
-680.72974 640.58118 2060.4458 3358784
-669.28809 641.98901 2064.9741 3292991
-659.75397 645.31805 2075.6824 2897976
-648.34778 646.91315 2080.813 3226941
-638.06348 649.71606 2089.8286 3095099
-618.6239 643.11859 2068.6077 2897463
-601.56891 638.77094 2054.6233 2897463
-593.00317 643.4444 2069.6555 3226428
-578.00085 641.18658 2062.3933 3621186
-567.64264 644.09515 2071.7488 2765877
-551.02246 639.86823 2058.1528 2437682
-538.51733 640.33179 2059.6438 2569011
-525.14642 639.76337 2057.8154 2700597
-512.07953 639.5459 2057.116 2503218
-498.49664 638.65631 2054.2546 2437682
-485.78604 638.8667 2054.9312 2569011
-477.70184 645.33838 2075.7476 2766390
-464.69662 645.33838 2075.7476 2897977
-452.8595 647.00714 2081.1152 3160635
-438.66583 645.30829 2075.6509 3094842
-425.17007 644.56372 2073.2559 2963256
-412.18045 644.56372 2073.2559 2831670
-399.42435 644.94073 2074.4685 2897463
-387.72031 647.09894 2081.4104 2897463
-373.1423 644.44385 2072.8704 2831670
-359.20551 642.74463 2067.4048 2831670
-344.59509 639.66791 2057.5083 2765877
-334.01431 644.12286 2071.8379 2700084
-321.41568 644.8894 2074.3035 2897463
-307.09949 642.12933 2065.4255 2831670
-293.99112 641.76294 2064.2471 2765877
-282.12482 644.19891 2072.0825 3094842
-269.9928 646.23389 2078.6282 3095099
-255.83939 643.39178 2069.4863 2765877
-242.34021 641.97937 2064.9431 3686979
-229.48198 642.20117 2065.6567 3555393
-217.24043 644.2785 2072.3384 3358014
-202.92052 640.06415 2058.783 3292221
-189.46979 638.20538 2052.8042 2897463
-176.75134 638.72223 2054.4666 2305583
-164.95128 642.89966 2067.9033 2963256
-152.43375 644.75446 2073.8694 2897204
-138.45723 640.2088 2059.248 2436654
-127.07393 647.95172 2084.1536 2502446
-114.99902 653.5379 2102.1216 1778724
-101.06824 648.65808 2086.4255 1581344
-87.569702 645.51465 2076.3145 2305067
-74.78508 647.45502 2082.5559 2436910
-61.614594 646.16907 2078.4194 2634033
-48.416752 643.82996 2070.8958 2371119
-35.335709 641.90009 2064.6882 1778982
-22.369627 641.03546 2061.9072 1713189
-9.5914497 650.55231 2092.5183 2173740
3.5102015 648.95789 2087.3899 2437169
16.492783 645.21936 2075.3647 2305069
29.734497 650.44562 2092.175 2108716
42.930061 651.77301 2096.4448 2963769
55.92622 650.1604 2091.2578 2832183
68.528923 645.4541 2076.1199 2569011
81.775177 647.34387 2082.1982 2569011
94.700386 646.52179 2079.5542 2503218
107.56347 645.52576 2076.3503 2437425
120.5568 645.44202 2076.0811 2437168
133.55289 645.38788 2075.9067 2371119
146.08084 643.28186 2069.1328 2371119
159.0446 643.28186 2069.1328 2436912
171.24585 640.43018 2059.9602 2371119
185.3894 644.73303 2073.8005 2042154
198.49736 645.10663 2075.0022 2107947
211.54092 645.23792 2075.4246 2107947
224.54411 645.23792 2075.4246 2305326
236.69781 642.93054 2068.0027 2108717
249.65448 642.93054 2068.0027 2305325
262.79935 643.3913 2069.4846 2239276
276.38007 644.8255 2074.0979 2173484
289.27628 644.60565 2073.3909 1976618
299.7182 639.17078 2055.9094 2240046
313.29422 640.59204 2060.481 2700597
326.03326 640.25726 2059.4041 2240045
337.64661 637.82141 2051.5691 2174251
350.33392 637.51862 2050.5952 2240044
362.65619 636.59644 2047.6289 2437423
379.78214 643.88141 2071.0613 2503216
393.15894 644.5387 2073.1755 2634802
408.78906 648.72998 2086.6567 2437423
421.86261 648.72998 2086.6567 2305067
432.85922 645.63214 2076.6924 2173738
446.45898 646.48444 2079.4341 2107945
458.87909 645.62878 2076.6816 2239531
471.89014 645.62878 2076.6816 2634289
484.02701 644.46478 2072.9377 2502703
495.66937 642.72046 2067.3271 2436910
507.88052 641.78369 2064.314 2239532
520.24573 641.08337 2062.0613 2042667
532.55731 640.35248 2059.7102 2042667
546.46252 641.52692 2063.488 2108460
562.35388 644.92499 2074.418 2305839
570.24506 639.20197 2056.0095 2634804
581.4845 637.40192 2050.2197 2897976
591.65906 634.53766 2041.0068 2634804
604.44659 634.53766 2041.0068 2635061
615.43884 632.69202 2035.0702 2700854
633.66443 638.20654 2052.8079 2569011
643.23322 634.95618 2042.353 2437425
656.64764 635.55481 2044.2784 2831926
669.33295 635.43829 2043.9037 2897976
688.7392 641.58691 2063.6809 2700341
701.66876 641.58691 2063.6809 2634804
709.79828 637.27728 2049.8188 2634548
723.47406 638.01184 2052.1816 2634291
734.56866 636.48431 2047.2683 2568755
750.21002 638.88123 2054.978 2568498
763.08508 638.88123 2054.978 2568498
775.09497 638.16888 2052.6868 2568498
788.22784 638.38934 2053.3958 2568498
804.37683 641.00623 2061.813 3029049
817.29474 641.00623 2061.813 2897463
833.18176 643.29865 2069.1868 2568498
845.99237 643.18201 2068.8115 2568498
858.95142 643.17993 2068.8049 2502705
874.42938 645.03607 2074.7751 2305326
889.82196 646.77582 2080.3711 2173740
903.07172 646.93024 2080.8679 2173740
911.87939 643.94336 2071.2605 2239533
927.32629 645.66309 2076.792 2239533
942.12738 646.89172 2080.7439 2436912
954.34839 646.33936 2078.9673 2634291
964.66003 644.52618 2073.1353 2700084
976.81384 643.97571 2071.3645 2700084
990.67987 644.55359 2073.2234 2634291
1005.8037 645.92438 2077.6326 2700084
1015.3862 643.74695 2070.6287 2700084
1021.2687 639.30817 2056.3513 2371376
1039.4558 642.58679 2066.897 2502962
1052.4055 642.58679 2066.897 2831927
1052.0566 634.56543 2041.0962 2963256
1070.7072 638.05896 2052.3333 2765877
1089.1478 641.34607 2062.9062 2568498
1105.4636 643.31952 2069.2539 2634291
1115.8463 641.83447 2064.4771 2371119
1127.8922 641.32904 2062.8516 2436912
1137.0917 639.23511 2056.1162 2634548
1143.3151 635.53363 2044.2103 2700084
1158.4849 636.83209 2048.387 2700084
1175.1232 638.90063 2055.0403 2831670
1188.3003 639.06287 2055.5623 2963256
1200.6162 638.76343 2054.5991 2766134
1213.4889 638.76343 2054.5991 2897463
1221.3521 636.15417 2046.2063 3029049
1233.9573 636.04333 2045.8499 2963256
1241.9227 633.56787 2037.8875 2831670
1253.142 632.78589 2035.3722 2831670
1263.3185 631.49829 2031.2306 2436912
1279.5723 633.24402 2036.8457 2371119
1285.9089 630.09583 2026.7196 2502705
1296.6008 629.1225 2023.5887 2700084
1309.2793 629.1225 2023.5887 2568755
1331.7428 633.77924 2038.5673 2502704
1352.2101 637.40656 2050.2346 1976105
1370.5887 639.9903 2058.5454 1975591
1377.814 637.36639 2050.1055 2172970
1380.6614 632.78448 2035.3677 2436398
1401.7944 636.59045 2047.6096 2173227
1422.751 640.24792 2059.374 2173227
1441.7505 642.96692 2068.1199 2370606
1465.1809 647.59595 2083.009 2238764
1479.1763 648.00977 2084.3401 2107434
1490.3008 647.16968 2081.6379 2239533
1496.8698 644.38306 2072.6748 2371119
1516.5225 647.22833 2081.8267 2502705
1538.3414 650.94177 2093.771 2502705
1544.3821 647.97223 2084.2195 2831670
1553.7922 646.45441 2079.3374 2963256
1568.0854 646.97656 2081.0168 3094842
1583.2911 647.86346 2083.8696 2963256
1595.4257 647.4895 2082.6667 2765877
1609.0702 647.72931 2083.4382 2634291
1626.8707 649.625 2089.5356 2502705
1639.9624 649.625 2089.5356 2436912
1656.4335 650.95306 2093.8074 2305326
1665.5341 649.38654 2088.7686 2305326
1683.6102 651.31677 2094.9773 2239533
1698.6107 652.03638 2097.292 2305326
1712.3077 652.24847 2097.9741 2107947
1745.7096 659.90613 2122.6052 1779239
1735.6 651.12433 2094.3582 1910824
1751.8119 652.2749 2098.0591 2042410
1767.6934 653.28625 2101.312 2239533
1786.7507 655.44757 2108.2642 2305326
1799.9596 655.44757 2108.2642 2305326
1814.5619 655.95129 2109.8843 2305326
1827.7184 655.92883 2109.812 2173740
1837.7339 654.78754 2106.1411 2239533
1851.0443 654.82819 2106.2717 2305326
1863.5409 654.58234 2105.481 2305326
1876.2106 654.40027 2104.8955 2239533
1889.3984 654.40027 2104.8955 2305326
1911.7537 657.55353 2115.0378 2436912
1910.1171 652.46796 2098.6802 2371119
1925.1954 653.12256 2100.7856 2107435
1934.5472 651.83868 2096.656 2173228
1944.5367 650.78552 2093.2686 2567985
1951.7979 648.8396 2087.0093 2502192
1956.0415 645.92303 2077.6282 2567986
1966.3545 645.03607 2074.7751 2633779
1979.2892 645.01501 2074.7075 2502193
1986.2115 643.04779 2068.3799 2239021
1999.1705 643.04779 2068.3799 2107435
2006.4969 641.24762 2062.5896 2107435
2012.3262 638.99518 2055.3445 2173228
2021.5795 637.85168 2051.6665 2304814
2034.9106 638.00122 2052.1475 2436400
2041.1161 635.92877 2045.4813 2436400
2050.9663 635.01062 2042.5281 2436401
2063.5098 634.93262 2042.2772 2370607
2069.8223 632.95013 2035.9005 2502193
2079.1819 631.91803 2032.5806 2502193
nan nan nan 16777215
nan nan nan 16777215
nan nan nan 16777215
nan nan nan 16777215
nan nan nan 16777215
nan nan nan 16777215
nan nan nan 16777215
nan nan nan 16777215
nan nan nan 16777215
nan nan nan 16777215
nan nan nan 16777215
-1807.212 632.02734 1992.9812 2239533
-1798.4971 633.35547 1997.1693 2107947
-1785.4908 633.18054 1996.6177 2107947
-1778.4165 635.12164 2002.7384 2173740
-1770.3049 636.7171 2007.7695 2107947
-1748.0645 633.21753 1996.7341 2173740
-1733.7615 632.56335 1994.6715 2305326
-1720.0125 632.10339 1993.2209 2173740
-1702.094 630.09314 1986.8821 2107947
-1688.745 629.75732 1985.823 1910568
-1673.8577 628.83856 1982.9259 1647396
-1659.3105 628.03491 1980.3917 1647396
-1652.7578 630.26758 1987.4323 1910568
-1631.6973 626.9599 1977.0018 2107947
-1620.6095 627.46271 1978.5874 2173740
-1599.1094 623.91083 1967.3872 2371119
-1584.3654 622.96014 1964.3895 2239533
-1570.4556 622.3252 1962.3873 2042154
-1552.7865 620.17883 1955.6191 1844775
-1541.356 620.50977 1956.6626 1713189
-1526.0575 619.27643 1952.7734 1647396
-1512.91 618.90295 1951.5959 1844775
-1501.7366 619.33759 1952.9666 2107947
-1487.8325 618.64398 1950.7793 2371119
-1481.1221 620.95483 1958.066 2305326
-1469.5347 621.24249 1958.9731 2305326
-1461.2249 622.93231 1964.3016 2371119
-1454.24 625.2204 1971.5167 2700084
-1441.8878 625.2204 1971.5167 2765877
-1426.2651 623.78998 1967.0062 2766134
-1410.5681 622.30188 1962.3137 2831927
-1393.7703 620.29767 1955.9938 2568498
-1392.2297 625.1084 1971.1636 2700084
-1382.2289 626.17261 1974.5194 2634291
-1370.1519 626.30695 1974.943 2568498
-1361.672 628.10303 1980.6066 2634291
-1350.9656 628.89563 1983.106 2371119
-1345.9471 632.37543 1994.0789 2107947
-1350.0228 640.23315 2018.8568 2042154
-1323.5021 633.59235 1997.9163 2502962
-1320.2655 638.07782 2012.0602 2963257
-1292.1218 630.49622 1988.1531 2765877
-1283.2509 632.26276 1993.7235 2700341
-1273.5752 633.66376 1998.1412 2765877
-1265.6967 635.99542 2005.4938 2634292
-1252.4691 635.65918 2004.4335 2700341
-1239.1964 635.29303 2003.2788 2897463
-1223.5979 633.71478 1998.3022 2765877
-1209.0533 632.65533 1994.9615 2963256
-1207.068 638.21429 2012.4906 3292221
-1188.6451 635.10779 2002.6948 3094842
-1172.9349 633.39996 1997.3094 3029049
-1161.885 634.19891 1999.8289 3094842
-1148.7709 633.87634 1998.8116 3423805
-1123.4005 626.70935 1976.2118 3292219
-1114.9193 628.90948 1983.1495 2962997
-1102.4803 628.90155 1983.1246 2831154
-1089.8925 628.8075 1982.828 2831411
-1077.8756 629.04456 1983.5756 2831411
-1065.7605 629.22913 1984.1575 2831411
-1058.1008 632.07953 1993.1459 3160376
-1040.3112 628.87451 1983.0393 3357755
-1031.1239 630.85492 1989.2843 3226169
-1019.7594 631.53558 1991.4305 3357755
-1001.225 627.73779 1979.4548 3357755
-998.41223 633.82526 1998.6505 3094583
-988.46063 635.47784 2003.8617 2962997
-976.64886 635.96167 2005.3873 2962997
-965.69763 637.02576 2008.7428 2962997
-953.34192 637.17932 2009.2269 2897204
-946.62744 641.15778 2021.7723 3291963
-932.93079 640.45093 2019.5435 3160632
-924.21124 643.18842 2028.1757 3357755
-908.09613 640.78363 2020.5925 2963252
-889.46082 636.50739 2007.1082 2962995
-879.03003 638.06396 2012.0165 3028789
-869.89154 640.61743 2020.0684 2963255
-860.20398 642.83606 2027.0645 3094842
-844.57513 640.61462 2020.0597 2831670
-832.4458 641.02045 2021.3392 2634291
-825.91943 645.81995 2036.4736 2963256
-810.89771 644.02295 2030.8071 3226428
-790.37268 637.72827 2010.958 2963256
-781.05933 640.42249 2019.4537 2963256
-772.12762 643.52362 2029.2325 3226428
-759.41388 643.52362 2029.2325 3292221
-747.1947 643.94995 2030.5768 3160635
-733.2301 642.86053 2027.1417 3094842
-718.28174 640.85516 2020.8181 2963257
-701.51532 637.12665 2009.0609 2831927
-692.65057 640.56934 2019.9169 2766134
-679.21796 639.83716 2017.6082 2700341
-666.59448 639.854 2017.6611 2963512
-653.95325 639.854 2017.6611 3095355
-636.23053 634.78418 2001.6743 2634547
-622.1853 633.25323 1996.8468 2436912
-613.75836 637.49512 2010.2228 2897463
-604.11853 640.62854 2020.1034 2897720
-587.53534 636.37549 2006.6923 2173997
-574.96277 636.37549 2006.6923 2963256
-572.15637 647.42633 2041.5392 3292478
-560.22504 648.42133 2044.6765 2700084
-546.62817 647.48987 2041.7395 2699827
-526.2334 638.26862 2012.6619 2502962
-513.336 637.91138 2011.5354 2700084
-500.05524 637.04785 2008.8124 2437425
-488.22043 638.0293 2011.9073 2568755
-475.17136 637.43384 2010.0297 2437425
-463.66016 638.92529 2014.7325 2371632
-452.80582 641.43054 2022.6324 2437425
-439.28674 640.19672 2018.7417 2700084
-426.69287 640.27795 2018.998 2831927
-414.04321 640.27795 2018.998 2766134
-401.48837 640.4292 2019.4749 2700084
-389.15302 640.95184 2021.1228 2765877
-374.56302 637.67114 2010.7778 2700084
-361.50455 636.86017 2008.2206 2634291
-346.28351 632.04358 1993.0323 2700084
-338.19278 640.36786 2019.2814 2305326
-323.36261 636.08209 2005.767 2305326
-312.58423 639.74219 2017.3085 2831670
-297.47641 634.47668 2000.7047 2634291
-284.94138 634.47668 2000.7047 2502705
-271.93143 633.37048 1997.2166 3029049
-260.9971 637.22528 2009.3719 3292221
-248.40778 637.22528 2009.3719 3160635
-235.92995 637.52667 2010.3223 3358014
-224.19025 639.96899 2018.0237 3489600
-211.82411 640.80823 2020.67 3292221
-198.06921 637.28577 2009.5627 3029049
-184.48026 633.85535 1998.7454 2831670
-171.44128 631.95245 1992.7451 3029049
-159.37289 633.60944 1997.9701 3029306
-147.43402 636.1076 2005.8477 2502705
-136.78998 645.17865 2034.4513 2765877
-123.79997 643.91193 2030.457 2831670
-109.92142 637.20428 2009.3058 2700084
-99.114792 648.87238 2046.0989 2371119
-86.233391 648.40656 2044.63 2305326
-73.615631 650.10632 2049.99 2700341
-60.583397 648.09082 2043.6344 2765877
-47.571404 645.26965 2034.7383 2634548
-34.883957 646.39661 2038.2921 2107947
-22.113428 646.39661 2038.2921 1910568
-9.3643675 647.88226 2042.9768 2107947
3.4583259 652.1839 2056.5413 2831670
16.328465 651.59613 2054.6877 2964026
28.811705 642.89349 2027.2455 2634804
42.157417 652.87286 2058.7136 2700854
54.699638 648.64819 2045.392 2569011
67.15934 645.23456 2034.6277 2371632
79.983772 645.85516 2036.5846 2437682
92.608879 644.91693 2033.6261 2240046
104.843 641.81219 2023.8359 1911081
117.71862 642.88074 2027.2053 2042667
130.72893 644.40503 2032.012 2107947
144.32994 648.31219 2044.3324 2700084
156.96973 647.61664 2042.1392 2831670
167.99678 640.8736 2020.8763 2765877
180.15065 639.07318 2015.1989 2831670
193.75981 642.33295 2025.4781 2831670
206.70988 643.14136 2028.0271 2897463
217.4861 637.48419 2010.1884 2765877
230.15771 637.69806 2010.8627 2766390
241.19583 633.59857 1997.9359 2766390
252.54694 630.6853 1988.7493 2437425
265.12653 630.9696 1989.6458 2305839
278.61841 633.302 1997.0005 2371632
292.58029 636.45636 2006.9471 2305839
305.01984 636.1756 2006.062 2371632
317.63376 636.26642 2006.3483 2239531
330.99438 637.78906 2011.1497 2173738
344.06659 638.66467 2013.9108 2173738
358.65985 642.2019 2025.0648 2239275
372.87677 644.84656 2033.4043 2371116
383.1806 640.77289 2020.5586 2503472
394.65643 638.85693 2014.517 2503216
412.04993 646.3421 2038.1201 2502703
422.40329 642.6662 2026.5288 2436910
431.69177 637.63184 2010.6539 2371117
445.45126 639.29968 2015.9132 2305324
460.05219 642.04987 2024.5853 2107945
471.52686 640.40649 2019.4033 2042152
483.75272 639.84265 2017.6252 2305324
495.29248 638.4231 2013.149 2042153
510.90637 642.19519 2025.0436 2042154
525.67487 644.74744 2033.0917 2700597
535.66553 641.45752 2022.7177 2240046
549.56506 642.89252 2027.2424 2240046
562.26636 642.89252 2027.2424 2306096
564.79266 631.5155 1991.3672 2371889
577.10651 631.33746 1990.8059 2766390
589.00427 630.7215 1988.8634 2766390
601.06903 630.30615 1987.5537 2766390
614.54462 631.35706 1990.8676 2634804
632.7608 637.13953 2009.1016 2634804
649.3053 641.04614 2021.4203 2964025
661.97015 641.04614 2021.4203 3160892
667.15961 633.94293 1999.0216 2437681
679.61707 633.88043 1998.8246 2240046
690.19867 632.10217 1993.2172 2502705
703.84668 633.14557 1996.5072 2700084
715.4068 632.30713 1993.8634 2634291
729.89783 634.04352 1999.3387 2502705
743.25745 634.75507 2001.5825 2765877
757.85071 636.479 2007.0188 2897463
770.42535 636.479 2007.0188 2700084
785.76947 638.73029 2014.1177 2831670
797.6767 638.16083 2012.322 2765877
817.2193 643.6225 2029.5443 2173740
823.35297 638.51801 2013.4484 2173740
839.65857 641.33698 2022.3375 2634291
851.31274 640.57227 2019.9259 2765877
864.66388 641.08801 2021.5524 2436912
876.39532 640.4054 2019.3998 2371119
889.89429 641.01538 2021.3234 2107947
907.34894 644.4176 2032.0516 1976361
927.86597 649.87054 2049.2466 2173740
940.32385 649.60724 2048.416 2502705
939.52759 640.31781 2019.1235 2502705
955.23553 642.37384 2025.6069 2634548
974.78131 646.9231 2039.9521 2436912
983.87219 644.50586 2032.3298 2239533
983.18524 635.82703 2004.9628 2107947
992.74268 633.90863 1998.9136 2042154
1012.0214 638.16827 2012.3455 2239533
1024.6294 638.16827 2012.3455 2700084
1032.3197 635.14264 2002.8046 2897463
1053.9662 640.67316 2020.2443 2765877
1077.1975 647.02441 2040.2717 2436912
1088.937 646.40503 2038.3186 2173740
1092.9139 641.24548 2022.0488 2173740
1108.2638 642.80048 2026.9523 2305326
1114.0088 638.8125 2014.3771 2568498
1119.1815 634.58948 2001.0604 2700084
1131.3263 634.36938 2000.3663 2634291
1143.8591 634.36938 2000.3663 2502962
1162.4119 637.67169 2010.7797 2568498
1171.2043 635.60638 2004.267 2634291
1186.1298 636.87781 2008.2762 2765877
1201.5012 638.35968 2012.949 2765877
1205.1614 633.65308 1998.1077 2700084
1210.2925 629.80872 1985.9851 2568498
1222.0516 629.45648 1984.8745 2765877
1235.8875 630.17035 1987.1256 2963256
1254.2931 633.17688 1996.606 2831670
1258.3239 628.93909 1983.2429 2700084
1272.0256 629.57068 1985.2346 2897463
1282.0281 628.37689 1981.4701 2897463
1292.3658 627.36865 1978.291 2634291
1309.0431 629.42786 1984.7843 2305326
1332.5825 634.71686 2001.4622 2305326
1343.9594 634.16815 1999.7318 2305582
1356.4883 634.16815 1999.7318 2370862
1373.6962 636.33551 2006.5663 2173484
1388.975 637.57819 2010.4847 2304813
1419.5394 645.75195 2036.2592 2173227
1432.2972 645.75195 2036.2592 1975848
1450.5176 648.19299 2043.9565 1910311
1447.5624 641.21136 2021.9414 1976361
1466.2476 643.85364 2030.2732 1976361
1486.1008 646.95886 2040.0649 2107947
1492.3989 644.16034 2031.2405 2107947
1513.3811 647.69373 2042.3822 2371119
1524.2747 646.88623 2039.8361 2305326
1536.6584 646.71942 2039.3099 2239533
1555.9474 649.4375 2047.8809 2502705
1572.6255 651.03021 2052.9033 2502705
1585.4875 651.03021 2052.9033 2568755
1600.9401 652.08539 2056.2305 2568755
1609.3615 650.28265 2050.5459 2502705
1621.0601 649.82214 2049.0938 2436912
1631.7719 648.97644 2046.427 2436912
1641.0171 647.56519 2041.9769 2371119
1656.0773 648.45276 2044.7756 2305326
1672.1731 649.729 2048.8 2634291
1673.6566 645.35138 2034.9961 2634291
1696.0839 649.05475 2046.674 1976361
1726.4193 655.70605 2067.6477 1778726
1746.2849 658.3114 2075.863 2107434
1743.4136 652.3703 2057.1289 2239019
1753.2446 651.23456 2053.5476 2304813
1768.1516 651.98712 2055.9207 2370349
1780.4882 651.78784 2055.2922 2305326
1792.9857 651.64984 2054.8572 2173740
1813.1484 654.27991 2063.1506 2371119
1829.3096 655.43896 2066.8054 2700084
1838.5394 654.11572 2062.6328 2305326
1854.8446 655.31067 2066.4009 2239533
1852.9791 650.11389 2050.0137 2239533
1859.0538 647.75513 2042.5759 2371119
1868.2107 646.49536 2038.6035 2502448
1883.9224 647.50562 2041.7891 2502192
1892.9098 646.20667 2037.693 2633778
1900.0111 644.28546 2031.635 2633778
1907.1245 642.39404 2025.6707 2567984
1915.8473 641.06598 2021.4829 2567985
1923.9794 639.55914 2016.7313 2436400
1931.2656 637.7926 2011.1609 2239022
1939.066 636.21765 2006.1946 2239021
1949.3713 635.47955 2003.8671 2370607
1956.9258 633.85986 1998.7598 2304814
1967.7532 633.31421 1997.0391 2239021
1984.739 634.745 2001.5508 2370607
1990.5 632.59052 1994.757 2370607
1996.5458 630.5528 1988.3315 2304814
2007.9714 630.22888 1987.3102 2304814
2020.4225 630.22888 1987.3102 2370607
2037.6267 631.70245 1991.9568 2436400
nan nan nan 16777215
nan nan nan 16777215
nan nan nan 16777215
nan nan nan 16777215
nan nan nan 16777215
nan nan nan 16777215
nan nan nan 16777215
nan nan nan 16777215
nan nan nan 16777215
nan nan nan 16777215
nan nan nan 16777215
-1769.3905 630.96082 1951.2719 2107947
-1759.8496 631.92474 1954.2527 2107947
-1747.115 631.74738 1953.7041 2107947
-1734.8624 631.74298 1953.6906 2107947
-1717.4729 629.85455 1947.8507 1976361
-1698.0138 627.17487 1939.5635 1910568
-1689.9597 628.6994 1944.2782 1910568
-1679.4916 629.34137 1946.2635 2042154
-1669.705 630.25006 1949.0737 2042154
-1649.4204 627.18036 1939.5806 2107947
-1640.0955 628.26337 1942.9298 1976361
-1629.9075 629.02948 1945.299 1778982
-1627.8112 632.95343 1957.434 1778982
-1622.6815 635.7486 1966.0781 2305326
-1592.931 628.86652 1944.795 2305326
-1558.8147 620.14154 1917.8126 2436912
-1546.4513 620.00208 1917.3815 2305327
-1525.8538 616.53339 1906.6544 1976361
-1512.0494 615.77649 1904.3137 1910568
-1507.4897 618.80237 1913.6713 1910568
-1510.2898 624.92206 1932.5967 2239533
-1485.5355 619.64716 1916.2839 2239533
-1459.0248 613.54767 1897.421 2371119
-1447.7225 613.79602 1898.189 2305326
-1441.7886 616.34332 1906.0667 2502705
-1433.7131 618.01007 1911.2211 2502705
-1431.1488 622.10052 1923.8708 2634291
-1423.5564 624.05621 1929.9189 2897463
-1411.4648 624.05621 1929.9189 2963256
-1391.3087 620.45978 1918.7969 2700084
-1378.3879 620.05542 1917.5464 2436912
-1365.4314 619.62769 1916.2236 2568755
-1360.7131 622.96405 1926.5414 2765877
-1357.7363 627.16455 1939.5316 2897463
-1343.7251 626.29779 1936.8513 3094842
-1326.9642 624.12213 1930.1229 3226428
-1320.3304 626.71338 1938.1364 3226428
-1312.9214 628.9812 1945.1498 3094842
-1297.8582 627.59033 1940.8485 2831670
-1282.4222 625.99127 1935.9033 2765877
-1275.4686 628.54175 1943.7906 3160635
-1262.3064 628.05225 1942.2769 2897463
-1250.8113 628.39081 1943.3239 2765877
-1246.3418 632.30029 1955.4141 2831670
-1235.9535 633.25482 1958.366 3029049
-1219.7693 631.22906 1952.1013 3029049
-1205.8829 630.36353 1949.4246 3029049
-1193.6692 630.36353 1949.4246 3094842
-1179.5431 629.3432 1946.2692 3226428
-1171.1768 631.40674 1952.6508 3160635
-1158.9427 631.40674 1952.6508 3094842
-1146.405 631.23938 1952.1333 2963256
-1136.3572 632.45428 1955.8905 3226428
-1124.2122 632.51575 1956.0806 3358012
-1107.5309 629.99823 1948.295 3028789
-1102.6053 634.1861 1961.2461 2765361
-1078.438 627.27631 1939.8773 2831411
-1063.2522 625.4928 1934.3617 3028790
-1052.4703 626.28864 1936.8229 3028790
-1043.2572 628.04749 1942.2622 2962997
-1034.327 630.02026 1948.3632 3423548
-1022.1199 630.02026 1948.3632 3226169
-1015.9243 633.77045 1959.9607 2897204
-1003.4892 633.67236 1959.6573 3160376
-991.97961 634.16351 1961.1761 3094583
-976.38739 632.02423 1954.5605 2831668
-963.14215 631.3692 1952.5347 2897204
-953.13989 632.85046 1957.1155 2962997
-942.24878 633.77252 1959.967 2897204
-935.25854 637.37732 1971.1151 3028790
-922.90649 637.37573 1971.1101 2962742
-910.55688 637.37573 1971.1101 2765618
-896.06683 635.85681 1966.4128 2699570
-884.22528 636.20123 1967.4779 2699828
-873.0412 637.03503 1970.0566 2897464
-860.89014 637.17712 1970.496 2831926
-848.7644 637.34235 1971.007 2765877
-836.17218 637.15704 1970.4338 2765877
-824.06152 637.3385 1970.9951 2568498
-814.8302 639.78638 1978.5652 2765877
-805.37518 642.13147 1985.8175 3094842
-791.7547 641.17694 1982.8656 3423807
-775.90021 638.354 1974.1355 3094842
-766.15082 640.54376 1980.9073 3029049
-752.87476 639.80859 1978.6339 3094842
-738.20935 637.84845 1972.572 3029049
-724.01465 636.23505 1967.5825 2897463
-708.63837 633.50952 1959.1537 2832183
-696.823 633.92737 1960.446 2700597
-684.3172 633.72083 1959.8074 2569011
-672.03839 633.72083 1959.8074 2569011
-662.0155 635.8877 1966.5084 2635061
-650.11511 636.29919 1967.781 2831927
-636.31158 634.82788 1963.2308 2963769
-620.64539 631.40363 1952.6411 2897976
-611.03552 634.12683 1961.0627 2371889
-597.4892 632.79272 1956.937 1581860
-584.4856 631.9895 1954.4531 1713189
-572.24036 631.9895 1954.4531 1450017
-560.90582 633.0174 1957.6318 2897463
-554.74738 640.06317 1979.4213 3358014
-546.53619 645.00873 1994.7156 2700084
-534.29175 645.31445 1995.6609 2568498
-519.22742 642.14734 1985.8666 2436912
-506.78537 642.14734 1985.8666 2371632
-492.59064 639.87061 1978.8257 2766390
-482.19656 642.54089 1987.0835 3226941
-467.83188 639.92145 1978.9829 2700340
-454.72916 638.93262 1975.9248 2437169
-442.3494 638.93262 1975.9248 2568755
-430.64017 639.92902 1979.0063 2371119
-415.33118 635.47675 1965.2374 2107947
-404.50894 637.82709 1972.506 2305326
-393.32999 639.74536 1978.4384 2765877
-380.35452 638.77148 1975.4265 2568498
-364.14426 632.1167 1954.8464 2436912
-352.0368 632.36865 1955.6256 2436912
-339.9931 632.75745 1956.8279 2634291
-328.84714 634.90857 1963.4803 2306095
-317.1232 636.06763 1967.0648 2569011
-308.03003 642.81049 1987.9174 2766646
-291.25778 633.4212 1958.8807 2569268
-279.08041 633.63831 1959.5521 2568754
-266.53397 632.99896 1957.5747 2634291
-254.29619 633.06616 1957.7827 3621186
-242.24713 633.63397 1959.5387 3029049
-230.02489 633.78516 1960.0062 3160635
-217.74486 633.78516 1960.0062 3226428
-202.82819 625.65222 1934.8546 2963256
-190.51796 625.03619 1932.9496 2502705
-180.97267 634.02325 1960.7426 2568498
-169.47778 636.99164 1969.9225 2436912
-156.49391 634.39038 1961.8778 2371119
-144.37933 635.16992 1964.2886 2436912
-132.27684 636.15283 1967.3282 2305326
-119.95091 636.15283 1967.3282 2568498
-107.8234 637.32556 1970.9551 2502705
-95.474754 637.32556 1970.9551 2371119
-83.661385 641.4295 1983.6466 2305583
-71.395752 642.89307 1988.1727 2700084
-59.023895 643.81653 1991.0286 2831670
-46.540215 643.68829 1990.632 2700084
-34.068287 643.68829 1990.632 2502705
-21.593264 643.59589 1990.3463 2239533
-9.0858593 640.96686 1982.2159 2436912
3.3191521 638.23889 1973.7795 2897463
15.730393 640.06586 1979.4296 2831927
28.141577 640.28076 1980.0941 2634804
40.583149 640.84399 1981.8358 2437425
53.242146 643.77228 1990.8918 2240046
65.753807 644.14557 1992.0461 2371632
78.27346 644.46558 1993.0359 2305839
90.687508 643.94763 1991.4341 2305839
102.72778 641.22198 1983.0049 2240046
115.27998 641.93506 1985.2101 2305582
128.94275 648.09119 2004.2482 2568498
141.39453 647.60815 2002.7544 2700084
153.42697 645.43982 1996.0487 2765877
164.91003 641.46136 1983.7452 2766134
176.68152 639.0838 1976.3925 2765877
188.92586 638.61609 1974.9462 2765877
201.14314 638.12006 1973.412 2700084
213.23109 637.29492 1970.8602 2700084
225.20006 636.22388 1967.5481 2700597
236.76947 634.19391 1961.2703 2832440
248.51881 632.82233 1957.0286 2766647
259.19211 628.96863 1945.1108 2108460
271.82571 630.00433 1948.3138 2305839
284.0325 630.00433 1948.3138 2305839
295.06995 627.51752 1940.6232 2437425
306.17917 625.37415 1933.9948 2700082
320.00015 628.72186 1944.3478 2239531
332.94958 630.17456 1948.8402 2305324
346.18253 632.04199 1954.6154 2436910
358.4631 632.10248 1954.8025 2437680
371.06281 632.70312 1956.6599 2437679
383.88403 633.63098 1959.5293 2635059
396.23254 633.7453 1959.8829 2831668
410.10764 636.22095 1967.5391 2634545
423.65582 638.05981 1973.2257 2502960
437.52853 640.26929 1980.0586 2437167
450.66394 641.30774 1983.27 2437167
462.60529 640.63678 1981.1952 2700082
474.99503 640.60571 1981.099 2831668
482.5304 634.19598 1961.2767 2963513
500.52893 641.51508 1983.9111 2569268
511.06873 639.15137 1976.6013 2897976
520.85388 635.97809 1966.7878 3095354
531.93091 634.49237 1962.1932 3555905
540.08014 629.66052 1947.2505 3753028
551.97693 629.31464 1946.1809 3753541
558.30188 622.76849 1925.9368 2634803
569.01221 621.28766 1921.3571 2634804
584.51257 624.98987 1932.8064 2700597
598.48376 626.93994 1938.8372 2503218
611.89423 628.23676 1942.8474 2765877
623.03058 627.19366 1939.6216 2831670
643.38654 635.29407 1964.6725 2502705
651.16211 630.90137 1951.088 2502705
663.60999 631.1142 1951.7461 2502706
675.83832 631.1142 1951.7461 2173740
688.90369 631.88202 1954.1206 2042154
698.15082 629.18201 1945.7706 2371119
712.586 631.16986 1951.9182 2502706
729.79279 635.50415 1965.3223 2897463
740.71545 634.31323 1961.6393 2831670
756.48688 637.24567 1970.708 2700084
772.15985 640.00226 1979.2329 2502705
784.56036 640.00226 1979.2329 2371119
796.26208 639.44116 1977.4976 2173740
810.54218 640.93604 1982.1206 2239533
824.23682 641.92981 1985.1938 2371119
837.10437 642.25952 1986.2135 2568498
848.14813 641.20074 1982.9392 2634291
857.43286 638.86194 1975.7063 2568498
874.88263 642.58673 1987.2255 1976361
888.16095 643.18622 1989.0792 2107947
906.47943 647.36853 2002.0132 2239533
919.02271 647.36853 2002.0132 2371119
927.87372 644.80273 1994.0785 2239533
936.92816 642.44458 1986.7858 2305326
949.37598 642.44458 1986.7858 2173740
963.17633 643.34796 1989.5795 1778982
972.52338 641.29169 1983.2205 1778982
985.79517 641.84271 1984.9246 1910568
992.63922 638.24713 1973.8049 1910568
1001.3865 635.94867 1966.6969 2173740
1013.7085 635.94867 1966.6969 2502705
1037.8158 643.25342 1989.2872 2765877
1055.4884 646.44379 1999.1536 2502705
1068.0138 646.44379 1999.1536 2239533
1068.0356 638.9635 1976.0204 2173740
1079.5918 638.47601 1974.5128 2173740
1095.7705 640.70245 1981.3983 2305326
1102.0024 637.12823 1970.3448 2502705
1109.819 634.53912 1962.3379 2634291
1122.1135 634.53912 1962.3379 2568498
1133.6083 634.09174 1960.9542 2700084
1145.8943 634.09174 1960.9542 2436912
1152.1211 630.77435 1950.6952 2305326
1164.1377 630.66327 1950.3516 2502705
1178.5134 631.81921 1953.9264 2634291
1186.9404 629.79492 1947.6663 2634291
1194.5963 627.40698 1940.2814 2634291
1204.3574 626.16162 1936.4301 2700084
1219.4946 627.70825 1941.2131 2831670
1229.2335 626.47321 1937.3936 2831670
1240.0745 625.81842 1935.3688 2963256
1250.1927 624.81519 1932.2662 2700084
1266.8734 627.07941 1939.2684 2436912
1283.1035 629.07977 1945.4546 2305326
1297.0145 629.9162 1948.0411 2305326
1311.0673 630.80511 1950.7903 2436912
1334.6315 636.21179 1967.5105 2436912
1347.155 636.30457 1967.7976 2371119
1360.0121 636.55182 1968.5621 2371119
1377.61 638.99353 1976.1133 2436912
1397.8256 642.59521 1987.2516 2634291
1411.2257 643.02783 1988.5895 2634548
1429.5911 645.69543 1996.8392 2305582
1443.3394 646.24957 1998.5527 2239533
1469.2749 652.20392 2016.967 2371119
1488.8716 655.26697 2026.4396 2173997
1504.1322 656.38599 2029.9003 1845031
1498.0903 648.26807 2004.7952 1778725
1502.4844 644.76355 1993.9573 1712932
1525.2537 649.13715 2007.4828 1976361
1526.6477 644.41644 1992.8839 2239533
1539.1337 644.41644 1992.8839 2305583
1547.0713 642.5274 1987.042 2173997
1560.0962 642.76453 1987.7751 2042411
1580.6979 646.09479 1998.0742 2173997
1587.99 643.97528 1991.5195 2305583
1596.5085 642.38239 1986.5934 2305583
1608.9551 642.38239 1986.5934 2042154
1642.6204 650.78894 2012.5911 2371119
1645.4476 646.94281 2000.6968 3029049
1645.4719 642.06122 1985.6002 3358270
1657.9125 642.06122 1985.6002 2896437
1676.6199 644.47021 1993.0502 2107177
1686.7938 643.58771 1990.3208 2238764
1702.6952 644.88721 1994.3398 2107178
1718.6064 646.17163 1998.3119 2239276
1731.0375 646.13843 1998.2091 2304812
1746.0312 647.05542 2001.045 2239277
1762.8584 648.63391 2005.9265 2239532
1773.1489 647.80194 2003.3536 2173740
1795.5811 651.38629 2014.4384 2107947
1807.2156 651.03094 2013.3394 2173996
1811.6941 648.12048 2004.3386 2371119
1813.6992 644.37122 1992.744 2436912
1825.97 644.29565 1992.5103 2370863
1836.1171 643.47675 1989.9778 2436400
1842.7531 641.44672 1983.6997 2699829
1852.1443 640.39655 1980.4523 2896951
1859.3866 638.62231 1974.9652 2765365
1871.0114 638.36676 1974.1748 2765366
1881.0094 637.56323 1971.6899 2831158
1892.5974 637.30554 1970.8931 2699572
1893.3624 633.43036 1958.9088 2633779
1904.4492 633.03601 1957.6893 2502193
1911.6199 631.35327 1952.4855 2370607
1919.4242 629.8999 1947.9908 2239021
1930.5475 629.54724 1946.9003 2239021
1934.9628 627.02527 1939.101 2370607
1940.9061 625.02686 1932.9208 2173228
1954.7701 625.58801 1934.6562 2041642
1965.7891 625.23749 1933.5721 2107435
