# .PCD v0.7 - Point Cloud Data file format
VERSION 0.7
FIELDS x y z rgb
SIZE 4 4 4 4
TYPE F F F U
COUNT 1 1 1 1
WIDTH 1264
HEIGHT 1
VIEWPOINT 0 0 0 1 0 0 0
POINTS 1264
DATA ascii
5428.146 893.9447 6005.3418 3094330
5459.9082 892.98584 5998.8999 3094330
5524.0303 897.29639 6027.8574 3160123
5557.5249 896.60724 6023.2275 3160123
5638.5669 903.54645 6069.8442 3094330
5704.9541 908.06018 6100.1665 3028537
5773.7007 912.8869 6132.5913 3094330
5842.084 917.59265 6164.2041 3094330
5906.6846 921.64648 6191.4365 3094330
5948.7793 922.15851 6194.8765 3028537
5979.6675 920.93805 6186.6777 3094330
6018.8271 920.99902 6187.0869 2962744
6105.7539 928.32172 6236.2793 3028537
6173.688 932.68201 6265.5708 2896951
6235.2109 936.02466 6288.0264 2962744
6305.5454 940.63995 6319.0308 2896951
6368.478 944.10028 6342.2769 2896951
6443.9219 949.3609 6377.6167 2896951
6500.9575 951.86145 6394.4146 2962744
6571.8833 956.35272 6424.5859 2962744
nan nan nan 16777215
nan nan nan 16777215
nan nan nan 16777215
nan nan nan 16777215
nan nan nan 16777215
nan nan nan 16777215
-4424.4634 731.45825 4716.334 2568499
-4395.1689 731.50073 4716.6079 2568499
-4304.6274 721.28113 4650.7139 2568500
-4227.8276 713.24054 4598.8691 2634290
-4199.0142 713.24054 4598.8691 2634291
-4260.8389 728.74261 4698.8242 2831670
-4249.5435 731.86743 4718.9727 3160635
-4256.0571 738.12469 4759.3184 3292221
-4300.1909 751.04065 4842.5986 3423807
-4274.0557 751.78027 4847.3677 3555393
-4254.9868 753.78241 4860.2769 3555392
-4293.0239 766.00269 4939.0718 3160635
-4372.0957 785.77557 5066.564 3094842
-4394.2671 795.53625 5129.4995 3029049
-4386.3662 799.95648 5158.0005 2963256
-4369.6514 802.82281 5176.4824 3029049
-4358.8242 806.82196 5202.2681 3029049
-4346.2119 810.5484 5226.2959 3160635
-4339.9346 815.52185 5258.3638 3160635
-4341.689 822.09216 5300.7285 3160635
-4313.8003 823.10773 5307.2764 3226428
-4278.1489 822.6463 5304.3013 3226428
-4243.6108 822.39337 5302.6704 3358014
-4192.3154 818.86346 5279.9097 3489601
-4143.7925 815.82306 5260.3062 3555394
-4110.5288 815.76221 5259.9136 3489601
-4057.97 811.84033 5234.626 3555394
-4019.0911 810.61359 5226.7158 3621187
-3977.4741 808.80988 5215.0859 3423807
-3890.375 797.651 5143.1353 3292222
-3830.9858 792.03461 5106.9214 3292221
-3786.4045 789.41083 5090.0039 3292221
-3722.3835 782.65521 5046.4448 3358014
-3688.3425 782.14136 5043.1313 3358271
-3635.8381 777.66937 5014.2964 3226942
-3576.1152 771.56201 4974.9175 3226941
-3525.8796 767.41235 4948.1606 3226941
-3461.4338 760.06854 4900.8091 3226942
-3416.1931 756.84827 4880.0454 3226942
-3346.9041 748.19379 4824.2422 3489857
-3106.2163 700.71655 4518.1162 3687235
-2948.8342 671.33148 4328.6455 3621701
-2896.4763 665.53253 4291.2549 3490628
-2847.5332 660.41693 4258.2705 3556933
-2749.4844 643.70795 4150.5332 3951434
-2697.4355 637.55219 4110.8418 4149583
-2608.1694 622.39648 4013.1201 4215890
-2575.0151 620.46625 4000.6741 4150097
-2538.5989 617.70428 3982.8655 4150353
-2540.1616 624.22058 4024.8813 4150097
-2537.4885 629.81604 4060.9602 4216147
-2512.7615 629.99561 4062.1179 3425090
-2569.5891 650.83527 4196.4893 2570038
-2678.553 685.44763 4419.6646 2766904
-2699.6465 698.06195 4501 2832697
-2761.5349 721.60254 4652.7861 3029305
-2805.2842 740.85504 4776.9233 2964026
-2788.031 744.23871 4798.7407 2898233
-2794.3088 754.04602 4861.9766 2963769
-2814.2522 767.79773 4950.646 3095355
-2756.2361 760.34979 4902.6226 3161148
-2755.5625 768.73096 4956.6631 3095355
-2758.4863 778.31818 5018.48 3161148
-2769.7183 790.49774 5097.0122 3161148
-2739.1401 790.88934 5099.5371 2963769
-2723.5408 795.6662 5130.3374 2963769
-2691.3977 795.6662 5130.3374 3095355
-2665.0715 797.40668 5141.5596 3226941
-2668.1003 808.08038 5210.3823 3226941
-2648.2471 812.00244 5235.6714 3161148
-2616.2651 812.25745 5237.3154 3095355
-2592.3601 815.05835 5255.375 3161148
-2560.8479 815.50873 5258.2793 3292734
-2494.3706 804.69104 5188.5283 3358527
-2445.8362 799.45251 5154.751 3490113
-2403.207 796.02985 5132.6821 3621699
-2364.9709 793.98914 5119.5239 3555906
-2344.7012 798.0072 5145.4316 3358527
-2325.043 802.34814 5173.4219 3424320
-2271.4966 794.95221 5125.7339 3424320
-2210.9951 784.87512 5060.7583 3424320
-2180.7766 785.41132 5064.2153 3424320
-2141.9089 782.80231 5047.3931 3424320
-2114.8042 784.47845 5058.2007 3292734
-2080.2354 783.39484 5051.2134 3555906
-2044.9391 781.99945 5042.2163 3424320
-1996.396 775.41516 4999.7617 3358527
-1955.8044 771.75861 4976.1851 3226941
-1918.6407 769.35815 4960.707 3226941
-1892.5497 771.39172 4973.8193 3292734
-1876.0923 777.48578 5013.1128 3292734
-1824.1437 768.8288 4957.2939 3161148
-1747.0021 749.0697 4829.8901 3095355
-1717.2246 749.28058 4831.25 3095355
-1668.3196 741.0033 4777.8794 3161148
-1628.1761 736.38623 4748.1089 3161148
-1606.13 739.93457 4770.9883 3095355
-1549.3442 727.30969 4689.585 3029562
-1520.0276 727.34082 4689.7856 2963769
-1462.2229 713.47278 4600.3667 3490113
-1411.7057 702.67438 4530.7402 4147787
-1371.9138 696.88092 4493.3848 4411215
-1353.568 701.96667 4526.1768 3555651
-1308.6176 693.17755 4469.5059 2831929
-1291.4795 699.05859 4507.4258 2964025
-1253.8641 693.87061 4473.9746 3029818
-1219.64 690.36499 4451.3706 3161404
-1190.7181 689.76678 4447.5137 3226941
-1167.8859 692.75201 4466.7622 2897976
-1113.037 676.42639 4361.4971 3292734
-1074.3362 669.33966 4315.8027 3555906
-1066.6726 681.72327 4395.6504 3753285
-1038.3511 681.21063 4392.3452 3490369
-939.3515 633.03937 4081.7437 2568756
-913.77808 633.03937 4081.7437 3424066
-936.11298 667.18445 4301.9062 3621444
-898.56 659.40552 4251.749 3818823
-829.29865 627.17126 4043.9072 3424065
-823.34369 642.29071 4141.395 2437170
-807.78931 650.66187 4195.3711 3095100
-770.91388 641.84479 4138.52 3687237
-763.42902 657.73553 4240.981 3621701
-722.68463 645.08411 4159.4062 3950409
-696.21484 644.70459 4156.9595 2897721
-693.06427 666.7287 4298.9678 2832442
-648.06073 648.64325 4182.3555 3819850
-619.6615 646.35327 4167.5898 3951179
-593.55029 646.35327 4167.5898 3819594
-578.09119 658.48682 4245.8252 2635321
-551.13556 658.06384 4243.0981 3095871
-548.2132 687.74847 4434.5 3951179
-530.19196 700.64929 4517.6826 4082765
-493.70898 689.23224 4444.0669 3622214
-468.72681 693.46533 4471.3613 3293249
-470.14709 739.78131 4770 3555907
-445.81122 749.10651 4830.1274 3621444
-415.75278 749.47382 4832.4961 3555907
-389.67194 757.63251 4885.1021 3555393
-360.40143 760.4519 4903.2808 3489857
-333.10208 768.34338 4954.1641 3489600
-304.08685 773.49213 4987.3623 3489601
-275.91418 782.20886 5043.5664 3489600
-243.80365 780.57269 5033.0166 3555394
-212.43924 781.19415 5037.0239 3489600
-180.91187 781.32867 5037.8911 3621443
-149.34792 781.32867 5037.8911 3555393
-119.79918 794.69672 5124.0864 3555394
-88.048889 797.90192 5144.7529 3818566
-55.634205 795.3114 5128.0498 3687492
-23.454807 793.60028 5117.0166 3753286
8.5586119 789.33215 5089.4966 3950665
40.358624 787.62915 5078.5156 3884871
72.177094 787.62915 5078.5156 3687493
105.16821 796.51031 5135.7803 3555907
136.94109 794.1651 5120.6587 3555650
169.61324 796.93561 5138.5225 3424577
202.63898 800.21844 5159.6895 3424065
231.38106 788.00916 5080.9658 3424065
263.21487 788.00916 5080.9658 3292478
296.95419 793.09821 5113.7798 3292479
328.53043 791.98163 5106.5801 3095100
361.12274 793.29529 5115.0503 3160893
389.03589 784.95374 5061.2651 3226686
420.74628 784.95374 5061.2651 3095100
449.45645 779.74878 5027.7041 3029307
480.39917 778.84497 5021.877 2897721
513.94879 782.01904 5042.3428 2897721
541.36945 776.03973 5003.7891 2766135
569.35455 771.47992 4974.3882 2634549
603.06104 774.74359 4995.4316 2568757
634.1311 774.46527 4993.6372 2502965
671.2038 781.19946 5037.0581 2371380
720.57422 800.99915 5164.7236 2305333
757.66492 806.03339 5197.1836 2371126
777.90381 793.46381 5116.1367 2502714
811.72192 795.19183 5127.2788 2305078
844.18219 795.50879 5129.3223 2042163
880.46002 799.26788 5153.5605 2042166
908.64502 795.67444 5130.3906 1581614
943.50037 797.96796 5145.1792 1712687
969.48383 792.85443 5112.2075 1910066
1001.2054 792.61066 5110.6357 1712686
1042.1725 799.47437 5154.8921 1449258
1074.4695 799.47437 5154.8921 1383464
1094.5977 790.6842 5098.2144 1383720
1126.6456 790.75867 5098.6943 1646891
1172.6957 800.38568 5160.7681 1976367
1183.6914 786.21289 5069.3838 2700088
1211.6075 783.72559 5053.3462 2700088
1240.7574 782.14276 5043.1406 2634551
1275.1918 783.88708 5054.3877 2569012
1311.2048 786.49377 5071.1953 2568756
1344.9788 787.66583 5078.7524 2700853
1387.0629 793.53796 5116.6147 2700853
1427.8676 798.42938 5148.1538 2634804
1469.3124 803.45465 5180.5562 2634804
1508.9065 807.27258 5205.1738 2437425
1550.2594 811.8501 5234.689 2437425
1583.3435 811.99744 5235.6387 2371632
1623.1653 815.52386 5258.3765 2437425
1662.5444 818.69214 5278.8052 2503218
1699.5878 820.60883 5291.1641 2437425
1742.038 825.01306 5319.5615 2569011
1786.3096 830.09821 5352.3501 2503218
1822.1469 831.14868 5359.1235 2569011
1870.2321 837.64691 5401.0229 2568754
1899.1915 835.50031 5387.1816 2634291
1940.4066 838.72595 5407.9805 2700084
1978.4436 840.49078 5419.3599 2700084
2019.571 843.48682 5438.6777 2634291
2065.4546 848.33698 5469.9507 2567985
2111.4126 853.05884 5500.3965 2633778
2138.2971 850.04657 5480.9741 2633778
2162.2844 845.99603 5454.8569 2633778
2190.4434 843.67847 5439.9131 2567985
2238.2524 848.88434 5473.48 2370863
2284.2656 853.26227 5501.708 2699827
2321.7976 854.38898 5508.9736 2963256
2344.3528 850.05231 5481.0107 2897720
2371.3088 847.41345 5463.9961 2897463
2403.2371 846.60132 5458.7598 3029049
2424.2888 842.03424 5429.3115 2963256
2473.5557 847.25793 5462.9932 3029049
2510.823 848.28497 5469.6157 2897463
2527.0244 842.26306 5430.7871 2765877
2561.0498 842.26306 5430.7871 2765877
2599.5505 843.71558 5440.1523 2897720
2691.5105 862.25659 5559.7026 3029049
2741.4341 867.02917 5590.4756 3094842
2776.46 867.02917 5590.4756 3029049
2806.478 865.4848 5580.5176 3029049
2840.4072 865.16974 5578.4858 3029049
2875.2527 865.13794 5578.2808 3094842
2916.4624 866.9989 5590.2803 3160635
2971.3845 872.84369 5627.9668 3094842
3015.6533 875.45874 5644.8281 2831670
3052.2339 875.80707 5647.0742 2765877
3074.2024 872.00275 5622.5439 2700084
3121.114 875.27948 5643.6724 2831670
3169.696 878.94617 5667.3145 2765877
3205.2036 878.94617 5667.3145 2765877
3244.0491 879.85144 5673.1519 2831670
3299.6792 885.24017 5707.897 2897463
3346.9299 888.28943 5727.5581 2897463
3409.3362 895.25366 5772.4624 2831670
3455.4314 897.83337 5789.0967 2831670
3404.896 875.5127 5645.1763 2897463
3429.1279 872.67853 5626.9019 2963513
3468.8523 873.80463 5634.1621 2963256
3573.5889 891.11951 5745.8062 3094842
3588.896 886.01117 5712.8687 3226428
3585.7927 876.50342 5651.564 2963513
3617.8215 875.68536 5646.2891 2897463
3642.4873 873.1181 5629.7358 2831670
3672.0754 871.76874 5621.0352 2897463
3711.0249 872.6463 5626.6938 2831670
3716.5989 865.73291 5582.1172 2765877
3734.2336 861.73175 5556.3184 2634291
3737.4724 854.51294 5509.7729 2700084
3761.4678 852.12866 5494.3989 2634291
3779.5706 848.46472 5470.7744 2634291
3801.6062 845.74152 5453.2158 2700084
3818.5933 841.9538 5428.793 2568498
3843.8203 840.03363 5416.4121 2568498
3875.8982 839.63123 5413.8179 2634291
3911.8376 840.06519 5416.6152 2634291
3933.7588 837.50696 5400.1206 2634291
3952.1501 834.24731 5379.103 2634291
3977.3218 832.46204 5367.5913 2437169
3996.4087 829.4436 5348.1294 2634548
4038.8057 831.27332 5359.9268 2568498
4069.6125 830.70691 5356.2749 2700084
4106.6685 831.41492 5360.8398 2766134
4148.7856 833.12787 5371.8848 2831414
4183.1743 833.27374 5372.8252 2765364
4216.8374 833.27374 5372.8252 2831157
4259.6567 835.06891 5384.4004 2765364
4316.5483 839.57294 5413.4414 2765364
4366.5215 842.67157 5433.4209 2765364
4408.8232 844.25317 5443.6191 2699571
4449.6094 845.52246 5451.8037 2699571
4572.6333 862.28046 5559.8564 2765364
4524.7261 846.79572 5460.0127 2831157
4555.6099 846.17804 5456.0303 2896950
4592.5039 846.67767 5459.252 2831157
4632.5298 847.7431 5466.1216 2831157
4691.3203 852.20154 5494.8687 2765363
4728.2598 852.6546 5497.7905 2699828
4757.9873 851.80994 5492.3442 2699571
4802.4297 853.59296 5503.8403 2765364
4845.1528 855.04706 5513.2168 2699570
4895.502 857.81689 5531.0757 2765363
4933.3003 858.36407 5534.604 2765364
4980.0234 860.4455 5548.0249 2896949
5040.5957 864.87439 5576.582 2896950
5080.665 865.74866 5582.2188 2896951
5115.6396 865.74866 5582.2188 2962744
5181.1943 870.88873 5615.3613 2962744
5227.5571 872.75549 5627.3975 2962744
5277.6294 875.21228 5643.2388 2962744
5322.2617 876.74036 5653.0913 2962744
5410.2246 885.33881 5708.5327 2897208
5428.2446 882.45386 5689.9316 2896951
5468.2837 883.1629 5694.5029 2962744
5503.9614 883.1629 5694.5029 2962744
5571.5698 888.25342 5727.3262 3028537
5667.1729 897.71344 5788.3228 3094330
5736.5601 902.92664 5821.937 2896951
5789.2007 905.45483 5838.2383 2962744
5833.8433 906.70819 5846.3198 2831158
5899.5308 911.19629 5875.2588 2962744
5949.2441 913.17688 5888.0288 3028537
6024.8477 919.08252 5926.1074 2896951
6055.3374 918.07593 5919.6172 2896951
nan nan nan 16777215
nan nan nan 16777215
nan nan nan 16777215
nan nan nan 16777215
nan nan nan 16777215
nan nan nan 16777215
-4248.3887 730.57251 4528.644 2568499
-4224.0654 731.27374 4532.9907 2700085
-4198.5435 731.77545 4536.1006 2634293
-4180.728 733.63641 4547.6362 2568498
-4153.4189 733.84546 4548.9321 2568498
-4139.9155 736.51355 4565.4707 2634291
-4059.2473 727.18658 4507.6553 2700084
-4031.0054 727.18658 4507.6553 2700084
-4061.9434 737.93787 4574.2998 2700084
-4077.6948 746.06329 4624.6675 2897463
-4093.3499 754.28735 4675.6465 2963256
-4098.8989 760.75427 4715.7334 3094842
-4142.2109 774.37476 4800.1636 3226428
-4134.6406 778.61267 4826.4331 3160892
-4123.7812 782.28906 4849.2222 3292221
-4104.9956 784.50513 4862.9595 3292221
-4085.9321 786.70099 4876.5708 3160635
-4084.5925 792.36816 4911.7002 3160635
-4072.0315 795.92798 4933.7666 3094842
-4052.0798 798.08661 4947.1475 3226428
-4048.0806 803.44464 4980.3608 3226428
-4038.0291 807.67548 5006.5864 3358014
-3976.1804 801.53101 4968.4985 3489600
-3928.5703 798.18256 4947.7422 3358016
-3907.5623 800.22858 4960.4253 3292222
-3861.8064 797.19873 4941.6436 3358015
-3837.5474 798.59338 4950.2891 3292222
-3786.7327 794.43951 4924.54 3358016
-3757.2627 794.73224 4926.3545 3226430
-3745.2231 798.74713 4951.2422 3292221
-3712.4167 798.36322 4948.8623 3160636
-3662.9407 794.35779 4924.0337 3160636
-3570.0779 780.79535 4839.9634 3160636
-3500.1367 772.05664 4785.7939 3292221
-3441.6343 765.71179 4746.4639 3160892
-3377.7952 758.05872 4699.0244 3358015
-3318.9878 751.41022 4657.812 3226942
-3268.9907 746.65613 4628.3423 3029307
-3220.4036 742.14172 4600.3589 3095100
-3162.6699 735.41913 4558.6865 2897978
-3076.5334 721.90912 4474.9414 2964027
-2892.2783 684.91534 4245.626 2964797
-2846.6016 680.3559 4217.3633 3227969
-2734.4824 659.68213 4089.2114 3623497
-2693.0007 655.8194 4065.2673 4084049
-2635.5344 647.95306 4016.5056 4347990
-2582.9788 641.15399 3974.3596 4216404
-2540.8965 636.84766 3947.6658 4085075
-2518.2942 637.38696 3951.009 3953488
-2529.2244 646.50854 4007.5513 4018512
-2506.4497 647.11102 4011.2861 3755339
-2486.2029 648.38501 4019.1833 3885641
-2517.5344 663.27411 4111.4771 3820362
-2587.5491 688.76776 4269.5063 3490627
-2639.6733 709.98224 4401.0098 3095612
-2641.0051 717.83887 4449.7109 2898233
-2665.9067 732.33789 4539.5869 2963769
-2657.3481 737.85883 4573.8101 3029562
-2658.1653 746.1319 4625.0928 3095612
-2638.1665 748.67999 4640.8877 3292734
-2609.0898 748.67999 4640.8877 3358527
-2608.4526 756.93262 4692.0439 3292734
-2608.9729 765.71313 4746.4722 3292734
-2600.5054 772.02789 4785.6157 3095612
-2568.5559 771.43744 4781.9556 2963769
-2574.2644 782.27655 4849.145 3029562
-2506.3767 770.74298 4777.6509 3226941
-2494.1021 776.23889 4811.7188 3358784
-2490.449 784.58545 4863.457 3358527
-2487.3271 793.30817 4917.5273 3292734
-2457.7729 793.71368 4920.041 3095355
-2420.2556 791.52527 4906.4751 3029819
-2376.4536 787.19867 4879.6558 3029819
-2331.6228 782.414 4849.9971 3161148
-2286.4756 777.39557 4818.8887 3226941
-2271.9629 782.79767 4852.375 3358527
-2238.9421 781.88306 4846.7056 3358527
-2228.6177 788.97827 4890.687 3292734
-2197.2717 788.7254 4889.1196 3226941
-2121.1819 772.17731 4786.542 3161148
-2079.7617 767.95636 4760.3774 3161148
-2042.9287 765.33112 4744.104 3161148
-2016.7847 766.69177 4752.5386 3161148
-1975.7249 762.33789 4725.5498 3292734
-1932.3042 756.92688 4692.0083 3424320
-1899.2816 755.48462 4683.0679 3292734
-1863.9364 753.05878 4668.0308 3161148
-1825.868 749.43787 4645.5854 3161148
-1792.9849 747.86243 4635.8198 3292734
-1767.547 749.39166 4645.2993 3292734
-1746.6595 752.93365 4667.2554 3161148
-1677.8347 735.58008 4559.6846 3095355
-1649.267 735.58008 4559.6846 2898233
-1593.9192 723.4256 4484.3418 3029561
-1547.1838 714.81396 4430.9604 3226941
-1521.2378 715.66791 4436.2539 3226941
-1501.8351 719.68933 4461.1816 3226685
-1448.7843 707.43317 4385.2085 3818822
-1377.2614 685.50879 4249.3047 4082251
-1327.4353 673.73236 4176.3052 4147789
-1291.3553 668.5993 4144.4868 3226686
-1212.4493 640.62744 3971.0959 2239791
-1141.5721 615.81464 3817.2874 2173998
-1194.8352 658.3396 4080.8894 3029050
-1169.2672 658.3396 4080.8894 3160636
-1156.9916 665.99097 4128.3184 3291966
-1116.7122 657.50415 4075.7104 2239534
-1062.3127 640.11182 3967.8994 1647397
-1048.0134 646.62787 4008.291 2700085
-1022.9001 646.62787 4008.291 3226429
-1014.116 657.21008 4073.8875 3818566
-967.99188 643.51532 3988.9973 3555394
-936.72375 639.23267 3962.45 1778984
-933.94922 654.69049 4058.2695 2436913
-910.7583 656.30133 4068.2546 3752773
-882.28979 654.09235 4054.5618 3818566
-841.04938 642.00317 3979.6238 4015691
-818.87927 644.17706 3993.0991 2042415
-794.30884 644.54022 3995.3503 2042414
-777.71234 651.60809 4039.1621 3555140
-744.69366 644.92914 3997.7612 3950154
-710.03326 636.31403 3944.3582 4213069
-677.90015 629.42419 3901.6494 2502965
-657.12341 632.95758 3923.5525 1647656
-636.90692 637.32623 3950.6326 3029309
-624.05432 649.71484 4027.4265 3950668
-598.57654 649.4494 4025.7812 3951181
-571.84583 647.74127 4015.1929 3424837
-545.4245 646.24261 4005.9031 1516840
-520.13983 646.01099 4004.4675 3095872
-502.70181 655.99536 4066.3579 4017230
-483.12732 664.10895 4116.6523 4083021
-456.98666 663.60291 4113.5151 3161663
-450.01303 692.53271 4292.8442 3030333
-432.52954 707.93854 4388.3413 3489858
-422.15781 737.86609 4573.855 3489858
-398.19525 746.66809 4628.4165 3424066
-371.96744 752.27142 4663.1504 3489858
-345.0451 757.30585 4694.3574 3424065
-317.99426 762.97003 4729.4683 3358272
-289.13574 765.0155 4742.1475 3424321
-259.42471 765.0155 4742.1475 3358528
-229.75369 765.14862 4742.9731 3292480
-202.64392 775.11829 4804.7725 3424065
-173.02167 777.27972 4818.1709 3489859
-145.33824 790.90564 4902.6343 3555652
-114.01743 786.7359 4876.7871 3489857
-83.446945 786.58606 4875.8584 3358272
-53.157749 790.4458 4899.7842 3226942
-22.329184 785.87415 4871.4453 3292478
8.1677942 783.55847 4857.0913 3292736
38.308384 777.65955 4820.5249 3423808
68.541573 778.01257 4822.7134 3424320
98.75737 778.01257 4822.7134 3358528
127.59713 769.71185 4771.2593 3226941
158.90799 776.63934 4814.2012 3029562
189.703 779.23773 4830.3076 3292478
219.96637 779.23773 4830.3076 3161148
249.68822 777.55127 4819.854 3226941
277.60712 771.21997 4780.6079 3292479
308.52243 773.63556 4795.5815 3160893
338.00513 772.34894 4787.606 3095100
365.81448 767.76001 4759.1602 3029307
395.10129 766.72992 4752.7749 3029307
421.95923 761.46118 4720.1152 2963514
451.06342 760.67053 4715.2144 2897721
481.36285 761.8689 4722.6426 2963514
509.70712 760.01318 4711.1396 2766135
535.36597 754.57562 4677.4336 2766135
568.20654 759.2995 4706.7158 2634549
597.82361 759.46216 4707.7236 2568758
629.59631 762.21924 4724.8145 2634551
657.22455 759.93658 4710.6646 2700344
685.05206 758.0705 4699.0972 2568760
714.90936 758.51196 4701.8335 2568760
742.47308 756.58118 4689.8652 2700346
779.09924 763.68054 4733.8726 2766138
803.28577 758.51288 4701.8394 2897725
831.88519 757.73041 4696.9893 2831932
874.98999 769.76233 4771.5723 2502967
903.33514 768.44354 4763.3975 2502967
910.56824 749.8241 4647.98 2832188
962.94958 768.38464 4763.0322 2897724
986.66943 763.64648 4733.6611 2831931
1016.8933 764.07172 4736.2974 2766138
1025.1631 748.44482 4639.4302 2700344
1064.0458 755.41296 4682.624 2700344
1093.3838 755.41296 4682.624 2700344
1129.3063 759.8432 4710.0859 2634549
1169.2931 766.71283 4752.6689 2634549
1199.0701 766.71283 4752.6689 2700342
1233.98 769.91547 4772.5215 2831928
1278.2747 778.68341 4826.8716 2831928
1315.9738 783.12115 4854.3804 2897978
1352.3195 786.57129 4875.7666 3029562
1379.3949 784.59589 4863.522 2963769
1426.6243 793.92175 4921.3306 2897976
1464.7117 797.87305 4945.8237 2963769
1497.9622 799.08044 4953.3081 2832440
1536.0282 802.75549 4976.0889 2832183
1572.7173 805.57904 4993.5913 2832183
1613.9579 810.57837 5024.5811 2897976
1654.26 814.92401 5051.5186 2503218
1694.3597 819.00873 5076.8389 2305839
1736.3301 823.83051 5106.7275 2305839
1782.4791 830.4245 5147.6021 2305839
1817.7566 831.8092 5156.186 2306096
1851.16 832.3031 5159.2471 2437425
1880.8707 831.14813 5152.0879 2634547
1913.9204 831.48279 5154.1626 2700084
1947.0808 831.85364 5156.4609 2700084
1988.5114 835.68793 5180.229 2634292
2019.7506 835.18488 5177.1108 2765364
2050.4531 834.47931 5172.7373 2699828
2085.4705 835.52435 5179.2148 2568498
2117.9194 835.52435 5179.2148 2437169
2125.7163 825.9455 5119.8384 2765877
2133.177 816.52289 5061.4297 2897720
2172.7339 819.48187 5079.772 2831670
2216.5171 823.92657 5107.3232 2897463
2252.6709 825.4491 5116.7607 2765877
2290.769 827.63123 5130.2876 2765877
2339.0857 833.3938 5166.0088 2897463
2372.593 833.79462 5168.4932 3160635
2404.9751 833.79462 5168.4932 2897463
2446.5996 836.95636 5188.0918 2963256
2483.6545 838.49243 5197.6133 3094842
2524.9438 841.39972 5215.6353 3094842
2567.7004 844.71552 5236.189 3094842
2590.0447 841.31714 5215.1235 3029306
2618.8567 840.07819 5207.4434 2963256
2655.1443 841.23816 5214.6338 3029049
2683.3315 839.83478 5205.9346 3094842
2720.8643 841.35492 5215.3574 3095099
2742.4841 837.97681 5194.417 3029306
2782.6638 840.28229 5208.7085 2897463
2834.927 846.14093 5245.0249 2831670
2879.2063 849.5097 5265.9067 2897463
2916.5979 850.79303 5273.8618 2963256
2936.7463 847.07379 5250.8076 2963256
2981.5078 850.45789 5271.7842 2897463
3016.9119 851.12775 5275.937 2897463
3068.3054 856.2453 5307.6592 2897463
3100.8506 856.04956 5306.4458 2831670
3142.5125 858.34808 5320.6938 2897463
3192.8093 862.93225 5349.1099 2831670
3171.2944 848.21393 5257.8745 2831670
3189.6064 844.341 5233.8677 2963256
3222.3982 844.341 5233.8677 3029049
3316.1265 860.14685 5331.8442 2963256
3317.144 851.82983 5280.2886 3029049
3343.4573 850.10858 5269.6191 3029049
3376.5522 850.12842 5269.7427 2897463
3390.0203 845.25439 5239.5293 2766134
3399.9724 839.60547 5204.5127 2831670
3419.9016 836.50427 5185.2891 2700084
3456.7815 837.5686 5191.8867 2765877
3476.2717 834.4389 5172.4863 2634291
3494.7129 831.11743 5151.8975 2700084
3517.5569 828.89423 5138.1167 2765877
3540.459 826.72504 5124.6699 2831670
3564.1423 824.77551 5112.5859 2831670
3594.7449 824.44775 5110.5537 2502705
3624.6941 823.97711 5107.6367 2239790
3656.9629 824.03748 5108.0107 2371376
3681.0264 822.26398 5097.0171 2831670
3689.4944 817.06714 5064.8032 2831670
3718.4644 816.46051 5061.043 2897720
3744.2473 815.17029 5053.0454 2963256
3764.7117 812.75366 5038.0649 2897463
3799.8213 813.51251 5042.769 2765877
3837.9031 814.88989 5051.3071 2831670
3874.5837 815.94965 5057.8765 2831927
3899.1123 814.45404 5048.6055 2831414
3938.729 816.10864 5058.8618 2765364
3972.0767 816.44824 5060.9668 2765364
4018.8328 819.51672 5079.9878 2831157
4046.407 818.65625 5074.6538 2831157
4086.3938 820.30072 5084.8477 2962743
4150.7812 826.78021 5125.0122 2634035
4137.6445 817.83691 5069.5747 2567985
4165.103 816.99261 5064.3413 2568242
4197.8306 817.18689 5065.5454 2502192
4261.7749 823.40961 5104.1187 2567985
4300.9214 824.78418 5112.6392 2699571
4333.8242 824.94983 5113.666 2699571
4366.5161 825.07318 5114.4312 2699571
4427.3945 830.48193 5147.9585 2568242
4466.8179 831.8172 5156.2354 2305070
4515.5283 834.85028 5175.0366 2239021
4555.6587 836.26501 5183.8062 2304813
4553.333 829.92145 5144.4839 2567985
4585.5649 829.92145 5144.4839 2831157
4667.0034 838.76495 5199.3027 2831157
4699.5786 838.76495 5199.3027 2699572
4739.1865 840.0116 5207.0303 2765365
4775.7319 840.70184 5211.3091 2765365
4817.3662 842.27258 5221.0459 2896951
4863.6304 844.62622 5235.6353 2765365
4919.9038 848.6748 5260.7314 2634036
4967.2246 851.1355 5275.9849 2633779
5011.6997 853.07928 5288.0337 2765365
5053.9253 854.61719 5297.5669 2765365
5089.5137 855.0199 5300.0635 2765365
5099.978 851.22412 5276.5342 2765621
5182.8369 859.48254 5327.7261 2831158
5271.7124 868.62665 5384.4082 2765365
5324.9175 871.81433 5404.168 2962744
5386.1621 876.26971 5431.7856 2831158
5420.1938 876.26971 5431.7856 2831158
5484.002 881.05347 5461.4395 2831158
5535.1274 883.75311 5478.1733 2699829
5582.5039 885.82452 5491.0137 2633779
5637.9448 889.14233 5511.5801 2502193
nan nan nan 16777215
nan nan nan 16777215
nan nan nan 16777215
nan nan nan 16777215
nan nan nan 16777215
nan nan nan 16777215
-3904.9866 697.46149 4162.5889 2634292
-4038.1577 726.09619 4333.4863 2634292
-4012.22 726.31573 4334.7969 2634549
-3985.4768 726.3916 4335.2495 2568498
-3962.3677 727.13519 4339.6875 2700084
-3935.3826 727.17303 4339.9131 2634291
-3899.9182 725.63361 4330.7256 2568498
-3900.9668 730.914 4362.2402 2700084
-3922.7573 740.18268 4417.5571 2831670
-3908.0898 742.65491 4432.312 2897463
-3925.3181 751.26709 4483.7114 3029049
-3911.3811 753.99579 4499.9966 3160635
-3913.7712 759.9342 4535.4385 3094842
-3916.5249 766.03064 4571.8232 3160635
-3905.1067 769.42462 4592.0791 2963256
-3891.8889 772.51178 4610.5039 2963256
-3862.4097 772.39325 4609.7964 3029049
-3833.5278 772.39325 4609.7964 2963256
-3807.4822 772.96899 4613.2324 3029049
-3774.9844 772.2337 4608.8442 2963256
-3737.9902 770.56012 4598.856 2963256
-3700.7876 768.81732 4588.4546 2963256
-3673.7354 769.17236 4590.5737 3029049
-3638.0388 767.70892 4581.8394 3029049
-3602.2307 766.19836 4572.8242 3029049
-3578.189 767.18652 4578.7217 2963255
-3541.6311 765.48529 4568.5684 3029049
-3505.9885 763.95575 4559.4399 3094842
-3466.6003 761.57837 4545.251 3094841
-3436.4673 761.21167 4543.0625 3029049
-3379.5005 754.84515 4505.0659 3029049
-3352.6038 755.14453 4506.8525 3029049
-3344.4209 759.69983 4534.0396 2897463
-3315.7881 759.64813 4533.731 2897464
-3258.4043 752.95184 4493.7661 2963001
-3217.74 750.03589 4476.3633 3095100
-3172.9443 746.09729 4452.8569 3095100
-3133.6462 743.39294 4436.7168 2766135
-3078.8694 736.93536 4398.1768 2831928
-2981.3005 720.02625 4297.2598 2832698
-2933.269 714.88196 4266.5576 3754056
-2823.2778 694.40363 4144.3389 4017485
-2760.1028 685.16675 4089.2114 4412499
-2718.4197 681.14197 4065.1904 4346707
-2671.1528 675.62872 4032.2866 4215121
-2643.3433 674.97864 4028.4065 4083534
-2613.7705 673.86133 4021.7383 3951947
-2573.8171 670.02002 3998.8127 3556933
-2546.1943 669.34473 3994.7822 3359297
-2529.2244 671.48425 4007.5513 2965053
-2504.116 671.48425 4007.5513 2635062
-2486.2029 673.43323 4019.1833 2569526
-2493.3301 682.27417 4071.9478 2964283
-2467.8179 682.27417 4071.9478 2963769
-2482.582 693.52557 4139.0981 3029562
-2515.5576 710.1557 4238.3501 2897976
-2528.217 721.34412 4305.125 3029562
-2532.9536 730.48895 4359.7031 3292734
-2493.1108 726.83661 4337.9053 3358527
-2485.2214 732.52203 4371.8369 3358527
-2477.8948 738.50189 4407.5259 3490113
-2463.9343 742.61719 4432.0869 3226941
-2452.9961 747.7475 4462.7056 2963769
-2433.8103 750.45306 4478.853 3095355
-2429.2427 757.78168 4522.5918 2963769
-2419.4722 763.6413 4557.563 3029562
-2378.6816 759.73322 4534.2388 3226941
-2346.6765 758.57043 4527.2993 3424320
-2318.3113 758.57043 4527.2993 3358527
-2310.0269 765.22235 4566.999 3226941
-2286.5962 766.96082 4577.3745 3226941
-2261.0754 768.03345 4583.7764 3161148
-2236.251 769.37335 4591.7729 3029819
-2185.3706 761.66675 4545.7783 2963769
-2156.8899 761.66675 4545.7783 3161148
-2136.5737 764.58856 4563.2163 3292734
-2127.4155 771.6366 4605.2808 3226941
-2102.0093 772.90417 4612.8457 3226941
-2073.1438 772.91736 4612.9243 3226941
-2015.7427 762.14185 4548.6138 3095355
-1986.8875 762.00494 4547.7969 3161148
-1950.7343 759.02454 4530.0093 3226941
-1916.5018 756.71454 4516.2227 3358527
-1880.8226 753.75549 4498.5625 3226941
-1849.066 752.30231 4489.8896 3292734
-1815.1091 749.8952 4475.5234 3161148
-1774.0349 744.42596 4442.8818 3292734
-1734.4691 739.42535 4413.0376 3095355
-1710.1544 740.86993 4421.6587 3226941
-1690.9971 744.633 4444.1177 3226941
-1653.4249 740.27734 4418.1226 2832183
-1557.181 709.05743 4231.7959 2634804
-1566.4377 725.62744 4330.689 2700853
-1523.9808 718.40381 4287.5767 2963770
-1512.2858 725.68225 4331.0161 3555651
-1411.2498 689.57245 4115.5054 4147788
-1353.509 673.66742 4020.5813 4410960
-1319.8184 669.35632 3994.8518 4805718
-1284.201 663.88257 3962.1831 4805718
-1223.1783 644.80054 3848.2979 2700343
-1218.1305 655.05164 3909.4785 2042412
-1166.7219 640.28137 3821.3264 3621187
-1141.5721 639.60461 3817.2874 4016202
-1125.1302 643.88208 3842.8162 3752773
-1099.0978 642.73822 3835.9893 3029050
-1073.0548 641.53687 3828.8196 1647397
-1027.3232 628.24048 3749.4641 2371120
-998.16461 624.69379 3728.2966 3423808
-983.80817 630.46295 3762.7283 3358015
-978.909 642.72473 3835.9089 3555394
-962.58405 647.91315 3866.8743 2502706
-914.23682 631.25879 3767.478 1318432
-891.20825 631.66693 3769.9138 2831928
-869.505 633.06232 3778.2415 3950152
-855.3006 640.14813 3820.5312 4081995
-832.22577 640.81183 3824.4924 4476497
-794.00079 629.50354 3757.0022 2502964
-765.82635 625.716 3734.3975 1845034
-750.95105 632.89819 3777.2622 4015689
-750.44537 653.05249 3897.5471 4279118
-705.43121 634.52771 3786.9875 4147276
-673.73767 627.11212 3742.7297 2897209
-651.44489 628.22748 3749.3865 1449507
-634.09821 634.37457 3786.0737 1778985
-619.31433 643.66296 3841.5083 3818826
-608.75836 658.27423 3928.7117 3884618
-578.65674 652.091 3891.8086 3950411
-531.19043 624.93439 3729.7327 2569271
-508.79883 626.13586 3736.9033 1318948
-494.90576 638.41614 3810.1946 3292738
-473.99249 642.42633 3834.1282 4016461
-467.37161 667.27008 3982.4004 3818823
-440.63663 664.57941 3966.3418 3029307
-422.41406 675.1731 4029.5671 2634292
-415.1282 705.70557 4211.791 2634806
-407.22174 739.25665 4412.0308 2963770
-381.48212 742.96307 4434.1514 3226940
-357.00186 749.89716 4475.5352 3160634
-330.354 753.07208 4494.4839 2963255
-305.29218 760.79108 4540.5522 2831670
-276.96487 761.12274 4542.5317 2502704
-248.05602 759.74908 4534.3335 2371119
-215.56943 745.64484 4450.1567 3028792
-191.55176 760.99561 4541.7729 3160635
-163.46844 762.73279 4552.1406 3029305
-134.81964 762.00787 4547.8145 2963512
-106.33629 762.08044 4548.2476 3095355
-77.747681 761.17548 4542.8467 3029562
-49.504227 764.55615 4563.0229 2964025
-20.908342 764.29547 4561.4673 3029562
7.6546602 762.70074 4551.9497 2437682
36.483101 769.2171 4590.8408 2963769
65.423508 771.30817 4603.3203 2700597
93.941246 768.66119 4587.5229 2634804
121.74908 762.80676 4552.5825 2569011
151.30479 768.04718 4583.8584 2898233
179.23903 764.69794 4563.8691 2832183
207.83308 764.69794 4563.8691 2766390
236.83759 766.02545 4571.792 3095355
264.35376 762.77203 4552.375 3160636
292.33203 761.35583 4543.9229 3029307
320.80112 761.35583 4543.9229 3160894
347.5289 757.56006 4521.269 3095356
375.55878 756.96088 4517.6929 3029563
403.25818 755.82623 4510.9214 2897720
430.56747 754.15704 4500.959 2963769
458.86755 754.32172 4501.9419 2963769
485.94769 752.578 4491.5352 2766135
511.58621 748.91479 4469.6724 2766135
538.23627 747.03583 4458.4585 2700599
564.04871 744.23694 4441.7539 2766137
589.46155 741.19891 4423.6226 2831930
617.98016 742.16351 4429.3794 2831930
645.80212 742.24457 4429.8633 2963515
668.7207 736.91553 4398.0586 3095103
683.24664 723.12585 4315.7588 3160897
710.52325 723.36725 4317.1992 3029312
742.38043 728.08313 4345.3447 3029311
771.01312 729.41498 4353.2935 2897982
800.32452 731.27588 4364.3999 2963518
829.93927 733.28192 4376.3721 2897725
866.37891 740.99683 4422.4165 2897725
901.10889 746.81659 4457.1499 3029055
929.0343 746.81659 4457.1499 2897725
960.62427 749.67639 4474.2178 2897724
989.49609 750.31299 4478.0171 2700344
1018.0359 750.66962 4480.1455 2700344
1048.3496 752.28009 4489.7568 2634551
1077.3408 752.88208 4493.3496 2634548
1116.1527 760.14166 4536.6763 2634549
1145.5087 760.76074 4540.3716 2634549
1177.7751 763.23608 4555.1445 2700342
1211.2936 766.38629 4573.9458 2897721
1242.0874 767.70685 4581.8271 2897978
1272.2791 768.60413 4587.1821 2766390
1285.7794 759.60089 4533.4492 2700597
1340.4954 774.80951 4624.2173 2503218
1382.8589 782.38605 4669.4355 2766390
1414.9287 783.94537 4678.7417 2832183
1449.78 786.95117 4696.6812 3029562
1495.2688 795.49664 4747.6821 3095355
1523.9653 794.94934 4744.4155 3095612
1556.2638 796.26593 4752.2734 3226941
1576.2101 791.33179 4722.8252 3029819
1625.2777 800.93024 4780.1108 2832183
1664.5836 805.45795 4807.1333 2766390
1692.7059 804.50928 4801.4712 2766390
1720.5129 803.44659 4795.1289 2700597
1752.975 804.55688 4801.7554 2765878
1784.6085 805.25592 4805.9272 2634548
1814.3674 805.09979 4804.9956 2700084
1853.1797 808.90057 4827.6792 2766134
1885.476 809.7807 4832.9321 2831670
1917.0304 810.31952 4836.1479 2634291
1955.071 813.54053 4855.3716 2700084
2003.7466 821.02045 4900.0132 2765877
2056.6338 829.9743 4953.4517 2831670
2087.6689 829.9743 4953.4517 2831670
2076.7646 813.54517 4855.3994 2831670
2070.7925 799.49469 4771.543 2765877
2101.7122 799.88458 4773.8701 2700084
2153.4573 808.07825 4822.7715 2700084
2196.4458 812.80469 4850.98 2568498
2213.8552 808.06567 4822.6963 2502962
2270.8296 817.70117 4880.2031 2568498
2309.7957 820.68225 4897.9946 2700084
2309.3391 809.7616 4832.8184 2831670
2370.9993 820.62286 4897.6406 2765877
2423.856 828.19867 4942.854 2897463
2450.2173 826.64423 4933.5771 2897720
2470.9106 823.24017 4913.2612 2963256
2498.3799 822.14972 4906.7529 3029049
2527.0078 821.46234 4902.6504 2831670
2542.04 816.42499 4872.5864 2502705
2582.0669 819.43945 4890.5776 2765877
2632.2529 825.56952 4927.1631 2897463
2632.8406 816.18188 4871.1357 2897463
2681.478 821.73425 4904.2734 2765877
2712.6265 821.862 4905.0356 2502962
2750.2686 823.93225 4917.3911 2568498
2789.5967 826.45618 4932.4546 2700084
2823.281 827.271 4937.3179 2765877
2854.7771 827.43402 4938.2905 2700084
2882.9634 826.64441 4933.5781 2831670
2936.166 832.96857 4971.3223 2831670
2980.8689 836.77393 4994.0332 2766134
2971.5042 825.48022 4926.6304 2766134
2999.2517 824.62274 4921.5122 2831670
3037.0808 826.52618 4932.8726 2897463
3103.8188 836.17938 4990.4849 2963256
3096.4971 825.88708 4929.0586 2831670
3130.9634 826.83368 4934.708 2700084
3168.6997 828.61688 4945.3501 2831927
3203.9402 829.71912 4951.9287 2765877
3224.8413 827.12231 4936.4307 2831670
3247.4917 825.01947 4923.8799 2700084
3281.9741 825.93365 4929.3359 2700084
3288.8206 819.94086 4893.5698 2634291
3302.1562 815.66174 4868.0312 2700084
3295.0581 806.45966 4813.1113 2897463
3320.8027 805.38983 4806.7266 2765877
3336.2952 801.87518 4785.7505 2897463
3370.1501 802.79724 4791.2534 2765877
3427.614 809.27722 4829.9272 2897463
3410.2361 798.12781 4763.3853 3029049
3414.4106 792.1723 4727.8418 3094842
3427.385 788.34326 4704.9893 2963256
3458.0603 788.61627 4706.6187 2897720
3495.1382 790.33234 4716.8604 3029049
3491.9463 782.99017 4673.041 3029049
3521.2246 782.99017 4673.041 3029049
3589.1687 791.51721 4723.9321 2963256
3631.8901 794.38788 4741.0649 2963256
3669.3545 796.07147 4751.1128 2963255
3687.6436 793.60132 4736.3706 3094329
3718.0334 793.75403 4737.2817 3094329
3747.7144 793.75403 4737.2817 3094586
3778.5322 793.99298 4738.708 3160122
3799.1016 792.09155 4727.3599 3094329
3843.9851 795.24957 4746.2075 3160122
3860.4331 792.52155 4729.9263 3028536
3908.7139 796.32043 4752.5986 3225915
3943.1238 797.2572 4758.1895 3160122
3979.0261 798.47943 4765.4839 3160122
4036.9065 804.06097 4798.7959 2765364
4069.178 804.49707 4801.3984 2633778
4104.4722 805.5199 4807.5029 2831157
4144.1577 807.38348 4818.625 2896950
4184.6143 809.3692 4830.4761 3028793
4231.8828 812.63446 4849.9639 3160122
4261.3931 812.46729 4848.9663 2962743
4271.2544 808.58289 4825.7832 2897207
4333.6509 814.62848 4861.8647 2896950
4351.6191 812.29657 4847.9473 2831157
4386.5854 813.14795 4853.0283 2699571
4424.9004 814.60388 4861.7178 2699572
4466.8608 816.7066 4874.2671 2699572
4503.5542 817.82422 4880.9375 2831414
4550.8276 820.83514 4898.9072 2831158
4598.6533 823.9046 4917.2266 2634036
4671.2339 831.33887 4961.5957 2765365
4713.8477 833.37689 4973.7588 2699572
4743.4038 833.09485 4972.0757 2831158
4785.2573 834.96228 4983.2207 2896951
4821.4014 835.81561 4988.3135 2896951
4866.8457 838.25989 5002.9014 2896951
4935.4399 844.63458 5040.9473 2831158
5003.6045 850.85529 5078.0732 2699573
5030.4966 850.02319 5073.1074 2765365
5065.1587 850.50635 5075.9912 2765365
5130.4111 856.08795 5109.3032 2962744
5164.5596 856.44238 5111.4185 2897208
5209.6929 858.60284 5124.3125 2831158
5235.5918 857.58618 5118.2451 2765365
nan nan nan 16777215
nan nan nan 16777215
nan nan nan 16777215
nan nan nan 16777215
nan nan nan 16777215
nan nan nan 16777215
-3763.4363 697.18103 4011.7007 2700085
-3878.9067 723.40344 4162.5889 2700085
-3857.042 724.19489 4167.1431 2700342
-3823.1208 722.71796 4158.6445 2831670
-3794.4292 722.21619 4155.7573 2831670
-3765.1345 721.59186 4152.1646 2962999
-3740.783 721.91272 4154.0112 2897463
-3713.4595 721.66064 4152.5605 3028792
-3704.6372 725.02582 4171.9243 3094842
-3693.4084 727.96448 4188.834 3094842
-3686.8762 731.8775 4211.3501 3094842
-3699.8708 739.7511 4256.6562 3160635
-3684.8655 742.1001 4270.1729 3226428
-3617.5469 733.87103 4222.8213 3094842
-3656.6621 747.27136 4299.9292 2897463
-3642.7454 749.95258 4315.3574 2766134
-3648.7976 756.8158 4354.8496 2963513
-3626.1633 757.7876 4360.4414 2963256
-3600.395 758.1142 4362.3208 2831670
-3551.1843 753.47198 4335.6089 2831927
-3508.6936 750.19495 4316.752 2963256
-3470.1729 747.72247 4302.5249 2897463
-3421.408 742.98657 4275.2739 2897463
-3393.3777 742.71423 4273.7065 2963256
-3348.5381 738.72925 4250.7764 2831670
-3325.3628 739.49792 4255.1997 2897463
-3297.3152 739.18695 4253.4102 2831670
-3272.7771 739.664 4256.1553 2897463
-3257.9087 742.35236 4271.624 2963256
-3238.9583 744.14722 4281.9521 2963256
-3217.1777 745.31653 4288.6807 2831670
-3174.5391 741.63263 4267.4829 3029049
-3147.6008 741.58527 4267.2104 3029049
-3110.384 739.09467 4252.8789 2897463
-3073.0986 736.54456 4238.2051 2897976
-3020.7119 730.29907 4202.2676 2897721
-2992.1731 729.75995 4199.1655 2831672
-2948.5583 725.50183 4174.6636 2569783
-2905.2332 721.23944 4150.1367 2569783
-2883.1284 722.21558 4155.7539 2569525
-2812.1755 710.86182 4090.4224 2240561
-2709.3064 691.1571 3977.0381 1845802
-2708.3147 697.31738 4012.4851 1846059
-2696.4165 700.75861 4032.2866 2042666
-2657.9006 697.28192 4012.2812 1976873
-2625.6084 695.38721 4001.3787 2173738
-2600.21 695.29932 4000.873 2239530
-2582.8972 697.39294 4012.9199 2436653
-2539.3545 692.37592 3984.051 2370603
-2501.5479 688.83875 3963.6978 2502189
-2468.0896 686.44 3949.895 2436396
-2458.8835 690.80627 3975.0193 2371117
-2459.6514 698.09253 4016.9458 2568752
-2461.4092 705.81348 4061.373 2963253
-2393.5681 693.52954 3990.6892 3358527
-2430.9612 711.79938 4095.8174 3555906
-2422.2139 716.80487 4124.6196 3555906
-2407.2522 720.05939 4143.3467 3424320
-2389.4009 722.51117 4157.4546 3490113
-2341.0789 715.70154 4118.271 3490113
-2315.2766 715.70154 4118.271 3358527
-2326.4172 727.25006 4184.7231 3161148
-2307.0884 729.42847 4197.2578 3161148
-2308.1135 738.16644 4247.5376 3226941
-2290.5161 741.08313 4264.3208 2898233
-2279.3047 746.15918 4293.5293 2964026
-2269.5859 751.85083 4326.2803 3095355
-2238.123 750.38995 4317.874 3095355
-2216.4475 752.21497 4328.3755 3226941
-2203.4221 757.05707 4356.2378 3226941
-2180.6265 758.6217 4365.2412 3029562
-2149.5654 757.31421 4357.7173 3095355
-2122.0886 757.25195 4357.3594 3161148
-2086.3689 754.20831 4339.8457 3161148
-2060.9514 754.85773 4343.5825 3226941
-2043.999 758.66644 4365.4985 3161148
-2024.543 761.63666 4382.5894 3161148
-2008.8417 766.12048 4408.3901 3161148
-1974.5876 763.55505 4393.6284 3095355
-1914.6382 750.84052 4320.4668 3095355
-1880.9735 748.21692 4305.3701 3161148
-1846.9226 745.36108 4288.937 3226941
-1806.8694 739.96283 4257.8745 3226941
-1765.3827 733.80695 4222.4526 3292734
-1744.4734 736.14716 4235.9185 3226941
-1710.1753 732.82245 4216.7876 3292734
-1673.6573 728.42731 4191.4971 3490113
-1641.6808 725.90009 4176.9551 3556163
-1615.5109 725.90009 4176.9551 3226941
-1588.0425 725.30701 4173.5425 3029562
-1548.5223 719.09753 4137.812 2700597
-1513.9938 715.03412 4114.4302 2634804
-1453.4561 698.33344 4018.3315 2634548
-1432.996 700.63916 4031.5994 3161149
-1396.1627 694.87872 3998.4529 3819079
-1326.8599 672.45215 3869.4065 4081996
-1285.2488 663.48627 3817.8149 4345167
-1252.0101 658.58429 3789.6084 3621701
-1228.0607 658.47363 3788.9717 1910826
-1203.6516 658.10736 3786.864 2634549
-1180.4777 658.41516 3788.635 3818823
-1144.5613 651.4826 3748.7441 3818309
-1128.9602 656.06537 3775.1143 3555394
-1097.673 651.53363 3749.0376 2568499
-1068.6622 648.18439 3729.7654 1515811
-1049.1774 650.59241 3743.6216 2042155
-1022.5977 648.61047 3732.217 2897464
-997.81671 647.70331 3726.9971 3094843
-975.30731 648.26257 3730.2153 3094843
-960.86353 654.34192 3765.197 2371120
-928.46844 648.19489 3729.8259 1515811
-905.31183 648.34668 3730.6992 1976362
-881.93793 648.34668 3730.6992 3489601
-864.39087 652.74689 3756.0188 3292222
-829.24091 643.72852 3704.1255 3621187
-805.99628 643.69885 3703.9548 2963258
-780.8587 642.11084 3694.8174 1449763
-757.15955 641.64478 3692.1355 2173742
-734.11328 641.72009 3692.5686 2568500
-714.6629 645.04584 3711.7056 2305073
-694.70697 648.12366 3729.416 2831414
-667.49658 644.41217 3708.0596 1976362
-644.2644 644.41217 3708.0596 1778727
-621.33038 644.72156 3709.8396 2107435
-603.52264 650.58087 3743.5552 2238764
-578.4397 648.75452 3733.0461 2107435
-555.05103 648.75452 3733.0461 1975594
-529.03723 645.55127 3714.614 1975592
-510.99771 652.23151 3753.0532 2107177
-496.00189 663.62848 3818.6335 2106921
-472.05295 663.59473 3818.4392 1909543
-454.12207 672.46893 3869.5029 1647140
-434.62094 679.88776 3912.1924 1844518
-415.21756 688.35541 3960.9167 2108204
-398.88135 703.30768 4046.9543 2502705
-378.54178 712.75195 4101.2983 2568754
-352.84586 712.75195 4101.2983 2634548
-333.24084 726.02203 4177.6567 2831669
-311.09 735.53497 4232.396 2700341
-289.37042 747.93561 4303.7515 2700084
-265.22299 755.96466 4349.9517 2766133
-237.84108 755.55762 4347.6099 2765877
-208.34105 747.44635 4300.936 2831670
-181.42294 747.56421 4301.6143 3029048
-155.18704 751.02466 4321.5264 2897720
-127.32819 746.43365 4295.1089 2963256
-100.28252 745.42657 4289.314 2897976
-73.893425 750.34943 4317.6406 2832183
-47.254402 756.95441 4355.647 2766647
-20.033525 759.55524 4370.6128 2832183
7.3578229 760.39264 4375.4312 2897976
34.940365 764.09076 4396.7109 3029562
62.370018 762.65881 4388.4712 2700597
89.279198 757.68604 4359.8569 2832183
116.50972 757.13153 4356.666 2700854
143.45621 755.29205 4346.0815 2766390
170.92584 756.35443 4352.1948 3029819
198.87782 758.96521 4367.2178 2832183
226.39296 759.47906 4370.1743 2766390
251.18918 751.74493 4325.6709 2963514
277.86761 750.60175 4319.0928 3095099
302.03073 743.46967 4278.0537 3161404
329.12329 744.12366 4281.8164 2897976
352.72321 737.3775 4242.998 2832183
379.30716 737.37799 4243.001 2832440
406.37231 738.25262 4248.0337 2832183
433.08203 738.41364 4248.9604 2832183
459.8678 738.67828 4250.4829 2765879
486.07672 738.03802 4246.7988 2634549
511.4827 736.30829 4236.8457 2700342
533.46106 730.05853 4200.8833 2634550
556.34546 725.57812 4175.1025 2766137
585.21814 728.95917 4194.5576 2766137
604.11145 720.15332 4143.8872 2766394
630.47534 720.61188 4146.5259 3029311
650.36011 713.92169 4108.0293 2963516
678.49609 716.45374 4122.5991 2963516
706.61981 718.78766 4136.0288 2963515
734.47083 720.68878 4146.9683 2897979
761.93652 722.09485 4155.0591 2897722
799.05725 732.25586 4213.5273 2897723
825.96436 732.70654 4216.1206 2963516
854.71783 734.71649 4227.686 2831675
884.32501 737.31732 4242.6519 2897725
913.96985 739.79688 4256.9194 2963516
951.01532 747.95624 4303.8701 2700344
964.20135 737.41809 4243.2319 2568758
990.78656 737.41809 4243.2319 2634551
1021.4919 740.40448 4260.416 2634805
1058.6194 747.77521 4302.8286 2634549
1087.3759 749.01373 4309.9551 2766135
1115.777 749.95331 4315.3613 2634549
1151.4364 755.61163 4347.9204 2700342
1181.4384 757.38147 4358.1045 2700342
1210.8796 758.72009 4365.8071 2766390
1240.1239 759.87891 4372.4751 2700597
1283.3859 769.39117 4427.2104 2503218
1311.1237 769.39117 4427.2104 2437425
1347.8195 774.53894 4456.8315 2371632
1385.6827 780.13507 4489.0327 2174510
1417.1437 781.97571 4499.624 2305839
1440.7927 779.51813 4485.4824 2371632
1486.8672 789.05524 4540.3608 2437425
1507.184 784.82184 4516.001 2569011
1542.6442 788.48456 4537.0771 2766390
1570.5999 788.24847 4535.7183 2503475
1593.4255 785.49182 4519.8564 2437682
1624.9418 787.04071 4528.769 2437425
1663.7744 792.01941 4557.417 2502705
1693.6997 792.66132 4561.1108 2634291
1725.2882 794.04749 4569.0869 2568498
1760.53 797.04224 4586.3193 2700084
1795.2814 799.72241 4601.7417 2700341
1817.8358 796.97052 4585.9067 2700084
1842.0225 795.00873 4574.6182 2700084
1850.0061 786.22107 4524.0522 2765877
1880.4678 787.10718 4529.1514 2700084
1926.5576 794.41119 4571.1797 2634291
1953.8912 793.88049 4568.126 2634291
1970.358 789.01349 4540.1206 2765877
1999.5863 789.32263 4541.8994 2700084
2034.8749 791.98169 4557.2002 2568498
2066.8254 793.28613 4564.7061 2568498
2095.425 793.28613 4564.7061 2568498
2115.0767 789.9444 4545.4771 2502705
2143.4285 789.89752 4545.2075 2634291
2172.3269 790.05078 4546.0894 2700084
2208.0203 792.63922 4560.9839 2765877
2244.0708 795.28827 4576.2266 2831670
2269.8215 794.26624 4570.3457 2963256
2297.7456 794.02063 4568.9326 2963256
2326.3713 794.02063 4568.9326 2963256
2356.3315 794.47058 4571.5215 3029049
2372.1372 790.19464 4546.917 3029049
2400.4951 790.15186 4546.6709 2831670
2431.1785 790.86652 4550.7832 2700084
2471.6667 794.71722 4572.9409 2897463
2509.3694 797.5943 4589.4961 2700341
2532.0969 795.70032 4578.5977 2634291
2576.0718 800.45087 4605.9331 2634291
2608.1123 801.42896 4611.561 2568755
2635.261 800.8988 4608.5107 2436912
2638.4536 793.17853 4564.0869 2634291
2669.0457 793.77228 4567.5034 3160635
2728.5933 802.87354 4619.8735 3029306
2768.427 806.04382 4638.1162 2765877
2773.2014 799.04663 4597.853 2766134
2796.3193 797.42426 4588.5176 2765877
2828.7573 798.4657 4594.5103 2831670
2858.354 798.6922 4595.8135 2831927
2876.8135 795.83325 4579.3628 2963256
2901.0894 794.6239 4572.4038 2897463
2932.6628 795.41748 4576.9702 2831670
2962.5361 795.73901 4578.8203 2765877
2987.7085 794.80389 4573.4395 2831670
3016.6702 794.88489 4573.9058 2831670
3047.9231 795.5625 4577.8047 2897463
3056.4253 790.34448 4547.7793 2831670
3078.8984 788.80219 4538.9048 2634291
3099.3667 786.77911 4527.2637 2897463
3124.3162 785.92004 4522.3203 2897463
3145.9456 784.24872 4512.7031 2897463
3164.8542 781.935 4499.3896 2897463
3195.5989 782.56055 4502.9893 2897463
3221.2642 781.9422 4499.4312 2963256
3220.969 775.08752 4459.9883 3029306
3243.46 773.78674 4452.5034 3029049
3279.4333 775.69727 4463.4966 3029049
3304.0259 774.90631 4458.9453 3029049
3333.3728 775.23425 4460.8325 2897463
3361.158 775.19659 4460.6157 3029049
3397.2517 777.05994 4471.3379 3029049
3425.4036 777.09119 4471.5176 3094842
3475.3804 782.03296 4499.9536 3029048
3493.0732 779.68909 4486.4663 3094329
3519.0586 779.21881 4483.7603 3094329
3545.9297 778.95062 4482.2168 3160379
3569.7095 778.01282 4476.8208 3094329
