# .PCD v0.7 - Point Cloud Data file format
VERSION 0.7
FIELDS x y z rgb
SIZE 4 4 4 4
TYPE F F F U
COUNT 1 1 1 1
WIDTH 1268
HEIGHT 1
VIEWPOINT 0 0 0 1 0 0 0
POINTS 1268
DATA ascii
-2539.7512 659.01935 3031.2 3818304
-2500.7124 653.7782 3007.093 3884098
-2481.8721 653.7782 3007.093 4278856
-2461.9397 653.48834 3005.7598 4278856
-2443.1077 653.48834 3005.7598 4147270
-2431.5569 655.45105 3014.7874 4081735
-2415.3931 656.19128 3018.1924 4081479
-2388.5989 654.03241 3008.2625 3949890
-2347.3379 647.84656 2979.8103 4147269
-2328.8572 647.89905 2980.0515 4213062
-2312.0457 648.42053 2982.4502 4015940
-2317.7051 655.30396 3014.1108 3884610
-2309.3552 658.30695 3027.9233 4608077
-2273.7114 653.51471 3005.8811 4674382
-2270.6973 658.09937 3026.9685 4739663
-2270.8362 663.68268 3052.6494 4674126
-2252.9141 664.03748 3054.2812 4542284
-2227.3499 662.12653 3045.4917 4410954
-2211.3472 663.0495 3049.7371 4542540
-2193.8618 663.54016 3051.9939 4542540
-2181.3831 665.56702 3061.3164 4476747
-2180.1086 671.07867 3086.6677 4410954
-2158.9482 670.51312 3084.0662 4279368
-2145.561 672.37305 3092.6213 4081733
-2125.4727 672.14783 3091.5852 4345161
-2091.5657 667.50842 3070.2461 4739662
-2078.8208 669.59924 3079.863 4871248
-2051.4204 666.96436 3067.7437 4279624
-2045.2378 671.24341 3087.4253 3818817
-2046.3925 678.0351 3118.6643 3555645
-2026.853 678.0351 3118.6643 3490108
-2007.3649 678.05243 3118.7439 3818561
-1989.8873 678.75592 3121.9795 3884354
-1970.327 678.75592 3121.9795 4016196
-1949.3392 678.25916 3119.6946 4147782
-1926.2432 677.01135 3113.9553 4081989
-1906.7334 677.01135 3113.9553 4081989
-1896.6683 680.3996 3129.5398 4081989
-1875.0238 679.66125 3126.1436 4081989
-1852.2881 678.50751 3120.8369 3950660
-1832.735 678.50751 3120.8369 4016453
-1817.2448 680.02783 3127.8298 3621438
-1805.368 682.9483 3141.2627 3357753
-1764.215 674.73615 3103.4902 3160374
-1746.1271 675.26062 3105.9028 3423546
-1730.2867 676.67603 3112.4131 3489339
-1680.1012 664.53882 3056.5874 3818304
-1652.5208 661.16614 3041.0742 4147269
-1661.0378 672.32556 3092.4026 4015683
-1653.412 677.13727 3114.5344 3884097
-1638.564 679.0708 3123.4277 3489339
-1615.2314 677.49225 3116.1672 3489595
-1595.3513 677.34094 3115.4714 3752511
-1575.8319 677.34094 3115.4714 3621181
-1555.3599 676.92627 3113.5642 3621181
-1529.0145 673.9126 3099.7024 3620925
-1509.594 673.9126 3099.7024 3620925
-1495.7053 676.41431 3111.2092 3752511
-1477.6398 677.06824 3114.217 3818304
-1458.1836 677.09393 3114.3352 3752768
-1438.6713 677.09393 3114.3352 3620925
-1424.2341 679.51532 3125.4724 3621181
-1406.5488 680.43292 3129.6929 3818304
-1384.9205 679.44196 3125.1353 3686718
-1365.8915 679.71613 3126.396 3620925
-1336.604 674.81909 3103.8718 3686974
-1321.9531 677.27606 3115.1729 3884097
-1315.1892 683.90808 3145.6772 4015683
-1293.5781 682.90369 3141.0576 4081476
-1278.4139 685.32434 3152.1914 3950403
-1260.7551 686.46265 3157.4272 3884354
-1245.1893 688.7951 3168.1555 3621694
-1226.6562 689.5351 3171.5591 3884610
-1208.4335 690.47668 3175.8899 4542797
-1190.9287 691.867 3182.2849 4345161
-1191.1361 703.76971 3237.032 4016196
-1165.5245 700.56561 3222.2947 3884867
-1141.9993 698.52478 3212.9077 3818817
-1121.7891 698.47473 3212.6777 4476747
-1098.4348 696.42944 3203.27 4476490
-1094.6412 706.9408 3251.6177 4016453
-1084.1385 713.43567 3281.4912 4279625
-1058.371 709.94226 3265.4231 4410954
-1032.6235 706.32483 3248.7847 4345161
-1001.9852 699.14923 3215.78 4278855
-977.03284 695.72803 3200.0439 4081733
-965.82025 702.15234 3229.5928 3752511
-942.45142 699.82477 3218.8872 3686718
-919.34882 697.59747 3208.6426 3751998
-896.63501 695.57227 3199.3274 3817534
-878.11816 696.78467 3204.9041 3686205
-850.73865 690.85675 3177.6382 3817534
-815.79279 678.35309 3120.127 3949119
-807.39935 687.85669 3163.8391 3751998
-779.63385 680.91931 3131.9302 3686204
-765.24109 685.6048 3153.4814 3554619
-745.02753 685.18542 3151.5527 3751997
-724.10992 684.07806 3146.4592 3751998
-697.95312 677.82068 3117.678 3751741
-678.27228 677.67316 3116.9995 4080706
-657.54712 676.44263 3111.3396 4014913
-638.13281 676.52655 3111.7256 4015170
-618.87103 676.78259 3112.9033 4080706
-600.60303 678.17749 3119.3191 4080706
-579.38867 676.22736 3110.3494 3949120
-558.78156 674.87494 3104.1287 4014913
-539.05609 674.52808 3102.5334 3949120
-519.60236 674.50812 3102.4417 3751997
-498.63577 672.44641 3092.9585 3883327
-478.65671 671.60352 3089.0818 3949120
-459.42172 671.77765 3089.8826 3883327
-439.17328 670.41998 3083.6379 3883327
-419.85336 670.41998 3083.6379 3620155
-399.7211 669.06036 3077.3843 3685948
-382.5719 672.80902 3094.6265 3883071
-363.18311 672.80902 3094.6265 3686718
-342.69446 670.65656 3084.7263 3752511
-325.66101 675.41284 3106.603 3818304
-307.46811 678.21631 3119.4978 3884097
-288.28741 679.07355 3123.4407 3818561
-266.04437 672.31689 3092.3628 3949890
-243.39548 663.39258 3051.3149 3620925
-224.57881 664.28217 3055.4067 3226167
-207.05759 669.52649 3079.5283 3686718
-189.56421 675.94775 3109.0635 4081989
-173.03604 687.6759 3163.0078 3489596
-152.47261 684.3269 3147.6035 3292216
-132.09261 680.92828 3131.9714 3226424
-110.57933 669.48254 3079.3262 3555389
-91.662476 672.2406 3092.012 3686720
-72.741722 676.44067 3111.3306 3752513
-53.135109 675.00311 3104.7185 3752513
-33.683083 675.00311 3104.7185 3358011
-14.33796 680.07355 3128.0403 3358011
5.2644215 680.62158 3130.561 3489341
24.983328 683.49341 3143.77 3555391
44.491348 680.60718 3130.4946 3423548
64.104866 680.60718 3130.4946 3291959
83.648354 680.03778 3127.8757 3423289
103.51118 681.78802 3135.9258 3489083
124.54211 689.44611 3171.1499 3621181
143.68571 685.98663 3155.2378 3490109
163.45427 685.98663 3155.2378 3621694
184.85185 692.08582 3183.2913 3950403
205.97346 696.06439 3201.5911 3884867
227.25467 699.82825 3218.9031 3753281
247.40228 699.77228 3218.6455 3687488
267.60672 699.87317 3219.1099 3687488
288.31595 701.18768 3225.156 3489852
306.57925 696.77118 3204.842 3424059
327.45828 698.47693 3212.6875 3555901
347.85321 699.01239 3215.1504 3686461
367.33936 697.76294 3209.4036 3621438
388.89703 700.37384 3221.4126 3818817
409.11057 700.42584 3221.6519 3621694
425.10931 693.59631 3190.2388 3687231
445.09717 693.59631 3190.2388 4016453
455.42004 679.18268 3123.9424 4016196
474.38776 678.31793 3119.9648 4016196
493.05789 677.11298 3114.4226 4081989
513.10919 677.82428 3117.6946 4345161
535.37708 681.3042 3133.7007 3950403
551.88251 677.46417 3116.0383 3950403
567.89478 673.30194 3096.8938 3884610
588.1109 674.23413 3101.1814 4016453
606.1308 672.66937 3093.9841 4345161
624.17584 671.22864 3087.3574 4147271
643.51904 671.22864 3087.3574 3949892
672.52966 681.01794 3132.384 4410442
688.79834 677.71533 3117.1934 4344650
705.9201 675.41101 3106.5945 3884099
723.50055 673.65735 3098.5286 3949891
745.73206 676.21295 3110.283 4147270
760.46375 672.01086 3090.9553 4278856
792.53345 682.95831 3141.3088 3489339
819.80817 689.34338 3170.6772 3555132
831.41339 682.56213 3139.4866 3555132
838.90094 672.79199 3094.5483 3423802
874.1076 685.19165 3151.5811 3094838
883.47577 677.23669 3114.9917 2962481
907.46234 680.58923 3130.4121 3357497
939.05878 689.3866 3170.8762 3686461
939.93005 675.73065 3108.0647 3751741
959.13745 675.54352 3107.2041 3356983
989.07501 682.77112 3140.4478 3225397
1018.0057 689.03522 3169.26 3488312
1043.264 692.62158 3185.7556 3554106
1048.8997 683.29034 3142.8359 3554105
1071.3716 685.06866 3151.0154 3225397
1091.1136 685.06866 3151.0154 3422776
1111.6532 685.56042 3153.2773 3488569
1137.8973 689.4917 3171.3594 3291190
1156.1937 688.55475 3167.05 3488569
1167.9749 683.8349 3145.3408 3554362
1192.2303 686.45416 3157.3879 3422776
1204.8049 682.37195 3138.6118 2896432
1217.7786 678.64331 3121.4617 3093811
1257.4326 689.66608 3172.1616 3554362
1276.8525 689.42059 3171.0325 3554619
1209.5166 643.05762 2957.783 3883840
1296.3613 678.82928 3122.3171 3686719
1297.306 669.22522 3078.1426 3752511
1337.8226 680.01703 3127.7803 3884097
1370.3857 686.51282 3157.658 4147269
1375.9529 679.49219 3125.3662 4278855
1395.5343 679.49219 3125.3662 4213319
1423.2372 683.39191 3143.3032 3884611
1454.413 688.82996 3168.3157 3950148
1467.819 685.81879 3154.4658 4081989
1494.8372 689.16339 3169.8494 4081476
1514.5316 689.08801 3169.5027 3949890
1518.2021 681.8183 3136.0652 4081476
1526.442 676.76019 3112.8003 3291960
1568.7708 686.75269 3158.7612 3226167
1591.2228 687.90326 3164.0535 3555132
1613.7443 689.05511 3169.3516 3555132
1634.6702 689.50604 3171.4255 3555132
1651.6198 688.289 3165.8276 3489339
1671.6538 688.37103 3166.2051 3094581
1692.2029 688.66071 3167.5374 3160631
1741.9283 700.67969 3222.8193 3160631
1756.28 698.35736 3212.1377 3225397
1777.0262 698.60156 3213.2607 3093811
1789.0679 695.45667 3198.7957 3356983
1784.2051 685.88293 3154.7607 3488569
1830.4141 695.93695 3201.0049 3028275
1863.3301 700.77368 3223.2517 2830639
1881.2612 699.93152 3219.3782 2699053
1891.4257 696.24829 3202.4368 2435881
1908.369 695.11151 3197.208 2830639
1901.6549 685.47076 3152.865 3094067
1917.9534 684.2381 3147.1953 2962225
1967.1055 694.63196 3195.0024 2962225
1998.744 698.69415 3213.6868 2896432
1996.9689 691.11163 3178.8105 2830639
2025.144 693.94165 3191.8274 2962225
2052.4744 696.42963 3203.271 3159604
2085.1343 700.66034 3222.7305 3291190
2105.7505 700.80176 3223.3809 3291190
2128.605 701.67834 3227.4126 3422776
2149.4578 701.88464 3228.3618 3291190
2169.6846 701.88464 3228.3618 3291190
2192.6001 702.74646 3232.3257 3356983
2222.8264 705.91425 3246.896 3751741
2227.0312 700.83569 3223.5371 3488569
2221.9919 692.96545 3187.3374 3291190
2276.6934 703.70074 3236.7148 3225397
2300.939 704.91595 3242.3042 3225397
2329.4866 707.41626 3253.8047 3422776
2363.3457 711.47229 3272.4604 3620155
2379.0793 710.04883 3265.9133 3751741
2417.2871 715.29993 3290.0662 3817534
2413.209 708.05536 3256.7441 3883327
2432.8918 707.8454 3255.7786 3751741
2445.0569 705.46979 3244.8516 3620155
2462.9141 704.76221 3241.5969 3225397
2480.7886 704.07111 3238.4182 3291190
2508.9331 706.28223 3248.5886 3423033
2517.7712 703.06671 3233.7988 3553849
2544.0378 704.73041 3241.4509 3619642
2573.9766 707.37695 3253.6238 3685435
2537.0735 691.75684 3181.7781 3685435
2556.5974 691.64569 3181.2668 3355699
2556.3555 686.23022 3156.3582 3290163
2599.0913 692.34637 3184.4897 3355956
2620.2554 692.66693 3185.9641 3421749
2649.0171 694.97577 3196.5837 3487286
2675.2488 696.59125 3204.0142 3487542
2727.6367 704.94244 3242.4263 3355444
2767.6089 709.98529 3265.6211 3355443
2793.303 711.31812 3271.7515 3289650
2844.5042 719.07965 3307.4512 3158064
2857.6611 717.18103 3298.7183 3026478
2877.3088 716.92688 3297.5493 2960685
2897.9688 716.92688 3297.5493 2960428
2916.6853 716.4494 3295.3533 2763819
2936.3059 716.19922 3294.2024 2829612
2950.3669 714.6059 3286.874 2698026
2981.6101 717.16754 3298.6562 2698026
2946.3201 703.80078 3237.175 3026991
2954.8765 701.01904 3224.3801 3159091
3002.9309 707.58197 3254.5669 3224884
3008.9727 704.22375 3239.1204 3224884
3000.9072 697.63086 3208.7961 3093298
3029.9062 699.68494 3218.2439 3093298
3035.8918 696.43256 3203.2844 3224884
3057.74 696.83789 3205.1487 3488056
3099.0625 701.64709 3227.2688 3356470
3119.8259 701.76929 3227.8311 3224884
3106.2803 694.22229 3193.1182 3290676
3128.7388 694.76691 3195.6233 3356472
3157.2957 696.65027 3204.2856 3290679
3142.333 688.9679 3168.9502 3290679
3129.7817 681.90747 3136.4753 3093300
3146.2195 681.21173 3133.2751 2961714
3167.3401 681.53223 3134.7495 2961714
3231.49 691.0506 3178.5298 3290679
3245.0107 689.69177 3172.2795 3422265
nan nan nan 16777215
nan nan nan 16777215
nan nan nan 16777215
nan nan nan 16777215
nan nan nan 16777215
nan nan nan 16777215
nan nan nan 16777215
nan nan nan 16777215
-2746.5425 663.633 2967.3608 3225397
-2670.6008 649.68127 2904.9773 3291190
-2657.3955 650.90485 2910.4482 3356983
-2644.4336 652.20532 2916.2634 3620155
-2634.9897 654.39764 2926.0659 3751741
-2612.2791 653.3028 2921.1704 3883327
-2602.7747 655.51849 2931.0776 4080963
-2565.8552 650.81201 2910.0332 4080706
-2548.5266 651.04291 2911.0657 4146499
-2535.3708 652.35071 2916.9133 4475464
-2521.6963 653.54309 2922.2449 4278085
-2493.0081 650.83337 2910.1289 3950147
-2474.8389 650.85016 2910.2036 4015683
-2453.8379 650.11688 2906.925 4147269
-2428.9863 648.34485 2899.0017 4213062
-2416.4915 649.86926 2905.8179 4015683
-2397.5725 649.67603 2904.9536 4147270
-2381.4568 650.24524 2907.499 4278855
-2360.7549 649.5614 2904.4412 4213063
-2350.3315 651.71692 2914.0793 4213061
-2356.3652 658.50531 2944.4331 4278855
-2337.9175 658.50531 2944.4331 4410441
-2291.2383 650.49042 2908.5952 4607820
-2264.9712 648.18835 2898.302 4278855
-2261.9478 652.55481 2917.8259 3950147
-2269.1521 659.96704 2950.9688 4081476
-2259.6248 662.59485 2962.7188 4673614
-2254.5498 666.58258 2980.5493 5002834
-2219.4128 661.67444 2958.6033 4937042
-2225.8779 669.19098 2992.2126 4674127
-2209.7251 669.9776 2995.73 4476747
-2190.9561 669.9776 2995.73 4410954
-2161.7153 666.74786 2981.2886 4542540
-2150.9651 669.21454 2992.3181 4542540
-2135.0769 670.11212 2996.3313 4476747
-2117.2334 670.40631 2997.647 4410954
-2101.6755 671.43616 3002.2517 4344904
-2087.261 672.85309 3008.5874 4278855
-2069.5503 673.22357 3010.2439 4476234
-2046.8813 671.97314 3004.6531 4475977
-2025.3999 671.09302 3000.7175 4147525
-2003.4353 670.03479 2995.9856 3753280
-2009.2191 678.32458 3033.0525 3818560
-2006.4401 683.85419 3057.7776 3752767
-1987.6497 683.98065 3058.343 3752767
-1951.4918 678.07501 3031.9365 3752768
-1927.9048 676.46405 3024.7336 3753281
-1929.2362 683.65149 3056.8711 4016196
-1907.905 682.87152 3053.3838 4081733
-1868.5533 675.56073 3020.6943 4147526
-1855.3745 677.65961 3030.0793 4081732
-1843.8052 680.39594 3042.3145 3884353
-1809.52 674.7193 3016.9319 3489596
-1793.2162 675.6983 3021.3096 3686461
-1775.0857 676.00256 3022.6699 3686718
-1762.2029 678.33337 3033.092 3620925
-1750.7382 681.26691 3046.2087 3686718
-1737.2457 683.46735 3056.0479 3884097
-1703.297 677.5791 3029.7192 3620925
-1684.7401 677.75018 3030.4844 3423546
-1658.6705 674.86853 3017.5991 3620925
-1636.1166 673.36719 3010.8862 3884354
-1626.4158 677.1825 3027.9458 3949890
-1619.9813 682.46387 3051.5608 3620925
-1585.1719 675.77484 3021.6516 3423546
-1560.1786 673.15942 3009.9573 3357753
-1540.2629 672.69769 3007.8926 3291960
-1529.7338 676.37476 3024.334 3357753
-1505.3347 673.93445 3013.4226 3489339
-1488.6041 674.90894 3017.78 3291960
-1468.2341 674.23724 3014.7766 3489339
-1445.3251 672.36694 3006.4136 3752767
-1434.6854 676.23029 3023.6882 3818304
-1417.2054 676.92975 3026.8157 3752511
-1391.5967 673.71283 3012.4316 3686718
-1374.9514 674.80652 3017.322 3752511
-1359.9712 676.75934 3026.0537 3752511
-1343.5681 678.04932 3031.8218 3620925
-1321.3081 676.37805 3024.3489 3489339
-1310.5305 680.62158 3043.3235 3620925
-1302.8572 686.62646 3070.1733 4278855
-1279.7908 684.57733 3061.011 4278855
-1264.3782 686.62219 3070.1545 4147269
-1243.6626 685.80597 3066.5049 4081989
-1232.5487 690.34204 3086.7874 4016196
-1213.265 690.3739 3086.9297 4147782
-1196.0372 691.59564 3092.3926 4147782
-1182.7822 695.19263 3108.4761 3950403
-1169.4508 698.86426 3124.8936 4016196
-1156.8527 703.10675 3143.8633 4345418
-1131.2905 699.48053 3127.6489 4411210
-1125.4475 708.13373 3166.3408 4542541
-1109.8584 710.85516 3178.5093 4477005
-1076.5017 702.0882 3139.3088 4345419
-1067.1167 708.91998 3169.8564 4016454
-1050.2034 710.91467 3178.7756 4082249
-1031.5808 711.80725 3182.7666 4542800
-997.3476 701.75104 3137.8013 4542799
-975.67743 700.30768 3131.3477 4344906
-951.29053 696.81512 3115.731 4345163
-919.91779 687.9519 3076.1001 4279368
-906.17157 692.17334 3094.9756 3950403
-886.90399 692.26959 3095.4062 3949890
-870.62537 694.75543 3106.5212 3950147
-846.94415 691.31256 3091.127 3950147
-825.45605 689.54065 3083.2041 4278342
-814.78412 696.93549 3116.2693 4344648
-781.18512 684.60101 3061.1169 4081476
-761.65216 684.2829 3059.6946 4081733
-743.21619 684.95935 3062.7192 4147525
-723.21033 684.1864 3059.2632 4344904
-695.68927 676.06824 3022.9636 4344905
-676.74945 676.06824 3022.9636 3950147
-665.17572 683.63879 3056.8145 4409671
-647.08502 684.76172 3061.8354 3883327
-627.90167 684.76172 3061.8354 3554362
-600.83588 675.89459 3022.187 3554362
-581.98859 675.99634 3022.6421 3620155
-561.28192 673.87274 3013.1465 3159604
-543.73737 675.52966 3020.5554 3685948
-524.81262 675.52966 3020.5554 3620155
-507.10422 677.15381 3027.8176 3685948
-489.86511 679.55536 3038.5557 3949120
-467.22571 674.35657 3015.3101 4014913
-444.45605 668.52386 2989.2297 3817534
-426.86264 670.30609 2997.199 3685948
-405.86966 666.66852 2980.9338 3422776
-387.42734 667.07178 2982.7368 3488569
-369.79361 668.97852 2991.2627 3751484
-352.2052 671.17535 3001.0857 3555388
-333.09119 670.54871 2998.2834 3555132
-314.87943 671.77197 3003.7534 3620925
-297.58868 675.24066 3019.2632 3423546
-278.81152 675.57861 3020.7744 3555132
-258.4552 671.86072 3004.1501 3752511
-237.37715 665.53528 2975.8665 3555132
-221.64178 674.38751 3015.4485 3028787
-201.97092 671.79913 3003.875 3555645
-186.38818 683.67426 3056.9731 3818817
-167.53659 684.90607 3062.481 3753024
-148.34921 684.90607 3062.481 3950403
-128.13467 679.45941 3038.127 3950403
-108.52629 675.88739 3022.1548 3687232
-89.580956 675.80737 3021.7971 3555392
-70.803368 677.28918 3028.4229 3489598
-51.933876 678.65491 3034.5298 3423549
-33.046272 681.22479 3046.0208 3292217
-14.028668 684.47729 3060.5637 3028790
5.1579399 685.97046 3067.2402 3489340
24.508699 689.72882 3084.0452 3686719
43.698658 687.64307 3074.7192 3489339
63.474957 693.23743 3099.7336 3160374
82.418976 689.25024 3081.9055 2897202
100.94882 683.97052 3058.2979 3291960
120.37218 685.46344 3064.9734 3357753
140.43297 689.67615 3083.8098 3489082
158.97878 686.32941 3068.8452 3620925
178.91913 689.07574 3081.1252 3752254
199.48297 693.45453 3100.7046 3686461
219.45073 695.16791 3108.3657 3752511
238.89662 695.08356 3107.9885 3686462
258.82724 696.31598 3113.4993 3686461
278.42349 696.53925 3114.4973 3686718
297.07486 694.52417 3105.4873 3620668
316.53171 694.52417 3105.4873 3424316
335.95697 694.45886 3105.1953 3686461
355.44882 694.53088 3105.5171 3621438
375.44989 695.5387 3110.0237 3753024
399.13303 702.93182 3143.0811 3687231
418.82541 702.93182 3143.0811 3950403
435.02969 697.34058 3118.0803 4016196
449.1889 689.09253 3081.2002 3753024
468.49359 689.09253 3081.2002 3687231
485.59012 685.97314 3067.2522 4147782
505.00705 686.24445 3068.4653 4476747
532.64252 697.25427 3117.6946 3753024
547.9093 691.8667 3093.6047 3753281
567.10046 691.63348 3092.562 3621438
585.06531 689.96948 3085.1216 4016196
604.66254 690.27545 3086.4895 4608076
616.19763 681.64404 3047.895 4410700
636.41711 682.84943 3053.2849 4147271
661.30939 688.85199 3080.1245 4147527
684.36505 692.65521 3097.1304 4278856
702.39844 691.30573 3091.0964 4278857
717.98242 687.68268 3074.8962 3555132
737.24762 687.68268 3074.8962 3752770
754.71045 686.04431 3067.5706 3884097
772.88635 685.11945 3063.4351 3620925
796.04791 688.55182 3078.7825 3686718
810.20508 684.21753 3059.4021 3555388
833.97943 688.01758 3076.3938 3357753
854.0816 688.68488 3079.3774 3358010
876.81842 691.40027 3091.519 3423033
898.2453 692.98761 3098.6167 3619641
927.29449 700.26398 3131.1521 3619898
928.96332 686.99042 3071.8008 3685691
949.38843 687.84491 3075.6216 3554105
967.75372 687.20264 3072.7498 3554876
991.07318 690.03473 3085.4133 3621182
1009.273 689.26227 3081.9592 3752767
1027.5936 688.59955 3078.9961 3752511
1044.9077 687.29944 3073.1826 3291704
1069.4573 690.7193 3088.4741 3488569
1091.4491 692.39508 3095.9673 3620155
1108.203 690.7475 3088.6003 3620155
1130.1552 692.34094 3095.7251 3751741
1146.4628 690.48108 3087.4089 3751997
1168.6499 692.16528 3094.9397 3620155
1191.7048 694.30005 3104.4851 3488569
1205.7145 691.18097 3090.5386 3356983
1234.8057 696.66949 3115.0798 3159604
1241.1101 689.33105 3082.2668 3159604
1209.5166 661.49097 2957.783 2501930
1249.8018 673.20868 3010.1772 2831152
1280.1432 679.30133 3037.4199 3620668
1298.2605 678.82397 3035.2856 3686974
1321.8936 681.20264 3045.9216 3884097
1337.2563 679.31256 3037.4702 4081476
1359.5692 680.95648 3044.8208 4410441
1399.2253 691.12122 3090.2715 4213062
1407.7417 685.83759 3066.6462 3884097
1426.7711 685.74915 3066.2507 3949890
1445.5454 685.54199 3065.3245 4213062
1471.1642 688.54376 3078.7466 4476234
1484.4546 685.77246 3066.355 4213062
1508.4786 687.96716 3076.1685 3489339
1527.7517 687.96716 3076.1685 3489339
1533.3077 681.86719 3048.8928 3489339
1556.1062 683.4906 3056.1519 3489339
1574.795 683.2915 3055.2617 3489339
1604.5535 687.84247 3075.6108 3489339
1629.7319 690.34546 3086.8025 3028788
1646.2358 689.15833 3081.4944 2831409
1675.2452 693.17303 3099.4458 3029044
1703.5083 696.79059 3115.6211 3225397
1718.7032 695.04138 3107.7998 3356983
1731.5635 692.39789 3095.9797 3554362
1750.8652 692.36005 3095.8105 3554362
1773.6877 693.70007 3101.8025 3291190
1802.7798 697.43658 3118.5098 3291190
1837.1588 703.11639 3143.9065 3488569
1864.821 706.1322 3157.3914 3554362
1849.2203 692.87494 3098.1128 3685948
1868.0282 692.65143 3097.1135 3620155
1882.8467 690.96844 3089.5884 3093811
1908.8654 693.38812 3100.4077 2830639
1933.8158 695.37506 3109.292 3028018
1953.2966 695.37506 3109.292 3028018
1973.0798 695.48175 3109.769 3093811
1993.2516 695.72192 3110.843 3093811
2012.4186 695.61017 3110.343 3225397
2031.6472 695.52167 3109.9473 3159604
2052.292 695.91498 3111.7061 3093811
2074.1394 696.7049 3115.238 3225397
2095.1758 697.21014 3117.4971 3159604
2117.6887 698.19287 3121.8916 3159604
2145.4924 700.88605 3133.9338 3225397
2149.8552 695.9422 3111.8279 3291190
2167.7063 695.41431 3109.4675 3291190
2206.7468 701.63293 3137.2734 3291190
2234.2837 704.11664 3148.3789 3093811
2264.8455 707.50165 3163.5146 3093811
2277.5911 705.31079 3153.7185 3291190
2298.0637 705.52985 3154.698 3488569
2347.5659 714.5816 3195.1719 3751741
2366.2305 714.17291 3193.3442 3949120
2382.792 713.14154 3188.7329 3751741
2384.7974 707.80725 3164.8809 3685948
2384.2488 701.80902 3138.0605 3356983
2395.2334 699.276 3126.7346 3356983
2420.448 700.90479 3134.0173 3356983
2452.0916 704.35406 3149.4404 3619386
2471.8237 704.35406 3149.4404 3882814
2474.064 699.40912 3127.3296 3817021
2482.2874 696.22003 3113.0701 3948607
2456.7639 683.68927 3057.0403 4540744
2491.834 688.08453 3076.6931 4738123
2550.4214 698.85632 3124.8579 3422006
2569.9995 698.85632 3124.8579 3290420
2587.8477 698.3894 3122.7703 3553078
2626.0864 703.39111 3145.1348 3487286
2643.8718 702.88068 3142.8525 3487029
2698.1335 712.00348 3183.644 3421236
2716.8494 711.68115 3182.2026 3355443
2747.3186 714.4198 3194.4482 3355443
2760.3079 712.6062 3186.3391 3355442
2779.5396 712.4187 3185.5007 3289650
2812.0854 715.62201 3199.824 3223601
2841.2417 717.92358 3210.115 2961198
2844.2905 713.64221 3190.9714 2961198
2861.9492 713.06079 3188.3716 2632233
2881.95 713.06689 3188.3989 2632233
2893.801 711.07031 3179.4714 2763819
2904.688 708.86578 3169.6143 2764333
2888.4116 700.10724 3130.4514 2830126
2899.5344 698.06317 3121.3113 2895919
2902.4819 694.09143 3103.5525 3027505
2930.6738 696.16931 3112.8433 3290677
2945.0762 694.9657 3107.4614 3290677
2954.8215 692.68616 3097.2688 3356470
2970.7881 691.88525 3093.6877 3356470
2990.1709 691.88525 3093.6877 3224884
3010.4092 692.08191 3094.5669 3224884
3034.9729 693.26404 3099.8528 3422264
3046.9841 691.58215 3092.3323 3356472
3038.8333 685.37415 3064.5737 3290679
3056.4036 685.00873 3062.9399 3159093
3060.46 681.63806 3047.8687 3027507
3098.7288 685.8819 3066.8442 3093300
3126.5454 687.77411 3075.3052 3290679
3140.488 686.60986 3070.0994 3356472
nan nan nan 16777215
nan nan nan 16777215
nan nan nan 16777215
nan nan nan 16777215
nan nan nan 16777215
nan nan nan 16777215
nan nan nan 16777215
nan nan nan 16777215
-2602.3699 646.31964 2811.5969 3356983
-2590.2485 647.69348 2817.5732 3554362
-2573.4778 647.91553 2818.5393 3620155
-2541.8677 644.37885 2803.1543 3685948
-2544.1777 649.45178 2825.2224 3685948
-2519.3818 647.62799 2817.2883 3883327
-2504.5342 648.3537 2820.4456 4146499
-2489.2791 648.98358 2823.1855 4014913
-2478.2114 650.72192 2830.7478 4146499
-2463.6567 651.56317 2834.4072 4146756
-2445.0774 651.34448 2833.4558 4080706
-2427.325 651.34448 2833.4558 3950146
-2400.958 649.01587 2823.3262 4015683
-2383.269 649.01587 2823.3262 3949890
-2357.2048 646.71814 2813.3303 4147526
-2338.8027 646.50366 2812.3975 4278855
-2317.4478 645.46356 2807.8728 4344648
-2291.4272 643.09808 2797.5825 4278855
-2289.084 647.39252 2816.2642 3884097
-2278.55 649.41925 2825.0808 3818304
-2298.2649 660.1665 2871.833 4015683
-2257.8208 653.66656 2843.5574 4213062
-2240.0049 653.66656 2843.5574 4344648
-2215.3269 651.64801 2834.7761 4147269
-2217.2922 657.49744 2860.2222 2897202
-2211.2375 661.04462 2875.6528 3291960
-2196.5769 662.05609 2880.0532 4213318
-2185.47 664.16443 2889.2246 4147269
-2173.6794 666.09851 2897.6382 4410697
-2167.0481 669.65942 2913.1289 4344648
-2147.8892 669.37665 2911.8987 4475977
-2128.3032 668.95483 2910.0637 4542540
-2120.1755 672.15833 2923.9995 4739663
-2072.5632 662.79083 2883.2493 4673869
-2071.3076 668.21338 2906.8384 4213063
-2045.6527 665.79108 2896.3008 4213318
-2041.3052 670.32227 2916.0122 4278855
-2021.952 669.96332 2914.4507 4344648
-2009.7653 671.9939 2923.2842 3949890
-1976.8109 667.05414 2901.7954 3620925
-1976.3195 673.07855 2928.0027 3686718
-1973.8523 678.53668 2951.7466 3818560
-1939.8002 673.13763 2928.2598 3818304
-1922.2432 673.41425 2929.4631 3818304
-1910.1859 675.64148 2939.1519 3818304
-1886.35 673.70526 2930.729 3752767
-1863.7361 672.17175 2924.0581 3686718
-1850.5527 674.04272 2932.197 3752511
-1832.1815 674.04272 2932.197 3884097
-1824.7499 678.10803 2949.8816 3818561
-1805.5128 677.82452 2948.6484 3620925
-1781.0701 675.56067 2938.8003 3489339
-1742.1407 667.69733 2904.5935 3489339
-1732.0747 670.84698 2918.2949 3620925
-1714.8629 671.26672 2920.1208 3752511
-1695.1473 670.7049 2917.6768 3686718
-1681.9229 672.72699 2926.4731 3621181
-1660.9429 671.65747 2921.8208 3555132
-1638.6011 670.00732 2914.6423 3489339
-1622.4481 670.87909 2918.4346 3423546
-1603.4655 670.58722 2917.165 3555132
-1586.6207 671.19312 2919.8008 3686974
-1563.8831 669.29114 2911.5269 3752511
-1548.1996 670.39893 2916.3457 3423546
-1543.8831 676.51392 2942.947 3160374
-1502.8444 666.49109 2899.3459 3226167
-1494.2084 670.76886 2917.9551 3160374
-1474.3712 670.06201 2914.8801 3160374
-1454.6134 669.37396 2911.8872 3357753
-1436.2084 669.29889 2911.5605 3357753
-1418.8022 669.69336 2913.2766 3620925
-1407.6516 673.08923 2928.0491 3818561
-1384.1998 670.61517 2917.2866 3949890
-1362.1051 668.74115 2909.1343 3949890
-1343.8784 668.74115 2909.1343 3752511
-1323.0068 667.40692 2903.3301 3752511
-1309.9924 670.05432 2914.8467 3620925
-1295.9476 672.24213 2924.364 3620925
-1287.0858 677.21973 2946.0173 3357753
-1245.5127 664.88025 2892.3386 3357753
-1274.5309 690.41589 3003.4229 4278855
-1240.0743 681.81714 2966.0168 4278855
-1221.4913 681.81714 2966.0168 4147269
-1206.871 684.06317 2975.7876 4016196
-1193.7411 687.23785 2989.5979 4345161
-1175.0757 687.276 2989.7639 4279368
-1156.3439 687.276 2989.7639 4213575
-1140.8672 689.24255 2998.3186 4016453
-1127.9978 692.87646 3014.127 4016196
-1112.6133 695.06287 3023.6382 4542540
-1095.092 695.96716 3027.5718 4476747
-1077.8958 697.11353 3032.5586 4608076
-1060.9128 698.44128 3038.3347 4476747
-1041.8766 698.44128 3038.3347 3950918
-1034.7124 706.54785 3073.5996 4148040
-1020.2028 709.85114 3087.9695 4279627
-999.76447 709.07715 3084.6025 4477006
-968.53217 700.46625 3047.1436 4411213
-942.3656 695.24634 3024.4363 4148042
-921.21155 693.58618 3017.2141 4279627
-893.30676 686.66724 2987.1157 4147784
-871.17725 683.98663 2975.4546 3950660
-856.12048 686.86316 2987.968 3950403
-834.57092 684.54272 2977.8735 4081989
-815.91364 684.54272 2977.8735 4279368
-796.89191 684.2298 2976.5125 4279368
-778.2431 684.2298 2976.5125 4016196
-759.33661 683.99762 2975.5024 4015683
-744.87836 687.86157 2992.3113 4147526
-727.01953 688.70367 2995.9744 4344648
-709.89923 690.30853 3002.9558 4607820
-686.01031 685.23981 2980.906 4542027
-667.20007 685.10217 2980.3074 4344905
-648.52747 685.10217 2980.3074 4014914
-636.07947 691.87268 3009.7603 3751741
-603.6936 676.70764 2943.7898 3554362
-583.01581 674.12445 2932.5525 3422776
-566.59833 676.45959 2942.7107 3291190
-547.52264 675.67145 2939.2822 3422519
-526.88745 672.83685 2926.9512 3422520
-507.77087 671.80719 2922.4719 3356983
-489.46072 671.80719 2922.4719 3620155
-473.20706 674.73962 2935.2285 3422776
-456.45456 677.16907 2945.7969 3291190
-434.32779 671.49438 2921.1111 3554362
-415.12881 670.04602 2914.8105 3620155
-395.12744 667.10968 2902.0371 3488569
-377.49255 668.07825 2906.2505 3356983
-358.63199 666.86584 2900.9763 3488569
-341.97833 669.84686 2913.9441 3423803
-323.72159 669.84686 2913.9441 3291960
-304.06549 666.77826 2900.5952 3028788
-285.9408 666.89117 2901.0867 3291960
-267.87521 667.16675 2902.2854 3357753
-249.2791 666.06482 2897.4917 3357753
-231.966 668.4873 2908.03 3686718
-214.96484 672.29834 2924.6084 3489851
-195.29245 667.68683 2904.5476 3621694
-179.29842 675.99585 2940.6934 3621438
-160.03828 672.48383 2925.4155 3489852
-141.38318 670.93463 2918.6763 3358266
-124.39624 678.01733 2949.4873 3489852
-104.63151 669.78973 2913.6958 3489853
-86.372543 669.76062 2913.5691 3555390
-68.19149 670.48187 2916.7068 3489851
-50.036518 672.0816 2923.6658 3424059
-31.930225 676.56055 2943.1499 3621182
-13.510094 677.54419 2947.429 4015939
4.954802 677.3172 2946.4414 3489595
23.644688 683.9563 2975.3228 3489338
42.262672 683.57886 2973.6807 3291960
60.562527 679.86108 2957.5078 3226167
78.934448 678.50494 2951.6082 3291960
96.882202 674.70947 2935.0974 3291960
115.23419 674.49109 2934.1475 3160374
134.45755 678.73145 2952.5938 3226167
152.91667 678.55493 2951.8257 3686718
171.34044 678.27643 2950.6143 3620925
191.23521 683.30835 2972.5039 3357753
210.12233 684.16614 2976.2356 3620925
230.81471 690.28302 3002.845 3949890
248.93185 688.35675 2994.4653 3752767
268.70352 690.95496 3005.7681 3818304
286.60281 688.7135 2996.0171 3752511
305.26096 688.45898 2994.9102 3489339
323.55856 687.46796 2990.5991 3620668
342.74509 688.37073 2994.5261 3424059
366.93661 698.71014 3039.5044 3292473
385.98007 698.71014 3039.5044 3358266
398.35696 687.20972 2989.4753 3292473
417.79559 688.37732 2994.5547 3555645
431.62726 680.60327 2960.7363 3621694
454.32788 686.87848 2988.0347 3555645
478.30954 694.51721 3021.2642 3424059
488.04474 681.67554 2965.4009 3292729
511.11417 687.71735 2991.6836 3818817
530.51697 688.57251 2995.4041 3424316
550.11902 689.61926 2999.9573 3490108
571.63794 692.92029 3014.3174 4016196
589.04633 691.18689 3006.7769 4016196
603.37549 686.05969 2984.4729 3752513
617.91119 681.46857 2964.5005 3752511
637.97925 683.06879 2971.4617 3949890
666.23462 693.09558 3015.0801 3752511
682.90765 690.85236 3005.3218 3884097
701.5863 690.7041 3004.6768 3620924
715.99768 686.47229 2986.2676 3686718
736.71191 688.34503 2994.4143 3686718
754.52057 687.47736 2990.6399 3489339
766.24689 681.24414 2963.5244 3686974
786.49463 682.7027 2969.8694 3620925
810.93671 687.65057 2991.3933 3620925
822.06146 681.33728 2963.9294 3751741
837.58838 678.87085 2953.2002 3817534
863.83929 685.0152 2979.929 3686204
887.27258 688.71228 2996.012 3291447
908.30737 690.43317 3003.498 3291447
928.89752 691.75299 3009.2395 3488826
937.16901 684.02905 2975.6392 3555132
962.58069 688.87286 2996.7104 3686974
975.95135 685.07904 2980.2068 3686718
993.04413 683.99133 2975.4749 3752511
1021.1516 690.39062 3003.313 3883840
1039.9683 690.39062 3003.313 3949120
1050.1356 684.75079 2978.7788 3949120
1070.7113 685.9762 2984.1096 4014913
1090.7169 686.8006 2987.6958 4080706
1111.303 687.95642 2992.7239 3949120
1129.4855 687.61084 2991.2205 3817534
1143.5702 684.82245 2979.0903 3949377
1158.9768 682.90259 2970.7388 3685948
1192.2747 691.41876 3007.7856 3488313
1206.1338 688.57251 2995.4041 3290934
1212.733 681.73242 2965.6482 3028018
1221.3368 676.20856 2941.6187 3225910
1245.0978 679.11621 2954.2673 3225654
1263.7034 679.16785 2954.4922 3489083
1276.4536 676.11664 2941.2188 3555132
1294.8813 676.11664 2941.2188 3818304
1338.8334 689.25708 2998.3818 4213062
1333.5985 677.06189 2945.3308 4410441
1352.757 677.41498 2946.8667 4015683
1369.5757 676.6026 2943.3328 3950147
1388.0165 676.6026 2943.3328 4147269
1397.8757 672.47424 2925.3738 4476234
1437.5842 682.6264 2969.5374 3621182
1464.8607 686.69141 2987.2207 3620925
1475.0277 682.73444 2970.0073 3818304
1482.8269 677.7937 2948.5144 3620925
1495.4242 675.14087 2936.9741 3620925
1509.9802 673.42603 2929.5142 3751998
1528.3345 673.42603 2929.5142 3554875
1556.8561 677.85291 2948.7717 3094324
1581.0636 680.31952 2959.5022 2896946
1611.1099 685.21228 2980.7864 3159605
1624.4269 682.95929 2970.9856 2896432
1643.041 682.95929 2970.9856 2764846
1657.9271 681.42706 2964.3201 3028018
1682.6798 683.93915 2975.2478 3159604
1699.6516 683.26813 2972.3291 3225397
1736.8107 690.63916 3004.3943 3356983
1756.0726 690.81165 3005.1445 3422776
1767.7214 688.0174 2992.989 3488569
1786.6519 688.08606 2993.2878 3488569
1800.218 686.10889 2984.6868 3422776
1814.7568 684.53925 2977.8586 3225397
1833.4139 684.53925 2977.8586 3225397
1855.061 685.64429 2982.6658 3422776
1874.3556 685.86658 2983.6326 3422776
1899.7196 688.28333 2994.146 3356983
1923.2616 689.99921 3001.6104 3225397
1940.7468 689.52997 2999.5688 3356983
1956.674 688.52142 2995.1816 3422776
1975.9392 688.6955 2995.939 3159604
1995.9293 689.11658 2997.7708 3159604
2015.9685 689.54663 2999.6414 3291190
2035.1321 689.672 3000.1868 3356983
2054.3599 689.81665 3000.8162 3291190
2068.1553 688.151 2993.5703 3291190
2084.0952 687.2226 2989.5315 3028018
2104.927 687.90936 2992.519 2830639
2137.2246 692.29803 3011.6106 2765102
2178.6594 699.54376 3043.1306 2896432
2197.7256 699.54376 3043.1306 2962225
2196.261 693.065 3014.947 3093811
2235.9492 699.57239 3043.2551 3159604
2250.1543 698.06403 3036.6936 3225397
2293.9985 705.69891 3069.9065 3422776
2304.4343 703.01483 3058.2305 3422776
2304.4861 697.2334 3033.0801 3225397
2328.7913 698.8244 3040.0012 3356983
2351.7195 699.97974 3045.0271 3291190
2375.3638 701.32794 3050.8923 3290933
2404.8506 704.36578 3064.1074 3290677
2435.2559 707.62256 3078.2747 3619642
2424.8186 699.05341 3040.9976 4014400
2412.072 689.95746 3001.4285 4475208
2386.0349 677.22992 2946.0618 4342851
2434.313 685.62878 2982.5984 3487799
2453.4304 685.74915 2983.1218 3356213
2492.1399 691.30231 3007.2791 3356470
2540.3562 699.38953 3042.4597 3355956
2553.353 697.73224 3035.2502 3355956
2594.2371 703.66345 3061.052 3487542
2614.5742 703.97552 3062.4094 3487542
2633.7612 703.97552 3062.4094 3422006
2649.3987 703.03363 3058.3123 3487542
2663.3098 701.65045 3052.2952 3553335
2702.3669 706.86456 3074.9773 3553079
2710.8298 704.05878 3062.7717 3355956
2721.1526 701.77222 3052.8247 3355956
2738.626 701.34875 3050.9827 3224370
2756.6257 701.065 3049.7483 3158577
2785.7637 703.59839 3060.7688 2961454
2789.3643 699.69122 3043.7722 2764076
2808.4346 699.69122 3043.7722 2764333
2822.5281 698.45978 3038.415 2764590
2821.9365 693.63513 3017.4272 2830383
2835.6123 692.35834 3011.8728 3224884
2838.5466 688.49304 2995.0581 3224884
2840.8604 684.52893 2977.8137 3422263
2887.8992 691.32318 3007.3696 3290677
2899.4902 689.59863 2999.8677 3422263
2902.2739 685.81512 2983.4087 3422262
2924.1702 686.56744 2986.6814 3290679
2933.2656 684.32379 2976.9214 3290679
2949.5371 683.77209 2974.5212 3290679
2946.6272 678.80853 2952.929 3159093
2960.8447 677.82788 2948.6631 3159093
2989.5874 680.16406 2958.8257 3159093
3020.7642 683.02179 2971.2573 3422265
3029.4917 680.79968 2961.5908 3422265
nan nan nan 16777215
nan nan nan 16777215
nan nan nan 16777215
nan nan nan 16777215
nan nan nan 16777215
nan nan nan 16777215
nan nan nan 16777215
nan nan nan 16777215
-2503.0088 638.49579 2704.2473 3422776
-2495.6638 640.96088 2714.6877 3422776
-2478.6555 640.96088 2714.6877 3488569
-2443.5723 636.25458 2694.7549 3488569
-2443.5615 640.67841 2713.4915 3685948
-2426.5608 640.67841 2713.4915 3949120
-2419.4851 643.31744 2724.6687 4014913
-2404.7209 643.93518 2727.2849 4080706
-2391.6335 645.01392 2731.8538 4080706
-2373.6621 644.78149 2730.8694 4015170
-2353.7571 644.01666 2727.6301 4080962
-2337.5334 644.25525 2728.6406 3884353
-2322.7563 644.89899 2731.3672 3752511
-2295.5222 642.06812 2719.3772 3818304
-2281.6035 642.94702 2723.0999 3752511
-2269.488 644.3512 2729.0469 4015683
-2259.6558 646.42981 2737.8506 3949890
-2230.4167 642.94598 2723.0955 4015940
-2249.7451 653.51654 2767.8652 3291960
-2223.7991 650.99768 2757.197 3291960
-2220.5891 655.14728 2774.772 3423546
-2188.4741 650.76709 2756.2205 3818304
-2175.8086 652.14673 2762.0637 4147269
-2197.9204 664.05573 2812.5022 4081477
-2180.2991 664.05573 2812.5022 3356983
-2158.5225 662.77979 2807.0984 3226167
-2139.5591 662.35382 2805.2942 3028788
-2146.592 670.03522 2837.8274 3291960
-2117.6387 666.51831 2822.9324 3555389
-2107.0554 668.77295 2832.4814 3949890
-2087.0898 668.06262 2829.4729 4081476
-2066.9399 667.28058 2826.1606 4015683
-2046.8104 666.4917 2822.8196 3949890
-2024.5194 664.97906 2816.4131 4147269
-2016.1212 668.04321 2829.3906 3818561
-2005.5565 670.4375 2839.5312 3818560
-1988.7181 670.75867 2840.8916 3818304
-1968.9751 670.09711 2838.0896 3752511
-1954.2827 671.15796 2842.5828 3752511
-1931.9587 669.59338 2835.9561 3620925
-1894.2474 662.61713 2806.4094 3555132
-1901.7687 671.48108 2843.9512 3686718
-1885.5177 672.03961 2846.3169 3884097
-1870.0984 672.90814 2849.9954 3489339
-1843.069 669.57562 2835.8809 3489339
-1817.5757 666.74158 2823.8777 3686718
-1807.475 669.55383 2835.7886 3752511
-1789.3115 669.40558 2835.1606 3752511
-1771.1675 669.26166 2834.5513 3884097
-1750.5227 668.16028 2829.8865 3686718
-1732.2053 667.93384 2828.9275 3423546
-1714.4951 667.93921 2828.9502 3423546
-1695.2682 667.34772 2826.4451 3489339
-1673.6791 665.80396 2819.9067 3620925
-1658.0853 666.63782 2823.4382 3752511
-1641.9358 667.26373 2826.0891 3686718
-1623.7318 667.05927 2825.2234 3620925
-1605.1339 666.68671 2823.6453 3489339
-1586.5916 666.3291 2822.1309 3555132
-1569.0844 666.4032 2822.4446 3357753
-1548.6713 665.23071 2817.4788 3226167
-1526.198 663.13599 2808.6069 3226167
-1516.4117 666.56934 2823.1482 3291960
-1501.1591 667.6524 2827.7354 3555132
-1477.5743 665.01129 2816.5496 3423546
-1457.6179 663.95917 2812.0933 3357753
-1440.5457 664.21106 2813.1602 3357753
-1423.6025 664.52954 2814.509 3555132
-1405.7936 664.44678 2814.1584 3291960
-1392.0299 666.2981 2821.9995 3555132
-1376.3896 667.28729 2826.1892 3884097
-1356.1814 666.05884 2820.9863 3818304
-1342.0055 667.79974 2828.3594 3686718
-1323.9247 667.61804 2827.5898 3686974
-1301.9294 665.43073 2818.3259 3620925
-1286.3953 666.53107 2822.9861 3620925
-1275.3943 670.04352 2837.8628 3686718
-1251.782 666.93622 2824.7021 3752511
-1234.3407 667.07477 2825.2888 3949890
-1222.9585 670.53943 2839.9631 4015683
-1218.8309 678.14294 2872.1663 4081476
-1212.7844 684.8905 2900.7446 3884097
-1186.9524 680.50012 2882.1499 3686718
-1170.2211 681.27222 2885.4199 3621181
-1153.2236 681.91113 2888.126 3753024
-1132.4817 680.32104 2881.3916 3950146
-1115.7598 681.13354 2884.8325 3950403
-1102.5977 684.18164 2897.7424 4016196
-1100.501 694.31311 2940.6526 4147782
-1087.8004 697.98566 2956.207 4279368
-1066.0662 695.88849 2947.325 4279368
-1046.4554 695.12811 2944.1042 4213575
-1023.0746 691.79095 2929.9705 4147782
-1000.4351 688.84235 2917.4822 4016196
-983.09155 689.49841 2920.2607 3950659
-967.4928 691.42621 2928.4258 3884610
-948.33142 690.83337 2925.9148 4016196
-929.99963 690.83337 2925.9148 3950658
-906.25452 686.73126 2908.541 4147528
-888.03156 686.73126 2908.541 4016452
-870.19733 687.03809 2909.8406 4016196
-851.69666 686.82074 2908.9199 4081989
-831.97992 685.59167 2903.7144 4279368
-810.63763 682.93823 2892.4761 4410954
-793.23706 683.56012 2895.1101 4081989
-776.7569 685.02283 2901.3052 3818561
-753.90631 680.80298 2883.4326 3818304
-735.73279 680.70306 2883.0095 4081733
-720.53223 683.41803 2894.5083 4147269
-707.93805 688.80914 2917.3416 4410441
-689.0293 688.1792 2914.6736 4213062
-680.94843 698.62396 2958.9104 3226167
-652.33838 688.00177 2913.9219 3094837
-630.95453 684.60858 2899.5508 4080450
-613.10242 684.96002 2901.0391 4015170
-592.73157 682.43286 2890.3357 4343878
-573.29065 680.85089 2883.6355 4212549
-550.63635 675.22546 2859.8101 4146756
-531.68622 673.91669 2854.2668 3751741
-516.02264 676.82758 2866.5955 3817534
-498.29205 677.13947 2867.9165 3422776
-478.01767 673.88855 2854.1477 3291190
-458.96802 672.17871 2846.9058 3356983
-443.6142 675.9621 2862.9299 3422776
-422.38644 670.73669 2840.7983 3422776
-404.08316 669.89978 2837.2539 3488569
-385.48825 668.48022 2831.2415 3488569
-368.07748 669.07611 2833.7654 3554362
-350.09811 668.64655 2831.9458 3817534
-328.57162 661.03473 2799.7075 3620925
-316.41229 672.47253 2848.1504 3291960
-295.92599 666.5224 2822.9495 3555132
-278.6752 667.56653 2827.3716 3423546
-261.45703 668.83588 2832.7478 3357753
-248.08327 680.84064 2883.5923 4015683
-222.05698 657.28027 2783.8059 3818304
-206.61104 663.69025 2810.9543 3686462
-188.99954 663.69025 2810.9543 3620925
-171.79794 665.27753 2817.677 3686718
-154.35629 666.19238 2821.5518 3555132
-137.03215 667.91669 2828.8547 3423290
-119.03024 666.35895 2822.2571 3291960
-101.34792 666.35895 2822.2571 3291960
-83.875648 668.0318 2829.3423 3423546
-66.170929 668.25385 2830.2827 3291960
-48.549469 669.78711 2836.7766 3291960
-30.821768 670.77911 2840.9783 3423546
-13.008776 670.08984 2838.0588 3555132
4.7583289 668.09412 2829.6062 3620925
22.562325 670.34125 2839.1238 3357753
40.319069 669.8222 2836.9253 3226167
58.350216 672.78461 2849.4722 3226167
75.991356 670.91571 2841.5566 3291960
93.518166 668.93842 2833.1821 3423546
111.55722 670.67157 2840.5227 3226167
129.54602 671.66724 2844.7397 3291960
147.85126 673.86438 2854.0454 3226167
166.76083 678.04462 2871.75 3226167
184.83023 678.32715 2872.9468 3094581
202.61156 677.59613 2869.8506 3357753
223.47104 686.43951 2907.3054 2897202
241.6862 686.43951 2907.3054 3423546
263.35339 695.55688 2945.9204 3752511
281.81049 695.55688 2945.9204 3555132
294.31293 681.76306 2887.499 3423546
312.54221 682.06476 2888.7766 3489339
331.1553 683.12506 2893.2676 3424059
349.28253 683.12506 2893.2676 3555645
364.57288 677.85046 2870.9277 3621438
382.43451 677.62787 2869.9851 3423803
402.78485 681.63696 2886.9648 3555132
420.87259 681.63696 2886.9648 3357496
444.10242 689.62183 2920.7834 2896945
458.40414 683.65942 2895.5308 3160374
474.03503 680.0578 2880.2766 3357753
491.03525 678.61279 2874.1565 3291960
513.65771 684.76514 2900.2136 3291960
531.82843 684.76514 2900.2136 3423546
550.83392 685.80438 2904.6152 2962995
567.74207 684.24951 2898.0298 3029044
579.04987 676.25043 2864.1511 3423546
597.51508 676.83997 2866.6479 3752511
616.23602 677.67633 2870.1902 3752768
637.14569 680.80389 2883.4365 3818304
654.56128 680.12848 2880.5759 3818304
670.79254 678.29169 2872.7966 3620925
690.9176 680.38544 2881.6641 3752511
708.22418 679.6676 2878.624 3752511
726.13025 679.54651 2878.1111 3752511
743.61871 679.04999 2876.0081 3555388
754.55408 672.73438 2849.2593 3818304
774.10992 674.21875 2855.5461 4015683
791.93536 674.16302 2855.3103 3949890
809.43518 673.83875 2853.9368 3752510
827.59821 674.06866 2854.9104 3489083
851.1261 678.56592 2873.958 3423290
871.20898 680.18726 2880.825 3554876
884.80518 676.78113 2866.3987 3489595
906.55328 679.62177 2878.4299 3620925
924.10272 679.26544 2876.9207 3620925
942.10138 679.24658 2876.8408 3686718
961.96838 680.55029 2882.3623 3884097
982.13678 682.01508 2888.5664 3883841
996.23505 679.28802 2877.0164 4014656
1018.0462 681.82349 2887.7549 4080706
1034.967 681.05243 2884.489 4014913
1053.2742 681.20435 2885.1326 3949120
1071.906 681.55768 2886.6289 3949120
1089.9917 681.55768 2886.6289 4014913
1107.9739 681.49402 2886.3594 3817533
1122.4033 679.28229 2876.9919 3554362
1134.7087 675.87537 2862.5625 3554362
1186.9845 696.01184 2947.8474 3423803
1197.0336 691.15015 2927.2566 3489339
1203.5676 684.4364 2898.8213 3226167
1227.1543 687.47534 2911.6924 3555132
1236.8832 682.77563 2891.7876 3884097
1249.3258 679.68805 2878.7104 3949890
1270.7759 681.51892 2886.4651 4015682
1288.8605 681.51892 2886.4651 4344648
1301.6066 678.73511 2874.6746 4278855
1316.9225 677.34912 2868.8042 4015683
1330.2959 675.01465 2858.9172 3949890
1341.9985 671.90576 2845.75 3949890
1349.1781 666.64355 2823.4626 4542027
1366.8737 666.64636 2823.4744 4410441
1396.0784 672.19055 2846.9561 3949890
1415.5889 672.98608 2850.3254 3949890
1434.9341 673.68427 2853.2825 3949890
1452.4167 673.50153 2852.5085 3949889
1467.4077 672.18188 2846.9192 3884097
1476.5221 668.23425 2830.2 3685948
1495.6788 668.8714 2832.8984 3291190
1525.0471 674.00665 2854.6479 2896432
1542.9324 674.00665 2854.6479 2501931
1560.1606 673.72296 2853.4463 2764846
1579.6089 674.39349 2856.2864 2962225
1599.4397 675.21051 2859.7466 2830639
1618.5454 675.7066 2861.8479 2962225
1638.875 676.69733 2866.0437 3159604
1659.9283 677.9621 2871.4004 3159604
1679.6132 678.64673 2874.3003 3159604
1696.6007 678.23871 2872.572 3356983
1715.673 678.66382 2874.3726 3159604
1747.8365 684.20483 2897.8406 3291190
1761.0146 682.27625 2889.6724 3554362
1779.1194 682.27625 2889.6724 3554362
1803.438 684.63519 2899.6636 3488569
1812.501 681.2135 2885.1711 3422776
1845.6973 686.83997 2909.0015 3422776
1871.8834 689.77332 2921.425 3554362
1887.9049 688.94055 2917.8979 3554362
1896.1229 685.30328 2902.4929 3488569
1904.5773 681.81989 2887.7395 3422776
1923.8071 682.22314 2889.4475 3159604
1948.256 684.45245 2898.8894 3225397
1960.9818 682.56006 2890.8745 3291190
1979.9327 682.84937 2892.0999 3159604
1991.7893 680.70874 2883.0337 3093811
2015.4774 682.61395 2891.1028 3093811
2046.7831 687.04205 2909.8572 2896432
2065.0142 687.04205 2909.8572 2830639
2082.1995 686.69714 2908.3965 2764846
2100.4216 686.69714 2908.3965 2896432
2111.1897 684.28119 2898.1641 2764846
2125.6162 683.08209 2893.0854 2699053
2142.28 682.61621 2891.1123 2765102
2155.2905 681.00378 2884.283 2962481
2176.7061 682.05176 2888.7217 3028018
2206.2954 685.62256 2903.8452 3028018
2229.1348 687.05444 2909.9097 3028018
2251.1079 688.1983 2914.7544 3027762
2274.3394 689.70532 2921.1372 3093554
2279.2104 685.66492 2904.0247 3093298
2350.9453 701.6441 2971.7019 3159091
2284.009 676.31073 2864.4065 3159091
2315.3845 680.25616 2881.1167 3619899
2333.4355 680.25616 2881.1167 4013886
2328.2571 673.53613 2852.655 3421492
2382.3025 683.92078 2896.6375 3619128
2408.4543 686.20099 2906.2952 3750714
2445.0713 691.40643 2928.3418 3684921
2463.4182 691.40643 2928.3418 3553335
2482.2549 691.54279 2928.9194 3619128
2500.0715 691.39514 2928.2942 3553335
2512.3774 689.73676 2921.2703 3553335
2527.5598 688.88635 2917.6685 3487542
2542.0776 687.86823 2913.3564 3553078
2588.7837 695.51251 2945.7327 3684921
2593.6233 691.88025 2930.3486 3684921
2611.9829 691.88025 2930.3486 3487799
2632.4648 692.43854 2932.7131 3356727
2650.8391 692.43854 2932.7131 3553592
2661.2495 690.3725 2923.9629 3619642
2669.6736 687.823 2913.1648 3619642
2667.2971 682.54437 2890.8081 3225141
2684.4004 682.28802 2889.7224 3027505
2707.0596 683.43781 2894.592 2895919
2733.0237 685.40112 2902.9072 2961712
2736.6533 681.77429 2887.5466 3290677
2748.2341 680.16302 2880.7222 3422263
2764.3699 679.69269 2878.7302 3356470
2776.0459 678.13904 2872.1499 3422263
2786.9458 676.41699 2864.8564 3422263
2811.3347 677.96997 2871.4338 3224886
2816.9331 675.00055 2858.8574 3159093
2832.9902 674.55896 2856.9871 3159093
2852.1418 674.8551 2858.2415 3159093
2863.2683 673.26062 2851.488 3224886
2881.7271 673.39923 2852.0752 3159093
2919.2417 677.96167 2871.3989 3093300
2937.2319 677.96167 2871.3989 3356472
nan nan nan 16777215
nan nan nan 16777215
nan nan nan 16777215
nan nan nan 16777215
nan nan nan 16777215
nan nan nan 16777215
nan nan nan 16777215
nan nan nan 16777215
nan nan nan 16777215
-2429.2803 640.37988 2642.478 3159604
