# .PCD v0.7 - Point Cloud Data file format
VERSION 0.7
FIELDS x y z rgb
SIZE 4 4 4 4
TYPE F F F U
COUNT 1 1 1 1
WIDTH 1268
HEIGHT 1
VIEWPOINT 0 0 0 1 0 0 0
POINTS 1268
DATA ascii
-1190.7401 691.75745 3181.781 4345161
-1183.9161 699.50385 3217.4109 4081989
-1158.0901 696.09698 3201.741 3819074
-1142.415 698.77905 3214.0774 3884610
-1122.2778 698.77905 3214.0774 4476747
-1099.0897 696.84473 3205.1804 4542540
-1088.5406 703.00085 3233.4958 4081988
-1082.8154 712.56506 3277.4868 4213575
-1056.2743 708.53583 3258.9541 4410954
-1032.4398 706.19916 3248.2063 4410954
-989.59125 690.50122 3176.0027 4344392
-969.69263 690.50122 3176.0027 4015683
-956.78229 695.58173 3199.3708 3884097
-936.42969 695.35333 3198.3203 3752255
-911.47241 691.62091 3181.1531 3817277
-889.93347 690.37354 3175.4155 3751740
-873.38727 693.0307 3187.6375 3685948
-841.15692 683.07574 3141.8491 3817278
-818.6806 680.75446 3131.1719 3949120
-803.06714 684.16583 3146.863 3817534
-778.95105 680.323 3129.1875 3685691
-765.04572 685.42975 3152.6765 3619898
-744.05133 684.28766 3147.4231 3685948
-724.70135 684.63684 3149.0293 3751485
-696.25543 676.17194 3110.0945 3883327
-678.98828 678.38861 3120.29 4146499
-657.56921 676.46527 3111.4438 4015170
-638.15521 676.55035 3111.835 3949120
-621.51837 679.67773 3126.2195 4080706
-601.83795 679.57196 3125.7329 4212292
-579.53937 676.40326 3111.1584 4014913
-554.59467 669.81818 3080.8699 4080706
-532.36328 666.15326 3064.0129 3949120
-519.91595 674.91522 3104.314 3685948
-501.05771 675.71259 3107.9814 3817534
-481.16763 675.12659 3105.2864 3883583
-461.5864 674.94287 3104.4412 3817790
-441.54529 674.04095 3100.2927 3751741
-421.85831 673.62146 3098.3635 3554362
-401.32904 671.75171 3089.7634 3620154
-382.20816 672.16931 3091.6843 3949379
-362.8378 672.16931 3091.6843 3751997
-344.45126 674.09467 3100.54 3818047
-326.43451 677.01709 3113.9817 3883840
-308.09653 679.60248 3125.8735 4015170
-288.18372 678.82928 3122.3171 4015682
-267.95566 677.14685 3114.5786 4015683
-245.51888 669.18005 3077.9348 3818048
-225.31299 666.4538 3065.3953 3160631
-206.65604 668.22803 3073.5559 3884097
-188.40192 671.80328 3090.0007 4015683
-172.34769 684.94037 3150.4253 3423802
-152.82327 685.90063 3154.8423 3358010
-131.90027 679.93677 3127.4109 3358009
-111.34846 674.13904 3100.7441 3621181
-91.84314 673.56555 3098.1062 3621183
-72.962189 678.49078 3120.7603 3621183
-53.184658 675.63263 3107.6138 3621182
-33.90382 679.42664 3125.0647 3423547
-14.527855 689.08063 3169.4688 3292218
5.3307915 689.20239 3170.0288 3358010
25.201626 689.46558 3171.2395 3620927
45.160473 690.84314 3177.5754 3357754
65.062447 690.77386 3177.2568 3226680
85.19738 692.63098 3185.7988 3358523
104.82931 690.46997 3175.8591 3292473
125.05818 692.3031 3184.2908 3555645
145.17845 693.11322 3188.0171 3555902
165.15236 693.11322 3188.0171 3555645
186.7975 699.37036 3216.7969 3884610
207.06554 699.75494 3218.5659 3819074
226.96483 698.93567 3214.7976 3753281
247.55006 700.19019 3220.5679 3687231
267.72083 700.17163 3220.4827 3687487
286.5943 697.00067 3205.8975 3489852
304.63696 692.35681 3184.5378 3292730
325.77274 694.88159 3196.1506 3621438
346.63846 696.57129 3203.9226 3884097
367.19482 697.4884 3208.1409 3687231
386.93399 696.83856 3205.1519 3884610
407.01526 696.83856 3205.1519 3424059
427.11832 696.87408 3205.3154 3753024
447.1723 696.83002 3205.1125 4016196
458.58942 683.90924 3145.6826 4081989
474.8876 679.03265 3123.2524 3950403
493.77448 678.09698 3118.949 4147782
515.14783 680.5174 3130.0815 4410954
538.13342 684.81189 3149.8342 3818817
551.77875 677.33685 3115.4526 3753024
570.57233 676.47644 3111.4951 3818817
588.07367 674.19141 3100.9849 4147782
606.72253 673.32611 3097.0049 4279368
628.38391 675.75397 3108.1719 4147270
654.71674 682.90845 3141.0796 4015684
677.55103 686.10266 3155.7715 4410442
689.56323 678.4679 3120.6548 4344649
705.65033 675.15289 3105.4072 4015684
723.73962 673.88 3099.5527 3884099
745.66913 676.15588 3110.0205 4147271
752.57739 665.04181 3058.9006 4277828
787.02393 678.21057 3119.4712 3423546
820.6604 690.05994 3173.9731 3489595
832.92493 683.80304 3145.1941 3686205
838.55566 672.51508 3093.2744 3554362
880.61823 690.29517 3175.0549 3225397
881.28107 675.55432 3107.2537 3093811
903.82941 677.86469 3117.8801 3554362
945.79498 694.33185 3193.6221 3751741
939.97595 675.76367 3108.2166 3817534
959.9848 676.14032 3109.9492 3225397
987.59283 681.74792 3135.7415 3225397
1023.5811 692.80884 3186.6169 3291190
1043.8516 693.01166 3187.5496 3488569
1049.8821 683.93036 3145.7798 3554362
1062.4705 679.37695 3124.8362 3159604
1082.0485 679.37695 3124.8362 3422776
1108.0857 683.36035 3143.158 3422776
1142.7029 692.40344 3184.7524 3356983
1154.9912 687.83862 3163.7561 3554362
1168.6852 684.25073 3147.2534 3620155
1178.3271 678.44897 3120.5679 3356983
1191.5453 674.862 3104.0693 2962225
1197.6741 667.43945 3069.929 3225397
1234.321 676.98999 3113.8572 3488569
1257.6578 679.05664 3123.3628 3686205
1243.6091 661.18335 3041.1536 3752511
1263.1964 661.46271 3042.4385 3752511
1298.4949 669.8385 3080.9634 3818304
1323.4949 672.73425 3094.2825 3884097
1350.8501 676.7262 3112.6438 4081476
1361.3903 672.30072 3092.2886 4278856
1386.1262 674.91132 3104.2964 4410443
1411.766 677.88379 3117.9683 3950147
1441.6671 682.7934 3140.55 3950147
1464.3669 684.20593 3147.0474 4015940
1490.255 687.05084 3160.1328 4015683
1498.8975 681.97473 3136.7847 4015940
1507.6019 677.0578 3114.1689 4015683
1531.9797 679.21545 3124.0933 3357753
1566.9854 685.97113 3155.1665 3291960
1586.7535 685.97113 3155.1665 3489339
1612.1421 688.37103 3166.2051 3489339
1635.0565 689.66901 3172.175 3489339
1650.9296 688.00134 3164.5046 3620155
1675.6064 689.99866 3173.6914 3356983
1698.2323 691.11438 3178.8232 3356983
1740.89 700.26208 3220.8984 3291190
1751.2246 696.34723 3202.8918 3093298
1762.4137 692.85693 3186.8381 3028275
1780.6322 692.17743 3183.7129 3423033
1779.8638 684.21405 3147.0847 3554362
1817.0408 690.85229 3177.6177 2896688
1865.2218 701.48511 3226.5239 2896432
1882.9105 700.54523 3222.2007 2699053
1889.0603 695.37756 3198.4319 2436137
1907.9689 694.9657 3196.5376 3159604
1916.9108 690.96991 3178.1587 3159604
1940.7333 692.36493 3184.5752 2896432
1987.7789 701.93219 3228.5803 2962225
2015.8281 704.66626 3241.1558 2764846
2029.5532 702.38843 3230.6787 2765102
2047.9807 701.76691 3227.8201 3028018
2102.7419 713.48615 3281.7234 3225397
2124.0845 713.74866 3282.9309 3291190
2148.8916 715.15936 3289.4194 3291190
2169.0679 715.01654 3288.7627 3422776
2178.3088 711.30566 3271.6941 3422776
2190.2603 708.54089 3258.9773 3291190
2206.3093 707.14044 3252.5359 3356983
2248.1841 713.96722 3283.9363 3685948
2259.7104 711.11969 3270.8386 3291190
2274.3208 709.28516 3262.4009 3291190
2303.8513 712.09497 3275.3245 3291190
2318.647 710.34094 3267.2568 3422776
2347.5278 712.89508 3279.0046 3488569
2379.3247 716.28265 3294.5862 3620155
2380.043 710.33643 3267.2361 3620155
2408.0105 712.55493 3277.4404 3685948
2412.3381 707.79974 3255.5686 3883327
2401.9995 698.8573 3214.4373 3817534
2422.1389 698.8573 3214.4373 3422776
2466.1155 705.67828 3245.8108 3225397
2486.4517 705.67828 3245.8108 3291190
2512.2349 707.21173 3252.864 3422776
2496.6204 697.16052 3206.6328 3554362
2558.3792 708.70312 3259.7236 3554619
2560.5918 703.69855 3236.7048 3554362
2560.094 698.03357 3210.6484 3291190
2585.8577 699.56152 3217.6763 3158835
2571.9663 690.42084 3175.6333 3224884
2602.7871 693.33093 3189.0183 3356470
2638.5701 697.50836 3208.2327 3422006
2665.9695 699.42328 3217.0403 3421749
2715.4534 707.05981 3252.165 3355956
2777.1438 717.73737 3301.2771 3355444
2797.8274 717.73737 3301.2771 3421236
2827.9272 720.13525 3312.3064 3158577
2880.7139 728.23334 3349.554 3092784
2912.7505 731.00665 3362.3101 2961198
2917.2759 726.88531 3343.3538 2829612
2937.8506 726.79321 3342.9302 2829612
2960.6936 727.25952 3345.075 2829612
2971.0095 724.66382 3333.1357 2763819
3003.4016 727.45135 3345.9575 2829612
3010.2522 724.05682 3330.344 2895405
3000.1765 716.66577 3296.3481 3092527
3020.8291 716.66577 3296.3481 3159091
3058.6899 720.72052 3314.9983 3159348
3030.3591 709.229 3262.1426 3224884
3030.397 704.48639 3240.3286 3093298
3010.7502 695.26123 3197.897 2895919
3063.6064 702.79028 3232.5271 3224884
3105.4048 707.70038 3255.1116 3422263
3124.3469 707.37158 3253.5991 3290677
3102.6819 697.91296 3210.0938 3159091
3122.7942 697.91296 3210.0938 3290676
3151.9126 699.9129 3219.2925 3356472
3158.6509 696.94922 3205.6609 3290679
3132.6272 686.8399 3159.1624 3356472
3120.2952 679.84052 3126.9683 3224886
3105.6353 672.4245 3092.8579 3027764
3125.0129 672.4245 3092.8579 2961714
3172.3799 678.40997 3120.3884 3422265
3220.7468 684.53467 3148.5593 3553851
nan nan nan 16777215
nan nan nan 16777215
nan nan nan 16777215
nan nan nan 16777215
nan nan nan 16777215
nan nan nan 16777215
nan nan nan 16777215
nan nan nan 16777215
-2702.9302 653.09515 2920.2422 3291190
-2686.27 653.49316 2922.0217 3356983
-2665.4094 652.86774 2919.2253 3488569
-2655.5417 654.94495 2928.5132 3620155
-2637.1936 654.94495 2928.5132 3685948
-2604.5327 651.36548 2912.5078 3949376
-2574.0771 648.29089 2898.7603 4146499
-2557.9653 648.81085 2901.0852 4014913
-2538.791 648.55579 2899.9448 4080706
-2510.7834 646.02441 2888.626 4343878
-2494.3303 646.45074 2890.5322 4343878
-2476.2202 646.45074 2890.5322 4080706
-2458.9426 646.66962 2891.511 4080706
-2439.1858 646.23499 2889.5676 4212035
-2412.9255 644.05798 2879.8333 4212292
-2404.0305 646.51813 2890.8335 4278085
-2380.5483 645.06293 2884.3269 4343878
-2363.3391 645.29834 2885.3794 4344135
-2346.9409 645.76044 2887.4456 4278085
-2336.4006 647.85406 2896.8071 4212549
-2355.4004 658.23572 2943.2275 4344135
-2337.2659 658.32184 2943.6125 4476234
-2296.9473 652.11121 2915.8423 4542027
-2273.5554 650.64508 2909.2866 4213062
-2253.2188 650.03656 2906.5659 3818304
-2266.948 659.32599 2948.1025 4213062
-2249.7705 659.70526 2949.7983 4805456
-2249.1799 664.99487 2973.4502 5003090
-2226.9626 663.92523 2968.6675 4871761
-2249.637 676.33392 3024.1516 4608589
-2241.2463 679.53461 3038.4631 4476237
-2210.2961 675.8916 3022.1738 4410953
-2195.3064 677.10846 3027.615 4542540
-2177.5225 677.47711 3029.2632 4608333
-2173.4995 682.17126 3050.2527 4476747
-2154.3887 682.17126 3050.2527 4213575
-2112.8035 674.99127 3018.1479 4147782
-2105.3936 678.69836 3034.7239 4279368
-2090.6855 680.09882 3040.9861 4345161
-2067.4436 678.72363 3034.8369 4344648
-2048.4297 678.72363 3034.8369 4015683
-2023.1768 676.63715 3025.5076 3884610
-2030.9758 685.66974 3065.8958 3753024
-2012.8926 686.05341 3067.6111 3621438
-1996.2198 686.92975 3071.5298 3687231
-1968.9686 684.14758 3059.0896 3753281
-1946.6549 683.04321 3054.1514 3884610
-1947.2672 690.04095 3085.4409 4016453
-1912.7444 684.60364 3061.1287 4016453
-1887.1056 682.26807 3050.6855 4082246
-1880.069 686.67914 3070.4089 4015940
-1865.0594 688.23914 3077.3843 3752767
-1827.7964 681.53406 3047.4033 3489596
-1805.5326 680.33923 3042.0608 3752254
-1791.949 682.42456 3051.3853 3686718
-1764.009 679.02863 3036.2007 3686718
-1750.5752 681.20349 3045.9253 3818304
-1731.4915 681.20349 3045.9253 3884097
-1708.9147 679.81384 3039.7117 3686718
-1690.8052 680.19006 3041.394 3423546
-1693.4675 689.02643 3080.9045 3752767
-1653.9591 680.71051 3043.7209 4015683
-1655.4781 689.28302 3082.0522 3949890
-1636.1683 689.28302 3082.0522 3620925
-1583.3276 674.98859 3018.1362 3357753
-1561.7999 673.85901 3013.0852 3357753
-1542.5425 673.69318 3012.344 3291960
-1533.9255 678.22815 3032.6213 3357753
-1512.2383 677.02515 3027.2424 3423546
-1493.2717 677.02515 3027.2424 3423546
-1473.829 676.80652 3026.2646 3489339
-1451.1738 675.08777 3018.5796 3818560
-1437.1312 677.38306 3028.8428 3818304
-1421.6364 679.04614 3036.2791 3686718
-1402.361 678.92407 3035.7332 3686718
-1378.7958 676.6933 3025.7585 3621438
-1365.8358 679.67773 3039.103 3621181
-1352.8751 682.74622 3052.8232 3621438
-1332.4038 682.05798 3049.7461 3424059
-1311.4816 681.11554 3045.532 3687231
-1292.4004 681.11554 3045.532 4213575
-1279.6482 684.50104 3060.6699 4147782
-1261.4751 685.04572 3063.1055 4081989
-1244.1764 686.08936 3067.772 4081989
-1234.9297 691.6756 3092.7502 4147782
-1215.5527 691.6756 3092.7502 4213575
-1197.3479 692.35339 3095.781 4279368
-1178.525 692.69037 3097.2876 4016196
-1161.4182 694.06403 3103.4299 4016453
-1150.3601 699.16077 3126.2192 4345161
-1127.7439 697.2876 3117.8435 4476747
-1115.9376 702.15009 3139.5857 4542798
-1096.2672 702.15009 3139.5857 4411212
-1066.585 695.62054 3110.3894 4411212
-1058.8865 703.45233 3145.4084 4148041
-1047.626 709.17004 3170.9746 4279627
-1024.3684 706.83057 3160.5139 4608335
-996.8031 701.36792 3136.0881 4542542
-977.15448 701.36792 3136.0881 4345163
-943.20013 690.88898 3089.2327 4410700
-917.68939 686.2854 3068.6484 4213577
-901.05426 688.26447 3077.4978 3884099
-884.04016 690.03424 3085.4111 3818305
-866.84747 691.74072 3093.0413 3949890
-844.34784 689.19336 3081.6511 3949890
-828.32178 691.93451 3093.9077 4278598
-810.32123 693.1181 3099.2002 4278856
-780.58179 684.07233 3058.7529 4015683
-761.12213 683.80676 3057.5654 4081476
-742.99933 684.75946 3061.8254 4278854
-724.05957 684.98987 3062.8557 4278855
-698.26971 678.57593 3034.1763 4344392
-684.98615 684.29657 3059.7559 4081219
-663.38318 681.79645 3048.5767 4343878
-644.45172 681.9751 3049.3755 3883327
-625.34644 681.9751 3049.3755 3685948
-599.34351 674.21576 3014.6804 3620155
-582.17596 676.21399 3023.6155 3620155
-561.09515 673.64844 3012.1438 3159860
-542.37909 673.84216 3013.01 3751741
-520.96936 670.5827 2998.4355 3620155
-505.31531 674.76501 3017.1365 3620155
-492.35706 683.01221 3054.0127 4146499
-468.78073 676.60101 3025.3457 4080706
-445.97531 670.8089 2999.4473 3817534
-427.38477 671.1261 3000.8652 3620155
-407.48438 669.3208 2992.7932 3488569
-389.315 670.3219 2997.2695 3422777
-370.68851 670.59747 2998.5017 3751742
-353.48599 673.61603 3011.9988 3685948
-334.61487 673.61603 3011.9988 3685948
-316.63345 675.5141 3020.4858 3751998
-298.33133 676.92578 3026.7981 3686204
-279.36752 676.92578 3026.7981 3686204
-260.44763 677.04004 3027.3091 3817790
-243.53625 682.80353 3053.0796 3423290
-224.09537 681.85297 3048.8293 3226423
-201.38298 669.84363 2995.1309 3620924
-185.93259 682.00317 3049.501 4015427
-166.0482 678.82141 3035.2739 3884097
-147.03128 678.82141 3035.2739 3950403
-127.9444 678.4505 3033.6155 4016196
-108.73171 677.16669 3027.8752 3687232
-89.635178 676.21643 3023.6262 3489598
-70.935677 678.55475 3034.0818 3555390
-52.15258 681.51288 3047.3088 3423548
-33.069145 681.69629 3048.1289 3226424
-14.04004 685.0321 3063.0444 3160886
5.1730108 687.97479 3076.2024 3358266
24.851023 699.36249 3127.1213 3686975
44.588669 701.64832 3137.342 3291703
63.425278 692.69476 3097.3074 3094581
82.303787 688.28693 3077.5981 2831409
101.46438 687.46362 3073.9167 3226423
121.08437 689.51904 3083.1074 3292216
140.72516 691.11108 3090.2258 3423546
159.48094 688.49731 3078.5388 3555132
180.02913 693.35065 3100.24 3818303
199.56415 693.73676 3101.9663 3620668
219.67531 695.87933 3111.5469 3752255
239.62657 697.20746 3117.4854 3620925
259.51785 698.17395 3121.8069 3686718
280.37305 701.4165 3136.3054 3686718
297.76093 696.12805 3112.6589 3686975
316.92972 695.39746 3109.3921 3555901
337.03445 696.68616 3115.1543 3620925
357.20712 697.96655 3120.8794 3621695
376.99039 698.39258 3122.7844 3621438
405.89304 714.83722 3196.3147 3884610
425.91898 714.83722 3196.3147 4279368
432.2012 692.80658 3097.8071 4081989
455.51971 698.80444 3124.626 3621438
470.3587 691.83582 3093.4666 3555902
485.84314 686.33057 3068.8503 4279368
509.22903 691.98157 3094.1184 4411211
538.13342 704.44208 3149.8342 3686718
549.35034 693.6864 3101.7412 3818560
566.24078 690.58502 3087.8738 3687231
585.58728 690.58502 3087.8738 4016196
605.9201 691.71106 3092.9087 4674126
619.37018 685.1535 3063.5874 4410443
647.95441 695.22845 3108.6365 4015942
674.96259 703.07373 3143.7158 4213064
687.06616 695.38904 3109.3545 4344650
702.15338 691.06451 3090.0178 4278857
716.34149 686.11096 3067.8687 3489341
737.14569 687.58759 3074.4712 4015684
752.27283 683.82843 3057.6626 4146244
774.53833 686.58386 3069.9829 3555388
795.10016 687.73199 3075.1167 3686974
813.48151 686.98444 3071.7742 3817278
832.0838 686.45367 3069.4011 3554362
852.38818 687.31946 3073.2722 3554362
874.10858 689.26343 3081.9644 3422776
898.87604 693.4743 3100.7927 3554362
927.48315 700.40643 3131.7891 3685948
934.80542 691.31085 3091.1191 3620155
954.17224 691.31085 3091.1191 3554105
979.05811 695.22992 3108.6428 3554875
990.5224 689.65131 3083.699 3751999
1008.9848 689.06543 3081.0791 3818047
1027.6232 688.61945 3079.0847 3883840
1040.9935 684.72473 3061.6702 3356983
1067.476 689.43951 3082.752 3422776
1086.7903 689.43951 3082.752 3488826
1105.2627 688.91473 3080.4053 3488825
1122.754 687.80695 3075.4519 3620155
1142.0166 687.80322 3075.4353 3686204
1161.2852 687.80322 3075.4353 3685948
1177.6874 686.1333 3067.9685 3488569
1194.2673 684.6189 3061.197 3225397
1216.5693 686.38068 3069.0745 3422776
1224.5553 680.13635 3041.1536 3356983
1232.0592 673.81964 3012.9092 2172709
1231.2142 663.19641 2965.4087 2896689
1272.2439 675.10962 3018.6772 3620925
1283.1328 670.91406 2999.9172 3818304
1302.5126 671.21521 3001.2639 3884097
1312.7781 666.87781 2981.8696 4015684
1339.2521 670.7804 2999.3196 4278857
1388.6447 685.89514 3066.9036 4213062
1400.0907 682.11005 3049.979 3884097
1415.4685 680.31671 3041.9602 3884097
1441.9292 683.82703 3057.6562 4147269
1479.4138 692.40472 3096.0105 4344648
1483.1571 685.1731 3063.6748 4015683
1511.1979 689.2074 3081.7139 3489339
1530.5059 689.2074 3081.7139 3555132
1534.2271 682.27594 3050.7207 3423546
1557.2113 683.97595 3058.3223 3489339
1576.1653 683.88599 3057.9199 3489339
1615.1611 692.38977 3095.9436 3554105
1633.5709 691.97162 3094.0737 3093811
1642.8463 687.73932 3075.1497 3093811
1672.9548 692.2254 3095.2085 3094067
1703.0055 696.5849 3114.7017 3422263
1715.3405 693.68152 3101.7195 3488569
1722.7423 688.87054 3080.2078 3488569
1749.3497 691.76074 3093.1311 3488569
1775.4211 694.37805 3104.8337 3159604
1810.0776 700.25995 3131.134 3225397
1843.406 705.50726 3154.5969 3422776
1844.8497 698.56995 3123.5774 3488569
1856.7845 695.70917 3110.7856 3620155
1868.1276 692.68823 3097.2781 3488569
1887.2211 692.57373 3096.7661 2962225
1921.9851 698.15387 3121.717 2764846
1945.1779 699.46075 3127.5605 2962225
1963.9208 699.15735 3126.2039 3028275
1987.9321 700.71698 3133.1777 3093811
2011.1976 701.98578 3138.8511 3159604
2030.163 701.74359 3137.7683 3159604
2052.7805 702.75647 3142.2969 3159604
2071.7773 702.52228 3141.2498 3159604
2091.3396 702.48236 3141.0715 3225397
2109.0488 701.82666 3138.1396 3159604
2124.6021 700.47223 3132.0833 3159604
2165.1648 707.31262 3162.6692 3356983
2166.2097 701.23639 3135.5002 3291190
2188.1584 701.97546 3138.8049 3291190
2210.2188 702.73688 3142.2095 3159604
2224.5554 701.05078 3134.6702 2896689
2251.1716 703.23016 3144.415 2962225
2275.5249 704.67096 3150.8574 3225397
2298.4595 705.65143 3155.2415 3554362
2341.2744 712.66656 3186.6089 3751741
2361.2397 712.66656 3186.6089 3883327
2364.5198 707.67291 3164.2805 3685948
2379.6008 706.26489 3157.9846 3554362
2370.6294 697.80017 3120.1355 3422776
2399.4309 700.50146 3132.2141 3488569
2423.312 701.73413 3137.7258 3291190
2445.7788 702.54077 3141.3325 3751741
2454.8896 699.52863 3127.864 3817534
2475.2014 699.73071 3128.7676 3751741
2497.4868 700.48309 3132.1318 3949120
2495.7554 694.54016 3105.5588 4409415
2503.2439 691.23523 3090.781 4606537
2517.5232 689.84167 3084.55 3422263
2564.4517 697.34772 3118.1123 3356470
2618.7185 706.72058 3160.0222 3487799
2665.8918 714.05286 3192.8076 3684921
2695.1421 716.51105 3203.7991 3487542
2727.6023 719.77991 3218.4155 3355956
2747.7666 719.77991 3218.4155 3290163
2785.4871 724.34521 3238.8289 3355956
2821.1687 728.31818 3256.5935 3355956
2837.271 727.2157 3251.6638 3092784
2842.2249 723.29193 3234.1191 3026991
2857.7749 722.1012 3228.7947 2961198
2862.0032 718.08636 3210.843 2895405
2893.0767 720.81622 3223.0493 2763819
2914.7737 721.18823 3224.7126 2501161
2953.2031 725.66669 3244.7375 2698540
2976.6895 726.43713 3248.1826 2764076
2940.1978 712.65942 3186.5769 2895919
2931.6677 705.79919 3155.9023 2961712
2923.5781 699.13629 3126.1099 3093298
2931.3027 696.31866 3113.5112 3224884
2954.4722 697.18292 3117.3755 3224884
2972.6479 696.86517 3115.9546 3356470
2987.6914 695.82202 3111.2903 3356470
3006.1362 695.57941 3110.2058 3159091
3020.5369 694.41022 3104.9778 3356469
3039.1353 694.2149 3104.1042 3290678
3044.8086 691.08832 3090.1243 3356472
3046.6423 687.13531 3072.449 3224886
3064.3987 686.8006 3070.9521 3159093
3062.0586 681.99414 3049.4607 3093300
3078.7939 681.46942 3047.1145 3027507
3083.2737 678.25519 3032.7424 3290679
3104.6497 678.77448 3035.0642 3356472
nan nan nan 16777215
nan nan nan 16777215
nan nan nan 16777215
nan nan nan 16777215
nan nan nan 16777215
nan nan nan 16777215
nan nan nan 16777215
nan nan nan 16777215
-2621.4224 651.05145 2832.1812 3291190
-2605.2029 651.4328 2833.8401 3488569
-2575.249 648.36151 2820.4795 3685948
-2564.9861 650.23956 2828.6492 3620155
-2547.7678 650.36823 2829.209 3685948
-2510.4011 645.31934 2807.2456 3817534
-2499.6638 647.09296 2814.9609 4080962
-2479.8496 646.52521 2812.4912 4080706
-2460.6145 646.10144 2810.6477 4015170
-2435.5125 644.11987 2802.0276 4212292
-2414.9172 643.31012 2798.5049 4080706
-2400.8394 644.23737 2802.5388 4080706
-2382.1165 643.92273 2801.1699 3949634
-2361.179 643.00031 2797.1572 4081476
-2341.9727 642.539 2795.1506 4212806
-2311.593 638.98224 2779.678 4409928
-2298.4529 640.17303 2784.8582 4409928
-2264.7576 635.61316 2765.022 4409928
-2257.2646 638.39349 2777.1169 3883327
-2262.4861 644.84076 2805.1636 3949120
-2268.1914 651.52802 2834.2542 4146499
-2254.2119 652.62177 2839.0122 4147268
-2236.4246 652.62177 2839.0122 4213062
-2216.6304 652.03131 2836.4438 3949890
-2219.7002 658.21143 2863.3284 2962995
-2216.084 662.49341 2881.9556 3291960
-2236.5667 674.10919 2932.4861 4214088
-2199.4487 668.41254 2907.7048 4147782
-2180.1782 668.0899 2906.3013 4411211
-2178.7571 673.27771 2928.8689 4345161
-2163.9141 674.37073 2933.6238 4344907
-2149.4607 675.60492 2938.9927 4476747
-2131.0469 675.60492 2938.9927 4608333
-2116.3127 676.78156 2944.1113 4476747
-2103.2881 678.53046 2951.7192 4081989
-2077.0425 676.00739 2940.7434 4213575
-2058.6179 676.00739 2940.7434 4213575
-2047.4276 678.40442 2951.1711 4213575
-2029.3512 678.54279 2951.7729 3950403
-2006.3431 677.01947 2945.1462 3621182
-1982.6359 675.22974 2937.3606 3752768
-1987.0918 683.08801 2971.5454 3818817
-1946.2379 675.37164 2937.978 3753024
-1931.0714 676.50702 2942.917 3621694
-1918.838 678.70172 2952.4644 3753024
-1897.0482 677.52612 2947.3503 3687488
-1873.7943 675.79938 2939.8386 3818560
-1864.4736 679.11334 2954.2549 3818304
-1845.9644 679.11334 2954.2549 3884097
-1825.4597 678.37183 2951.0293 3884097
-1812.7091 680.52618 2960.4011 3686462
-1781.026 675.54395 2938.7275 3423546
-1745.4113 668.95074 2910.0461 3489339
-1743.1672 675.14325 2936.9844 3686718
-1723.7728 674.75439 2935.293 3752511
-1698.9902 672.22528 2924.2908 3686718
-1684.9122 673.92261 2931.6746 3620925
-1668.6869 674.789 2935.4434 3620925
-1640.8672 670.9339 2918.6731 3620925
-1626.0669 672.37537 2924.9438 3489339
-1609.6605 673.1781 2928.4358 3620668
-1589.6851 672.48944 2925.4399 3818048
-1577.2822 675.02557 2936.4724 3817534
-1557.0162 674.21661 2932.9534 3620668
-1544.6454 676.84796 2944.4001 3291447
-1514.7042 671.75073 2922.2263 3356983
-1500.2222 673.46851 2929.699 3226167
-1481.8667 673.46851 2929.699 3226167
-1457.9888 670.92725 2918.644 3291960
-1436.7565 669.55432 2912.6716 3357753
-1416.6296 668.66779 2908.8152 3686718
-1424.5369 681.16315 2963.1721 3949890
-1392.4268 674.60095 2934.6252 3949890
-1370.575 672.89954 2927.2239 3949890
-1351.0817 672.32568 2924.7275 3818304
-1331.3103 671.5957 2921.552 3555645
-1316.5121 673.3891 2929.3535 3555645
-1311.1647 680.13556 2958.7017 3489852
-1299.3376 683.6662 2974.0605 3095094
-1262.7482 674.08093 2932.363 3358266
-1284.7761 695.9657 3027.5657 4213832
-1236.814 680.02454 2958.2188 4147782
-1213.5997 677.41217 2946.8545 4081989
-1202.4944 681.58252 2964.9963 4016196
-1189.1907 684.61816 2978.2019 4279368
-1176.3596 688.02698 2993.0308 4213575
-1158.4194 688.50964 2995.1304 4213832
-1138.8519 688.02515 2993.0227 4147782
-1122.2987 689.37579 2998.8984 4016453
-1106.9019 691.49493 3008.1169 4542540
-1094.901 695.84583 3027.0439 4477005
-1075.9358 695.84583 3027.0439 4542798
-1052.8042 693.10315 3015.1128 4279626
-1033.9136 693.10315 3015.1128 3884868
-1021.7411 697.69055 3035.0688 4148040
-1014.7515 706.05823 3071.4697 4213833
-990.20398 702.29651 3055.1055 4345420
-967.58533 699.78149 3044.1648 4345420
-938.38464 692.30939 3011.6599 4148038
-913.7428 687.96295 2992.7522 4147782
-886.35303 681.32202 2963.8633 4081989
-867.78345 681.32202 2963.8633 4081988
-853.56342 684.81165 2979.0435 3884097
-835.23358 685.08624 2980.238 4278855
-804.8291 675.24292 2937.418 4344648
-789.487 677.87177 2948.854 4147013
-773.25507 679.8443 2957.4348 4015426
-754.76691 679.88135 2957.5959 3949889
-737.60797 681.14771 2963.1047 4081220
-719.883 681.94324 2966.5654 4278599
-716.08478 696.32336 3029.1213 4607050
-685.63165 684.86151 2979.2605 4607050
-664.87634 682.71613 2969.9275 4278085
-646.91998 683.40405 2972.9202 4014913
-637.67224 693.60522 3017.2969 3685948
-602.40607 675.26434 2937.5112 3554362
-581.70349 672.60712 2925.9517 3422520
-567.80078 677.8952 2948.9558 3356726
-548.88739 677.35559 2946.6084 3422776
-528.06378 674.33905 2933.4861 3422519
-507.07861 670.89124 2918.4873 3488312
-488.75562 670.83942 2918.262 3554362
-472.5318 673.77673 2931.0398 3356983
-459.10025 681.09399 2962.8711 3093811
-437.03265 675.67621 2939.3027 3554362
-416.96967 673.01721 2927.7358 3488569
-396.02246 668.62079 2908.6106 3291190
-378.60892 670.05396 2914.8452 3225398
-360.26385 669.90027 2914.1765 3422521
-342.10123 670.08759 2914.9912 3358010
-323.81158 670.03302 2914.7542 3226167
-304.35986 667.42377 2903.4033 2897202
-287.66815 670.91986 2918.6121 3094581
-267.65356 666.61469 2899.8838 3358009
-249.02425 665.38391 2894.5295 3555389
-230.88911 665.38391 2894.5295 3752511
-214.51833 670.90173 2918.5332 3424316
-194.53224 665.08765 2893.241 3621438
-178.71933 673.81256 2931.1956 3687487
-160.08466 672.67877 2926.2634 3621695
-141.23341 670.22394 2915.5845 3424059
-122.96638 670.22394 2915.5845 3555645
-104.09461 666.35291 2898.7449 3555645
-86.654404 671.94623 2923.0769 3489597
-68.375053 672.2868 2924.5583 3489595
-50.175991 673.95502 2931.8154 3423802
-31.934261 676.64606 2943.5217 3818304
-13.493963 676.73529 2943.9099 3752511
4.9724503 679.72974 2956.9363 3423546
23.931162 692.24298 3011.3711 3423546
42.334255 684.73669 2978.7175 3226167
60.59565 680.23303 2959.1257 3160374
79.39106 682.42981 2968.6821 3291960
97.990768 682.42981 2968.6821 3226167
116.48072 681.78729 2965.8872 3094581
135.38091 683.39252 2972.8699 3094581
154.29106 684.65356 2978.356 3555132
172.93658 684.59503 2978.1011 3489339
192.99286 689.58862 2999.8242 3291960
211.7877 689.58862 2999.8242 3620925
230.82227 690.30566 3002.9434 3818304
249.8163 690.80243 3005.1045 3752511
268.4248 690.23828 3002.6501 3752511
287.23734 690.23828 3002.6501 3620925
305.52884 689.06317 2997.5383 3423546
324.43231 689.32446 2998.6748 3555132
343.65674 690.20172 3002.4912 3489339
362.17352 689.64044 3000.0496 3094838
382.76785 692.89539 3014.2092 3095350
407.35873 702.73871 3057.0293 3358266
419.89761 691.8407 3009.6208 3555901
433.89554 684.17999 2976.2957 3621438
454.50958 687.1532 2989.2297 3424316
479.59122 696.37823 3029.3601 3358266
498.28036 695.97211 3027.5933 3424316
514.63397 692.45331 3012.2861 3687231
533.5069 692.45331 3012.2861 3555645
552.0495 692.03925 3010.4846 3490109
573.03668 694.61578 3021.6931 4082245
587.43054 689.29089 2998.5291 4081989
606.20764 689.28003 2998.4817 3686718
625.69647 690.05469 3001.8516 3686974
647.37897 693.13281 3015.2419 4015683
666.27039 693.13281 3015.2419 3752511
679.91437 687.82428 2992.1489 4015683
705.14813 694.21069 3019.9309 3423546
714.64362 685.17401 2980.6199 3818304
743.49615 694.68384 3021.9893 3883070
758.30353 690.92426 3005.6343 3554362
767.18005 682.07379 2967.1335 3817534
786.41467 682.63336 2969.5676 3685948
807.57037 684.79602 2978.9756 3620411
821.36328 680.75861 2961.4121 3883327
837.49896 678.79846 2952.8853 3817534
862.98285 684.336 2976.9744 3620155
885.25739 687.14807 2989.2075 3093811
907.92694 690.14398 3002.24 3291190
926.73688 690.14398 3002.24 3620155
932.69147 680.76099 2961.4224 3751998
953.25146 682.19641 2967.6667 3752254
966.6734 678.56628 2951.8752 3752254
991.65576 683.03503 2971.3149 3752254
1015.19 686.36011 2985.7795 3883583
1033.8969 686.36011 2985.7795 3883840
1047.1814 682.8244 2970.3987 3752767
1062.4943 680.71173 2961.2083 3818304
1082.3854 681.55438 2964.874 4015683
1101.1099 681.64642 2965.2742 3884097
1117.5842 680.36554 2959.7021 3620925
1132.906 678.43628 2951.3096 3884097
1144.545 674.39893 2933.7463 3620669
1166.8835 676.69409 2943.7307 3291959
1184.9386 676.47241 2942.7664 3028532
1202.74 676.11487 2941.2112 2830896
1210.1768 670.02966 2914.7395 3291703
1235.7782 674.03302 2932.1545 3291960
1257.4784 675.82227 2939.9382 3423546
1267.0486 671.13495 2919.5476 3555132
1271.234 663.76929 2887.5056 3752511
1308.9803 673.88818 2931.5247 4147271
1319.3492 669.82758 2913.8604 4410440
1344.1261 673.0929 2928.0649 3949890
1362.5352 673.12445 2928.2024 3949890
1382.0845 673.71094 2930.7537 4015683
1402.6646 674.77802 2935.3955 4278855
1454.5287 690.67242 3004.5388 3423546
1473.5939 690.78528 3005.0298 3489339
1477.9043 684.06592 2975.7993 3752511
1483.8362 678.25507 2950.5215 3621181
1498.2662 676.42401 2942.5559 3555132
1503.807 670.67291 2917.5376 3686461
1543.0527 679.91132 2957.7263 3554362
1556.4866 677.69196 2948.0718 3225397
1582.8146 681.07294 2962.7795 3159604
1602.2462 681.4425 2964.3872 3291190
1623.8669 682.72394 2969.9617 2764077
1651.5864 686.51141 2986.438 2830639
1650.7698 678.48529 2951.5229 3028018
1670.4797 678.98029 2953.6763 3225397
1700.6842 683.68329 2974.1348 3225397
1729.0613 687.55762 2990.989 3291190
1754.8114 690.31549 3002.9861 3356983
1767.1783 687.80597 2992.0693 3422776
1787.8027 688.52936 2995.2161 3422776
1806.351 688.44635 2994.855 3356983
1819.0259 686.1496 2984.8638 3225397
1850.9819 691.09857 3006.3926 3225397
1879.2357 694.57947 3021.5352 3356983
1892.5886 692.53845 3012.6562 3488569
1929.7357 699.15839 3041.4543 3356983
1945.6144 698.01862 3036.4961 3225397
1959.678 696.25598 3028.8284 3225397
1980.9707 697.07098 3032.3738 3291190
1995.2473 695.42523 3025.2144 3225397
2014.2465 695.4408 3025.2822 3225397
2035.3334 696.17029 3028.4553 3291190
2059.1987 697.82776 3035.6658 3291190
2078.218 697.82776 3035.6658 3356983
2094.2859 696.84564 3031.3933 3225397
2119.8889 699.02545 3040.876 2962225
2130.9385 696.41016 3029.499 2896432
2151.8933 697.04962 3032.2808 2764846
2173.4739 697.87878 3035.8877 2830639
2185.9768 695.80414 3026.8625 3028018
2195.8633 692.93951 3014.4011 3159604
2238.011 700.21741 3046.0613 3159604
2252.1511 698.68353 3039.3884 3291190
2285.0889 702.95807 3057.9834 3225397
2287.3911 697.81549 3035.6123 3291190
2302.9521 696.76923 3031.061 3159604
2332.647 699.98138 3045.0344 3093811
2356.7065 701.46417 3051.4846 3225397
2376.1462 701.55902 3051.8972 3225397
2395.3284 701.57684 3051.9749 3159604
2422.8535 704.01868 3062.5974 3620155
2430.3611 700.65131 3047.9485 4146499
2400.2112 686.5647 2986.6697 4278341
2405.677 682.80493 2970.314 3816765
2358.8357 664.37042 2890.1208 3224884
2479.3643 692.99786 3014.6548 3290677
2528.3555 701.34833 3050.9807 3422263
2569.2463 707.34338 3077.0603 3290677
2598.8262 710.15826 3089.3054 3421749
2621.5869 711.08185 3093.3232 3421749
2641.4807 711.22003 3093.9246 3553335
2667.2109 712.9162 3101.303 3487542
2682.7612 711.8866 3096.824 3619128
2689.0332 708.42731 3081.7756 3619128
2727.4368 713.42212 3103.5037 3421749
2746.8811 713.42212 3103.5037 3355956
2749.7944 709.15881 3084.9578 3224370
2766.0327 708.36743 3081.5151 3224370
2795.0366 710.83368 3092.2437 3158577
2813.3821 710.57397 3091.1138 2829612
2831.3342 710.21906 3089.5701 2698283
2843.8809 708.52234 3082.189 2698540
2842.769 703.46857 3060.2041 2764589
2848.2075 700.09259 3045.5181 3027505
2860.0747 698.33118 3037.8557 3290677
2844.5273 689.9436 3001.3684 3290677
2862.8508 689.82776 3000.8643 3356470
2890.1462 691.86108 3009.7097 3422263
2909.8281 692.05731 3010.5635 3422263
2928.6902 692.05731 3010.5635 3356470
2922.5715 686.19202 2985.0486 3159093
2940.3259 685.97095 2984.0867 3159093
2936.7434 680.80621 2961.6191 3224886
2941.3652 677.59631 2947.6558 3159093
2952.4412 675.90411 2940.2942 3093300
2981.1821 678.25177 2950.5071 3159093
2999.668 678.25177 2950.5071 3356472
3011.7891 676.82147 2944.2849 3488058
nan nan nan 16777215
nan nan nan 16777215
nan nan nan 16777215
nan nan nan 16777215
nan nan nan 16777215
nan nan nan 16777215
nan nan nan 16777215
nan nan nan 16777215
-2515.8604 641.77411 2718.1321 3422776
-2522.0486 647.73724 2743.3879 3422776
-2495.8477 645.40662 2733.5168 3422776
-2448.2617 637.47559 2699.9263 3488569
-2442.6462 640.43842 2712.4751 3685948
-2420.0217 638.9519 2706.1792 3949120
-2415.0288 642.13251 2719.6501 4146499
-2399.4788 642.53143 2721.3396 4014913
-2380.0193 641.88159 2718.5872 4146499
-2354.1902 639.49213 2708.467 4080706
-2338.0986 639.7323 2709.4844 4080706
-2324.1619 640.56995 2713.032 4080706
-2310.5945 641.52246 2717.0662 4014913
-2280.6287 637.90228 2701.7336 4014913
-2264.2083 638.04517 2702.3386 4080449
-2256.127 640.5578 2712.9805 4080706
-2239.6267 640.70007 2713.583 4080706
-2225.1543 641.42908 2716.6707 4146499
-2223.0508 645.76227 2735.0232 3422776
-2219.8003 649.82709 2752.2393 3488569
-2201.248 649.44098 2750.604 3817277
-2178.6467 647.84473 2743.8433 3884097
-2182.8374 654.25342 2770.9863 4015683
-2177.4045 657.85736 2786.25 4015683
-2192.9487 667.90845 2828.8198 3094581
-2180.5698 669.5495 2835.7703 2962995
-2170.8518 672.04126 2846.3237 3291703
-2175.5029 679.05945 2876.0481 3357753
-2125.4739 668.98444 2833.3772 3752768
-2116.9353 671.90887 2845.7629 4016196
-2096.7349 671.1499 2842.5486 4015942
-2081.4258 671.95715 2845.9675 3950403
-2064.5972 672.28351 2847.3499 4016196
-2043.3003 671.14789 2842.54 4016453
-2023.5814 670.5152 2839.8604 3884610
-2010.2747 672.01477 2846.2114 3753280
-1991.4314 671.67377 2844.7673 3884610
-1968.8217 670.0448 2837.8682 3687231
-1952.8729 670.67383 2840.5322 3687488
-1935.076 670.67383 2840.5322 3555132
-1917.0214 670.58362 2840.1501 3620925
-1912.7889 675.37207 2860.4309 3687231
-1891.8658 674.30219 2855.8997 3818561
-1873.9727 674.30219 2855.8997 3423803
-1854.1351 673.59583 2852.908 3423545
-1826.1871 669.90051 2837.2568 3686975
-1811.7094 671.12238 2842.4321 3686974
-1794.181 671.22723 2842.8762 3686974
-1777.3341 671.5918 2844.4202 3752511
-1758.0137 671.01953 2841.9963 3752511
-1731.7598 667.76202 2828.1997 3357753
-1718.302 669.42236 2835.2319 3357753
-1700.6266 669.45709 2835.3789 3489339
-1682.8621 669.45709 2835.3789 3489596
-1663.3013 668.73486 2832.3201 3752511
-1645.1057 668.55194 2831.5454 3686974
-1627.3654 668.55194 2831.5454 3292217
-1607.2142 667.55072 2827.3049 3555132
-1585.8461 666.01605 2820.8049 3555132
-1573.0659 668.09412 2829.6064 3357752
-1550.03 665.81433 2819.9507 3160117
-1542.4722 670.20715 2838.5557 3160118
-1526.9591 671.20557 2842.7844 3423546
-1514.3966 673.53986 2852.6709 3489596
-1490.0706 670.6355 2840.3699 3357753
-1465.4994 667.54926 2827.2986 3358009
-1445.1659 666.34137 2822.1829 3423546
-1426.7301 665.9895 2820.6924 3423546
-1411.066 666.93872 2824.7126 3357753
-1397.4197 668.87787 2832.9258 3555132
-1375.8536 667.02747 2825.0886 3752511
-1367.8779 671.80334 2845.3162 3884097
-1345.1641 669.37152 2835.0164 3884353
-1323.025 667.16443 2825.6687 3818304
-1305.2512 667.12848 2825.5166 3620925
-1291.1711 669.00562 2833.4668 3621694
-1278.3873 671.61597 2844.5227 3687231
-1254.5752 668.42438 2831.0051 3818817
-1238.3252 669.22809 2834.4092 3818817
-1217.2131 667.38928 2826.6211 3884610
-1205.6428 670.80518 2841.0886 4016196
-1204.455 680.18665 2880.8223 3884610
-1195.6866 685.50757 2903.3582 3621438
-1167.7147 679.81299 2879.2397 3621438
-1149.6753 679.81299 2879.2397 3753024
-1126.5972 676.78601 2866.4194 3884867
-1114.1538 680.1532 2880.6804 3950660
-1098.1322 681.41071 2886.0066 3950660
-1089.0229 687.07153 2909.9819 4016453
-1072.0895 687.90472 2913.511 4213832
-1051.255 686.22034 2906.377 4082247
-1035.699 687.98285 2913.8418 4213833
-1020.9552 690.35779 2923.9006 4016454
-999.66888 688.31482 2915.2478 3753282
-980.14709 687.43329 2911.5142 4016453
-964.34283 689.17517 2918.8916 3950661
-941.03345 685.51703 2903.3982 3819331
-917.06097 681.22211 2885.2078 3819331
-899.22748 681.40637 2885.9883 4147782
-883.91663 683.54913 2895.0635 4081989
-864.41376 682.47186 2890.501 3950403
-846.30389 682.47186 2890.501 4081733
-826.80554 681.32776 2885.6553 4278855
-810.20709 682.57556 2890.9399 4542027
-792.09448 682.57556 2890.9399 4278855
-780.88037 688.65936 2916.707 3884097
-749.96454 677.24335 2868.3564 3949120
-733.50519 678.64209 2874.2805 4080706
-717.09766 680.16046 2880.7112 4146499
-702.33514 683.3576 2894.2524 4343878
-681.01648 680.17633 2880.7786 4409671
-670.44836 687.85132 2913.2847 3028018
-648.54901 684.00525 2896.9954 3225654
-631.92828 685.66516 2904.0256 4014913
-618.59918 691.10095 2927.0481 4146499
-595.4726 685.58862 2903.7017 4278342
-569.33063 676.14783 2863.7166 4278085
-550.05511 674.51276 2856.7913 3949120
-530.84351 672.84857 2849.7432 3488569
-513.87988 674.01709 2854.6921 4014913
-494.83551 672.44232 2848.0225 3291190
-481.13538 678.28381 2872.7632 3159604
-457.5177 670.05463 2837.9097 3422776
-445.18924 678.36206 2873.0945 3422776
-423.18979 672.01239 2846.2014 3422776
-403.99789 669.75848 2836.6553 3291190
-385.73416 668.90668 2833.0476 3422776
-367.85406 668.67004 2832.0454 3620155
-351.3974 671.12799 2842.4558 3751742
-330.49005 664.89435 2816.0542 3620925
-316.4946 672.6474 2848.8911 3094581
-296.21881 667.18195 2825.7429 3357753
-278.2034 666.43628 2822.5847 3291960
-261.01404 667.70264 2827.9482 3423546
-247.42468 679.0332 2875.937 3818560
-223.99013 663.00226 2808.0405 4015683
-204.87492 658.1134 2787.3345 3292473
-188.28033 661.16467 2800.2576 3687231
-171.5202 664.20209 2813.1221 3687231
-153.93353 664.3678 2813.824 3555645
-136.30405 664.3678 2813.824 3160887
-118.7684 664.89313 2816.0488 3160631
-101.23734 665.63184 2819.1777 3160888
-83.605827 665.88281 2820.2405 3292216
-66.289719 669.45355 2835.3638 3357753
-48.565186 670.00391 2837.6948 3226167
-30.785494 669.98969 2837.6348 3226167
-13.001251 669.70221 2836.4172 3620925
4.7613978 668.52496 2831.4312 3489339
22.632278 672.41962 2847.9263 3226167
40.567135 673.9433 2854.3796 3094581
58.337215 672.6347 2848.8372 3094581
76.47789 675.21124 2859.7498 3291960
94.204788 673.84985 2853.9836 3291960
112.08477 673.84314 2853.9553 3226167
130.5387 676.81415 2866.5386 3357753
148.96918 678.95953 2875.625 3226167
168.04105 683.24988 2893.7961 3226167
186.3712 683.98254 2896.8992 3226167
204.02507 682.32336 2889.8721 3226167
222.13101 682.32336 2889.8721 3226167
240.85577 684.08099 2897.3162 3555132
259.91342 686.47144 2907.4404 3620925
279.96136 690.99292 2926.5903 3489339
296.28882 686.34015 2906.8845 3489339
314.74518 686.87225 2909.1382 3555132
333.043 687.0191 2909.76 3489339
350.22443 684.96722 2901.0696 3621437
368.03128 684.28064 2898.1619 3687231
391.46741 693.63312 2937.7725 3292473
408.8147 691.84137 2930.1838 3358266
429.77911 696.06183 2948.0591 3029558
449.27676 697.65686 2954.8145 2766386
464.63556 692.95288 2934.8916 3226167
478.80948 686.90735 2909.2866 3357753
495.53467 684.83105 2900.4929 3291960
516.28119 688.26251 2915.0261 3291960
536.26569 690.47833 2924.4111 3489339
555.49927 691.61292 2929.2163 2897202
573.85175 691.61292 2929.2163 3028787
584.83496 683.00665 2892.7659 3489339
602.95898 683.00665 2892.7659 3686718
624.9306 687.23773 2910.686 3686718
644.60962 688.7793 2917.2148 3818304
658.96942 684.7088 2899.9751 3752511
676.11749 683.67615 2895.6016 3686718
693.8252 683.24866 2893.791 3686718
712.86456 684.12091 2897.4854 3883840
731.01825 684.12091 2897.4854 3686718
744.80518 680.13342 2880.5967 3751741
764.34882 681.46698 2886.2449 3883583
775.80524 675.69531 2861.8 4080706
793.4057 675.41473 2860.6116 4080706
812.16455 676.1109 2863.5601 3949120
818.72632 666.84259 2824.3057 3751741
855.64105 682.16547 2889.2034 3488569
872.67804 681.33423 2885.6826 3620155
884.32666 676.41516 2864.8486 3685948
905.22083 678.62286 2874.1992 3817534
921.16968 677.1095 2867.7896 3751741
938.05701 676.33063 2864.4907 3883327
958.32434 677.97223 2871.4434 4014913
977.22351 678.60321 2874.116 4014913
990.30835 675.24689 2859.9006 3817791
1009.5145 676.10944 2863.554 3818560
1027.1378 675.90039 2862.6685 3818304
1045.583 676.2301 2864.0649 3752511
1063.5273 676.2301 2864.0649 3686718
1081.2352 676.08234 2863.439 3884097
1097.8767 675.28339 2860.0552 3620925
1120.2687 677.99036 2871.5203 3489339
1135.1851 676.15906 2863.7639 3489339
1162.9612 681.92529 2888.186 3489338
1177.6776 679.9743 2879.9229 3423546
1201.0963 683.03094 2892.8689 3028788
1211.7549 678.84827 2875.1538 3620924
1225.0146 676.22406 2864.0393 3752511
1239.1107 674.13055 2855.1726 3818560
1253.7303 672.37744 2847.7476 3884097
1271.0469 672.09955 2846.5708 4278857
1288.4097 671.85352 2845.5286 4278855
1303.5933 670.49335 2839.7678 3949890
1321.8873 670.74805 2840.8467 3949890
1343.3112 672.56305 2848.5337 3884097
1352.2606 668.16675 2829.9138 4278855
1378.5352 672.33386 2847.563 4081476
1405.2214 676.59283 2865.6011 3949890
1413.8151 672.14282 2846.7539 3884097
1434.4283 673.44684 2852.2769 3884097
1450.1057 672.42987 2847.9697 3884097
1473.5009 674.97296 2858.7407 3949120
1493.6144 675.96985 2862.9626 3488569
1511.9304 676.13916 2863.6799 3225397
1536.54 679.08606 2876.1609 2699053
1545.0562 674.93439 2858.5771 2435881
1569.2762 677.65936 2870.1184 2698797
1587.2584 677.65936 2870.1184 2961969
1606.4485 678.16931 2872.2781 2896432
1622.1407 677.20758 2868.2051 2962225
1639.472 676.94385 2867.0879 3291190
1659.9528 677.97205 2871.4426 3225397
1678.212 678.08069 2871.9028 3225397
1697.4211 678.56665 2873.9609 3356983
1715.5421 678.61206 2874.1533 3159604
1744.7385 682.99207 2892.7041 3291190
1766.6193 684.44769 2898.8691 3620155
1781.4598 683.17377 2893.4739 3488569
1804.6123 685.08105 2901.5518 3554362
1819.92 684.00183 2896.981 3422776
1853.9446 689.90906 2922 3422776
1874.7118 690.81555 2925.8394 3554362
1898.0011 692.62488 2933.5022 3620155
1920.7927 694.21954 2940.2563 3488569
1915.9338 685.88538 2904.9583 3291190
1935.63 686.41583 2907.2048 3159604
1959.0209 688.23431 2914.907 3225397
1983.3103 690.33197 2923.7913 3422776
1997.4641 688.89569 2917.708 3356983
2007.7163 686.15198 2906.0874 3159604
2022.4915 684.9895 2901.1641 3028018
2043.4628 685.92755 2905.137 3028018
2066.8318 687.64679 2912.4187 2896689
2085.0791 687.64679 2912.4187 2830639
2102.2332 687.28943 2910.905 2830895
2111.5217 684.38879 2898.6199 2699309
2128.2273 683.9212 2896.6394 2567467
2143.8528 683.11731 2893.2346 2699053
2144.1919 677.49689 2869.4304 2896689
2177.0061 682.14569 2889.1196 2962225
2207.9092 686.12402 2905.969 3028275
2232.5647 688.11157 2914.3872 3093811
2263.3774 691.94928 2930.6411 3093811
2281.7388 691.94928 2930.6411 3027505
2289.8474 688.86493 2917.5779 3093298
2302.0808 687.06049 2909.9353 3290677
2312.1692 684.64917 2899.7227 3290677
2324.5176 682.93951 2892.4814 3685435
2340.728 682.38208 2890.1208 3751228
2335.575 675.65308 2861.6211 3224884
2381.4194 683.66724 2895.5637 3553849
2417.0417 688.64771 2916.6577 3488056
2477.3445 700.53247 2966.9939 3356470
2490.5413 699.01898 2960.5837 3619385
2534.3762 706.0636 2990.4199 3618871
2553.1123 706.0636 2990.4199 3553335
2546.3838 699.07263 2960.811 3487542
2563.4441 698.66656 2959.0911 3487542
2580.5144 698.26898 2957.4072 3553335
2603.5688 699.48474 2962.5564 3619128
2622.1299 699.48474 2962.5564 3619642
2669.9285 707.22925 2995.3569 3619128
2665.5427 701.13922 2969.5637 3487542
2685.7175 701.54932 2971.3003 3488056
2715.0066 704.31805 2983.0269 3685435
2707.4023 697.54364 2954.335 3619642
2708.7251 693.14551 2935.7075 3027505
2721.0376 691.59998 2929.1616 2895919
2751.9219 694.76398 2942.5623 2961712
2770.3579 694.76398 2942.5623 3093298
2751.5654 685.48926 2903.2808 3224884
2758.8362 682.78693 2891.8352 3356470
2772.2876 681.63947 2886.9753 3488056
2786.1455 680.60614 2882.5989 3488056
2804.9448 680.78552 2883.3586 3356470
2823.01 680.78552 2883.3586 3159092
2813.4719 674.1712 2855.3447 3159093
2823.9277 672.40112 2847.8479 3159093
2840.7214 672.15295 2846.7969 3159093
2854.9143 671.29626 2843.1685 3159093
2872.72 671.29443 2843.1609 3027507
2890.5332 671.29443 2843.1609 3224886
2897.7393 668.84613 2832.7913 3488058
nan nan nan 16777215
nan nan nan 16777215
nan nan nan 16777215
nan nan nan 16777215
nan nan nan 16777215
nan nan nan 16777215
nan nan nan 16777215
nan nan nan 16777215
nan nan nan 16777215
-2455.0166 647.16425 2670.4731 3028018
-2450.0112 650.27661 2683.3159 3159604
-2410.3213 644.16223 2658.0857 3488569
-2373.7532 638.80316 2635.9717 3751998
-2355.7158 638.39062 2634.2695 4146499
-2351.0217 641.61377 2647.5696 4080706
-2334.4338 641.61377 2647.5696 4146499
-2309.1982 639.21997 2637.6917 4080963
-2284.5186 636.94659 2628.3108 4080706
-2267.5959 636.81873 2627.7832 4080706
-2260.9685 639.60132 2639.2654 3949377
-2253.6963 642.24121 2650.1584 3751741
-2237.0923 642.24121 2650.1584 3883327
-2210.4182 639.32861 2638.1401 4080706
-2209.825 643.97247 2657.3025 4146499
-2193.3528 644.02429 2657.5164 4146499
-2218.8105 656.48285 2708.9255 3817534
-2180.8162 650.21503 2683.062 3620155
-2179.1157 654.75507 2701.7961 3620155
-2167.814 656.45868 2708.8259 3619898
-2141.3806 653.57086 2696.9097 4015683
-2124.4836 653.57086 2696.9097 4278855
-2149.0115 666.41693 2749.9177 4278855
-2118.9685 662.41113 2733.3882 3818304
-2105.9224 663.69678 2738.6934 3160374
-2113.9473 671.69879 2771.7131 3620926
-2096.7017 671.7373 2771.8718 3752254
-2075.1406 670.3822 2766.2803 3818048
-2045.4248 666.34772 2749.6323 3949891
-2037.1636 669.29352 2761.7878 3752513
-2019.6848 669.23535 2761.5479 3686718
-1980.0786 661.78088 2730.7876 3424059
-1970.042 664.16528 2740.6267 3489597
-1953.9705 664.53918 2742.1694 3555133
-1941.4562 666.14014 2748.7759 3752254
-1933.3329 669.2901 2761.7737 3686718
-1924.6482 672.30066 2774.1965 3949890
-1897.7136 668.93317 2760.3008 3818304
-1892.7772 673.32922 2778.4409 3423546
-1858.0513 667.11139 2752.7834 3555132
-1848.3264 669.83734 2764.032 3752511
-1815.3114 664.09479 2740.3357 3686718
-1812.2876 669.31897 2761.8928 3423546
-1795.5149 669.51709 2762.7104 3423546
-1771.7478 667.08563 2752.6772 3752511
-1755.114 667.3186 2753.6384 3884097
-1736.0841 666.63599 2750.8218 3752511
-1716.74 665.81787 2747.446 3686718
-1699.5265 665.81787 2747.446 3358010
-1678.3043 664.23145 2740.8997 3358009
-1660.7888 664.0943 2740.3337 3423546
-1642.1821 663.51349 2737.937 3554619
-1625.0281 663.51349 2737.937 3948864
-1605.0785 662.3598 2733.1765 3685948
-1591.8815 663.99792 2739.936 3883327
-1574.715 663.99792 2739.936 3883327
-1546.4236 659.25531 2720.366 3619899
-1534.6671 661.53455 2729.771 3685948
-1519.4301 662.3479 2733.1272 3554362
-1499.2765 661.01215 2727.6152 3620155
-1478.0358 659.16077 2719.9758 3620155
-1469.176 662.85211 2735.208 3817278
-1443.5845 658.99261 2719.282 3686461
-1423.5535 657.60956 2713.575 3423546
-1410.9363 659.65936 2722.0332 3423546
-1394.0353 659.73187 2722.3325 3555132
-1371.9989 657.34583 2712.4868 3555132
-1359.4906 659.52234 2721.4678 3555132
-1342.4398 659.52234 2721.4678 3686718
-1329.0203 661.32928 2728.9241 3752511
-1308.0687 659.38647 2720.9072 3620925
-1292.8859 660.33881 2724.8369 3620925
-1278.6788 661.82159 2730.9556 3884097
-1261.3209 661.69165 2730.4194 3489339
-1247.0405 663.19489 2736.6223 3489595
