# .PCD v0.7 - Point Cloud Data file format
VERSION 0.7
FIELDS x y z rgb
SIZE 4 4 4 4
TYPE F F F U
COUNT 1 1 1 1
WIDTH 1264
HEIGHT 1
VIEWPOINT 0 0 0 1 0 0 0
POINTS 1264
DATA ascii
3647.5942 655.21039 4401.5723 3554108
3534.8191 630.18835 4233.479 3488315
3457.7729 611.86139 4110.3623 3685437
3391.6289 595.72021 4001.9292 3093300
3385.7874 590.33002 3965.719 3817024
3412.1853 590.59851 3967.5229 6975087
3463.8633 595.20721 3998.4829 7304052
3499.2627 596.97247 4010.3418 6514536
3526.4099 597.31488 4012.6416 4080195
3620.0183 608.83002 4089.9985 3816767
3846.4673 642.3681 4315.3003 3751230
3938.8979 653.21283 4388.1528 3816766
4026.1956 663.06177 4454.3164 3751230
4153.9697 679.39526 4564.0415 3882816
4285.1802 696.06366 4676.0161 3882560
4340.9526 700.33502 4704.7104 3948609
4385.5806 702.76294 4721.0205 3882816
4451.2188 708.5025 4759.5781 3882816
4480.6982 708.44867 4759.2163 3817023
4510.5161 708.44867 4759.2163 3750974
4670.2739 728.72375 4895.4204 3685437
4707.8047 729.78711 4902.564 3816766
4795.6421 738.58447 4961.6626 3948609
4874.7568 745.93365 5011.0332 3948609
4976.1187 756.57147 5082.4956 3882816
5056.3604 763.88306 5131.6138 3751230
5091.4922 764.33051 5134.6196 3751230
5123.6621 764.33051 5134.6196 3882816
5164.1875 765.56915 5142.9404 3817023
5188.3462 764.38129 5134.9604 3751230
5224.8403 765.0141 5139.2114 3817023
5240.3228 762.58154 5122.8701 3751230
nan nan nan 16777215
nan nan nan 16777215
nan nan nan 16777215
nan nan nan 16777215
nan nan nan 16777215
nan nan nan 16777215
-4282.0781 707.91888 4564.5562 3685950
-4296.9854 715.15973 4611.2437 3620157
-4284.2295 717.86328 4628.6758 3488571
-4267.001 719.84918 4641.4805 3356985
-4267.5449 724.88104 4673.9253 3488571
-4288.4883 733.47162 4729.3159 3422778
-4282.4287 737.53107 4755.4907 3422778
-4280.7275 742.40332 4786.9062 3356985
-4268.751 745.54962 4807.1934 3291192
-4306.1001 757.41675 4883.7109 3291192
-4285.9731 759.27173 4895.6714 3356986
-4261.9487 760.45801 4903.3203 3422778
-4290.7197 771.15015 4972.2617 3356985
-4264.0176 771.95593 4977.457 3291191
-4232.1382 771.82941 4976.6411 3488570
-4186.124 769.104 4959.0684 3488570
-4130.0469 764.47516 4929.2222 3620155
-4139.2866 771.95789 4977.4697 3685949
-4135.4072 777.08899 5010.5542 3883328
-4131.3477 782.26434 5043.9243 3883328
-4103.2798 782.93878 5048.2729 3949120
-4077.1599 783.99805 5055.103 3949121
-4045.488 783.99805 5055.103 3949122
-4007.3413 782.73334 5046.9482 4080708
-3971.5354 781.9093 5041.6353 3949890
-3903.9844 774.77216 4995.6157 3818304
-3899.8545 780.20758 5030.6626 3752511
-3862.2559 778.98132 5022.7559 3752511
-3825.5898 777.92456 5015.9419 3752511
-3735.4209 765.88049 4938.2837 4147269
-3695.0781 763.93652 4925.749 4410441
-3668.4883 764.82709 4931.4912 4278855
-3659.0918 769.34778 4960.6401 4278855
-3645.0686 772.96478 4983.9619 4081733
-3604.1345 770.88824 4970.5732 4147269
-3558.9734 767.86365 4951.0708 4147269
-3515.939 765.24872 4934.21 4015683
-3463.7458 760.57623 4904.0825 4081476
-3431.3286 760.20154 4901.6665 4081476
-3413.8086 763.15015 4920.6787 4015683
-3396.6223 766.22791 4940.5239 4081476
-3317.9607 755.36676 4870.4927 4015683
-3267.2295 750.72162 4840.5415 4015683
-3210.582 744.61731 4801.1821 3950660
-3119.7661 730.39813 4709.4985 3884610
-3041.2085 718.80463 4634.7456 3884610
-3002.6338 716.52887 4620.0718 4081989
-2843.6609 685.19812 4418.0557 4016453
-2785.4841 677.77759 4370.2095 3818817
-2723.333 669.23309 4315.1157 3885381
-2701.4851 670.52069 4323.418 3951430
-2688.8552 674.14545 4346.79 4609619
-2565.9807 649.92133 4190.5962 5005400
-2525.3311 646.23773 4166.8452 4874071
-2493.7288 644.81671 4157.6826 4874071
-2460.9468 643.05743 4146.3389 4742742
-2436.1638 643.37305 4148.374 4808279
-2429.0439 648.41052 4180.8545 4873816
-2464.7307 665.10913 4288.5249 5136731
-2487.0867 678.53888 4375.1182 5334366
-2452.7734 676.63495 4362.8418 4872275
-2482.9697 692.68457 4466.3271 4279882
-2503.7292 706.43744 4555.0039 3686974
-2518.582 718.82172 4634.8555 3687231
-2497.7432 721.18933 4650.1216 3555645
-2529.9409 739.10706 4765.6528 3686975
-2474.3135 731.48889 4716.5317 4015683
-2482.8362 742.88062 4789.9839 4147269
-2480.0176 751.11627 4843.0859 4081476
-2455.8044 752.99591 4855.2061 4015683
-2430.3796 754.54651 4865.2041 3884097
-2408.0237 757.10144 4881.6777 3752511
-2435.155 775.48145 5000.189 3752511
-2349.3757 757.91522 4886.9248 3949890
-2364.3088 772.8042 4982.9268 4147269
-2360.0828 781.74548 5040.5786 4081476
-2362.9338 793.30524 5115.1143 4015683
-2333.1611 794.07953 5120.1069 3884610
-2273.9705 784.72363 5059.7812 3884610
-2220.1958 776.99854 5009.9712 3884610
-2188.6262 776.93451 5009.5581 4081989
-2160.5454 778.125 5017.2344 4279368
-2114.741 772.87323 4983.3716 4410954
-2101.2637 779.45569 5025.8145 4213575
-2096.4727 789.50958 5090.6406 4081989
-2030.7251 776.5639 5007.1689 4081989
-1978.897 768.61847 4955.9375 4016196
-1959.0377 773.03448 4984.4116 4081989
-1921.7386 770.60028 4968.7163 4016196
-1879.2111 765.95502 4938.7642 4081989
-1845.7523 764.91241 4932.0415 4279368
-1796.9507 757.36768 4883.394 4213575
-1774.0245 760.65631 4904.5986 4016196
-1718.014 749.625 4833.4707 3818561
-1679.4508 745.94745 4809.7583 3818817
-1653.1698 747.69031 4820.9961 3884610
-1636.5769 753.96136 4861.4307 3884610
-1602.1095 752.07935 4849.2959 3884353
-1534.2639 734.15302 4733.7095 3686975
-1504.131 733.92133 4732.2158 3818560
-1462.9117 728.16217 4695.0815 3686975
-1375.892 698.90167 4506.4141 3686974
-1326.7388 688.05286 4436.4629 3490108
-1277.2169 676.54462 4362.2593 3424059
-1249.8861 676.54462 4362.2593 3424315
-1088.2672 602.23157 3883.0999 4344906
-1063.9384 602.23157 3883.0999 5002836
-1024.0305 593.20697 3824.9102 5134424
-1065.4265 631.9765 4074.8904 3489340
-1029.6149 625.72827 4034.6028 3028790
-1024.8544 638.51117 4117.0254 3818306
-1000.7913 639.61774 4124.1602 3818562
-956.70209 627.64478 4046.9604 3884355
-894.20917 602.61743 3885.5876 3094583
-859.95209 595.75024 3841.3091 2897204
-883.258 629.51373 4059.011 4213064
-876.73859 643.39197 4148.4956 4542029
-828.32855 626.43762 4039.1765 5265752
-781.78003 609.86682 3932.3308 3686720
-754.39148 607.65076 3918.0417 2634033
-752.20807 626.27075 4038.1008 4213064
-731.91901 630.58795 4065.9373 4476236
-707.14825 631.21594 4069.9866 4805201
-670.94763 621.30682 4006.0942 3949893
-657.84528 632.84796 4080.5098 2436910
-629.96729 630.53357 4065.5869 4410701
-606.51752 632.64307 4079.1887 4476494
-582.44495 634.26001 4089.6143 4542286
-559.86426 637.72504 4111.9565 4279373
-538.46814 642.93878 4145.5737 2437425
-503.09247 631.14325 4069.5181 4081739
-485.005 640.93475 4132.6519 5068633
-456.16196 636.81543 4106.0913 5134425
-429.1824 634.96075 4094.1328 4477008
-408.215 642.33044 4141.6514 2766136
-391.29477 657.50122 4239.4702 4542801
-378.65994 682.60693 4401.3481 5134938
-348.20905 677.01697 4365.3047 5069401
-314.70563 664.03308 4281.5869 4082505
-301.6976 695.90485 4487.0913 4082506
-291.17505 740.64893 4775.5942 4411471
-264.43661 749.67023 4833.7622 4411470
-238.4536 763.44373 4922.5718 4279885
-209.52043 770.461 4967.8179 4411471
-179.43761 774.96155 4996.8369 4477264
-148.46088 776.68799 5007.9688 4345678
-118.0086 782.81873 5047.499 4345422
-87.217888 790.3714 5096.1973 4411471
-55.916866 799.35217 5154.104 4213837
-23.713816 802.36395 5173.5234 4477522
8.6342058 796.30396 5134.4497 4411728
40.929054 798.76154 5150.2959 4016714
75.170425 820.2937 5289.1318 4279886
108.05872 818.40216 5276.9355 4345935
139.76637 810.54987 5226.3052 4411727
175.40564 824.15143 5314.0063 4608593
208.69954 824.15143 5314.0063 4477007
239.94136 817.16272 5268.9443 4147784
272.59717 816.09766 5262.0767 4213322
304.67139 813.70917 5246.6758 4279114
333.96375 805.07965 5191.0342 4279112
368.70847 809.95923 5222.4971 4015682
407.02228 821.24469 5295.2637 3818304
437.14105 815.54022 5258.4824 3620925
467.38895 810.85931 5228.3003 3621181
498.06982 807.49353 5206.5981 3818304
530.69073 807.49353 5206.5981 3884097
562.77228 806.72021 5201.6123 3884097
591.13757 800.99615 5164.7041 3818304
621.63617 798.60669 5149.2974 3620925
652.43781 796.8233 5137.7983 3489339
685.78339 798.16827 5146.4707 3489339
715.99207 795.90558 5131.8809 3423546
746.38013 794.0282 5119.7759 3291959
769.07971 784.4632 5058.1021 3160376
795.02899 778.83881 5021.8369 3226169
835.05823 786.91089 5073.8843 3094329
879.7254 798.60101 5149.2607 2897206
915.00116 801.24023 5166.2783 3028283
950.28864 803.70923 5182.1978 3159868
982.10059 803.17255 5178.7373 3159872
1012.5746 801.61115 5168.6699 2830650
1031.4858 791.27643 5102.0327 2765114
1072.5067 798.01398 5145.4756 2435894
1104.2666 797.66858 5143.2485 2304564
1111.8829 780.39722 5031.8853 2501431
1160.7927 792.26172 5108.3857 2369844
1193.0327 792.41736 5109.3896 2172720
1219.2396 788.66248 5085.1782 1909549
1251.0435 788.62683 5084.9487 1909547
1277.3312 785.20221 5062.8672 1909547
1298.6584 778.96814 5022.6709 2304560
1320.5884 773.3819 4986.6519 3225660
1311.4343 750.27087 4837.6353 3357245
1375.8057 769.3175 4960.4453 3291709
1406.8844 769.3175 4960.4453 3094329
1443.3533 772.20135 4979.0396 3160376
1474.5486 772.20135 4979.0396 3226167
1515.6241 777.26837 5011.7109 3489339
1552.9285 780.23492 5030.8389 3226167
1596.3014 786.07178 5068.4741 3291960
1636.3016 790.05255 5094.1416 3291960
1685.9562 798.45319 5148.3076 3094581
1727.5381 802.78711 5176.252 2962995
1754.7585 800.41034 5160.9272 3094581
1789.9626 801.69556 5169.2139 3160374
1826.5178 803.52936 5181.0381 3226167
1870.9922 808.72211 5214.52 3160374
1919.0055 815.24005 5256.5469 3357753
1964.4404 820.46124 5290.2119 3291960
1998.5321 820.85016 5292.7197 3226167
2033.7549 821.68329 5298.0918 3226167
2040.3715 811.11774 5229.9668 3226167
2099.0981 821.27441 5295.4556 3357753
2157.9348 831.15735 5359.1792 3357753
2191.7068 831.23138 5359.6562 3226167
2241.0825 837.13165 5397.7007 3226167
2277.7771 838.19006 5404.5249 3226167
2293.8174 831.72839 5362.8608 3160374
2331.1562 833.06451 5371.4761 3226167
2352.2178 828.62848 5342.8735 3094838
2385.6926 828.62848 5342.8735 3028788
2416.8967 827.85071 5337.8584 3160374
2446.2817 826.47961 5329.0181 3489339
2485.6621 828.47693 5341.896 3555132
2492.4448 819.70068 5285.3081 3555132
2516.0667 816.61981 5265.4434 3555132
2538.2454 813.15637 5243.1113 3555132
2568.458 812.32233 5237.7339 3686718
2589.8726 808.76184 5214.7764 3489339
2593.8391 799.90942 5157.6973 3226167
2618.9165 797.70502 5143.4834 3160117
2653.4668 798.4046 5147.9941 3159604
2642.3501 785.51147 5064.8613 3422776
2659.6472 781.27094 5037.519 3751741
2599.7251 754.71277 4866.2759 3948607
2616.8049 750.86523 4841.4673 3817278
2607.6296 739.65851 4769.2085 4145728
2563.3833 718.87054 4635.1704 3487542
2501.8418 693.75238 4473.2124 2368292
2492.0566 683.38361 4406.356 2433828
2575.9158 698.64032 4504.729 2565414
2620.8276 703.11743 4533.5967 2762793
2662.6917 706.6897 4556.6299 3157551
2623.7595 688.96997 4442.376 3486772
2686.5273 698.04724 4500.9048 3750458
2776.0752 713.8219 4602.6177 3750971
2853.4768 726.18115 4682.3081 3619642
2921.4707 735.91907 4745.0967 3817020
2978.5405 742.73676 4789.0562 3685948
3047.2417 752.28986 4850.6533 3620155
3123.1672 763.42023 4922.4204 3489082
3181.1689 769.99457 4964.8105 3489083
3226.2883 773.35364 4986.4692 3489595
3268.0405 775.84882 5002.5581 3555390
3318.2371 780.28235 5031.1445 3620926
3385.9729 788.71796 5085.5361 3752768
3417.3135 788.59753 5084.7598 3686718
3455.7234 790.09558 5094.4189 3489338
3522.6404 798.02435 5145.5425 3489082
3562.5537 799.74719 5156.6514 3488569
3613.8403 803.96936 5183.875 3422775
3624.2571 799.10504 5152.5107 3488569
3632.5 793.85144 5118.6362 3356983
3645.8269 789.79126 5092.4565 3356983
3661.948 786.40143 5070.5996 3291190
3685.863 784.72937 5059.8184 3225397
3634.6787 767.23334 4947.0063 3225397
3625.8269 758.89331 4893.2314 3291190
3627.8335 752.94684 4854.8896 3159604
3616.7698 744.40918 4799.8398 3290934
3627.4983 740.46057 4774.3799 3290677
3655.1587 740.00464 4771.4399 3290933
3648.8301 732.73053 4724.5376 3290933
3635.2563 724.13025 4669.0845 3356470
3612.9299 713.93787 4603.3652 3290934
3578.5667 701.54706 4523.4712 3422263
3585.8132 697.44421 4497.0166 3619642
3586.6914 692.17633 4463.0503 3488056
3579.1362 685.375 4419.1963 3422263
3609.5479 685.89258 4422.5337 3553850
3625.3708 683.65131 4408.082 3554104
3630.2522 679.39618 4380.6455 3554363
3496.8743 649.52405 4188.0347 3620413
3349.5522 617.52612 3981.7166 3685951
3374.4988 617.52612 3981.7166 3225144
3385.7874 615.04504 3965.719 3751235
3346.1421 603.4151 3890.731 5725794
3289.7815 588.961 3797.533 6253163
3312.4629 588.76349 3796.2593 5529440
3375.887 595.75879 3841.3643 3620160
3505.7637 614.29926 3960.9104 3620160
3683.8411 640.96576 4132.8521 3488575
3784.8074 653.93677 4216.4873 3554109
3858.8311 662.10516 4269.1558 3488572
3937.252 670.91034 4325.9302 3554364
4060.217 687.13348 4430.5347 3554364
4145.3003 696.76898 4492.6631 3554365
4198.1392 700.89124 4519.2427 3554107
4256.563 705.88434 4551.4375 3619900
4303.4727 708.91437 4570.9746 3619900
4375.2632 715.97583 4616.5059 3554364
4418.5508 718.31091 4631.562 3751487
4475.6948 722.85339 4660.8516 3817536
4548.0093 729.7713 4705.457 4014915
4657.4199 742.51416 4787.6211 3949122
4748.7148 752.22424 4850.23 3949122
4822.4727 759.05054 4894.2451 3751486
4856.647 759.59955 4897.7852 3751487
4896.0132 760.94867 4906.4839 3817279
4934.4062 762.13062 4914.105 3817023
4921.4702 755.41907 4870.8301 3882816
4942.9316 754.03766 4861.9229 3882816
5008.8125 759.40784 4896.5488 3751230
nan nan nan 16777215
nan nan nan 16777215
nan nan nan 16777215
nan nan nan 16777215
nan nan nan 16777215
nan nan nan 16777215
-4136.252 711.28906 4409.1104 3554364
-4125.1802 714.15466 4426.8735 3488571
-4101.8149 714.91638 4431.5952 3422778
-4095.3999 718.66296 4454.8193 3422778
-4067.7729 718.71313 4455.1304 3356985
-4104.2017 730.15991 4526.0859 3422778
-4086.6882 732.10242 4538.1274 3488571
-4058.6926 732.18127 4538.6162 3356983
-4052.1113 736.15161 4563.2275 3291190
-4056.7373 742.22888 4600.8989 3291191
-4056.5518 747.50653 4633.6138 3356983
-4035.1343 748.91962 4642.373 3422776
-4035.4976 754.42505 4676.5 3356983
-4014.2649 755.94415 4685.9165 3291190
-3981.5325 755.3042 4681.9497 3356983
-3947.9109 754.48474 4676.8701 3356983
-3890.5049 749.07367 4643.3281 3554362
-3865.7034 749.90594 4648.4873 3554362
-3873.5029 757.12311 4693.2246 3685948
-3895.1438 767.17688 4755.5454 3949120
-3882.8184 770.6441 4777.0381 3949377
-3846.9978 769.46594 4769.7349 3883583
-3798.8862 765.79144 4746.9575 3949120
-3751.9324 762.29431 4725.2798 4014912
-3673.5103 752.29718 4663.3096 3686975
-3644.2932 752.29718 4663.3096 3686718
-3642.3337 757.96942 4698.4707 3686718
-3621.2205 759.71576 4709.2959 3752511
-3589.2673 759.198 4706.0864 3686718
-3553.1392 757.78125 4697.3042 3555132
-3447.5249 741.39771 4595.7466 3620925
-3411.0862 739.73981 4585.4697 3620925
-3433.5039 750.9259 4654.8096 3620925
-3469.5227 765.30389 4743.9351 3620925
-3482.3076 774.76099 4802.5576 3752511
-3422.1711 768.01776 4760.7578 3818304
-3356.1394 759.82123 4709.9497 3620925
-3328.3137 760.20581 4712.3335 3555132
-3298.7896 760.20581 4712.3335 3555132
-3276.0989 761.7948 4722.1836 3555132
-3216.5166 754.75616 4678.5527 3489339
-3161.0955 748.57349 4640.2275 3620925
-3089.0784 738.30939 4576.603 3752511
-3056.114 737.27441 4570.187 3884354
-2990.4275 728.25098 4514.2529 3687487
-2944.0986 723.81445 4486.752 3687231
-2884.6133 716.02655 4438.4771 3490110
-2790.354 699.37134 4335.2354 3622211
-2761.3801 698.91266 4332.3921 4148812
-2703.7759 691.12653 4284.1274 4675412
-2583.0554 666.88898 4133.8848 4939613
-2564.6599 668.84607 4146.0166 5203041
-2548.2693 671.37146 4161.6709 5204068
-2530.9563 673.70367 4176.1274 5203810
-2482.8789 667.80988 4139.5933 5071709
-2468.1235 670.84875 4158.4307 4676438
-2421.0869 665.08472 4122.7007 4477776
-2389.7485 663.55511 4113.2192 4016967
-2348.6367 659.24902 4086.5264 3425086
-2310.4634 655.68182 4064.4143 3687745
-2348.0427 673.7724 4176.5532 3292730
-2328.1252 675.586 4187.7954 3095094
-2311.219 678.32477 4204.7725 3160631
-2379.1516 706.31323 4378.2666 3423803
-2362.0056 709.40234 4397.415 4015683
-2361.4648 717.61035 4448.2944 3949890
-2325.9001 715.24414 4433.627 4015940
-2300.4543 715.96997 4438.126 4147269
-2276.5459 717.19794 4445.7378 4015940
-2285.5596 728.95648 4518.6265 3884354
-2277.8848 735.62061 4559.9355 3686718
-2263.156 740.14709 4587.9941 3686718
-2257.1777 747.6886 4634.7422 3884097
-2180.1824 731.59576 4534.9868 4081476
-2170.9509 738.11743 4575.4131 4278855
-2146.3926 739.53284 4584.187 4278855
-2133.178 744.94812 4617.7549 4213062
-2120.136 750.57336 4652.6245 3818817
-2106.0566 755.98315 4686.1582 3884610
-2058.0039 749.17853 4643.978 3818817
-2017.7782 745.06885 4618.5029 3818817
-2018.6173 756.22345 4687.6479 4147782
-2000.4945 760.49896 4714.1509 4081989
-1977.623 763.07031 4730.0898 4082246
-1932.3087 756.92865 4692.019 3884610
-1894.2562 753.48566 4670.6768 3884867
-1865.0446 753.50647 4670.8062 3819074
-1831.674 751.82098 4660.3579 3818817
-1796.1311 749.17462 4643.9541 3818817
-1768.5265 749.80695 4647.8735 3950403
-1724.6525 743.44708 4608.4502 3950403
-1694.4399 742.85999 4604.811 3884610
-1633.7483 728.65869 4516.7808 3555389
-1599.3369 725.88446 4499.584 3621438
-1571.1455 725.88446 4499.584 3884610
-1546.9509 727.76477 4511.2393 3950147
-1521.6422 729.18103 4520.0186 3752768
-1488.0883 726.62506 4504.1743 3620668
-1425.6462 709.59161 4398.5884 3423802
-1371.7074 696.20239 4315.5918 3424314
-1309.0131 677.74164 4201.1577 3621183
-1275.1753 673.7702 4176.54 3620927
-1206.1721 650.66272 4033.302 4213577
-1124.1659 619.40167 3839.5225 5332058
-1161.1675 653.77917 4052.6201 5924195
-1055.1499 607.36853 3764.9321 6056037
-1047.9949 617.04437 3824.9102 4015685
-991.41571 597.39178 3703.0884 2239532
-971.54919 599.44916 3715.8418 3225916
-946.21063 598.14844 3707.7786 3883589
-922.75635 598.00336 3706.8794 4211783
-939.96979 624.88641 3873.521 3948611
-916.9425 625.73358 3878.7727 2435629
-883.01697 618.98737 3836.9543 2698801
-859.95209 619.68988 3841.3091 3948611
-843.98761 625.69678 3878.5442 4277576
-842.4657 643.08429 3986.3254 4672334
-798.60034 628.22449 3894.2129 3356732
-769.96375 624.78546 3872.8953 2304554
-745.69885 624.78546 3872.8953 3883586
-725.97888 628.72156 3897.2939 4870227
-705.54608 632.29272 3919.4309 5199191
-660.78735 613.53516 3803.1572 4541776
-644.66412 620.95654 3849.1604 2173484
-626.85132 627.26404 3888.2593 3357758
-603.15955 627.96094 3892.5791 4870740
-573.03186 621.7337 3853.978 4936277
-545.71222 618.13922 3831.697 4739667
-534.22015 632.96716 3923.6116 2107947
-511.50311 635.28424 3937.9749 2436912
-486.93515 635.4209 3938.8215 4213324
-461.70554 634.66254 3934.1208 5003096
-444.32086 645.21045 3999.5051 5266011
-416.18344 640.47174 3970.1309 3161150
-391.30936 640.47174 3970.1309 2240048
-367.9166 643.06085 3986.1802 4674645
-355.31931 666.27014 4130.0488 5069659
-329.4433 666.27014 4130.0488 4872536
-307.677 675.29022 4185.9619 3688263
-290.96158 698.10999 4327.4165 4016457
-271.21832 717.60828 4448.2817 3950920
-250.7188 739.34265 4583.0078 3621697
-223.33009 743.75616 4610.3662 4213834
-198.72876 760.1427 4711.9424 4279627
-170.90581 767.77448 4759.25 4477006
-141.08763 767.77448 4759.25 4411213
-112.70718 777.69507 4820.7451 4148298
-82.104401 773.93097 4797.4126 4082761
-53.138653 790.16187 4898.0239 4082761
-22.783228 801.85425 4970.502 4279627
8.3585072 801.85425 4970.502 4477006
38.353317 778.57159 4826.1787 4411470
70.396294 799.06537 4953.2148 4148042
102.20821 805.19836 4991.2314 3884869
135.05162 814.68005 5050.0063 3819333
166.21158 812.33459 5035.4673 3884869
198.46939 815.24713 5053.5215 4015942
229.05779 811.44427 5029.9482 4081735
260.48029 811.15881 5028.1787 4081735
291.9339 811.0213 5027.3267 3752768
321.05298 805.05664 4990.353 3620925
350.08127 799.94312 4958.6558 3752768
385.89023 809.89435 5020.3408 3949890
420.82056 816.6405 5062.1587 4015683
448.01642 808.48352 5011.5957 3950147
476.47855 803.53046 4980.8926 3884097
506.33524 801.39355 4967.6465 3949890
537.08673 800.83838 4964.2051 3752511
563.97681 794.90143 4927.4033 3620925
592.37933 791.60187 4906.9502 3620925
619.41333 786.88922 4877.7378 3489339
650.84924 787.94904 4884.3071 3489339
679.45703 785.64349 4870.0156 3489339
703.62958 778.62817 4826.5293 3357753
730.58496 775.14355 4804.9287 3291962
755.27606 769.62744 4770.7358 3226169
785.8125 770.26086 4774.6626 3226169
827.2464 781.13806 4842.0874 3226425
856.69824 780.33167 4837.0889 3554879
879.36945 773.61511 4795.4546 3225916
908.71204 773.01764 4791.751 3291708
939.13318 773.34644 4793.7891 3423293
964.79053 769.85358 4772.1377 3423039
987.48804 764.27997 4737.5884 3489087
1035.6748 778.18378 4823.7744 3357501
1064.0371 776.82574 4815.3564 3094330
1063.3365 754.90948 4679.5029 3423294
1076.4507 743.71399 4610.1045 3752258
1119.4171 753.18939 4668.8403 3620673
1139.2535 747.01569 4630.5713 3423294
1182.4171 756.06458 4686.6631 3094329
1188.3947 741.47351 4596.2163 3358010
1224.3173 745.81439 4623.1245 3357754
1255.0208 746.84875 4629.5361 3357754
1294.621 753.01111 4667.7354 3357752
1326.3009 754.39624 4676.3213 3357753
1359.0009 756.28912 4688.0547 3423546
1396.0723 760.48315 4714.0527 3489339
1435.3839 765.69836 4746.3809 3555132
1472.5205 769.56525 4770.3506 3555388
1518.4838 777.7995 4821.3926 3818304
1548.8807 777.89465 4821.9824 3686718
1585.0959 780.85236 4840.3164 3555132
1593.9089 770.45349 4775.8564 3686718
1628.7032 772.7652 4790.186 3357753
1670.6843 778.34125 4824.751 3489339
1712.502 783.64441 4857.624 3489339
1742.1172 783.27618 4855.3413 3291960
1784.1091 788.38959 4887.0381 3160374
1819.1606 790.31531 4898.9751 3028788
1856.7628 793.26697 4917.2715 3094838
1888.0092 793.45105 4918.4126 3094581
1921.0245 794.36072 4924.0518 3094581
1963.6974 799.17206 4953.876 3160374
2000.2666 801.38824 4967.6138 3357753
2031.3904 801.38824 4967.6138 3226167
2065.6121 802.59204 4975.0757 3160374
2114.5435 809.3905 5017.2178 3160374
2132.8936 804.45544 4986.6265 3094581
2164.1362 804.45544 4986.6265 3226167
2197.7104 805.30981 4991.9224 2962995
2226.676 804.47504 4986.748 3028788
2221.7703 791.5954 4906.9102 3489339
2332.6338 819.75189 5081.4453 3620925
2345.95 813.33087 5041.6431 3555132
2362.3928 808.15015 5009.5288 3291960
2378.6523 803.04327 4977.8726 3226167
2409.8403 803.04327 4977.8726 3291960
2458.1499 808.6759 5012.7881 3489339
2504.457 813.51599 5042.7905 3686718
2517.488 807.5611 5005.8774 3489339
2533.2341 802.6131 4975.2061 3160374
2552.324 798.83179 4951.7666 3159604
2561.7554 792.15472 4910.3774 3357239
2577.3884 787.53107 4881.7163 3685948
2554.5132 771.38751 4781.6465 3751228
2549.1631 760.84894 4716.3203 3685178
2552.3362 753.06671 4668.0801 4079422
2550.2241 743.91907 4611.376 3421236
2552.8892 736.35425 4564.4834 2301985
2487.9211 709.66516 4399.0439 2433571
2512.8188 708.9137 4394.3857 2565157
2582.0198 720.54169 4466.4653 2762536
2600.5676 717.93677 4450.3179 3025965
2574.5588 703.21686 4359.0728 3289650
2653.3652 717.1347 4445.3462 3750714
2713.9155 725.88062 4499.5596 3619385
2742.4844 725.98053 4500.1792 3619386
2794.7834 732.29633 4539.3296 3620412
2832.7913 734.77795 4554.7124 3685948
2894.0945 743.19226 4606.8706 3620155
2939.2 747.32202 4632.4697 3685948
2997.9946 754.8175 4678.9326 3554362
3027.9055 754.96613 4679.854 3620155
3073.7622 759.04962 4705.1665 3751998
3118.3418 762.7431 4728.0615 3555391
3208.6621 777.44989 4819.2256 3686975
3247.478 779.51953 4832.0547 3884353
3257.5054 774.70435 4802.2065 3818304
3317.3203 781.70947 4845.6299 3489339
3350.1111 782.27728 4849.1494 3489595
3371.0144 780.08405 4835.5537 3554875
3387.072 776.8183 4815.3105 3422776
3391.3489 770.93243 4778.8252 3422776
3411.8066 768.79553 4765.5791 3291190
3432.6038 766.77148 4753.0327 3554362
3451.4465 764.34961 4738.02 3488569
3475.0605 763.01654 4729.7568 3554362
3456.5793 752.54144 4664.8237 3554362
3468.8184 748.87402 4642.0903 3225397
3477.1934 744.44037 4614.6074 3093811
3505.6443 744.34241 4614 3291447
3552.3513 748.0907 4637.2349 3422776
3517.9238 734.83063 4555.0391 3488569
3497.4883 724.68317 4492.1372 3554619
3481.1301 715.53571 4435.4341 3488825
3470.3894 707.67871 4386.7305 3488569
3467.7517 701.58453 4348.9541 3554619
3468.2925 696.22333 4315.7217 3356983
3454.2488 688.04016 4264.9961 3685178
3482.7415 688.39032 4267.1665 3553849
3500.3669 686.60339 4256.0898 3553849
3490.6587 679.52252 4212.1973 3422263
3408.687 658.58606 4082.417 3290677
3349.5522 642.34082 3981.7166 3224885
3374.4988 642.34082 3981.7166 3488058
3374.0066 637.534 3951.9204 3883074
3310.6987 621.0144 3849.5195 5330264
3251.6514 605.52716 3753.5176 6119526
3303.9023 610.8396 3786.4485 6909043
3328.9614 611.08484 3787.9683 6581101
3341.2292 608.99512 3775.0146 3949381
3514.7449 636.11841 3943.1455 3226168
3673.1606 660.14917 4092.1064 3356986
3737.0562 666.97717 4134.4316 3488056
3799.761 673.50018 4174.8662 3356470
3885.2358 683.94226 4239.5942 3225398
3962.1023 692.73749 4294.1138 3225399
4005.4111 695.58643 4311.7734 3225399
4057.4905 699.90997 4338.5742 3159606
4150.3218 711.15894 4408.3037 3488571
4188.1846 712.90253 4419.1118 3488571
4239.1514 716.83917 4443.5142 3554364
4301.4995 722.63641 4479.4497 3488571
4388.8032 732.5238 4540.7393 3488571
4480.8696 743.07355 4606.1348 3554364
4538.5254 747.81848 4635.5474 3554364
4569.8687 748.19507 4637.8818 3554364
4641.7539 755.16266 4681.0723 3620157
4687.6206 757.83636 4697.646 3488828
4727.5132 759.51685 4708.063 3554364
4770.1006 761.60681 4721.0181 3423035
4780.3896 758.54602 4702.0449 3488571
4790.0669 755.42615 4682.7056 3488571
nan nan nan 16777215
nan nan nan 16777215
nan nan nan 16777215
nan nan nan 16777215
nan nan nan 16777215
nan nan nan 16777215
-3829.7729 684.02771 4082.4136 3554364
-3953.4192 710.8595 4242.5508 3554364
-3927.0925 710.90546 4242.8252 3488572
-3915.7974 713.69177 4259.4546 3488571
-3890.5405 713.95428 4261.021 3356985
-3894.4236 719.60468 4294.7437 3356985
-3922.2632 729.7912 4355.5391 3422777
-3892.0435 729.24213 4352.2617 3422776
-3857.5793 727.88422 4344.1577 3422777
-3851.5347 731.90778 4368.1709 3422776
-3868.7581 740.44208 4419.1055 3488569
-3856.9453 743.50214 4437.3687 3488570
-3851.3621 747.81628 4463.1162 3554362
-3823.3992 747.81628 4463.1162 3554361
-3789.2427 746.59595 4455.833 3488569
-3759.4724 746.22803 4453.6372 3620156
-3728.1509 745.54456 4449.5581 3883328
-3722.0967 749.94165 4475.8008 3883328
-3722.6499 755.74689 4510.4478 3883327
-3703.2231 757.55377 4521.2314 3949122
-3697.7085 762.25635 4549.2974 3949121
-3662.3967 760.84186 4540.8555 3883585
-3615.6309 757.00702 4517.9683 3685950
-3527.2847 744.33722 4442.3525 3685950
-3533.0439 751.4823 4484.9956 3555132
-3498.4492 750.08978 4476.6851 3555132
-3461.656 748.19952 4465.4033 3489339
-3439.9944 749.57568 4473.6167 3423546
-3405.5676 748.17017 4465.228 3489339
-3349.2722 741.89703 4427.7891 3489339
-3285.1477 733.77057 4379.2886 3555132
-3210.9539 723.23907 4316.4346 3489339
-3183.9099 723.23907 4316.4346 3489339
-3179.3647 728.39349 4347.1973 3423546
-3140.5422 725.71625 4331.2188 3423546
-3076.1499 717.0321 4279.3901 3489339
-3048.3215 716.79309 4277.9634 3620925
-3008.856 713.78906 4260.0352 3620925
-2980.2615 713.33331 4257.3149 3555132
-2933.5579 708.49573 4228.4434 3620925
-2907.1367 708.51318 4228.5474 3555132
-2897.635 712.69232 4253.4893 3620925
-2871.5847 712.84106 4254.377 3620925
-2845.29 712.93127 4254.9155 3752511
-2805.9412 709.72137 4235.7583 3555645
-2737.3474 698.9826 4171.667 3490108
-2708.0447 698.16632 4166.7954 3489852
-2705.3755 704.26752 4203.2085 3490365
-2646.2903 695.65802 4151.8252 3621438
-2558.2896 679.20074 4053.605 3621695
-2551.884 684.2934 4083.9988 3621695
-2522.0159 683.13379 4077.0784 3358525
-2519.9277 689.55231 4115.3853 3029558
-2496.0029 690.06635 4118.4531 3029557
-2437.7571 681.00336 4064.3633 2832179
-2424.9795 684.5849 4085.739 2766129
-2406.3179 686.56415 4097.5513 2897715
-2358.1826 680.086 4058.8884 3226680
-2332.7524 680.086 4058.8884 3226680
-2303.7329 679.02802 4052.5742 3226680
-2309.7676 688.39392 4108.4717 3620668
-2317.0166 698.33691 4167.8135 4015940
-2265.4446 690.57611 4121.4956 4279111
-2245.2288 692.30487 4131.813 4476234
-2244.7209 700.22174 4179.0625 4344648
-2217.9644 700.04077 4177.9824 4344648
-2172.874 693.99969 4141.9282 4410441
-2145.1853 693.43781 4138.5747 4213319
-2118.49 693.18719 4137.0791 3686718
-2148.6277 711.75702 4247.9072 3752511
-2147.0269 720.14697 4297.9805 3818561
-2135.385 725.33942 4328.9697 3752767
-2128.4248 732.27612 4370.3696 3686718
-2071.0098 721.80865 4307.8975 4015683
-2044.0197 721.80865 4307.8975 4081476
-2044.1373 731.50952 4365.7939 4015683
-2046.2366 742.19214 4429.5503 4015683
-2011.0815 739.47021 4413.3052 3884610
-1995.7048 744.04633 4440.6162 3884610
-1953.8625 738.7453 4408.9785 3818817
-1927.7134 739.31067 4412.353 3818817
-1917.1029 745.93866 4451.9102 3884610
-1893.9486 747.80957 4463.0762 3950403
-1878.6652 752.89087 4493.4023 4016196
-1842.5874 749.66638 4474.1582 3884610
-1804.2643 745.41473 4448.7832 3884610
-1777.8705 746.03546 4452.4878 3884611
-1742.188 742.716 4432.6768 4016197
-1710.2264 740.90112 4421.8452 4081989
-1682.5222 740.90112 4421.8452 4016196
-1645.9933 736.95013 4398.2646 3950403
-1613.108 734.52368 4383.7832 3950403
-1575.1243 729.65131 4354.7041 4147269
-1535.2079 723.69629 4319.1631 4344904
-1484.8802 712.53156 4252.5298 4016196
-1479.4154 722.87988 4314.291 3818817
-1462.2036 727.76685 4343.457 3489596
-1382.7042 701.24939 4185.1958 3161144
-1350.0273 697.91229 4165.2793 2963763
-1317.952 694.76068 4146.4697 3621185
-1274.5159 685.37292 4090.4419 4345164
-1212.4563 665.37976 3971.1187 5464159
-1161.6047 650.82849 3884.2737 5924709
-1108.6163 634.43164 3786.4141 5924966
-1064.1543 622.30371 3714.0322 5398366
-1030.5615 616.13177 3677.197 2568496
-1012.6324 619.25653 3695.8462 2963254
-991.14172 620.29852 3702.0649 5068630
-962.84015 617.02576 3682.5325 5528924
-934.32703 613.45343 3661.2119 5001812
-915.15417 615.98816 3676.3398 3093559
-892.12073 615.98816 3676.3398 1975078
-868.04932 615.2525 3671.949 3422524
-852.01123 620.3255 3702.2258 4541005
-844.07141 631.74365 3770.3716 4343883
-827.50854 637.17963 3802.8147 4343626
-794.25354 629.70392 3758.1982 2501423
-773.87036 632.28833 3773.6223 1975333
-742.24384 625.55981 3733.4651 4014916
-721.99487 628.29431 3749.7852 4870225
-696.41248 626.41547 3738.5718 5002067
-668.20239 621.9599 3711.9802 5659487
-641.50928 618.646 3692.2021 2436143
-626.22321 626.49615 3739.0535 2173227
-606.55219 630.39905 3762.3469 5068119
-586.5036 634.20941 3785.0876 4673361
-559.13574 630.09265 3760.5183 4738641
-529.86035 623.36957 3720.3936 3160123
-509.95575 627.55963 3745.4006 1449761
-488.66647 630.36768 3762.1594 2831158
-473.95197 642.37146 3833.8003 4476238
-448.26071 639.98529 3819.5596 4410446
-424.31909 639.96893 3819.4617 4542288
-401.10526 641.11377 3826.2942 2700341
-376.8389 640.61493 3823.3171 1844776
-356.84018 647.79565 3866.1733 4147787
-337.09167 656.50964 3918.1799 4476751
-320.4248 673.06555 4016.989 4279115
-293.26276 668.51917 3989.8555 3686977
-273.12039 680.61871 4062.0676 3094840
-261.48267 718.57635 4288.6064 3029047
-238.49028 730.45105 4359.4771 3292476
-216.89116 750.21667 4477.4424 3358268
-190.71553 757.67334 4521.9453 3226937
-164.56668 767.85699 4582.7231 3095351
-137.15125 775.18628 4626.4658 3029558
-108.165 775.18628 4626.4658 3226680
-78.818779 771.66199 4605.4321 3226680
-50.454884 779.23834 4650.6494 3621695
-21.120897 772.06531 4607.8394 3687231
7.8014607 777.32776 4639.2466 3489852
36.832771 776.58966 4634.8413 3424316
64.921227 765.38654 4567.979 3358013
93.356003 763.87256 4558.9434 3029301
122.04585 764.6662 4563.6797 3160888
150.78241 765.39557 4568.0327 3358266
180.45004 769.86444 4594.7041 3358010
209.23727 769.86444 4594.7041 3423547
238.44957 771.23926 4602.9092 3423290
264.1727 762.24963 4549.2573 3292217
291.08423 758.10602 4524.5273 3094581
323.08502 766.77625 4576.2729 3423546
352.42734 768.23792 4584.9966 3489339
381.15375 768.23792 4584.9966 3686718
410.60043 769.58783 4593.0532 3818304
440.78992 772.06207 4607.8198 3818304
467.80203 769.00885 4589.5977 3818304
497.67038 770.73267 4599.8857 3752511
527.31525 771.94073 4607.0957 3686974
555.51495 771.01746 4601.5854 3555132
582.39148 768.43951 4586.1997 3555132
611.13776 768.45496 4586.292 3555132
639.60742 768.13678 4584.3931 3423546
661.56573 760.36237 4537.9937 3357753
688.34674 758.54303 4527.1357 3291959
714.94861 756.6781 4516.0054 3291962
742.68463 756.10992 4512.6143 3489341
770.91943 756.07251 4512.3911 3489341
775.9198 734.05695 4380.9976 3554624
808.8761 739.08972 4411.0342 3620928
832.78583 735.79694 4391.3823 3752259
852.70105 729.29846 4352.5981 3883845
879.9715 729.29846 4352.5981 3752260
905.61932 727.99414 4344.814 3620674
935.88971 730.37341 4359.0137 3686466
964.96899 731.71454 4367.0181 3620673
992.43915 731.79523 4367.4995 3423294
1023.5881 734.51147 4383.7104 3620672
1058.6416 739.81439 4415.3594 3620673
1086.1736 739.72479 4414.8247 3554881
1113.8339 739.72479 4414.8247 3620926
1141.224 739.54968 4413.7798 3291706
1179.1387 746.04193 4452.5264 3357755
1207.3649 746.24573 4453.7427 3291962
1243.5063 751.22198 4483.4424 3226167
1272.5121 751.76288 4486.6704 3291960
1303.9707 753.69824 4498.2207 3357753
1337.6602 756.81378 4516.8149 3555132
1364.9463 756.25244 4513.4648 3620925
1393.2245 756.25244 4513.4648 3620925
1433.9825 762.89178 4553.0898 3489339
1443.3152 752.87964 4493.3354 3423546
1484.8428 759.72321 4534.1792 3226167
1522.8479 764.54138 4562.9351 3489339
1559.1526 768.34406 4585.6299 3489339
1621.9072 784.80768 4683.8882 3686718
1637.1506 778.10498 4643.8853 3818304
1658.3569 774.42096 4621.8979 3949890
1702.4635 781.37378 4663.394 3884097
1720.2465 776.21417 4632.6006 3555132
1735.6687 770.17841 4596.5776 3423546
1766.6021 771.10999 4602.1377 3423546
1797.6365 772.05511 4607.7783 3423546
1831.4128 774.12933 4620.1577 3423546
1861.8615 774.75433 4623.8877 3357753
1903.7556 780.04987 4655.4927 3291960
1932.9237 780.04987 4655.4927 3555132
1960.0034 779.2196 4650.5376 3423546
1997.9767 782.68109 4671.1963 3555132
2019.8541 779.82831 4654.1704 3291960
2072.3372 788.70483 4707.147 3160374
2121.8066 796.20142 4751.8882 3226167
2171.2791 803.49158 4795.3975 3489339
2186.6421 798.13269 4763.4146 3620925
2200.5093 792.37952 4729.0786 3555132
2225.1052 790.59125 4718.4058 3357753
2247.1626 787.95959 4702.6997 3291960
2281.8835 789.77917 4713.5591 3291960
2334.7891 797.76569 4761.2241 3357753
2367.7109 798.80865 4767.4487 3488826
2416.4658 805.10071 4805.001 3554105
2399.0037 789.44763 4711.5806 3291190
2424.0676 787.99933 4702.9365 3291190
2440.2842 783.7442 4677.541 3422263
2443.8557 775.57703 4628.7979 3553592
2473.4622 775.76697 4629.9316 3750714
2502.4702 775.76697 4629.9316 3421749
2518.4297 771.76837 4606.0669 3486773
2522.2725 764.18921 4560.833 3025965
2522.897 755.81567 4510.8584 2105120
2477.5291 734.00189 4380.6689 2499363
2495.3225 731.1734 4363.7881 2499621
2517.0718 729.55286 4354.1167 2762535
2521.1311 722.89478 4314.3794 2828586
2551.4597 723.83026 4319.9629 3223344
2561.0337 718.92004 4290.6577 3684408
2629.7437 730.53967 4360.0059 3750200
2658.4841 730.93109 4362.3423 3750714
2710.4883 737.64569 4402.416 3619643
2752.8611 741.63025 4426.1968 3619642
2801.6177 747.23798 4459.6646 3685435
2849.7625 752.57336 4491.5073 3554362
2896.7417 757.49969 4520.9087 3554362
2931.9944 759.29376 4531.6162 3554362
2979.3477 764.15704 4560.6411 3488569
3010.8596 764.90344 4565.0957 3356983
3034.3372 763.61395 4557.3999 3356983
3088.9929 770.12152 4596.2383 3356983
3125.3696 771.99384 4607.4126 3356727
3161.5576 773.78564 4618.1064 3488569
3194.2039 774.68597 4623.48 3488569
3223.21 774.69525 4623.5352 3685948
3252.1777 774.69525 4623.5352 3159604
3267.4934 771.47186 4604.2974 3225397
3282.4873 768.22968 4584.9473 3291190
3291.176 763.58075 4557.2017 3422776
3305.5454 760.3186 4537.7324 3422776
3319.7639 757.07745 4518.3887 3488569
3321.7339 751.12164 4482.8433 3554362
3339.5435 748.81726 4469.0903 3554362
3398.0889 755.60938 4509.627 3291190
3386.6396 746.85364 4457.3711 3356983
3352.1194 733.19482 4375.8525 3620155
3323.2419 720.98181 4302.9629 3620155
3282.1323 706.33307 4215.5361 3620155
3259.8132 695.92963 4153.4463 3685948
3253.907 689.16724 4113.0869 3751741
3265.6279 686.21515 4095.4683 3751741
3254.0669 678.45483 4049.1533 3620155
3256.8276 673.77753 4021.2383 3488826
3289.7651 675.36719 4030.7256 3751228
3312.9895 674.9538 4028.2583 3619642
3322.5579 671.7854 4009.3489 3685435
3293.4226 660.89801 3944.3706 3751228
3303.521 657.98712 3926.998 3817023
3300.688 652.56268 3894.6238 3289909
3309.7649 649.55524 3876.675 1908512
3312.2322 645.30402 3851.3025 1908513
3314.73 641.12006 3826.3318 2566698
3303.9023 634.43738 3786.4485 2566443
3329.5444 634.80322 3788.6318 2961714
3359.2058 635.92474 3795.3254 3356728
3423.7817 643.59363 3841.0947 3159348
3556.7676 663.92529 3962.4382 3422264
3638.1304 674.40564 4024.9868 3487799
3706.6099 682.37 4072.5195 3488057
3802.6997 695.2735 4149.5303 3554364
3868.6006 702.51965 4192.7769 3554364
3905.2019 704.3833 4203.8994 3488571
3999.9548 716.6405 4277.0532 3422778
4039.0833 718.83514 4290.1509 3488571
4071.1167 719.7464 4295.5894 3554364
4113.8901 722.53198 4312.2144 3422778
4194.7573 731.92804 4368.292 3356985
4244.9697 735.88806 4391.9263 3422778
4298.3384 740.34082 4418.501 3488571
4331.0815 741.20667 4423.6689 3488571
4391.5024 746.76819 4456.8608 3422778
4425.8179 747.84814 4463.3066 3225399
4466.8657 750.04523 4476.4189 3225399
4494.9121 750.04523 4476.4189 3488571
4545.6387 753.80634 4498.8662 3554364
4565.6851 752.46472 4490.8589 3488571
4578.4609 749.94873 4475.8428 3488571
nan nan nan 16777215
nan nan nan 16777215
nan nan nan 16777215
nan nan nan 16777215
nan nan nan 16777215
nan nan nan 16777215
-3678.2852 681.40674 3920.9326 3554365
-3804.7004 709.56421 4082.9556 3554362
-3779.3513 709.60773 4083.2061 3685947
-3755.9336 710.01703 4085.561 3620155
-3741.3997 712.12268 4097.6777 3620155
-3744.5586 717.64844 4129.4736 3685948
-3747.314 723.17322 4161.2642 3685948
-3700.8293 719.20612 4138.437 3751742
-3651.6956 714.66479 4112.3052 3751743
-3631.2939 715.7218 4118.3877 3751999
-3621.4143 718.88275 4136.5762 3817536
-3607.0503 721.19263 4149.8677 3751743
-3582.5532 721.49536 4151.6094 3751743
-3553.7595 720.93091 4148.3613 3949122
-3516.6982 718.66852 4135.3433 3883329
-3492.4377 719.00793 4137.2964 3817534
-3505.3123 727.05481 4183.5996 3817534
-3495.7393 730.53192 4203.6074 3751742
-3472.0574 731.09094 4206.8242 3817535
-3470.2629 736.30249 4236.8125 3817536
-3470.5051 742.02991 4269.769 3751744
-3443.7539 742.02991 4269.769 3751743
-3315.7964 720.05212 4143.3052 3422778
-3289.8372 720.05212 4143.3052 3356986
-3250.7861 717.16388 4126.6855 3226167
-3224.9312 717.16388 4126.6855 3226167
-3238.4883 725.99927 4177.5259 3423546
-3213.3779 726.2395 4178.9082 3423546
-3167.9724 721.85925 4153.7036 3489339
-3141.9482 721.85925 4153.7036 3489339
-3076.3274 712.68597 4100.9189 3423546
-3022.6538 706.14935 4063.3059 3291960
-3009.6162 709.07562 4080.144 3423546
-2963.1997 704.12048 4051.6313 3555132
-2913.4907 698.29053 4018.085 3555132
-2888.3162 698.29053 4018.085 3423546
-2861.9331 697.99579 4016.3889 3357753
-2826.3513 695.43243 4001.6389 3291960
-2791.9529 693.117 3988.3154 3226167
-2765.5554 692.76398 3986.2839 3423546
-2735.9617 691.5965 3979.5662 3423546
-2712.6152 692.00134 3981.8958 3686718
-2702.2957 695.76764 4003.5676 3686718
-2659.7383 691.22644 3977.437 3620925
-2635.8997 691.51013 3979.0693 3554875
-2613.4783 692.1745 3982.8923 3489595
-2588.9785 692.29608 3983.5916 3423803
-2580.6277 696.78021 4009.394 3620925
-2531.1011 690.12549 3971.1021 2962995
-2450.1892 674.69641 3882.3201 2897202
-2375.6543 660.73138 3801.9631 3094325
-2386.968 670.60211 3858.7607 3160374
-2396.2007 680.08417 3913.3223 3225140
-2357.9871 676.15692 3890.7244 3225140
-2338.0918 677.45544 3898.196 3356726
-2332.4946 682.96783 3929.9155 3291189
-2303.0862 681.55151 3921.7656 3225397
-2245.9692 671.81628 3865.7476 2897202
-2252.7363 681.18628 3919.6638 2896946
-2258.686 690.51282 3973.3308 3094325
-2244.3066 693.76318 3992.0339 3818304
-2244.7898 701.73291 4037.8928 4081733
-2197.3191 694.72278 3997.5554 4344648
-2164.4856 692.23224 3983.2244 4278855
-2152.248 696.34729 4006.9033 4278855
-2131.4744 697.76495 4015.0608 4476234
-2089.6218 692.23376 3983.2334 4673613
-2052.2551 688.07281 3959.2905 4278855
-2072.9172 703.50378 4048.0828 3686718
-2065.2129 709.5708 4082.9937 3818304
-2038.7618 709.26825 4081.2524 3884097
-2013.1915 709.26825 4081.2524 3752511
-2006.045 715.84259 4119.0825 3686718
-1988.1129 718.68945 4135.4639 3620925
-1962.2029 718.68945 4135.4639 3686718
-1941.9961 720.80627 4147.6445 3752768
-1923.7004 723.69946 4164.2925 3818304
-1905.0311 726.52979 4180.5786 3818817
-1886.4917 729.4892 4197.6074 3950660
-1851.9261 726.24756 4178.9546 3818817
-1825.7633 726.25531 4178.999 4016196
-1808.8625 730.00122 4200.5537 3884867
-1788.8132 732.5683 4215.3252 4016196
-1774.2871 737.50818 4243.75 3950403
-1742.842 735.45868 4231.957 3950660
-1709.407 732.49329 4214.8936 3950659
-1680.9861 731.617 4209.8511 3884610
-1645.8824 727.75793 4187.6455 3950403
-1621.0378 728.38354 4191.2451 3818817
-1589.2185 725.84418 4176.6333 3818817
-1562.5042 725.59033 4175.1729 3753024
-1527.9434 721.62219 4152.3394 3687231
-1495.493 718.53064 4134.5498 4015683
-1471.2179 719.32715 4139.1333 4148038
-1442.2928 717.83795 4130.5645 3950403
-1409.9285 714.55133 4111.6523 3687487
-1384.6906 714.82129 4113.2056 3620925
-1329.4539 699.32141 4024.0166 3423546
-1278.2129 685.36481 3943.708 3357753
-1253.5044 685.36481 3943.708 3291959
-1221.8336 681.48163 3921.3633 3358010
-1176.804 669.83521 3854.3479 3621184
-1120.2789 651.02057 3746.0852 4081735
-1089.2269 646.52032 3720.1902 3423805
-1057.738 641.55841 3691.6384 2371117
-1032.4323 640.2088 3683.8726 3094840
-1015.4233 644.05988 3706.0322 3620926
-985.39966 639.64319 3680.6177 3488571
-957.26556 636.27069 3661.2119 3159606
-928.03192 631.98376 3636.5444 2830898
-901.99274 629.71124 3623.4678 2567212
-878.72211 629.30414 3621.1252 2566955
-866.474 636.97852 3665.2849 2764335
-845.70752 638.63812 3674.8347 2764335
-826.08948 641.2821 3690.0486 3027507
-801.35907 639.99536 3682.6445 2830128
-775.9837 638.10211 3671.7502 2566700
-755.51959 640.255 3684.1387 2698799
-726.40143 634.97876 3653.7781 3291192
-702.38495 633.96393 3647.9385 3422777
-679.52954 633.96393 3647.9385 3488057
-667.79364 644.69897 3709.7097 3028020
-642.87537 643.02277 3700.0645 2567212
-618.3819 641.66205 3692.2346 2764848
-602.88861 649.8974 3739.6223 2501163
-580.46173 651.02234 3746.0957 2566955
-559.85321 654.36737 3765.3435 2698541
-527.74445 643.97375 3705.5369 2764591
-502.30811 641.1402 3689.2319 2764335
-482.36813 645.38715 3713.6697 2567213
-462.48767 650.14819 3741.0657 2237992
-438.75909 649.71924 3738.5974 2106405
-416.11801 650.94318 3745.6401 2040868
-390.47107 647.33026 3724.8506 2633005
-368.5386 649.80731 3739.1042 2764592
-349.828 658.68713 3790.2 2172454
-327.85632 662.27283 3810.8328 1844003
-308.47998 672.07623 3867.2434 1843746
-294.37955 696.02515 4005.0496 2173738
-271.095 700.6991 4031.9443 3160376
-247.58302 705.68549 4060.6367 3226426
-227.35428 722.2439 4155.9165 3489598
-203.67935 730.72211 4204.7017 3292219
-179.89111 741.2522 4265.2939 3291963
-154.63995 748.37708 4306.2915 3357756
-129.64833 760.03497 4373.373 3423549
-102.06406 758.66925 4365.5146 3555391
-74.261742 754.08942 4339.1611 3358012
-47.12075 754.81342 4343.3276 3357755
-19.942656 756.11005 4350.7886 3357756
7.27319 751.64624 4325.103 3094841
33.99844 743.49237 4278.1841 3226683
60.26532 736.92267 4240.3809 3226427
87.160042 739.70135 4256.3701 3029047
113.67706 738.72357 4250.7437 3292219
141.17259 743.26892 4276.8984 3489599
170.84131 755.98041 4350.0425 3358012
197.32349 753.03345 4333.0854 3423805
223.57277 750.01819 4315.7349 3291963
248.77701 744.526 4284.1318 3357755
273.79053 739.58826 4255.7192 3291960
301.79611 742.89215 4274.7305 3620925
331.08856 748.56696 4307.3843 3620925
363.90234 760.74774 4377.4746 3489339
388.96161 756.14636 4350.9976 3423546
415.37479 754.60736 4342.1416 3555132
442.57965 754.60736 4342.1416 3818304
471.59521 757.51581 4358.8774 3555132
497.94928 756.06476 4350.5278 3489339
523.07477 752.99585 4332.8687 3489339
550.38116 753.21423 4334.1255 3489339
577.76611 753.51459 4335.8535 3555132
604.69177 753.21588 4334.1348 3423546
629.91809 750.91705 4320.9072 3357753
651.94147 745.14691 4287.7046 3357755
677.92712 744.18292 4282.1577 3160376
700.51489 739.70435 4256.3872 3357755
714.90912 727.21967 4184.5483 3423548
737.13666 723.30457 4162.02 3357501
763.08813 723.18628 4161.3394 3620674
785.24957 719.60254 4140.7178 3686466
803.75372 713.00372 4102.7471 3554881
831.06067 714.38074 4110.6709 3489088
858.87952 716.10187 4120.5742 3423294
887.13196 718.07336 4131.9189 3489087
917.78949 721.82477 4153.5049 3554880
943.17059 721.33386 4150.6802 3686466
969.43762 721.52856 4151.8008 3554880
1010.1915 732.21368 4213.2847 3554881
1036.6882 732.28381 4213.688 3554881
1073.2609 739.29095 4254.0083 3620926
1096.3146 736.87195 4240.0889 3160376
1114.7849 731.55957 4209.521 3028790
1141.6825 731.89532 4211.4526 3423548
1182.5682 740.98059 4263.731 3423545
1210.5859 741.77972 4268.3291 3423546
1240.8621 743.89813 4280.519 3423546
1268.174 744.1875 4282.1841 3357753
1301.3538 747.83691 4303.1836 3423546
1328.838 748.13165 4304.8794 3423546
1355.7441 748.09558 4304.6719 3291960
1385.6128 749.66382 4313.6958 3423546
1416.212 751.55981 4324.6055 3160374
1448.811 754.42584 4341.0972 3226167
1494.4324 763.84235 4395.2812 3226167
1511.766 758.72107 4365.8125 3028788
1537.8693 758.10492 4362.2671 3028788
1581.0437 765.77869 4406.4233 3291960
1606.0105 764.52161 4399.1899 3423546
1616.8999 756.71857 4354.29 3357753
1638.6729 754.18353 4339.7031 3555132
1665.8625 754.18353 4339.7031 3555132
1704.3394 759.21161 4368.6353 3423546
1737.4044 761.70801 4383 3423546
1777.2388 767.0484 4413.7295 3226167
1812.1305 770.12457 4431.4302 3226167
1843.7858 771.75317 4440.8018 3226167
1874.2062 772.82422 4446.9648 3357753
1909.4988 775.84351 4464.3379 3423546
1937.4692 775.84351 4464.3379 3291960
1978.0273 780.81232 4492.9297 3357753
2022.4847 787.15948 4529.4521 3423546
2070.3303 794.63129 4572.4463 3357753
2097.6504 794.1286 4569.5537 3357753
2117.5981 790.88611 4550.896 3357753
2118.5176 780.71735 4492.3833 3357753
2148.0894 781.23584 4495.3667 3291960
2185.8611 784.68451 4515.2109 3291960
2228.7383 789.85449 4544.96 3160374
2260.8049 791.11102 4552.1904 3028788
2289.3259 791.11102 4552.1904 3160374
2320.8635 792.14075 4558.1152 3291190
2349.4214 792.14075 4558.1152 3356983
2397.6208 798.68353 4595.7637 3356214
2360.7949 777.08398 4471.4761 3422263
2362.9602 768.67499 4423.0894 3619642
2376.1318 763.99982 4396.1875 3685435
2426.3342 771.2019 4437.6294 3750714
2454.1375 771.2019 4437.6294 3684664
2449.0046 760.9679 4378.7412 3684921
2459.4795 755.75653 4348.7544 3487542
2435.9624 740.32874 4259.98 3092784
2438.0879 732.94403 4217.4873 3158834
2449.8867 728.59467 4192.46 3290163
2464.7993 725.25366 4173.2354 3355956
2489.0156 724.69153 4170.001 3487542
2525.209 727.59222 4186.6919 3750714
2552.3188 727.84277 4188.1338 3422263
2596.2522 732.83716 4216.8721 3356470
2645.4055 739.18939 4253.4238 3553849
2673.0251 739.45782 4254.9688 3882814
2739.23 750.28973 4317.2974 3751741
2771.885 751.81024 4326.0464 3685948
2809.074 754.51904 4341.6333 3685948
2862.363 761.45892 4381.5669 3620155
2906.1538 765.76416 4406.3398 3356983
2952.5591 770.67084 4434.5737 3291190
2984.9941 771.87347 4441.4941 3356983
3030.3252 776.35791 4467.2983 3356983
3043.4343 772.58063 4445.563 3422776
3068.4253 771.86066 4441.4204 3422776
3089.7397 770.23718 4432.0786 3685948
3093.7368 764.36407 4398.2837 3949120
3127.3269 765.84161 4406.7856 3883327
3153.8333 765.57379 4405.2446 3488569
3159.2297 760.23071 4374.4995 3620155
