# .PCD v0.7 - Point Cloud Data file format
VERSION 0.7
FIELDS x y z rgb
SIZE 4 4 4 4
TYPE F F F U
COUNT 1 1 1 1
WIDTH 1277
HEIGHT 1
VIEWPOINT 0 0 0 1 0 0 0
POINTS 1277
DATA ascii
-380.81326 643.26227 1915.4796 2568237
-362.91327 632.97375 1884.8428 2962995
-349.28043 629.68591 1875.0525 3291960
-334.9241 624.81946 1860.5615 3226167
-320.12012 618.73694 1842.4491 2963252
-308.5766 618.73694 1842.4491 4015683
-294.08951 612.60535 1824.1907 4278855
-277.987 602.47668 1794.03 3884097
-269.71121 609.17206 1813.9672 3686975
-260.99646 615.42145 1832.5763 3752511
-251.57542 620.50391 1847.7107 2634030
-237.50577 614.05792 1828.5162 2436651
-226.554 615.42822 1832.5967 2567467
-213.05316 609.65082 1815.3928 3093555
-205.81802 622.16205 1852.6483 3488313
-194.49466 623.07196 1855.3579 3751741
-182.49324 621.78741 1851.5326 3685691
-169.39729 616.34601 1835.3295 3422776
-158.86595 620.1228 1846.5759 3225397
-147.84749 622.44214 1853.4824 3159604
-136.34373 622.93964 1854.9639 3159604
-124.72182 622.93964 1854.9639 3356983
-113.94039 627.56903 1868.749 3751741
-102.2321 627.56903 1868.749 3817534
-90.397194 626.69135 1866.1354 3225397
-79.069275 629.5896 1874.7657 3291190
-67.657913 632.71899 1884.0842 3225397
-55.859718 632.78894 1884.2926 3159604
-44.088066 633.27771 1885.7479 3620155
-32.396675 635.69916 1892.9584 3422776
-20.771719 642.97394 1914.621 3356983
-8.8816977 650.716 1937.675 4541257
3.25999 651.02594 1938.598 4080706
15.21204 642.83344 1914.2028 4080706
26.990999 637.77411 1899.1372 3488569
38.788181 636.1095 1894.1805 3685948
51.160446 642.44647 1913.0504 3620155
62.996536 640.92279 1908.5133 3685948
74.953964 640.92279 1908.5133 3751741
86.691154 639.29871 1903.6771 3751997
99.048462 642.08734 1911.981 3554362
109.94231 635.81091 1893.2913 3028018
122.33372 638.5741 1901.5194 3356726
132.76337 631.51532 1880.5 3751485
144.18893 629.9585 1875.8641 2961712
155.99939 630.19104 1876.5568 2501161
167.98004 631.0304 1879.0562 3356213
179.94739 631.7132 1881.0892 3290677
191.74898 631.76581 1881.246 3224627
203.81258 632.62567 1883.8064 3158835
216.49336 635.20221 1891.4788 3224884
227.79863 633.68494 1886.9606 3224884
238.92378 631.841 1881.47 2895919
251.16794 632.9906 1884.8932 3488056
261.93369 630.47845 1877.4126 3422006
271.20831 624.74731 1860.3466 2895918
282.02631 622.89722 1854.8375 2961712
291.51624 618.37646 1841.3756 2830126
304.49509 621.31897 1850.1377 3159091
315.98804 621.12488 1849.5598 3093298
326.54861 619.17664 1843.7584 2830126
338.99225 620.81 1848.6222 3356470
349.06055 618.12915 1840.6393 3817021
359.76828 616.71588 1836.4309 3751228
371.40909 616.94019 1837.0988 3553849
382.87369 616.86707 1836.881 3619642
394.27454 616.69843 1836.379 3356470
407.32889 619.05237 1843.3884 3290677
420.7536 621.82385 1851.6412 3422263
433.59677 623.61017 1856.9606 3093555
445.2312 623.61017 1856.9606 3225397
450.28824 614.63226 1830.2263 3159604
468.85074 624.07697 1858.3505 2699053
482.80338 627.07666 1867.2827 3226166
493.77194 626.15021 1864.524 3555388
502.7908 622.85138 1854.7009 3489339
513.05029 621.20374 1849.7947 3884097
529.2113 626.61664 1865.913 4015683
539.7995 625.3396 1862.1102 4015683
552.33118 626.32043 1865.031 3884354
564.01617 626.32043 1865.031 3620926
572.83722 623.20465 1855.7529 3358012
588.49475 627.5025 1868.5509 4213064
599.71411 626.99268 1867.0326 4081734
608.59882 624.10815 1858.4432 4015939
621.13635 625.00751 1861.1213 4410441
632.79681 625.00751 1861.1213 3621182
638.4444 619.17603 1843.7566 2831666
651.73462 620.83209 1848.688 2963252
665.99158 623.33514 1856.1415 3028018
679.164 624.7547 1860.3685 3554362
691.20343 625.10162 1861.4016 3422776
698.58948 621.29852 1850.0769 3488569
714.53949 625.11169 1861.4316 3422776
726.50732 625.37457 1862.2145 3554362
736.3877 623.86072 1857.7064 3817021
751.53711 626.78833 1866.4242 3619385
768.81049 631.37048 1880.0688 2829869
780.66425 631.43085 1880.2484 3158834
794.59314 633.14282 1885.3463 3225397
805.57007 632.48694 1883.3933 3225397
816.57843 631.87433 1881.5691 3028018
828.48572 631.9649 1881.8387 3159860
846.98895 637.01361 1896.8727 2962225
872.48584 647.10968 1926.9363 2962225
890.27356 651.29047 1939.3857 3488569
899.4295 649.12903 1932.9495 2962225
899.6214 640.64148 1907.6755 3423032
911.57355 640.64148 1907.6755 3356983
926.10895 642.43347 1913.0116 2830383
931.80823 638.12836 1900.192 2830382
944.21887 638.47003 1901.2095 2698796
956.7196 638.8634 1902.3809 2567210
968.87433 639.0188 1902.8438 2961968
993.19263 647.09552 1926.8942 2501931
994.93744 640.44745 1907.0978 2435881
1006.1364 639.97064 1905.678 2567723
1022.9019 643.00421 1914.7112 2304296
1027.7443 638.55933 1901.4755 3291190
1032.5513 634.19464 1888.4785 3620154
1039.7377 631.37372 1880.0784 3554362
1048.111 629.32855 1873.9884 3620155
1057.1927 627.74951 1869.2864 3554362
1070.6138 628.75336 1872.2756 3751741
1079.6561 627.19189 1867.626 3685948
1101.629 633.09485 1885.2036 2896432
1119.0573 636.28857 1894.7136 2896432
1138.9688 640.81244 1908.1846 3028018
1142.4325 636.08441 1894.1057 2896689
1151.6139 634.60443 1889.6986 2896432
1160.4503 632.96631 1884.8208 2896432
1172.3768 633.02979 1885.0098 2962225
1182.9347 632.36041 1883.0165 3093811
1194.4485 632.21008 1882.569 3159604
1208.9019 633.60345 1886.718 3028275
1220.4698 633.47223 1886.3273 3093811
1225.8875 630.18176 1876.5291 2962225
1232.1296 627.37372 1868.1675 2961969
1239.8325 625.35529 1862.157 3225397
1244.0797 621.64777 1851.1168 3356983
1253.2915 620.46643 1847.5992 3290934
1267.6149 621.81427 1851.6127 3290677
1277.4796 620.97034 1849.0996 3290677
1283.493 618.28632 1841.1073 3290677
1299.3647 620.35669 1847.2725 3093298
1308.7949 619.34241 1844.252 3356470
1316.5039 617.53839 1838.8802 3290677
1331.8883 619.33484 1844.2295 3290677
1351.6403 623.11389 1855.4825 3290677
1361.0311 622.09259 1852.4414 2895919
1375.5175 623.39795 1856.3285 2830126
1394.4315 626.67126 1866.0756 2830126
1414.0823 630.21844 1876.6382 2895919
1426.0035 630.29071 1876.8535 3422263
1457.8141 639.08093 1903.0287 3619642
1475.1575 641.43787 1910.047 3817021
1493.6631 644.25812 1918.4451 3882814
1507.6865 645.11554 1920.9982 3488056
1536.4968 652.23627 1942.202 2896176
1548.5222 652.17596 1942.0226 2764333
1560.0593 651.91266 1941.2383 2501161
1568.8311 650.50671 1937.0518 2303782
1577.6041 649.12286 1932.931 2369575
1558.7473 636.47809 1895.2781 2501161
1569.7263 636.11523 1894.1974 2764333
1587.7067 638.57373 1901.5182 2764333
1586.5784 633.36737 1886.015 2566954
1601.3832 634.55151 1889.5411 2435368
1617.9816 636.42377 1895.1162 2566954
1629.958 636.46393 1895.2358 2566954
1645.71 637.96722 1899.7122 2369575
1655.4475 637.13403 1897.2312 2698540
1657.5941 633.41205 1886.1479 2632747
1667.9128 632.84351 1884.455 2698540
1680.8701 633.27698 1885.7457 2961712
1698.7576 635.54895 1892.5111 2961712
1709.7191 635.21613 1891.5201 3159091
1732.7432 639.33868 1903.7963 3224884
1749.4006 641.0719 1908.9572 3290677
1762.6603 641.5448 1910.3654 3159091
1768.1116 639.1886 1903.3492 3159091
1779.993 639.17291 1903.3026 3159091
1791.9178 639.17291 1903.3026 2895919
1801.3352 638.28448 1900.657 2830126
1819.5161 640.49255 1907.2321 2764333
1829.1857 639.69531 1904.858 2895919
1848.2001 642.15515 1912.183 3159091
1856.8901 641.01923 1908.8005 3224884
1862.4012 638.8075 1902.2145 3159091
1874.319 638.8075 1902.2145 3093298
1890.7578 640.33856 1906.7734 3553852
1897.6484 638.63708 1901.7069 3488058
1905.5731 637.30261 1897.7332 3817023
1921.4939 638.64227 1901.7224 3882816
1927.7407 636.77008 1896.1475 3685437
1925.4352 632.11298 1882.2798 3488058
nan nan nan 16777215
nan nan nan 16777215
nan nan nan 16777215
nan nan nan 16777215
nan nan nan 16777215
nan nan nan 16777215
nan nan nan 16777215
nan nan nan 16777215
nan nan nan 16777215
nan nan nan 16777215
nan nan nan 16777215
nan nan nan 16777215
-1597.3943 606.75525 1773.8517 3422776
-1592.2972 609.05664 1780.5798 3554362
-1580.9742 608.99225 1780.3916 3422776
-1566.5605 607.72797 1776.6954 3883327
-1562.7983 610.6073 1785.1132 3356983
-1565.8077 616.19293 1801.4427 3028018
-1537.7448 609.54297 1782.0016 3093811
-1526.0276 609.32245 1781.3568 3028018
-1519.2811 611.09796 1786.5476 2962225
-1508.0878 611.09796 1786.5476 2962225
-1491.7723 609.0069 1780.4343 3225397
-1466.1976 603.07581 1763.0947 3817534
-1459.9486 605.06396 1768.9072 3883327
-1450.7347 605.84442 1771.1888 3817534
-1441.0336 606.43188 1772.9062 3620155
-1432.4626 607.50769 1776.0515 3225397
-1409.9661 602.64838 1761.8452 3422776
-1398.1124 602.29718 1760.8185 3554362
-1381.3196 599.79578 1753.5056 3620155
-1374.3887 601.57086 1758.6949 3554362
-1357.9281 599.16968 1751.6753 3488569
-1353.4086 602.0412 1760.0701 3291190
-1337.3235 599.77289 1753.4387 3291190
-1319.2902 596.586 1744.1218 3225397
-1313.4137 598.88916 1750.8551 3159604
-1303.2972 599.28149 1752.0021 3356983
-1287.7847 597.17816 1745.8529 3422776
-1279.629 598.47955 1749.6576 3159604
-1270.6837 599.43097 1752.4391 3093811
-1255.6427 597.49835 1746.7891 3093811
-1250.9271 600.48828 1755.5302 3291190
-1239.9282 600.48828 1755.5302 3357240
-1248.4183 610.01123 1783.3705 2501931
-1237.245 610.01123 1783.3705 2831409
-1229.7477 611.84015 1788.7173 3488312
-1211.0525 608.0802 1777.7251 3356983
-1201.4465 608.85663 1779.995 3488569
-1192.3307 609.89825 1783.0403 3554362
-1180.406 609.50928 1781.903 3685948
-1167.761 608.73737 1779.6462 3751741
-1168.266 614.87152 1797.5796 3751742
-1157.0037 614.87152 1797.5796 3883327
-1138.4592 610.96356 1786.1545 3949119
-1137.2275 616.36121 1801.9347 3225653
-1129.4615 618.29016 1807.5741 3423032
-1113.2715 615.59998 1799.7092 4015426
-1100.8258 614.94647 1797.7987 3423546
-1095.5555 618.32916 1807.688 3686718
-1082.2217 617.1839 1804.3398 3752512
-1059.3499 610.51764 1784.8511 3884353
-1053.7858 613.79022 1794.4183 3686975
-1042.5431 613.79022 1794.4183 3621182
-1034.358 615.60992 1799.7384 3817277
-1021.3122 614.54486 1796.6248 3555389
-1014.3696 617.16956 1804.2979 3489339
-1003.8459 617.64996 1805.7024 3555132
-996.34564 620.02283 1812.6394 3686718
-992.95697 625.03851 1827.3029 3423546
-981.50842 625.03851 1827.3029 3226424
-977.83411 630.04779 1841.9474 3357753
-958.38013 624.88788 1826.8624 3489339
-942.36511 621.87268 1818.0475 3489339
-930.51221 621.5639 1817.1448 3094581
-919.4032 621.75049 1817.6903 3028788
-899.35657 615.8219 1800.358 3291960
-884.80658 613.5542 1793.7285 3423546
-873.43579 613.46118 1793.4564 3358266
-861.11566 612.69019 1791.2025 3489082
-848.74225 611.86041 1788.7767 3554362
-839.35211 613.18799 1792.6577 3488569
-828.27106 613.29938 1792.9834 3488569
-813.74841 610.83044 1785.7656 3291190
-803.94678 611.88593 1788.8512 3422776
-792.68378 611.84326 1788.7264 3554362
-785.74182 615.1825 1798.4886 3620155
-774.47375 615.1825 1798.4886 3028275
-754.53839 608.19617 1778.0642 2830639
-751.67346 614.96631 1797.8568 3028018
-739.0553 613.8418 1794.5691 3488569
-727.81183 613.8418 1794.5691 3159604
-719.69208 616.51776 1802.3923 3356983
-709.1416 617.16364 1804.2805 3422776
-703.48096 622.15491 1818.8726 3422776
-692.08521 622.15491 1818.8726 3291190
-679.57324 621.13477 1815.8903 2962482
-667.54474 620.5293 1814.12 2962482
-656.5719 620.90106 1815.2069 3356983
-649.53772 625.07629 1827.4133 3356983
-638.44293 625.42358 1828.4286 3291703
-632.86987 631.2915 1845.5836 3094580
-629.76727 639.88806 1870.7156 3686718
-614.36676 636.07812 1859.5771 3752511
-596.01654 629.00787 1838.9073 3686974
-582.32025 626.66724 1832.0646 4147269
-574.84192 631.05859 1844.9026 3555132
-560.40936 627.83917 1835.4906 3555132
-554.51416 634.24982 1854.2321 4015683
-536.07159 626.27612 1830.9209 3357753
-524.60028 626.27612 1830.9209 2897458
-512.87463 625.96564 1830.0132 3358010
-503.15341 628.14331 1836.3798 3489596
-487.51743 622.86609 1820.9518 3423546
-482.92889 631.7887 1847.037 2765616
-476.29065 638.40204 1866.3712 3884097
-466.68921 641.27661 1874.775 4213062
-453.51996 639.27045 1868.91 3423546
-440.89957 637.95221 1865.056 3489339
-429.77762 638.78931 1867.5034 3489595
-417.60635 638.07007 1865.4006 3555132
-406.19131 638.49799 1866.6517 3818304
-394.0079 637.70776 1864.3414 3818304
-383.63403 639.88745 1870.7139 3555132
-369.54449 635.81165 1858.7981 2962995
-348.74557 619.55127 1811.2609 2962995
-337.36435 619.49042 1811.083 3094581
-327.05862 621.46906 1816.8676 3028788
-314.35901 618.87744 1809.291 3225397
-300.13635 612.98151 1792.0541 3226167
-286.90082 608.72156 1779.6002 3292216
-274.349 605.62653 1770.5518 3423546
-262.95779 604.94061 1768.5466 3751741
-254.92752 612.26642 1789.9635 3751228
-244.93422 615.33484 1798.9341 2633003
-233.66335 615.33484 1798.9341 2106916
-221.13669 611.86017 1788.776 2896432
-208.87379 608.78339 1779.781 3422776
-198.65575 611.65558 1788.1779 3159604
-187.68274 612.40759 1790.3763 3488569
-175.98718 610.74774 1785.5238 3686205
-164.48387 609.57495 1782.0952 3159860
-153.88571 611.83014 1788.6881 3028274
-142.87914 612.68829 1791.1969 2961969
-131.59305 612.39191 1790.3304 2896689
-120.36703 612.34595 1790.196 2764845
-109.65975 615.20062 1798.5417 2633517
-98.419548 615.37708 1799.0576 3028018
-88.299744 623.51062 1822.8361 3159860
-76.74485 622.42169 1819.6526 3028018
-65.322433 622.21484 1819.0477 2764846
-54.523624 629.11572 1839.2227 2962226
-42.892838 627.54321 1834.6254 3291190
-31.615891 631.89117 1847.3367 3620155
-20.280746 639.42639 1869.3658 3554362
-8.546792 637.7998 1864.6106 3422520
3.1354733 637.77997 1864.5525 3554362
14.785838 636.41833 1860.5718 3883584
26.327925 633.65125 1852.4822 3817278
37.934303 633.65125 1852.4822 3817278
49.583763 634.20233 1854.0933 3685692
61.764481 640.04944 1871.1875 3817277
73.966553 644.21698 1883.3712 4014657
85.414322 641.57208 1875.6388 3751485
97.243286 642.0838 1877.1348 3948864
108.04404 636.42847 1860.6014 3093555
120.02898 638.17084 1865.6953 3356726
130.96382 634.51611 1855.0106 3356983
141.66951 630.4375 1843.0869 3291190
153.21703 630.4375 1843.0869 3291190
164.73694 630.33197 1842.7783 3422776
176.17007 629.92987 1841.6029 3225397
187.20528 628.24188 1836.6678 2962225
199.21564 629.83228 1841.3175 3093811
211.28682 631.43042 1845.9896 3291190
222.88464 631.52142 1846.2557 3291190
234.2981 631.10687 1845.0438 3554362
246.65985 633.16559 1851.0623 3685948
256.09995 627.87628 1835.5991 3356983
267.12143 626.7522 1832.3127 3225397
276.9071 622.94049 1821.1693 2896175
282.69537 610.79376 1785.6582 3093298
295.09378 613.31006 1793.0146 3882814
305.4234 611.49976 1787.7222 3685435
318.04901 614.25183 1795.7679 3159091
329.30005 614.25183 1795.7679 3422263
340.19223 613.60455 1793.8756 3619642
352.3576 615.22168 1798.6034 3619642
363.62643 615.22168 1798.6034 3488056
374.84869 615.14532 1798.38 3488055
390.39795 621.96704 1818.3234 3356470
398.8392 617.3988 1804.968 3422263
410.8627 618.47473 1808.1135 3159091
422.18784 618.46991 1808.0996 3423033
433.42514 618.34015 1807.7202 3817534
444.00598 617.3042 1804.6917 3685948
452.78613 613.87848 1794.6764 3817534
465.59253 615.94513 1800.7183 3686719
479.89868 619.85114 1812.1375 3884097
490.43903 618.82495 1809.1376 3884097
505.24118 623.10114 1821.6389 3818304
518.38843 625.1925 1827.7532 3884097
531.89514 627.61768 1834.843 3884097
539.6441 623.29004 1822.1912 3752511
545.00653 616.44232 1802.1719 3357753
559.26172 619.72681 1811.774 3292217
570.61304 619.72681 1811.774 3423289
585.98706 624.0105 1824.2975 3555132
595.09192 621.58209 1817.198 4014913
609.99744 625.19 1827.7457 4541000
610.76331 614.44019 1796.3185 3685948
626.97205 619.33398 1810.6257 3093811
639.00751 620.00476 1812.5867 3028018
651.00476 620.61572 1814.3728 3028018
662.5014 620.73663 1814.7263 3093811
673.83899 620.70691 1814.6395 3093811
686.07953 621.49615 1816.9468 3685948
697.86401 621.85333 1817.9908 3554362
711.47467 623.80005 1823.6821 3488569
722.89355 623.79395 1823.6644 3685435
732.13391 621.9375 1818.2369 3685435
747.8642 625.56641 1828.8462 3027505
764.96893 630.21826 1842.4459 2632747
773.9552 628.14282 1836.3783 2961712
791.00183 632.57416 1849.3333 3290677
800.12927 630.63586 1843.6667 3224884
811.41284 630.42798 1843.059 3093298
827.10461 633.60278 1852.3406 3093298
839.22516 633.99188 1853.4781 3422520
859.91241 640.75378 1873.2466 3290934
871.64893 640.75378 1873.2466 3028018
879.57532 637.99023 1865.1672 3027761
889.60706 636.80615 1861.7057 3224884
900.75323 636.44019 1860.6356 2895919
914.78802 638.09845 1865.4836 2303782
926.47589 638.09845 1865.4836 2764333
944.29449 642.26837 1877.6743 2895919
956.05872 642.26837 1877.6743 3422262
967.19812 641.85376 1876.4623 2830896
978.95477 641.85376 1876.4623 2304295
987.63605 639.86133 1870.6375 2830639
996.89496 638.2854 1866.0303 3291190
1007.933 637.87213 1864.8219 3159604
1019.6168 637.87213 1864.8219 2962225
1023.6114 633.11633 1850.9185 3093811
1027.6721 628.50757 1837.4446 3620155
1043.032 630.83466 1844.2479 3488312
1060.028 634.08942 1853.7633 3225397
1062.0704 628.42578 1837.2054 3225141
1070.2145 626.4552 1831.4445 2962225
1086.276 629.11163 1839.2107 3027504
1097.0911 628.70581 1838.0242 3159092
1109.4257 629.17017 1839.3817 3093811
1121.4534 629.45276 1840.2079 3093554
1133.312 629.6355 1840.7423 2699053
1141.3844 627.73242 1835.1786 2830382
1152.4592 627.50208 1834.5051 2765102
1164.1625 627.61499 1834.8352 2764846
1175.7445 627.66101 1834.9697 2961969
1187.3693 627.72876 1835.1678 2830639
1201.1222 628.90955 1838.6198 2699053
1199.8496 622.27521 1819.2242 2699053
1198.9409 615.95264 1800.7402 2764846
1205.7906 613.69666 1794.145 2896432
1225.7423 618.08917 1806.9865 2961968
1230.3545 614.73694 1797.1863 3028018
1239.0292 613.45703 1793.4443 3093555
1251.8401 614.22949 1795.7026 3027248
1263.0907 614.22949 1795.7026 3159091
1272.1694 613.18268 1792.6422 3422263
1286.5076 614.66693 1796.9816 3290677
1316.9878 623.771 1823.5972 3422263
1324.0579 621.72583 1817.6183 3290677
1329.5039 618.95953 1809.531 2830126
1344.4819 620.6402 1814.4443 2632747
1353.3083 619.47675 1811.0431 2632747
1365.0443 619.65344 1811.5596 2830126
1403.9502 632.05908 1847.8276 2830126
1415.6277 632.10388 1847.9585 3027505
1444.9548 639.96497 1870.9403 3093298
1455.8104 639.58423 1869.8274 3159091
1474.1785 642.48389 1878.3043 2830126
1498.8412 648.05908 1894.6035 2830126
1527.1533 655.11224 1915.2235 3290677
1525.4535 649.28143 1898.1771 3817021
1530.5118 646.39496 1889.7385 3159091
1524.3374 638.84528 1867.667 2698540
1529.0389 635.93396 1859.1558 2764333
1542.2648 636.58514 1861.0596 2632747
1540.6305 631.13898 1845.1376 2501161
1550.5674 630.47876 1843.2075 2501161
1563.9875 631.23431 1845.4163 2501161
1576.7639 631.72076 1846.8385 2501161
1586.5663 631.01733 1844.782 2566954
1600.1117 631.80206 1847.0762 2501161
1610.1703 631.20856 1845.3411 2764333
1623.5844 631.92957 1847.4489 2698540
1639.9417 633.77777 1852.8522 2632747
1653.2615 634.43445 1854.7719 2698540
1665.9371 634.83649 1855.9471 3093298
1681.3132 636.25482 1860.0938 3751228
1699.8015 638.8233 1867.6027 4080193
1719.1128 641.66382 1875.9069 4014400
1735.3066 643.31006 1880.7197 3751228
1743.0524 641.82336 1876.3734 3619642
1762.9307 644.79401 1885.0581 2961712
1774.741 644.79401 1885.0581 2633004
1771.7815 639.46338 1869.4739 2698540
1784.2595 639.73767 1870.2759 2896176
1796.2615 639.83887 1870.5717 3027505
1806.0724 639.16333 1868.5968 3027505
1815.4435 638.34192 1866.1953 3159091
1829.1459 639.04413 1868.2484 3159091
1840.8511 639.04413 1868.2484 3027504
1850.674 638.39484 1866.3501 3224886
1882.1309 645.16956 1886.156 3488058
1875.1971 638.78204 1867.4822 3817023
1871.5428 633.58398 1852.2855 3948609
1883.7318 633.7804 1852.8597 3817023
1887.1945 631.0564 1844.8962 3422265
nan nan nan 16777215
nan nan nan 16777215
nan nan nan 16777215
nan nan nan 16777215
nan nan nan 16777215
nan nan nan 16777215
nan nan nan 16777215
nan nan nan 16777215
nan nan nan 16777215
nan nan nan 16777215
nan nan nan 16777215
nan nan nan 16777215
nan nan nan 16777215
-1560.4502 607.75 1744.9669 3422776
-1549.5175 607.75 1744.9669 3488569
-1545.4774 610.47266 1752.7842 3883327
-1538.4823 612.05872 1757.338 3685948
-1527.472 612.05872 1757.338 3028018
-1508.9375 609.02179 1748.6185 2962225
-1499.0026 609.43683 1749.8101 2962225
-1490.814 610.57312 1753.0728 3028018
-1480.0444 610.66144 1753.3262 3028018
-1472.4507 612.07117 1757.3738 2962482
-1455.8171 609.71619 1750.6122 3422776
-1437.6288 606.66925 1741.8639 3685948
-1426.5811 606.61212 1741.6998 3620155
-1411.3116 604.74506 1736.3392 3488569
-1399.98 604.5495 1735.7776 3225397
-1386.9763 603.62311 1733.1179 3159604
-1386.9432 608.37164 1746.7518 3488569
-1375.9994 608.37164 1746.7518 3488569
-1357.3285 604.92792 1736.8643 3488569
-1344.3424 603.98267 1734.1501 3291190
-1318.6089 597.24817 1714.8141 3159604
-1307.3115 596.99536 1714.0883 3028018
-1295.2402 596.38202 1712.3274 3093811
-1288.5935 598.27704 1717.7683 2962482
-1276.9825 597.8797 1716.6274 3028532
-1267.6444 598.54889 1718.5487 3357496
-1255.0873 597.69647 1716.1013 3291704
-1244.1504 597.6076 1715.8462 2963252
-1235.4537 598.6026 1718.7031 3028788
-1225.9871 599.23877 1720.5297 3094581
-1210.9049 597.11719 1714.4381 3226167
-1205.2529 599.64935 1721.7084 2831409
-1205.3855 605.13123 1737.448 2700080
-1210.2729 613.12189 1760.3907 3620155
-1199.2437 613.12189 1760.3907 3949120
-1181.0294 609.41449 1749.7461 3554361
-1168.3159 608.50269 1747.1281 3422777
-1156.7163 608.15918 1746.1417 3488570
-1140.3588 605.28369 1737.8857 3685949
-1134.3888 607.91949 1745.4536 3817534
-1125.8036 609.19141 1749.1055 3685948
-1116.6556 610.18091 1751.9465 3554362
-1106.5983 610.68811 1753.4028 3488569
-1102.8619 614.72882 1765.0045 3817277
-1086.6504 611.82733 1756.6737 3883070
-1093.3971 621.92517 1785.6666 3093811
-1082.2095 621.92517 1785.6666 3291446
-1059.1133 615.01013 1765.8123 3883584
-1040.6881 610.69012 1753.4086 4081733
-1029.9835 610.85681 1753.8872 3620925
-1026.6776 615.4624 1767.1108 3028788
-1014.5638 614.83081 1765.2972 3423546
-1004.4408 615.40491 1766.9457 3818304
-994.02246 615.80896 1768.1057 3555132
-986.44574 618.00232 1774.4033 3555132
-979.4649 620.62329 1781.9286 3555389
-967.6236 620.18939 1780.6827 3292217
-956.0033 619.88867 1779.8193 3423290
-944.85223 619.88867 1779.8193 3554620
-931.02917 618.11481 1774.7262 3620156
-914.77094 614.66162 1764.8116 3751998
-917.39136 623.96448 1791.5217 2962739
-906.2951 624.05273 1791.7753 2896945
-884.43298 616.63715 1770.4836 3555132
-866.90454 612.09296 1757.4364 3423546
-854.66345 611.2132 1754.9105 3357497
-842.75861 610.55414 1753.0181 3554105
-834.87097 612.82635 1759.5422 3356983
-823.84698 612.82635 1759.5422 3291190
-804.62073 606.6424 1741.7869 3159604
-793.61237 606.5694 1741.5771 3093811
-787.76062 610.49054 1752.8356 3291190
-778.28406 611.67383 1756.2329 4080706
-765.90906 610.58032 1753.0933 3422776
-754.24146 610.0271 1751.505 3028018
-741.91528 608.91718 1748.318 3028018
-726.35211 605.07733 1737.2932 2830639
-723.76959 612.09851 1757.4524 2896432
-712.75861 612.09851 1757.4524 3225397
-698.64606 609.39319 1749.6848 3554362
-692.79712 613.92444 1762.6949 3620155
-682.37543 614.48468 1764.3035 3620155
-674.84454 617.70935 1773.5623 3488569
-667.33557 621.0625 1783.1897 3488569
-652.92969 618.00189 1774.4021 3356983
-644.94525 621.01837 1783.063 3225397
-635.28711 622.50128 1787.3207 3356983
-624.09857 622.51074 1787.3479 3356983
-611.49677 621.08527 1783.255 2896689
-619.37872 640.79883 1839.8566 3620925
-603.862 636.59314 1827.7811 3818304
-592.04181 636.19708 1826.6439 3225910
-573.08765 627.96832 1803.0176 3226167
-564.00964 630.44806 1810.1373 3555132
-549.47888 626.80945 1799.6903 3357753
-536.89258 625.28302 1795.3076 2963252
-527.41101 627.38446 1801.3412 3751741
-514.7677 625.73456 1796.604 3751997
-509.37122 633.01672 1817.5126 2962225
-495.20078 629.47882 1807.3546 2896176
-483.58237 629.0954 1806.2538 2962739
-472.99826 630.07135 1809.0558 3094324
-466.75317 637.01703 1828.9982 3358009
-457.14484 639.60663 1836.4335 3357753
-445.98132 640.09802 1837.8442 3357753
-436.14743 642.57428 1844.9541 3555132
-422.0145 638.6792 1833.7705 3686974
-403.53162 627.79858 1802.5303 3291960
-395.73221 633.39087 1818.5869 3423546
-386.56708 637.06409 1829.1333 3555132
-375.97794 638.54327 1833.3804 3291960
-355.7424 623.21643 1789.374 3291960
-342.08072 618.78339 1776.6459 3029045
-330.05679 617.11432 1771.8538 3160374
-317.90164 615.07513 1765.9989 3094838
-308.41534 618.23883 1775.0824 3225397
-293.70587 610.77728 1753.6589 3488569
-280.82458 606.68542 1741.9104 3949120
-267.47424 601.20831 1726.1844 3620155
-258.38272 605.24567 1737.7766 2764846
-248.91446 608.71692 1747.743 3620155
-237.80753 608.31586 1746.5916 3422776
-226.35829 606.95819 1742.6936 3028018
-214.51115 604.34204 1735.182 3291190
-204.44438 606.73016 1742.0387 3159604
-193.89748 607.88232 1745.3468 3290677
-183.8273 610.7561 1753.5979 3159091
-172.84045 610.7561 1753.5979 3093298
-159.17798 600.65942 1724.6086 3027505
-148.37277 600.65942 1724.6086 3158834
-138.20135 603.42682 1732.5542 2961456
-127.83178 605.72687 1739.1582 2895919
-116.86703 605.37268 1738.1411 2632490
-106.15389 606.38287 1741.0417 2632747
-95.421425 607.50153 1744.2535 2764333
-86.172142 619.57349 1778.9144 2961712
-74.277992 613.39075 1761.1625 2895919
-63.711437 617.92664 1774.1859 2764590
-52.908298 621.60016 1784.7335 2961712
-41.719467 621.49713 1784.4375 3093298
-30.639538 623.53473 1790.288 2895663
-19.469158 625.02203 1794.5582 3422263
-8.2602282 627.64606 1802.0923 3224884
3.0482633 631.33777 1812.692 3685179
14.422863 632.10571 1814.8969 3619642
25.420988 622.97064 1788.6683 3751228
36.422043 619.47534 1778.6327 3751228
47.483212 618.4007 1775.5471 3093298
58.519653 617.47308 1772.8838 3093298
69.627319 617.47308 1772.8838 3093298
81.238403 621.3233 1783.9385 3290677
93.877396 631.15295 1812.1614 3488056
104.42342 626.30841 1798.2517 3093298
115.15801 623.42828 1789.9823 3225141
126.50085 624.06 1791.796 3422776
136.72482 619.51886 1778.7577 2896432
149.39481 625.91028 1797.1085 3028018
161.55017 629.40076 1807.1304 3356983
172.50601 628.06683 1803.3004 3225397
185.10406 632.5083 1816.0529 3422776
196.5358 632.68091 1816.5483 3356983
208.32506 633.92249 1820.1132 3291190
219.9147 634.45929 1821.6544 3751741
233.3315 639.95447 1837.4321 3817534
241.31931 630.74298 1810.9841 3620155
251.08348 626.79321 1799.6437 3159604
261.75006 625.33887 1795.468 3093811
272.13498 623.35925 1789.7841 3159347
283.05621 622.71613 1787.9375 3159091
292.48804 618.97003 1777.1818 3685435
302.91797 617.53351 1773.0573 3685435
313.08496 615.68158 1767.74 3290677
324.49496 616.31702 1769.5645 3159091
335.38849 615.96191 1768.5449 3488056
345.47214 614.1897 1763.4565 3619642
357.2605 615.46411 1767.1157 3422263
368.28079 615.37848 1766.8698 3357239
379.13733 615.03229 1765.8757 3685948
390.86902 616.08502 1768.8983 3620155
405.02417 620.79431 1782.4197 3093811
414.01031 617.54071 1773.078 3225397
425.1192 617.54071 1773.078 3422776
438.47165 620.7168 1782.197 2896432
449.94403 621.13971 1783.4114 3422776
461.11768 621.13971 1783.4114 3423546
469.98953 618.11255 1774.7198 4015683
482.16754 619.47284 1778.6256 3884097
493.92773 620.24713 1780.8486 3752511
504.84854 619.95642 1780.0139 3620926
517.91736 622.25897 1786.625 4015427
527.61334 620.4975 1781.5675 3225910
538.77539 620.4975 1781.5675 2633774
544.49835 614.36047 1763.9469 2962225
552.92078 611.45288 1755.5986 3159604
565.78546 613.47546 1761.4058 3028018
578.42688 615.18317 1766.309 2633260
595.24854 621.18909 1783.5532 2501674
600.77881 615.40747 1766.953 2633260
611.38464 614.94012 1765.6112 2501674
626.78674 619.22772 1777.9216 2830639
635.95508 617.31464 1772.4288 3159861
650.84601 620.9267 1782.7997 2962225
665.63684 624.323 1792.5511 2699310
677.51129 624.91656 1794.2555 3159604
688.38226 624.58032 1793.29 3751741
705.45172 629.78857 1808.2439 3028018
716.78094 629.78857 1808.2439 2632746
724.32861 626.5177 1798.8527 2764333
736.32288 627.13422 1800.6228 2698540
748.28424 627.70459 1802.2604 2830126
759.44666 627.59778 1801.9536 3290677
771.55823 628.26691 1803.8749 3356470
784.45673 629.54822 1807.5538 3159091
796.30231 629.96014 1808.7366 3159091
816.24408 636.67566 1828.0179 3224884
822.77063 632.88605 1817.1373 3356470
837.03888 635.07361 1823.4183 3159091
843.62354 631.45123 1813.0177 3027505
844.46179 623.68097 1790.7078 2501161
856.40448 624.20819 1792.2216 2698540
878.32758 631.90204 1814.3121 2895919
897.88196 637.71698 1831.0079 2830126
912.64148 640.02258 1837.6278 3093554
924.38055 640.17896 1838.0767 3027505
932.05426 637.55054 1830.5302 3224628
941.85339 636.42242 1827.2909 3224884
953.52002 636.56799 1827.7089 3224884
969.70612 639.69153 1836.6771 3027505
971.53943 633.38458 1818.5687 2895919
977.89459 630.1377 1809.2463 2830126
989.52759 630.32727 1809.7906 3093042
998.86383 629.06604 1806.1693 3093298
1010.1522 629.04865 1806.1194 3356470
1021.4681 629.04865 1806.1194 3751228
1030.4724 627.64069 1802.077 3422263
1038.0906 625.42822 1795.7245 3224884
1049.4089 625.46844 1795.84 3093298
1056.9708 623.29272 1789.593 3093298
1067.5239 622.90802 1788.4885 3093298
1078.7849 622.94006 1788.5806 3027505
1090.2538 623.09027 1789.0118 2961712
1100.1422 622.34351 1786.8677 2566954
1112.2258 622.84094 1788.296 2895662
1123.4301 622.84094 1788.296 3027504
1132.9008 621.88928 1785.5636 2830126
1144.6379 622.18835 1786.4221 2961712
1159.3883 624.10352 1791.921 3027505
1170.9432 624.27838 1792.4231 2698540
1174.2054 620.07074 1780.3422 2501161
1181.1846 617.88666 1774.0713 2501418
1184.5784 613.88519 1762.5823 2567211
1189.1729 610.57416 1753.0757 2961712
1213.3182 617.2702 1772.3013 2764846
1225.7554 617.94226 1774.231 2567210
1227.9387 613.47949 1761.4174 2567467
1229.5425 608.80914 1748.0079 2895919
1235.5651 606.39001 1741.0621 3093298
1251.6654 608.91589 1748.3145 2830126
1263.9097 609.53815 1750.1012 2830126
1289.5621 616.56061 1770.2639 3356470
1311.8411 621.86395 1785.4908 3159091
1322.2443 621.49573 1784.4336 2895919
1314.8279 612.82812 1759.5472 2698540
1330.7922 615.11163 1766.1035 2764333
1342.821 615.55328 1767.3717 2830126
1364.3036 620.28601 1780.9602 2961712
1392.1981 627.8335 1802.6305 3224884
1418.6732 634.62451 1822.1288 3422263
1432.478 635.68451 1825.1724 3488056
1440.5909 634.2218 1820.9727 3422263
1485.5966 648.89661 1863.1067 3751228
1492.4769 646.81952 1857.1431 4343365
1501.5095 645.7002 1853.9292 4540744
1509.0896 643.97815 1848.985 4409158
1515.9519 641.97839 1843.2433 4145986
1520.1714 638.89819 1834.3993 2830126
1507.1428 628.66949 1805.0309 2369575
1508.2682 624.45325 1792.9252 2369575
1532.1494 629.65106 1807.8491 2632747
1544.5767 630.09998 1809.1381 2830126
1555.9114 630.09998 1809.1381 2895919
1573.124 632.46313 1815.9231 2961712
1592.4552 635.638 1825.0387 3027505
1590.0559 630.15552 1809.2975 2830383
1604.5375 631.39337 1812.8517 2961712
1620.7489 633.28973 1818.2965 2830126
1640.9569 636.71039 1828.1178 2764333
1659.6327 639.49323 1836.1079 3290677
1663.8667 636.71124 1828.1204 3685435
1672.5347 635.65259 1825.0806 4080193
1700.8489 642.02411 1843.3745 3553849
1705.4011 639.40076 1835.8423 3159091
1713.3408 638.07404 1832.0331 3224884
1728.3917 639.39569 1835.8278 3159348
1744.8027 641.19971 1841.0074 3224884
1748.9921 638.51813 1833.3082 3159091
1763.6592 639.67181 1836.6206 3093298
1768.5239 637.27832 1829.7484 3093298
1769.0306 633.35541 1818.485 2895919
1780.5487 633.39978 1818.6123 2895919
1789.4967 632.5351 1816.1298 3093298
1798.6136 631.74072 1813.849 3093299
1805.4341 630.15472 1809.2953 3093300
1816.2883 629.98767 1808.8157 3093300
1832.0679 631.52057 1813.2168 3290679
1844.7822 631.98438 1814.5485 3356472
1854.7538 631.50867 1813.1826 3488057
nan nan nan 16777215
nan nan nan 16777215
nan nan nan 16777215
nan nan nan 16777215
nan nan nan 16777215
nan nan nan 16777215
nan nan nan 16777215
nan nan nan 16777215
nan nan nan 16777215
nan nan nan 16777215
nan nan nan 16777215
nan nan nan 16777215
nan nan nan 16777215
-1536.793 609.24622 1718.5123 3291190
-1528.2202 610.12231 1720.9834 3159604
-1517.1047 609.9884 1720.6057 3028018
-1513.8727 613.04498 1729.2275 3159604
-1496.3263 610.30725 1721.5052 3159604
-1482.1781 608.92584 1717.6086 3093811
-1469.7395 608.23175 1715.6508 3159604
-1461.6298 609.33209 1718.7545 3093811
-1450.8613 609.33209 1718.7545 3028018
-1452.4066 614.54236 1733.4512 3028018
-1435.708 612.05353 1726.4309 3422776
-1419.6204 609.78943 1720.0446 3356983
-1407.0433 609.01013 1717.8464 3554362
-1391.5116 606.93011 1711.9792 3554106
-1378.1273 605.76172 1708.6835 3159604
-1370.5847 607.16284 1712.6356 3225397
-1367.7512 610.68866 1722.5809 3159604
-1353.1042 608.95398 1717.6879 2633260
-1342.3424 608.95398 1717.6879 2370088
-1320.1244 603.71484 1702.9099 2830639
-1309.9326 603.935 1703.5309 3159604
-1286.8076 598.14697 1687.2045 3093811
-1274.2906 597.23492 1684.6317 3028018
-1263.9868 597.35352 1684.9663 3028274
-1251.4937 596.4306 1682.3632 3160118
-1242.8475 597.34113 1684.9314 3160374
-1232.2909 597.34113 1684.9314 3226167
-1219.6246 596.30969 1682.022 3094581
-1203.0739 593.34442 1673.6578 3094581
-1200.0444 597.05426 1684.1222 3028788
-1196.4768 600.55975 1694.0103 3291960
-1189.4535 602.37793 1699.1388 3226167
-1185.026 605.55548 1708.1018 3094581
-1183.4382 610.25525 1721.3585 3751484
-1177.5558 612.80646 1728.5547 3817534
-1165.6874 612.26105 1727.0162 3422776
-1149.2858 609.30206 1718.6698 3356983
-1138.6354 609.36499 1718.8473 3422776
-1124.6697 607.63788 1713.9757 3488569
-1110.9729 606.02429 1709.4242 3356983
-1101.6705 606.79968 1711.6113 2896432
-1088.0181 605.17072 1707.0164 3554362
-1081.2937 607.40112 1713.3077 3817534
-1073.0375 608.80713 1717.2737 3817534
-1063.7626 609.65784 1719.6733 3488825
-1061.134 614.37402 1732.9764 3291703
-1057.0186 618.31799 1744.1013 3160631
-1039.9333 614.67822 1733.8344 3949890
-1024.3789 611.87598 1725.9301 4213062
-1014.7239 612.57526 1727.9026 3358009
-1008.5605 615.42035 1735.9277 3028530
-1008.3111 621.9754 1754.4178 3686461
-995.00153 620.53003 1750.3408 3489595
-985.81219 621.6507 1753.5018 2962225
-971.44702 619.49591 1747.4237 3356984
-960.29767 619.36615 1747.0577 3620411
-946.50244 617.5072 1741.8142 3554362
-931.27649 614.66058 1733.7847 3356726
-921.42761 615.33759 1735.6943 3291190
-912.90436 616.92657 1740.1765 3554362
-899.83508 615.44482 1735.9968 3423033
-886.72943 613.90161 1731.6438 3160375
-877.89771 615.31567 1735.6326 2897715
-867.0235 615.31567 1735.6326 3094581
-848.64929 609.92554 1720.4285 3094582
-835.01123 607.8443 1714.5579 3028531
-827.37561 610.13525 1721.02 3356726
-816.5929 610.13525 1721.02 3554362
-800.81628 606.354 1710.3541 3225397
-789.60828 605.97632 1709.2889 3159860
-778.73676 605.8501 1708.9327 3225397
-768.02979 605.8501 1708.9327 3291190
-758.60913 606.87915 1711.8354 3093811
-746.09686 605.42902 1707.745 3093811
-733.77655 604.09467 1703.9812 3093811
-732.97845 612.34686 1727.2584 3356983
-718.98932 609.66113 1719.6827 3093811
-708.25 609.69135 1719.7678 3028018
-695.98767 608.39111 1716.1002 3093811
-677.77502 601.76703 1697.4156 3751741
-674.89484 608.76178 1717.1459 3817534
-667.9776 612.28271 1727.0774 3817534
-661.41742 616.25232 1738.2745 3817534
-652.71259 618.32312 1744.1157 3488569
-638.44373 615.10382 1735.0349 3488569
-627.14343 614.68262 1733.8468 3620155
-617.56122 615.96021 1737.4506 3356983
-606.091 615.36664 1735.7762 3225397
-599.75781 620.06244 1749.0219 3225397
-594.742 626.32031 1766.6735 3422776
-590.67255 633.83099 1787.859 3291190
-573.70276 627.52155 1770.0619 3093811
-559.26221 623.78442 1759.5205 2896176
-553.10602 629.32306 1775.1433 3488569
-539.56628 626.51538 1767.2238 3422776
-528.46967 626.48651 1767.1423 3093811
-516.72272 625.66882 1764.8358 2962225
-507.80377 628.31464 1772.299 2896689
-498.60547 630.72534 1779.0988 2896432
-488.98206 632.69617 1784.658 3093811
-477.80063 632.69617 1784.658 3356983
-466.18079 632.10168 1782.9812 3291190
-456.03958 633.53223 1787.0164 3093298
-445.95209 635.11121 1791.4702 2305322
-438.22177 640.21552 1805.8679 3094581
-423.85132 635.63232 1792.9401 3357753
-411.28629 633.58087 1787.1534 3226167
-397.92828 630.15881 1777.5007 2831409
-385.53244 628.1073 1771.714 3094581
-374.4321 628.1073 1771.714 3226167
-358.63269 619.98376 1748.7998 2962995
-346.85727 618.52386 1744.682 3028788
-331.5159 610.4032 1721.7759 3028788
-319.72803 608.49933 1716.4054 3226167
-308.46893 607.50427 1713.5986 3094581
-298.00439 608.05859 1715.1624 3422519
-287.09872 607.72064 1714.2091 3949120
-274.48111 603.5918 1702.5627 3949120
-264.35004 604.81818 1706.0221 3488569
-256.05771 610.5321 1722.1394 2304295
-246.17644 612.79352 1728.5182 3883327
-234.77127 611.29517 1724.2917 4672843
-223.81186 610.86877 1723.0891 3028018
-213.87492 613.33142 1730.0355 3291190
-200.29335 605.0473 1706.6683 3159604
-190.48283 607.86285 1714.6102 3159604
-179.67242 607.63342 1713.963 3225397
-166.42526 598.61011 1688.5107 3093555
-153.70146 590.37201 1665.2734 2830382
-146.10489 602.06213 1698.2479 3093811
-135.89442 603.97131 1703.6333 2699053
-126.00397 607.74957 1714.2908 2961712
-115.79655 610.56073 1722.2201 3290677
-104.7084 608.82855 1717.3342 2830383
-94.153656 610.15625 1721.0793 2566954
-83.37056 610.15625 1721.0793 2303782
-72.326797 607.96521 1714.8989 2303782
-62.270359 614.75671 1734.0559 2895663
-50.895996 608.65814 1716.8534 2632747
-40.610603 615.80365 1737.0089 2369575
-29.727707 615.80365 1737.0089 2435368
-18.965849 619.75903 1748.166 2764333
-8.0306463 621.12018 1752.0055 3093298
2.9269376 617.05688 1740.5439 3224627
13.916898 620.84485 1751.2289 3159348
24.899073 621.09888 1751.9453 3224884
35.873241 621.05884 1751.8324 3290677
46.489532 616.29333 1738.3903 2961712
57.242687 614.80688 1734.1974 3093298
67.490173 609.23004 1718.4667 2895919
78.256897 609.23004 1718.4667 2961712
90.162552 617.02429 1740.4519 3159091
101.92642 622.27094 1755.2515 3290677
112.83031 621.75684 1753.8011 3290677
123.32926 619.30054 1746.8727 3225140
134.63501 620.9657 1751.5697 2567467
145.54893 620.70905 1750.8457 2633260
159.13283 631.0766 1780.0897 3291446
169.48758 628.11896 1771.7471 3225397
180.72765 628.60425 1773.1158 3159861
191.83676 628.60425 1773.1158 3291446
203.86143 631.44006 1781.1149 2896432
211.75322 621.84467 1754.0491 2896432
223.51263 623.99365 1760.1107 2962225
234.54027 623.99365 1760.1107 3093811
245.41072 623.5943 1758.9841 3291190
259.57571 631.24091 1780.5531 3356983
270.73145 631.24091 1780.5531 3422520
279.39575 625.6618 1764.816 3290677
290.32339 625.38293 1764.0293 3159091
299.62231 621.74475 1753.7671 3093555
308.40964 617.33984 1741.3422 3093298
319.04773 616.81409 1739.859 3159091
329.59698 616.15698 1738.0056 3290677
340.96759 617.02826 1740.4633 3488056
351.87216 617.02826 1740.4633 3422263
363.21097 617.76691 1742.5468 3423033
374.03326 617.60956 1742.1029 3488569
383.73236 615.65906 1736.6011 3488569
397.12296 619.57544 1747.6482 3422776
406.95059 617.87201 1742.8433 3093811
413.35123 611.19049 1723.9965 3422776
423.92758 610.86615 1723.0817 3422776
441.4838 620.36603 1749.8781 3291190
443.44955 608.02881 1715.0784 3423546
457.66934 612.67993 1728.1978 3686718
469.27878 613.70221 1731.0814 3884097
483.0181 617.40076 1741.514 3949890
493.65158 617.05377 1740.5352 3555132
501.26215 613.02478 1729.1705 3291704
510.59198 611.22449 1724.0923 3422776
519.64758 609.17712 1718.3175 3356726
529.38617 607.99744 1714.9897 3028018
540.90057 608.86353 1717.4329 3290933
554.35315 611.83508 1725.8148 3422776
567.52466 614.38861 1733.0175 3159604
576.13165 611.99756 1726.2729 2896432
585.33209 610.31342 1721.5226 2370088
598.56055 612.81421 1728.5765 2501162
616.93018 620.39612 1749.963 3224884
627.89423 620.39612 1749.963 3027762
637.31573 618.89807 1745.7375 3093555
646.21204 616.94922 1740.2404 3225141
668.46759 627.60785 1770.3052 3093554
680.42511 628.40753 1772.561 3619642
695.57355 632.0813 1782.9237 3554106
705.05762 630.57306 1778.6692 2961455
714.27863 628.88 1773.8937 3027505
724.0744 627.73718 1770.67 2961712
735.16821 627.73718 1770.67 2895919
745.68951 627.25562 1769.3118 3093555
756.71594 627.20685 1769.1741 2961712
769.73743 628.78925 1773.6376 3027505
783.49261 630.9173 1779.6404 3093555
801.16956 636.09949 1794.2578 2895919
810.20624 634.37311 1789.3881 2896176
827.22424 638.85779 1802.0382 2961712
831.45404 633.47839 1786.8644 2633003
837.74408 629.79083 1776.4629 2040866
844.7038 626.69672 1767.7352 2303782
862.90845 631.91754 1782.4618 2435881
878.12738 634.84644 1790.7233 2567467
890.73431 635.83685 1793.5171 2699310
901.97125 635.83685 1793.5171 3423032
911.53632 634.67285 1790.2336 3751741
924.02838 635.55023 1792.7085 3686204
934.06384 634.73718 1790.4152 3422519
945.22052 634.69635 1790.2999 3159604
951.13586 631.17834 1780.3766 3027761
954.83435 626.28772 1766.5817 2764589
957.88025 621.08612 1751.9093 3093555
952.98615 610.91248 1723.2123 3751228
976.94958 619.25861 1746.7544 3159091
990.95728 621.17902 1752.1714 3093554
997.42926 618.3855 1744.2916 3422263
1004.358 615.93256 1737.3726 3619641
1021.9822 620.02106 1748.905 3290677
1034.2189 620.78888 1751.0709 3159091
1041.7896 618.76929 1745.3743 3159091
1052.7123 618.76184 1745.3533 3093555
1059.8955 616.57922 1739.1967 3224884
1070.5278 616.42712 1738.7675 2895919
1081.1631 616.2796 1738.3516 2830126
1092.9956 616.81079 1739.8497 2830126
1106.7211 618.3891 1744.3018 2830126
1117.6495 618.3891 1744.3018 2961712
1132.954 620.78674 1751.0648 2830126
1145.6617 621.72925 1753.7234 2764333
1156.1769 621.47534 1753.0072 2698540
1156.2002 615.63953 1736.5461 2369575
1155.0177 609.27655 1718.5979 2698540
1165.8394 609.30481 1718.6776 2961712
1177.2855 609.65601 1719.6682 2961712
1213.7225 622.82489 1756.814 2435624
1202.8245 611.68524 1725.3921 2304039
1201.3077 605.47241 1707.8674 2829869
1216.2195 607.57623 1713.8018 3619642
1225.3713 606.79108 1711.587 3751228
1227.6792 602.65985 1699.934 3817021
1235.797 601.42719 1696.457 3093298
1258.7595 607.37848 1713.2439 2764333
1274.097 609.58099 1719.4565 2961712
1285.6509 609.95142 1720.5016 2961712
1296.7965 610.12378 1720.9875 2501161
1320.0706 615.95239 1737.4285 2501161
1341.0114 620.60583 1750.5546 3027505
1355.7347 622.32977 1755.4174 3356470
1384.736 630.52728 1778.5402 3290677
1400.4044 632.57141 1784.306 3290677
1411.9584 632.73932 1784.7798 3290677
1427.0005 634.45544 1789.6205 3290677
1450.6968 639.96259 1805.1545 3948607
1471.699 644.2052 1817.1217 4803916
1483.0837 644.2052 1817.1217 4869709
1497.588 645.54987 1820.9147 4211779
1488.4709 636.76898 1796.1462 2895919
1491.9775 633.47974 1786.8683 2501161
1498.1002 631.34198 1780.8381 2435368
1503.9425 629.11859 1774.5667 2830126
1515.8007 629.42584 1775.4332 2764333
1529.916 630.65906 1778.9119 2764589
1541.267 630.74323 1779.1492 2830383
1553.4679 631.17139 1780.3571 2961712
1564.6224 631.17139 1780.3571 3027505
1574.6373 630.71503 1779.0697 2830126
1592.4268 633.35712 1786.5223 2698540
1602.9349 633.08661 1785.7593 2698540
1614.2338 633.12994 1785.8815 2764333
1625.4229 633.12994 1785.8815 2764333
1637.563 633.49786 1786.9193 3027505
1648.7587 633.49786 1786.9193 3159091
1659.4561 633.30768 1786.3829 3224884
1675.0616 634.98071 1791.1021 3422263
1682.1154 633.41113 1786.6748 3488056
1692.7667 633.20825 1786.1024 3422263
1703.9574 633.20825 1786.1024 3290677
1708.6715 630.8172 1779.358 3356470
1718.47 630.3222 1777.9618 3356470
1727.3879 629.51257 1775.678 3224884
1738.5132 629.51257 1775.678 3093298
1750.5229 629.83087 1776.5758 3224884
1761.6537 629.83087 1776.5758 3159092
1767.2954 627.88074 1771.075 3159093
1776.7014 627.28394 1769.3916 3093300
1786.6244 626.87592 1768.2408 3027507
1793.5696 625.43457 1764.175 3290679
1806.9098 626.22729 1766.411 3356472
nan nan nan 16777215
nan nan nan 16777215
nan nan nan 16777215
nan nan nan 16777215
nan nan nan 16777215
nan nan nan 16777215
nan nan nan 16777215
nan nan nan 16777215
nan nan nan 16777215
nan nan nan 16777215
nan nan nan 16777215
nan nan nan 16777215
nan nan nan 16777215
-1513.9796 610.75317 1693.0015 3488569
-1502.9454 610.57965 1692.5205 3620155
-1490.0718 609.65118 1689.9467 3159604
-1478.5765 609.27734 1688.9104 3028017
-1466.3208 608.58246 1686.9843 3028017
-1453.5729 607.67181 1684.4598 3028018
-1448.6329 610.03577 1691.0128 3027761
-1443.8916 612.51886 1697.8959 2896176
-1428.9414 610.6759 1692.7874 2896176
-1415.6029 609.49933 1689.5258 2961969
-1409.0873 611.26483 1694.4197 2961712
-1399.829 611.85828 1696.0648 2698540
-1391.1731 612.7262 1698.4706 3027249
-1376.0665 610.74438 1692.9771 3224884
-1358.156 607.47772 1683.9219 3159604
-1352.5555 609.70898 1690.1069 3225397
-1359.8545 617.83624 1712.6356 2370088
-1333.467 610.66589 1692.7595 1843744
-1322.4487 610.4754 1692.2316 2633260
-1307.7684 608.57776 1686.9712 3093811
-1297.3784 608.66193 1687.2045 3291190
-1267.678 599.61359 1662.1227 3225397
-1252.5155 597.34882 1655.8446 3094581
-1240.7106 596.66083 1653.9376 3226423
-1223.3881 593.28552 1644.5813 2962995
-1217.7063 595.54602 1650.8474 2962995
-1208.4869 596.10034 1652.3839 3489339
-1190.1936 592.14966 1641.4327 3818304
-1178.017 591.19995 1638.8 2765616
-1183.8894 599.37115 1661.4506 2436395
-1187.488 606.526 1681.2837 3291960
-1176.9542 606.526 1681.2837 3423546
-1161.2299 603.8269 1673.802 3292217
-1158.2526 607.7674 1684.7249 3685691
-1154.7308 611.49213 1695.0497 3620155
-1146.3315 612.67896 1698.3396 3620155
-1126.9056 607.93958 1685.2021 3554618
-1119.1047 609.44116 1689.3646 3225397
-1108.5204 609.44116 1689.3646 3291189
-1098.1708 609.57153 1689.7258 3225396
-1087.9927 609.80054 1690.3606 3554362
-1078.9325 610.66669 1692.7617 3422776
-1068.3268 610.66669 1692.7617 3554362
-1057.1256 610.32281 1691.8086 3685948
-1042.9581 608.24219 1686.041 3555132
-1036.8488 610.86646 1693.3154 3357753
-1035.225 616.2149 1708.1414 3423546
-1027.3391 617.90881 1712.8367 4410441
-1011.0536 614.53296 1703.4789 4409928
-1002.6384 615.91986 1707.3234 3554362
-993.19171 616.69611 1709.4751 3093811
-982.71881 616.84515 1709.8883 3093555
-976.3454 619.59906 1717.5221 2897715
-960.43073 616.29187 1708.3547 3159604
-953.07886 618.46674 1714.3834 2764846
-938.27148 615.7981 1706.9858 2830639
-929.43341 617.0307 1710.4026 3159604
-916.32159 615.42169 1705.9426 3291190
-903.65283 614.07587 1702.2119 3356983
-895.74255 615.97015 1707.4629 3225397
-884.44104 615.54993 1706.298 3225397
-870.93018 613.56305 1700.7903 3291190
-857.37225 611.49335 1695.0531 2698796
-847.97498 612.37634 1697.5009 2567210
-836.27704 611.59924 1695.3467 3028018
-814.26318 603.16071 1671.9552 2962225
-807.22363 605.73889 1679.1019 3159604
-796.94904 605.92554 1679.6193 3225397
-783.875 603.96027 1674.1715 3094067
-773.39099 603.96436 1674.1829 3093298
-763.79095 604.6684 1676.1344 3027762
-750.20459 602.19208 1669.2701 3093554
-741.06561 603.2663 1672.2478 3290934
-734.63306 606.60602 1681.5055 3159347
-722.43292 605.21118 1677.639 3225654
-709.34479 603.02026 1671.5659 3291190
-702.43341 606.09332 1680.0842 3620155
-694.29565 608.18549 1685.8839 3554362
-682.28271 606.89545 1682.3079 3356983
-667.62445 603.17487 1671.9945 3817534
-660.45343 606.20807 1680.4023 4080706
-650.55121 606.79199 1682.021 4080706
-644.284 610.84143 1693.2461 3620155
-637.34302 614.37701 1703.0466 3488569
-625.48737 613.21472 1699.8248 3554362
-616.90656 615.27838 1705.5453 3356726
-606.85339 615.92041 1707.325 3225397
-596.23285 615.99933 1707.5437 3159604
-586.65186 617.17474 1710.802 2962482
-579.53754 621.03717 1721.5087 3356983
-567.24707 619.39429 1716.9545 2962225
-557.34308 620.34393 1719.587 2567467
-547.87152 621.8219 1723.6838 2896432
-538.27338 623.21271 1727.5391 2633516
-530.76361 627.12817 1738.3928 2567467
-521.91754 629.5957 1745.2327 3028018
-510.89761 629.49036 1744.9407 2962225
-495.91592 624.39227 1730.8088 2764846
-484.48355 623.63501 1728.7097 2633260
-483.54877 636.66467 1764.8279 3554362
-472.49155 636.66467 1764.8279 3488569
-461.15903 636.28479 1763.7748 2699310
-449.8718 635.9502 1762.8474 2830639
-439.80798 637.37189 1766.7882 2897459
-428.45029 636.94348 1765.6006 3094581
-415.31976 633.78687 1756.8506 2699823
-404.07001 633.40674 1755.7968 2897202
-392.52634 632.53156 1753.3708 3094581
