# .PCD v0.7 - Point Cloud Data file format
VERSION 0.7
FIELDS x y z rgb
SIZE 4 4 4 4
TYPE F F F U
COUNT 1 1 1 1
WIDTH 1272
HEIGHT 1
VIEWPOINT 0 0 0 1 0 0 0
POINTS 1272
DATA ascii
-264.39731 644.24896 2252.8882 3950148
-250.69595 645.31384 2256.6121 4542542
-236.5576 645.31384 2256.6121 4673871
-222.74857 646.26941 2259.9536 4542542
-210.08907 650.9162 2276.2031 4411211
-193.94414 644.6546 2254.3066 4411212
-179.15402 642.2663 2245.9551 3686977
-165.52519 643.98901 2251.9792 3687487
-150.76192 641.20776 2242.2534 3753024
-137.73967 646.02063 2259.0837 3818817
-124.98656 653.34283 2284.6887 4213575
-110.42599 651.88879 2279.6042 4476747
-95.374016 646.67108 2261.3582 4081989
-81.039795 645.34821 2256.7322 3818817
-65.985596 636.52118 2225.8647 3752511
-52.371613 640.57886 2240.0542 3818304
-38.320946 640.31097 2239.1174 3884097
-24.152311 636.62421 2226.2251 3620925
-10.222138 637.73584 2230.1123 3555132
3.754591 638.48138 2232.7195 3555132
17.711857 637.35101 2228.7666 3620925
31.741373 638.67102 2233.3826 3620925
45.484573 635.18494 2221.1919 3884097
59.14946 632.49481 2211.7849 3291960
73.756912 638.99188 2234.5046 3094581
88.402306 643.69214 2250.9412 2962995
101.61451 638.09937 2231.3835 2568237
115.645 638.37634 2232.3521 2634030
130.45656 642.43994 2246.5623 2897202
146.35104 650.5257 2274.8374 2568237
159.60069 646.46344 2260.6321 2897202
173.47821 645.39923 2256.9106 3160374
185.93208 639.59814 2236.6248 3028788
200.50182 641.3786 2242.8508 3028788
215.1055 643.02734 2248.6162 3028788
229.23926 643.15491 2249.0625 3028788
243.21706 642.85559 2248.0156 2699053
259.45419 648.23376 2266.8228 2699053
272.13806 644.63678 2254.2444 2962225
285.52267 642.9729 2248.4258 3028018
300.07797 643.9776 2251.9392 3093811
314.18704 643.9776 2251.9392 3159604
328.80899 644.98352 2255.457 3159604
343.35556 645.76483 2258.1892 3225397
358.03052 646.71625 2261.5161 3356983
372.19962 646.71625 2261.5161 3225397
386.48846 646.91669 2262.217 3159604
400.66196 646.91669 2262.217 3159604
413.86554 645.40424 2256.928 3488569
427.73969 645.00275 2255.5242 3488569
444.64359 649.04956 2269.6755 3291190
456.8902 646.258 2259.9136 3159604
467.39447 641.24377 2242.3792 2896432
479.85989 639.13434 2235.0027 2764846
493.75549 638.9953 2234.5166 3028018
514.40411 647.36249 2263.7759 2962225
528.5874 647.36249 2263.7759 2962225
545.70087 650.85742 2275.9973 3291190
559.96069 650.85742 2275.9973 3159604
572.34424 648.73071 2268.5605 2764846
583.40289 645.2417 2256.3596 2501674
597.88007 645.60925 2257.645 2567467
613.64227 647.31537 2263.6113 2764846
627.82452 647.31537 2263.6113 2633260
641.18274 646.48462 2260.7061 2699309
654.74908 645.89502 2258.6443 3028018
668.27716 645.2934 2256.5405 3028018
686.05023 648.73077 2268.5608 3225397
700.26349 648.73077 2268.5608 3159604
712.72089 647.13654 2262.9858 3028018
725.7948 646.15332 2259.5476 3093811
741.25842 647.29456 2263.5383 2962225
754.11108 646.1557 2259.5559 2962225
772.91199 650.06165 2273.2146 3093811
784.57532 647.93176 2265.7666 3028275
798.94141 648.06995 2266.2498 2765102
812.56146 647.6087 2264.637 2830895
828.60468 649.0614 2269.717 3094581
840.74634 647.46057 2264.1189 3423546
858.28766 650.00201 2273.0061 3620925
872.11023 649.69031 2271.916 3489339
886.34448 649.69031 2271.916 3489339
904.74689 652.69727 2282.4312 3489339
917.0838 651.30298 2277.5554 3357496
933.63977 652.90179 2283.1465 3291446
950.20532 654.45905 2288.592 3028018
963.55792 653.78992 2286.2522 3093811
971.27521 649.37274 2270.8057 2896432
984.20227 648.51605 2267.8098 3093811
990.13556 643.14087 2249.0132 3619899
1008.1473 645.65198 2257.7944 3093813
1016.5898 642.04993 2245.1985 3225140
1043.9956 650.35944 2274.2561 3423289
1060.0448 651.46588 2278.1252 3554876
1070.911 649.3999 2270.9006 3358009
1084.7103 649.14343 2270.0037 3226167
1091.1184 644.52753 2253.8623 3226167
1104.3691 644.0199 2252.0872 3357753
1120.1841 645.00165 2255.5203 3291960
1134.0872 644.8717 2255.0659 3357753
1147.8203 644.6496 2254.2891 3291703
1156.9436 641.87531 2244.5876 3357496
1169.5043 641.05182 2241.708 3357496
1181.3112 639.83954 2237.4688 3620668
1184.1115 633.83459 2216.47 3094325
1210.1295 640.25299 2238.9146 3094581
1217.0718 636.5473 2225.9561 3028788
1242.0477 642.25061 2245.9001 3093554
1268.5952 648.6297 2268.2073 2896432
1262.8779 638.55328 2232.9707 3028018
1282.1615 641.20044 2242.2278 3751741
1302.8514 644.4859 2253.7168 3883327
1305.6198 638.9306 2234.2903 3488569
1313.7622 636.09521 2224.3752 3093811
1333.1261 638.69556 2233.4683 3093811
1355.942 642.87848 2248.0957 3291190
1381.4272 648.22797 2266.8025 3488569
1387.7738 644.57928 2254.0432 3422776
1397.9857 642.78131 2247.7559 3291190
1417.88 645.4267 2257.0066 3488569
1437.4821 647.888 2265.6138 3554362
1437.375 641.50513 2243.2932 3356983
1454.0747 642.67401 2247.3809 3225397
1474.4036 645.40924 2256.9456 3225141
1491.5515 646.71326 2261.5056 3356983
1506.6995 647.13367 2262.9758 3554106
1527.8693 650.10864 2273.3789 2962225
1552.9775 654.68884 2289.3958 2896689
1549.7101 647.33246 2263.6709 3159604
1563.1943 647.0434 2262.6602 3159604
1581.2726 648.64398 2268.2573 3093811
1602.7672 651.60504 2278.6118 3093811
1630.9131 657.19397 2298.1558 3488569
1630.2198 651.16577 2277.0757 3554362
1638.4698 648.78333 2268.7446 3356726
1656.6592 650.34375 2274.2012 3093811
1670.9077 650.34375 2274.2012 3356471
1681.0565 648.7616 2268.6685 3422264
1692.3656 647.6499 2264.781 3290934
1707.994 648.19592 2266.6904 2961713
1726.1788 649.69525 2271.9333 2896175
1752.0328 654.03284 2287.1016 3224884
1767.6716 654.51764 2288.7969 3422263
1771.1642 650.53345 2274.8645 3422007
1818.9196 662.74048 2317.5515 3159348
1806.1068 652.86029 2283.0015 2961712
1816.5006 651.45807 2278.0979 3159091
1832.3459 652.01758 2280.0544 3027505
1847.3859 652.284 2280.9861 3093298
1856.7097 650.5437 2274.9004 3027505
1875.921 652.26764 2280.929 2895919
1902.6313 656.55341 2295.9158 2961712
1912.1047 654.8714 2290.0339 3158834
1926.4377 654.86633 2290.0164 3290677
1940.1591 654.65503 2289.2773 3224884
1962.1974 657.23254 2298.2908 3224884
1963.663 652.93188 2283.2517 3224884
1984.6595 655.14075 2290.9758 3224884
1987.6953 651.43146 2278.0049 3422263
1994.123 648.87891 2269.0786 3488056
2010.6335 649.62 2271.6704 3159091
2043.0059 655.43958 2292.021 3027505
2065.3113 657.97076 2300.8723 3224884
2086.9651 660.2608 2308.8804 3422263
2101.4312 660.2608 2308.8804 3553849
2110.8718 658.69275 2303.397 3356470
2130.4587 660.29053 2308.9844 3225653
2148.8403 661.49567 2313.1987 3291190
2163.6589 661.59534 2313.5471 3422776
2181.2571 662.53784 2316.843 3356983
2214.3472 668.1424 2336.4417 3028275
2238.4614 670.98273 2346.374 3028018
2239.7827 666.99841 2332.4412 3093811
2246.3772 664.62585 2324.1445 2962482
2259.9854 664.34558 2323.1646 3159604
2270.3718 663.12793 2318.9065 3094067
2285.3896 663.26984 2319.4028 3159862
2293.8352 661.51471 2313.2651 3159863
2303.1206 660.02222 2308.0461 3093813
2307.5295 657.15967 2298.0359 3093813
2321.9275 657.15967 2298.0359 2764848
2331.7598 655.87543 2293.5452 2896434
2343.2061 655.05811 2290.687 2962227
nan nan nan 16777215
nan nan nan 16777215
nan nan nan 16777215
nan nan nan 16777215
nan nan nan 16777215
nan nan nan 16777215
nan nan nan 16777215
nan nan nan 16777215
nan nan nan 16777215
nan nan nan 16777215
-1994.3792 638.2467 2184.2957 3948864
-1966.5312 633.68304 2168.6772 3883327
-1962.7063 636.85071 2179.5181 3620155
-1965.1993 642.1272 2197.5759 3488825
-1955.5966 643.49792 2202.2671 3292216
-1949.771 646.13989 2211.3088 3489595
-1944.0321 648.84869 2220.5791 3686975
-1920.6954 645.68054 2209.7368 3489339
-1906.8508 645.68054 2209.7368 3357753
-1880.0588 641.26447 2194.6233 3555132
-1868.5072 642.01978 2197.2083 3752511
-1861.1239 644.22919 2204.7698 3686718
-1854.4962 646.73523 2213.3462 3752511
-1840.0782 646.54175 2212.6841 3818304
-1823.2595 645.49542 2209.103 3489339
-1813.6315 646.99817 2214.2461 3423546
-1793.549 644.76587 2206.6064 3423802
-1775.2163 643.13293 2201.0178 3489339
-1766.2947 644.91052 2207.1013 3423803
-1752.0419 644.75421 2206.5664 3358266
-1740.0471 645.43304 2208.8896 3424059
-1721.5826 643.70367 2202.9712 3424059
-1707.7804 643.70367 2202.9712 3424059
-1695.2098 644.17181 2204.5732 3555645
-1681.0665 644.04498 2204.1392 3555645
-1660.463 641.42053 2195.1575 3687488
-1645.3376 640.88605 2193.3284 3753280
-1629.969 640.24707 2191.1416 3621184
-1623.0909 642.96069 2200.4285 3555132
-1595.4137 637.41089 2181.4351 3489339
-1583.9835 638.31238 2184.5205 3357753
-1569.5199 637.99658 2183.4397 3423803
-1555.8398 637.99658 2183.4397 3423546
-1547.3538 640.14526 2190.7932 3292217
-1534.5653 640.53662 2192.1326 3226424
-1507.0752 634.7431 2172.3049 3291960
-1489.9045 633.2298 2167.126 3094837
-1473.8761 632.17865 2163.5286 3225654
-1461.5071 632.69214 2165.2859 3225397
-1445.0441 631.42627 2160.9539 3225397
-1435.1637 633.04016 2166.4771 3356727
-1420.609 632.60327 2164.9819 3488056
-1403.8203 631.15356 2160.0205 3290677
-1382.8007 627.75494 2148.3892 3290933
-1363.9019 625.26178 2139.8567 3224884
-1351.9598 625.93994 2142.1777 3093554
-1348.5199 630.60754 2158.1519 3093554
-1335.7715 630.97272 2159.4016 3028018
-1320.9994 630.3797 2157.3721 3290934
-1302.2776 627.87012 2148.7834 3225397
-1306.0486 636.26581 2177.5164 3291190
-1295.1172 637.60077 2182.085 3422776
-1274.637 634.21283 2170.4905 3422520
-1262.3883 634.89191 2172.8145 3488312
-1249.1388 635.0769 2173.4475 3620155
-1240.1578 637.46008 2181.6035 3620155
-1228.541 638.52643 2185.2529 3554362
-1216.2157 639.24438 2187.71 3291190
-1210.1898 643.32739 2201.6833 3422776
-1197.3138 643.82117 2203.3733 3751741
-1183.509 643.82117 2203.3733 3751485
-1164.495 640.95398 2193.5608 3489596
-1152.0278 641.66479 2195.9934 3620925
-1135.3207 640.00262 2190.3049 4015683
-1120.2084 639.20978 2187.5916 3818560
-1106.5024 639.20978 2187.5916 3686975
-1093.4797 639.60944 2188.9592 3818560
-1079.7144 639.57928 2188.8562 3949634
-1060.3419 636.18427 2177.2373 3752510
-1046.7008 636.18427 2177.2373 3488826
-1052.4413 648.11987 2218.085 4147012
-1037.2781 647.32971 2215.3806 4475721
-1008.1668 637.6955 2182.4092 3949120
-991.85693 636.00494 2176.6235 3817791
-979.23822 636.66718 2178.8899 3817534
-968.03015 638.2782 2184.4033 3685948
-966.05951 646.11359 2211.2188 3554362
-940.60858 638.24451 2184.2881 3093811
-920.2876 633.67542 2168.6511 3620155
-897.40082 627.17615 2146.4084 4146499
-893.41626 633.89056 2169.3875 3884097
-892.20367 642.80945 2199.9109 3555132
-879.66058 643.71692 2203.0166 3752511
-874.23816 649.94708 2224.3384 4015940
-860.30206 649.94708 2224.3384 3950147
-844.20435 648.28729 2218.6577 3818304
-835.18848 652.10107 2231.71 3883841
-821.20605 652.10107 2231.71 3949634
-809.24036 653.73022 2237.2854 3686718
-791.82465 650.9364 2227.7241 3423546
-772.37103 646.3371 2211.9836 3555132
-760.02277 647.62421 2216.3887 3291960
-743.14648 645.02905 2207.5071 3357496
-743.1106 657.22961 2249.2615 3620925
-729.01825 657.22961 2249.2615 4015683
-706.15527 649.16675 2221.6677 4015941
-698.04254 654.61218 2240.3037 3950147
-682.93579 653.58765 2236.7974 3818304
-659.14288 644.03314 2204.0986 3818305
-649.25702 647.94867 2217.499 3686976
-635.36371 647.94867 2217.499 3818562
-620.23535 646.66107 2213.0923 3555390
-603.24457 643.32831 2201.6865 3686977
-589.45032 643.32831 2201.6865 3752510
-575.28485 642.91351 2200.2668 3752511
-559.00848 640.06128 2190.5056 3752511
-547.56189 642.73468 2199.655 3818560
-533.78033 642.73468 2199.655 4015683
-518.9765 641.47107 2195.3306 3621182
-508.25977 645.328 2208.5303 3291960
-491.936 642.0824 2197.4226 3620925
-478.99014 643.18573 2201.1987 3686974
-465.19897 643.18573 2201.1987 3555132
-453.07007 645.55432 2209.3047 3489339
-439.1936 645.5036 2209.1311 3291960
-424.70688 644.5235 2205.7769 3291960
-412.49579 647.04706 2214.4133 3357753
-398.42908 646.73425 2213.3428 3357753
-385.83572 648.87665 2220.6748 3423546
-373.17432 651.06061 2228.1492 3489339
-359.25027 651.12579 2228.3723 3686718
-345.09262 650.75586 2227.1062 4344648
-327.62009 643.84027 2203.4387 4344648
-312.80609 641.77069 2196.3557 3818304
-300.72058 645.36603 2208.6604 3752511
-286.88266 645.36603 2208.6604 3884867
-272.38882 643.81586 2203.355 4081476
-258.9462 644.71729 2206.4402 4147782
-245.12218 644.71729 2206.4402 4279367
-231.08482 644.12274 2204.4053 4476747
-217.66573 645.28534 2208.3843 4279368
-203.82951 645.28534 2208.3843 4476747
-190.04381 645.45685 2208.9712 4476746
-175.66798 643.49371 2202.2527 3621694
-162.0851 644.34802 2205.1765 3753024
-147.57207 641.3194 2194.8115 3818817
-133.63055 640.40717 2191.6895 3884866
-120.15541 641.77704 2196.3777 4147782
-106.56343 642.79651 2199.8667 4345161
-93.718697 649.2959 2222.1096 3819074
-79.534958 647.16779 2214.8267 3621438
-65.398865 644.60986 2206.0725 3949890
-51.643391 645.43793 2208.9065 4015683
-37.480774 639.92102 2190.0256 3818560
-23.819429 641.5329 2195.542 3949890
-10.057571 641.14362 2194.2097 3423546
3.6862814 640.52655 2192.0981 3620925
17.335522 637.40375 2181.4106 3620925
31.121029 639.83575 2189.7339 3160118
45.003136 642.15802 2197.6814 3160631
58.657486 640.90363 2193.3884 2963252
72.738136 643.89917 2203.6401 3226424
86.544624 643.89917 2203.6401 3291960
99.45974 638.17969 2184.0662 3160374
113.0812 637.82776 2182.8618 3555132
125.94164 633.72241 2168.812 2897202
140.9222 640.0459 2190.4531 2831409
154.8976 641.08691 2194.0159 3094581
168.64378 641.08691 2194.0159 3028788
182.02475 639.80322 2189.6226 3094581
196.74341 643.07178 2200.8086 3028788
210.38608 642.62555 2199.2815 3029045
224.05826 642.31879 2198.2317 3094838
236.07143 637.56708 2181.9697 3093811
250.00925 638.2489 2184.3032 2830639
263.7923 638.48541 2185.1125 2830639
276.89957 637.14362 2180.5205 2962225
293.07657 642.65936 2199.3972 2896432
304.88382 638.52795 2185.2581 2962482
318.64716 638.6723 2185.7522 3028018
334.10883 642.06848 2197.375 3028018
347.67303 641.69373 2196.0925 3028275
362.69208 643.93054 2203.7476 3225397
375.3891 642.03186 2197.2495 3291190
387.05045 638.55884 2185.3638 3356983
400.40778 638.02557 2183.5388 3488569
414.46149 638.60052 2185.5066 3620155
429.28549 640.2876 2191.2803 3554362
442.65567 639.76898 2189.5054 3159604
454.32916 636.90295 2179.6968 2896432
466.98538 635.54169 2175.0381 3159604
483.69608 639.61908 2188.9922 3817534
499.61511 642.45355 2198.6929 3093811
515.03522 644.51166 2205.7363 3028018
529.87659 645.75684 2209.9978 3225397
550.75916 654.11346 2238.5969 3225397
568.23297 658.10718 2252.2649 2896432
570.25159 644.44141 2205.4961 2896432
584.28851 644.68286 2206.3223 2764846
598.58051 645.18805 2208.0513 2633260
612.90466 645.70428 2209.8179 2633260
626.74982 645.70428 2209.8179 2699053
639.2652 644.36383 2205.2305 2764846
653.75586 645.02905 2207.5071 2699053
667.30347 644.75555 2206.571 2830639
680.74561 644.39325 2205.3311 2962225
694.09326 643.9577 2203.8406 3028018
707.96783 644.01849 2204.0486 2962225
721.27216 643.56818 2202.5073 3028018
734.75409 643.29016 2201.5562 2962482
750.99164 645.39069 2208.7446 2962225
764.3233 644.96301 2207.281 2961969
778.13702 644.95007 2207.2368 2700080
794.18762 646.75928 2213.4285 3029044
805.30078 644.55444 2205.8828 3620925
819.04498 644.49438 2205.6772 3291960
837.07263 647.75098 2216.8225 3423546
839.42877 638.97211 2186.7783 3489339
854.81921 640.23761 2191.1091 3226424
870.40546 641.60736 2195.7969 3159860
889.73187 645.64868 2209.6277 3159604
918.86224 656.57153 2247.0093 3225397
933.37006 656.87384 2248.0439 3554362
938.27167 650.5072 2226.2551 3685948
945.08295 645.63165 2209.5693 3620155
959.17737 645.80048 2210.1472 3751741
965.77533 640.98907 2193.6809 3949119
983.93414 643.87799 2203.5679 2633262
997.10559 643.46857 2202.1665 1317400
1009.8046 642.76947 2199.7739 2172709
1030.5037 647.11292 2214.6389 3290933
1041.5804 645.37885 2208.7041 3357496
1052.5847 643.64594 2202.7734 3160374
1070.4448 646.09583 2211.158 3094581
1084.9052 646.45746 2212.3955 3357753
1098.913 646.54352 2212.6902 3357753
1115.6013 648.185 2218.3079 3160374
1128.9138 647.84882 2217.1572 3094581
1142.5667 647.71368 2216.6948 3094837
1149.1941 643.64703 2202.7773 2962995
1162.4067 643.32129 2201.6626 3291960
1165.8535 637.66193 2182.2942 3291960
1182.8162 639.44043 2188.3809 2568237
1193.4493 637.79565 2182.752 2765616
1212.9138 640.85425 2193.2195 3685948
1226.655 640.85425 2193.2195 3751741
1240.4675 640.89105 2193.3455 3620155
1255.3229 641.45996 2195.2925 3554362
1261.1353 637.44586 2181.5547 3422776
1274.6415 637.36487 2181.2776 3028275
1301.895 644.08685 2204.2825 2567467
1307.5546 640.09662 2190.6267 2764589
1321.5828 640.24353 2191.1294 3356727
1338.8336 641.93262 2196.9099 3488056
1355.8168 643.46027 2202.1382 3422263
1369.2621 643.29498 2201.5725 3488312
1382.2205 642.90649 2200.2429 3356726
1403.7944 646.49347 2212.5188 3225141
1408.4309 642.28632 2198.1206 3356470
1424.1937 643.18549 2201.1978 3356726
1437.985 643.18549 2201.1978 3290933
1456.1462 645.12158 2207.8237 3290933
1475.9242 647.73077 2216.7532 3488312
1498.7524 651.61743 2230.0547 3225141
1513.4779 651.94202 2231.1655 3093554
1527.4569 651.94202 2231.1655 3027762
1528.1527 646.32397 2211.9387 3093811
1541.6112 646.15631 2211.365 3225397
1557.9205 647.17596 2214.8545 3356983
1570.8728 646.79529 2213.5518 3356983
1586.2356 647.40515 2215.6389 3291190
1600.1173 647.40515 2215.6389 3225397
1611.4839 646.3963 2212.1863 3159347
1627.3846 647.20795 2214.9639 3290934
1645.913 649.04193 2221.2405 3356727
1651.6395 645.83929 2210.28 3554105
1663.4045 645.03156 2207.5156 3620156
1697.4949 652.82294 2234.1804 3751741
1719.0883 655.72021 2244.0957 3883583
1709.9359 646.93793 2214.04 3883327
1733.3485 650.51868 2226.2944 3751997
1768.1837 658.2948 2252.907 3356470
1764.5371 651.7345 2230.4553 3224884
1785.4679 654.28369 2239.1794 3159091
1800.2538 654.55884 2240.1211 3027505
1813.4973 654.27325 2239.1438 2961712
1820.4001 651.72198 2230.4126 2961712
1836.4143 652.44672 2232.8928 2830126
1862.652 656.76532 2247.6726 2830126
1869.9447 654.38922 2239.5408 3159091
1877.2416 652.05005 2231.5354 3553849
1889.3864 651.41687 2229.3684 3685435
1893.3832 648.00439 2217.6897 3488056
1928.5684 655.23804 2242.4456 2830126
1938.0498 653.69714 2237.1721 2764333
1937.8029 648.92065 2220.8254 3224884
1952.5189 649.18726 2221.7378 3290677
1969.5933 650.2287 2225.302 2895919
1986.7662 651.28778 2228.9265 2895919
2002.5433 651.87769 2230.9453 3159091
2027.3389 655.37476 2242.9136 3290677
2035.4994 653.48315 2236.4399 3093298
2058.1838 656.24841 2245.9036 3224884
2072.2954 656.26111 2245.947 3356470
2094.6321 658.86096 2254.8445 3356471
2113.4385 660.32288 2259.8477 3553849
2128.853 660.71259 2261.1814 3356727
2150.4753 663.01111 2269.0479 3159347
2170.2925 664.72656 2274.9187 3290678
2182.1438 663.99579 2272.4177 3290677
2191.7346 662.59106 2267.6101 3159091
2205.1096 662.34106 2266.7546 3027761
2228.8411 665.18506 2276.4878 3027762
2257.874 669.56512 2291.4778 3093556
2240.0647 660.08667 2259.0393 3093556
2248.4861 658.40808 2253.2947 3093557
2251.4583 655.16492 2242.1953 3093812
2265.7808 655.24432 2242.467 3028020
2277.3875 654.54199 2240.0637 2765105
2296.0461 655.86292 2244.5842 2830641
nan nan nan 16777215
nan nan nan 16777215
nan nan nan 16777215
nan nan nan 16777215
nan nan nan 16777215
nan nan nan 16777215
nan nan nan 16777215
nan nan nan 16777215
nan nan nan 16777215
nan nan nan 16777215
-1934.8403 632.39941 2119.0872 3752767
-1932.3334 635.94391 2130.9641 3883327
-1926.0055 638.27136 2138.7632 3554362
-1894.7711 632.31976 2118.8201 3291446
-1891.1322 635.55817 2129.6716 3357240
-1873.97 634.2655 2125.3401 3488569
-1877.2112 639.90961 2144.2527 3423289
-1873.0004 643.07642 2154.8643 3358010
-1856.2256 641.94415 2151.0703 3291960
-1836.9844 639.93616 2144.3418 3291960
-1823.5494 639.93616 2144.3418 3226167
-1813.0696 640.9809 2147.8425 3160374
-1806.3762 643.38989 2155.9148 3226167
-1784.5682 640.41125 2145.9336 3357753
-1779.3729 643.39417 2155.929 3226167
-1764.8098 643.00952 2154.6401 3160374
-1752.6698 643.50867 2156.3127 3226424
-1737.7413 642.98376 2154.554 3423546
-1726.2549 643.73425 2157.0688 3292473
-1712.7402 643.73425 2157.0688 3226681
-1698.1458 643.32532 2155.6982 3292473
-1684.186 643.15204 2155.1177 3160631
-1669.4502 642.67725 2153.5269 3094838
-1650.5492 640.57819 2146.4932 2897459
-1633.1433 639.02972 2141.3044 2765616
-1623.396 640.47705 2146.1543 2896945
-1599.0287 636.13239 2131.5959 3357239
-1577.4747 632.84326 2120.5745 3357240
-1564.1887 632.84326 2120.5745 3291447
-1545.6642 630.70575 2113.4119 2962739
-1531.3679 630.27148 2111.9568 3028018
-1515.8904 629.33923 2108.833 3093811
-1495.5763 626.36499 2098.8667 3093810
-1476.0208 623.65857 2089.7976 3093811
-1462.9275 623.65857 2089.7976 3093811
-1451.3455 624.30859 2091.9758 3093555
-1439.1782 624.71643 2093.3425 3028019
-1426.6461 624.97205 2094.199 3093811
-1409.812 623.33026 2088.6975 3159347
-1403.8004 626.48749 2099.2771 3093554
-1391.4253 626.83783 2100.4509 2962225
-1375.4508 625.55774 2096.1616 3093554
-1362.4554 625.62097 2096.3735 3159347
-1350.311 626.07996 2097.9116 2830639
-1330.4412 622.93091 2087.3594 3028018
-1316.6033 622.57159 2086.1553 3028018
-1304.3217 622.9483 2087.4177 3093811
-1305.3477 629.75281 2110.2188 3159604
-1294.9115 631.11011 2114.7668 3291190
-1281.5879 631.07373 2114.645 3883327
-1268.8937 631.34973 2115.5698 3949120
-1256.2013 631.63245 2116.5171 3685948
-1246.9824 633.6864 2123.3997 3488569
-1236.7474 635.26276 2128.6816 3554362
-1222.0999 634.58203 2126.4009 3620155
-1211.6667 636.09894 2131.4839 3554362
-1199.1108 636.52289 2132.9043 3554362
-1188.1575 637.81653 2137.2393 3488569
-1179.6593 640.47272 2146.1396 3422776
-1169.4122 642.22961 2152.0269 3554362
-1157.0275 642.83984 2154.0718 3554105
-1143.5262 642.83691 2154.0618 3488826
-1125.8536 640.46088 2146.1001 3883583
-1118.7805 644.13007 2158.395 4146755
-1107.1676 645.24316 2162.125 3949377
-1086.9669 641.31714 2148.9692 3817791
-1062.4208 634.69659 2126.7847 4015170
-1047.801 633.91321 2124.1597 4080962
-1041.9121 638.45972 2139.3945 3949120
-1025.6801 636.70428 2133.5122 3817534
-1012.313 636.70428 2133.5122 3685948
-1008.9016 643.0498 2154.7751 3817534
-984.06818 635.72845 2130.2422 3883327
-970.96362 635.88684 2130.7732 3949120
-956.11151 634.8894 2127.4309 3817534
-943.08209 635.09119 2128.1069 3685948
-931.33502 636.17468 2131.7375 3751741
-917.76965 636.0296 2131.2515 3817534
-895.66309 629.8736 2110.6235 3817791
-889.4295 634.8631 2127.3425 4081220
-869.26746 629.91113 2110.7493 3950147
-879.82446 647.41052 2169.3875 4081476
-862.86743 644.89545 2160.9597 4081476
-847.43109 643.4549 2156.1326 4015683
-834.88995 644.20166 2158.6348 3949890
-820.17706 643.26953 2155.5115 3357753
-808.13708 644.43774 2159.426 3423546
-791.57306 641.97668 2151.1792 3620925
-783.8811 646.75037 2167.1753 2897202
-765.63928 642.83466 2154.0542 3094581
-757.76788 647.64166 2170.1619 3291960
-744.09424 647.57471 2169.9375 3226167
-732.22168 649.10187 2175.0549 3752511
-717.42499 648.04572 2171.5159 3884354
-699.03735 643.64227 2156.7605 3818818
-684.50488 642.68481 2153.5522 4279113
-664.52747 636.47394 2132.7402 4410700
-657.93781 643.09375 2154.9224 4016199
-645.52283 644.17773 2158.5547 3621185
-636.685 648.95422 2174.5601 3752770
-623.06073 648.95422 2174.5601 3752771
-606.00574 645.30109 2162.3188 3621184
-591.53241 644.29279 2158.9402 3686977
-579.03064 645.43488 2162.7673 4015426
-565.53394 645.49622 2162.9729 4213062
-549.60266 642.71356 2153.6484 3884097
-537.37354 644.22913 2158.7268 3423546
-517.52771 636.45575 2132.6794 3949890
-503.33719 635.40979 2129.1746 3620925
-490.09732 635.53955 2129.6094 3489339
-476.45648 635.14203 2128.2773 3555132
-464.35416 636.8316 2133.939 3489339
-451.6337 637.7486 2137.0115 3357753
-439.90094 640.15881 2145.0879 3423546
-426.41055 640.0827 2144.8328 3423546
-413.76764 641.31506 2148.9624 3357753
-402.43491 644.72943 2160.4033 3357753
-386.00995 639.93927 2144.3523 3620925
-374.36472 643.01349 2154.6536 3752767
-362.92886 646.69073 2166.9756 3686718
-349.83371 647.58228 2169.9629 3884097
-334.95935 645.11926 2161.7097 4213062
-322.03546 646.36346 2165.8789 4147269
-306.93506 643.15643 2155.1326 3884354
-293.00012 642.20874 2151.9568 3949890
-279.45966 642.07593 2151.512 3949890
-265.1767 640.13739 2145.0161 3883841
-251.27646 638.96497 2141.0874 4081989
-237.16754 637.09973 2134.8374 4147782
-222.62323 633.77216 2123.687 3818817
-210.08801 636.10461 2131.5027 3753023
-196.79234 636.29486 2132.1404 3753024
-183.79977 637.56427 2136.3938 3950147
-170.18584 636.70837 2133.5259 3818560
-157.20793 638.289 2138.8223 3686718
-145.037 643.74597 2157.1079 3621182
-130.75363 639.98486 2144.5049 3818561
-117.70249 642.08417 2151.5396 4015940
-103.35975 636.76953 2133.7307 3686718
-90.60527 641.11414 2148.2891 3686718
-77.281685 642.24536 2152.0796 3884097
-64.965408 653.99506 2191.4512 4015170
-51.234982 653.99109 2191.438 3883327
-37.362988 651.51575 2183.1433 3422776
-23.208252 638.40381 2139.207 3619898
-9.8055296 638.40857 2139.2229 3028018
3.6119564 640.99792 2147.8997 3225397
17.047979 640.2005 2145.2275 3225141
30.420584 638.77448 2140.4492 2961968
44.270363 645.17523 2161.8972 3225397
57.300011 639.4248 2142.6282 3159604
70.724243 639.4248 2142.6282 3225397
84.75602 644.04138 2158.0979 3225654
98.069466 642.68024 2153.5369 3160374
110.59612 637.11584 2134.8911 3489339
123.50899 634.73694 2126.9199 3094581
137.80446 639.23492 2141.9919 2962995
151.17644 639.03088 2141.3083 3094581
164.54419 638.84375 2140.6812 3094581
177.95622 638.84375 2140.6812 3094581
191.34636 638.77063 2140.4363 3028788
204.70865 638.62024 2139.9324 3028788
217.96962 638.19171 2138.4963 2963252
232.08096 640.15839 2145.0864 3159861
244.36411 637.14301 2134.9822 2896432
258.11792 638.07623 2138.1094 2896432
272.02698 639.28204 2142.1499 3225397
283.01346 633.82928 2123.8784 2962225
298.63388 638.7782 2140.4617 2699053
313.3302 641.4101 2149.2808 2896688
325.40079 638.67145 2140.1038 3028018
338.49701 638.08295 2138.1318 3093554
350.94507 636.36389 2132.3716 3027505
363.01898 634.11749 2124.8442 3093298
380.14093 640.53589 2146.3513 3619898
389.97028 634.64752 2126.6201 3751484
400.20999 629.79401 2110.3567 3488312
413.71869 630.23065 2111.8198 3093811
430.22543 635.0658 2128.0217 3554619
444.4729 636.37549 2132.4104 3356983
455.19666 632.71082 2120.1306 3422776
469.70203 634.36133 2125.6614 3620155
486.96124 639.53754 2143.0061 3554362
499.75629 638.73035 2140.3013 3620155
511.56677 636.73987 2133.6316 3225397
530.69519 643.72748 2157.0459 3291190
549.0296 649.42865 2176.1499 3028018
559.42706 645.69275 2163.6313 2699053
571.52942 644.05481 2158.1428 2830896
582.44318 641.18408 2148.5234 3028274
596.98224 642.34393 2152.4099 2764846
609.47833 641.30286 2148.9214 2699053
622.94196 641.30286 2148.9214 2567467
636.03375 640.92804 2147.6655 2501674
649.13031 640.57361 2146.4778 2699053
656.42657 634.62585 2126.5476 2830639
669.97522 634.83917 2127.2625 3028018
685.86761 637.22174 2135.2461 3093811
699.24554 637.22174 2135.2461 3028018
713.02148 637.57758 2136.4385 3028275
724.93121 636.28229 2132.0981 3225397
745.50397 642.5 2152.9329 2896689
757.64215 641.35669 2149.1018 2896432
780.06506 648.80743 2174.0684 3292217
792.96918 648.22125 2172.104 3555132
799.57562 642.59363 2153.2466 3291960
811.54816 641.39374 2149.2258 3160374
816.58978 634.84467 2127.2808 3226167
834.00702 637.97272 2137.7625 3160117
848.30969 638.65692 2140.0552 3028532
863.59186 640.0459 2144.7095 3422520
881.17712 643.07306 2154.853 3225397
895.24927 643.4837 2156.2292 3028018
907.22974 642.40106 2152.6013 2896432
917.86389 640.41077 2145.9321 3356983
934.10333 642.33234 2152.3711 3554362
955.73322 647.85327 2170.8711 4343878
961.63202 642.70538 2153.6211 5001811
985.15491 649.3161 2175.7727 3159604
999.02466 649.4707 2176.2908 2238502
998.84784 640.61237 2146.6077 2830639
1015.0464 642.35229 2152.438 3423033
1030.868 643.81116 2157.3264 3225654
1045.0054 644.19397 2158.6091 3160374
1058.4857 644.16724 2158.5195 3226167
1072.0095 644.16724 2158.5195 3226167
1085.1809 643.95807 2157.8186 3160374
1099.1898 644.245 2158.78 3226167
1112.7152 644.245 2158.78 3291960
1125.9927 644.10309 2158.3047 3291960
1139.5151 644.10309 2158.3047 3291960
1151.4753 643.23047 2155.3806 3357753
1153.3739 636.82251 2133.9084 3094581
1172.2809 639.84485 2144.0359 2963252
1187.1484 640.61896 2146.6299 3422776
1215.0951 648.35461 2172.5508 3488569
1231.9807 650.08215 2178.3396 4080706
1223.7827 638.68085 2140.1355 3949120
1227.0264 633.43347 2122.552 3356983
1235.6222 631.0318 2114.5044 3159604
1260.3029 636.80847 2133.8613 2896432
1274.4343 637.18958 2135.1384 2765102
1287.8927 637.22968 2135.2727 3094068
1309.7312 641.37262 2149.1553 3356983
1328.1783 643.78754 2157.2473 3554362
1338.6437 642.32379 2152.3425 3488569
1353.0204 642.74744 2153.762 3488312
1366.4182 642.70215 2153.6104 3751741
1379.9114 642.70215 2153.6104 3751485
1393.6359 642.80902 2153.9683 3620155
1407.7831 643.10675 2154.9661 3620155
1421.2845 643.10675 2154.9661 3620155
1437.5251 644.33453 2159.0801 3093811
1452.6476 645.04279 2161.4534 3225654
1464.4161 644.26245 2158.8386 3356983
1480.4038 645.33563 2162.4348 3356983
1487.131 642.38922 2152.5615 3356983
1500.6981 642.42371 2152.6772 3356983
1516.9702 643.60529 2156.6365 3356983
1530.4822 643.60529 2156.6365 3422776
1548.392 645.43848 2162.7793 3291190
1560.5023 644.84338 2160.7852 3225397
1575.3723 645.38904 2162.6135 3225653
1596.8085 648.59247 2173.3479 3159604
1616.1885 650.91357 2181.1257 3094067
1616.1772 645.4516 2162.8232 3488312
1633.5199 646.95331 2167.8555 3290934
1648.0344 647.31946 2169.0823 3093554
1682.4108 655.4173 2196.217 3422519
1684.5714 650.93518 2181.198 3817021
1687.3171 646.74945 2167.1721 3817277
1709.7213 650.10553 2178.418 3487799
1723.3696 650.10553 2178.418 3488056
1739.6787 651.10126 2181.7544 3356470
1760.7378 653.8454 2190.9497 3159091
1773.5066 653.49237 2189.7668 3093298
1783.0564 651.96765 2184.6577 3027505
1790.2086 649.59625 2176.7114 3224884
1803.5223 649.47961 2176.3206 3356470
1812.5458 647.83124 2170.7971 3356470
1829.0807 648.87219 2174.2852 3290677
1844.1588 649.38464 2176.0024 3224884
1871.5143 654.18121 2192.075 3224884
1887.0798 654.81671 2194.2046 3093298
1890.7682 651.3515 2182.593 3093298
1901.4662 650.33344 2179.1816 3224884
1911.8312 649.2168 2175.4399 3224884
1929.5248 650.58704 2180.0315 3093298
1954.6628 654.43042 2192.9102 3159091
1961.2439 652.05054 2184.9355 3159091
1972.7821 651.34033 2182.5557 3224884
1991.9856 653.15326 2188.6306 2895919
2006.0989 653.28375 2189.0679 2632747
2005.5142 648.65869 2173.5698 2830126
2044.0829 656.67419 2200.4287 3422263
2062.3608 658.10754 2205.2317 3488056
2077.9058 658.6554 2207.0674 3356470
2097.8171 660.57098 2213.4863 3224884
2116.355 662.03174 2218.3811 3224884
2130.5579 662.12622 2218.6978 3093298
2140.7705 660.98743 2214.8818 3093298
2154.4653 660.93152 2214.6946 3027505
2173.51 662.50714 2219.9741 2895919
2181.3232 660.66089 2213.7876 2895920
2198.6973 661.71545 2217.3213 2895921
2212.5894 661.71545 2217.3213 2830128
2225.4473 661.40808 2216.2913 2895922
2231.0439 658.95978 2208.0874 3027251
2229.9248 654.57037 2193.3792 3159093
2238.5593 653.0802 2188.3857 3027507
nan nan nan 16777215
nan nan nan 16777215
nan nan nan 16777215
nan nan nan 16777215
nan nan nan 16777215
nan nan nan 16777215
nan nan nan 16777215
nan nan nan 16777215
nan nan nan 16777215
nan nan nan 16777215
-1893.5022 631.8125 2073.8127 3884097
-1889.5651 634.8551 2083.7996 3752768
-1876.5095 634.8551 2083.7996 3489596
-1845.4313 628.71503 2063.6458 3226423
-1833.8846 629.18951 2065.2031 3291960
-1823.3219 630.01056 2067.8982 3226423
-1812.1838 630.64319 2069.9746 3292217
-1814.817 636.11194 2087.9248 3226424
-1802.9119 636.52728 2089.2881 3226167
-1785.9521 635.15106 2084.771 3226167
-1770.0016 634.11615 2081.374 3028789
-1763.1785 636.36011 2088.7393 3028788
-1746.3199 634.98859 2084.2375 2896945
-1731.6512 634.39856 2082.301 2831153
-1726.9192 637.46765 2092.3748 2896689
-1719.9674 639.75806 2099.8926 2962225
-1697.3699 636.2193 2088.2771 3159604
-1683.464 635.90875 2087.2578 3093811
-1673.7588 637.19244 2091.4714 3028018
-1650.4445 633.27466 2078.6121 2962225
-1644.1979 635.89551 2087.2146 2961968
-1625.1547 633.56958 2079.5801 2765359
-1612.1255 633.56958 2079.5801 2699823
-1593.2749 631.26312 2072.0095 2700079
-1571.1068 627.59357 2059.9648 2568237
-1557.0734 627.13965 2058.4749 2370601
-1544.9403 627.44989 2059.4932 3028532
-1543.2091 632.02545 2074.5117 2962226
-1530.2117 632.02545 2074.5117 2764846
-1485.824 618.94922 2031.5913 2830382
-1483.0808 623.14484 2045.3625 2764589
-1468.7738 622.51239 2043.2867 2699053
-1439.9612 615.66687 2020.8175 2567467
-1432.7174 618.0036 2028.4874 2699053
-1421.0376 618.4516 2029.9578 2962482
-1414.447 621.14246 2038.7902 2962225
-1408.3735 624.11157 2048.5359 2896432
-1395.7815 624.22009 2048.8921 2896433
-1387.7657 626.39624 2056.0349 3093811
-1374.884 626.39624 2056.0349 3291191
-1358.2882 624.68811 2050.4282 3620155
-1339.965 622.14532 2042.0819 3554362
-1325.6475 621.43127 2039.7382 3291190
-1318.6962 624.19 2048.7932 3028018
-1306.2994 624.40015 2049.4829 3159604
-1293.0211 624.18884 2048.7893 3159604
-1280.1847 624.18884 2048.7893 3159604
-1283.054 631.92401 2074.1787 2830639
-1268.8535 631.32446 2072.2107 3028018
-1256.5566 631.66931 2073.3428 3488569
-1244.369 632.07703 2074.6809 3291190
-1240.7181 636.87518 2090.4302 3159604
-1224.0946 635.04584 2084.4255 3225397
-1211.1206 635.09076 2084.573 3488569
-1199.8757 636.05316 2087.7319 3488569
-1189.458 637.48016 2092.4158 3488569
-1175.887 637.2301 2091.595 3554362
-1171.7059 642.12042 2107.6465 3356983
-1158.5009 642.12042 2107.6465 3422776
-1143.0868 640.88177 2103.5811 3751484
-1130.4232 641.1745 2104.5417 3751484
-1115.2352 640.02539 2100.77 3620669
-1096.517 636.79865 2090.1787 3752767
-1089.9235 640.62024 2102.7227 3884353
-1086.4808 646.41022 2121.7271 4278855
-1073.0814 646.34625 2121.5171 4607820
-1053.868 642.73492 2109.6636 4542027
-1034.2308 638.77008 2096.6497 4213062
-1009.1014 631.2674 2072.0234 3884354
-1008.4891 639.10626 2097.7532 3094324
-991.17987 636.43127 2088.9729 3160374
-974.14197 633.86108 2080.5369 3686461
-964.38483 636.02307 2087.6331 3949119
-954.42865 638.11139 2094.4875 3883327
-940.12439 637.3103 2091.8582 4014913
-925.63153 636.35693 2088.729 3751741
-911.49084 635.62183 2086.3162 3883327
-899.29993 636.24481 2088.3608 3685948
-885.17371 635.49664 2085.9053 3751741
-870.1853 634.0979 2081.3142 4014913
-860.77374 636.78229 2090.125 4080706
-854.55621 641.94885 2107.0835 3751998
-843.90918 643.89795 2113.481 3752254
-830.66754 643.89795 2113.481 3817790
-814.87866 641.89136 2106.8948 3685948
-802.24939 642.34863 2108.3958 3619899
-789.49347 642.71808 2109.6084 3620412
-777.00739 643.32355 2111.5957 3554619
-767.7594 646.67737 2122.604 3160374
-755.04498 647.17822 2124.248 3489339
-743.04431 648.31989 2127.9954 3357753
-729.18536 647.85217 2126.4602 3291960
-712.85034 645.12622 2117.5127 3555132
-702.64917 647.95331 2126.792 3423289
-693.7431 652.10706 2140.426 3621437
-679.80511 651.60138 2138.7661 4213576
-656.52307 641.9389 2107.0508 3555901
-643.62561 642.24213 2108.0461 3818817
-625.68176 637.41699 2092.2085 3753280
-615.14185 640.0896 2100.9807 3818817
-603.63147 641.84711 2106.7495 3818817
-588.62024 639.87762 2100.2849 4147781
-570.08221 633.8963 2080.6526 3884610
-557.44952 634.35529 2082.1589 3686718
-544.40417 634.35529 2082.1589 4278855
-531.7124 634.7774 2083.5444 3884097
-523.30505 640.46442 2102.2112 3423546
-507.40234 637.03485 2090.9541 3752511
-487.14481 627.81104 2060.6787 4081733
-472.72067 625.80774 2054.103 3752768
-466.08194 634.28723 2081.9355 3291960
-454.10452 635.78046 2086.8369 3555132
-441.02988 635.78046 2086.8369 3423546
-430.36005 639.35321 2098.5637 3291960
-418.73334 641.68475 2106.2166 3423546
-406.07504 642.53571 2109.0098 3423546
-395.97815 647.63312 2125.7412 3423546
-383.87698 649.69336 2132.5034 3686718
-365.43399 640.78174 2103.2527 3818304
-355.95432 647.50848 2125.332 3818304
-343.94717 649.98163 2133.4497 4147269
-330.11475 649.06604 2130.4443 4213062
-314.27808 643.96643 2113.7058 3752768
-299.93433 641.61176 2105.9771 3818304
-287.58228 643.49707 2112.1653 3884097
-274.60672 644.10175 2114.1499 3686718
-260.65958 642.37341 2108.4771 3621181
-245.92062 638.40491 2095.4512 3687231
-232.88153 638.65051 2096.2573 4016196
-220.73836 641.52924 2105.7063 3555388
-208.81398 645.45032 2118.5764 3489339
-192.7382 636.20056 2088.2158 3949890
-179.73648 636.48956 2089.1643 3620925
-165.42819 631.83362 2073.8821 3423546
-152.72418 633.03351 2077.8206 4278855
-140.41867 636.26282 2088.4202 4213061
-127.33407 636.26282 2088.4202 3818048
-114.48326 637.56488 2092.6938 4015683
-102.12144 642.27911 2108.1675 3357753
-88.913124 642.27911 2108.1675 3357753
-76.278267 647.14441 2124.137 3752254
-63.355843 651.1109 2137.1562 3949120
-49.965897 651.1109 2137.1562 3751741
-36.036892 641.51477 2105.6587 3225397
-22.788059 639.93585 2100.4761 2764846
-9.6855536 643.76611 2113.0483 2633517
3.5464168 642.51013 2108.9258 2764846
16.81839 644.76819 2116.3374 3225397
30.169558 646.73303 2122.7866 3685179
43.046631 640.44202 2102.1375 2962482
56.79467 647.021 2123.7319 2699053
69.285149 639.49524 2099.03 2699309
82.964752 643.59534 2112.4878 2896432
95.555992 639.28589 2098.3428 3094068
108.68458 639.17889 2097.9917 3093555
122.01382 640.14783 2101.1719 3093811
134.26843 635.83899 2087.0291 3422776
147.22337 635.31714 2085.3159 3423289
161.40007 639.72284 2099.7769 3423290
174.88512 640.92963 2103.738 3160374
187.75571 639.87323 2100.2705 3028788
201.38751 641.37946 2105.2146 3225398
213.97902 639.59106 2099.3445 3159604
226.83815 638.76343 2096.6279 3159604
240.34163 639.74158 2099.8384 2896432
254.14815 641.38293 2105.2258 3159604
267.29581 641.28149 2104.8931 3028018
280.40894 641.11078 2104.3328 3093811
293.59323 641.11078 2104.3328 2896432
309.98898 647.82214 2126.3616 2764846
318.3959 637.97314 2094.0339 3027761
331.32422 637.60474 2092.8247 3159091
344.23163 637.22565 2091.5803 2961456
357.01297 636.64954 2089.6895 2764333
371.41772 638.90674 2097.0984 3093298
382.59872 635.65375 2086.4209 3224884
395.3974 635.21454 2084.9792 3224884
405.56531 630.71216 2070.2012 3159091
420.05106 632.99567 2077.6963 3356727
431.69763 630.99194 2071.1194 3422776
445.98743 632.85602 2077.2378 3356983
460.51056 634.93597 2084.0649 3159604
475.33322 637.30286 2091.8337 3488569
488.43921 637.30286 2091.8337 3685948
500.82324 636.3855 2088.8228 2962225
520.23163 644.21326 2114.5159 2764846
528.50775 638.20923 2094.8088 2896432
548.49878 646.29993 2121.3652 3159604
559.65039 643.83875 2113.2866 3685948
572.89081 643.83875 2113.2866 3620155
583.25726 640.68182 2102.9248 3554362
593.86591 637.92462 2093.8745 3620155
604.79694 635.62531 2086.3276 3422776
614.45557 632.11438 2074.8035 2896432
629.18939 633.86176 2080.5391 2896945
642.02576 633.66553 2079.895 2831153
655.67572 634.2641 2081.8596 3291447
667.42462 633.03619 2077.8293 3422776
680.21478 632.82404 2077.1328 3488826
695.90796 635.26984 2085.1609 3291190
706.83862 633.35809 2078.886 3356727
722.48785 635.66711 2086.4648 3225654
740.28412 639.74951 2099.8645 3093812
758.84869 644.34167 2114.9375 3093555
772.09943 644.34167 2114.9375 3028018
778.3255 638.57831 2096.0203 2764846
787.2464 635.18042 2084.8674 3291191
802.93958 637.26849 2091.7209 3686462
813.26562 635.09808 2084.5972 3291190
827.98059 636.36957 2088.7705 2896432
839.45325 635.14832 2084.762 3225397
856.19043 637.8866 2093.75 3291190
869.8421 638.27826 2095.0354 3159604
885.27167 639.94342 2100.501 3159604
906.98676 646.03687 2120.5017 2896433
918.49634 644.7901 2116.4094 2501931
926.42828 641.10309 2104.3074 2501674
945.66742 645.23438 2117.8677 2567726
958.93646 645.23438 2117.8677 2764845
970.76819 644.2804 2114.7363 2896432
983.77979 644.12463 2114.2251 3159604
1009.2123 651.99762 2140.0667 3555132
1006.8956 641.97168 2107.1584 3357753
1030.4503 648.487 2128.5437 3357753
1036.7845 644.1369 2114.2654 3292217
1048.4611 643.17371 2111.104 3423546
1061.7314 643.2002 2111.1907 3291960
1075.0615 643.26178 2111.3928 3226167
1090.0935 644.3277 2114.8916 3291960
1104.5719 645.0448 2117.2454 3357753
1118.7657 645.58069 2119.0044 3423546
1124.4655 641.25995 2104.8223 3357753
1132.2792 638.23096 2094.8801 3160374
1147.2537 639.26147 2098.2627 3160631
1160.9266 639.55164 2099.2151 3488313
1176.4712 640.8548 2103.4924 3488569
1196.2869 644.42987 2115.2271 3620155
1203.9305 641.44159 2105.4185 2830639
1200.6163 632.74298 2076.8669 3159604
1212.568 632.19006 2075.052 3356983
1228.7352 633.82336 2080.4131 2962225
1246.5183 636.24719 2088.3689 2962225
1259.6027 636.24719 2088.3689 3225397
1283.7606 641.7832 2106.5398 3422776
1296.9586 641.7832 2106.5398 3488569
1308.715 641.07697 2104.2217 3554362
1327.7648 643.92188 2113.5596 3883327
1337.3553 642.16852 2107.8044 3817790
1352.5483 643.11322 2110.9053 3883327
1363.5074 642.04602 2107.4023 3883327
1383.9812 645.43665 2118.5315 3817534
1390.8431 642.47498 2108.8105 3817534
1404.0555 642.47498 2108.8105 3883327
1410.3904 639.3573 2098.5771 3422776
1421.3644 638.3808 2095.3721 3488569
1435.5753 638.86267 2096.9536 3225397
1447.8242 638.47052 2095.6665 3093811
1465.2926 640.36646 2101.8896 3356983
1477.9659 640.15179 2101.1851 3357239
1498.3206 643.23853 2111.3167 3422776
1511.5486 643.23853 2111.3167 3554362
1520.7697 641.54816 2105.7683 3093811
1556.0104 650.76904 2136.0342 3225654
1569.3932 650.76904 2136.0342 4014913
1570.2661 645.62549 2119.1514 4014913
1594.9014 650.25623 2134.3511 3883327
1608.2738 650.25623 2134.3511 4343878
1623.4973 650.9986 2136.7876 4869966
1647.0927 655.05829 2150.1128 4672587
1659.588 654.67334 2148.8494 4080963
1659.3435 649.30939 2131.2432 3422776
1669.3175 647.99774 2126.938 3422263
1686.176 649.35815 2131.4033 3488056
1697.6372 648.63507 2129.0298 3553849
1707.7146 647.39856 2124.9712 3817021
1721.4705 647.56494 2125.5173 3817021
1725.8073 644.21277 2114.5144 3751228
1744.2808 646.14844 2120.8679 3685435
1767.9611 649.96906 2133.4084 3619642
1772.2994 646.67487 2122.5959 3488056
1780.6249 644.87378 2116.6841 3290677
1796.9293 645.96765 2120.2744 3290677
1824.7217 651.14484 2137.2676 3290677
1838.3452 651.22729 2137.5383 3488056
1854.1876 652.08893 2140.3665 3224884
1853.8105 647.27502 2124.5657 3224884
1869.7373 648.18182 2127.5422 3224884
1887.0897 649.56653 2132.0872 3159091
1900.4479 649.56653 2132.0872 3290677
1931.0034 655.40344 2151.2458 3356470
1933.6846 651.76422 2139.3008 3290677
1934.3381 647.49634 2125.2922 3093298
1962.6061 652.46729 2141.6084 2961968
1992.005 657.74414 2158.9287 3290677
2010.7904 659.46887 2164.5898 3422263
2014.7217 656.33154 2154.2922 3422263
2034.1367 658.24652 2160.5776 3093298
2047.6733 658.24652 2160.5776 3093298
2067.394 660.22137 2167.0598 3027505
2080.1111 659.94849 2166.1641 3027505
2090.7427 659.02167 2163.1221 3027762
2098.2959 657.14282 2156.9551 3224884
2111.4504 657.03101 2156.5879 3158834
2122.8982 656.39276 2154.4932 3093298
2143.5745 658.59808 2161.7317 3159093
2156.7141 658.47473 2161.3267 3158836
2165.3164 656.97607 2156.4077 3290422
2175.0564 655.83917 2152.676 3158837
2173.4663 651.32092 2137.8457 3224887
2195.6616 653.94226 2146.4497 3422265
nan nan nan 16777215
nan nan nan 16777215
nan nan nan 16777215
nan nan nan 16777215
nan nan nan 16777215
nan nan nan 16777215
nan nan nan 16777215
nan nan nan 16777215
nan nan nan 16777215
nan nan nan 16777215
nan nan nan 16777215
-1827.3423 626.50842 2015.1805 3685691
-1817.3712 627.42499 2018.1287 3488569
-1805.0511 627.5376 2018.491 3554105
-1784.9244 624.9187 2010.0671 3488825
-1769.3279 623.85992 2006.6616 3488570
-1751.9767 622.16284 2001.2029 3422777
-1752.7683 626.9306 2016.5386 3356727
-1738.6689 626.40277 2014.8408 3356726
-1715.7379 622.66211 2002.8088 3356726
-1705.485 623.50122 2005.5078 3225397
-1719.6818 633.35767 2037.2112 2896432
-1705.0256 632.65552 2034.9528 2896432
-1693.481 633.10596 2036.4017 2962225
-1678.4263 632.24103 2033.6196 2896432
-1659.0748 629.73206 2025.5493 2765102
-1643.1475 628.49402 2021.5673 2633260
-1629.5293 628.12689 2020.3865 2764846
-1616.871 628.12689 2020.3865 2896432
-1602.7537 627.55566 2018.549 2699053
-1587.8743 626.6745 2015.7148 2699053
-1586.3646 631.09821 2029.9436 2502187
-1573.6465 631.09821 2029.9436 2502188
-1553.4246 628.06439 2020.1853 2568237
-1546.1814 630.27124 2027.2838 2700080
-1528.8761 628.37909 2021.1975 2897202
-1510.733 626.10815 2013.8929 2897202
-1522.3403 636.23248 2046.4581 2831409
-1498.5525 631.61041 2031.5913 2633516
-1467.5334 623.83533 2006.5825 2304808
-1448.2952 620.97699 1997.3885 2238502
-1438.6196 622.20477 2001.3376 2633260
-1427.7056 622.9137 2003.618 2830639
-1403.9323 617.97498 1987.7324 2962225
-1387.0983 616.0296 1981.4752 2962225
-1378.5947 617.78223 1987.1127 3159347
-1389.177 628.19763 2020.6139 3225397
-1377.967 628.85925 2022.7419 3488569
-1343.6085 618.87085 1990.614 3817534
-1323.6865 615.4071 1979.4729 3817534
-1324.0286 621.38806 1998.7109 3554362
-1313.0098 622.10052 2001.0026 3488569
-1305.9993 624.7442 2009.506 3488569
-1293.4092 624.7442 2009.506 3488569
-1280.7151 624.69354 2009.343 3685948
-1274.4072 627.78784 2019.2958 3685948
-1249.8076 621.84302 2000.1741 3751741
-1254.397 630.44788 2027.8521 3291190
-1234.7271 626.91162 2016.4775 3159604
-1228.7908 630.34741 2027.5288 3488569
-1218.4587 631.57642 2031.4818 3554362
-1200.9264 629.05975 2023.387 3554362
-1191.889 630.98669 2029.585 3356983
-1181.5792 632.27423 2033.7264 3422776
-1185.7777 641.43799 2063.2019 3291190
-1173.313 641.69055 2064.0144 3290933
-1156.7667 639.69177 2057.5852 3291446
-1152.9554 644.76971 2073.9185 3620925
-1140.9111 645.30664 2075.6455 4015683
-1123.6162 642.85205 2067.7502 3950146
-1111.0095 643.05371 2068.3989 3949890
-1097.4451 642.69916 2067.2585 3949890
-1083.2255 641.94806 2064.8425 3818304
-1079.4246 647.42767 2082.4678 4147269
-1074.4359 652.32031 2098.2051 4213062
-1045.3779 642.53998 2066.7466 4278855
-1029.7 640.84137 2061.283 4147269
-1014.0847 639.13928 2055.8081 4147269
-986.95129 630.04059 2026.5417 4081476
-983.98535 636.3335 2046.7831 3686718
-970.81305 636.10504 2046.0483 3752254
-956.1582 634.88617 2042.1278 3883584
-944.38623 635.57446 2044.3416 3883327
-929.90826 634.43536 2040.6777 3949120
-917.08789 634.41119 2040.6 3817534
-901.47113 632.42462 2034.2101 3949120
-890.7879 633.89166 2038.929 3883327
-877.11847 633.24561 2036.8508 3554362
-866.04126 634.47961 2040.8201 3620155
-856.30902 636.75061 2048.1248 3488569
-843.73981 636.94904 2048.7632 3554362
-830.90369 636.94904 2048.7632 3685691
-818.55524 637.3288 2049.9846 3685948
-803.4035 635.50317 2044.1125 3620155
-792.30872 636.87952 2048.5396 3488569
-780.74896 637.92126 2051.8904 3685948
-769.14618 638.96216 2055.2383 3751484
-758.11945 640.52521 2060.2659 3554618
-752.2785 646.59961 2079.8044 3160374
-744.70972 651.37695 2095.1709 3752511
-727.00562 647.30157 2082.0623 3884097
-708.34668 642.21161 2065.6902 3555132
-693.77191 640.70386 2060.8406 3555132
-679.28241 639.21924 2056.0652 3686718
-668.79785 641.51874 2063.4617 3818560
-655.86963 641.51874 2063.4617 3752510
-642.41742 640.99591 2061.78 3620926
-625.3559 636.77649 2048.208 3686461
-610.68951 634.87012 2042.076 3686718
-600.737 637.88751 2051.7817 3489340
-591.95667 642.3089 2066.0032 3423546
-576.22638 639.21814 2056.0618 4278855
-558.76868 634.02606 2039.3611 3884097
-544.80011 632.64264 2034.9114 3423546
-529.54382 629.66168 2025.323 3357753
-515.76984 628.34021 2021.0725 3884097
-498.45886 622.53485 2002.3995 3884097
-486.07623 622.74371 2003.0713 3291960
-480.37659 631.75262 2032.0486 4213062
-463.50348 626.15747 2014.0516 3818304
-456.71295 634.25116 2040.0853 3226167
-442.55991 632.29205 2033.7837 3423546
-430.34448 633.06702 2036.2764 3357753
-420.1055 636.88574 2048.5596 3160374
-405.44052 634.02386 2039.3541 3160374
-394.55493 637.07819 2049.1785 3160374
-385.00037 642.55939 2066.8088 3226167
-374.56323 646.89795 2080.7639 3489339
-361.52661 646.89795 2080.7639 3291960
