# .PCD v0.7 - Point Cloud Data file format
VERSION 0.7
FIELDS x y z rgb
SIZE 4 4 4 4
TYPE F F F U
COUNT 1 1 1 1
WIDTH 1268
HEIGHT 1
VIEWPOINT 0 0 0 1 0 0 0
POINTS 1268
DATA ascii
975.8186 687.29248 3161.2441 2700084
999.27527 689.8125 3172.835 2634291
1027.7983 695.66339 3199.7466 2700084
1046.1577 694.54272 3194.5918 2831670
1064.1324 693.21356 3188.4783 2765877
1087.1229 695.14056 3197.3418 2568498
1103.8077 693.03882 3187.6746 2634548
1126.2421 694.55743 3194.6597 2765877
1141.3447 691.58051 3180.9673 2831670
1158.8315 690.12573 3174.2756 3094842
1183.1261 692.70575 3186.1428 3160635
1205.4673 694.07556 3192.4434 3226428
1223.4283 692.91986 3187.1274 3160635
1246.6002 694.70508 3195.3389 3226428
1261.4747 691.88306 3182.3586 3489600
1281.196 691.76581 3181.8193 3423807
1293.3098 687.60748 3162.6929 3555393
1317.0674 689.67181 3172.188 3029049
1312.8895 677.26416 3115.1182 3292221
1353.9993 688.23962 3165.6006 3358014
1373.7023 688.17432 3165.3 3358014
1393.3674 688.0921 3164.9219 3489600
1405.9446 684.5611 3148.6807 2897463
1426.0247 684.73029 3149.4592 2831670
1441.9385 682.92188 3141.1411 2831670
1460.5297 682.41296 3138.8005 2831670
1479.4034 682.04797 3137.1216 2831670
1498.4219 681.7583 3135.7893 2831927
1532.926 688.43073 3166.4795 2568498
1546.8643 685.81464 3154.4465 2371119
1570.8209 687.65015 3162.8894 2568498
1587.3984 686.25 3156.449 2436912
1607.312 686.30859 3156.7188 2436912
1626.4073 686.02075 3155.3948 2436912
1641.939 684.2547 3147.2715 2568498
1661.6576 684.2547 3147.2715 2371119
1678.9495 683.26709 3142.729 2239533
1705.9182 686.19482 3156.1953 2371119
1717.9285 683.10748 3141.9949 2042154
1731.2761 680.61584 3130.5344 2634291
1744.1099 677.98022 3118.4119 2568498
1754.7849 674.5733 3102.7415 2173740
1799.584 684.21515 3147.0896 1910825
1827.9956 687.48492 3162.1292 1910568
1854.2299 689.87439 3173.1196 2173740
1868.9659 687.98065 3164.4092 2305326
1889.4509 688.2207 3165.5134 2436912
1918.7218 691.62268 3181.1611 2568498
1939.3815 691.88269 3182.3569 2568242
1963.5889 693.3902 3189.2908 2568242
1983.5709 693.3902 3189.2908 2568242
2004.7776 693.81415 3191.2407 2634035
2020.9568 692.5069 3185.228 2634291
2022.0642 686.11115 3155.8105 2831413
2034.8743 683.77173 3145.05 2568242
2066.3323 687.68323 3163.0413 2436656
2095.9954 690.92871 3177.9692 2502192
2115.9062 690.92871 3177.9692 2502192
2124.3496 687.21899 3160.906 2633778
2166.4385 694.36151 3193.7585 2896950
2193.9182 696.73376 3204.6697 3028792
2213.9966 696.73376 3204.6697 3094586
2228.0161 694.8443 3195.979 3291965
2237.2993 691.52441 3180.7092 2962999
2287.3765 700.76086 3223.1929 2699827
2308.7332 701.11389 3224.8164 2699828
2334.2939 702.72638 3232.2334 2699828
2306.8293 688.48541 3166.7312 2831157
2312.5229 684.29919 3147.4763 3094329
2363.8782 693.58124 3190.1697 3028536
2445.6702 711.56323 3272.8789 3094329
2440.7319 704.22186 3239.1118 3225915
2456.6606 702.97278 3233.3665 2896950
2476.9187 702.97278 3233.3665 2633778
2524.2463 710.59302 3268.4165 2502192
2545.8728 710.91382 3269.8918 2567985
2566.3596 710.91382 3269.8918 2567985
2592.6174 712.49982 3277.1868 2567985
2616.0398 713.28772 3280.8108 2436399
2641.5303 714.62286 3286.9519 2502192
2661.8545 714.55054 3286.6191 2436399
2670.2283 711.2959 3271.6494 2239020
2720.4155 719.14423 3307.7483 2173227
2742.4158 719.47906 3309.2883 2304813
2750.4766 716.17932 3294.1108 2567985
2770.0149 715.89484 3292.8025 2304813
2796.6956 717.44702 3299.9417 2107434
2764.3965 703.95703 3237.8938 2304813
2790.1211 705.33179 3244.217 2567985
2814.3972 706.32312 3248.7769 2502192
2824.3325 703.72699 3236.8357 2370606
2827.8247 699.57397 3217.7334 2304813
2842.946 698.33624 3212.0405 2370606
2863.0706 698.33624 3212.0405 2567985
2889.1609 699.78125 3218.6868 2633778
2901.0034 697.77917 3209.4783 2633778
2926.8145 699.14142 3215.7439 2502192
2952.5142 700.45862 3221.8025 2502192
2979.9458 702.16595 3229.6555 2502192
2999.3086 701.96191 3228.717 2502192
3012.6475 700.36011 3221.3496 2436399
3037.9526 701.54309 3226.7905 2436399
3054.2639 700.64709 3222.6694 2502192
3068.6824 699.3316 3216.6187 2436399
3086.5068 698.80438 3214.1938 2304813
3097.9514 696.84888 3205.1995 2370606
3121.2007 697.55682 3208.4556 2502192
3151.7693 699.88104 3219.146 2502192
3174.5698 700.46167 3221.8167 2567985
3181.6768 697.59412 3208.6272 2436399
3223 702.21753 3229.8928 2304813
3265.6689 707.07458 3252.2332 2239020
3293.9585 708.7774 3260.0652 2239020
3327.9709 711.68298 3273.4297 2239020
3348.4802 711.68298 3273.4297 2304813
nan nan nan 16777215
nan nan nan 16777215
nan nan nan 16777215
nan nan nan 16777215
nan nan nan 16777215
nan nan nan 16777215
nan nan nan 16777215
nan nan nan 16777215
-2760.397 666.98059 2982.3291 3094842
-2741.3818 666.90033 2981.9705 3094842
-2712.428 664.38458 2970.7214 3160635
-2690.8909 663.66327 2967.4961 3160635
-2659.9639 660.59991 2953.7988 3226428
-2641.7305 660.66815 2954.104 3160635
-2622.0789 660.38031 2952.8167 3423807
-2601.7986 659.92883 2950.7981 3423807
-2577.4543 658.43274 2944.1084 3423807
-2559.0088 658.43274 2944.1084 3423807
-2574.0513 667.11182 2982.916 3292221
-2555.3623 667.11182 2982.916 3358014
-2516.4866 661.80292 2959.1777 3423550
-2487.8406 659.12555 2947.2061 3358014
-2445.718 652.81091 2918.9709 3423807
-2439.2856 655.99939 2933.2278 3292221
-2440.2617 661.24365 2956.677 3358013
-2423.062 661.60535 2958.2944 3621443
-2418.8914 665.55756 2975.9663 3753542
-2419.1538 670.80042 2999.4092 3819078
-2398.5583 670.29657 2997.1562 3819078
-2389.1106 672.92456 3008.907 3621699
-2399.303 681.17035 3045.7771 3687492
-2364.877 676.77936 3026.1433 3555906
-2332.9392 673.03534 3009.4023 3753285
-2315.5085 673.44946 3011.2542 3753285
-2320.9619 680.58087 3043.1414 3490113
-2299.7456 679.94519 3040.2988 3424320
-2283.4863 680.77667 3044.0168 3226941
-2276.8672 684.52039 3060.7566 3358527
-2274.6326 689.65717 3083.7251 3621186
-2235.4475 683.58276 3056.564 3555907
-2215.7058 683.40033 3055.7483 3555906
-2195.1416 682.95892 3053.7744 3161148
-2179.1917 683.95782 3058.241 3095355
-2160.3625 684.06287 3058.7107 3029819
-2141.9631 684.30707 3059.8025 3029562
-2123.8984 684.66364 3061.3967 3095355
-2108.4753 685.88593 3066.8623 3161148
-2092.813 687.05212 3072.0769 3555906
-2063.3792 683.677 3056.9854 3424320
-2048.2471 685.02179 3062.9985 3424320
-2024.6622 683.53821 3056.3647 3358527
-2007.2264 684.12219 3058.9758 3358527
-1984.8336 683.0116 3054.01 3226941
-1965.5862 682.97223 3053.8342 3095355
-1936.5353 679.49243 3038.2744 3095355
-1913.9882 678.24811 3032.7104 3029562
-1897.1339 679.01642 3036.146 2766134
-1906.853 689.40759 3082.6091 2765877
-1863.6741 680.69098 3043.6338 2897463
-1845.989 681.20184 3045.918 2963256
-1837.2008 685.04065 3063.0828 2963256
-1822.0123 686.54895 3069.8269 3029049
-1795.3242 683.70996 3057.1328 3029049
-1769.9569 681.31824 3046.4385 2963513
-1756.5431 683.52582 3056.3093 2897463
-1764.5071 694.1925 3104.0042 2766134
-1745.0596 694.1925 3104.0042 3161148
-1707.4916 686.90283 3071.4094 3226941
-1676.4319 682.09509 3049.9119 3161148
-1659.1853 682.86145 3053.3386 3161148
-1641.8462 683.60718 3056.6731 3029562
-1622.6952 683.60718 3056.6731 2963769
-1609.3773 686.09387 3067.7922 2963769
-1596.8488 688.98126 3080.7029 3161405
-1576.2374 688.40924 3078.145 2897976
-1564.7272 691.84711 3093.5171 2700597
-1539.8479 689.38586 3082.512 2700597
-1510.4603 684.81818 3062.0881 2963769
-1489.7346 684.11066 3058.9243 2897976
-1476.8759 687.04437 3072.0422 2897976
-1455.1174 685.86084 3066.75 3029562
-1431.067 683.55072 3056.4207 3226941
-1422.3887 688.62012 3079.0879 3226941
-1407.2611 690.6637 3088.2253 3226941
-1386.0737 689.74872 3084.1343 3358527
-1366.7507 689.74872 3084.1343 3226941
-1344.3866 688.19196 3077.1733 3095355
-1334.1116 692.86835 3098.0835 3358527
-1309.8335 690.3031 3086.613 3490113
-1296.8441 693.69934 3101.7991 3555906
-1278.1415 694.09637 3103.5745 3555906
-1267.0625 698.70966 3124.2021 3358527
-1251.1794 700.77704 3133.4463 3424320
-1243.3412 707.48792 3163.4531 3753285
-1237.2048 715.40027 3198.8325 3819078
-1197.5723 703.88562 3147.3459 3490113
-1179.3611 704.78674 3151.3752 3292734
-1176.2485 714.89508 3196.5735 3621699
-1155.0905 714.19604 3193.448 3621443
-1127.4374 709.38568 3171.939 3555393
-1106.119 708.46021 3167.8005 3424064
-1087.2745 709.11414 3170.7246 3292734
-1061.9933 705.5163 3154.6372 3226428
-1032.2284 698.74695 3124.3689 3029049
-1012.0618 698.33881 3122.5439 3226428
-993.12085 698.77704 3124.5034 3226428
-975.69849 700.32281 3131.4153 3226428
-953.76123 698.62488 3123.823 3423807
-929.8186 695.35614 3109.2073 3292221
-908.89307 694.25214 3104.2708 3160635
-887.11084 692.43109 3096.1282 3226429
-869.28595 693.68658 3101.7419 3094842
-841.02362 686.47998 3069.5186 2831926
-823.19635 687.65302 3074.7637 2700082
-804.16785 687.85474 3075.6655 3423805
-786.94482 689.64862 3083.6868 3292219
-768.29504 690.25104 3086.3804 3094840
-742.01526 683.85254 3057.7703 3029304
-723.03149 684.01727 3058.5068 3160634
-704.43878 684.57098 3060.9827 3029049
-687.58148 686.88934 3071.3489 2963256
-665.08087 683.54126 3056.3784 2831927
-647.11914 684.79785 3061.9971 2963256
-629.93799 686.98248 3071.7654 2963256
-612.84155 689.40002 3082.5752 3029306
-596.34375 692.67035 3097.198 3292221
-570.2735 684.66797 3061.4163 3226428
-557.42188 692.53107 3096.5754 2897463
-540.22937 695.37378 3109.2861 3029049
-522.14276 697.23535 3117.6099 3160378
-502.00421 696.39496 3113.8523 2963256
-482.27945 696.08392 3112.4617 3029049
-461.45175 694.08771 3103.5356 3160635
-442.85776 695.42346 3109.5083 3160635
-423.18307 695.10699 3108.0933 2963256
-402.37427 692.80731 3097.8105 3226428
-382.44208 691.86041 3093.5764 3028793
-362.40073 690.60431 3087.96 2832183
-342.80484 690.10333 3085.72 2897976
-324.30588 691.88263 3093.676 2897976
-306.47623 695.40692 3109.4343 3029562
-285.12634 690.87994 3089.1924 2897976
-264.96332 688.77875 3079.7971 2897976
-245.66743 688.77875 3079.7971 2700597
-226.18024 688.19659 3077.1943 2700597
-205.68944 684.16785 3059.1802 2569011
-186.35419 683.54962 3056.4158 2700597
-167.75565 685.80157 3066.4851 2634804
-149.16039 688.65112 3079.2266 2437425
-130.0358 689.54059 3083.2036 2503218
-109.35577 681.05316 3045.2532 2634804
-90.67157 684.03503 3058.5862 2832440
-72.06424 689.35034 3082.353 2634804
-53.119736 694.15137 3103.8203 2437425
-33.69796 694.65881 3106.0894 2174253
-14.228292 694.21722 3104.1147 2766390
5.2199488 694.21722 3104.1147 2700597
24.711742 695.44293 3109.5952 2634804
44.243355 696.21454 3113.0454 2898233
63.898876 697.86719 3120.4353 2963769
83.564026 698.82605 3124.7227 2897976
103.08586 698.44989 3123.0405 2963769
122.60501 698.17841 3121.8267 2963769
142.11775 697.95026 3120.8064 2963769
161.57599 697.54181 3118.9805 2963769
181.23201 697.9834 3120.9548 3029050
200.78577 697.9834 3120.9548 2963256
220.19318 697.5199 3118.8821 2963256
239.69798 697.41522 3118.4143 3029049
259.23581 697.41522 3118.4143 3160635
278.33304 696.31299 3113.4856 3029049
298.18536 697.12036 3117.0959 3226428
317.8277 697.3678 3118.2021 3292221
335.9071 694.35583 3104.7346 3160635
355.35922 694.35583 3104.7346 2700597
376.12704 696.79321 3115.6331 3555906
395.64746 696.79321 3115.6331 3687749
416.13055 698.40894 3122.8574 3029819
433.45911 694.82288 3106.823 2963769
454.57834 697.36029 3118.1687 3095355
474.87811 698.48328 3123.1899 3555650
492.78598 696.13837 3112.7051 3753029
510.34329 693.49573 3100.8887 3489858
530.36029 694.26672 3104.3362 3358528
557.24341 703.65332 3146.3071 3358528
571.01617 696.40918 3113.9158 3621443
589.20001 694.84552 3106.9243 3292734
603.00391 688.3819 3078.0229 2832183
622.28864 688.3819 3078.0229 3160635
640.59424 687.3313 3073.3252 2963769
660.66565 688.1814 3077.1262 2832183
679.94482 688.1814 3077.1262 2898232
696.65436 685.6524 3065.8181 2832183
715.46863 685.27496 3064.1306 2700597
736.22925 686.73279 3070.6489 2831927
762.48871 693.11493 3099.1858 2765877
785.74652 696.51923 3114.408 2831670
806.54071 697.62762 3119.364 2963256
815.60266 688.7757 3079.7837 2831926
841.18506 693.9621 3102.9739 2766390
858.21796 692.02026 3094.2913 2897463
878.89856 693.04053 3098.8533 3094842
895.31897 690.73004 3088.5222 3160635
920.97278 695.49005 3109.8059 2831670
940.4566 695.49005 3109.8059 2962999
958.17334 694.20966 3104.0811 2897720
979.33728 695.4281 3109.5291 2766134
1000.3698 696.50757 3114.356 2766646
1017.8512 695.12054 3108.1538 2963512
1036.6165 694.64594 3106.0317 2963769
1054.9894 693.93073 3102.8337 2831926
1073.8112 693.53125 3101.0474 2831927
1094.0056 694.01678 3103.2188 2765877
1113.7208 694.18677 3103.9785 2700084
1132.5781 693.82532 3102.3623 2634291
1151.2356 693.35559 3100.2622 2765877
1166.4435 690.85846 3089.0964 2897463
1183.4042 689.46405 3082.8613 3094842
1200.3502 688.10596 3076.7888 3160635
1219.4362 687.99817 3076.3069 3423807
1248.567 693.47284 3100.7861 3489600
1260.1143 689.16309 3081.5156 3555393
1278.1433 688.47485 3078.4385 3423807
1290.958 685.04022 3063.0808 3226428
1312.0502 686.03412 3067.5249 3423807
1330.7065 685.74426 3066.2288 3489600
1370.3407 696.11902 3112.6187 3358014
1379.0472 690.71228 3088.4426 2897463
1396.3594 689.70569 3083.9419 2963256
1395.4629 679.85547 3039.8979 2831927
1411.8665 678.58557 3034.2195 2831670
1430.1342 678.23334 3032.6445 2897463
1446.4476 676.97577 3027.0215 2765877
1472.87 680.42072 3042.4253 2436912
1496.3453 682.43359 3051.4255 2436912
1515.163 682.29828 3050.8206 2436912
1533.5869 681.99133 3049.448 2437169
1558.9189 684.72614 3061.6763 2700084
1596.3811 692.65759 3097.1409 2700341
1592.8688 682.8335 3053.2136 2634291
1602.6622 678.87885 3035.531 2568498
1625.8307 680.61609 3043.2988 2634291
1650.3972 682.8916 3053.4736 2700084
1670.4633 683.27411 3055.1838 2765877
1687.9614 682.6095 3052.2119 2765877
1707.0846 682.6095 3052.2119 2568498
1733.364 685.43939 3064.8657 2239533
1751.4084 684.98657 3062.8408 2305326
1771.9036 685.49158 3065.0989 2371119
1792.5994 686.06262 3067.6523 2436912
1811.8192 686.06262 3067.6523 2371119
1832.8429 686.73846 3070.6743 2371119
1847.8203 685.15845 3063.6094 2502705
1863.0399 683.69977 3057.0872 2436912
1881.9473 683.61029 3056.687 2436912
1904.3113 684.76562 3061.853 2502705
1927.7842 686.29266 3068.6812 2436912
1951.1752 687.76068 3075.2451 2568498
1972.6428 688.52869 3078.6792 2634291
1978.2378 683.79529 3057.5142 2502705
2005.5883 686.60046 3070.0574 2436912
2038.8149 691.34497 3091.2717 2370350
2057.9387 691.263 3090.9053 2304813
2070.9294 689.14166 3081.4199 2304813
2109.9185 695.63116 3110.437 2567985
2131.0369 696.16382 3112.8186 2765364
2152.9841 696.95514 3116.3569 2831157
2188.7012 702.1496 3139.5835 2831157
2205.9075 701.36615 3136.0803 2831157
2222.1699 700.29907 3131.3091 2699571
2240.4207 699.8717 3129.3982 2633778
2265.8035 701.66052 3137.3965 2699571
2289.8423 703.00586 3143.4121 2699571
2294.8169 698.52521 3123.3774 2831157
2344.8577 707.72223 3164.5007 2962743
2421.04 724.58881 3239.918 3357501
2431.1279 721.55811 3226.3665 3686466
2419.1023 712.0683 3183.9338 3094329
2408.3206 703.0968 3143.8186 2633778
2429.0601 703.39862 3145.1685 2567985
2449.8694 703.7157 3146.5862 2633778
2466.3738 702.80103 3142.4963 2633778
2491.1626 704.24286 3148.9434 2633778
2512.0862 704.57782 3150.4412 2633778
2530.4968 704.20831 3148.7888 2567985
2550.7947 704.36566 3149.4924 2567985
2586.8025 708.82532 3169.4331 2765364
2596.7693 706.1358 3157.4072 2765621
2625.3052 708.49817 3167.9705 2699571
2638.8113 706.79944 3160.3745 2699828
2654.2546 705.64099 3155.1948 2831414
2701.4485 712.87823 3187.5554 2633778
2704.554 708.46027 3167.801 2502192
2701.0432 702.38629 3140.6418 2502192
2710.156 699.65894 3128.4468 2567985
2726.1895 698.74463 3124.3586 2239020
2734.9172 695.98425 3112.0156 2436399
2753.9167 695.85834 3111.4526 2567985
2757.2114 691.79376 3093.2786 2567985
2774.4927 691.27081 3090.9402 2633778
2792.0781 690.83026 3088.9705 2699571
2811.4314 690.83026 3088.9705 2699571
2829.3225 690.47351 3087.375 2699828
2845.8271 689.7854 3084.2983 2567985
2862.1729 689.06836 3081.092 2567985
2880.4412 688.82068 3079.9849 2633778
2895.0352 687.70349 3074.9893 2699571
2925.1992 690.27521 3086.4885 2633778
2949.6897 691.48309 3091.8894 2567985
2973.7859 692.58344 3096.8093 2633778
2991.9905 692.30621 3095.5701 2633778
2999.0784 689.47705 3082.9194 2633778
3007.2007 686.92017 3071.4868 2567986
3026.4836 686.92908 3071.5266 2370606
3063.8879 691.02496 3089.8408 2370606
3079.0178 690.07709 3085.6028 2304813
3115.9126 693.98871 3103.093 2304813
3139.4939 694.90491 3107.1897 2239020
3155.2488 694.08826 3103.5381 2239020
3185.1182 696.36743 3113.7292 2370606
nan nan nan 16777215
nan nan nan 16777215
nan nan nan 16777215
nan nan nan 16777215
nan nan nan 16777215
nan nan nan 16777215
nan nan nan 16777215
nan nan nan 16777215
-2648.6829 657.82178 2861.6333 3423807
-2645.2705 661.45172 2877.4241 3358014
-2627.2424 661.45172 2877.4241 3292221
-2594.5181 657.72607 2861.2168 3292221
-2576.5916 657.72607 2861.2168 3226428
-2559.8125 658.021 2862.4998 3292221
-2537.3042 656.83691 2857.3489 3358014
-2516.2346 656.01117 2853.7568 3358014
-2496.6731 655.56952 2851.8354 3358014
-2478.0215 655.3623 2850.9338 3423807
-2466.0332 656.92688 2857.7402 3489600
-2450.5154 657.56738 2860.5266 3358527
-2432.4343 657.52435 2860.3394 3555906
-2397.2686 652.82825 2839.9106 3687492
-2370.448 650.3515 2829.136 3621956
-2373.105 655.98566 2853.6458 3161148
-2362.0977 657.8996 2861.9717 3358527
-2383.2686 668.87372 2909.7109 4213836
-2356.8965 666.57111 2899.6941 4016714
-2344.4075 668.18951 2906.7346 3884871
-2327.1367 668.45972 2907.9102 3753285
-2315.6621 670.41235 2916.4043 3687492
-2305.0142 672.63715 2926.0825 3621699
-2288.5789 673.19543 2928.511 3621699
-2270.231 673.19543 2928.511 3753285
-2253.99 673.82526 2931.251 3687492
-2260.7358 681.39386 2964.1755 3292734
-2226.8706 676.74609 2943.957 3358527
-2212.1777 677.89581 2948.9585 3358527
-2190.9126 677.03394 2945.2092 3424320
-2192.48 683.27307 2972.3503 3357758
-2173.8572 683.27307 2972.3503 3161405
-2144.9724 680.01965 2958.1978 3095355
-2130.3052 681.25629 2963.5771 3029562
-2108.9683 680.36285 2959.6907 3095355
-2088.5852 679.7641 2957.0859 2963769
-2069.4321 679.55859 2956.1919 3029819
-2047.4415 678.40906 2951.1912 3161148
-2033.5957 679.96204 2957.9468 3161148
-2010.8601 678.5437 2951.7769 3227198
-1984.8064 675.96893 2940.5764 3292734
-1969.5029 677.04156 2945.2424 3424320
-1955.7827 678.6839 2952.3867 3292991
-1940.2396 679.71893 2956.8894 2963769
-1903.3027 673.20685 2928.5608 2766646
-1892.511 675.90564 2940.301 3029562
-1877.0364 676.96857 2944.925 3029562
-1850.6177 674.06647 2932.3 2963769
-1833.5579 674.54907 2934.3997 3029049
-1816.6556 675.10004 2936.7966 3029049
-1785.9801 670.49164 2916.749 3029049
-1775.1959 673.33264 2929.1079 2963256
-1771.0796 678.78851 2952.842 2963256
-1758.7632 681.18365 2963.2612 3029049
-1733.994 678.75543 2952.698 2831670
-1712.0566 677.3952 2946.7808 2700084
-1693.1281 677.2088 2945.9697 2700084
-1678.2684 678.6637 2952.2988 2897720
-1672.4507 683.84808 2974.8518 2765877
-1653.8123 683.84808 2974.8518 2766390
-1626.8494 680.36664 2959.707 3029562
-1600.2195 676.9458 2944.8259 3029562
-1582.377 677.20587 2945.9573 2897976
-1565.1483 677.73792 2948.2717 3095355
-1551.2808 679.75555 2957.0486 3226941
-1531.9961 679.41937 2955.5864 3161148
-1517.7487 681.33636 2963.9255 3029562
-1496.4271 680.08582 2958.4856 2897976
-1475.9821 679.20728 2954.6636 2963769
-1463.6948 682.10809 2967.2825 3029562
-1440.1274 679.75916 2957.0642 2963769
-1420.0955 679.03949 2953.9336 2832183
-1406.3223 681.33307 2963.9111 3029562
-1403.9918 689.30591 2998.5945 3358527
-1367.4225 680.45721 2960.1008 3358527
-1353.4701 682.77441 2970.1814 3358527
-1336.4062 683.56482 2973.6196 3358527
-1320.8923 685.18152 2980.6526 3490113
-1302.2052 685.17511 2980.6245 3555906
-1282.9355 684.85736 2979.2424 3687492
-1271.2877 688.659 2995.7803 3358527
-1261.5178 693.60718 3017.3057 3424320
-1249.4167 697.40466 3033.8252 3621956
-1226.8043 695.36157 3024.9375 3687492
-1211.0223 697.18658 3032.8767 3621699
-1196.2461 699.6582 3043.6284 3555907
-1177.9364 700.10962 3045.5923 3490114
-1162.9484 702.5827 3056.3503 3555650
-1137.4227 698.66577 3039.3113 3490114
-1141.939 713.38312 3103.334 3753029
-1118.9001 711.09802 3093.3936 3753286
-1096.0336 708.84381 3083.5874 3555907
-1073.9457 707.02142 3075.6597 3621699
-1052.2239 705.37769 3068.5093 3490113
-1036.9518 708.07703 3080.252 3160891
-1010.8524 703.34521 3059.6675 3226941
-980.1123 695.13904 3023.9695 3029562
-957.04382 692.15765 3010.9998 3226941
-937.58575 691.71991 3009.0957 3358014
-911.94366 686.60834 2986.8594 3423807
-887.73108 682.38135 2968.4714 3423807
-868.82581 682.14044 2967.4233 3489600
-845.63116 678.44763 2951.3589 3489600
-833.66052 683.79596 2974.6252 3423807
-813.66687 682.65771 2969.6736 3489600
-789.73346 678.08344 2949.7747 3292221
-785.62128 690.71667 3004.7314 3358013
-767.50977 691.35992 3007.5295 3226427
-745.64539 688.56989 2995.3923 2831668
-719.31219 681.40247 2964.2131 2765875
-703.81757 684.39471 2977.2297 2765619
-686.80579 686.0343 2984.3623 2634289
-667.24072 685.14392 2980.489 2568242
-647.37146 683.88092 2974.9949 2831414
-628.40363 683.5235 2973.4399 2700084
-610.43597 684.26544 2976.6675 2765877
-593.92004 686.73279 2987.4009 2897719
-577.27148 689.20221 2998.1433 2831927
-557.54401 688.03833 2993.0801 3226428
-541.16974 691.07544 3006.292 2766134
-524.74414 694.26367 3020.1614 2765621
-508.1265 697.42682 3033.9216 2502449
-486.56393 693.78497 3018.0789 2700084
-464.41479 688.97833 2997.1694 2765877
-444.57471 687.33661 2990.0276 2634291
-426.91727 689.07343 2997.5828 2634291
-407.81705 688.53412 2995.2368 2634291
-387.04666 684.98688 2979.8059 2831670
-366.3493 681.216 2963.4019 3094842
-348.43762 682.49884 2968.9824 2898232
-330.59302 684.06525 2975.7966 2700597
-311.94873 684.06525 2975.7966 2963769
-290.94028 678.55139 2951.8103 2569011
-274.97696 684.85425 2979.229 2371632
-254.33643 679.57782 2956.2756 2766390
-234.24107 675.0437 2936.5513 2569011
-215.92708 675.30762 2937.6995 2437425
-197.84859 676.42596 2942.5645 2700597
-178.99446 674.84985 2935.708 2700854
-161.04793 676.72644 2943.8713 2832183
-143.26875 679.88257 2957.6013 3029562
-124.73846 679.88257 2957.6013 2832183
-105.32799 674.24823 2933.0908 2634804
-86.781578 672.93243 2927.3669 2766390
-68.526527 673.77612 2931.0371 2634804
-50.776638 682.02283 2966.9116 2569011
-32.188019 682.02283 2966.9116 2634804
-13.550876 679.58948 2956.3262 2503218
4.983036 681.17682 2963.2314 2634804
23.763676 687.39819 2990.2954 2569011
42.698772 690.63257 3004.3655 2832183
61.371086 688.93787 2996.9932 2766647
80.224594 689.59473 2999.8508 2634804
99.431473 692.46313 3012.3289 2963769
118.61266 694.26599 3020.1716 3161148
137.11296 692.13574 3010.9045 2964026
156.4933 694.42584 3020.8669 2963769
175.01199 692.81085 3013.8413 3029049
193.86055 692.68896 3013.3113 2963256
212.63963 692.36255 3011.8914 2831927
231.54858 692.47778 3012.3923 2831670
249.90993 691.06134 3006.2307 2700084
267.62912 688.19214 2993.7493 2831670
289.81036 696.42133 3029.5474 2963256
308.58896 695.96466 3027.561 3160635
323.36047 687.047 2988.7678 2831670
348.5766 700.08276 3045.4753 2831927
365.58466 696.13586 3028.3057 2700084
381.46869 690.54358 3003.9785 2963256
400.00867 690.05902 3001.8706 3160635
418.56705 689.64838 3000.084 3094842
438.81644 691.93939 3010.0503 2897720
457.67532 691.93939 3010.0503 3423807
476.37753 691.71179 3009.0603 3424064
497.70673 695.1709 3024.1079 3029306
516.65375 695.1709 3024.1079 3160892
531.04456 689.25732 2998.3831 3226428
555.17523 695.95758 3027.5303 3029050
570.16815 691.13861 3006.5669 3094842
582.96283 684.04846 2975.7236 2897463
600.87347 683.21484 2972.0972 3226172
624.57172 688.81421 2996.4553 2765878
643.34546 688.81421 2996.4553 2897463
655.55524 681.9856 2966.7498 3029049
674.40228 682.24805 2967.8916 2963257
694.50299 683.73065 2974.3411 3094842
715.12061 685.63135 2982.6094 3029049
733.16608 685.03204 2980.0022 3029306
757.41901 690.11829 3002.1282 2831413
777.97174 691.66833 3008.8711 2634291
796.82324 691.66833 3008.8711 2700084
805.2735 682.84833 2970.5029 2963256
822.4823 681.68616 2965.447 3029306
841.21362 681.80914 2965.9822 3094842
862.48883 683.94427 2975.2703 3029049
881.12982 683.94427 2975.2703 2897463
901.77966 685.47125 2981.9128 3029049
920.46228 685.47125 2981.9128 3029049
941.46124 687.16193 2989.2676 3029561
960.99677 687.73938 2991.7795 3095098
981.32983 688.85449 2996.6306 3095355
1000.1006 688.85175 2996.6184 3095098
1018.3979 688.52893 2995.2144 3095099
1037.8164 688.96216 2997.0989 3094842
1060.0591 691.22144 3006.9272 2897463
1077.8984 690.58075 3004.1401 2700084
1092.3003 687.79761 2992.033 2700084
1110.1595 687.24866 2989.6448 2765877
1128.6051 687.07489 2988.8889 2831670
1145.1703 685.78064 2983.2588 2831670
1163.8563 685.77771 2983.2461 2897463
1193.5768 692.17389 3011.0706 2963513
1196.9619 683.33643 2972.626 3292221
1218.5065 684.97797 2979.7668 3489600
1229.3027 680.61896 2960.8047 3226428
1245.4119 679.28748 2955.0125 3292221
1263.8497 679.24652 2954.8342 3226428
1270.8121 673.12842 2928.2195 3555393
1322.149 690.35437 3003.1553 3423808
1340.9648 690.35437 3003.1553 2897463
1331.5978 676.04614 2940.9121 3094842
1347.536 674.80048 2935.4934 3029049
1360.6134 672.17505 2924.0723 2963256
1377.2101 671.3349 2920.4175 2963256
1383.3994 665.51007 2895.0786 2765877
1410.3521 669.69543 2913.2854 2239533
1432.05 671.31055 2920.3115 2173740
1450.3468 671.31055 2920.3115 2239533
1462.0072 668.27716 2907.1157 2107947
1483.8127 669.89862 2914.1694 1976618
1502.0709 669.89862 2914.1694 2107947
1521.4486 670.39197 2916.3154 2568498
1545.7582 673.02087 2927.7517 2568498
1565.9863 673.83185 2931.2798 2634291
1588.0974 675.42499 2938.21 2700084
1611.8411 677.66791 2947.967 2502705
1629.3123 677.25275 2946.1611 2634291
1644.3422 675.84357 2940.0308 2436912
1671.5416 679.41187 2955.5537 2502962
1687.8483 678.52319 2951.6877 2568498
1697.7363 675.10132 2936.802 2634291
1722.2223 677.49548 2947.217 2700084
1742.7479 678.29736 2950.7053 2766134
1760.0331 677.83447 2948.6917 2700084
1779.5654 678.23767 2950.4456 2634291
1796.3779 677.60663 2947.7004 2634291
1802.3571 672.9436 2927.4155 2436912
1829.8088 676.31091 2942.064 2502705
1842.5153 674.21552 2932.9485 2568498
1866.6622 676.3064 2942.0442 2634291
1878.4735 673.93085 2931.7102 2568498
1909.2749 678.34827 2950.9268 2371119
1939.678 682.54083 2969.165 2107947
1952.4952 680.52435 2960.3931 2173227
1976.8107 682.51562 2969.0557 2173227
2002.2676 684.86035 2979.2554 2239020
2023.0602 685.58105 2982.3906 2173227
2041.0217 685.33789 2981.3328 2239020
2063.2122 686.50623 2986.4153 2173227
2092.6689 690.04974 3001.8301 2239020
2133.7061 697.31458 3033.4333 2502192
2147.29 695.55847 3025.7942 2502192
2152.1118 691.01959 3006.0491 2502192
2180.0117 693.9054 3018.6028 2436399
2201.2119 694.62732 3021.7434 2502192
2232.1365 698.37939 3038.0657 2370606
2254.3713 699.37231 3042.3848 2567985
2302.3943 708.28168 3081.1421 2962743
2332.1543 711.47144 3095.0181 2831157
2347.8779 710.36182 3090.1909 2699828
2363.3259 709.1875 3085.0825 2633778
2365.6487 704.12573 3063.063 2699571
2372.0559 700.3512 3046.6433 2699571
2394.4512 701.31989 3050.8572 2633778
2416.1611 702.0741 3054.1379 2633778
2435.4644 702.1225 3054.3486 2633778
2455.6951 702.43549 3055.7102 2765364
2471.7939 701.57104 3051.9495 2699571
2490.2324 701.3786 3051.1125 2633778
2516.6934 703.43158 3060.0432 2765621
2535.8657 703.43158 3060.0432 2831157
2540.0439 699.30359 3042.0859 2897207
2573.2429 703.16736 3058.8938 2962743
2586.6045 701.5932 3052.0461 2896950
2618.8965 705.13922 3067.4719 2831157
2607.8699 697.05499 3032.3042 2699571
2619.0886 694.99066 3023.3237 2699572
2630.9258 693.1189 3015.1814 2633779
2643.3167 691.41858 3007.7849 2567985
2652.6741 688.95447 2997.0657 2699571
2644.5115 682.00684 2966.842 2633778
2673.3425 684.62994 2978.2532 2633778
2693.5198 685.01593 2979.9321 2699828
2712.1899 685.01593 2979.9321 2699571
2720.5652 682.43353 2968.6982 2633778
2739.72 682.57178 2969.2998 2567985
2758.3113 682.56873 2969.2864 2633778
2769.8989 680.84418 2961.7844 2633779
2792.1008 681.73431 2965.6565 2502192
2810.6816 681.73431 2965.6565 2567985
2839.6946 684.24805 2976.5918 2633778
2874.0342 688.00409 2992.9312 2633778
2892.7859 688.00409 2992.9312 2831157
2877.5337 679.96887 2957.9768 2765364
2912.9023 683.92188 2975.1729 2831157
2943.7786 686.77643 2987.5908 2699571
2957.8508 685.6994 2982.9055 2502449
2984.655 687.56891 2991.0381 2502192
2996.1729 685.91559 2983.8459 2436399
3009.5117 684.69708 2978.5452 2436399
3027.4902 684.5426 2977.8733 2436399
3038.1257 682.73993 2970.0312 2370606
nan nan nan 16777215
nan nan nan 16777215
nan nan nan 16777215
nan nan nan 16777215
nan nan nan 16777215
nan nan nan 16777215
nan nan nan 16777215
nan nan nan 16777215
-2568.2476 655.13763 2774.7312 3226428
-2560.1665 657.52704 2784.8511 3226428
-2542.7185 657.52704 2784.8511 3226428
-2509.7354 653.48199 2767.719 3292221
-2494.2041 653.95636 2769.7283 3226428
-2471.5254 652.55035 2763.7732 3423807
-2453.8784 652.46228 2763.4001 3358014
-2436.2515 652.37842 2763.0449 3423807
-2438.7786 657.72876 2785.7053 3358014
-2393.6111 650.20038 2753.8203 3292221
-2376.3574 650.20038 2753.8203 3292221
-2362.9482 651.25995 2758.3079 3292991
-2347.2297 651.69397 2760.146 3292478
-2326.6011 650.76099 2756.1946 3292478
-2325.9866 655.45404 2776.0713 2897720
-2311.7561 656.35193 2779.874 2305582
-2295.4504 656.66974 2781.2202 2042411
-2340.3533 674.63666 2857.3162 2832183
-2333.158 677.74677 2870.4885 3424576
-2285.8311 669.15698 2834.1079 3621699
-2281.0981 672.99951 2850.3821 3621699
-2259.3545 671.84412 2845.4888 3490113
-2249.8911 674.3512 2856.1072 3490113
-2235.3386 675.36084 2860.3833 3687492
-2212.6475 673.90814 2854.2305 3621699
-2200.573 675.69147 2861.7837 3424320
-2187.2866 677.12909 2867.8723 3292734
-2167.6265 676.60095 2865.6355 3358527
-2147.1782 675.81586 2862.3103 3292734
-2129.2397 675.81421 2862.3035 3161148
-2113.7998 676.6123 2865.6836 2831670
-2086.4663 673.58441 2852.8594 2766390
-2076.7354 676.23596 2864.0898 2963769
-2061.752 677.2085 2868.2087 2963769
-2043.7815 677.2085 2868.2087 2963769
-2024.2798 676.69653 2866.0403 2963769
-2010.6968 678.17163 2872.2881 3029562
-1992.701 678.17163 2872.2881 3095355
-1971.5791 677.09808 2867.7412 3226941
-1949.1185 675.54077 2861.1453 3160635
-1929.6042 674.98517 2858.7922 3094842
-1910.8729 674.69562 2857.5659 3094842
-1891.2371 674.07812 2854.9507 2963513
-1864.3999 670.85773 2841.311 2766390
-1843.7458 669.82147 2836.9221 2897976
-1837.969 674.22247 2855.562 3029562
-1816.4646 672.88391 2849.8926 2963513
-1794.1713 671.22363 2842.8608 2963769
-1777.0415 671.4812 2843.9517 2898233
-1768.8925 675.17188 2859.583 2963769
-1742.533 671.91614 2845.7937 3094842
-1726.2537 672.5202 2848.3523 2765877
-1711.901 673.89532 2854.1763 2765877
-1695.12 674.33331 2856.0315 2831670
-1677.1863 674.31738 2855.9639 2765877
-1658.1207 673.84113 2853.9468 2831670
-1638.8833 673.28375 2851.5862 2831670
-1623.0574 674.1311 2855.175 2700084
-1605.1688 674.1311 2855.175 2897719
-1586.8126 673.93256 2854.334 2897976
-1570.2787 674.51215 2856.7888 2766390
-1552.3167 674.48462 2856.6721 2897976
-1534.2366 674.40454 2856.333 2897976
-1521.1218 676.53094 2865.3391 3095355
-1504.1665 676.97961 2867.2395 3161148
-1479.188 673.78448 2853.707 3161148
-1455.8994 671.29034 2843.1436 3095612
-1440.6501 672.48724 2848.2126 3029562
-1425.9196 673.95923 2854.447 2963769
-1411.4227 675.58051 2861.3137 3029562
-1396.2046 676.8938 2866.876 2963769
-1377.3807 676.47046 2865.083 2897976
-1357.4125 675.46649 2860.8308 3161148
-1358.078 684.84064 2900.5334 3358527
-1325.5966 677.52728 2869.5591 3292734
-1305.7094 676.53839 2865.3706 3161148
-1295.5503 680.63275 2882.7117 3095355
-1277.4891 680.63275 2882.7117 3358527
-1254.349 677.88788 2871.0862 3424320
-1236.3608 677.88788 2871.0862 3292734
-1223.1262 680.53271 2882.2878 3161148
-1208.8734 682.68188 2891.3904 3358527
-1208.0039 692.56927 2933.2668 3621699
-1194.9669 695.67859 2946.4358 3753285
-1179.3638 697.36804 2953.5913 3819078
-1146.4296 688.70007 2916.8794 3621699
-1142.7551 697.61328 2954.6299 3226941
-1129.9629 701.16229 2969.6611 3358783
-1107.0806 698.46423 2958.2341 3424320
-1101.4415 706.7384 2993.2781 3424320
-1077.8704 703.59381 2979.9595 3424319
-1052.442 699.10474 2960.9468 3424320
-1033.1089 698.57605 2958.7075 3490113
-1015.8077 699.427 2962.3118 3292734
-992.73114 696.25922 2948.895 3358527
-977.29633 698.43243 2958.0994 3226941
-956.31433 696.64868 2950.5447 3490113
-931.49384 691.94324 2930.6155 3556163
-909.58832 689.25757 2919.2407 3423807
-887.14539 686.04596 2905.6384 3226428
-868.40186 685.62054 2903.8367 3160635
-846.87787 682.93475 2892.4614 3358014
-826.01929 680.67981 2882.9109 3686979
-811.84015 683.95129 2896.7668 3818565
-788.00061 679.04767 2875.9983 3424064
-767.13953 676.54126 2865.3828 3226428
-758.55365 684.99963 2901.207 3292221
-742.81616 687.25665 2910.7661 3029049
-719.01202 681.97614 2888.4014 2897207
-700.19177 681.27222 2885.4199 2765621
-683.20654 682.36371 2890.0427 2634035
-665.57056 682.84686 2892.0894 2370863
-647.09698 682.47382 2890.5093 2962999
-629.95679 683.52606 2894.9658 2831413
-614.79926 686.85565 2909.0679 2699828
-596.57306 686.85565 2909.0679 2634034
-580.7373 689.69464 2921.0918 2436911
-562.43579 689.69464 2921.0918 2436655
-544.31335 689.92169 2922.0535 2568241
-525.33527 689.04224 2918.3286 2699827
-509.13892 691.87946 2930.3455 2831414
-493.11731 695.17542 2944.3047 2962999
-468.28851 685.82898 2904.7195 2963256
-449.96957 685.64612 2903.9451 2765877
-431.22049 684.76489 2900.2126 2765877
-411.77341 682.64893 2891.2507 2831670
-393.43802 682.26605 2889.6292 2700084
-374.9361 681.54346 2886.5688 2765877
-358.04813 683.83014 2896.2537 3029049
-337.18182 678.35712 2873.0735 2832439
-319.97745 680.0495 2880.2415 2832183
-301.89874 679.97498 2879.9258 2897976
-283.80789 679.86188 2879.4468 2634804
-265.75455 679.82941 2879.3091 2503218
-247.43761 679.06866 2876.0872 2569011
-227.38538 673.05206 2850.605 2437425
-209.39735 672.64062 2848.8623 2503475
-191.70045 673.17474 2851.1245 2569011
-173.77849 672.94702 2850.1602 2569011
-155.6613 671.82471 2845.4067 2437425
-137.77216 671.52362 2844.1313 2700597
-119.9528 671.52362 2844.1313 2766390
-102.04417 670.93671 2841.6455 2700597
-84.263306 671.11932 2842.4189 2371632
-66.550781 672.08997 2846.53 2437425
-48.761024 672.70569 2849.1379 2503218
-30.877724 671.99695 2846.136 2634804
-13.041283 671.76434 2845.1509 2634804
4.7912931 672.72247 2849.2087 2569011
22.817944 677.93585 2871.2893 2569011
40.796932 677.76093 2870.5483 2503218
58.861622 678.68115 2874.446 2437682
76.881264 678.77252 2874.833 2569011
94.952553 679.19861 2876.6377 2569011
112.56301 676.71832 2866.1328 2437425
131.75935 683.14288 2893.343 2832183
151.81206 691.91663 2930.5027 3029562
168.35475 684.52545 2899.1985 2766133
186.66705 685.0683 2901.4978 2897463
205.70422 687.93903 2913.6562 2897463
224.25789 688.85651 2917.5422 2897463
242.42101 688.52655 2916.1445 3029049
260.87119 689.00098 2918.1541 2897463
278.37369 687.07416 2909.9934 2700084
298.51392 691.49451 2928.7148 2831670
318.65182 695.39777 2945.2466 2700084
337.10471 695.39777 2945.2466 2240303
352.00104 688.44189 2915.7861 2569267
372.24295 692.11145 2931.3279 2569011
390.8024 692.45477 2932.782 2437425
406.57983 688.05927 2914.1655 2569011
423.84109 686.4447 2907.3271 2634804
440.32492 683.75598 2895.9397 2503218
457.9556 682.99054 2892.6975 2437425
475.80682 682.59967 2891.0422 2963512
496.71625 686.46393 2907.4087 3094842
514.93201 686.46393 2907.4087 3029049
529.8302 682.19226 2889.3167 3226172
546.29218 680.14978 2880.666 3094842
564.2442 680.03381 2880.1748 2963513
583.75079 681.74048 2887.4033 3160891
601.84131 681.74048 2887.4033 2963770
617.79022 679.38544 2877.429 2832183
635.93262 679.50769 2877.9465 2964025
651.07837 676.50958 2865.2485 3095355
668.37738 675.84955 2862.4531 3292478
682.97693 672.5658 2848.5454 3095355
704.24683 675.85065 2862.4578 3094843
725.32654 678.79437 2874.9255 2831927
744.2168 679.59607 2878.321 2963256
758.67456 676.40802 2864.8186 2963256
776.64056 676.42285 2864.8813 2963256
795.49902 677.19678 2868.1592 3029049
814.17126 677.78143 2870.6355 3094842
834.30475 679.53101 2878.0454 3160635
852.74023 679.85284 2879.4084 3094842
871.98895 680.79614 2883.4038 3029049
892.10529 682.36499 2890.0481 3226428
912.6261 684.1745 2897.7122 3094842
930.87177 684.24109 2897.9941 3160635
948.9328 684.172 2897.7017 3029049
966.63867 683.85431 2896.356 3094843
984.72662 683.8136 2896.1836 3094842
1010.4104 688.95355 2917.9531 2897463
1033.712 692.31555 2932.1921 3094842
1052.0831 692.31555 2932.1921 3094842
1061.629 686.60779 2908.0181 3029306
1072.6552 682.03387 2888.646 2765877
1092.7012 683.25177 2893.8042 2897463
1110.4502 683.01715 2892.8103 3292221
1126.356 681.6745 2887.1238 3358014
1143.3295 681.01019 2884.3103 3358014
1160.8604 680.69336 2882.9685 3489600
1177.887 680.09521 2880.4351 3489600
1194.2408 679.13245 2876.3574 3292221
1211.5189 678.71606 2874.594 3160635
1220.1935 673.56262 2852.7673 3094842
1241.3468 675.34705 2860.325 3621186
1255.1803 673.15503 2851.041 3555393
1278.8506 676.22595 2864.0474 3292221
1295.8468 675.73163 2861.9539 3160635
1310.0754 673.82739 2853.8887 3226428
1325.6404 672.6524 2848.9121 3226428
1340.5227 671.16687 2842.6206 3160635
1356.501 670.26184 2838.7874 2897463
1382.2244 674.13318 2855.1836 2238764
1395.8979 672.10364 2846.5881 1975848
1407.3068 669.04871 2833.6492 1975849
1419.3204 666.35388 2822.2356 2107434
1437.3436 666.51202 2822.9055 2042154
1458.0876 667.9126 2828.8374 1976361
1465.0203 663.02893 2808.1536 2568498
1499.2953 670.48877 2839.7483 2831670
1511.5278 668.03174 2829.342 2700084
1529.5293 668.15173 2829.8503 2831670
1552.5951 670.45599 2839.6096 2436912
1567.1453 669.07233 2833.7493 2305327
1584.8995 669.07233 2833.7493 2568755
1602.7759 669.12323 2833.9648 2765877
1620.8802 669.26721 2834.5747 2700084
1637.4586 668.78485 2832.5317 2700084
1654.3972 668.45831 2831.1487 2700084
1681.2145 672.08789 2846.5212 2634291
1699.3414 672.20355 2847.0112 2700084
1710.6331 669.64117 2836.1587 2700084
1722.6339 667.40619 2826.6929 2765877
1745.804 669.50012 2835.5613 2436912
1764.6669 669.91663 2837.3252 2436912
1782.4435 669.91663 2837.3252 2371119
1808.6987 673.07172 2850.688 2436912
1826.7781 673.15234 2851.0295 2305326
1848.9752 674.73419 2857.7292 2305326
1871.7489 676.49396 2865.1826 2239790
1891.9502 677.29944 2868.594 2239020
1909.9229 677.29944 2868.594 2041641
1931.87 678.69574 2874.5078 2041641
1955.5055 680.65399 2882.8015 2173227
1973.5673 680.65399 2882.8015 1778469
1991.4954 680.6084 2882.6084 1844262
2001.969 678.03888 2871.7256 1975848
2064.5388 693.00208 2935.1001 2436399
2062.9272 686.34778 2906.9167 2370606
2088.6716 688.8316 2917.4365 2304813
2109.7207 689.73743 2921.2729 2304813
2123.603 688.30463 2915.2046 2173227
2131.6907 685.03418 2901.3533 2304813
2148.9688 684.74756 2900.1392 2370606
2174.8743 687.19153 2910.4902 2370606
2206.7561 691.46765 2928.6013 2239020
2250.24 699.27869 2961.6833 2633778
2270.5264 699.81201 2963.9424 2699571
2285.2065 698.62274 2958.9055 2765364
2299.769 697.41705 2953.7988 2831157
2306.7561 693.95166 2939.1218 2831157
2330.9749 695.6839 2946.4585 2831157
2353.0898 696.76605 2951.0415 2896950
2371.0862 696.62128 2950.4285 2699571
2375.5737 692.54059 2933.1453 2567985
2395.2532 692.9173 2934.7407 2633778
2420.8621 694.99054 2943.5217 2765364
2447.0825 697.20673 2952.9082 2831157
2451.9141 693.34143 2936.5371 2831157
2470.3125 693.34143 2936.5371 2897207
2484.2776 692.10638 2931.3064 2831157
2496.135 690.30652 2923.6833 2896950
2508.9846 688.8053 2917.3252 2831157
2525.6045 688.35339 2915.4111 2831157
2543.8704 688.35339 2915.4111 2896950
2550.7854 685.30389 2902.4954 2831157
2547.4321 679.55823 2878.1606 2831414
2568.0222 680.23566 2881.0298 2831157
2604.4243 685.06287 2901.4746 2633778
2624.3271 685.51324 2903.3821 2831157
2638.6155 684.50092 2899.0947 2699828
2645.2493 681.53033 2886.5132 2699571
2655.2307 679.45667 2877.7305 2567985
2666.1279 677.64374 2870.0522 2567985
2681.5493 676.99731 2867.3145 2502192
2694.4026 675.71552 2861.8855 2567985
2717.7002 677.05255 2867.5483 2502192
2741.7915 678.56854 2873.969 2765364
2758.9316 678.35553 2873.0669 2633778
2799.9397 683.97589 2896.8708 2831157
2818.0896 683.97589 2896.8708 2896950
2818.8567 679.784 2879.1167 2962743
2859.75 685.26044 2902.3115 2831414
2859.9553 680.97955 2884.1807 2765364
2866.7595 678.3139 2872.8906 2633778
2876.0803 676.27319 2864.2476 2502192
2895.4724 676.61127 2865.6792 2567985
2911.8354 676.2417 2864.114 2633778
2941.0854 678.85114 2875.166 2633778
nan nan nan 16777215
nan nan nan 16777215
nan nan nan 16777215
nan nan nan 16777215
nan nan nan 16777215
nan nan nan 16777215
nan nan nan 16777215
nan nan nan 16777215
nan nan nan 16777215
-2479.7024 653.67163 2697.3254 3160635
-2457.5127 652.26752 2691.5315 3094842
-2430.2722 649.4942 2680.0876 3029306
-2413.375 649.46576 2679.9702 3160635
-2400.9204 650.64093 2684.8193 3358014
-2384.0994 650.64093 2684.8193 3489600
-2371.4243 651.78052 2689.522 3292221
-2375.1472 657.47559 2713.022 2963256
-2334.7078 650.93988 2686.053 2700341
-2317.8789 650.93988 2686.053 2765877
-2293.6218 648.83856 2677.3821 3160635
-2286.9968 651.7309 2689.3171 3292221
-2281.3269 654.94037 2702.5608 3292221
-2296.8616 664.33099 2741.3103 2963256
-2255.5857 657.30774 2712.3293 2634291
-2239.2346 657.4964 2713.1079 2436912
-2236.854 661.82135 2730.9546 2765621
-2252.5552 671.60419 2771.3228 2765877
-2225.1753 668.59448 2758.9033 2765876
-2199.3525 666.00922 2748.2354 2963769
-2190.947 668.69897 2759.3347 3226941
-2173.6589 668.69897 2759.3347 3358527
-2160.4365 669.95984 2764.5374 3424063
-2137.9653 668.34967 2757.8931 3029305
-2124.7256 669.6228 2763.1465 2831413
-2128.7737 676.40979 2791.1526 3292221
-2085.8496 668.2605 2757.5251 3226172
-2068.573 668.2605 2757.5251 3226685
-2026.3489 660.13336 2723.989 2963769
-1999.953 657.0683 2711.3413 2765621
-2010.2854 666.12085 2748.696 2569011
-2013.7231 673.02551 2777.1877 3029562
-1996.3232 673.02551 2777.1877 3161148
-1966.6434 668.84918 2759.9543 2964026
-1958.9995 672.15961 2773.6145 2700854
-1935.8467 670.16028 2765.3645 2766390
-1916.8232 669.56726 2762.9175 2898233
-1897.6989 668.92792 2760.2793 3095355
-1878.4302 668.22546 2757.3806 3095099
-1871.833 672.05957 2773.2017 2963769
-1854.4581 672.05957 2773.2017 2963512
-1813.7045 663.50696 2737.9099 2831927
-1804.6801 666.50934 2750.2991 2831927
-1785.6488 665.8382 2747.5298 2897463
-1769.3246 666.17328 2748.9124 3029049
-1749.1282 665.04266 2744.2471 3029049
-1734.8556 666.16425 2748.8752 2897207
-1717.1995 665.99609 2748.1814 2765877
-1701.4154 666.55798 2750.4998 2897463
-1684.9314 666.85431 2751.7227 2831670
-1665.7228 666.0672 2748.4749 2765877
-1651.129 667.12842 2752.8538 2765877
-1636.0261 668.00409 2756.467 2963256
-1612.0322 665.22937 2745.0176 3160635
-1588.8225 662.72198 2734.6709 3160635
-1586.9276 669.14758 2761.1855 2700084
-1570.3031 669.43536 2762.3733 2765877
-1552.981 669.42889 2762.3464 2832439
-1531.5598 667.63544 2754.946 2766390
-1514.3391 667.65302 2755.0186 2700854
-1499.7443 668.8421 2759.925 2963770
-1485.7495 670.32965 2766.0632 3029305
-1461.0081 666.94647 2752.1028 2963513
-1449.3002 669.50323 2762.6533 2963512
-1431.7909 669.40955 2762.2666 3029305
-1408.527 666.59021 2750.6328 2831927
-1390.9274 666.41479 2749.9092 2700340
-1373.6403 666.3866 2749.7927 2897976
-1360.7944 668.53967 2758.6772 3029562
-1339.8004 666.69354 2751.0593 3161404
-1315.5796 663.17267 2736.5308 3226941
-1311.2853 669.73627 2763.6147 2963769
-1296.3595 670.97284 2768.7173 3029819
-1281.873 672.47339 2774.9094 2898233
-1259.6062 669.8775 2764.1978 2832183
-1244.514 671.078 2769.1516 3029819
-1235.4862 675.62885 2787.9302 3095355
-1222.042 677.86035 2797.1382 2897976
-1204.3256 677.75256 2796.6936 3226941
-1188.5648 678.75854 2800.8445 3292734
-1182.7753 685.57416 2828.9688 3424320
-1170.8356 688.97821 2843.0151 3490113
-1158.1971 692.06982 2855.7725 3226941
-1140.3048 692.06982 2855.7725 3226941
-1123.0365 692.45447 2857.3599 3161148
-1109.1921 694.99707 2867.8516 3161148
-1090.1271 694.2984 2864.9685 3161148
-1071.6267 693.94196 2863.4978 3292734
-1055.5914 695.19678 2868.6758 3226941
-1037.6183 695.19678 2868.6758 3226941
-1019.3834 695.01831 2867.9392 3358527
-1001.1007 694.80029 2867.0396 3358527
-983.50262 695.05811 2868.1035 3161148
-963.27185 693.43036 2861.3867 3226941
-950.42572 697.15759 2876.7668 3292990
-932.40186 697.15759 2876.7668 3555137
-897.58868 684.35675 2823.9451 3489601
-879.89575 684.35675 2823.9451 2634291
-856.92377 680.16663 2806.6548 2765877
-838.6062 679.57251 2804.2034 2700084
-817.05878 676.27972 2790.616 3029049
-802.32281 678.60413 2800.2073 3160635
-783.97595 677.91003 2797.3433 3489600
-771.26172 682.16614 2814.9058 3489600
-748.2193 677.27258 2794.7129 3226428
-738.60022 684.58624 2824.8921 2765877
-722.34369 685.95587 2830.5437 2897463
-703.2337 684.61652 2825.0171 3094842
-681.7832 680.87067 2809.5601 3226426
-664.74994 681.45441 2811.969 3423806
-655.53918 690.30743 2848.5002 3358012
-638.74115 691.44275 2853.1848 3226426
-614.22443 684.04718 2822.6677 3160889
-606.35333 695.3006 2869.104 2700084
-580.92035 686.48822 2832.7405 2831670
-560.8186 683.61908 2820.9011 2831670
-543.20752 683.69812 2821.2273 2897463
-526.35181 684.76501 2825.6299 2963256
-509.16522 685.46088 2828.5012 2963256
-494.08063 689.13879 2843.6777 2897207
-476.2641 689.13879 2843.6777 3028792
-453.53787 681.75842 2813.2234 3029049
-431.10614 674.24194 2782.2073 3160635
-416.39926 678.68256 2800.531 2568755
-401.23944 682.74316 2817.2869 2831927
-383.58826 682.74316 2817.2869 2765877
-362.922 677.1178 2794.0742 2765877
-344.83508 675.97858 2789.373 2765877
-326.40799 674.0152 2781.2715 2766390
-313.71106 684.3302 2823.8354 3029562
-292.50211 676.20026 2790.2878 3029562
-273.32849 672.04108 2773.1252 2766390
-256.4487 673.34003 2778.4854 2634804
-236.74722 666.87982 2751.8279 2371889
-218.92978 665.12866 2744.6018 2569011
-202.15271 666.50916 2750.2983 2503218
-184.97093 666.68829 2751.0376 2569011
-167.73483 666.68829 2751.0376 2700597
-150.27631 665.70294 2746.9717 2897976
-132.92616 665.005 2744.0918 2963769
-115.17466 661.79346 2730.8396 2898233
-98.391785 663.99817 2739.937 2634804
-81.598152 667.04663 2752.5164 2503218
-64.168961 665.1413 2744.6541 2503218
-46.972855 665.1413 2744.6541 2503218
-29.789822 665.43335 2745.8591 2700854
-12.579881 665.10132 2744.489 2634804
4.6455431 669.47491 2762.5364 2569268
22.075966 673.20367 2777.9229 2634804
39.480309 673.2002 2777.9084 2569268
57.151577 676.35773 2790.9377 2700597
74.768044 677.53918 2795.813 2503218
92.161331 676.63361 2792.0762 2503218
109.07947 673.08496 2777.4329 2569011
128.32584 682.90283 2817.9456 2898233
146.30984 684.44049 2824.2908 2963769
163.73439 683.31152 2819.6321 2831926
181.34634 683.10846 2818.7942 2568498
199.00735 683.10986 2818.7998 2897720
217.0146 684.20258 2823.3088 3029049
234.70351 684.20258 2823.3088 3094842
250.81409 679.92395 2805.6536 3226685
270.82803 686.09424 2831.1147 2765877
288.56586 686.09424 2831.1147 2897463
307.01172 687.68024 2837.6592 2897463
324.49921 687.06335 2835.1138 2897463
342.17502 686.88861 2834.3928 2832182
358.55508 684.25836 2823.5391 2766647
375.20316 682.36279 2815.7173 2371632
395.46649 686.91718 2834.5105 2305839
413.29477 687.03217 2834.9851 2108460
430.25485 685.75397 2829.7107 2042667
447.79846 685.47009 2828.5393 2305839
464.9281 684.59839 2824.9421 2437425
482.00055 683.70941 2821.2739 2634804
499.28531 683.17395 2819.0642 2832440
516.94763 683.17395 2819.0642 2766647
530.06927 677.3714 2795.1206 2897976
545.19806 674.42297 2782.9541 2766134
560.67572 672.07544 2773.2673 2502705
578.08423 672.11395 2773.4263 2963256
594.09235 670.56952 2767.0532 2897207
612.06671 671.26917 2769.9402 3029049
628.3418 670.11792 2765.1897 3094842
