# .PCD v0.7 - Point Cloud Data file format
VERSION 0.7
FIELDS x y z rgb
SIZE 4 4 4 4
TYPE F F F U
COUNT 1 1 1 1
WIDTH 1265
HEIGHT 1
VIEWPOINT 0 0 0 1 0 0 0
POINTS 1265
DATA ascii
-2471.3245 664.70203 4120.3286 5071198
-2472.3086 671.98633 4165.4819 4807768
-2412.3904 662.6958 4107.8921 4543568
-2381.9719 661.39587 4099.8345 4082761
-2354.375 660.85968 4096.5107 3490623
-2328.5295 660.80872 4096.1948 3688001
-2342.4634 672.17133 4166.6289 3490109
-2316.8816 672.32318 4167.5703 3424059
-2363.2205 693.58673 4299.3779 3489339
-2315.0901 687.29492 4260.3765 3423802
-2288.3975 687.29492 4260.3765 4015427
-2350.385 714.24335 4427.4233 4081476
-2322.8284 714.29944 4427.771 4015683
-2296.7615 714.82062 4431.0015 4213062
-2284.625 719.7431 4461.5151 4081476
-2290.5454 730.54663 4528.4834 3818304
-2280.9312 736.60443 4566.0342 3686718
-2264.4749 740.57843 4590.668 3620925
-2256.0403 747.31183 4632.4067 3818304
-2178.2212 730.93762 4530.9072 4147269
-2167.7415 737.02625 4568.6489 4278855
-2140.8311 737.61664 4572.3086 4213062
-2135.6741 745.81982 4623.1582 4147269
-2122.5081 751.41315 4657.8301 3753024
-2105.043 755.61926 4683.9028 3753024
-2050.3806 746.40344 4626.7759 3687488
-2002.6189 739.47125 4583.8047 3818817
-2018.9448 756.34619 4688.4087 3950660
-1996.3038 758.90582 4704.2754 4081989
-1964.7896 758.11853 4699.395 4016196
-1937.1973 758.84357 4703.8892 3884355
-1884.4891 749.60059 4646.5942 3950149
-1858.7415 750.9599 4655.0205 3818563
-1827.4005 750.06683 4649.4844 3752770
-1798.2699 750.06683 4649.4844 3818820
-1770.793 750.76788 4653.8301 3884613
-1727.5714 744.70526 4616.2495 3950149
-1680.38 736.69598 4566.6016 3818563
-1632.6971 728.18988 4513.8745 3621184
-1590.2141 721.74402 4473.918 3686977
-1562.1836 721.74402 4473.918 3950149
-1547.943 728.23145 4514.1318 3818563
-1523.9437 730.284 4526.8555 3818563
-1485.6392 725.42914 4496.7612 3621184
-1426.2087 709.87158 4400.3237 3489598
-1362.7738 691.66821 4287.4854 3358011
-1327.2604 687.18921 4259.7212 3555134
-1300.572 687.18921 4259.7212 3686976
-1184.5281 638.98688 3960.9265 4278857
-1126.4791 620.67615 3847.4229 5331547
-1098.5371 618.51605 3834.0325 5726304
-1066.9368 614.15344 3806.9897 5923684
-1043.0848 614.15344 3806.9897 3950151
-996.07288 600.198 3720.4836 2239533
-1011.3761 624.02252 3868.166 3160635
-967.21088 611.42377 3790.0693 4015687
-961.33917 623.00745 3861.8735 4081224
-939.07147 624.28918 3869.8191 3883845
-933.51221 637.04102 3948.8645 2370606
-898.69263 629.97595 3905.0698 2699570
-868.21014 625.64069 3878.1968 3620929
-857.14447 635.45068 3939.0063 4277832
-843.9212 644.19531 3993.2124 4607568
-807.33917 635.09894 3936.8262 3225659
-763.22565 619.31787 3839.0029 2173228
-741.43597 621.21381 3850.7554 3554881
-717.30975 621.21381 3850.7554 4870226
-699.36285 626.75146 3885.082 5264985
-653.32538 606.60669 3760.2097 4541775
-644.19867 620.50818 3846.3813 2305069
-620.6712 621.07983 3849.925 3423295
-605.2077 630.09332 3905.7974 4739154
-574.15082 622.94775 3861.5037 4936533
-549.95734 622.94775 3861.5037 4805717
-535.17261 634.0957 3930.6072 1910570
-511.50104 635.28174 3937.959 2634292
-487.76395 636.50232 3945.5254 4147788
-460.2442 632.65369 3921.6687 5002840
-445.24701 646.55536 4007.8416 5266013
-417.20309 642.04095 3979.8577 3226944
-391.79468 641.26611 3975.0549 2042414
-367.5188 642.36566 3981.8706 4805719
-354.28909 664.33832 4118.0737 5135196
-326.76053 660.84448 4096.4165 4872281
-305.72244 671.00031 4159.3701 3621957
-286.75461 688.01605 4264.8467 4016202
-267.97678 709.03162 4395.1172 3753542
-247.96707 731.22809 4532.7075 3621699
-221.88737 738.95148 4580.583 4082249
-196.6844 752.32294 4663.4697 4345678
-170.67351 766.73096 4752.7812 4411214
-140.89586 766.73096 4752.7812 4345422
-112.50642 776.30975 4812.1582 4082507
-81.925446 772.2442 4786.9565 4082507
-52.888622 786.44397 4874.9775 4148300
-22.739315 800.30865 4960.9214 4279886
8.3381186 799.89825 4958.3774 4411472
38.597885 783.53638 4856.9541 4345679
69.805611 792.36066 4911.6538 4148043
101.6831 801.06152 4965.5884 3687492
133.88927 807.66833 5006.5425 3687493
165.70607 809.86401 5020.1528 3819335
197.75121 812.29706 5035.2349 4016713
228.57687 809.74066 5019.3882 3950919
259.68329 808.67682 5012.7939 3885126
291.37048 809.45605 5017.624 3818819
319.21036 800.43616 4961.7119 3489598
348.98337 797.43439 4943.1045 3687234
382.98929 803.80591 4982.6001 3884356
418.97235 813.05389 5039.9263 3818820
448.50931 809.37305 5017.1094 3884613
472.44492 796.72815 4938.7271 3753027
503.31839 796.61871 4938.0483 3687234
534.50464 796.98822 4940.3389 3686720
561.48523 791.38965 4905.6348 3620925
588.57446 786.5174 4875.4326 3555132
616.32098 782.96082 4853.3862 3489339
646.7782 783.02045 4853.7559 3423546
675.82086 781.43909 4843.9536 3489339
701.29138 776.04077 4810.4907 3357755
727.90088 772.29578 4787.2764 3291961
756.17645 770.54492 4776.4233 3226169
786.41107 770.84766 4778.2998 3226169
826.51685 780.44922 4837.8174 3291961
855.15179 778.92297 4828.3569 3489086
880.16486 774.31488 4799.7925 2962743
909.67645 773.83795 4796.8359 3291708
937.914 772.34253 4787.5659 3357503
967.90967 772.34253 4787.5659 3357503
996.83679 771.5155 4782.4399 3554625
1052.215 790.61163 4900.812 3423295
1068.3163 779.94977 4834.7217 3028537
1077.5879 765.02722 4742.2202 3423550
1102.6243 761.79718 4722.1982 3620929
1128.9823 759.62524 4708.7349 3489343
1153.2968 756.22394 4687.6509 3423294
1191.7524 762.03381 4723.665 3095354
1207.4983 753.39276 4670.1011 3292221
1236.7578 753.39276 4670.1011 3226426
1262.4929 751.29535 4657.0996 3292218
1296.4297 754.06317 4674.2568 3358012
1332.2114 757.75806 4697.1606 3292219
1365.9227 760.14105 4711.9321 3292218
1396.8845 760.92566 4716.7954 3489339
1434.9462 765.46484 4744.9331 3555132
1470.2327 768.36963 4762.939 3555389
1518.403 777.75818 4821.1362 3686719
1548.6089 777.75818 4821.1362 3620926
1579.8979 778.29163 4824.4434 3423548
1589.3311 768.24066 4762.1396 3686719
1623.7786 770.42853 4775.7017 3291961
1678.4159 781.9433 4847.0791 3423547
1707.724 781.45807 4844.0713 3357754
1744.1223 784.17761 4860.9292 3291961
1786.9022 789.62396 4894.6895 3226169
1827.186 793.80194 4920.5879 3028790
1859.7189 794.52991 4925.1001 3094583
1890.5934 794.53711 4925.145 3094583
1924.7969 795.92065 4933.7212 3094583
1969.7703 801.64355 4969.1963 3226169
2009.5815 805.12024 4990.7471 3226169
2047.0951 807.5838 5006.0186 3226169
2072.3076 805.1936 4991.2021 3226169
2105.6616 805.99078 4996.1436 3226169
2132.8484 804.43854 4986.5215 3226169
2167.8884 805.85028 4995.2725 3160376
2199.1853 805.85028 4995.2725 3028791
2213.5425 799.7301 4957.335 2963254
2236.2771 796.7641 4938.9497 3489341
2330.8496 819.12488 5077.5591 3620928
2349.3984 814.52643 5049.0542 3555135
2366.1863 809.44775 5017.5723 3489340
2386.335 805.63696 4993.9502 3423548
2416.5798 805.28906 4991.7939 3357754
2451.1187 806.36273 4998.4492 3555133
2502.6782 812.93823 5039.209 3752513
2515.2595 806.84625 5001.4463 3555132
2517.5586 797.64648 4944.4194 3291704
2523.9478 789.9505 4896.7139 3093812
2529.7683 782.26355 4849.0645 3291447
2550.8042 779.4082 4831.3643 3685948
2553.2053 770.99261 4779.1982 3751229
2549.2837 760.88495 4716.5435 3619900
2564.2749 756.58923 4689.915 4144703
2546.9468 742.96301 4605.4497 3355443
2557.6836 737.73712 4573.0557 2236449
2496.4597 712.10065 4414.1411 2564643
2524.3779 712.17468 4414.6001 2630693
2578.7483 719.62878 4460.8062 2893865
2614.8308 721.87445 4474.7266 3025965
2615.9915 714.53375 4429.2236 3355187
2648.4583 715.80841 4437.125 3750457
2713.5378 725.77948 4498.9331 3619385
2741.7249 725.77948 4498.9331 3619386
2795.7373 732.54633 4540.8789 3685948
2830.2822 734.12714 4550.6782 3620155
2886.9558 741.35907 4595.5073 3620155
2953.4399 750.94269 4654.9136 3620155
2999.2217 755.1264 4680.8477 3554362
3030.4478 755.59998 4683.7832 3554362
3084.1299 761.6098 4721.0366 3751742
3137.4946 767.4278 4757.1011 3751743
3198.8655 775.07623 4804.5117 3751743
3251.2976 780.43634 4837.7378 3949122
3247.24 772.263 4787.0732 3949123
3325.4724 783.63049 4857.5376 3685950
3349.6721 782.17474 4848.5137 3685950
3356.4316 776.70941 4814.6353 3620157
3381.6768 775.58099 4807.6406 3422778
3393.5315 771.42859 4781.9009 3356983
3402.3049 766.65442 4752.3071 3356983
3415.7014 762.99591 4729.6289 3488569
3445.334 762.99591 4729.6289 3422776
3449.4895 757.40198 4694.9531 3554362
3467.8264 754.98999 4680.002 3554362
3483.8547 752.12012 4662.2124 3225397
3500.5713 749.44543 4645.6323 3093811
3529.678 749.44543 4645.6323 3291190
3553.7231 748.37958 4639.0254 3422776
3504.0994 731.94299 4537.1392 3488569
3495.3616 724.24243 4489.4053 3554362
3465.0715 712.23492 4414.9736 3554362
3461.8306 705.93335 4375.9116 3488569
3478.824 703.82465 4362.8403 3554362
3491.3101 700.84387 4344.3633 3356983
3466.9285 690.56592 4280.6523 3422776
3486.8999 689.21228 4272.2617 3619386
3511.7737 688.84088 4269.9595 3619642
3508.218 682.9408 4233.3862 3290933
3433.8425 663.44629 4112.5444 3290933
3375.209 647.26105 4012.2161 3224884
3404.1904 647.99268 4016.7512 3488314
3404.6858 643.33105 3987.8547 3948867
3363.4487 630.90918 3910.8547 5396059
3269.147 608.78522 3773.7136 5725799
3289.8086 608.23389 3770.2961 6712694
3261.6924 598.73651 3711.4241 6844534
3352.2341 611.00098 3787.4485 3752518
3544.5867 641.51935 3976.6245 3095096
3668.4934 659.31036 4086.9067 3356986
3717.3154 663.45392 4112.5918 3356983
3781.0278 670.17975 4154.2837 3356727
3875.0779 682.15411 4228.5098 3291190
3931.2529 687.34375 4260.6792 3291192
3966.7773 688.8772 4270.1846 3159606
4032.1824 695.54443 4311.5132 3093813
4106.1304 703.58679 4361.3657 3422778
4154.4722 707.16412 4383.541 3488571
4202.1323 710.57928 4404.7104 3554364
4291.2368 720.91235 4468.7627 3554364
4376.8574 730.52991 4528.3799 3554364
4414.54 732.07397 4537.9512 3422778
4491.938 740.14215 4587.9639 3554364
4531.8267 741.96674 4599.2739 3488571
4586.2925 746.13965 4625.1406 3488571
4621.9565 747.22058 4631.8413 3488571
4624.7642 743.00934 4605.7368 3488571
4696.5518 749.86383 4648.2261 3422778
4729.3428 750.44598 4651.8345 3356985
4762.3384 751.05322 4655.5986 3554364
nan nan nan 16777215
nan nan nan 16777215
nan nan nan 16777215
nan nan nan 16777215
nan nan nan 16777215
nan nan nan 16777215
-4020.4707 718.08783 4285.6909 3422778
-3991.0073 717.61816 4282.8877 3488571
-3965.4338 717.84631 4284.2495 3488571
-3955.0059 720.83795 4302.104 3422778
-3929.2368 721.05536 4303.4019 3422778
-3949.6902 729.81671 4355.6914 3422778
-3962.0681 737.19751 4399.7412 3422778
-3948.0154 739.72943 4414.8521 3488571
-3902.9451 736.44434 4395.2461 3488571
-3884.5999 738.19116 4405.6714 3488571
-3895.2517 745.5127 4449.3682 3488571
-3878.4504 747.64777 4462.1104 3554364
-3871.915 751.80701 4486.9336 3620157
-3852.7063 753.5484 4497.3267 3685950
-3826.3545 753.90808 4499.4731 3488827
-3774.8818 749.28674 4471.8921 3489598
-3763.3501 752.58362 4491.5684 3686721
-3757.5872 757.09241 4518.478 3818305
-3740.0476 759.27887 4531.5273 3752513
-3737.2222 764.50885 4562.7407 3818563
-3723.4539 767.5636 4580.9722 3818306
-3689.667 766.50708 4574.6665 3752513
-3635.7874 761.22711 4543.1548 3620927
-3591.9497 757.98303 4523.7935 3489341
-3563.5811 757.9776 4523.7607 3555134
-3520.8044 754.88287 4505.291 3620927
-3483.1006 752.83447 4493.0659 3555134
-3452.9954 752.40857 4490.5239 3555134
-3415.157 750.27679 4477.8013 3489341
-3359.1526 744.08563 4440.8511 3555134
-3306.0322 738.43536 4407.1289 3555134
-3238.1523 729.3653 4352.9971 3620927
-3211.1335 729.4231 4353.3418 3489598
-3184.0144 729.45874 4353.5547 3423548
-3148.2168 727.48969 4341.8032 3423803
-3092.9712 720.95306 4302.791 3489595
-3062.0923 720.03119 4297.2891 3620925
-3022.1934 716.95306 4278.9185 3620925
-2985.3267 714.54572 4264.5508 3489339
-2934.4897 708.72083 4229.7866 3555388
-2907.9888 708.72083 4229.7866 3620925
-2892.8901 711.52527 4246.5244 3620925
-2867.6284 711.85895 4248.5156 3686974
-2841.6736 712.02509 4249.5073 3752511
-2801.9553 708.71326 4229.7417 3621438
-2750.7627 702.40814 4192.1113 3489852
-2719.4482 701.10626 4184.3418 3555644
-2700.2627 702.93652 4195.2651 3490109
-2685.4644 705.95605 4213.2861 3819073
-2599.1201 690.04083 4118.3008 3687745
-2539.0415 680.84955 4063.4453 3621694
-2511.1138 680.18085 4059.4543 3424319
-2504.6846 685.38116 4090.4912 3095350
-2478.4238 685.20636 4089.4475 2897972
-2426.7676 677.93341 4046.0413 2766643
-2420.6001 683.34863 4078.3604 2766385
-2394.4705 683.1839 4077.3774 2831922
-2343.2766 675.78723 4033.2324 3029301
-2315.179 674.96265 4028.3113 3226680
-2293.4539 675.99829 4034.4919 3292473
-2307.9526 687.85309 4105.2437 3686462
-2307.5449 695.48218 4150.7759 3949890
-2272.615 692.76184 4134.5405 4147269
-2245.2327 692.30609 4131.8203 4410441
-2244.0911 700.02527 4177.8901 4278855
-2211.7932 698.09302 4166.3579 4278855
-2176.5767 695.18231 4148.9863 4278855
-2146.6448 693.90967 4141.3906 4278855
-2120.6975 693.90967 4141.3906 3884097
-2153.9727 713.52759 4258.4746 3752511
-2150.2019 721.21198 4304.3364 3884097
-2136.595 725.75037 4331.4224 3818304
-2130.2881 732.91718 4374.1953 3686718
-2064.1196 719.40717 4293.5649 4081476
-2041.8411 721.03937 4303.3062 4147269
-2037.4362 729.11145 4351.4819 4081476
-2035.6313 738.34552 4406.5928 4015683
-2005.4894 737.414 4401.0332 3753281
-1997.3607 744.6637 4444.3008 3818817
-1956.9645 739.91803 4415.978 3753024
-1931.9183 740.92334 4421.978 3687231
-1914.8903 745.07776 4446.772 3950403
-1891.5809 746.87469 4457.4966 3884867
-1876.4154 751.9892 4488.021 3950403
-1834.5236 746.38562 4454.5776 3818563
-1801.8364 744.41168 4442.7969 3818563
-1774.8477 744.76703 4444.9175 3818563
-1742.6031 742.89307 4433.7334 3884356
-1713.7794 742.44037 4431.0317 3950149
-1681.9893 740.66638 4420.4443 4015942
-1646.7136 737.27258 4400.1895 3950149
-1608.1168 732.25098 4370.2192 3818563
-1551.7593 718.82794 4290.1079 4015942
-1521.4025 717.18835 4280.3228 4213321
-1482.3102 711.29828 4245.1694 3950149
-1476.1281 721.27368 4304.7046 3818820
-1466.9042 730.10638 4357.4199 3555391
-1382.8839 701.34052 4185.7397 3226426
-1344.2733 694.93762 4147.5259 2963254
-1316.9667 694.24121 4143.3696 3620928
-1274.8816 685.5697 4091.6162 4345165
-1209.3445 663.67206 3960.9265 5266525
-1156.3612 647.89062 3866.7402 6121577
-1122.5586 642.41034 3834.0325 6121320
-1065.1912 622.90997 3717.6506 5594976
-1034.5195 618.49823 3691.3203 2634292
-1007.155 615.90698 3675.8552 2634291
-989.50128 619.27191 3695.9377 4673874
-963.17603 617.24109 3683.8174 5331292
-936.95068 615.17609 3671.4932 4804947
-915.73462 616.37891 3678.6716 2962743
-901.42004 622.40912 3714.6611 1712676
-876.36163 621.14404 3707.1108 3094329
-854.95844 622.47131 3715.0325 4475982
-844.638 632.16772 3772.9026 4278860
-829.04218 638.36047 3809.8623 4409419
-802.98444 636.62598 3799.5103 2632752
-762.33881 622.86652 3717.3911 1975078
-740.84875 624.38403 3726.4478 4014659
-721.01587 627.44232 3744.7007 4936018
-692.50189 622.89789 3717.5784 5067349
-667.86615 621.64697 3710.1125 5659487
-642.63977 619.73621 3698.7087 2501422
-624.18311 624.4552 3726.8726 2172714
-610.33386 634.32947 3785.8042 5199448
-587.52203 635.31067 3791.6604 4738896
-558.6944 629.59534 3757.5498 4738641
-532.28125 626.21777 3737.3921 3291195
-509.63858 627.16931 3743.071 1318431
-489.41333 631.33112 3767.9094 2700084
-473.15924 641.297 3827.3882 4410704
-447.92239 639.50232 3816.6768 4476239
-424.37271 640.04968 3819.9438 4542288
-402.01099 642.5614 3834.9343 2766134
-372.69675 633.57336 3781.2917 1910570
-355.35233 645.09467 3850.0532 4147788
-335.2677 652.95728 3896.979 4476752
-319.77173 671.69373 4008.8018 4278860
-292.9606 667.83038 3985.7444 3621187
-272.08234 678.03192 4046.6292 2963513
-259.77969 713.89636 4260.6753 3160635
-235.01405 719.80402 4295.9336 3358014
-215.95334 746.97284 4458.0825 3489598
-190.0647 755.08783 4506.5142 3358012
-163.97389 765.09113 4566.2158 3094841
-136.649 772.34753 4609.5234 3094840
-107.7689 772.34753 4609.5234 3226426
-79.047554 773.90173 4618.7993 3226170
-50.442261 779.0434 4649.4858 3489598
-21.201374 775.00708 4625.3965 3621184
7.7830272 775.49109 4628.2847 3555391
36.719822 774.20819 4620.6284 3555391
60.517902 713.47369 4258.1528 3292479
92.173744 754.19891 4501.209 2963253
121.63904 762.11725 4548.4673 3292475
150.21736 762.52728 4550.9146 3357755
180.54485 770.26898 4597.1182 3292219
209.31606 770.15436 4596.4341 3358011
238.5762 771.64886 4605.3535 3292219
265.41586 765.83667 4570.6655 3226169
297.49643 774.80609 4624.1968 3094581
326.46844 774.80609 4624.1968 3357754
351.74072 766.74121 4576.064 3358266
380.95401 767.83527 4582.5938 3555391
410.26663 768.96222 4589.3193 3753281
439.02011 768.96222 4589.3193 3753024
467.40741 768.36017 4585.7261 3687232
496.92902 769.58459 4593.0337 3752511
525.59692 769.42517 4592.0825 3686718
554.08521 769.03302 4589.7417 3555132
580.78296 766.31708 4573.5327 3555132
609.69946 766.64642 4575.498 3555132
638.22607 766.47784 4574.4922 3489339
659.86682 758.40967 4526.3398 3423546
686.50787 756.5166 4515.0415 3291960
713.35962 754.9964 4505.9688 3357752
741.88599 755.29688 4507.7617 3423548
767.7243 752.9389 4493.689 3555134
786.65259 744.21057 4441.5967 3423804
811.5672 741.54865 4425.7095 3686466
833.50885 736.43579 4395.1953 3818051
855.69196 731.85645 4367.8647 3818053
880.6983 729.90076 4356.1929 3686724
902.19666 725.24274 4328.3931 3620674
932.16284 727.4649 4341.6553 3555138
967.73273 733.8103 4379.5259 3554881
997.37708 735.4364 4389.2305 3357502
1024.877 735.4364 4389.2305 3620674
1061.7415 741.98071 4428.2881 3620673
1086.3158 739.82159 4415.4023 3686210
1118.142 742.58594 4431.9004 3555393
1153.2693 747.35547 4460.3662 3358015
1182.6093 748.23773 4465.6313 3358012
1210.5878 748.23773 4465.6313 3358012
1252.0946 756.41034 4514.4072 3160633
1279.5901 755.94446 4511.6265 3226426
1308.7428 756.45648 4514.6826 3423805
1340.4519 758.39325 4526.2417 3358012
1369.0121 758.50513 4526.9092 3358013
1397.5863 758.62 4527.5952 3489598
1436.531 764.24762 4561.1816 3423806
1462.7972 763.04205 4553.9868 3357755
1491.5527 763.15643 4554.6689 3226426
1522.4246 764.32886 4561.6665 3489598
1558.4033 767.97479 4583.4263 3489598
1611.3911 779.71918 4653.519 3752511
1634.8658 777.01904 4637.4043 3752512
1662.3265 776.27478 4632.9619 3884098
1716.9883 788.04022 4703.1807 3884099
1723.6429 777.74683 4641.7476 3555134
1734.8689 769.82343 4594.4595 3358012
1766.0968 770.88947 4600.8213 3357755
1797.1208 771.83362 4606.4565 3357755
1832.7931 774.71283 4623.6401 3291963
1864.588 775.88892 4630.6592 3291963
1901.1853 778.9967 4649.207 3357756
1933.0222 780.0896 4655.73 3423549
1956.8173 777.95294 4642.9775 3555134
1978.9202 775.21594 4626.6426 3489342
2025.8553 782.1452 4667.998 3423548
2079.8489 791.5636 4724.209 3226168
2125.991 797.77161 4761.2593 3291960
2162.9575 800.41223 4777.019 3489338
2186.7878 798.18597 4763.7324 3555132
2203.7332 793.54047 4736.0073 3555132
2234.8838 794.06561 4739.1416 3423546
2249.9209 788.92682 4708.4722 3423546
2279.4209 788.92682 4708.4722 3291960
2328.6121 795.65503 4748.6274 3291960
2366.1667 798.28766 4764.3394 3357753
2424.4548 807.76239 4820.8862 3423289
2400.3613 789.89447 4714.2471 3356983
2417.9016 785.99487 4690.9736 3225396
2435.8589 782.32294 4669.0586 3422007
2450.1912 777.58771 4640.7979 3553849
2467.3164 773.83942 4618.4277 3619642
2491.906 772.49219 4610.3867 3553335
2519.4402 772.07806 4607.915 3420979
2541.6624 770.06384 4595.894 3025965
2523.3745 755.95874 4511.7119 2302242
2479.4651 734.5755 4384.0923 2368035
2504.7266 733.92896 4380.2339 2499620
2521.2397 730.76093 4361.3262 2696743
2528.6562 725.05237 4327.2568 2697000
2531.0286 718.03412 4285.3701 3157807
2585.8071 725.87433 4332.1621 3618616
2627.8145 730.00378 4356.8076 3618872
2655.7722 730.18549 4357.8921 3684921
2712.7422 738.25903 4406.0767 3750971
2746.9165 740.02875 4416.6387 3619642
2798.7014 746.46014 4455.0225 3685434
2848.8079 752.32129 4490.0029 3620155
2902.0527 758.88849 4529.1973 3488569
2930.4294 758.88849 4529.1973 3488569
2988.3232 766.45911 4574.3804 3488569
3024.8811 768.46564 4586.3555 3488568
3051.7996 768.00842 4583.627 3356983
3093.5071 771.24695 4602.9551 3422776
3122.7488 771.34644 4603.5488 3356984
3158.3027 772.98901 4613.3521 3422776
3187.207 772.98901 4613.3521 3488570
3222.6772 774.5672 4622.771 3620155
3251.502 774.53424 4622.5742 3356983
3269.4451 771.93268 4607.0479 3422776
3280.4014 767.74146 4582.0337 3422776
3296.697 764.86176 4564.8467 3422776
3310.0576 761.35638 4543.9263 3422776
3322.8499 757.78131 4522.5894 3554362
3326.5171 752.20325 4489.2983 3554362
3343.532 749.71161 4474.4277 3488569
3393.5671 754.604 4503.6265 3291190
3396.2974 748.98346 4470.082 3422776
3390.0813 741.49811 4425.4082 3554362
3358.7097 728.6767 4348.8872 3620155
3308.8994 712.09351 4249.9155 3685948
3301.323 704.79144 4206.3354 3685948
3286.7903 696.13177 4154.6528 3751741
3296.3352 692.66772 4133.9785 3685948
3274.6296 682.74213 4074.7405 3685948
3277.5854 678.0719 4046.8682 3620155
3302.9402 678.0719 4046.8682 3685948
3326.2668 677.65869 4044.4019 3751228
3336.4248 674.58923 4026.0825 3685435
3323.4866 666.93103 3980.3767 3817021
3301.7671 657.63782 3924.9133 3817023
3332.9939 658.94977 3932.7432 3289909
3357.573 658.93781 3932.6719 1974306
3413.9272 665.1167 3969.5486 1974050
3336.3684 645.3053 3851.3103 2500650
3304.3218 634.51788 3786.929 2631980
3285.3669 626.38037 3738.3628 3092786
3315.2876 627.61072 3745.7056 3553337
3449.2388 648.37903 3869.655 3290935
3563.6492 665.20984 3970.1047 3356471
3623.3958 671.67426 4008.6853 3422264
3692.1743 679.7124 4056.6587 3422264
3787.8984 692.56726 4133.3789 3488571
3851.4912 699.41272 4174.2339 3488571
3877.8662 699.45276 4174.4731 3488571
3957.0508 708.95374 4231.1768 3554364
3995.8984 711.14954 4244.2817 3554364
4023.7297 711.36871 4245.5898 3488571
4074.8696 715.67871 4271.3125 3554364
4151.1895 724.32605 4322.9219 3422778
4204.1519 728.81207 4349.6953 3356985
4246.8247 731.46814 4365.5474 3488571
4297.8647 735.52203 4389.7417 3554364
4349.4873 739.62354 4414.2202 3554364
4396.1748 742.83929 4433.4126 3291192
4434.1089 744.54486 4443.5918 3291192
4468.5259 745.64221 4450.1411 3554364
4502.0469 746.57745 4455.7227 3554364
4529.9634 746.57745 4455.7227 3554364
4537.4502 743.23114 4435.751 3488571
nan nan nan 16777215
nan nan nan 16777215
nan nan nan 16777215
nan nan nan 16777215
nan nan nan 16777215
nan nan nan 16777215
-3743.894 693.56085 3990.8694 3356985
-3829.4473 714.17938 4109.5122 3620157
-3813.2427 715.97113 4119.8223 3751743
-3800.6914 718.47791 4134.2466 3685950
-3787.3955 720.87744 4148.0537 3751743
-3777.9871 724.05505 4166.3384 3685950
-3790.6453 731.53546 4209.3818 3554364
-3743.0662 727.41437 4185.6685 3685950
-3694.978 723.13544 4161.0469 3817536
-3679.2915 725.18207 4172.8237 3751743
-3662.9336 727.12476 4184.002 3817536
-3636.7197 727.12476 4184.002 3817536
-3625.1477 730.07349 4200.9697 3883329
-3592.4978 728.78943 4193.5811 3883586
-3552.3291 725.94995 4177.2422 3818306
-3536.2397 728.0257 4189.186 3752513
-3531.5317 732.4931 4214.8926 3686977
-3528.3411 737.34497 4242.811 3686977
-3501.7832 737.35016 4242.8408 3686720
-3491.3389 740.77435 4262.5439 3686720
-3501.2715 748.60803 4307.6206 3686977
-3447.46 742.82843 4274.3638 3620927
-3363.1653 730.33868 4202.4956 3291962
-3349.7637 733.1684 4218.7783 3226169
-3365.8323 742.54449 4272.73 3226169
-3332.6116 741.10999 4264.4756 3291962
-3284.7917 736.37952 4237.2554 3423548
-3248.5649 734.19196 4224.668 3423547
-3199.2959 728.99664 4194.7734 3554618
-3156.6648 725.24042 4173.1592 3685692
-3086.2888 714.99377 4114.1982 3619898
-3037.8516 709.69983 4083.7361 3291189
-3017.2327 710.87006 4090.47 3423032
-2970.9722 705.96735 4062.2585 3686461
-2920.9397 700.07587 4028.3579 3620924
-2887.5371 698.10217 4017.0012 3621181
-2862.5874 698.15533 4017.3071 3292216
-2821.7339 694.29633 3995.1016 3292217
-2792.2063 693.17993 3988.6775 3423546
-2757.7346 690.80487 3975.011 3489339
-2732.7678 690.78906 3974.9204 3555132
-2709.5737 691.22534 3977.4307 3686718
-2700.8059 695.38409 4001.3608 3620925
-2657.7368 690.7063 3974.4438 3686718
-2633.1899 690.79926 3974.979 3555132
-2604.3506 689.75714 3968.9822 3555644
-2579.4839 689.75714 3968.9822 3489852
-2563.4546 692.14331 3982.7129 3555389
-2566.9419 699.89777 4027.3333 2962995
-2512.5559 691.87 3981.1399 2831410
-2417.7627 672.44275 3869.3525 3160374
-2394.2795 672.65625 3870.5808 3094580
-2385.312 676.99377 3895.5396 3028788
-2347.5579 673.16638 3873.5161 3160117
-2315.376 670.87366 3860.3232 3356726
-2321.0725 679.62347 3910.6711 3225654
-2296.571 679.62347 3910.6711 3291704
-2235.3186 668.63043 3847.4155 2896945
-2241.8806 677.90369 3900.7754 2962739
-2249.3289 687.65222 3956.8701 3028788
-2247.0269 694.60406 3996.8723 3884097
-2242.3232 700.96191 4033.4565 4015940
-2197.6804 694.8371 3998.2131 4344648
-2160.5149 690.96234 3975.9172 4213062
-2148.7739 695.22321 4000.4351 4213062
-2131.5776 697.79889 4015.2556 4278855
-2106.4431 697.80621 4015.2981 4673613
-2059.5381 690.51459 3973.3408 4213062
-2074.4197 704.01373 4051.0171 3752511
-2064.9888 709.49377 4082.5503 3818304
-2028.6121 705.73724 4060.9343 3884097
-2003.1691 705.73724 4060.9343 3686974
-2004.7688 715.38721 4116.4624 3686718
-1985.281 717.66571 4129.5732 3620925
-1963.3077 719.09418 4137.7925 3620925
-1939.4518 719.86194 4142.2104 3818304
-1923.8638 723.76093 4164.646 3818304
-1900.1771 724.67853 4169.9263 3687488
-1884.9532 728.89429 4194.1841 3818817
-1848.7946 725.01941 4171.8877 3818817
-1822.5566 724.97974 4171.6592 3819074
-1799.7407 726.31995 4179.3711 3884610
-1782.8022 730.10669 4201.1606 3950403
-1768.9126 735.27423 4230.8955 4016196
-1731.422 730.63965 4204.2271 4081734
-1705.1498 730.66901 4204.396 4015942
-1678.8079 730.66901 4204.396 4015942
-1645.1289 727.42468 4185.728 3950149
-1620.7279 728.24426 4190.4438 3752770
-1587.2423 724.94153 4171.4395 3752770
-1562.7017 725.68207 4175.7007 3818563
-1522.8168 719.20105 4138.4077 3686977
-1484.5004 713.24902 4104.1587 3950149
-1470.6703 719.05945 4137.5928 4147528
-1438.8027 716.10089 4120.5688 3950149
-1410.0004 714.58771 4111.8618 3752770
-1375.3232 709.98553 4085.3801 3489599
-1331.8417 700.57745 4031.2441 3423805
-1283.5375 688.21979 3960.136 3291963
-1258.7261 688.21979 3960.136 3357756
-1228.1816 685.02222 3941.7366 3555134
-1173.2423 667.80792 3842.6826 3686977
-1114.7186 647.78931 3727.4922 4015943
-1085.9211 644.55817 3708.8997 3358012
-1056.3009 640.68677 3686.6228 2371116
-1031.4865 639.62231 3680.4978 3028537
-1021.7916 648.09912 3729.2749 3554880
-981.69647 637.23932 3666.7856 3488060
-955.52802 635.11572 3654.5662 3225401
-931.22693 634.15961 3649.0645 2961970
-901.10791 629.09357 3619.9136 2567469
-876.73169 627.87866 3612.9229 2501420
-863.43469 634.74426 3652.4287 2699055
-845.06805 638.15521 3672.0559 2764848
-825.57391 640.8819 3687.7456 2830385
-802.10712 640.59283 3686.0823 2699054
-774.24353 636.67108 3663.5161 2567213
-751.17712 636.57501 3662.9634 2501676
-722.98804 631.995 3636.6089 3225399
-702.69214 634.24121 3649.5339 3225142
-679.82672 634.24121 3649.5339 3290935
-667.86615 644.76898 3710.1125 3027763
-642.81958 642.96698 3699.7437 2567213
-617.04425 640.27399 3684.2476 2698798
-603.2934 650.33374 3742.1333 2501419
-580.26483 650.80151 3744.8247 2435370
-561.34753 656.11401 3775.394 2698544
-527.35236 643.49536 3702.7839 2567216
-501.41516 640.00043 3682.6736 2698286
-482.9902 646.21948 3718.459 2698542
-463.68542 651.83197 3750.7544 2237993
-439.71997 651.14215 3746.7852 2040613
-417.1806 652.60547 3755.2051 1909027
-389.46075 645.65533 3715.2129 2632493
-366.18378 645.65533 3715.2129 2895921
-348.7746 656.70367 3778.7871 2172454
-328.90588 664.39294 3823.0325 1711647
-308.52228 672.1684 3867.7737 1646367
-294.5722 696.48065 4007.6707 2370347
-270.48175 699.11407 4022.8237 3094840
-246.26389 701.92554 4039.0012 3291705
-225.21541 715.44928 4116.8193 3358012
-202.3353 725.90009 4176.9551 3292218
-179.23888 738.56464 4249.8291 3226429
-154.21623 746.32648 4294.4922 3292221
-128.73584 754.68567 4342.5923 3358014
-101.23619 752.51544 4330.1045 3424320
-73.87368 750.14874 4316.4863 3424320
-46.96608 752.33582 4329.0708 3358524
-19.864075 753.13074 4333.645 3357755
7.2562852 749.89923 4315.0503 3094840
33.839252 740.01117 4258.1528 3095096
59.418678 726.56995 4180.8096 3226173
86.210526 731.64307 4210.0015 3160632
112.81287 733.10773 4218.4292 3226427
141.33722 744.13568 4281.8857 3489599
170.84013 755.97516 4350.0122 3489601
196.84819 751.21967 4322.6484 3489600
222.72084 747.16022 4299.2896 3226426
248.62111 744.05939 4281.4468 3226426
275.04816 742.98553 4275.2676 3226426
299.89371 738.20929 4247.7842 3489598
331.36417 749.19006 4310.9697 3555392
361.96613 756.70007 4354.1836 3423805
385.99423 750.37775 4317.8037 3292475
412.55725 749.48877 4312.6885 3489598
441.39468 752.58691 4330.5156 3818817
469.77368 754.58997 4342.0415 3555132
494.7944 751.2746 4322.9644 3357753
519.47595 747.81506 4303.0576 3423546
547.05841 748.66699 4307.96 3489339
575.38757 750.41254 4318.0039 3489339
603.32056 751.50793 4324.3071 3357753
626.89795 747.31689 4300.1909 3291960
649.15485 741.96191 4269.3774 3357752
675.1142 741.09509 4264.3896 3226167
699.70636 738.85059 4251.4746 3357755
713.28094 725.56348 4175.0181 3357755
737.1734 723.34064 4162.2275 3291706
760.51361 720.7464 4147.2998 3686466
783.17371 717.7002 4129.7715 3620673
802.90045 712.24677 4098.3916 3554881
828.57819 712.24677 4098.3916 3489087
859.1839 716.35565 4122.0347 3423294
887.90881 718.70221 4135.5371 3554624
922.22009 725.30933 4173.5557 3620418
947.66064 724.76782 4170.4399 3620673
973.89056 724.84283 4170.8716 3620673
1011.5221 733.17816 4218.8345 3554880
1039.3345 734.15302 4224.4438 3620674
1077.4873 742.20215 4270.7603 3621186
1104.3787 742.29205 4271.2773 3226428
1119.1997 734.45679 4226.1919 3160633
1147.4116 735.56812 4232.5864 3358012
1189.8228 745.52612 4289.8867 3292219
1217.4846 746.00684 4292.6528 3358012
1244.8365 746.28082 4294.2295 3292220
1272.2327 746.56927 4295.8892 3292219
1303.355 748.987 4309.8013 3292220
1333.2472 750.61407 4319.1636 3292220
1360.8734 750.92596 4320.9585 3292219
1391.6107 752.90894 4332.3687 3357755
1431.3167 759.57556 4370.7295 2963254
1463.0182 761.82385 4383.6665 3094584
1497.97 765.65045 4405.6855 3160377
1515.0411 760.36481 4375.271 2897205
1537.9659 758.15259 4362.5415 2897203
1575.8622 763.26904 4391.9824 3226167
1608.8745 765.88495 4407.0352 3423546
1622.5635 759.36914 4369.542 3489339
1638.7112 754.20123 4339.8047 3357754
1665.9015 754.20123 4339.8047 3423546
1699.037 756.84961 4355.0439 3357755
1735.2096 760.74573 4377.4629 3357756
1777.2137 767.0376 4413.6675 3291963
1809.2639 768.90631 4424.4204 3357755
1845.6335 772.52655 4445.252 3357755
1869.6332 770.9386 4436.1143 3357755
1914.1719 777.74219 4475.2637 3489340
1940.1083 776.90027 4470.4189 3291963
1977.1008 780.44659 4490.8252 3423546
2024.6536 788.00354 4534.3091 3423546
2067.7981 793.6593 4566.8535 3357753
2096.4106 793.6593 4566.8535 3357753
2123.2925 793.01276 4563.1333 3423546
2114.4529 779.21948 4483.7642 3423546
2147.3115 780.95294 4493.7388 3357754
2180.1169 782.6225 4503.3457 3357755
2227.6377 789.46442 4542.7153 3226168
2261.4651 791.34204 4553.5195 3028790
2291.5542 791.88116 4556.6216 3160374
2315.4146 790.28088 4547.4136 3291190
2343.9053 790.28088 4547.4136 3159604
2395.1975 797.87628 4591.1187 3291446
2367.0039 779.12775 4483.2363 3488312
2363.9321 768.99115 4424.9087 3685435
2373.2893 763.08582 4390.9282 3554106
2442.7839 776.4303 4467.7148 3816250
2453.9482 771.14246 4437.2876 3684921
2455.3667 762.9447 4390.1162 3684921
2465.3552 757.56207 4359.1436 3421750
2431.679 739.02692 4252.4893 3224370
2433.6973 731.62408 4209.8921 3224626
2449.2866 728.41608 4191.4326 3355956
2472.6287 727.55731 4186.4912 3487542
2497.498 727.16132 4184.2124 3553335
2533.334 729.93323 4200.1626 3750714
2561.7415 730.52985 4203.5957 3619642
2608.3105 736.24072 4236.457 3422263
2639.1995 737.4552 4243.4453 3488056
2677.4761 740.68915 4262.0537 3948607
2736.7573 749.61249 4313.4004 3685948
2774.4431 752.50397 4330.0386 3620155
2812.8914 755.54431 4347.5332 3751741
2876.4092 765.19556 4403.0679 3620155
2910.8323 766.99695 4413.4336 3422776
2938.4839 766.99695 4413.4336 3225397
2982.9766 771.35181 4438.4922 3291190
3032.7485 776.97876 4470.8706 3356983
3049.4807 774.11554 4454.395 3554362
3072.9832 773.00726 4448.0181 3488569
3095.115 771.57727 4439.7896 3751741
3122.3174 771.42548 4438.916 3620155
3145.6365 770.32538 4432.5859 3488569
3169.1213 769.28485 4426.5986 3422776
3172.8013 763.49652 4393.2915 3554362
3179.3457 758.49115 4364.4897 3554362
3194.5767 755.62579 4348.002 3554362
3206.3184 751.99054 4327.084 3620155
3215.9124 747.91675 4303.6431 3751741
3243.5349 748.06879 4304.5176 3620155
3247.1394 742.72449 4273.7656 3554362
3260.4832 739.67712 4256.2305 3620155
3239.752 729.0116 4194.8594 3685948
3252.4858 725.98755 4177.4585 3685948
3247.8901 719.1745 4138.2549 3685948
3255.1377 715.07098 4114.6426 3685948
3267.5916 712.16669 4097.9307 3948607
3243.8018 701.46997 4036.3801 3817278
3239.6445 695.15143 4000.0222 3685691
3262.7324 694.73126 3997.6042 3685692
3287.7786 694.73126 3997.6042 3817021
3294.6287 690.91528 3975.6465 4013886
3314.7871 689.9267 3969.958 4145472
3306.1814 683.01038 3930.1604 4013373
3312.0298 679.1604 3908.0068 3026222
3310.5237 673.86987 3877.564 2301985
3307.312 668.31171 3845.5813 2170398
3303.7861 662.77094 3813.699 2367520
3349.1899 667.05505 3838.3506 2236194
3402.8345 672.90765 3872.0273 2697001
3390.2842 665.68011 3830.4387 3749689
3443.7163 671.41864 3863.4592 4079167
3435.0044 665.04547 3826.7871 4013886
3498.3447 672.61389 3870.3372 3882045
3561.2991 680.00446 3912.8635 3881789
3619.4214 686.37762 3949.5361 3685436
3671.3379 691.4953 3978.9839 3620413
3692.9504 690.87476 3975.4133 3685950
3726.1174 692.40967 3984.2454 3620157
3767.8882 695.51227 4002.0984 3620157
3823.1104 701.04047 4033.9084 3488571
3853.9817 702.06018 4039.7761 3422778
3927.7754 710.83447 4090.2651 3356985
3985.1316 716.53949 4123.0928 3356985
4021.4719 718.41675 4133.8945 3422778
4075.647 723.43561 4162.7739 3554364
4161.521 733.98151 4223.457 3488571
4192.4648 734.76703 4227.9771 3422778
4245.1753 739.33362 4254.2539 3356985
4268.4653 738.7514 4250.9038 3356985
4311.5396 741.57916 4267.1753 3422778
4315.5508 737.69489 4244.8242 3488571
4327.8755 735.27039 4230.8735 3554364
nan nan nan 16777215
nan nan nan 16777215
nan nan nan 16777215
nan nan nan 16777215
nan nan nan 16777215
nan nan nan 16777215
-3530.0229 677.39191 3762.8899 3488571
-3668.939 708.78278 3937.2651 3554364
-3660.5352 711.94611 3954.8374 3554364
-3652.29 715.18359 3972.8213 3817536
-3633.1042 716.30841 3979.0698 3685950
-3596.3701 713.96509 3966.0527 3817536
-3570.3877 713.73834 3964.7932 4014915
-3550.0618 714.64722 3969.8418 4014915
-3521.0515 713.80829 3965.1819 3949122
-3502.0725 715.00568 3971.833 3883329
-3494.3672 718.53815 3991.4558 3883329
-3482.1541 721.18799 4006.1758 3620157
-3456.3586 721.04297 4005.3701 3554364
-3434.6399 721.75238 4009.3108 3423292
-3404.0706 720.59882 4002.9028 3291962
-3390.7168 723.09937 4016.7935 3291962
-3375.0281 725.13574 4028.1052 3291962
-3348.8716 724.93671 4026.9998 3357755
-3313.7554 722.7804 4015.0217 3357755
-3288.5999 722.7804 4015.0217 3291962
-3250.1018 719.82538 3998.6062 3226167
-3228.2397 720.53741 4002.5618 3160375
-3200.2627 719.88507 3998.9382 3291959
-3164.8933 717.54651 3985.9475 3160374
-3136.1575 716.68671 3981.1711 3160373
-3087.8503 711.30469 3951.2742 3357751
-3063.0942 711.30469 3951.2742 3423545
-3062.2312 716.89825 3982.3462 3489339
-3028.3713 714.79535 3970.6648 3555132
-2995.1472 712.80896 3959.6304 3489340
-2940.7896 705.71783 3920.2395 3489597
-2892.698 700.02362 3888.6084 3621184
-2861.6062 698.38153 3879.4866 3686720
-2814.1218 692.67639 3847.7947 3620926
-2738.27 679.8299 3776.4326 3686718
-2695.4724 675.03735 3749.8103 3686718
-2698.9421 681.84924 3787.6501 3884097
-2649.0964 675.19318 3750.6758 3884097
-2656.8252 683.22369 3795.2852 3752767
-2635.9788 683.9845 3799.5115 3686718
-2624.0969 687.10657 3816.8545 3752511
-2606.646 688.81439 3826.3416 3620925
-2585.4316 689.55023 3830.429 3489339
-2540.3665 683.87903 3798.9255 3423546
-2518.9216 684.51941 3802.4829 3752254
-2494.749 684.42371 3801.9514 3621438
-2470.9287 684.42371 3801.9514 3818817
-2439.7949 682.3783 3790.5891 4081733
-2406.8901 679.79242 3776.2249 3950660
-2379.0742 678.60675 3769.6382 3884609
-2355.3796 678.58472 3769.5159 3753280
-2315.0991 673.73541 3742.5781 3686722
-2286.1924 672.13062 3733.6636 3753281
-2299.5596 683.0495 3794.3179 3950660
-2262.9548 679.19812 3772.9236 4016453
-2239.3164 679.19812 3772.9236 4016453
-2218.9175 680.19122 3778.4402 4213575
-2203.0718 682.61658 3791.9128 4213575
-2184.1479 684.13062 3800.3232 4345161
-2161.531 684.50854 3802.4224 4279367
-2145.0696 686.86572 3815.5168 3884097
-2155.9707 698.13678 3878.1267 3752511
-2113.9878 692.3446 3845.9517 3620925
-2094.0303 693.7157 3853.5681 3949890
-2074.7554 695.34741 3862.6323 4147526
-2047.7688 694.40277 3857.3848 3884097
-2033.6829 697.86237 3876.6025 3686718
-2009.3948 697.86237 3876.6025 3686718
-1987.1913 698.59521 3880.6736 3752511
-1965.6715 699.5896 3886.1973 3752511
-1953.3567 703.92603 3910.2859 3818560
-1933.5974 705.65582 3919.895 3686974
-1912.6471 706.98981 3927.3052 3818304
-1894.4181 709.37769 3940.5698 3752767
-1877.1725 712.20166 3956.2571 3752767
-1858.9839 714.73865 3970.3499 3818304
-1840.8484 717.36523 3984.9402 3884097
-1820.1956 719.06946 3994.4072 4147781
-1779.248 712.69202 3958.981 4213575
-1758.0912 714.17371 3967.2117 3950403
-1737.7944 716.05225 3977.6467 4147782
-1722.4874 720.07141 3999.9731 4213575
-1699.3392 720.88287 4004.4807 4147782
-1685.2335 725.61206 4030.7512 4016196
-1649.1528 720.87939 4004.4614 3950149
-1624.5493 721.09503 4005.6592 4015942
-1592.5475 717.98193 3988.366 4081735
-1556.2837 712.8175 3959.6777 3950149
-1526.0847 710.30853 3945.7407 3555391
-1510.7367 714.7431 3970.3748 3160633
-1490.6302 717.03723 3983.1184 3686977
-1455.6276 712.12201 3955.8145 3686977
-1415.5952 704.5332 3913.6587 4015942
-1405.9067 712.04492 3955.3865 4147528
-1382.1144 712.55505 3958.22 3884356
-1339.1611 703.02484 3905.2798 3687233
-1309.0667 700.01593 3888.5657 3818819
-1272.3173 693.26678 3851.0745 3686463
-1249.736 694.12598 3855.8469 3226168
-1241.6757 703.24323 3906.4932 3094583
-1180.3109 681.93018 3788.0999 2305324
-1145.3853 675.3313 3751.4431 1318686
-1111.6287 669.15955 3717.1594 1448988
-1084.5479 666.82831 3704.2092 1580831
-1060.3916 666.23254 3700.8999 2699055
-1030.7286 662.073 3677.7939 2501163
-1012.559 665.2746 3695.5784 1711647
-982.09119 660.35669 3668.26 1251096
-952.97852 656.13623 3644.8152 1251096
-923.1394 651.19611 3617.3728 2040356
-900.14099 650.95416 3616.0293 2698542
-876.73169 650.39502 3612.9229 2501163
-854.09558 650.39502 3612.9229 1777183
-830.75751 649.84595 3609.8728 1316632
-811.97644 652.93048 3627.0073 1316632
-792.92603 655.96979 3643.8906 2237733
-774.12671 659.40326 3662.9634 2764078
-746.93323 655.67786 3642.2688 2632492
-730.5899 661.54236 3674.8462 1776927
-702.61963 656.91791 3649.1572 1316375
-679.82672 656.98566 3649.5339 1382425
-657.61633 657.64081 3653.1731 1711391
-639.78522 662.88043 3682.2793 2632237
-614.29327 660.27795 3667.8223 2566443
-594.40033 663.72504 3686.9709 1776928
-574.70111 667.67603 3708.9182 1579291
-548.94598 664.62787 3691.9861 1776928
-519.81116 657.03961 3649.8335 2500393
-500.35638 661.55151 3674.8972 2895409
-477.95145 662.4101 3679.6663 2632236
-460.05551 669.92151 3721.3918 1908256
-438.37363 672.42755 3735.313 1777696
-414.08084 670.9856 3727.303 2172198
-388.28253 666.78583 3703.9734 2764335
-362.8829 662.78033 3681.7231 2764335
-341.72781 666.50958 3702.4387 2172198
-318.47177 666.38593 3701.752 1711392
-297.37033 671.10529 3727.968 1777443
-277.20578 678.92383 3771.3997 2633265
-260.48346 697.41565 3874.1211 3423808
-243.06746 717.65967 3986.5762 3423039
-217.43079 715.4895 3974.5205 3424064
-194.59317 723.15979 4017.1287 3621186
-170.36127 727.15771 4039.3374 3556163
-145.6951 730.37372 4057.2021 3424577
-121.26866 736.40491 4090.7051 3621699
-96.021706 739.35065 4107.0688 3819078
-70.289642 739.35065 4107.0688 3687492
-44.644821 740.79822 4115.1099 3621699
-18.898647 742.2226 4123.0225 3358784
6.8830366 736.83472 4093.0928 3292734
32.062717 726.30542 4034.603 3489345
57.16214 724.04303 4022.0352 3621440
82.361435 724.04303 4022.0352 3621184
108.27096 728.82379 4048.5925 3423805
133.63664 728.82379 4048.5925 3489342
161.74973 741.41711 4118.5479 3555391
185.75366 734.30139 4079.0203 3423805
212.53313 738.55176 4102.6309 3292219
237.27834 735.57867 4086.1155 3423805
262.73703 735.18109 4083.907 3358266
288.32397 735.18109 4083.907 3424059
315.32492 738.49268 4102.3027 3555388
344.31036 745.60254 4141.7979 3490109
372.1478 749.40405 4162.915 3555645
395.51013 744.28619 4134.4854 3555645
422.479 746.16724 4144.9346 3753024
445.67575 741.55396 4119.3081 3620925
469.11313 737.82434 4098.5898 3555132
494.77457 737.79816 4098.4448 3620925
519.7121 736.74841 4092.6133 3555132
546.95581 738.91296 4104.6372 3620925
568.125 733.04523 4072.0422 3686718
593.63757 733.04523 4072.0422 3555133
616.16699 729.51324 4052.4221 3555133
641.5567 729.51324 4052.4221 3555133
664.64752 726.99878 4038.4543 2699824
674.47601 710.69415 3947.8828 2897459
692.36682 703.73779 3909.2405 3555134
725.07129 711.79938 3954.0222 3686465
750.51459 712.43555 3957.5562 3489342
775.28308 712.41089 3957.4192 3554622
801.16589 713.38 3962.8025 3489086
826.23608 713.58899 3963.9636 3357500
856.37292 718.034 3988.6553 3291708
886.6333 722.32751 4012.5059 3357501
916.46851 726.04755 4033.1704 3554880
944.31232 728.03259 4044.1973 3489087
974.46588 731.64807 4064.281 3620674
1000.9024 732.35968 4068.2341 3686466
1026.8872 732.71362 4070.2002 3292479
1064.3613 741.0498 4116.5073 3358015
1077.2523 732.28064 4067.7949 3555135
1103.5974 732.85114 4070.9641 3555391
1140.8545 740.47833 4113.333 3489599
1166.7242 740.54077 4113.6797 3423806
1192.8435 740.75549 4114.8726 3423806
1218.2233 740.51166 4113.5181 3292220
1244.6863 740.92267 4115.8013 3423806
1271.6622 741.61621 4119.6538 3423805
1292.9957 739.05701 4105.4375 3489597
1324.6398 742.37604 4123.8745 3621440
1360.882 748.09564 4155.647 3423803
1387.0831 748.18457 4156.1406 3094582
1412.9116 748.07281 4155.52 2962996
1441.3741 749.33453 4162.5288 3094584
1452.8639 741.88446 4121.144 3291962
1471.427 738.24341 4100.918 3357755
1496.5918 737.98273 4099.4697 3291963
1522.2762 737.98273 4099.4697 3160376
1549.8704 738.89319 4104.5273 3226169
1582.8982 742.32202 4123.5747 2962998
1608.7336 742.32202 4123.5747 2634289
1640.0359 744.80469 4137.3657 2765875
1681.427 751.72058 4175.7832 3028790
1706.7268 751.34076 4173.6733 3028790
1740.5873 754.6842 4192.2461 3094840
1765.6738 754.18042 4189.4478 3160376
1799.2915 757.28223 4206.6777 3160373
1849.5468 767.1955 4261.7461 3357752
1878.2606 768.01855 4266.3179 3357753
1901.5806 766.6438 4258.6812 3357753
1928.2626 766.6438 4258.6812 3357753
1951.9523 765.47046 4252.1631 3357753
1977.8931 765.1994 4250.6577 3160374
1966.3691 750.63403 4169.7476 3291960
2001.6976 754.10144 4189.0088 3357753
2041.3367 759.08191 4216.6753 3226167
2081.0186 763.95081 4243.7217 3226168
2115.3569 766.76013 4259.3271 3489340
2140.0127 766.03333 4255.29 3029044
2097.3242 741.51477 4119.0903 2962225
2190.2625 764.96051 4249.3306 3685948
2204.2429 760.59796 4225.0967 4080706
2218.5579 756.45294 4202.0713 3620155
2235.2417 753.20343 4184.0205 3751228
2226.8809 741.68787 4120.0518 3751228
2237.3792 736.64545 4092.0413 4079165
2251.9348 733.03796 4072.002 3816764
2296.2871 739.10193 4105.687 3751485
2329.6328 741.52814 4119.1646 3618871
2355.3884 741.51172 4119.0732 3619128
2369.7405 737.94452 4099.2578 3684921
2404.0601 740.6051 4114.0371 3684921
2438.874 743.35992 4129.3398 3553592
2436.2578 734.76813 4081.6128 3751228
2453.1699 732.18329 4067.2542 3948864
2472.4551 730.35254 4057.0845 4014400
2503.7354 732.06641 4066.6047 3817021
2520.9863 729.68494 4053.376 3882814
2570.2063 736.51202 4091.3 3948351
2588.1821 734.33936 4079.2312 3817534
2624.0015 737.22241 4095.2461 3883327
2661.9463 740.64099 4114.2363 3883327
2671.0332 736.04181 4088.6882 3817534
2739.6853 747.78809 4153.9385 3685948
2766.8562 748.09778 4155.6587 3554362
2807.6123 752.04053 4177.5605 3488569
2855.2361 757.73303 4209.1821 3422776
2870.9314 754.9256 4193.5869 3554105
2906.416 757.32556 4206.9189 3422776
2911.1311 751.73682 4175.8735 3554105
2915.6885 746.20734 4145.1572 4146242
2956.6133 750.00073 4166.2295 4409415
2985.7378 750.76056 4170.4502 4212036
3000.1377 747.83685 4154.209 4146242
2993.4663 739.75616 4109.3213 3751741
3044.6016 745.97693 4143.8774 3620155
3080.5125 748.39374 4157.3027 3751741
3072.9226 740.29041 4112.2891 3817534
3095.3579 739.49506 4107.8706 3488569
3118.1091 738.7876 4103.9409 3620155
3141.3071 738.19666 4100.6582 3620155
3144.1714 732.87579 4071.1011 3685948
3147.4351 727.73285 4042.5322 3685948
3143.7932 721.08813 4005.6211 3620155
3149.5815 716.69458 3981.2148 3488826
3160.2109 713.46283 3963.2629 3554362
3154.0974 706.53125 3924.7578 3685178
3153.0828 700.84003 3893.1436 3882557
3201.6978 706.18286 3922.8228 3686461
3192.6748 698.82812 3881.9675 4014142
3195.3286 694.12128 3855.8208 3948350
3221.106 694.47046 3857.7605 3816507
3282.6653 702.4715 3902.2061 3420723
3177.4341 674.9259 3749.1914 3222061
3195.1853 673.71594 3742.47 2564130
3235.376 677.22052 3761.9377 2563874
3267.0916 678.91321 3771.3408 2629410
3312.3923 683.38452 3796.1785 2629409
3362.6343 688.80408 3826.2839 2564130
3323.6699 676.00323 3755.1758 3682355
3332.9624 673.12836 3739.2061 3880502
3376.342 677.12982 3761.4338 3815737
3411.5781 679.45398 3774.3445 3750203
3476.5408 687.62567 3819.7383 3816253
3551.6453 697.67798 3875.5781 3619644
3596.8447 701.75916 3898.249 3554108
3624.7166 702.42725 3901.9604 3488315
3652.5359 703.07642 3905.5664 3488314
3704.7915 708.38934 3935.0796 3619900
3755.7417 713.38409 3962.8252 3554364
3810.1887 718.97308 3993.8718 3488571
3866.3613 724.81262 4026.3103 3356985
3912.6228 728.73047 4048.074 3422778
3948.3594 730.65021 4058.738 3356985
3989.2944 733.50122 4074.5752 3422778
4044.3091 738.88824 4104.5 3422778
4070.0249 738.88824 4104.5 3488571
4092.3313 738.27319 4101.0835 3488571
4120.7925 738.7691 4103.8384 3554364
4140.5229 737.70355 4097.9189 3554364
4139.9263 733.05164 4072.0779 3422778
4155.9546 731.38251 4062.8059 3356985
nan nan nan 16777215
nan nan nan 16777215
nan nan nan 16777215
nan nan nan 16777215
nan nan nan 16777215
nan nan nan 16777215
nan nan nan 16777215
-3464.3914 692.43701 3717.7581 3685950
-3440.657 692.34814 3717.281 3620157
-3422.3425 693.35626 3722.6936 3554364
-3410.2041 695.63788 3734.9438 3620157
-3419.3013 702.31274 3770.782 3620157
-3375.605 698.16156 3748.4939 3685950
-3364.155 700.66821 3761.9524 3554364
-3342.3232 701.03284 3763.9099 3422778
-3319.9885 701.2962 3765.3242 3422778
-3268.8826 695.4425 3733.895 3356985
-3279.8801 702.81195 3773.4622 3291192
-3268.1526 705.38348 3787.269 3356985
-3240.0942 704.44208 3782.2146 3291450
-3216.3975 704.44208 3782.2146 3291962
-3193.0913 704.52826 3782.6772 3226169
-3178.9387 706.65051 3794.0718 3291962
-3158.4299 707.38116 3797.9946 3226169
-3123.4355 704.85394 3784.426 3357755
-3106.021 706.28564 3792.1128 3357755
-3076.667 705.00354 3785.229 3357756
-3053.1812 705.05658 3785.5139 3357755
-3018.1902 702.43286 3771.4268 3423548
-2990.5828 701.49976 3766.4167 3423549
-2967.5559 701.6347 3767.1414 3489341
-2943.9536 701.6347 3767.1414 3489341
-2916.5212 700.71448 3762.2007 3489341
-2930.0515 709.70105 3810.4504 3423548
-2901.8357 708.64069 3804.7571 3423548
-2869.4866 706.54498 3793.5051 3489342
-2821.9734 700.64935 3761.8508 3489598
-2794.2917 699.61963 3756.3223 3291962
-2721.4343 687.16559 3689.4553 3226170
-2692.4487 685.67065 3681.429 3226168
-2662.4819 683.89789 3671.9109 3489339
-2661.6506 689.64337 3702.7588 3884097
-2570.3071 671.83167 3607.126 3884097
-2547.7073 671.83167 3607.126 3686718
-2563.4902 682.0437 3661.9556 3489339
