# .PCD v0.7 - Point Cloud Data file format
VERSION 0.7
FIELDS x y z rgb
SIZE 4 4 4 4
TYPE F F F U
COUNT 1 1 1 1
WIDTH 1270
HEIGHT 1
VIEWPOINT 0 0 0 1 0 0 0
POINTS 1270
DATA ascii
-80.596245 658.85626 2718.7195 3226169
-63.859802 661.93671 2731.4307 3555132
-46.654049 660.62695 2726.0259 3686718
-29.654551 662.4118 2733.3909 3686718
-12.522884 662.08789 2732.0544 3686718
4.5683255 658.34698 2716.6179 3620925
21.831074 665.73578 2747.1069 3423546
39.042549 665.73578 2747.1069 3160377
56.004608 662.784 2734.9268 3357753
72.820236 659.88837 2722.9783 3489339
89.625122 658.01312 2715.2402 3555132
106.90733 659.68164 2722.1252 3291960
124.40485 662.03674 2731.8435 3555132
141.53827 662.1189 2732.1824 3489339
159.79063 666.85309 2751.7175 3489339
177.75305 669.573 2762.9412 3226167
194.793 668.64362 2759.1062 3291960
211.79663 667.75134 2755.4243 3226167
228.88553 667.24207 2753.3228 3423546
248.48898 673.62085 2779.6443 3752767
266.23303 674.45361 2783.0806 3620925
284.25894 675.85413 2788.8599 3357753
300.8576 673.89551 2780.7776 3291960
320.36905 678.3186 2799.0291 3555132
338.15857 678.82593 2801.1226 3884097
356.58203 680.49304 2808.0017 4081476
372.94449 678.25507 2798.7671 3818304
395.37698 686.76172 2833.8689 3555132
412.21457 685.23651 2827.5754 3686717
429.93018 685.23651 2827.5754 3884098
446.69345 683.77869 2821.5598 3752512
463.30045 682.20172 2815.0525 3620926
476.86142 676.41968 2791.1934 3291960
501.92917 686.7915 2833.9919 3094580
519.685 686.7915 2833.9919 3028531
532.71167 680.74817 2809.0544 2436651
556.08154 687.88605 2838.5085 2831153
575.76996 690.1687 2847.9277 2962996
587.02673 682.51105 2816.3289 3160374
611.0238 689.6806 2845.9136 3621181
626.84357 687.47534 2836.8137 3752511
636.76312 679.09918 2802.2502 3620925
646.42706 670.90723 2768.4468 3686718
663.62439 670.75781 2767.8301 3160631
682.77075 672.53577 2775.1667 3489596
695.82855 668.3772 2758.0066 3555388
714.77271 669.93713 2764.4436 3423546
729.41217 667.48407 2754.3213 3818304
742.84082 664.06201 2740.2004 3949890
769.02563 671.94031 2772.7097 3620925
783.1358 669.15338 2761.2095 3620925
798.48572 667.52319 2754.4829 3489596
818.33624 669.64496 2763.238 3817277
843.14862 675.65491 2788.0376 3884097
850.82892 667.97083 2756.3298 3818304
870.53595 669.84662 2764.0703 3686718
891.11212 672.30487 2774.2141 3686974
913.79596 676.22894 2790.4062 3621181
937.26129 680.57306 2808.332 4081476
946.94702 674.93567 2785.0696 4015683
963.10535 674.03217 2781.3416 3818304
981.68817 674.82733 2784.6228 3884097
999.41724 675.01819 2785.4104 3949890
1018.2058 675.90582 2789.073 3884354
1035.4116 675.73053 2788.3496 4278855
1051.2904 674.70941 2784.1362 4213062
1086.0305 685.62903 2829.1951 3423546
1085.0194 673.99005 2781.1677 3950146
1113.5599 680.78583 2809.21 5002834
1127.7544 678.73578 2800.7505 5002577
1145.3019 678.73578 2800.7505 4607563
1158.4701 676.17963 2790.2029 4344648
1181.0653 679.12 2802.3362 4147268
1199.2688 679.48608 2803.8467 4278855
1218.8723 680.62323 2808.5391 4147269
1234.4188 679.49493 2803.8831 4213062
1251.1099 679.01935 2801.9209 4213062
1265.7496 677.45911 2795.4827 4081478
1281.6716 676.61841 2792.0134 4147271
1312.2603 683.43878 2820.1572 4147271
1317.2291 676.91223 2793.2258 4147272
1346.5896 682.92706 2818.0457 4673616
1311.8545 656.70068 2709.8245 4542027
1353.4117 668.84766 2759.948 4278855
1373.3257 670.12708 2765.2275 4147269
1390.9303 670.26184 2765.7834 4015683
1408.2588 670.26184 2765.7834 3949890
1431.8094 673.18726 2777.8552 3818561
1450.0017 673.55341 2779.366 3686719
1466.1885 672.9903 2777.0422 3356983
1486.3636 674.24963 2782.2388 3422776
1516.5233 679.95636 2805.7874 3620155
1523.2238 675.1347 2785.8909 3291190
1538.3889 674.13147 2781.7515 3159604
1555.8176 674.13147 2781.7515 3093811
1561.5514 669.12042 2761.0735 3225397
1585.5143 671.94452 2772.7271 3225397
1606.3733 673.40631 2778.759 3291190
1628.8391 675.50323 2787.4116 3356983
1642.1525 673.80005 2780.3838 3356983
1662.0413 674.80255 2784.5203 3159604
1680.5433 675.22687 2786.2712 3159604
1702.6926 677.09277 2793.9709 3422776
1722.3004 677.92047 2797.3862 3488569
1736.2114 676.51172 2791.5732 3356983
1744.2128 672.85126 2776.4688 3488569
1759.9705 672.22571 2773.8875 3488569
1780.7692 673.51904 2779.2241 3356983
1802.9958 675.3222 2786.6648 3356983
1818.8744 674.73572 2784.2446 3488569
1834.7778 674.16968 2781.9089 3356983
1871.2484 681.10022 2810.5073 2962225
1875.1104 676.14331 2790.053 2764846
1895.8331 677.30157 2794.8325 2830896
1900.4657 672.74292 2776.0217 3159604
1909.6205 669.85333 2764.0979 3094068
1935.5994 672.86414 2776.5217 3028018
1951.0289 672.18665 2773.7263 3159604
1965.6077 671.23071 2769.7815 3028018
1990.645 673.83167 2780.5142 2830639
2010.8534 674.76709 2784.374 2830895
2032.5066 676.16705 2790.1509 2896432
2053.3213 677.26654 2794.688 2830639
2065.4436 675.50464 2787.4177 2633260
2081.1489 674.93433 2785.0642 2830639
2088.3799 671.64795 2771.5032 2962225
2107.6633 672.26007 2774.0291 3093811
2143.7703 678.18427 2798.4749 2896432
2164.6582 679.23694 2802.8186 2962225
2179.7156 678.45782 2799.6038 2961712
2190.7646 676.45349 2791.3328 3027505
2209.783 676.92206 2793.2664 3093298
2244.0388 682.01428 2814.2793 2961712
2245.6902 677.19519 2794.3936 3290677
2257.0361 675.3515 2786.7856 2895919
2272.2703 674.69055 2784.0583 3093298
2301.2 678.07532 2798.0251 3093298
2330.0437 681.38367 2811.6768 3553849
2348.7158 681.69006 2812.9414 3422263
2366.3396 681.69006 2812.9414 3619385
2397.1433 685.4588 2828.4927 3684921
2414.5715 685.37561 2828.1492 3684921
2424.8384 683.2757 2819.4841 3487542
2435.7441 681.38483 2811.6816 3355956
2457.7346 682.59979 2816.6951 3290163
2488.1108 686.1098 2831.179 3619128
2503.9866 685.59979 2829.0745 3816507
2523.9561 686.21002 2831.5925 3816507
2548.0725 687.93127 2838.6953 3816507
2552.6963 684.40259 2824.1343 3619898
2569.2043 684.08685 2822.8313 3685437
2588.5562 684.5274 2824.6492 3685437
2608.4175 685.0957 2826.9944 3685437
2626.1294 685.0957 2826.9944 3685437
2627.6177 680.89166 2809.6467 3356472
2672.2327 687.8446 2838.3374 3290679
2678.7275 684.95819 2826.4268 3290679
2651.0671 673.43341 2778.8708 3422008
2669.3955 673.66504 2779.8267 3356472
2686.4885 673.58398 2779.4922 3422265
2701.488 672.98236 2777.0095 3422265
2731.1506 676.01794 2789.5356 3356472
2748.6279 676.01794 2789.5356 3093300
2768.2749 676.54816 2791.7236 2830128
2780.2256 675.2027 2786.1716 2895921
2776.5061 670.09198 2765.0828 2895664
2793.6431 670.04712 2764.8977 3027763
2810.9585 670.04541 2764.8904 3225142
2821.2502 668.37964 2758.0168 3291192
nan nan nan 16777215
nan nan nan 16777215
nan nan nan 16777215
nan nan nan 16777215
nan nan nan 16777215
nan nan nan 16777215
nan nan nan 16777215
nan nan nan 16777215
nan nan nan 16777215
-2340.9683 632.96979 2546.4158 4213062
-2325.0144 632.96979 2546.4158 4213062
-2314.8877 634.5672 2552.8423 4344648
-2276.4058 628.35992 2527.8706 4344648
-2283.6238 634.76874 2553.6528 4278855
-2267.6243 634.76874 2553.6528 4081476
-2252.6367 635.05402 2554.8005 4015683
-2239.5806 635.89166 2558.1704 3884354
-2211.2542 632.37451 2544.021 3621183
-2193.2068 631.76721 2541.5779 3686721
-2185.7512 634.22437 2551.4631 3884099
-2179.5193 637.07544 2562.9326 3818306
-2174.2761 640.25995 2575.7439 3884099
-2158.1384 640.25995 2575.7439 4081478
-2140.9856 639.95654 2574.5234 4213064
-2120.6611 638.69336 2569.4417 4147271
-2104.7917 638.76288 2569.7212 4081478
-2095.3958 640.81311 2577.9692 3884099
-2112.7393 651.13623 2619.4988 3752513
-2079.583 645.93524 2598.5754 4476236
-2059.2183 644.6568 2593.4321 4476493
-2067.989 652.55164 2625.1929 4344907
-2063.5652 656.37616 2640.5789 4344907
-2040.4525 654.2699 2632.1055 4344907
-2014.4757 651.20355 2619.7695 3950406
-2006.343 653.90247 2630.6272 4081735
-1998.426 656.71692 2641.9497 4213321
-1964.0629 650.81525 2618.2075 4015942
-1977.0538 660.63763 2657.7224 3884356
-1963.3619 661.63489 2661.7346 3884356
-1950.069 662.78491 2666.3611 4015942
-1925.0919 659.94934 2654.9536 4081735
-1908.3694 659.91882 2654.8308 4147528
-1889.6177 659.17981 2651.8579 4147528
-1873.1781 659.24139 2652.1057 3818820
-1858.2567 659.84326 2654.5269 3818563
-1844.8721 661.00659 2659.2068 3884099
-1833.7977 663.02637 2667.3325 3818564
-1823.1937 665.25494 2676.2979 3752510
-1802.7494 663.901 2670.8511 4015682
-1769.9885 657.9433 2646.8835 3884354
-1757.1456 659.34698 2652.5305 3686974
-1742.2234 659.98975 2655.1162 3620925
-1725.5881 659.98975 2655.1162 3686718
-1710.5961 660.62433 2657.6689 3686718
-1696.9729 661.80511 2662.4194 3950147
-1675.063 659.74561 2654.134 3818304
-1663.2433 661.65881 2661.8308 3621182
-1657.4817 666.0451 2679.4768 3752768
-1633.9509 663.3078 2668.4646 3752510
-1615.965 662.78796 2666.3735 3751997
-1599.2593 662.78796 2666.3735 3620412
-1582.2545 662.66278 2665.8696 3686461
-1561.4905 660.9436 2658.9536 3619898
-1545.5524 661.25208 2660.1946 3685692
-1528.5172 661.09283 2659.554 3751741
-1512.486 661.36908 2660.6653 3620155
-1497.504 662.11542 2663.6677 3751741
-1479.5914 661.56812 2661.4661 3685948
-1460.3514 660.4082 2656.7996 3225397
-1435.62 656.70941 2641.9194 3028018
-1427.0535 660.40509 2656.7871 3159604
-1407.1869 658.89691 2650.7197 3291190
-1378.7526 653.29303 2628.1755 3422776
-1369.5885 656.79492 2642.2634 3489082
-1353.0338 656.79492 2642.2634 3555132
-1337.2471 657.17218 2643.7812 3686718
-1322.2495 657.95178 2646.9175 3423546
-1305.709 657.97351 2647.0049 3620925
-1286.3604 656.56262 2641.3289 3489339
-1266.8535 655.03308 2635.1758 3489339
-1250.0415 654.87494 2634.5396 3555132
-1234.5608 655.41937 2636.7297 3620925
-1221.6731 657.3739 2644.5928 3423546
-1210.8176 660.49072 2657.1316 3291960
-1199.2098 663.27826 2668.3457 3160374
-1185.8445 665.15881 2675.9111 2897202
-1164.1508 662.35474 2664.6306 2831409
-1144.2561 660.50769 2657.2 3028788
-1129.443 661.58258 2661.5242 3620925
-1121.3032 666.65729 2681.9395 3686718
-1108.5156 669.08105 2691.6902 3884097
-1095.2523 671.28802 2700.5688 3490108
-1078.3323 671.28802 2700.5688 3424059
-1062.4438 671.94037 2703.1931 3424315
-1051.1012 675.5354 2717.6558 3423804
-1041.7679 680.56152 2737.8757 3358011
-1015.9515 674.80762 2714.7278 3358268
-1004.286 678.41699 2729.2483 3884613
-988.44379 679.28101 2732.7244 3884869
-973.13049 680.54553 2737.8113 4082248
-956.96289 681.24719 2740.634 3950662
-939.82031 681.26764 2740.7166 3884869
-920.44574 679.64093 2734.1721 4279627
-905.91687 681.59833 2742.0466 4148041
-883.52747 677.60284 2725.9731 3884869
-865.23315 676.65253 2722.1499 3950919
-851.70636 679.46729 2733.4736 3884356
-843.5304 686.75403 2762.7878 3686977
-820.34576 681.87073 2743.1426 3884613
-796.29706 676.04498 2719.7058 3950149
-778.48132 675.37183 2716.9976 4147528
-769.3963 682.41223 2745.321 4344905
-752.79614 682.9566 2747.5112 3489340
-741.97235 688.88971 2771.3796 3423547
-722.31128 686.70544 2762.5925 3291446
-700.87146 682.68127 2746.4036 3357240
-689.01996 688.02911 2767.9177 3751741
-669.02954 685.31616 2757.0034 3620155
-650.55615 684.05438 2751.9275 2896432
-636.51654 687.51306 2765.8416 2962225
-619.18768 687.51306 2765.8416 3422776
-600.55847 686.02765 2759.8657 3488826
-583.39722 686.18073 2760.4814 3291190
-564.87683 684.69574 2754.5076 3883327
-549.27051 686.76068 2762.8147 3883327
-534.55328 690.10779 2776.28 3488569
-505.47528 674.51678 2713.5579 3685948
-481.54498 664.94873 2675.0662 3685948
-466.24863 667.04291 2683.4907 3159604
-460.38855 683.29889 2748.8879 3751741
-434.83694 670.45679 2697.2246 4541257
-413.4183 663.2063 2668.0562 4343878
-398.09198 665.52985 2677.4038 3685691
-382.49237 667.58087 2685.655 3620155
-365.63617 667.52661 2685.4368 3685948
-347.65692 665.31787 2676.551 3620155
-330.93393 665.41119 2676.9265 3422776
-312.07208 660.98438 2659.1174 3752511
-295.4119 660.98438 2659.1174 3620925
-279.11688 661.85028 2662.6011 3489339
-264.25443 666.43915 2681.062 3620925
-247.89294 667.61395 2685.7881 3423803
-229.8826 664.1958 2672.0369 2436907
-213.96683 666.76782 2682.384 3226424
-195.55426 661.33459 2660.5264 3357753
-177.14581 654.90393 2634.656 3489339
-160.94545 656.15381 2639.6843 3884097
-144.41129 656.17322 2639.7625 3686718
-127.35787 653.5332 2629.1416 3555131
-110.95058 653.91675 2630.6848 4081475
-95.149986 658.63397 2649.6619 3686717
-78.095665 654.8324 2634.3684 3291960
-61.807957 657.14417 2643.6685 3357753
-45.26181 657.39471 2644.6765 3357497
-28.68475 657.22656 2644 3423546
-12.078741 655.02869 2635.158 3555132
4.4690704 660.60577 2657.5945 3555132
21.133236 661.0285 2659.2949 3555132
37.628136 658.11792 2647.5859 3423546
53.735302 652.28186 2624.1077 3686718
69.896614 649.68353 2613.6548 3620925
86.294937 649.85651 2614.3506 3489339
103.53524 655.30341 2636.2632 3555132
120.61987 658.40179 2648.7278 3620925
137.24727 658.55676 2649.3513 3489339
153.84628 658.55676 2649.3513 3752511
170.09518 657.20404 2643.9094 3949890
187.82726 661.31348 2660.4414 3555132
206.39853 667.46686 2685.1963 3423546
224.41209 671.02509 2699.511 3489339
241.32538 671.02509 2699.511 3621181
256.30682 666.00525 2679.3164 3752511
274.01752 668.25854 2688.3813 3884097
289.53754 665.21765 2676.1479 3620925
311.87878 677.32385 2724.8506 3752767
328.51529 676.42706 2721.2429 3818561
349.85147 684.81812 2755 3949890
367.1124 684.81812 2755 3949890
387.34314 690.10938 2776.2864 3884097
404.6922 690.03217 2775.9758 3884097
417.7254 682.90582 2747.3066 3752512
433.18051 680.14612 2736.2046 3620925
450.32367 680.14612 2736.2046 3752511
460.15424 669.50653 2693.4019 3489853
485.46722 681.34918 2741.0444 3028275
500.53082 678.48914 2729.5386 3028018
517.63226 678.48914 2729.5386 2896432
533.68506 677.15869 2724.1863 3093554
550.43219 676.76434 2722.5999 3093557
568.68103 678.18451 2728.313 2896433
598.10205 692.45654 2785.729 2765616
600.7644 675.81763 2718.7913 3423802
613.89551 671.5481 2701.615 3160631
631.52179 672.29303 2704.6121 3291703
645.35443 669.06616 2691.6304 3422520
665.96417 672.85077 2706.8555 3422776
682.59839 672.5304 2705.5669 3422776
695.4873 668.62506 2689.8557 3356726
716.34204 672.38141 2704.9673 3554106
726.97174 666.58838 2681.6624 3620925
743.49866 666.34235 2680.6726 3291960
758.06262 664.38678 2672.8054 3423803
774.80859 664.38678 2672.8054 3620925
790.08612 663.1543 2667.8472 3619898
810.35083 666.07214 2679.5854 3752511
824.11481 663.6366 2669.7874 3884097
843.30957 665.58429 2677.6228 3884097
863.59613 668.30078 2688.5513 3818304
896.19788 680.26129 2736.668 3686718
898.57214 669.25922 2692.407 3686975
917.20233 670.547 2697.5876 4147269
953.30817 684.33301 2753.0483 4278855
957.12732 674.86395 2714.9546 3884354
969.8042 671.862 2702.8779 3752768
987.06213 672.08228 2703.7642 3620925
1004.002 672.08228 2703.7642 4015683
1019.9127 671.40472 2701.0383 4607820
1034.4659 669.87024 2694.8652 4739406
1052.796 670.79156 2698.5715 4739149
1081.271 678.04547 2727.7537 4870992
1102.8475 680.81494 2738.8953 4739406
1117.9728 679.57806 2733.9194 4213318
1131.2576 677.27661 2724.6606 3555133
1143.8059 674.60925 2713.9299 3686718
1162.9985 675.88141 2719.0479 3884097
1180.0934 675.91534 2719.1843 4015683
1199.4054 677.20007 2724.3528 4213062
1213.1163 675.33075 2716.8325 4278855
1232.9495 676.87415 2723.0415 3884097
1243.7814 673.50128 2709.4727 4081477
1267.0472 676.86151 2722.9907 4213065
1286.2335 677.98212 2727.4988 4278858
1297.0942 674.74237 2714.4653 4213065
1299.3264 667.15607 2683.946 4278858
1320.8262 669.53033 2693.4978 4344650
1345.8236 673.5954 2709.8513 4344648
1361.2908 672.84857 2706.8469 4344648
1378.5155 672.97821 2707.3684 4081476
1422.1829 685.85687 2759.1787 3620668
1412.3562 672.93811 2707.207 3883071
1415.5577 666.45978 2681.1448 3225397
1424.9343 663.00653 2667.2527 3028018
1443.1958 663.71948 2670.1208 3488569
1463.1962 665.20673 2676.1038 3422776
1486.1387 667.9826 2687.2712 3356983
1502.2911 667.67859 2686.0481 3488569
1519.1201 667.67859 2686.0481 3620155
1532.7987 666.30914 2680.5388 3751741
1552.1996 667.42987 2685.0476 3554362
1574.6377 669.81854 2694.6572 3291190
1596.2271 671.79938 2702.626 3225397
1610.9608 670.88361 2698.9419 3488569
1622.0046 668.46619 2689.2166 3291190
1637.4677 667.90094 2686.9426 3422776
1648.6226 665.60779 2677.7175 3291190
1664.4509 665.22888 2676.1929 3291190
1684.8024 666.64703 2681.8984 3554362
1700.1558 666.0791 2679.6135 3554362
1717.5923 666.33051 2680.6248 3422776
1734.4753 666.36432 2680.761 3291190
1751.2583 666.3595 2680.7415 3291190
1770.8977 667.43127 2685.0532 3291190
1787.7205 667.43127 2685.0532 3225397
1800.797 666.04565 2679.479 3554362
1817.5847 666.04565 2679.479 3620155
1836.2668 666.73346 2682.2461 3093811
1871.0325 673.19568 2708.2432 2764846
1887.4452 672.99768 2707.4468 3093811
1891.2418 668.34485 2688.7285 3356983
1900.0082 665.51489 2677.3438 3159604
1921.4702 667.14246 2683.8914 2764846
1938.7635 667.30701 2684.5532 3028018
1957.8774 668.08984 2687.7026 3028018
1977.4131 669.00208 2691.3726 3028018
1988.5763 667.09027 2683.6814 2830639
2009.6748 668.5155 2689.415 2830640
2018.1223 665.74365 2678.2639 3093811
2035.5082 665.94183 2679.0613 3093811
2065.2363 670.14166 2695.957 3093811
2090.5286 672.84564 2706.835 3028018
2108.5007 673.16907 2708.1362 2765102
2123.6372 672.58917 2705.8032 2765103
2134.446 670.65875 2698.0371 2764846
2144.3704 668.48285 2689.2837 3291191
2156.373 666.98383 2683.2532 3685692
2186.3918 671.03741 2699.5605 3751227
2193.7451 668.12567 2687.8467 3488056
2213.7302 669.07617 2691.6707 3488056
2248.0999 674.32697 2712.7944 3817021
2276.7349 677.79181 2726.7334 3488056
2293.8186 677.79181 2726.7334 3750714
2310.1565 677.57306 2725.8533 3750457
2324.6814 676.82965 2722.8625 3619128
2340.4346 676.45203 2721.3435 3290163
2361.8501 677.70459 2726.3826 3224370
2379.4829 677.86169 2727.0144 3290163
2395.2742 677.49554 2725.5415 3355956
2414.0862 677.98309 2727.5027 3290163
2442.9377 681.26337 2740.6992 3224370
2455.4688 679.97839 2735.5298 3356213
2447.5408 673.08478 2707.7971 3684921
2475.6948 676.14056 2720.0906 3619644
2488.2158 674.91425 2715.157 3619901
2518.9949 678.62335 2730.0784 3685437
2518.5232 673.9201 2711.1575 3685437
2532.74 673.18408 2708.1965 3619644
2550.748 673.45874 2709.3015 3488058
2557.2803 670.71985 2698.2832 3553851
2586.8838 674.02844 2711.5933 3422778
2599.4238 672.87683 2706.9604 3422778
2621.1367 674.09918 2711.8779 3357242
2636.6589 673.72388 2710.3682 3356985
2651.3569 673.14417 2708.0361 3488314
2651.5662 668.91681 2691.0293 3291192
2668.4263 668.91681 2691.0293 3225142
2694.9114 671.31439 2700.6748 3225143
2691.0103 666.15991 2679.9387 3488315
2704.6409 665.38257 2676.8113 3619644
2716.6045 664.20715 2672.0825 3422265
2729.1731 663.19305 2668.0032 3488058
nan nan nan 16777215
nan nan nan 16777215
nan nan nan 16777215
nan nan nan 16777215
nan nan nan 16777215
nan nan nan 16777215
nan nan nan 16777215
nan nan nan 16777215
nan nan nan 16777215
-2282.9763 632.76599 2483.3345 4344648
-2282.6943 637.02924 2500.0659 4278855
-2255.8799 633.896 2487.769 3950147
-2231.1902 631.32013 2477.6602 3752511
-2228.2373 634.90198 2491.7173 3818304
-2209.3838 633.97162 2488.0659 3949890
-2192.9512 633.72766 2487.1086 4081476
-2198.1179 639.76685 2510.8096 4015682
-2182.387 639.76685 2510.8096 3686719
-2145.8298 633.61737 2486.6755 3620927
-2129.5527 633.40991 2485.8616 3818306
-2139.5991 641.08673 2515.9897 3949892
-2129.6094 642.82953 2522.8296 3884099
-2110.8628 641.93542 2519.3206 3884099
-2090.939 640.66711 2514.3428 4015685
-2073.2256 640.06189 2511.9675 3949892
-2057.6404 640.1095 2512.1545 4015685
-2058.8066 645.40924 2532.9536 4542029
-2044.1238 645.78412 2534.425 5002580
-2042.3219 650.2663 2552.0154 4344393
-2044.6295 656.13782 2575.0588 4081992
-2024.5564 654.86359 2570.0579 4279114
-2011.3165 655.79681 2573.7205 4344907
-1986.4031 652.90814 2562.3838 4476493
-1974.4353 654.26227 2567.698 4344907
-1973.4747 659.31598 2587.5317 4279114
-1935.1165 651.85577 2558.2534 4279114
-1910.2144 648.84161 2546.4243 3752770
-1918.9467 657.29749 2579.6099 3884356
-1910.8009 660.06659 2590.4775 4015942
-1896.2819 660.66272 2592.8171 4147528
-1882.6979 661.59778 2596.4868 4147528
-1858.7203 658.86487 2585.7612 4147528
-1834.8873 656.13562 2575.05 4081992
-1815.2479 654.87085 2570.0864 3752770
-1802.537 656.10529 2574.9309 3884356
-1786.3229 656.07544 2574.814 4081735
-1769.4294 655.79321 2573.7063 4213321
-1756.7937 657.09833 2578.8284 4278858
-1748.1588 659.93793 2589.9727 4081476
-1723.2596 656.63354 2577.0042 3884097
-1712.3186 658.6355 2584.8611 3818561
-1698.7605 659.65942 2588.8796 3949890
-1674.5024 656.50812 2576.512 3818304
-1656.2844 655.68652 2573.2876 3620925
-1636.9493 654.40216 2568.2471 3818304
-1620.4802 654.24945 2567.6477 3884097
-1607.6146 655.56317 2572.8035 3686718
-1595.0919 657.04468 2578.6177 3620925
-1575.4535 655.59546 2572.9302 3686718
-1560.915 656.26056 2575.5403 3620925
-1560.2733 662.84308 2601.374 4015683
-1542.4844 662.20319 2598.8628 3686718
-1522.2931 660.50726 2592.207 3423546
-1501.3571 658.44824 2584.126 3686975
-1483.9225 657.89655 2581.9612 3620925
-1465.9291 657.08228 2578.7654 3489596
-1451.9011 658.04712 2582.552 3948607
-1432.6635 656.64594 2577.0527 3620155
-1417.3806 657.04608 2578.6233 3291190
-1396.1591 654.67072 2569.301 3488569
-1375.8348 652.66565 2561.4319 3423289
-1356.6404 651.15546 2555.5051 3291703
-1339.9718 650.83612 2554.252 3423289
-1323.9688 650.83612 2554.252 3752511
-1302.8539 648.2926 2544.2698 3423546
-1291.0404 650.3717 2552.4292 3291960
-1281.3253 653.5733 2564.9941 3489339
-1261.8623 651.82092 2558.1167 3620925
-1245.672 651.7356 2557.782 3620925
-1235.132 654.64288 2569.1919 3489339
-1208.4036 648.93353 2546.7852 3620925
-1193.4052 649.4549 2548.8311 3489339
-1182.6459 652.32861 2560.1094 3357753
-1176.9105 658.09058 2582.7224 3357753
-1175.5339 666.48444 2615.6648 3555132
-1153.2368 663.08679 2602.3306 3620925
-1136.9491 663.09656 2602.3687 3226167
-1110.287 656.9679 2578.3164 3094581
-1112.0497 667.72583 2620.5369 3818304
-1095.4971 667.6441 2620.2161 3884097
-1078.8352 667.49237 2619.6204 3883841
-1067.2347 670.51575 2631.4858 3292986
-1055.8925 673.79883 2644.3706 3291963
-1039.2769 673.76782 2644.249 3292220
-1027.5704 676.97009 2656.8164 3292219
-1014.5313 679.38525 2666.2949 3555391
-997.26459 679.00293 2664.7944 3686976
-979.12543 678.00342 2660.8718 4016454
-970.15576 683.42883 2682.1641 4147785
-963.0885 690.40912 2709.5588 4213834
-934.64642 682.04218 2676.7222 4016455
-917.67468 681.89264 2676.1353 3884869
-911.38953 689.82605 2707.2708 4411213
-880.47223 679.06311 2665.0305 4410700
-852.0166 669.81903 2628.7517 4147528
-839.1225 672.68567 2640.002 3884357
-826.23749 675.67499 2651.7336 3818816
-809.01935 675.17078 2649.7549 3753281
-794.43799 676.89203 2656.51 3818304
-777.45197 676.59424 2655.3413 3949890
-754.67163 671.13049 2633.8987 3949890
-740.79297 673.51581 2643.2598 4542027
-732.33459 681.0509 2672.8318 4344648
-715.5885 681.0509 2672.8318 4015427
-704.88324 686.93799 2695.9363 4212549
-684.59326 683.54407 2682.6165 4015170
-669.34698 685.14209 2688.8882 3685691
-653.22583 685.90393 2691.8779 3488569
-636.36041 685.90393 2691.8779 3817534
-621.15399 687.74091 2699.0872 3554106
-606.7699 690.61646 2710.3726 3619898
-586.53424 686.80579 2695.4175 3554106
-568.57324 685.51166 2690.3384 3225397
-555.23438 689.88153 2707.4883 3488569
-540.50787 692.74829 2718.739 3028018
-517.30566 684.58514 2686.7021 3093811
-493.31445 674.79364 2648.2747 3620155
-474.11551 671.10382 2633.7939 3554362
-460.78415 675.75299 2652.0398 3422776
-445.46893 677.73175 2659.8057 3422776
-425.07159 671.83197 2636.6516 3817534
-407.616 670.2926 2630.6101 3752511
-390.38733 669.01227 2625.5854 3687231
-370.63211 663.09906 2602.3787 4147269
-352.20447 659.12622 2586.7869 4015940
-335.698 658.53876 2584.4812 4081476
-319.22433 657.95941 2582.2075 4015683
-305.96826 664.30408 2607.1077 4015683
-287.33817 659.03845 2586.4426 3686718
-272.54822 662.47772 2599.9402 3423546
-255.08583 659.44543 2588.0398 3489339
-239.65562 661.61163 2596.541 3555132
-225.12872 666.76868 2616.7803 3620925
-208.05928 664.61401 2608.3242 3686718
-189.82599 658.05756 2582.5928 3489339
-172.95595 655.44531 2572.3411 3423546
-157.79408 659.43488 2587.9983 3291960
-141.77771 660.35815 2591.6218 2897202
-124.01961 652.3587 2560.2273 3752511
-109.28824 660.26855 2591.27 4015683
-92.88623 659.08435 2586.6226 3225141
-76.604515 658.43347 2584.0681 3290933
-59.993336 653.84308 2566.053 3159604
-43.701492 650.64612 2553.5063 3225397
-27.665003 649.75409 2550.0054 3291190
-11.87994 660.40009 2591.7864 2830896
4.365376 661.45624 2595.9312 3291961
20.62969 661.45624 2595.9312 3752511
35.945229 644.44604 2529.1736 3818304
51.968159 646.64691 2537.811 3752511
67.000992 638.38287 2505.3784 3620925
83.242699 642.58795 2521.8813 3555132
99.720589 646.9837 2539.1328 3884097
114.63442 641.41846 2517.2915 3884097
132.65248 652.4679 2560.656 3686718
148.75368 652.72192 2561.6528 3620925
165.24142 654.45752 2568.4641 3291960
183.29472 661.53528 2596.2415 3226167
199.78769 662.28674 2599.1907 3489339
216.76749 664.41724 2607.552 3423546
233.50809 665.56726 2612.0652 3686718
249.87349 665.56726 2612.0652 3620925
266.14999 665.34503 2611.1931 3489339
284.86871 670.90033 2632.9951 3423546
300.82184 669.69055 2628.2473 3423546
318.16132 671.53253 2635.4763 3357753
334.81418 671.815 2636.585 3160374
355.45123 679.68945 2667.4888 3555132
372.70258 680.67328 2671.3499 3226167
387.43793 677.17499 2657.6206 2831409
403.97458 676.9837 2656.8699 3028788
420.69595 677.1048 2657.3452 3028788
437.65475 677.58441 2659.2273 3292216
453.10861 675.78412 2652.1619 3488313
479.78903 690.2627 2708.9844 2830383
494.8154 687.55835 2698.3708 2172965
503.14859 676.03955 2653.1646 2764846
519.7774 676.0473 2653.1948 3159604
534.72711 673.93823 2644.9177 3028018
548.49182 670.50739 2631.4531 3225397
565.40411 671.01227 2633.4346 3225397
581.47675 670.52026 2631.5037 3290933
597.69495 670.21869 2630.3201 3422519
611.63477 667.44696 2619.4424 3488313
628.69751 668.13892 2622.158 3356983
644.66266 667.65894 2620.2742 3356983
660.11395 666.68378 2616.447 3225397
674.63873 664.84283 2609.2222 3159604
688.68445 662.62805 2600.53 3356983
696.31104 654.48212 2568.5608 3356983
715.75336 657.55933 2580.6375 3356983
733.35657 658.84821 2585.6958 3751741
745.25238 655.06476 2570.8474 3817277
759.84137 653.75854 2565.7209 3356727
780.25183 657.41138 2580.0569 2831409
797.461 658.2735 2583.4402 3226167
818.77936 662.42566 2599.7358 3818304
838.96655 665.51868 2611.8745 4148038
855.93652 665.98993 2613.7241 4410700
877.04706 669.60486 2627.9111 4279114
893.51172 669.60486 2627.9111 4081734
901.03766 663.02728 2602.0969 4015941
923.94604 667.80151 2620.8337 3884354
948.66144 673.69226 2643.9524 3818304
963.41418 672.42719 2638.9875 3620925
979.94824 672.42719 2638.9875 3818304
989.07849 667.43103 2619.3799 3818304
1012.5484 672.11664 2637.7686 3752511
1038.5443 678.30133 2662.041 3752255
1055.2228 678.30133 2662.041 3619898
1073.611 679.38324 2666.2869 3620925
1083.9344 675.4068 2650.6812 4213062
1099.4918 674.76233 2648.1521 3686718
1115.4613 674.38635 2646.6763 3884097
1128.3247 672.1709 2637.9817 4278855
1144.785 672.13129 2637.8264 4015682
1167.7195 675.8399 2652.3809 4213062
1187.9828 677.92004 2660.5447 4278858
1198.1497 674.26086 2646.1838 4344650
1209.8068 671.52887 2635.4619 4344650
1226.3188 671.52887 2635.4619 4213065
1248.2217 674.44165 2646.8933 4081475
1271.3937 677.95483 2660.6812 3752511
1296.4658 682.37726 2678.0371 4081476
1309.6228 680.4953 2670.6514 4015939
1312.2108 673.2384 2642.1711 4081476
1324.3439 670.99835 2633.3801 4278855
1339.359 670.25586 2630.4661 4081476
1366.0052 675.28119 2650.1882 3621182
1364.9773 666.66943 2616.3909 3686975
1383.6777 667.78333 2620.7622 3423803
1403.0562 669.1944 2626.3003 3160631
1401.1875 660.55627 2592.3994 3423803
1416.332 660.0448 2590.3918 3489082
1427.5923 657.75519 2581.4062 3554362
1440.6371 656.3299 2575.8125 3685948
1456.3611 656.14325 2575.0801 3817534
1471.0104 655.48187 2572.4844 3949120
1489.444 656.50269 2576.4907 3817790
1528.4232 666.46051 2615.571 3949120
1543.6411 665.95599 2613.5911 3883327
1551.0702 662.13715 2598.6035 3817534
1565.6541 661.4201 2595.7896 3620155
1587.3434 663.68872 2604.6929 3620155
1605.5646 664.47595 2607.7822 3488569
1619.9382 663.67084 2604.6228 3356983
1635.2911 663.27917 2603.0854 3685948
1645.7131 660.91492 2593.8066 3620155
1660.0714 660.16223 2590.8528 3356983
1684.041 663.20923 2602.8108 3356983
1699.0659 662.70905 2600.8479 3291190
1710.0002 660.63794 2592.7197 3291190
1726.1346 660.59589 2592.5547 3356983
1745.4026 661.74268 2597.0554 3159604
1764.4136 662.77179 2601.0942 3159604
1785.1241 664.41461 2607.5417 2896432
1806.6464 666.32703 2615.0471 3159604
1831.7893 669.52844 2627.6111 3554362
1846.3473 668.83838 2624.9031 3488569
1841.3422 661.13641 2594.676 3356983
1859.6045 661.85034 2597.478 3356983
1875.8787 661.85034 2597.478 3159604
1894.251 662.58435 2600.3586 3159604
1912.528 663.27277 2603.0603 3159604
1928.3152 663.09338 2602.3562 3159604
1949.3792 664.71619 2608.7253 3093811
1963.3201 663.90338 2605.5354 3159604
1979.6445 663.90338 2605.5354 3094068
2001.8241 665.85095 2613.1787 3093811
2023.7906 667.69666 2620.4221 2962482
2037.1914 666.70929 2616.5471 2830639
2054.0735 666.86792 2617.1697 2896432
2088.3196 672.61664 2639.731 2830896
2106.2039 673.04669 2641.4187 3028018
2108.1184 668.40656 2623.2083 3422776
2124.5537 668.40656 2623.2083 3620412
2139.4294 667.91962 2621.2974 3949377
2175.9297 674.13989 2645.709 4146755
2194.3513 674.70721 2647.9358 4146755
2214.0513 675.65637 2651.6606 3685947
2214.9807 670.9057 2633.0164 3619898
2244.0007 674.6709 2647.7932 3290934
2260.5901 674.6709 2647.7932 3290163
2286.3677 677.39319 2658.4771 3027248
2297.8455 675.87012 2652.4995 3092784
2314.4644 675.87012 2652.4995 3092527
2328.0217 674.9826 2649.0164 3158577
2345.3857 675.20337 2649.8828 3158577
2355.1472 673.24786 2642.2083 3092784
2373.094 673.64313 2643.7595 2961198
2393.0977 674.61273 2647.5649 3158577
2398.321 671.43121 2635.0789 3487031
2406.0662 668.99426 2625.5146 3487032
2417.7388 667.67505 2620.3374 3685694
2430.9214 666.78784 2616.8555 3685437
2445.7832 666.37 2615.2156 3685437
2461.4292 666.16998 2614.4307 3553851
2472.7776 664.81708 2609.1211 3553595
2490.0229 665.05707 2610.063 3619901
2498.6494 663.00696 2602.0171 3620157
2514.9521 663.00696 2602.0171 3554364
2533.9431 663.71112 2604.7808 3488571
2561.4602 666.62537 2616.2178 3422778
2577.8516 666.62537 2616.2178 3422778
2575.4758 661.8028 2597.2915 3422265
2603.6353 664.83801 2609.2034 3356729
2623.3489 665.69226 2612.5559 3554108
2639.7175 665.69226 2612.5559 3554621
2636.4771 660.77771 2593.2683 3357242
2653.772 661.03864 2594.2922 3094069
nan nan nan 16777215
nan nan nan 16777215
nan nan nan 16777215
nan nan nan 16777215
nan nan nan 16777215
nan nan nan 16777215
nan nan nan 16777215
nan nan nan 16777215
nan nan nan 16777215
-2228.3062 632.71912 2423.8662 3489339
-2222.2119 635.31848 2433.824 3555132
-2189.5369 630.30194 2414.6062 3752511
-2170.1069 629.05505 2409.8296 3818304
-2161.0569 630.8205 2416.5928 3949890
-2145.916 630.8205 2416.5928 4147526
-2133.0989 631.50836 2419.228 4278855
-2118.2161 631.59021 2419.5415 4278855
-2114.4919 635.02448 2432.6975 4278856
-2096.1118 634.07495 2429.0603 4081478
-2082.8411 634.66858 2431.3342 4015685
-2065.7515 634.09869 2429.1511 3884099
-2056.3242 635.88989 2436.0129 3555134
-2046.0164 637.43341 2441.926 3423548
-2027.6243 636.46259 2438.207 3028790
-2012.3481 636.46259 2438.207 3555134
-2007.8665 639.90283 2451.386 3884099
-1992.9846 640.05591 2451.9724 3752513
-2011.2731 650.94696 2493.6948 3949892
-1998.7542 651.95972 2497.5745 4015685
-1979.509 650.77722 2493.0444 3884356
-1957.738 648.73883 2485.2356 3555648
-1953.1104 652.39417 2499.2388 3687234
-1941.0796 653.61566 2503.9182 4081735
-1927.6581 654.38507 2506.8657 3752770
-1919.7419 657.05127 2517.0796 3752770
-1897.8688 654.94519 2509.0115 3884356
-1882.1489 654.94519 2509.0115 3818820
-1869.8845 656.15765 2513.6562 4081735
-1859.4764 658.04773 2520.897 4147785
-1836.5104 655.48792 2511.0906 4081735
-1842.5537 663.32739 2541.1226 4476493
-1800.5983 653.87323 2504.9048 4673872
-1781.1431 652.49536 2499.6265 4344907
-1769.549 653.99835 2505.3843 4147528
-1758.4241 655.70331 2511.9155 4147528
-1741.7932 655.36731 2510.6284 4147785
-1718.5681 652.52142 2499.7263 4147528
-1707.4376 654.25769 2506.3777 4213065
-1691.499 654.16663 2506.0288 4278855
-1676.365 654.38794 2506.8767 4278855
-1669.3143 657.79883 2519.9434 4344648
-1650.3149 656.52136 2515.0496 4344648
-1644.5509 660.53528 2530.4263 3884097
-1610.2772 653.06494 2501.8083 3752511
-1589.3375 650.90863 2493.5479 3752511
-1570.1023 649.41449 2487.824 3884097
-1554.5153 649.41449 2487.824 3555388
-1536.9342 648.573 2484.6003 3555132
-1522.2704 648.95789 2486.075 3686718
-1507.5363 649.32056 2487.4641 3752511
-1505.0643 655.02747 2509.3267 4015683
-1480.1008 650.96283 2493.7554 3752511
-1466.3101 651.77777 2496.8774 3686974
-1452.1195 652.43066 2499.3787 3818304
-1440.8214 654.41156 2506.967 3752511
-1425.1145 654.41156 2506.967 3357753
-1400.142 650.10931 2490.4858 3357753
-1387.1305 651.32654 2495.1489 3291960
-1370.182 650.70172 2492.7554 3357753
-1354.5642 650.70172 2492.7554 3555132
-1331.7975 647.2276 2479.4463 3555132
-1316.4713 647.33008 2479.8389 3489339
-1304.2164 648.96313 2486.095 3555132
-1292.2356 650.7738 2493.0312 3555132
-1271.5629 648.19788 2483.1633 3292217
-1259.5856 650.04565 2490.2419 3752511
-1243.9834 650.04565 2490.2419 3686718
-1222.4915 646.92883 2478.3018 3555645
-1208.2744 647.63116 2480.9922 3489596
-1189.0594 645.63794 2473.3567 3818561
-1170.887 644.16571 2467.7166 3949890
-1168.7545 651.59662 2496.1833 3225911
-1147.2179 648.26416 2483.4172 3028788
-1154.38 661.28003 2533.2793 3884354
-1131.3951 657.14862 2517.4524 4213319
-1108.3672 652.87482 2501.0801 4015940
-1096.4897 655.14093 2509.7612 4146756
-1080.9015 655.22345 2510.0774 4081733
-1071.2798 658.9787 2524.4631 3884353
-1062.2545 663.21881 2540.7065 3489339
-1056.8846 669.90485 2566.3201 3818304
-1056.1409 679.77515 2604.1318 3357753
-1053.7538 688.8808 2639.0144 3160374
-1016.6107 675.19324 2586.5791 3818304
-999.50934 674.58881 2584.2634 3753280
-988.96527 678.46289 2599.1047 3555645
-980.08411 683.62659 2618.8862 3950403
-972.75177 690.06488 2643.5505 4147781
-945.10767 682.06763 2612.9141 3885126
-942.66339 692.29535 2652.095 4148041
-921.28223 688.73303 2638.4485 4411213
-907.79779 691.052 2647.332 4148298
-880.18671 682.50336 2614.5833 4081734
-857.95514 677.88086 2596.875 4279114
-841.25427 677.534 2595.5464 3555391
-833.60638 684.60846 2622.6475 3555392
-803.6958 673.31616 2579.3882 4015426
-787.53516 673.31616 2579.3882 4147012
-770.77332 672.79144 2577.3782 3752768
-762.28094 679.61694 2603.5256 3752768
-743.59723 677.45599 2595.2476 4015684
-725.99323 676.20422 2590.4521 4081989
-711.35767 677.72333 2596.2715 4147526
-698.92963 681.46576 2610.6084 4081476
-684.11926 683.00916 2616.521 3357753
-667.43201 682.7085 2615.3691 3226167
-652.88318 684.63519 2622.75 4344905
-627.06482 674.53851 2584.071 5068371
-610.87482 674.53851 2584.071 4871249
-599.24487 679.71094 2603.8857 3884097
-594.35046 693.02661 2654.8965 3752510
-575.23584 690.0506 2643.4956 3621181
-552.65857 682.62109 2615.0344 4212292
-531.92126 677.07983 2593.8064 4278085
-511.5336 671.64844 2572.9993 4146243
-500.72714 678.85297 2600.5991 3291189
-484.3985 678.80377 2600.4106 3949119
-468.0481 678.71967 2600.0884 4278085
-445.24005 668.92761 2562.5762 4673870
-433.61407 675.83118 2589.0229 4608076
-411.10037 665.64227 2549.9905 3752768
-394.31091 664.27258 2544.7437 3752768
-375.21573 658.73969 2523.5476 4147269
-357.4567 655.16882 2509.8682 4015683
-342.02408 655.72955 2512.0164 3686461
-326.1163 655.38953 2510.7136 3686718
-309.90579 654.37579 2506.8301 3883840
-294.09113 654.13422 2505.9045 3291960
-278.16235 653.59729 2503.8477 3291960
-263.0752 655.09186 2509.5732 3752511
-246.08124 651.72656 2496.6812 3620925
-230.92203 653.09332 2501.9172 3752511
-213.66144 648.28326 2483.4905 3686718
-198.37312 649.17181 2486.8943 3620925
-182.96436 649.78412 2489.24 3620925
-167.55307 650.50061 2491.9849 3555132
-151.94 650.50061 2491.9849 3357753
-137.77882 657.42841 2518.5244 3357753
-123.20726 663.93689 2543.4575 3423546
-106.25056 657.6167 2519.2456 2896945
-89.496292 650.56256 2492.2222 2961968
-73.687134 648.84888 2485.6572 2896432
-58.086933 648.5498 2484.5115 3159348
-42.540016 648.84454 2485.6406 3093811
-26.938515 648.16614 2483.0417 3159604
-11.376848 647.90192 2482.0295 2897459
4.1783624 648.60449 2484.7209 3423546
19.547657 642.09241 2459.7739 3752511
34.410496 632.01978 2421.187 3949890
50.006683 637.45911 2442.0244 3752511
65.915337 643.39978 2464.7825 3357753
81.677788 645.92902 2474.4717 3620925
98.066452 651.81354 2497.0144 4673613
112.81039 646.651 2477.2373 4213062
128.14618 645.71942 2473.6687 3686718
143.6445 645.71942 2473.6687 3752511
159.5813 647.49872 2480.4849 3686718
177.11546 654.86816 2508.7163 3818304
193.54512 657.2854 2517.9763 3818561
208.50433 654.72089 2508.1521 3752511
224.88541 656.66779 2515.6104 3818560
240.87584 657.29358 2518.0078 3423546
256.94495 658.04401 2520.8826 3291960
274.69647 662.76672 2538.9746 3423546
290.22559 661.90381 2535.6689 3357753
305.24185 660.02155 2528.4583 3291960
321.65302 661.19244 2532.9438 2831153
343.88 673.64612 2580.6523 3160374
358.86911 671.43933 2572.1982 2765360
375.47659 672.32001 2575.5723 2896432
391.68967 672.45105 2576.0742 3093554
410.77792 677.31244 2594.6975 2896175
429.40985 681.07996 2609.1304 2764846
446.02121 681.48389 2610.6777 3159348
465.58096 686.20471 2628.7627 3751484
472.89508 673.1712 2578.833 3685948
489.83521 674.2489 2582.9614 3356983
506.01825 674.2489 2582.9614 3225397
523.60834 676.06555 2589.9209 3028018
537.09418 672.63318 2576.7717 3028275
553.62103 673.09827 2578.5535 3159861
567.01581 669.83698 2566.0601 3291190
579.26825 665.4433 2549.2283 3028018
594.42303 664.52997 2545.7295 2962225
609.01666 663.05353 2540.0735 3159604
624.93103 663.05353 2540.0735 3225397
640.76111 662.96637 2539.7395 3291190
654.64264 660.91614 2531.8855 3356983
668.09332 658.53827 2522.7761 3028018
673.43994 648.46686 2484.1936 2962225
692.43463 651.69543 2496.562 3685948
716.26978 659.23645 2525.4507 3620155
729.44269 656.85034 2516.3098 3291190
744.63086 656.34149 2514.3606 3422520
767.96545 662.88544 2539.4297 3226424
779.28369 659.0022 2524.5532 2962995
791.46515 655.98883 2513.0095 3752254
811.91272 659.81067 2527.6504 4148039
828.81543 660.66052 2530.9062 4279368
848.62408 663.7514 2542.7468 4213321
858.10266 658.79755 2523.7693 4147783
877.18658 661.26392 2533.2175 3950404
899.17175 665.79089 2550.5598 3884867
929.90137 676.52142 2591.6672 4015683
944.46552 675.32489 2587.0835 4278855
942.14838 662.30164 2537.1931 4278855
949.69543 656.52972 2515.0815 4081476
978.44836 665.36682 2548.9353 3949890
994.41827 665.36682 2548.9353 3949890
1018.4827 670.69727 2569.3555 4014913
1039.2573 673.72919 2580.9705 3884097
1059.3678 676.2442 2590.6052 4147269
1058.6346 665.57861 2549.7468 3884098
1082.0211 670.16907 2567.332 4410443
1098.1062 670.16907 2567.332 4542028
1101.2838 662.40533 2537.5903 3949893
1122.3367 665.46136 2549.2976 3884100
1148.2384 671.26624 2571.5352 4081479
1156.2329 666.58667 2553.6084 4147271
1165.5721 662.79956 2539.1003 4213065
1179.7002 661.8009 2535.2747 4213062
1203.733 666.31134 2552.5537 3686974
1223.1808 668.19891 2559.7847 3685434
1239.2186 668.19891 2559.7847 3620155
1255.6138 668.38904 2560.5132 3554362
1268.1465 666.54443 2553.4465 3225397
1302.7911 676.22296 2590.5239 3423289
1320.4662 676.96356 2593.3611 4081220
1326.7018 671.89276 2573.9355 3818304
1325.5503 663.24768 2540.8171 3883840
1341.4692 663.24768 2540.8171 3752511
1339.5746 654.54352 2507.4727 3620925
1352.8866 653.38538 2503.0359 3489596
1368.5688 653.38538 2503.0359 3554876
1381.7699 652.21411 2498.5491 3751741
1397.2501 652.13293 2498.238 4146499
1416.8477 653.95392 2505.2139 3554362
1429.9625 652.77563 2500.7002 3817534
1443.0902 651.62878 2496.3066 3817534
1469.4078 656.39844 2514.5786 3488569
1490.3049 658.67133 2523.2856 3554362
1506.1141 658.67133 2523.2856 3554362
1517.2595 656.65289 2515.5535 3620155
1532.0724 656.24689 2513.998 3685948
1548.9304 656.71625 2515.7961 3620155
1567.6279 657.94824 2520.5156 3620155
1586.0142 659.02625 2524.6455 3685948
1599.776 658.18042 2521.4053 3685948
1614.4551 657.72485 2519.6599 3620155
1629.6835 657.49969 2518.7974 3685948
1639.3425 655.05347 2509.426 3751741
1654.5308 654.84204 2508.6162 3685948
1672.0278 655.53992 2511.2896 3291190
1695.0182 658.35822 2522.0864 3028275
1712.3208 658.93591 2524.2993 3225397
1728.2335 658.97296 2524.4412 3356983
1747.7819 660.383 2529.843 3554362
1760.9261 659.36981 2525.9614 3422776
1776.7521 659.36981 2525.9614 3488569
1787.0812 657.3479 2518.2158 3488569
1798.1497 655.63092 2511.6384 3751741
1808.7212 653.76416 2504.4871 3422776
1829.2872 655.51105 2511.179 3291190
1844.3708 655.28009 2510.2944 3225397
1861.7736 655.87018 2512.5549 3291190
1882.6689 657.67041 2519.4514 3225397
1893.1686 655.83936 2512.437 3159604
1909.0122 655.87457 2512.5718 3159604
1932.0408 658.35748 2522.0835 3159604
1947.8423 658.35748 2522.0835 3225397
1962.4227 657.94806 2520.5151 3093811
1992.9889 662.86194 2539.3396 3356983
2008.6342 662.77466 2539.0051 3291190
2020.6036 661.48541 2534.0662 3225397
2038.0793 662.00476 2536.0559 3488569
2066.6123 666.07996 2551.6675 3422776
2081.2134 665.63678 2549.9695 3685948
2124.3306 674.2511 2582.9697 3949377
2134.7219 672.4267 2575.981 3949120
2159.1597 675.02112 2585.9197 3817534
2158.1313 669.67456 2565.4377 3685947
2159.3674 665.10455 2547.9307 3356470
2188.4463 669.11456 2563.2925 3159091
2214.1826 672.05157 2574.5437 3159091
2233.8247 673.10974 2578.5977 3027505
2238.9778 669.81818 2565.9878 2830126
2250.1187 668.35217 2560.3718 2961712
2266.1204 668.34033 2560.3267 3027505
2277.783 667.05798 2555.4141 2961712
2309.4075 671.59875 2572.8091 2830126
2326.8591 671.98352 2574.2832 2764590
2342.9878 671.98352 2574.2832 3027762
2340.0625 666.55609 2553.4912 3159093
2337.5613 661.32227 2533.4412 3619644
2362.9512 663.99664 2543.6863 3751230
2373.4119 662.46808 2537.8308 3751230
2384.8147 661.22113 2533.0537 3751231
2395.4465 659.77832 2527.5264 3882816
2412.3333 660.06586 2528.6279 3817536
2432.2119 661.16302 2532.8311 3883842
2436.5708 658.05444 2520.9226 4080708
2461.7014 660.55963 2530.5198 3685950
2480.0569 661.22638 2533.074 3422778
2488.688 659.30853 2525.7268 3356729
2502.7456 658.84344 2523.9453 3291192
2521.5039 659.61389 2526.8965 3225399
2544.0728 661.36523 2533.6057 3225655
2560.8242 661.59198 2534.4744 3422522
2576.9221 661.64807 2534.6895 3290422
2589.2717 660.74707 2531.2375 3290422
nan nan nan 16777215
nan nan nan 16777215
nan nan nan 16777215
nan nan nan 16777215
nan nan nan 16777215
nan nan nan 16777215
nan nan nan 16777215
nan nan nan 16777215
nan nan nan 16777215
-2175.2097 632.38855 2366.1099 3555132
-2175.8745 636.92255 2383.074 3620925
-2152.8606 634.5401 2374.1599 3686718
-2127.3257 631.37628 2362.3225 3818304
-2119.2788 633.39478 2369.8748 4015683
-2115.0254 636.58356 2381.8057 4344648
-2098.6213 636.13452 2380.1255 4213062
-2066.4985 630.88037 2360.4668 4278854
-2056.0088 632.20239 2365.4133 4147271
-2057.5251 637.26208 2384.3445 4278857
-2033.4453 634.41022 2373.6738 4147271
-2012.5295 632.51062 2366.5667 3884099
-2011.6746 636.93457 2383.1189 3555134
-1992.7909 635.67371 2378.4014 3423548
-1980.3604 636.46783 2381.3726 3620927
-1990.0031 644.42194 2411.1333 3555134
-1980.5391 646.26312 2418.0222 3489341
-1965.2183 646.20685 2417.8115 3291962
-1948.2681 645.6098 2415.5776 3094583
-1931.1857 644.95917 2413.1433 3226169
-1924.1757 647.68866 2423.356 3621184
-1913.5385 649.23108 2429.127 3687234
-1904.1732 651.23315 2436.6177 3950149
-1892.9105 652.6134 2441.782 3950149
-1887.2671 655.9693 2454.3381 3752770
-1877.8419 658.05499 2462.1421 3884356
-1845.5675 652.10193 2439.8684 3884356
-1838.4623 655.01691 2450.7747 4016199
-1813.7063 651.63916 2438.1367 4081735
-1800.4259 652.36218 2440.842 4147528
-1800.6447 658.03064 2462.0508 4344908
-1788.6378 659.29071 2466.7656 4805202
-1774.1365 659.64539 2468.0925 4739665
-1741.5377 653.2182 2444.0449 4344907
-1722.6298 651.85773 2438.9546 4015943
-1711.2224 653.33661 2444.4878 4016199
-1694.7634 652.89606 2442.8396 4081990
-1679.7384 653.00494 2443.2471 4016453
-1663.9197 652.80444 2442.4968 4213062
-1648.6167 652.80444 2442.4968 4278855
-1631.7539 652.18103 2440.1643 4410441
-1608.3323 648.8996 2427.8867 4147526
-1593.1208 648.8996 2427.8867 3950147
-1587.241 652.73712 2442.2449 3949890
-1558.4647 647.14178 2421.3098 3621181
-1543.2944 647.14178 2421.3098 3555132
-1526.7521 646.56079 2419.1357 3489339
-1493.449 638.79883 2390.0942 3357753
-1484.9714 641.60608 2400.5977 3620925
-1470.7897 641.9809 2402 3489339
-1461.4525 644.49994 2411.425 3620925
-1446.2316 644.44971 2411.2373 3818304
-1434.9484 646.17175 2417.6802 3752511
-1421.0574 646.74359 2419.8198 3686718
-1404.6744 646.1814 2417.7163 3818304
-1397.6702 649.96844 2431.8857 3489339
-1386.9574 652.09534 2439.8435 3291960
-1365.6221 649.2196 2429.084 3423546
-1360.6532 654.14746 2447.5217 3686718
-1333.692 648.49414 2426.3696 3818304
-1305.8688 642.28638 2403.1431 3555132
-1295.6113 644.67426 2412.0774 3686718
-1278.2847 643.55951 2407.9065 3686718
-1267.7627 645.88489 2416.6069 3620412
-1251.9602 645.54364 2415.3303 3356983
-1234.4583 644.30713 2410.7039 3422776
-1231.4476 650.69714 2434.6123 3554362
-1213.568 649.29224 2429.3557 3620155
-1188.3407 643.87036 2409.0696 3685948
-1173.2472 643.87036 2409.0696 3620155
-1162.8433 646.4776 2418.8247 4146499
-1138.5575 641.33417 2399.5803 3554362
-1138.4128 649.83344 2431.3806 2896432
-1116.2504 645.82446 2416.3809 3093811
-1118.2729 655.89032 2454.0427 3356727
-1102.8976 655.89032 2454.0427 3422776
-1086.694 655.39075 2452.1736 3685948
-1068.0483 653.383 2444.6614 3620155
-1051.7263 652.75897 2442.3267 3488569
-1038.5565 654.10175 2447.3508 3291190
-1029.7014 658.24316 2462.8459 3226423
-1019.2462 661.47198 2474.9268 3621181
-1016.5461 669.91132 2506.5029 3489339
-1003.7173 671.83582 2513.7036 3291704
-978.40149 665.33026 2489.3628 4016197
-964.40594 666.43671 2493.5024 3950403
-954.55487 670.4906 2508.6704 3687231
-948.63159 677.48541 2534.8418 4016453
-937.79736 681.15149 2548.5586 3950403
-929.98267 687.17578 2571.0986 3357755
-906.85577 681.8985 2551.3535 3884356
-897.84674 687.2381 2571.332 3950149
-882.60382 687.91406 2573.8611 3686977
-862.2356 684.54614 2561.2598 3686977
-841.97003 681.13348 2548.4912 4476747
-833.72003 687.49707 2572.3008 3819072
-812.58777 683.2793 2556.5198 3292728
-780.99261 669.91705 2506.5244 3489082
-762.48004 667.45868 2497.3262 4278598
-746.83356 667.45868 2497.3262 3620924
-732.07977 668.27368 2500.3755 3752512
-724.69104 675.99426 2529.2627 4673612
-709.23236 676.36426 2530.647 4739663
-693.37708 676.36426 2530.647 4410699
-681.36945 680.20538 2545.0186 3752769
-664.13782 678.8905 2540.0989 4081479
-647.91907 678.57184 2538.9067 4937299
-621.14423 666.90338 2495.2488 4476749
-603.88538 665.11334 2488.551 4674127
-586.5932 663.19055 2481.3569 5003094
-572.79163 665.2171 2488.9392 4345163
-571.94415 682.82233 2554.8101 3753027
-548.27454 673.4104 2519.595 4147271
-537.31146 679.50977 2542.416 4213318
-521.38239 679.50977 2542.416 4147525
-507.0141 681.60797 2550.2664 3752511
-490.08838 680.29266 2545.3452 3752511
-466.7337 669.66473 2505.5803 3884097
-449.19708 666.93524 2495.3679 4608077
-432.86725 665.8653 2491.3645 3686718
-418.62585 668.04791 2499.531 3752511
-403.5007 668.93524 2502.8508 3686462
-385.87305 665.57776 2490.2888 3883327
-366.8559 659.4397 2467.3228 4212036
-350.10178 657.00836 2458.2258 3949377
-334.99011 657.57733 2460.3547 3751741
-318.48291 655.32977 2451.9453 3949120
-302.24152 653.42896 2444.8335 3620155
-286.31714 652.04718 2439.6636 3620925
-270.49841 650.76379 2434.8616 3489339
-255.50879 651.44086 2437.3948 3555132
-239.8358 650.35077 2433.3164 3489339
