# .PCD v0.7 - Point Cloud Data file format
VERSION 0.7
FIELDS x y z rgb
SIZE 4 4 4 4
TYPE F F F U
COUNT 1 1 1 1
WIDTH 1271
HEIGHT 1
VIEWPOINT 0 0 0 1 0 0 0
POINTS 1271
DATA ascii
726.1554 658.05658 2352.4399 2371119
743.10406 660.01935 2359.4565 2634291
760.23077 662.06067 2366.7539 2700341
773.24817 660.51367 2361.2236 2765877
788.04004 660.51202 2361.2178 2963256
801.45355 659.3764 2357.1582 2897720
818.92456 661.55981 2364.9634 3094842
839.41998 666.06531 2381.0698 2963256
858.14954 669.0368 2391.6924 3292221
865.19379 662.95245 2369.9419 3358014
874.88763 659.06946 2356.0608 2831670
889.87421 659.23621 2356.657 2897463
902.33258 657.55524 2350.6477 2700084
922.22632 661.25952 2363.8899 2700084
931.90399 657.63727 2350.9409 2765877
945.61591 656.93042 2348.4143 2700084
952.02661 651.25073 2328.1101 2700084
961.91101 648.08282 2316.7854 2634291
971.65582 644.91644 2305.4663 2897463
992.32556 648.98785 2320.0208 3029049
1006.8612 648.98785 2320.0208 3029049
1020.5933 648.47723 2318.1956 2897720
1038.8838 650.83673 2326.6301 2765877
1060.0562 654.91144 2341.1965 2634548
1074.7246 654.91144 2341.1965 2897463
1079.7648 649.12335 2320.5051 2765877
1093.9769 648.92969 2319.8127 2831670
1109.338 649.41357 2321.5427 3029049
1117.6583 645.81665 2308.6843 2700341
1130.4263 644.84875 2305.2244 2634291
1145.4148 645.15607 2306.323 2634291
1157.0894 643.61237 2300.8044 2568498
1166.7556 641.00336 2291.4775 2436912
1180.7952 640.83118 2290.8621 2371119
1196.012 641.29431 2292.5178 2568498
1219.4916 646.12445 2309.7847 3029049
1237.6896 648.07568 2316.76 3358014
1251.4703 647.69556 2315.4011 2831670
1261.2113 645.25732 2306.6848 2700084
1272.5192 643.66687 2300.9993 2634291
1286.1848 643.29138 2299.657 2568498
1300.8306 643.40894 2300.0771 2765877
1312.4053 642.02161 2295.1177 2634291
1327.6658 642.44781 2296.6414 2634291
1347.5172 645.06268 2305.989 2765877
1353.7572 641.17523 2292.092 2700084
1377.6362 645.63605 2308.0388 2634291
1389.9816 644.65503 2304.5317 2634035
1397.6797 641.56104 2293.4712 2634035
1412.7269 641.86914 2294.5725 2897463
1428.8416 642.65094 2297.3674 2568498
1450.197 645.75098 2308.4495 2436912
1464.3678 645.62201 2307.9885 2371119
1497.4622 653.75726 2337.0706 2107947
1505.7239 650.99847 2327.2085 2107947
1520.05 650.88947 2326.8188 2305326
1527.6979 647.95007 2316.311 2700341
1537.2251 645.85559 2308.8235 2897463
1552.0452 646.00317 2309.3511 2502705
1573.9636 649.07526 2320.3333 2436912
1589.6 649.52423 2321.9382 2634291
1601.385 648.40564 2317.9395 2700084
1624.7924 651.97083 2330.6843 2371119
1638.4834 651.60828 2329.3884 2239533
1659.4725 654.12903 2338.3997 2305326
1682.0321 657.21924 2349.4465 2305326
1691.796 655.2995 2342.584 2436142
1733.3683 665.62756 2379.5049 2239533
1748.2769 665.62756 2379.5049 2042410
1737.9625 656.10565 2345.4658 2042410
1758.1938 658.17816 2352.8745 2107948
1775.7914 659.2384 2356.6648 2042410
1790.4651 659.20477 2356.5444 2173740
1812.6154 661.90173 2366.1858 2239533
1825.7446 661.2876 2363.9902 2239533
1831.4652 658.02155 2352.3147 2239533
1866.9878 665.4295 2378.7969 2436912
1881.5995 665.32617 2378.4275 2371119
1898.6301 666.07312 2381.0977 2305326
1920.9917 668.664 2390.3596 2502705
1947.1249 672.5174 2404.135 2568498
1984.3746 680.12177 2431.3193 2700084
1970.019 670.05798 2395.3428 2700341
1979.6467 668.24188 2388.8508 2371119
2003.1582 671.10455 2399.0842 2371119
2034.3826 676.48932 2418.3337 2371119
2036.5248 672.19531 2402.9834 2502706
2041.3604 668.8468 2391.0132 2765877
2048.4414 666.27734 2381.8279 2634291
2066.0654 667.14966 2384.946 2502705
2081.979 667.461 2386.0591 2568498
2101.0891 668.78534 2390.7935 2568498
2114.4817 668.28394 2389.001 2568498
2129.8965 668.42419 2389.5024 2305326
2139.7107 666.8172 2383.7576 2305326
2155.269 667.01001 2384.447 2173997
2169.3643 666.75061 2383.5198 2173741
2177.1816 664.57849 2375.7546 2370606
2192.9285 664.83978 2376.6887 2370606
2204.4827 663.83508 2373.0972 2502192
2218.0732 663.45294 2371.731 2370606
2229.7451 662.5058 2368.3452 2370606
2231.6406 658.68555 2354.6885 2173227
2245.24 658.34741 2353.4795 2239020
2255.251 656.9682 2348.5493 2239020
2262.6702 654.85681 2341.0015 2173227
2284.4099 656.89069 2348.272 2107434
2300.8667 657.38898 2350.0535 1844519
2315.2981 657.30591 2349.7566 1910055
2330.4956 657.44006 2350.2361 1975847
2347.0249 657.94592 2352.0444 1844263
2362.7271 658.21503 2353.0063 1778470
2380.9524 659.17926 2356.4534 1910056
2399.3672 660.18384 2360.0444 1975849
2417.6086 661.1286 2363.4219 2107435
nan nan nan 16777215
nan nan nan 16777215
nan nan nan 16777215
nan nan nan 16777215
nan nan nan 16777215
nan nan nan 16777215
nan nan nan 16777215
nan nan nan 16777215
nan nan nan 16777215
nan nan nan 16777215
-2076.8875 650.47522 2274.6609 3358014
-2082.6304 656.7807 2296.7107 3555393
-2060.054 654.18091 2287.6194 3489600
-2048.7119 655.13721 2290.9636 3226428
-2033.6741 654.91687 2290.1931 3160635
-2014.8105 653.45264 2285.0728 3226428
-1991.6973 650.57922 2275.0247 3094842
-1982.6157 652.28088 2280.9753 3094842
-1972.7526 653.74823 2286.1064 3094843
-1950.2875 651.0304 2276.6023 3160378
-1943.8654 653.6673 2285.8232 2963000
-1937.7655 656.45239 2295.5627 3029306
-1923.3831 656.45239 2295.5627 3226428
-1891.4532 650.4184 2274.4622 3226428
-1880.123 651.43005 2278 3226428
-1865.0287 651.14313 2276.9966 3226684
-1845.469 649.2807 2270.4839 3160635
-1830.2631 648.93304 2269.2681 3160635
-1820.1409 650.39648 2274.3855 3226428
-1800.0823 648.30438 2267.0698 3226428
-1784.5449 647.82031 2265.377 3160635
-1769.8798 647.64764 2264.7732 3094842
-1748.1508 644.86639 2255.0474 2831670
-1727.7229 642.5238 2246.8555 2766134
-1713.4496 642.45032 2246.5984 2897463
-1704.9838 644.57111 2254.0146 2897463
-1702.7218 649.09222 2269.8247 2634291
-1663.3762 639.43396 2236.0505 2568498
-1649.3668 639.43396 2236.0505 2700083
-1633.0212 638.52063 2232.8567 2700082
-1624.2914 640.59491 2240.1104 2963254
-1624.7897 646.37659 2260.3284 3029304
-1588.9528 637.67792 2229.9097 2831668
-1572.8907 636.8313 2226.9492 2765875
-1562.6775 638.35883 2232.2908 2897461
-1548.4447 638.25708 2231.9351 2897718
-1532.7959 637.56451 2229.5132 2897461
-1519.3784 637.79584 2230.3223 2766132
-1505.4048 637.79584 2230.3223 2897718
-1484.1776 634.69397 2219.4751 3094840
-1479.6456 638.74048 2233.6255 3094840
-1469.2596 640.31305 2239.1245 3094840
-1454.6893 640.07477 2238.2915 2963254
-1440.6659 640.07477 2238.2915 2897461
-1428.1854 640.76721 2240.7126 2963254
-1412.9868 640.24158 2238.8748 2831668
-1398.9596 640.24158 2238.8748 2634290
-1386.9027 641.15247 2242.0601 2634290
-1378.2706 643.68152 2250.9038 2634289
-1373.885 648.26642 2266.937 2502703
-1349.2614 643.29816 2249.5632 2305325
-1335.1671 643.29816 2249.5632 2371117
-1324.5869 645.00922 2255.5469 2634288
-1306.4553 643.04053 2248.6624 2634545
-1286.4611 640.10205 2238.3867 2634032
-1269.4784 638.61377 2233.1824 2502703
-1260.0885 640.95441 2241.3674 2568239
-1237.6711 636.64673 2226.3037 2831411
-1222.9397 636.23932 2224.8792 3160633
-1212.8486 638.26465 2231.9614 2963254
-1202.5654 640.2348 2238.8511 2897718
-1205.3738 649.30371 2270.5642 2897461
-1203.7656 656.18164 2294.616 2700082
-1165.8402 643.18982 2249.1843 2765875
-1147.4124 640.76837 2240.7168 2963254
-1140.3618 644.71924 2254.5327 2765875
-1130.7805 647.3205 2263.6292 2634289
-1118.9542 648.68634 2268.4055 2634546
-1109.7367 651.6192 2278.6614 2831668
-1102.186 655.61993 2292.6516 3292219
-1087.8218 655.61993 2292.6516 3292219
-1068.0541 652.31964 2281.1108 3029047
-1055.1505 653.17914 2284.1162 2831668
-1044.762 655.6405 2292.7234 2897461
-1035.5902 658.9447 2304.2781 3292732
-1019.3615 657.78851 2300.2349 3029560
-1002.906 656.45074 2295.5569 3029560
-990.44086 657.72394 2300.009 2963767
-977.79962 658.91602 2304.1777 2897974
-973.16791 665.62219 2327.6287 2963768
-958.94958 665.87561 2328.5149 3358527
-941.26257 663.6911 2320.8757 3555906
-921.69977 660.0946 2308.2991 3555906
-909.15955 661.49298 2313.1892 3226941
-896.02161 662.49481 2316.6924 3490113
-882.15839 662.98456 2318.405 3555906
-868.76373 663.84863 2321.4268 3490113
-855.14679 664.5694 2323.9473 3555906
-836.76459 661.54779 2313.3809 3556163
-825.58649 664.21558 2322.71 3555906
-812.33606 665.28198 2326.439 3424320
-801.79608 668.64764 2338.2085 3490113
-789.04089 670.25684 2343.8357 3621699
-774.41541 670.30823 2344.0154 3095355
-749.19128 661.0105 2311.502 3292734
-736.2868 662.42999 2316.4658 3753285
-720.85321 661.58545 2313.5125 3358527
-709.03101 664.08868 2322.2661 3292734
-694.48126 664.08868 2322.2661 3358527
-678.83978 663.0224 2318.5374 3358527
-661.70117 660.41516 2309.4202 3358527
-646.87616 660.05212 2308.1506 3424320
-630.50671 658.06061 2301.1865 3292734
-617.41571 659.4776 2306.1416 3226171
-604.60132 661.26508 2312.3923 3292219
-590.49518 661.69281 2313.8879 3292219
-575.70312 661.35413 2312.7036 3160633
-560.48145 660.49164 2309.6875 2897462
-546.83832 661.49298 2313.1892 3094840
-530.00946 658.59027 2303.0386 3029305
-513.93616 656.49017 2295.6948 2634289
-498.00183 654.45184 2288.5669 2700082
-486.99576 658.96112 2304.3354 3094840
-472.88089 659.41077 2305.908 2963254
-457.41919 657.9516 2300.8052 3292219
-438.0625 650.61261 2275.1414 2766132
-426.97882 655.48022 2292.1631 2831668
-413.52158 656.91614 2297.1843 2963254
-398.90475 656.547 2295.8936 3292221
-382.41644 652.95483 2283.332 3292221
-371.99643 659.84741 2307.4348 3423807
-358.17206 661.01459 2311.5164 3489600
-339.57346 653.0979 2283.8323 3423807
-324.36371 651.28912 2277.5071 3423807
-309.59192 650.23364 2273.8162 3358014
-296.78378 653.39966 2284.8875 2963256
-281.276 650.64178 2275.2434 2831670
-265.32434 646.50781 2260.7874 2831670
-251.04706 646.21759 2259.7725 2963256
-236.89186 646.22571 2259.8008 2963256
-222.73351 646.22571 2259.8008 3226428
-209.2558 648.33459 2267.1753 3489600
-196.2188 652.21539 2280.7461 3423807
-181.32571 650.05182 2273.1804 3226428
-165.04112 642.10571 2245.3933 3094842
-150.89426 641.77063 2244.2217 2963513
-136.92088 642.18036 2245.6545 3029049
-123.69506 646.5918 2261.0808 3029049
-109.4378 646.05518 2259.2043 2963256
-94.706589 642.14563 2245.533 2897462
-80.449913 640.65076 2240.3057 2963256
-67.094429 647.21735 2263.2683 2963256
-53.062347 649.02759 2269.5986 2963256
-38.752247 647.5177 2264.3186 2831927
-24.352329 641.89642 2244.6616 2371375
-10.49474 654.74274 2289.5842 2305839
3.8325152 651.73267 2279.0581 1779752
17.943113 645.67261 2257.8665 1779495
32.036068 644.60052 2254.1177 2174253
46.635433 651.25647 2277.3928 2108460
60.904003 651.25647 2277.3928 1976874
75.122368 650.82141 2275.8716 2371632
89.523766 651.85803 2279.4966 2437425
103.80575 651.85944 2279.5015 2371632
118.3847 653.49982 2285.2378 2305839
132.98595 654.89606 2290.1204 2371119
147.36174 655.01819 2290.5474 2240046
160.6364 650.65857 2275.302 1911338
175.04674 651.23474 2277.3169 1976874
190.41164 655.00769 2290.5105 2108460
205.1281 656.17749 2294.6013 2371632
220.32866 658.64124 2303.2168 2371632
234.72276 658.53949 2302.8611 2371633
249.78214 660.20789 2308.6953 2437424
264.28436 660.3017 2309.0234 2437424
278.17548 658.93811 2304.2551 2503217
293.40714 660.72791 2310.5139 2371631
308.46701 661.98077 2314.895 2437424
322.86969 661.77405 2314.1721 2503474
337.24268 661.52686 2313.3076 2634804
351.01999 660.17975 2308.5969 2569011
364.38007 658.18555 2301.6233 2305839
377.3956 655.74457 2293.0874 2305839
391.81268 655.82855 2293.3811 2108461
404.81534 653.62286 2285.668 2240046
421.00259 656.53412 2295.8484 2240046
435.38681 656.53412 2295.8484 2240046
449.70551 656.43842 2295.5139 2305839
464.65414 657.23981 2298.3162 2502705
479.48972 657.83783 2300.4075 2173738
488.36972 650.46869 2274.6379 1910566
503.71967 651.8905 2279.6101 1845030
517.76984 651.59814 2278.5876 2107945
531.48187 650.90735 2276.1721 1844773
547.65131 653.18365 2284.1321 1779237
556.18921 646.47363 2260.6677 2305324
572.37317 648.76343 2268.675 2436910
590.03497 652.57678 2282.01 2502703
601.755 649.79352 2272.2771 2436910
617.02264 650.88123 2276.0808 2305324
633.59607 653.26617 2284.4207 2305324
651.05719 656.44067 2295.5217 2239531
665.34924 656.35181 2295.2109 2173738
680.32959 656.93127 2297.2373 2305326
694.72247 656.93127 2297.2373 2305326
710.81128 658.50238 2302.7312 2173740
725.02545 658.30884 2302.0544 2239533
732.26184 651.91077 2279.6809 2634548
748.43341 653.56 2285.4482 2700084
770.1687 659.91455 2307.6694 2897463
784.62689 659.91455 2307.6694 2963256
798.13507 659.12988 2304.9255 2765877
813.55597 659.92468 2307.7048 2831670
830.1756 661.64709 2313.7283 2568498
845.47382 662.27533 2315.925 2502705
856.80084 659.8241 2307.3533 2371119
863.34113 653.82916 2286.3894 2436912
877.54462 653.73859 2286.0728 2239790
880.76654 645.60156 2257.6182 2568242
903.31262 651.66254 2278.8127 2765877
909.16895 645.68188 2257.8989 2436912
914.93182 639.81921 2237.3977 2107947
936.14288 644.7735 2254.7224 2568498
961.04669 652.086 2280.2937 2765877
974.00952 651.20087 2277.1985 2700084
983.21655 647.86652 2265.5386 2436912
992.35828 644.58466 2254.062 2371119
1003.7571 642.84033 2247.9624 2634291
1014.903 640.98456 2241.4729 2831670
1038.8691 647.16589 2263.0884 2568498
1049.9501 645.26196 2256.4307 2568498
1058.9558 642.15027 2245.5493 2568498
1074.3896 642.96698 2248.4053 2700084
1087.0162 642.10437 2245.3887 2700084
1097.8773 640.23419 2238.8489 2502705
1114.2151 641.56464 2243.5015 2371376
1128.6034 641.75354 2244.1619 2568498
1154.712 648.52014 2267.8242 2502705
1145.8403 635.71515 2223.0461 2502705
1150.9 630.85406 2206.0474 2568498
1178.8391 638.50061 2232.7866 2831670
1192.8282 638.50061 2232.7866 2831670
1213.9705 642.2851 2246.0208 2371119
1211.5525 633.66064 2215.8616 2107947
1238.5472 640.44061 2239.5706 2502705
1255.2545 641.80859 2244.3545 2634291
1266.8142 640.54358 2239.9307 2568498
1280.0353 640.13708 2238.5093 2634291
1293.6804 639.94922 2237.8523 2502962
1312.4559 642.27606 2245.989 2502962
1321.257 639.72406 2237.0649 2502962
1334.1278 639.17548 2235.1465 2436912
1345.183 637.77734 2230.2576 2502705
1359.2092 637.80225 2230.3445 2568498
1378.8568 640.43756 2239.5601 2765877
1397.4128 642.51788 2246.8347 2634291
1414.9128 644.07605 2252.2834 2305326
1431.0786 645.00201 2255.5215 2239533
1451.9772 648.02216 2266.0828 2371119
1466.1749 648.02216 2266.0828 2436912
1478.0895 647.02264 2262.5876 2502705
1489.7343 645.92535 2258.7502 2634291
1491.7218 640.70074 2240.4802 2700084
1509.6292 642.34741 2246.2388 2436912
1528.0519 644.18097 2252.6504 2371119
1543.9082 644.90894 2255.196 2568498
1553.5729 643.06079 2248.7334 2700084
1568.1893 643.27722 2249.49 2700084
1592.6689 647.49957 2264.2554 2634291
1612.215 649.65936 2271.8079 2634291
1629.9722 651.06683 2276.7297 2897463
1660.9343 657.67859 2299.8506 3028536
1679.7502 659.40839 2305.8997 2634548
1687.0704 656.63458 2296.1997 2502962
1690.6782 652.47479 2281.6533 2305327
1710.3325 654.52563 2288.825 2239533
1727.6084 655.63977 2292.7209 2173740
1748.0406 657.92352 2300.707 2173740
1765.1376 658.92474 2304.2083 2239533
1788.7192 662.31091 2316.0496 2042154
1803.4519 662.39246 2316.3345 2107947
1831.7255 667.40643 2333.8679 2568498
1837.5928 664.24164 2322.801 2568755
1858.9569 666.68433 2331.3428 2173740
1873.8359 666.78125 2331.6819 2107947
1897.944 670.13538 2343.4109 2239533
1919.4535 672.52747 2351.7759 2634291
1934.1881 672.52747 2351.7759 2568498
1937.8683 668.71289 2338.4365 2371376
1952.5193 668.71289 2338.4365 2371119
1970.9362 669.99298 2342.9131 2305326
1984.9838 669.77997 2342.168 2371119
1999.6113 669.76422 2342.113 2502705
2008.5756 667.86566 2335.4739 2502705
2023.209 667.86597 2335.4751 2568755
2047.1602 670.92004 2346.1548 2634291
2054.0237 668.37018 2337.2383 2634291
2062.085 666.24365 2329.8018 2568498
2078.147 666.71362 2331.4453 2436912
2095.0244 667.43683 2333.9744 2371119
2109.8916 667.51404 2334.2444 2436912
2118.5669 665.64478 2327.7078 2371119
2126.7422 663.64502 2320.7146 2304813
2140.3811 663.36572 2319.738 2436399
2153.6826 662.98639 2318.4116 2370606
2166.9187 662.59204 2317.0325 2502192
2177.8755 661.51074 2313.2512 2370606
2181.2114 658.14423 2301.4788 2304813
2191.9629 657.04468 2297.6338 2239020
2198.1675 654.60553 2289.1042 2107434
2202.9075 651.76459 2279.1699 2173227
2223.2349 653.54242 2285.3867 2107434
2241.1318 654.58759 2289.0415 2107691
2252.8594 653.82886 2286.3884 2107434
2274.3633 655.89929 2293.6284 2041641
2290.78 656.48572 2295.6792 2041642
2302.3401 655.6817 2292.8677 1778470
2319.2148 656.39197 2295.3513 1712676
2336.1904 657.1217 2297.9031 1844263
2388.6633 667.76605 2335.1255 2173484
nan nan nan 16777215
nan nan nan 16777215
nan nan nan 16777215
nan nan nan 16777215
nan nan nan 16777215
nan nan nan 16777215
nan nan nan 16777215
nan nan nan 16777215
nan nan nan 16777215
nan nan nan 16777215
-2037.8961 652.1731 2231.9565 3423807
-2023.337 651.98779 2231.3223 3489600
-2014.5345 653.66772 2237.0715 3358014
-2000.2639 653.58453 2236.7869 3292221
-1986.6061 653.70184 2237.1882 3292221
-1970.1415 652.89056 2234.4119 3226428
-1949.344 650.62152 2226.6465 3160635
-1936.364 650.94788 2227.7632 3160378
-1921.1133 650.50995 2226.2646 3094329
-1908.881 651.09528 2228.2678 3028792
-1893.6309 650.65228 2226.7517 2962999
-1879.6796 650.65228 2226.7517 3028536
-1873.1543 653.242 2235.6145 2831670
-1856.3301 652.25208 2232.2268 2963256
-1836.6724 650.24396 2225.3542 3226428
-1821.4226 649.77765 2223.7583 3160635
-1802.0424 647.81921 2217.0559 2963256
-1781.7029 645.48285 2209.0601 3029306
-1766.4652 644.97266 2207.3142 3160635
-1749.8191 643.93616 2203.7668 3094842
-1732.9329 642.79413 2199.8584 2897463
-1718.2264 642.44879 2198.6765 2963256
-1697.1842 639.70972 2189.3025 2831670
-1683.4675 639.70972 2189.3025 2831670
-1667.9741 639.02899 2186.9729 2897463
-1657.9147 640.43616 2191.7886 2963256
-1636.3033 637.36713 2181.2854 2765877
-1622.0758 637.14667 2180.531 2700084
-1606.8147 636.51318 2178.3628 2700082
-1591.5343 635.86096 2176.1309 2765875
-1579.0243 636.31396 2177.6812 2765875
-1567.7375 637.27209 2180.9602 2831668
-1558.321 639.01398 2186.9216 2897461
-1535.0942 635.07349 2173.4358 2831668
-1522.0764 635.32367 2174.292 2634289
-1509.1949 635.6358 2175.3604 2765875
-1496.0089 635.82428 2176.0051 2765875
-1485.0604 636.97583 2179.9463 2765875
-1477.8127 639.75085 2189.4434 2765875
-1464.3252 639.85138 2189.7874 2700082
-1448.0486 638.72351 2185.9275 2634289
-1433.875 638.51068 2185.199 2700082
-1416.1823 636.71149 2179.0415 2765875
-1402.5082 636.7016 2179.0078 2831668
-1388.7975 636.6748 2178.916 2831668
-1377.959 637.97723 2183.3733 2568496
-1365.7635 638.6712 2185.7483 2634289
-1351.8375 638.56183 2185.374 2568497
-1341.4175 640.12317 2190.7175 2700082
-1327.6919 640.12317 2190.7175 2897461
-1308.8695 637.64014 2182.2197 3029047
-1286.3247 633.27209 2167.2708 2897461
-1268.2454 631.03278 2159.6069 2700339
-1262.8762 635.13733 2173.6543 2831668
-1253.2542 637.16925 2180.6082 2897461
-1241.2527 638.02283 2183.5295 3028790
-1224.5276 636.44049 2178.114 2765875
-1212.6799 637.38593 2181.3499 2831925
-1199.1731 637.47101 2181.6409 3160633
-1185.673 637.56165 2181.9509 3095097
-1172.8903 638.04462 2183.604 2897461
-1162.6648 639.94666 2190.1133 2897461
-1146.6904 638.69196 2185.8193 3226426
-1133.457 638.95203 2186.7095 3292219
-1120.7687 639.52954 2188.6858 3292219
-1112.8037 642.84998 2200.0496 2831668
-1103.9612 645.74036 2209.9414 2897461
-1095.6489 649.01831 2221.1597 2897461
-1087.0759 652.22412 2232.1311 2963254
-1077.8451 655.11371 2242.0203 2765875
-1057.8542 651.45337 2229.4932 2765875
-1043.3378 651.11127 2228.3225 3094840
-1043.0134 659.73706 2257.8428 2502703
-1028.3765 659.42224 2256.7654 2305324
-1009.526 656.35925 2246.2827 2436910
-999.32379 658.91193 2255.019 3160633
-985.19543 658.91193 2255.019 3292475
-964.53571 654.4801 2239.8518 2963767
-957.14703 659.05542 2255.51 2766388
-940.52594 657.31549 2249.5554 2963511
-938.79987 666.09082 2279.5874 3358271
-914.23608 658.68335 2254.2366 3226685
-900.11261 658.68335 2254.2366 3160892
-883.54706 656.86768 2248.0229 2963512
-869.46246 656.86768 2248.0229 2963256
-858.37408 659.16858 2255.8972 3095098
-838.81177 654.93011 2241.3918 3028793
-823.16101 653.65344 2237.0227 3029562
-816.18451 659.3399 2256.4836 3358527
-802.50018 659.71252 2257.7588 3029819
-782.30286 654.64825 2240.4272 2963769
-768.26587 654.64825 2240.4272 3226941
-751.08374 651.91833 2231.0845 2963769
-740.31061 654.75317 2240.7864 2832183
-734.31323 662.00311 2265.5981 3226941
-720.11853 662.00311 2265.5981 3424320
-695.20654 651.95264 2231.2019 3095355
-681.81378 652.51385 2233.1226 3095355
-667.82257 652.51385 2233.1226 3029562
-658.07623 656.75012 2247.6206 3161148
-643.34387 656.08691 2245.3508 3358527
-627.54047 654.2774 2239.158 3292734
-614.9527 655.81439 2244.4182 3029819
-603.75757 658.9433 2255.1262 3028793
-585.21387 654.0097 2238.2419 3160633
-571.27203 654.10297 2238.561 3160633
-557.35883 654.2345 2239.0112 3029047
-547.17169 658.85956 2254.8396 2963254
-527.46008 651.95715 2231.2173 2897461
-514.72363 653.53503 2236.6174 2502703
-505.99188 660.42841 2260.2087 2568496
-489.24094 656.95044 2248.3062 3029047
-475.48627 657.409 2249.8755 3029047
-460.67279 656.38696 2246.3777 2897461
-448.21866 658.76813 2254.5269 3489598
-428.86435 650.83276 2227.3694 3029047
-414.90921 650.83276 2227.3694 2963254
-402.21646 652.8819 2234.3823 3160633
-387.08377 650.97552 2227.8579 3160634
-372.69089 650.21716 2225.2627 3160635
-359.27548 651.17151 2228.5288 3226428
-345.31305 651.17151 2228.5288 3094842
-330.88739 650.26123 2225.4133 3160635
-316.57397 649.5011 2222.8118 3358014
-301.58624 647.22375 2215.0181 3094842
-285.91852 643.1972 2201.2378 3358014
-273.40158 646.20953 2211.5471 3292221
-259.01562 644.89014 2207.0317 3094842
-245.07249 644.58661 2205.9929 3094842
-230.78822 643.29596 2201.5759 3095099
-217.66493 645.28302 2208.3762 3358014
-203.49001 644.21051 2204.7058 3358014
-189.14136 642.39185 2198.4817 3358014
-175.08752 641.36743 2194.9758 3029049
-161.76048 643.05756 2200.76 3160635
-149.25812 648.64661 2219.8877 3226428
-134.14151 642.8559 2200.0698 3226428
-120.37441 642.94678 2200.3809 3029050
-106.76731 644.02631 2204.0754 3029049
-92.77774 642.77686 2199.7993 2897462
-78.995316 642.77686 2199.7993 2963255
-65.29866 643.62219 2202.6924 2897719
-51.667271 645.73639 2209.928 2766133
-37.610416 642.13446 2197.6008 2700084
-23.993361 646.21741 2211.574 2306096
-10.114446 644.7691 2206.6174 2700597
3.7096334 644.58423 2205.9849 2174253
17.606565 647.36957 2215.5171 2305839
31.358843 644.72516 2206.467 2305839
45.369217 647.38171 2215.5586 2108460
59.356785 648.54431 2219.5374 2108460
73.246857 648.40253 2219.0522 2240046
87.277596 649.35254 2222.3035 2305839
101.35633 650.34906 2225.7141 2371632
115.51915 651.57892 2229.9229 2371889
129.34731 650.85931 2227.4602 2502705
143.2785 650.74792 2227.0789 2305582
157.22072 650.70178 2226.9211 1976874
170.98521 649.98773 2224.4773 1845545
185.48618 651.96991 2231.261 2174253
199.44234 651.89343 2230.9993 2108460
213.12384 650.9881 2227.9011 1976874
227.26118 651.50079 2229.6555 2240046
242.45969 654.82013 2241.0154 2305839
257.05475 656.23535 2245.8589 2240047
270.56323 654.8739 2241.1995 2437424
283.57578 652.50555 2233.0942 2437425
295.8739 648.7934 2220.3899 2569010
309.78534 648.7934 2220.3899 2766391
325.71411 652.83679 2234.2278 2766391
337.68466 648.94031 2220.8928 2766391
350.83655 647.53265 2216.0752 2437425
365.63052 649.14752 2221.6018 2305839
378.09787 646.66467 2213.1047 2108460
390.95135 644.99457 2207.3892 2963769
404.6846 644.84045 2206.8616 2634805
421.64288 649.66565 2223.375 2371632
436.44293 650.96307 2227.8154 2437426
453.35284 655.22961 2242.4167 2568242
472.7547 662.73285 2268.0955 2305324
485.12082 660.22296 2259.5059 2042152
492.03134 650.64124 2226.7139 1910566
503.5722 647.54199 2216.1072 1844773
518.52191 648.87482 2220.6687 1778980
531.98462 648.32593 2218.79 1779237
545.15692 647.45996 2215.8264 1844773
558.3808 646.69672 2213.2144 1910566
573.17657 647.74689 2216.8086 2173738
587.50897 648.23621 2218.4829 2371117
600.47754 647.23279 2215.0491 2305324
616.19409 649.16974 2221.678 2305324
631.97876 651.09131 2228.2542 2305324
645.93372 651.08557 2228.2346 2173738
660.49359 651.67682 2230.2581 2173740
674.27209 651.48865 2229.614 2173740
687.43658 650.72693 2227.0071 2173740
703.51984 652.70337 2233.7712 2568498
717.31689 652.52313 2233.1543 3029049
728.61115 650.11652 2224.918 2765877
742.55096 650.11652 2224.918 2700084
756.98254 650.53918 2226.3645 2700084
770.18274 649.90741 2224.2024 2502705
783.67474 649.53992 2222.9448 2502705
799.40021 651.00421 2227.9561 2502962
817.88141 654.62384 2240.3438 2502705
842.23871 662.74518 2268.1377 2700084
844.4248 653.44031 2236.2932 2634291
853.77448 649.89203 2224.1499 2700084
867.16699 649.48572 2222.7593 2963256
877.42645 646.78284 2213.509 3029049
891.5318 646.95477 2214.0977 2042154
900.78613 643.65527 2202.8054 792087
911.6734 641.60449 2195.7871 1450017
922.44775 639.53644 2188.7095 2436912
943.82532 644.77246 2206.6289 2502705
953.57812 642.03064 2197.2454 2568498
966.46747 641.44836 2195.2529 2568498
981.65222 642.38477 2198.4575 2568755
996.18872 642.87683 2200.1414 2568498
1011.0695 643.57465 2202.5295 2568498
1024.8264 643.54785 2202.438 2700084
1038.0422 643.18652 2201.2014 2568498
1051.498 642.98145 2200.4995 2568498
1063.7438 642.05121 2197.3159 2634291
1074.0255 639.97461 2190.209 2502705
1087.7478 639.97461 2190.209 2173740
1103.1339 640.94128 2193.5173 2502705
1117.7072 641.41766 2195.1477 2897463
1131.2677 641.30835 2194.7737 3029049
1139.843 638.40961 2184.853 2897463
1141.994 632.02417 2163 2766134
1168.6157 639.17267 2187.4646 2436912
1180.1509 637.99951 2183.4497 2042411
1193.8308 637.99951 2183.4497 1976361
1195.0814 631.43231 2160.9746 2173740
1225.0642 640.02319 2190.3752 2568498
1237.5764 639.3974 2188.2336 2568498
1250.2009 638.84277 2186.3354 2634291
1263.8989 638.84277 2186.3354 2502962
1276.0085 638.0484 2183.6169 2568498
1289.8936 638.14935 2183.9624 2700341
1304.6968 638.69763 2185.8389 2831670
1316.8591 637.95514 2183.2979 2700084
1327.2968 636.401 2177.979 2765877
1343.1798 637.46277 2181.6128 2437169
1362.0197 639.8924 2189.9277 2700084
1374.1091 639.13373 2187.3313 2502705
1397.6169 643.64856 2202.7825 2173740
1411.2836 643.58722 2202.5725 2502705
1422.5715 642.45282 2198.6904 2634291
1433.9352 641.37408 2194.9985 2568755
1447.655 641.35968 2194.9492 2502705
1461.4071 641.35968 2194.9492 2568498
1474.3015 640.98688 2193.6733 2502705
1490.7365 642.14594 2197.6401 2436913
1504.6805 642.2207 2197.896 2436912
1514.3369 640.48065 2191.9409 2700084
1529.2493 640.97491 2193.6323 2765877
1555.1683 646.03265 2210.9417 2700084
1570.9237 646.81628 2213.6235 2634291
1613.0819 658.36212 2253.1375 2963513
1627.1985 658.36212 2253.1375 3225915
1622.6691 650.88287 2227.5408 2897720
1629.4565 648.03186 2217.7837 2700084
1649.1102 650.30273 2225.5554 2502705
1673.4706 654.37592 2239.4951 2436912
1691.3307 655.86066 2244.5764 2239533
1710.054 657.65295 2250.7102 1910568
1715.8595 654.48859 2239.8809 2107947
1749.8273 662.03052 2265.6919 2371120
1764.0226 662.03052 2265.6919 2436912
1776.0618 661.22784 2262.9448 2502705
1791.2183 661.58923 2264.1816 2502705
1829.2554 670.32947 2294.0938 2305326
1842.0944 669.77173 2292.1848 2239533
1847.7225 666.62097 2281.4019 2239533
1861.902 666.58008 2281.262 2502705
1882.6166 668.86169 2289.0703 2436912
1892.8328 667.40692 2284.0918 2502705
1905.7103 666.90552 2282.3757 2371119
1927.2275 669.41241 2290.9553 2305326
1942.7427 669.81293 2292.3259 2371119
1966.4084 672.99707 2303.2231 2107947
1974.0675 670.69647 2295.3496 2042154
1965.781 663.05084 2269.1836 2173740
1985.3936 664.85754 2275.3669 2700084
1999.0784 664.66766 2274.717 2568498
2001.8435 660.87561 2261.7393 2502705
2019.4783 662.01123 2265.6257 2371119
2034.65 662.32922 2266.7141 2371119
2047.9155 662.02655 2265.6782 2371119
2054.2288 659.49615 2257.0183 2371376
2057.8616 656.14563 2245.5518 2239020
2071.9336 656.14655 2245.5549 2239020
2086.2529 656.22522 2245.8242 2239020
2098.8647 655.76947 2244.2644 2041641
2111.6052 655.35962 2242.8618 2107434
2126.1946 655.52521 2243.4285 2107434
2133.6165 653.49335 2236.4749 2370606
2137.0515 650.27484 2225.46 2304813
2145.4111 648.58685 2219.6831 2173227
2164.2136 650.05737 2224.7156 2107434
2178.1523 650.05737 2224.7156 2107434
2186.7583 648.47595 2219.3037 2239020
2203.438 649.29376 2222.1023 2239020
2218.7976 649.71472 2223.543 2304813
2239.5452 651.69818 2230.3311 2041641
2247.3137 649.90369 2224.1897 1975848
2262.8516 650.36432 2225.7661 1975848
2288.8074 653.7951 2237.5076 2173227
nan nan nan 16777215
nan nan nan 16777215
nan nan nan 16777215
nan nan nan 16777215
nan nan nan 16777215
nan nan nan 16777215
nan nan nan 16777215
nan nan nan 16777215
nan nan nan 16777215
nan nan nan 16777215
-1973.7733 645.12469 2161.7278 3094842
-1979.9412 651.61188 2183.4656 3160635
-1960.4749 649.6944 2177.0403 3029049
-1953.632 651.96265 2184.6409 3029049
-1939.9446 651.96265 2184.6409 3029049
-1918.223 649.24335 2175.5291 2963256
-1910.3271 651.19818 2182.0793 2963256
-1894.0588 650.30664 2179.0918 2897463
-1877.276 649.22406 2175.4644 2700084
-1862.9937 648.99683 2174.7029 2634291
-1841.9015 646.37646 2165.9224 2634548
-1827.8674 646.21246 2165.3728 2700084
-1818.3652 647.66016 2170.2239 2700084
-1809.7988 649.46545 2176.2732 2963256
-1795.7148 649.3031 2175.7292 2831670
-1774.1899 646.42719 2166.0923 2963256
-1755.2595 644.45953 2159.499 2897463
-1739.7006 643.7088 2156.9834 3160635
-1721.5083 641.96423 2151.1377 3094842
-1697.3945 637.96667 2137.7422 3029050
-1681.8385 637.1474 2134.9971 2963256
-1664.8114 635.7533 2130.3254 2831671
-1648.9343 634.77936 2127.062 2765878
-1631.2679 633.09515 2121.4185 2765878
-1612.4866 630.94696 2114.2202 2634291
-1596.8087 629.98767 2111.0056 2634291
-1590.0267 632.55127 2119.5959 2700083
-1577.0696 632.68073 2120.0298 2568496
-1565.8953 633.53375 2122.8882 2634289
-1553.3718 633.85083 2123.9507 2634289
-1535.7328 632.06799 2117.9766 2502960
-1521.7816 631.7851 2117.0286 2568496
-1512.937 633.63586 2123.2305 2502703
-1503.7305 635.3667 2129.03 2502703
-1487.702 634.22009 2125.188 2502703
-1471.0361 632.77869 2120.3579 2436910
-1455.8013 631.93219 2117.5215 2371117
-1445.0376 633.02881 2121.196 2305324
-1431.7477 633.02881 2121.196 2042152
-1413.3105 630.73169 2113.4988 2305324
-1404.8513 632.88617 2120.7183 2502703
-1395.7941 634.80988 2127.1643 2436910
-1378.0455 632.77972 2120.3616 2634289
-1364.9669 632.87531 2120.6819 2502960
-1353.043 633.51337 2122.8198 2568496
-1345.6556 636.30933 2132.1887 2568496
-1332.2969 636.30933 2132.1887 2634289
-1316.5624 635.16327 2128.3484 2634289
-1307.8569 637.41949 2135.9087 2831668
-1299.3101 639.80042 2143.887 2963254
-1276.1984 634.98425 2127.7485 2897461
-1260.0161 633.5506 2122.9446 2963254
-1242.3993 631.3573 2115.5952 2831925
-1235.7948 634.77344 2127.042 2897461
-1226.3594 636.79382 2133.8123 3094840
-1218.3521 639.60858 2143.2441 3489341
-1193.4733 633.53027 2122.8765 3423805
-1182.3093 634.67719 2126.7197 3292219
-1169.0012 634.6861 2126.7495 3226426
-1157.8965 635.90533 2130.835 3226426
-1145.3979 636.3786 2132.4209 3094840
-1131.8914 636.29633 2132.1453 2963254
-1122.8152 638.73236 2140.3081 3226426
-1107.4312 637.5957 2136.4993 3555391
-1094.4208 637.81451 2137.2324 3226426
-1086.6403 641.12439 2148.3235 2897461
-1077.5665 643.74469 2157.1038 2831925
-1071.7405 648.39648 2172.6912 2766132
-1061.4354 650.42322 2179.4827 2765875
-1048.2478 650.7135 2180.4551 2765875
-1035.9742 651.58624 2183.3796 2700082
-1027.0438 654.61322 2193.5227 2700339
-1011.5557 653.4859 2189.7451 2897461
-1002.8104 656.74347 2200.6609 2766131
-987.53052 655.75275 2197.3411 3094840
-965.55115 650.22229 2178.8093 3160633
-951.93878 650.24872 2178.8977 3226426
-939.12659 650.83032 2180.8467 3226425
-926.17926 651.33405 2182.5347 3029047
-916.93311 654.49481 2193.126 3160633
-902.48358 653.98114 2191.4045 3029306
-884.25659 650.67194 2180.3159 2897719
-870.43134 650.54865 2179.9028 2700084
-855.77277 649.78876 2177.3564 2897207
-839.64221 647.86841 2170.9216 2765877
-828.52246 649.81488 2177.4441 2963256
-818.23419 652.48956 2186.4065 2700085
-804.53564 652.48956 2186.4065 3095355
-788.4328 650.5058 2179.7593 3227198
-774.7572 650.49011 2179.7065 3161405
-760.42004 649.90839 2177.7573 3095355
-747.37231 650.42755 2179.4971 3095355
-733.84027 650.5368 2179.863 3161148
-725.64636 655.47205 2196.4004 3095355
-710.26837 653.98334 2191.4119 2766647
-692.13995 649.85345 2177.5735 3029562
-677.53198 648.92944 2174.4771 3161148
-661.2901 646.37036 2165.9019 3161148
-648.03394 646.68365 2166.9517 3161148
-639.27112 651.59015 2183.3928 3029562
-625.59143 651.59015 2183.3928 3029562
-608.5661 648.02753 2171.4548 2897719
-594.68689 647.72864 2170.4534 2832183
-582.16626 648.93018 2174.4795 3160635
-568.94476 649.3894 2176.0183 2897460
-555.31134 649.3894 2176.0183 2897461
-542.91846 650.87659 2181.0017 2897461
-535.01837 657.96588 2204.7568 2305324
-516.16199 651.59973 2183.4248 2502960
-504.11072 653.71161 2190.5015 2897461
-488.83359 651.64136 2183.5645 2831668
-476.03519 652.85144 2187.6191 2963254
-463.95029 655.14075 2195.2903 3029047
-450.41397 655.45782 2196.3528 3029047
-436.62103 655.40961 2196.1912 3555391
-421.66101 653.54938 2189.9578 3094840
-406.17966 650.72876 2180.5063 2963511
-392.38956 650.51562 2179.7922 3094840
-378.12793 649.47729 2176.3127 3029049
-363.80005 648.2431 2172.1772 3160635
-351.86661 651.34546 2182.5728 3292221
-336.44046 647.97186 2171.2683 3226428
-322.58167 647.45972 2169.5522 3226428
-308.13058 645.6615 2163.5266 3226428
-294.05042 644.5108 2159.6709 3160635
-279.68652 642.59723 2153.2585 3358014
-264.48071 638.45728 2139.3862 3226428
-252.63182 642.41144 2152.6362 3029049
-239.24368 642.67688 2153.5256 3029049
-225.51096 641.99298 2151.2339 3094842
-211.90329 641.60083 2149.9199 3423807
-196.99786 636.95941 2134.3669 3029049
-185.77026 644.39954 2159.2979 3226428
-171.9352 643.25323 2155.4568 3029049
-159.26924 646.65826 2166.8667 3292218
-145.69316 646.65826 2166.8667 3226426
-131.14743 641.91229 2150.9636 3029304
-118.07694 644.12683 2158.3843 3029048
-104.31859 642.67664 2153.5247 2700082
-91.159866 645.03839 2161.4387 2568496
-77.101807 640.75043 2147.0703 2436910
-63.788803 642.15033 2151.7612 2239531
-50.452785 644.00671 2157.9817 2502703
-36.916119 643.72345 2157.0325 2502960
-23.344196 642.14325 2151.7375 2240044
-9.8843613 643.54102 2156.4211 2503216
3.6379941 645.61877 2163.3835 2503216
17.233805 647.17877 2168.6108 2832181
30.799622 646.73358 2167.1191 2503218
44.329311 646.03436 2164.7759 2174253
58.10955 648.45862 2172.8994 2305839
71.715141 648.38354 2172.6479 2437426
85.405556 648.97711 2174.6367 2371632
99.104553 649.4635 2176.2666 2371632
112.85282 650.11609 2178.4534 2305840
126.52014 650.21185 2178.7742 2437169
140.17613 650.23639 2178.8564 2371376
153.95372 650.77057 2180.6465 2108460
167.01433 648.43402 2172.8169 1976874
181.22763 650.58771 2180.0337 2240046
194.668 649.85925 2177.5928 2240046
208.31131 649.85925 2177.5928 1911081
221.38821 648.20093 2172.0359 1845288
236.57552 652.55591 2186.6289 2240046
250.22525 652.42505 2186.1904 2042665
263.26505 650.80011 2180.7454 2174251
276.71771 650.30566 2179.0886 1976872
291.14587 652.04236 2184.9082 2700851
304.48682 651.29767 2182.4126 3095609
312.54077 639.79401 2143.8655 2832437
328.78458 645.31287 2162.3584 2305837
343.79349 648.06702 2171.5872 2569265
357.39914 648.06702 2171.5872 2634802
369.9202 646.17249 2165.2388 2437422
383.96213 646.97455 2167.9265 2832438
397.01874 646.11835 2165.0574 2766645
410.5835 646.11835 2165.0574 2569265
424.4028 646.5061 2166.3567 2371887
440.20102 649.79102 2177.364 2436654
455.35962 651.96252 2184.6406 2436910
471.51761 655.39655 2196.1475 2239531
481.15994 649.836 2177.5149 2239531
494.34677 649.23712 2175.5081 2305324
506.78458 647.71313 2170.4014 2107945
520.17566 647.45526 2169.5374 2042152
533.91345 647.6311 2170.1265 1910823
545.51251 645.26843 2162.2095 1778980
557.57587 643.55609 2156.4717 1976359
571.67957 644.224 2158.7097 2305324
585.44891 644.49304 2159.6113 2305324
598.85144 644.35522 2159.1494 2305324
613.211 645.23041 2162.0823 2371117
628.42487 646.94733 2167.8352 2502703
640.71582 645.64618 2163.4753 2436912
657.56915 648.90125 2174.3826 2042154
671.19232 648.90125 2174.3826 2173740
684.59814 648.69525 2173.6924 2568498
698.35809 648.82635 2174.1316 2634291
716.40735 652.86127 2187.6521 2568498
730.11371 652.86127 2187.6521 2568755
740.1275 649.62024 2176.792 2568498
749.68872 646.10657 2165.0181 2436912
759.29535 642.75616 2153.7913 2371119
778.23553 647.28583 2168.9695 2502705
794.40045 649.3913 2176.0247 2436912
809.54523 650.60583 2180.0945 2239533
821.59253 649.33215 2175.8264 2371119
833.47784 647.97394 2171.2754 2436912
847.63007 648.39368 2172.6816 2634548
859.37646 646.98865 2167.9736 3292221
872.32587 646.51904 2166.4001 3686979
884.91913 645.80396 2164.0039 2436912
901.53986 648.00519 2171.3801 1778982
906.5387 641.91174 2150.9617 2305326
918.5954 640.92114 2147.6423 2568498
930.51013 639.86157 2144.0918 2634291
943.53424 639.58411 2143.1621 2436912
956.08252 638.9964 2141.1929 2371119
970.80707 639.85938 2144.0845 2634291
984.24036 639.85938 2144.0845 2568498
998.34888 640.29236 2145.5354 2502705
1011.4448 640.07306 2144.8005 2634291
1024.8633 640.06097 2144.76 2700084
1036.7524 639.10645 2141.5615 2700084
1048.7631 638.25024 2138.6926 2436912
1063.8925 639.28967 2142.1755 2371120
1081.9071 642.01544 2151.3091 2634291
1095.3857 642.01544 2151.3091 2568498
1120.7253 648.88275 2174.3206 2963256
1125.9314 644.06812 2158.1873 3094842
1121.5593 633.95374 2124.2954 2700084
1129.9031 631.17981 2115.0005 2502705
1146.5302 633.04382 2121.2466 2239534
1160.0503 633.16931 2121.667 2173740
1177.7186 635.53046 2129.5789 2305326
1193.0635 636.59888 2133.1589 2765877
1210.1819 638.57953 2139.7959 2700341
1220.6221 637.03143 2134.6084 2831670
1231.3724 635.67706 2130.0701 3094842
1244.7181 635.67706 2130.0701 3095099
1257.9794 635.6344 2129.9272 3029049
1272.9393 636.44208 2132.6335 3029049
1282.8849 634.75189 2126.97 2897463
1298.8651 636.05151 2131.325 2963256
1317.4128 638.56934 2139.7617 2831670
1327.6345 637.04132 2134.6416 2700084
1329.7957 631.71454 2116.7922 2634291
1351.0187 635.45892 2129.3391 2436912
1364.3479 635.45343 2129.3208 2568498
1382.2861 637.57391 2136.4263 2634291
1391.5903 635.70966 2130.1792 2568498
1409.2593 637.66553 2136.7332 2634291
1427.0778 639.65173 2143.3887 2502705
1439.7131 639.29932 2142.2078 2502705
1460.1074 642.36688 2152.4868 2568498
1469.519 640.59076 2146.5354 3029049
1482.7195 640.48358 2146.176 2963256
1506.8087 645.03955 2161.4426 3094842
1513.2271 642.01715 2151.3149 3226428
1531.1229 643.87469 2157.5393 3094842
1554.3901 647.93872 2171.1575 3160635
1567.1301 647.58209 2169.9624 3160122
1578.3744 646.61896 2166.7349 2765877
1594.076 647.4826 2169.6289 2765877
1608.3099 647.74054 2170.4932 2634291
1625.5104 649.17889 2175.313 2502705
1645.5675 651.72473 2183.8438 2897463
1665.3616 654.12531 2191.8877 2963256
1678.1218 653.74646 2190.6182 2700084
1698.1581 656.18518 2198.79 2765877
1716.3448 657.87585 2204.4553 2634291
1727.9332 657.0304 2201.6223 2502705
1747.1049 659.05908 2208.4202 2568755
1765.0406 660.59332 2213.5613 2436913
1784.3002 662.59521 2220.2693 2634291
1790.3977 659.71625 2210.6223 2502705
1809.8936 661.78058 2217.5396 2502705
1825.059 662.24207 2219.0859 2371119
1838.0957 661.92999 2218.0403 2371119
1855.2614 663.09839 2221.9553 2436912
1894.1327 671.94952 2251.6143 2700084
1894.3898 667.07257 2235.2722 2568498
1912.3145 668.44275 2239.8635 2371119
1914.2919 664.25934 2225.8455 2173740
1924.2383 662.88159 2221.229 2371119
1925.4871 658.54901 2206.7109 2502706
1942.0286 659.47125 2209.8013 2568498
1959.3712 660.65045 2213.7527 2436912
1967.9863 658.89124 2207.8577 2239533
1981.1991 658.68506 2207.1667 2239533
1993.5492 658.1969 2205.531 2239789
2007.0713 658.09973 2205.2056 2370862
2011.7723 655.13135 2195.2588 2304556
2021.3156 653.76947 2190.6953 2304813
2036.1082 654.11224 2191.844 2304813
2050.4324 654.30109 2192.4768 2304813
2063.7417 654.16565 2192.0229 2370606
2068.5068 651.34155 2182.5598 2436399
2074.6648 648.99036 2174.6812 2502192
2092.4827 650.29333 2179.0474 2502192
2104.8547 649.89801 2177.7227 2502192
2112.1621 647.9541 2171.2087 2304813
2129.9517 649.2301 2175.4846 2107434
2135.1384 646.67285 2166.9155 2041641
2148.2556 646.53461 2166.4524 2107434
2162.4683 646.72583 2167.093 2370606
2176.0457 646.72583 2167.093 2370606
2185.3171 645.45392 2162.8311 2370606
2192.3376 643.53699 2156.4077 2370606
2203.646 642.89459 2154.2551 2304813
nan nan nan 16777215
nan nan nan 16777215
nan nan nan 16777215
nan nan nan 16777215
nan nan nan 16777215
nan nan nan 16777215
nan nan nan 16777215
nan nan nan 16777215
nan nan nan 16777215
nan nan nan 16777215
nan nan nan 16777215
-1925.0673 646.78308 2122.9509 2700084
-1906.4868 644.99695 2117.0884 2634291
-1886.1885 642.60052 2109.2224 2766134
-1867.6521 640.77472 2103.2297 2634291
-1858.2515 642.07971 2107.5132 2568755
-1851.8075 644.43231 2115.2351 2700084
-1841.0393 645.3031 2118.0933 2634291
-1822.2893 643.36865 2111.7437 2700084
-1805.1273 641.97046 2107.1545 2634548
-1788.3296 640.68231 2102.9263 2568755
-1773.0485 639.92236 2100.4319 2634291
-1764.0515 641.43597 2105.4001 2568498
-1746.702 639.91254 2100.3997 2568498
-1731.5264 639.16833 2097.957 2568755
-1710.0575 636.07196 2087.7937 2700084
-1692.1465 634.26141 2081.8508 2700084
-1676.3617 633.22589 2078.4519 2765877
-1662.1946 632.79004 2077.0212 2700082
-1661.8934 637.66766 2093.0312 2568495
-1637.9374 633.47424 2079.2671 2436910
-1613.7068 629.10663 2064.9312 2436910
-1596.5046 627.43048 2059.4297 2502703
-1579.6646 625.87073 2054.3098 2502703
-1565.005 625.15613 2051.9644 2436910
-1552.4104 625.26154 2052.3103 2371117
-1546.5035 628.08478 2061.5771 2371117
-1538.6989 630.17828 2068.4487 2239531
-1519.6124 627.64764 2060.1423 2305324
-1502.8538 626.04333 2054.8765 2305324
-1487.5786 625.03467 2051.5657 2239531
-1476.9869 625.99335 2054.7124 2371117
-1468.1584 627.72278 2060.3889 2371117
-1456.9946 628.47559 2062.8599 2305324
-1447.5886 630.00684 2067.886 2239531
-1435.0228 630.17816 2068.4482 2173738
-1417.7839 628.28174 2062.2236 2239531
-1406.2241 628.89026 2064.2209 2436910
-1396.2495 630.22559 2068.604 2436910
-1390.3838 633.45795 2079.2136 2305324
-1381.4359 635.33392 2085.3711 2634289
-1362.8384 632.76538 2076.9404 2897461
-1349.8257 632.76538 2076.9404 2765875
-1342.2863 635.35608 2085.4438 2568496
-1329.1421 635.31873 2085.3213 2634289
-1317.4388 635.9762 2087.4792 2700082
-1306.6788 637.10669 2091.1899 2700082
-1295.0897 637.85187 2093.6357 2831668
-1278.5026 636.12543 2087.969 2897461
-1268.0781 637.46118 2092.3535 2831668
-1257.3536 638.67255 2096.3296 2568496
-1238.6665 635.82214 2086.9736 2371117
-1222.8236 634.38641 2082.2612 2568753
-1210.1113 634.56146 2082.8357 2897461
-1195.964 633.97961 2080.9258 3160633
-1180.5387 632.69995 2076.7256 3226169
-1167.2393 632.54376 2076.2129 2897461
-1154.5156 632.69971 2076.7249 3029047
-1153.5604 639.38202 2098.6582 3292219
-1131.6987 634.49707 2082.6243 3226426
-1119.145 634.77753 2083.5449 3160633
-1111.3217 637.77948 2093.3982 3094840
-1099.0557 638.27289 2095.0178 3029047
-1089.0164 640.0871 2100.9727 3029047
-1080.8867 643.08191 2110.8025 3029047
-1066.0692 642.12256 2107.6538 3029047
-1050.0739 640.42084 2102.0681 2831925
-1043.269 644.35223 2114.9722 2634546
-1027.2491 642.62006 2109.2866 2831668
-1011.9149 641.27722 2104.8792 2963254
-998.72711 641.27722 2104.8792 3029047
-988.23248 643.0296 2110.6309 3094840
-974.14941 642.46289 2108.7708 3029047
-960.59546 642.23431 2108.0205 3160633
-950.3277 644.22711 2114.5615 3095096
-938.11487 644.93903 2116.8982 3095609
-924.3407 644.58258 2115.7283 3226682
-910.83014 644.40228 2115.1365 3029560
-895.10156 642.62421 2109.3003 2963767
-879.19489 640.66321 2102.8635 3029304
-877.22272 648.95081 2130.0662 2437169
-861.94653 647.50043 2125.3057 2634548
-845.63568 645.21521 2117.8047 2766134
-834.60461 646.94971 2123.498 2634291
-820.60028 646.39838 2121.6882 2831670
-807.30725 646.39838 2121.6882 2898233
-792.73492 645.35687 2118.2698 2832440
-785.31885 650.20502 2134.1829 3490113
-771.94751 650.20502 2134.1829 3621699
-748.52759 641.59198 2105.9121 3226941
-739.75397 645.44897 2118.572 3161148
-726.54663 645.50781 2118.7651 3161148
-713.24988 645.48785 2118.6997 3161148
-700.0282 645.53638 2118.8589 3292734
-688.4881 647.16748 2124.2126 3292734
-674.11951 646.15161 2120.8784 3161148
-669.18134 654.31598 2147.6763 3226941
-655.72546 654.31598 2147.6763 3161405
-631.82355 643.67395 2112.7458 2832183
-616.7193 641.73096 2106.3684 2897976
-602.38 640.51642 2102.3818 2897719
-588.85175 640.12921 2101.1108 2832183
-574.57574 638.89288 2097.0527 2766391
-563.95453 641.75763 2106.4558 2568755
-553.57263 645.03857 2117.2251 2831668
-541.38501 646.32489 2121.447 2897461
-529.15704 647.62659 2125.7195 2963254
-516.62268 648.61078 2128.9502 3094840
-503.22006 648.5282 2128.679 2963254
-487.95984 645.98187 2120.3213 3029047
-473.62738 644.55579 2115.6401 2897718
-461.62189 646.3053 2121.3828 2897461
-448.39661 646.40021 2121.6943 2963254
-436.26285 648.12262 2127.3477 3029047
-427.16595 654.60724 2148.6323 3029047
-409.94305 648.65613 2129.0989 2897461
-395.85474 647.43134 2125.0789 3095097
-382.19086 646.83966 2123.1367 3094840
-369.35712 647.66089 2125.8323 2963512
-358.62848 652.37299 2141.2988 3095099
-347.45663 656.61377 2155.2185 3423807
-328.88266 646.64355 2122.4929 3226428
-314.2113 643.82959 2113.2566 3094842
-300.67734 643.20117 2111.1941 3094842
-287.21805 642.68201 2109.49 3029049
-273.34619 641.14508 2104.4453 2963256
-259.65042 639.88635 2100.3137 3029049
-246.80109 640.69067 2102.9536 3160635
-233.29425 639.78235 2099.9724 3094842
-220.13727 639.78235 2099.9724 3094842
-206.6142 638.65076 2096.2581 3292221
-192.98311 637.00897 2090.8691 2700084
-179.88316 637.00897 2090.8691 2700084
-168.88344 645.03052 2117.1985 2963256
-156.10519 647.04767 2123.8196 3358011
-142.15521 644.13147 2114.2476 3291705
-129.22389 645.70599 2119.4155 2436652
-115.56539 643.59131 2112.4746 2239274
-101.47433 638.20911 2094.8086 1910309
-88.570518 639.8042 2100.0442 2370860
-76.143837 646.00391 2120.3936 2436653
-62.983456 647.28387 2124.5947 2765875
-49.248688 641.76483 2106.4795 2436910
-36.136295 643.28436 2111.467 2305324
-23.038002 646.95465 2123.5142 1976359
-9.7179003 645.91608 2120.1052 2042408
3.565948 646.04858 2120.5403 2174507
16.895191 647.71246 2126.0015 2371886
30.215248 647.71246 2126.0015 2305837
43.314556 644.4281 2115.2212 2305837
56.787895 646.94379 2123.4785 2503216
70.163292 647.60052 2125.634 2700595
83.628571 648.74481 2129.3901 2437423
96.827538 647.79266 2126.2649 2371630
110.15213 647.80969 2126.3206 2371631
123.41706 647.51001 2125.3369 2371631
136.54002 646.59631 2122.3379 2437425
149.87953 646.7793 2122.9385 2240046
163.22853 646.97003 2123.5647 2240046
176.42181 646.5614 2122.2234 2174253
189.73572 646.62103 2122.4192 2174253
203.24852 647.3064 2124.6687 2108460
216.56023 647.3064 2124.6687 1845288
230.1393 648.05933 2127.1399 2108461
243.46648 648.05933 2127.1399 2239531
257.08701 648.79956 2129.5698 1976360
268.60205 644.41541 2115.1794 1910566
280.85086 642.12115 2107.6492 2107689
294.33337 642.72699 2109.6377 2370861
308.77087 645.27655 2118.0061 2305324
319.30698 639.79865 2100.0259 2305837
335.45145 645.54718 2118.8943 2503216
347.10556 642.54572 2109.0425 2634546
360.09021 642.13702 2107.7012 2568752
375.07782 645.20276 2117.7639 2568752
390.22806 648.32916 2128.0259 2635058
403.56079 648.32916 2128.0259 2766388
415.10538 645.54834 2118.8982 2371630
428.38095 645.54834 2118.8982 2107945
443.5495 648.31531 2127.9802 2239531
458.73383 650.94312 2136.6055 2502703
470.13797 648.2099 2127.6343 2700082
479.18094 642.46173 2108.7668 2831668
493.97794 644.5296 2115.5544 2700082
507.78806 645.23547 2117.8713 2831668
520.28619 644.28076 2114.7375 2502703
