# .PCD v0.7 - Point Cloud Data file format
VERSION 0.7
FIELDS x y z rgb
SIZE 4 4 4 4
TYPE F F F U
COUNT 1 1 1 1
WIDTH 1267
HEIGHT 1
VIEWPOINT 0 0 0 1 0 0 0
POINTS 1267
DATA ascii
2133.2549 710.03333 3362.2207 3358015
2154.2241 710.00165 3362.0708 3621186
2219.0476 724.28436 3429.7036 3358014
2217.5183 716.84369 3394.4697 3029049
2231.7322 714.58521 3383.7751 3095099
2263.2097 717.84485 3399.2107 3160892
2282.9087 717.34265 3396.8328 3292221
2270.3176 706.79724 3346.897 3884358
2300.4773 709.6322 3360.3213 3358013
2319.2278 708.92822 3356.9878 3292477
2336.0525 707.6535 3350.9517 3292475
2364.3909 709.85834 3361.3921 3160633
2396.8994 713.26501 3377.5239 2765618
2409.3413 710.69312 3365.345 2765618
2416.5579 706.63776 3346.1418 3028790
2427.9451 703.86127 3332.9944 3160376
2457.353 706.31177 3344.5981 3160376
2518.9824 717.90393 3399.4905 2897204
2526.8372 714.10455 3381.499 2765618
2552.8779 715.46515 3387.9419 2765618
2554.1643 709.92279 3361.6973 2897204
2584.3757 712.44495 3373.6406 2962997
2598.2661 710.46356 3364.2581 3094583
2663.0601 722.32092 3420.4062 2962997
2685.2576 722.52747 3421.384 2962997
2676.0723 714.35333 3382.6772 2897204
2687.7168 711.8244 3370.7019 2962997
2712.0647 712.67303 3374.7205 2765618
2736.9058 713.63708 3379.2856 2568239
2785.3848 720.70251 3412.7427 2436653
2806.679 720.67999 3412.636 2502446
2779.167 708.22052 3353.6365 2502446
2795.4614 707.0274 3347.9868 2436653
2822.2883 708.49609 3354.9417 2370860
2869.7939 715.09595 3386.1936 2634288
2838.4907 702.10535 3324.6792 2700082
2864.5439 703.38782 3330.7522 2963254
2874.6819 700.77209 3318.366 3028790
2894.9031 700.63428 3317.7134 2963254
2944.5837 707.57745 3350.5916 2699825
2946.1553 702.94373 3328.6492 2765104
2991.4133 708.72522 3356.0266 2765105
3017.8088 709.9884 3362.0078 2962740
3054.2795 713.58795 3379.053 2896947
3059.4094 709.86603 3361.4285 2830900
3066.926 706.745 3346.6494 2830900
3069.9058 702.62793 3327.1541 2765363
3100.0991 704.75293 3337.2166 2831156
3134.3987 707.77673 3351.5352 2896950
3147.0234 705.89844 3342.6409 2897207
3174.9941 707.46448 3350.0566 2963000
3197.3887 707.77557 3351.5295 2962744
3218.428 707.78461 3351.5723 2963000
3254.3242 711.03955 3366.9856 3028793
3268.1963 709.47156 3359.5605 3160379
3283.9292 708.32495 3354.1311 3225916
3322.0796 711.99756 3371.522 3225915
3350.9534 713.64807 3379.3376 3225915
3385.5176 716.48218 3392.7581 3357502
3421.6855 719.61816 3407.6079 3423294
3455.8545 722.29749 3420.2952 3554880
3425.4424 711.52911 3369.3037 3686466
3524.0447 727.5271 3445.0591 3554880
nan nan nan 16777215
nan nan nan 16777215
nan nan nan 16777215
nan nan nan 16777215
nan nan nan 16777215
nan nan nan 16777215
nan nan nan 16777215
-2865.998 668.67279 3075.6018 3489341
-2848.646 669.12317 3077.6733 3686720
-2826.49 668.44366 3074.5479 3884099
-2805.8596 668.11804 3073.05 3884099
-2779.4268 666.39673 3065.1328 3818306
-2752.0637 664.42688 3056.0725 3949892
-2732.9165 664.42688 3056.0725 3949892
-2713.4714 664.35394 3055.7371 4147271
-2691.4224 663.63794 3052.4436 4344650
-2660.9753 660.82611 3039.5105 4344650
-2645.4441 661.70471 3043.5515 4278600
-2618.4509 659.70813 3034.3682 4081478
-2601.969 660.35004 3037.3208 3620927
-2574.1421 658.10095 3026.9758 3489341
-2536.7729 653.3609 3005.1736 3884099
-2523.9827 654.92767 3012.3801 4147271
-2505.1094 654.92767 3012.3801 3818563
-2505.1736 659.91632 3035.3257 3818563
-2507.6677 665.62622 3061.5886 4016199
-2489.1614 665.80695 3062.4199 4344907
-2459.3423 662.94092 3049.2375 4410700
-2440.6104 663.04211 3049.7029 4410700
-2435.406 666.84894 3067.2126 4411213
-2442.1431 674.01208 3100.1599 4805971
-2464.718 685.69623 3153.9019 4937814
-2402.0227 673.65491 3098.5171 4871764
-2382.6096 673.65491 3098.5171 4740178
-2375.3689 677.12482 3114.4773 4345420
-2352.1116 676.04865 3109.5273 4213834
-2341.8584 678.72339 3121.8301 4148041
-2325.845 679.75977 3126.5969 4279627
-2302.4841 678.64807 3121.4836 4542801
-2267.8557 674.16772 3100.876 4937559
-2258.2534 677.11389 3114.427 5200731
-2236.4705 676.42725 3111.2688 4148300
-2228.7861 680.03027 3127.8411 3556420
-2213.1592 681.25232 3133.4619 3622213
-2197.3882 682.45148 3138.9775 3687749
-2177.7214 682.45148 3138.9775 3819335
-2158.6047 682.62537 3139.7773 3819335
-2147.8091 685.45813 3152.8069 3819848
-2138.9636 688.97156 3168.967 3951177
-2111.905 686.62939 3158.1941 3885896
-2088.0352 685.28943 3152.0308 3820103
-2068.2869 685.28943 3152.0308 4017482
-2044.1011 683.80505 3145.2034 4017225
-2019.0782 682.00897 3136.9424 4148298
-1980.915 675.69537 3107.9026 4345676
-1921.3768 661.89307 3044.4177 4082504
-1932.7767 672.49628 3093.188 3490111
-1924.6571 676.45392 3111.3914 3358526
-1917.6252 680.87866 3131.7434 3555391
-1899.0233 681.24438 3133.4255 3686977
-1888.1046 684.40277 3147.9526 3884613
-1842.8689 675.05719 3104.967 3949893
-1823.4153 675.05719 3104.967 3752770
-1806.3494 675.95068 3109.0769 3489598
-1787.2715 676.10254 3109.7751 3489598
-1785.1427 682.73999 3140.3047 3424061
-1753.3073 678.03735 3118.6746 3950149
-1739.1111 680.12701 3128.2861 4081735
-1717.6179 679.37811 3124.8413 3950149
-1704.0155 681.76892 3135.8381 3950149
-1680.0645 680.02686 3127.8252 3752770
-1655.7147 678.08026 3118.8718 4015942
-1641.1824 680.15588 3128.4189 4344907
-1633.403 685.11414 3151.2246 4344907
-1586.5823 673.61786 3098.3469 4278857
-1563.9261 672.22351 3091.9333 3687234
-1551.5907 675.28595 3106.0193 3358525
-1539.901 678.71075 3121.772 3753283
-1505.4784 672.07526 3091.2515 3687747
-1488.9048 673.33887 3097.0635 3621441
-1473.2048 675.03607 3104.8701 3687234
-1454.3383 675.30841 3106.1226 3621697
-1444.4409 679.80933 3126.825 3687747
-1428.1063 681.36279 3133.9702 3753283
-1406.2964 680.31073 3129.1311 3621697
-1395.5508 684.65723 3149.123 3753283
-1386.4873 689.96533 3173.5381 3950662
-1379.4078 696.42963 3203.271 4148041
-1372.4246 703.13409 3234.1084 4082505
-1362.3002 708.40607 3258.3574 4213834
-1341.8856 708.40607 3258.3574 4213834
-1309.1921 701.82379 3228.0815 3884870
-1276.813 695.20593 3197.6426 3621697
-1279.0713 707.53741 3254.3618 4082504
-1260.3378 708.46838 3258.6438 4345420
-1230.1193 702.86755 3232.8826 4213577
-1221.6309 709.70337 3264.3242 4148041
-1205.4645 712.23541 3275.9707 4213834
-1192.198 716.59839 3296.0383 4082248
-1173.5425 717.81873 3301.6516 4015942
-1149.6637 715.83063 3292.5071 3950150
-1138.719 721.9704 3320.7473 3686977
-1096.3557 708.0481 3256.7107 3555391
-1082.7434 712.51764 3277.2686 3489598
-1056.1639 708.46179 3258.6135 3423805
-1031.8314 705.78308 3246.2927 3226427
-999.85718 697.66437 3208.9502 3291961
-981.88885 699.18585 3215.9485 3291959
-961.51001 699.0188 3215.1799 3555131
-933.26495 693.00323 3187.5112 3423546
-911.04187 691.29425 3179.6504 3423546
-872.14319 676.57263 3111.9373 3686718
-852.64594 676.57263 3111.9373 3357753
-833.30005 676.69543 3112.5024 3028531
-814.70874 677.45172 3115.981 3818047
-803.9209 684.89325 3150.2085 4015683
-781.19916 682.28638 3138.2183 3818560
-758.36853 679.44745 3125.1604 3884354
-739.62634 680.21808 3128.7048 3950146
-720.68225 680.8399 3131.5649 3950148
-694.63324 674.59656 3102.8484 4015941
-679.90247 679.30194 3124.4912 3818306
-662.80157 681.84808 3136.2021 3686720
-642.09637 680.72864 3131.0532 3818306
-622.47937 680.72864 3131.0532 3620927
-604.41351 682.48022 3139.1096 3949892
-579.80591 676.71429 3112.5891 3752513
-567.55792 685.47467 3152.8828 3686720
-549.84637 688.03015 3164.637 3555391
-530.50977 688.66724 3167.5674 3752770
-512.07867 690.57507 3176.3428 3687234
-495.71301 695.53522 3199.157 3686977
-470.43018 687.87445 3163.9209 3818820
-450.17981 687.22198 3160.9197 3884869
-432.02322 689.85278 3173.0205 3950919
-413.96994 692.91034 3187.0837 4082248
-395.7168 695.92627 3200.9556 3884871
-372.89862 690.80737 3177.4109 3753283
-352.21304 689.28455 3170.4067 3621954
-333.82254 692.33972 3184.4592 3819076
-309.29236 682.24023 3138.0059 3687747
-289.82111 682.68628 3140.0574 3687490
-271.14655 685.21045 3151.6677 3621697
-251.02516 684.18774 3146.9639 3490112
-230.64711 682.23163 3137.9663 3423805
-209.01028 675.84052 3108.5701 3292475
-190.82397 680.43988 3129.7251 3555904
-170.70171 678.39886 3120.3374 3818819
-151.83604 681.46985 3134.4624 3424318
-131.2384 676.52478 3111.7175 3424061
-112.4622 680.88202 3131.7588 3358268
-94.142067 690.4256 3175.655 3489598
-74.245598 690.4256 3175.655 3292219
-54.297783 689.77325 3172.6545 3292219
-34.829319 697.97351 3210.3721 3555391
-14.639027 694.35376 3193.7227 3358269
5.3847833 696.1828 3202.1357 3555904
25.736771 704.10608 3238.5793 3555904
46.02562 704.0777 3238.4487 3621697
66.405396 705.0321 3242.8386 3950662
87.066765 707.82855 3255.7009 3884869
108.31111 713.40326 3281.3423 3753283
128.50839 711.40295 3272.1416 3687490
148.83083 710.55048 3268.2207 3687490
169.72791 712.31592 3276.3411 3358782
186.09509 696.74048 3204.7007 3358525
206.17354 696.74048 3204.7007 3753026
230.16074 708.77747 3260.0657 3884613
249.71187 706.30481 3248.6924 3621954
268.70361 702.74194 3232.3047 3754053
288.16586 700.82269 3223.4773 3490881
302.30457 687.05597 3160.1562 3359552
322.10391 687.05597 3160.1562 3885639
343.69833 690.66315 3176.7476 3885639
361.75034 687.14661 3160.573 3754053
375.59219 676.41284 3111.2026 4017225
395.81241 677.65845 3116.9319 4017482
418.55731 682.90625 3141.0693 3425344
438.23709 682.90625 3141.0693 3490881
456.34442 680.56122 3130.2832 3688517
478.03842 683.5379 3143.9749 4148041
494.21472 678.7016 3121.73 4213833
512.86432 677.50085 3116.2068 4082248
538.26105 684.9743 3150.5813 4213833
560.66632 688.24683 3165.6335 4542799
571.34625 677.39404 3115.7156 4279627
589.97943 676.37628 3111.0344 3884869
620.6947 688.83197 3168.3252 3884869
635.32483 683.21808 3142.5037 4015942
644.88623 672.65466 3093.9165 4081735
663.04236 671.41089 3088.1958 3489598
700.3175 689.04913 3169.324 3423805
711.87653 681.10999 3132.8074 3621184
723.64099 673.78815 3099.1301 3489598
752.33435 682.19971 3137.8196 3029047
775.11987 684.96228 3150.5261 3029047
807.8877 696.18976 3202.1675 3555648
826.06183 694.60181 3194.8638 3884356
832.91864 683.79785 3145.1704 3621184
866.06262 694.57544 3194.7424 2963254
886.78326 695.12775 3197.283 3094840
905.36609 694.01685 3192.1733 3292219
932.12708 699.08765 3215.4966 3555391
938.04761 688.64429 3167.4619 3423805
957.89276 688.64429 3167.4619 2963254
980.57263 690.64087 3176.6453 3358012
1001.7421 691.51538 3180.6675 3226426
1024.5333 693.45343 3189.5818 3226426
1047.3672 695.3457 3198.2852 3489598
1057.3678 688.8067 3168.209 3358012
1079.1964 690.07208 3174.0291 3160633
1099.0828 690.07208 3174.0291 3226426
1111.9408 685.73785 3154.0933 3358012
1139.0082 690.16473 3174.4553 3423805
1158.3207 689.82147 3172.8762 3818563
1168.1736 683.95123 3145.8757 3818563
1188.8959 684.53418 3148.5571 3752770
1208.6226 684.53418 3148.5571 3753027
1238.8654 690.39465 3175.5127 3818820
1250.3953 685.80627 3154.4082 4147784
1264.4543 682.72632 3140.2417 4082248
1281.0172 681.07196 3132.6323 4082504
1301.1041 681.31281 3133.7402 3621697
1308.7159 675.11115 3105.2151 3687490
1353.0359 687.75 3163.3484 4016455
1375.2382 688.94366 3168.8389 3950662
1381.0039 681.98657 3136.8391 4213321
1393.085 678.29962 3119.8809 3555391
1418.4294 681.08344 3132.6851 3358012
1431.0148 677.74823 3117.3447 3358012
1452.297 678.56641 3121.1079 3423805
1466.2362 675.97754 3109.2002 3358012
1485.7164 675.97754 3109.2002 3489598
1512.8667 679.42224 3125.0442 2963511
1539.6429 682.61298 3139.7205 2897461
1550.0796 678.57037 3121.1262 3095097
1589.7642 687.27271 3161.1531 3029047
1614.2467 689.26971 3170.3384 2897461
1631.5056 688.17126 3165.2859 2963511
1645.0148 685.53644 3153.167 3094840
1664.7703 685.53644 3153.167 2963254
1687.3986 686.70557 3158.5444 2700082
1721.9567 692.64618 3185.8687 2897461
1749.969 695.84796 3200.5955 2436653
1738.5571 683.47827 3143.7004 3094583
1765.4758 686.28583 3156.6138 3357755
1769.973 680.41193 3129.5964 2634032
1837.3418 698.57092 3213.1199 2568238
1874.4528 704.95673 3242.4919 2502446
1907.8739 709.83295 3264.9202 2699824
1906.2817 701.71692 3227.5901 2765618
1930.661 703.2312 3234.5552 3029046
1947.0098 701.81934 3228.0613 3094329
1965.0905 701.05444 3224.543 3029047
1984.9753 700.9422 3224.0269 3029048
1997.6526 698.31268 3211.9321 3160634
2021.5134 699.60602 3217.8809 3094841
2041.6744 699.60602 3217.8809 3226426
2044.7874 693.82135 3191.2739 3226427
2072.2085 696.31696 3202.7527 2963255
2092.2747 696.31696 3202.7527 2963255
2148.7244 708.31042 3257.9175 2897719
2153.3931 703.16968 3234.2722 3029047
2181.1858 705.60529 3245.4749 3029048
2201.5195 705.60529 3245.4749 3292220
2213.8943 703.07764 3233.8489 3489599
2230.1797 701.82642 3228.094 3555392
2238.947 698.2533 3211.6589 3884099
2259.0691 698.2533 3211.6589 3686977
2311.7637 708.23212 3257.5574 3095097
2328.2903 707.05298 3252.1338 3226426
2347.1863 706.6076 3250.085 3291962
2320.9048 692.68634 3186.0535 3357755
2340.8665 692.68634 3186.0535 3818306
2379.9954 698.31018 3211.9207 3489341
2446.0229 711.66583 3273.3508 3620927
2444.1912 705.21997 3243.7026 3752513
2464.2764 705.15204 3243.3901 3357755
2491.4077 707.08484 3252.2803 3028790
2521.0532 709.69421 3264.2822 3028790
2567.5142 716.95703 3297.688 3028790
2584.2969 715.88269 3292.7466 3094583
2563.6558 704.54059 3240.5779 2962997
2581.344 703.82758 3237.2983 2897461
2613.395 707.01135 3251.9421 2962997
2654.4636 712.56653 3277.4934 2897204
2656.0139 707.50946 3254.2334 2634032
2693.051 711.9104 3274.4758 2568239
2727.8235 715.65076 3291.6799 2699825
2748.447 715.65076 3291.6799 2897461
2755.6396 712.17969 3275.7144 2831411
2792.9622 716.48926 3295.5364 2502446
2781.4126 708.29022 3257.8245 2831411
2789.9067 705.27759 3243.9678 2962997
2801.0679 702.97791 3233.3901 2897204
2815.1069 701.42828 3226.2627 2765618
2836.5874 701.7417 3227.7043 2699825
2857.3137 701.86548 3228.2734 2765618
2870.5598 700.16296 3220.4426 2963254
2890.7368 700.16296 3220.4426 3028791
2900.1511 697.57416 3208.5354 3028790
2915.9561 696.54755 3203.8135 2962743
2924.1082 693.71954 3190.8057 2962742
2951.8608 695.54828 3199.217 3094328
2976.3779 696.59515 3204.0322 3028535
2993.8062 695.98004 3201.2031 3093558
3016.1155 696.50024 3203.5957 2961971
3039.1177 697.17255 3206.6882 3027764
3050.2466 695.13025 3197.2942 3093557
3074.6196 696.11304 3201.8147 2896435
3073.7427 691.40338 3180.1526 2896435
3139.6812 701.68707 3227.4529 3028021
3153.3667 700.23578 3220.7776 3225656
3172.8391 700.07983 3220.0603 3094070
3205.5142 702.82056 3232.6665 3094070
3226.5144 702.98328 3233.4148 2962228
3268.5574 707.69995 3255.1096 2633777
3288.5625 707.61633 3254.7249 2699314
3308.9546 707.61633 3254.7249 2765363
3324.95 706.68188 3250.4268 2896693
nan nan nan 16777215
nan nan nan 16777215
nan nan nan 16777215
nan nan nan 16777215
nan nan nan 16777215
nan nan nan 16777215
nan nan nan 16777215
nan nan nan 16777215
-2846.7595 687.84796 3075.6353 3752513
-2741.6995 666.9776 2982.3159 3752513
-2723.0144 666.9776 2982.3159 3949635
-2701.2537 666.21906 2978.9241 3884356
-2667.78 662.54102 2962.4783 3949892
-2652.7847 663.43274 2966.4653 3818563
-2641.1323 665.17896 2974.2734 4147528
-2608.0554 661.51581 2957.894 4147528
-2575.9597 658.0509 2942.4011 4081735
-2554.9326 657.38397 2939.4189 4081735
-2576.9006 667.85028 2986.218 4081735
-2537.6633 662.49127 2962.2559 4015686
-2515.1567 661.45325 2957.6143 4015942
-2490.2092 659.75305 2950.0122 4081735
-2444.0122 652.35565 2916.9353 4081736
-2439.0337 655.93158 2932.9248 4147528
-2428.3679 658.02075 2942.2664 4344650
-2409.9338 658.02075 2942.2664 4476750
-2425.4854 667.37195 2984.0791 4674129
-2413.208 669.15179 2992.0376 4805459
-2408.1008 672.96332 3009.0803 4674129
-2398.1096 675.45923 3020.2405 4476749
-2411.075 684.51239 3060.7207 4477006
-2374.676 679.58368 3038.6824 4477006
-2355.6377 679.58368 3038.6824 4674642
-2332.2131 678.30792 3032.978 4674385
-2332.5007 683.96442 3058.2705 4411213
-2310.866 683.23297 3055 4213834
-2280.6582 679.93359 3040.2471 3950919
-2268.6243 682.04224 3049.6758 4148041
-2268.9778 687.94269 3076.0588 4345422
-2239.6624 684.87158 3062.3269 4280143
-2216.6584 683.69421 3057.0623 4082764
-2189.2666 681.13098 3045.6011 3688263
-2170.1848 681.13098 3045.6011 3688006
-2151.0071 681.10052 3045.4648 3622723
-2131.9263 681.10052 3045.4648 3556931
-2109.9646 680.17181 3041.3123 3491138
-2100.0991 683.16107 3054.6785 4016456
-2080.5627 683.03052 3054.0947 4279627
-2058.5112 682.06409 3049.7734 4213578
-2042.0984 682.96539 3053.8035 4148042
-2031.1243 685.71991 3066.1199 4016455
-2031.1333 692.27032 3095.4094 4016455
-1988.4851 684.26813 3059.6287 3950662
-1971.7219 685.10419 3063.3669 3884869
-1935.9857 679.29956 3037.4121 3819076
-1909.7057 676.73053 3025.925 3621697
-1899.3407 679.80627 3039.6777 3292732
-1900.6874 687.17847 3072.6418 3292219
-1859.5403 679.18121 3036.8828 3489598
-1833.8477 676.72144 3025.8843 3621184
-1842.3142 686.94733 3071.6082 3818563
-1808.8564 681.59167 3047.6611 3753027
-1782.9097 678.98218 3035.9929 3818563
-1758.178 676.78406 3026.1643 3752770
-1748.9967 680.58929 3043.179 3489598
-1757.7002 691.51453 3092.03 3489598
-1738.3278 691.51453 3092.03 3818563
-1702.1471 684.75287 3061.7959 3950149
-1671.525 680.09863 3040.9851 3950149
-1652.4724 680.09863 3040.9851 3884613
-1633.9152 680.30493 3041.9075 3752770
-1613.6392 679.79199 3039.614 3686977
-1600.2467 682.20142 3050.3875 3752770
-1597.0309 689.05988 3081.0542 4015942
-1570.2794 685.80713 3066.51 3620928
-1551.0668 685.80713 3066.51 3292988
-1529.3107 684.66846 3061.4185 3424318
-1501.7184 680.85474 3044.366 3621954
-1474.9111 677.30347 3028.4868 3621954
-1455.9366 677.30347 3028.4868 3555904
-1440.8948 679.15698 3036.7747 3687490
-1417.4124 677.02856 3027.2576 4016455
-1401.2365 678.3797 3033.2991 4082248
-1391.6573 683.00549 3053.9829 4016455
-1372.1324 682.8111 3053.1135 4016455
-1360.7164 686.70343 3070.5176 4016455
-1349.5142 690.81677 3088.9099 3687747
-1342.3973 697.17163 3117.325 4148041
-1315.5114 693.29547 3099.9932 4148041
-1302.7229 696.84399 3115.8601 4213577
-1284.3633 697.47516 3118.6824 4149068
-1272.2563 701.57373 3137.0085 4017482
-1261.5795 706.60193 3159.4917 4083018
-1252.4771 712.68634 3186.6975 4411983
-1249.8066 722.68719 3231.415 4609105
-1217.986 715.88397 3200.9951 4148554
-1202.2808 718.48352 3212.6187 3819846
-1195.7997 726.77783 3249.7058 4280397
-1174.892 726.43945 3248.1929 4411213
-1154.5411 726.43945 3248.1929 4279627
-1126.9208 721.78345 3227.3743 4148041
-1112.0206 725.25336 3242.8894 4016455
-1081.474 718.45795 3212.5044 3818819
-1039.4075 703.60663 3146.0986 3753027
-1018.9525 703.09351 3143.8042 3753026
-997.77832 702.05414 3139.1565 3819076
-985.07483 707.0528 3161.5076 3950149
-965.41809 707.16345 3162.0024 4278857
-938.09167 701.54309 3136.8716 4081479
-908.17767 693.70563 3101.8274 3950148
-889.93799 694.63782 3105.9954 4015685
-867.15472 691.9859 3094.1377 3752513
-838.80243 684.66699 3061.4121 3358011
-819.62183 684.66699 3061.4121 3291960
-804.43207 688.08075 3076.6763 4213062
-785.15576 688.08075 3076.6763 4147269
-760.23004 683.00525 3053.9817 3752511
-740.26263 682.2373 3050.5479 3686718
-723.04279 684.02795 3058.5544 3884097
-705.67883 685.77606 3066.3711 3686976
-687.57758 686.8855 3071.3315 3555133
-665.81177 684.29248 3059.7373 3555134
-644.80481 682.34875 3051.0461 3555391
-628.35242 685.2533 3064.0334 3489341
-612.88513 689.4491 3082.7944 3621184
-594.90173 690.99536 3089.7085 3950406
-568.52173 682.56476 3052.012 3818563
-551.72144 685.44897 3064.9084 3489341
-534.96667 688.59979 3078.9971 3686720
-519.67468 693.93964 3102.8735 3686977
-500.47836 694.27832 3104.3879 3555648
-481.02844 694.27832 3104.3879 3621184
-459.65497 691.38513 3091.4514 3686977
-440.40628 691.57385 3092.2952 3621441
-420.20514 690.21552 3086.2217 3555391
-400.70969 689.94122 3084.9951 3950406
-380.96732 689.19244 3081.647 3620927
-360.46066 686.90723 3071.429 3490368
-341.67645 687.83179 3075.563 3555904
-324.92902 693.2121 3099.6204 3687490
-306.85571 696.26801 3113.2847 3621954
-285.034 690.65613 3088.1917 3490111
-263.69162 685.4729 3065.0156 3490368
-244.6517 685.93085 3067.0632 3489598
-225.99434 687.63092 3074.665 3226170
-205.75171 684.375 3060.1062 3160633
-186.38406 683.65918 3056.9058 3226426
-167.30042 683.94055 3058.1636 3226426
-149.3009 689.29987 3082.1274 3094840
-129.83588 688.48035 3078.4631 2897461
-109.37959 681.20154 3045.9165 3358012
-90.300621 681.23657 3046.0732 3621184
-71.999573 688.73175 3079.5872 3423805
-53.051128 693.25482 3099.8115 3029047
-33.988991 700.65833 3132.9153 2831668
-14.31984 698.68396 3124.0874 3358012
5.2586308 699.36163 3127.1174 3292219
24.979029 702.9649 3143.229 3358012
44.930504 707.02747 3161.3943 3621697
64.214622 701.31561 3135.8542 3621954
84.115311 703.43634 3145.3369 3621954
103.94765 704.28888 3149.1489 3753283
123.78542 704.90027 3151.8828 3621697
143.09622 702.75549 3142.2927 3687490
163.13686 704.28027 3149.1106 3621954
182.77557 703.9281 3147.5359 3621697
202.50708 703.96716 3147.7104 3555904
222.28082 704.133 3148.4521 3555904
241.82951 703.61707 3146.145 3556417
261.5108 703.53558 3145.7808 3621954
279.87531 700.17133 3130.7378 3556160
300.54111 702.62781 3141.7217 3753540
318.31583 698.43884 3122.9912 3885125
337.04315 696.7041 3115.2346 3555904
357.08994 697.73755 3119.8555 3161403
373.15021 691.27844 3090.9744 4543056
391.60147 689.66766 3083.7717 4805971
404.84274 679.46411 3038.1479 3819075
431.4061 691.53198 3092.1079 3622210
453.86826 696.271 3113.2981 3688003
475.9566 700.06964 3130.2832 4345421
492.3287 695.49249 3109.8169 4477007
508.04959 690.37891 3086.9521 4345421
524.43982 686.51654 3069.6821 4082249
558.15424 704.80347 3151.45 4082506
570.48785 695.76477 3111.0344 4411215
584.22937 688.98364 3080.7134 4148041
602.53296 687.84436 3075.6191 3490111
620.64081 686.55908 3069.8721 3818563
639.87451 686.55908 3069.8721 3621184
658.18658 685.59906 3065.5796 3621184
680.32635 688.5675 3078.8528 3555391
698.4469 687.41663 3073.7065 3555391
710.11224 680.14459 3041.1907 3226426
735.1037 685.68292 3065.9546 3423805
762.26801 692.91431 3098.2888 3292219
796.00873 705.61609 3155.0835 3423805
814.45416 704.47247 3149.97 3555391
822.13202 694.28986 3104.4395 3423805
850.39081 701.5567 3136.9324 3358012
862.42529 695.41284 3109.4607 3423805
884.16132 697.19043 3117.4092 3752770
899.48206 693.94183 3102.8833 3752770
926.28888 699.50458 3127.7566 3489598
943.38232 697.65363 3119.4802 3423805
962.92688 697.65363 3119.4802 3489598
986.48883 700.50647 3132.2363 3358012
1004.9249 699.67902 3128.5366 3423805
1020.4651 696.90564 3116.1357 3621184
1037.2201 695.05042 3107.8403 3621184
1052.5194 692.30603 3095.5691 3555391
1071.9141 692.30603 3095.5691 3489598
1091.6449 692.51923 3096.5225 3226426
1116.7153 696.05328 3112.3245 3226426
1137.1682 696.63721 3114.9353 3226682
1154.0125 695.02802 3107.7402 3423805
1156.4353 684.93079 3062.5916 3489598
1174.5859 684.32642 3059.8889 3423805
1196.6091 685.9613 3067.1995 3686977
1209.8619 682.59637 3052.1536 4015942
1228.6975 682.43695 3051.4404 4147528
1250.6782 684.00244 3058.4404 4344907
1268.7563 683.41858 3055.8298 3950406
1287.9021 683.41858 3055.8298 3884612
1308.2002 684.02112 3058.5239 4081992
1330.3423 685.55652 3065.3894 4279371
1378.8766 700.4552 3132.0071 4015942
1380.9647 691.67267 3092.7371 3423805
1385.2595 684.22314 3059.4272 3489598
1386.6387 675.55646 3020.6753 3489598
1404.0519 674.82953 3017.425 3423805
1419.71 673.28973 3010.5398 3489598
1429.1775 668.89288 2990.8799 3358012
1483.3342 685.25482 3064.0405 2831668
1502.5314 685.25482 3064.0405 2831668
1518.5641 683.8299 3057.6689 2963254
1538.2726 684.07501 3058.7649 3029047
1564.4702 687.16437 3072.5786 3292219
1608.8358 698.06152 3121.3042 3358012
1600.5188 686.11292 3067.8772 3160633
1612.9922 683.25458 3055.0964 3094840
1637.7291 685.59717 3065.571 3094840
1669.0659 690.61621 3088.0132 3358012
1681.1379 687.64038 3074.7073 3489341
1693.7976 684.96954 3062.7649 3489598
1709.3087 683.49884 3056.1887 3226426
1754.7354 693.89044 3102.6536 2765618
1772.6084 693.27795 3099.915 2831668
1801.5077 696.9444 3116.3091 2962740
1815.5099 694.83087 3106.8586 2962997
1831.3521 693.45892 3100.7241 2765618
1865.5265 698.98456 3125.4314 2765617
1876.1162 695.65033 3110.5227 3094330
1892.89 694.65417 3106.0684 2962997
1897.1378 689.12823 3081.3599 3028790
1916.4435 689.12823 3081.3599 3028790
1933.2352 688.23328 3077.3582 2962997
1965.2745 692.73053 3097.467 2962997
1989.639 694.461 3105.2048 3160376
1992.1603 688.60767 3079.0322 3028790
2037.1625 697.40973 3118.3896 2962997
2078.675 704.86115 3151.708 2897204
2098.4214 704.86115 3151.708 2634032
2083.6689 693.38098 3100.3757 2765618
2145.3076 707.29877 3162.6074 3160376
2165.1223 707.29877 3162.6074 3291962
2191.323 709.36597 3171.8506 3423548
2211.1956 709.36597 3171.8506 3489341
2225.2676 707.52173 3163.6042 3423548
2242.8354 706.81158 3160.429 3160376
2266.3005 707.95624 3165.5471 3094840
2287.2229 708.29352 3167.0554 3160376
2310.3013 709.28693 3171.4973 3291962
2330.1719 709.28693 3171.4973 3357755
2353.3823 710.29504 3176.0051 3423548
2401.3127 718.68469 3213.5183 3884099
2426.0129 720.03998 3219.5784 4344650
2409.2136 709.15747 3170.9185 3686720
2429.5525 709.29535 3171.5349 3028790
2446.0908 708.33032 3167.22 2963254
2468.6414 709.10791 3170.6968 3094583
2481.634 707.14948 3161.9399 3160376
2473.6226 699.2843 3126.7717 3094583
2507.2195 703.21289 3144.3379 3160376
2500.5613 695.87756 3111.5388 3094583
2524.4946 697.10327 3117.0195 3094583
2586.2065 708.66199 3168.7029 3094840
2592.28 704.91504 3151.9487 3291962
2631.875 710.27124 3175.8984 3160376
2656.7295 711.59875 3181.8345 3291962
2646.6492 703.61908 3146.1541 3423548
2726.1294 719.3913 3216.6777 3094583
2699.1245 707.03809 3161.4419 2831411
2681.1165 697.20447 3117.4719 2897204
2683.1953 692.69873 3097.325 2897204
2702.6011 692.69873 3097.325 2831411
2727.6467 694.13397 3103.7424 2831411
2741.5447 692.73218 3097.4744 3028790
2752.7205 690.66699 3088.2402 3028790
2782.9617 693.38086 3100.375 3094583
2799.1226 692.57324 3096.7639 3160376
2810.0044 690.47974 3087.4028 3160377
2824.9629 689.40955 3082.6177 3160376
2844.2766 689.40955 3082.6177 3226168
2852.5457 686.75067 3070.7288 3029047
2874.7756 687.46582 3073.9268 3029047
2898.478 688.52124 3078.646 3028792
2915.5012 687.98669 3076.2556 3094330
2933.8496 687.76978 3075.2859 3094329
2964.9988 690.53699 3087.6589 3094586
3000.5623 694.28967 3104.4387 3160122
3040.1082 698.90961 3125.0962 3094586
3041.9409 694.85577 3106.97 3028022
3031.3101 688.0246 3076.425 3027766
3050.585 688.0246 3076.425 2962230
3072.6709 688.6546 3079.2422 2962230
3091.9631 688.6546 3079.2422 2765108
3095.6333 685.19672 3063.7805 2830901
3125.0823 687.45227 3073.866 2831156
3146.3479 687.89105 3075.8279 2896693
nan nan nan 16777215
nan nan nan 16777215
nan nan nan 16777215
nan nan nan 16777215
nan nan nan 16777215
nan nan nan 16777215
nan nan nan 16777215
nan nan nan 16777215
-2667.2078 662.42261 2881.6477 4279114
-2640.6868 660.30554 2872.438 4147528
-2622.5208 660.26294 2872.2527 4081735
-2598.6675 658.77802 2865.793 4015942
-2583.5088 659.49188 2868.8982 4016199
-2572.5486 661.29492 2876.7419 4015942
-2547.6882 659.52509 2869.043 4081735
-2512.5972 655.06287 2849.6313 4147785
-2491.6438 654.24896 2846.0908 4147528
-2485.196 657.25964 2859.1877 4147528
-2468.572 657.60321 2860.6824 4147785
-2461.2126 660.43787 2873.0137 4148041
-2430.6262 657.03564 2858.2134 4345164
-2410.6021 656.45923 2855.7058 4476750
-2389.5601 655.59503 2851.9463 4411470
-2377.1714 657.10974 2858.5356 3687747
-2359.262 657.10974 2858.5356 4016711
-2377.1235 667.14911 2902.2085 5003606
-2367.0623 669.44617 2912.2012 4937557
-2334.0623 665.24097 2893.908 4674642
-2333.541 670.29938 2915.9126 4542799
-2319.4661 671.51361 2921.1948 4411213
-2317.9692 676.41772 2942.5286 4345420
-2296.0088 675.38092 2938.0183 4345420
-2284.0867 677.30408 2946.3843 4477262
-2274.7805 680.04053 2958.2883 4542799
-2271.0867 684.51367 2977.7471 4213834
-2214.9595 673.12628 2928.2102 4082248
-2208.2725 676.6991 2943.7527 4148041
-2184.7598 675.13263 2936.9382 4213833
-2178.0518 678.77667 2952.7903 4148043
-2173.855 683.2724 2972.3474 3950921
-2150.8889 681.89539 2966.3574 3819334
-2129.4421 680.98029 2962.3765 3753540
-2095.8259 676.12311 2941.2471 3621954
-2070.3923 673.84296 2931.3279 3490369
-2055.3748 674.94244 2936.1108 3621698
-2035.1106 674.3233 2933.4175 3884869
-2009.302 671.83905 2922.6106 3884870
-1995.7368 673.44049 2929.5771 3884869
-1981.8516 674.96265 2936.1987 3950662
-1963.8701 675.10516 2936.8188 4148041
-1989.0547 690.22968 3002.6128 4016455
-1974.5001 691.72131 3009.1018 3490111
-1902.0507 672.76398 2926.6343 3424575
-1887.8153 674.22864 2933.0056 3753283
-1871.9283 675.1264 2936.9111 3753540
-1852.4181 674.72217 2935.1528 3687490
-1819.0466 669.21057 2911.1763 3621441
-1814.8992 674.44733 2933.957 3752770
-1785.5726 670.33862 2916.0835 3818562
-1764.5149 669.28131 2911.4841 3555647
-1766.0602 676.86475 2944.4731 3621183
-1750.5826 678.01526 2949.478 3686975
-1732.1031 678.01526 2949.478 3424059
-1710.4673 676.76636 2944.0452 3160887
-1689.0653 675.58374 2938.9006 3357756
-1676.7812 678.06219 2949.6824 3489598
-1673.0962 684.11206 2976.0002 3423805
-1663.1857 687.724 2991.7126 3555391
-1623.4154 678.93054 2953.4597 3884356
-1595.8723 675.10681 2936.8259 3818563
-1575.1453 674.11102 2932.4939 3621441
-1557.3466 674.35968 2933.5757 3884356
-1543.9059 676.52393 2942.9905 3884356
-1534.0612 680.33527 2959.5706 3752770
-1516.7526 680.88928 2961.9805 3621184
-1485.4396 675.09235 2936.7629 3687490
-1460.8739 672.25494 2924.4197 3555904
-1447.8638 674.73053 2935.189 3621697
-1433.9343 676.83594 2944.3479 3621697
-1415.4872 676.83594 2944.3479 3358781
-1394.5364 675.62305 2939.0715 3819333
-1376.5203 675.81848 2939.9216 4213834
-1355.6117 674.5799 2934.5337 4082248
-1337.2189 674.57629 2934.5181 4082505
-1326.6477 678.57336 2951.906 4082248
-1315.9855 682.63623 2969.5803 4279370
-1300.5188 684.28772 2976.7644 4280141
-1277.7091 682.06738 2967.1055 4280654
-1278.7999 692.72839 3013.4827 4083018
-1264.3452 695.16174 3024.0681 3885896
-1254.8721 700.44971 3047.0718 4280654
-1231.9025 698.25128 3037.5081 4346190
-1213.3043 698.50037 3038.5918 4346190
-1199.1072 701.33154 3050.908 4346190
-1193.6277 709.43573 3086.1624 4149069
-1174.2919 709.43573 3086.1624 4148812
-1155.1145 709.53302 3086.5854 4017482
-1152.9965 720.29077 3133.3835 4477777
-1133.3647 720.29077 3133.3835 4805973
-1113.8462 720.36389 3133.7017 4345677
-1090.5137 717.92871 3123.1082 4280140
-1061.4913 711.59039 3095.5354 4345933
-1043.6239 712.63312 3100.0715 3688260
-1021.4241 710.70093 3091.6663 3819076
-999.64355 708.99146 3084.2295 3819076
-972.04211 703.00476 3058.1865 3950662
-944.85242 697.08105 3032.4175 4016455
-907.76147 683.45959 2973.1619 4082246
-886.05963 681.09656 2962.8823 4082246
-869.08075 682.34058 2968.2939 4279369
-847.78094 680.17242 2958.8621 4279624
-832.64447 682.96252 2970.9995 4147782
-812.66205 681.81476 2966.0063 4147526
-789.00879 677.46118 2947.0679 4016452
-781.19562 686.82562 2987.8047 4213062
-762.19025 686.56818 2986.6846 4081476
-745.7851 688.69891 2995.9539 3358009
-722.8916 684.79321 2978.9634 3423546
-704.22742 684.79321 2978.9634 3489339
-683.97882 683.21051 2972.0784 3160374
-663.91443 681.72839 2965.6309 3028787
-645.20465 681.59186 2965.0371 3489341
-626.62775 681.59186 2965.0371 3423548
-609.63177 683.36401 2972.7461 3357755
-594.05627 686.89026 2988.0857 3620927
-574.5943 686.00592 2984.2388 3555134
-556.56616 686.83154 2987.8306 3884099
-536.3465 684.91608 2979.498 3423548
-519.414 687.21161 2989.4839 3423548
-507.49277 696.55701 3030.1377 3160633
-490.7175 699.70746 3043.8428 3226426
-471.18823 699.02704 3040.8828 3292219
-444.00616 686.45764 2986.2039 3292219
-424.28525 684.82513 2979.1021 3160633
-405.79333 685.11737 2980.3735 3292219
-389.08493 688.59418 2995.4983 3423805
-369.0618 686.25983 2985.3433 3752770
-349.03345 683.66595 2974.0596 3555391
-330.40005 683.66595 2974.0596 3291963
-312.3226 684.88507 2979.363 3555391
-298.44522 696.05493 3027.9536 3094840
-283.49683 706.07373 3071.5371 2897461
-257.02637 686.76526 2987.542 3489598
-233.51526 672.95197 2927.4519 3160633
-215.21538 673.08185 2928.0168 3160633
-196.62086 672.22852 2924.3047 3423805
-177.74203 670.12793 2915.167 3555391
-159.74886 671.2677 2920.125 3555391
-143.95981 683.16205 2971.8674 3884356
-124.89713 680.74744 2961.3635 3555391
-104.88126 671.38843 2920.6504 3226426
-86.237404 668.71271 2909.0105 3358012
-68.333199 671.87524 2922.7681 3358012
-50.471867 677.92914 2949.1035 3226426
-32.6418 691.63788 3008.7388 3292219
-13.709268 687.53296 2990.8818 3094840
5.0265336 687.12286 2989.0977 3292219
23.69364 685.37225 2981.4824 3292219
42.985851 695.27594 3024.5649 3555647
61.841228 694.21558 3019.9521 3621183
80.782349 694.38904 3020.7068 3358012
100.70039 701.30017 3050.7712 3621441
119.81441 701.30017 3050.7712 3884612
139.54529 704.41388 3064.3167 3753027
158.71802 704.29791 3063.8118 3686977
175.89076 696.28955 3028.9744 3621441
194.59 695.29541 3024.6497 3621184
214.29881 697.76495 3035.3926 3490111
233.64725 698.75415 3039.6956 3424318
254.96457 705.03864 3067.0342 3161403
274.18048 705.03864 3067.0342 3358525
290.83209 698.87659 3040.2283 3687491
306.94623 692.25983 3011.4443 3950405
324.83054 690.17047 3002.3555 3358525
348.21536 699.35724 3042.3193 3358782
366.3811 697.6524 3034.9028 3095609
380.02762 687.93494 2992.6304 3490111
392.49051 677.08942 2945.4504 3950918
415.53119 684.6463 2978.3242 3753539
435.43207 686.60278 2986.8352 3621953
456.36829 689.96326 3001.4539 4279627
478.92328 695.40833 3025.1409 4279627
499.6593 697.89813 3035.9719 3490111
518.6806 697.89813 3035.9719 3753283
534.63593 693.91876 3018.6609 3753283
555.47211 696.32983 3029.1494 3687490
570.64056 691.7113 3009.0581 3621697
583.15594 684.27515 2976.7095 3489854
601.94415 684.43225 2977.3931 3884356
628.45624 693.09827 3015.0916 3423805
646.70874 692.41516 3012.1201 3555391
656.17957 682.63513 2969.5754 3686977
674.64276 682.49133 2968.95 3686977
694.07458 683.3089 2972.5063 3686977
712.32819 682.9541 2970.9629 3686977
731.39465 683.37683 2972.802 3686977
758.12134 690.75824 3004.9121 3489598
778.56818 692.19861 3011.178 3226426
797.43414 692.19861 3011.178 3292219
819.14508 694.61108 3021.6726 3489598
827.01135 685.43982 2981.7761 3686977
842.50067 682.85236 2970.5203 3686977
868.6792 688.85309 2996.6245 3621184
889.43359 690.38977 3003.3091 3424061
911.05823 692.52417 3012.5942 3753027
929.93304 692.52417 3012.5942 3818563
952.30994 695.0802 3023.7136 3686977
965.92352 691.2652 3007.1174 3884356
985.49542 691.77856 3009.3508 3752770
1001.5648 689.86017 3001.0054 3686977
1020.3669 689.86017 3001.0054 3752770
1040.3971 690.67523 3004.5513 3752770
1061.0251 691.85138 3009.6675 3423805
1080.7094 692.38165 3011.9744 3292219
1094.0006 688.86829 2996.6904 3094840
1109.4106 686.78497 2987.6279 3292219
1125.0236 684.89447 2979.4038 3358012
1140.9033 683.22546 2972.1433 3423805
1164.8962 686.39044 2985.9116 3621184
1181.2004 684.9967 2979.8484 3555391
1191.9247 680.46063 2960.116 3950406
1210.4707 680.46063 2960.116 4344907
1222.4515 676.82574 2944.3035 3884612
1245.3351 679.24554 2954.8301 3884869
1258.822 676.54437 2943.0796 3950406
1257.6907 666.17816 2897.9846 4344907
1320.7069 689.60132 2999.8794 4081735
1343.8672 691.84857 3009.6553 3358012
1345.1183 682.9104 2970.7729 3818563
1347.8118 674.93854 2936.094 3621184
1359.6356 671.69202 2921.9709 3555391
1367.3597 666.5332 2899.5293 3621184
1378.0304 662.92725 2883.8428 3423805
1404.9963 667.15228 2902.2224 2634030
1436.8179 673.54559 2930.0342 2831665
1457.2283 674.49573 2934.1677 2897202
1472.7734 673.1983 2928.5237 2634287
1484.5488 670.23096 2915.615 2568494
1512.0729 674.35931 2933.5742 2765874
1533.2023 675.57086 2938.8447 3029047
1557.8097 678.26801 2950.5776 3160633
1576.5208 678.36475 2950.9985 3160633
1594.0175 677.94281 2949.1628 3226426
1607.993 676.05005 2940.9292 3160633
1632.8096 678.70648 2952.4851 3029047
1651.9669 678.97742 2953.6636 3029047
1686.5906 685.52869 2982.1628 3094840
1703.7103 684.89972 2979.4268 3160376
1724.1693 685.6123 2982.5266 3160633
1750.5817 688.65155 2995.7478 3226426
1778.4568 692.19574 3011.1655 3292218
1796.3059 691.80408 3009.4619 3291707
1815.1611 691.80408 3009.4619 3225916
1816.4624 685.18256 2980.6572 3094840
1839.6541 686.86908 2987.9937 3094583
1862.8763 688.53302 2995.2319 3094583
1877.3195 686.95111 2988.3506 3160376
1914.2545 693.54944 3017.0544 3291962
1933.1573 693.54944 3017.0544 3094583
1970.8005 700.20776 3046.019 2897204
1989.8846 700.20776 3046.019 2699825
1995.0994 695.3736 3024.9897 2699825
1996.5101 689.3172 2998.6433 2699825
2012.755 688.44751 2994.8601 2699825
2056.7068 696.98328 3031.9922 2765618
2075.7031 696.98328 3031.9922 2634032
2107.7124 701.31317 3050.8279 2634032
2151.0505 709.30084 3085.5757 2765618
2174.1062 710.51776 3090.8694 3094583
2171.2529 703.32062 3059.5605 3028790
2182.6233 700.81653 3048.6675 2897461
2201.7241 700.81653 3048.6675 2897461
2216.3191 699.39465 3042.4822 2962997
2256.5845 706.02863 3071.3408 2897461
2280.8059 707.57306 3078.0596 3094583
2300.0908 707.57306 3078.0596 3620927
2321.6948 708.28058 3081.1372 3357755
2339.1963 707.73511 3078.7644 3094583
2348.0688 704.60925 3065.1663 3160376
2359.322 702.24255 3054.8708 3160376
2377.9712 702.09772 3054.241 3094583
2388.127 699.46759 3042.7993 2963254
2400.644 697.56512 3034.5234 2962997
2424.9272 699.08472 3041.1338 3028790
2443.7908 699.03033 3040.8972 3094583
2450.4302 695.5072 3025.571 2962997
2464.8528 694.23041 3020.0166 3094583
2493.1807 696.85962 3031.4541 3226169
2509.0994 696.00684 3027.7444 3291962
2510.9146 691.28394 3007.1992 3357755
2565.7864 701.12976 3050.03 3423548
2599.8064 705.17413 3067.6238 3423548
2625.3027 706.8642 3074.9756 3226169
2600.3716 695.05078 3023.5854 3226169
2591.6426 687.7077 2991.6418 3094583
2601.8972 685.47125 2981.9128 3094583
2617.9834 684.79211 2978.9585 3028790
2636.6475 684.79211 2978.9585 3160376
2651.7141 683.86432 2974.9226 3226169
2680.2571 686.4007 2985.9563 3226169
2700.9731 686.9115 2988.1782 3291962
2717.3149 686.3103 2985.563 3226170
2734.3665 685.89539 2983.7581 3160377
2750.3882 685.22961 2980.8618 2962998
2760.9834 683.22992 2972.1628 3028791
2784.6523 684.47064 2977.5601 3094329
2813.8513 687.04504 2988.759 3028793
2834.1084 687.41644 2990.375 2962744
2856.4277 688.28003 2994.1316 3028537
2883.6384 690.30322 3002.9329 3094329
2902.4529 690.30322 3002.9329 3357501
2908.1704 687.20844 2989.47 3554880
2940.0735 690.30139 3002.9248 3423294
2968.9241 692.64282 3013.1104 3291964
2995.2402 694.36719 3020.6116 3160379
2991.6101 689.17114 2998.0081 2963000
3009.8018 689.03564 2997.4187 2831156
3004.5525 683.56879 2973.637 3028536
3010.8599 680.78235 2961.5154 3094073
3040.4597 683.26447 2972.313 2699315
nan nan nan 16777215
nan nan nan 16777215
nan nan nan 16777215
nan nan nan 16777215
nan nan nan 16777215
nan nan nan 16777215
nan nan nan 16777215
nan nan nan 16777215
-2581.5588 658.5332 2789.1125 3950406
-2564.084 658.5332 2789.1125 3950149
-2542.175 657.38654 2784.2559 3950149
-2524.094 657.2207 2783.5535 3950149
-2500.1147 655.50616 2776.292 4081735
-2477.0093 653.99823 2769.9055 4147785
-2468.6133 656.38019 2779.9937 4279114
-2442.0881 653.94128 2769.6643 4213321
-2425.8311 654.23682 2770.9158 3950149
-2408.4702 654.23682 2770.9158 3884356
-2401.0046 656.94421 2782.3826 3950149
-2385.9607 657.60248 2785.1707 4081735
-2389.9285 663.54907 2810.3564 4015942
-2372.3208 663.54907 2810.3564 4015942
-2337.8269 658.79059 2790.2026 3555391
-2311.1326 656.17487 2779.1243 2765874
-2295.1079 656.57178 2780.8052 2568496
-2320.3167 668.86078 2832.8535 3621184
-2328.2749 676.32831 2864.481 4476493
-2308.5461 675.80664 2862.2715 4608592
-2293.502 676.659 2865.8813 4411213
-2259.5503 671.90234 2845.7354 4213834
-2250.5718 674.55518 2856.9712 4345420
-2229.6172 673.63232 2853.0625 4608592
-2211.7419 673.63232 2853.0625 4411213
-2198.8804 675.17175 2859.5825 4148041
-2199.0374 680.76672 2883.2793 3950919
-2180.9727 680.76672 2883.2793 4016455
-2153.6875 677.86462 2870.9875 4016712
-2130.3115 676.15442 2863.7444 3885126
-2112.3694 676.15442 2863.7444 3424319
-2072.7119 669.14398 2834.0527 3358526
-2064.5308 672.26184 2847.2581 3621698
-2047.4912 672.52441 2848.3701 3555905
-2046.3258 678.05157 2871.7795 3424318
-2017.1045 674.29785 2855.8813 3424318
-1990.1007 671.22504 2842.8667 3555904
-1972.0154 671.13171 2842.4717 3687490
-1943.9579 667.61212 2827.5649 3884869
-1930.3352 669.0307 2833.573 3884869
-1916.397 670.36517 2839.2251 3819076
-1906.5409 673.16602 2851.0874 3819076
-1892.7161 674.60529 2857.1833 3621697
-1854.1323 667.16315 2825.6633 3358525
-1840.8066 668.75366 2832.3997 3358525
-1832.1895 672.10236 2846.5825 3753283
-1810.3036 670.60168 2840.2266 3687490
-1794.7721 671.44849 2843.813 3621697
-1777.4902 671.65076 2844.6699 3686977
-1771.5826 676.19861 2863.9316 3752770
-1736.903 669.74524 2836.5994 3752770
-1721.9055 670.82623 2841.1777 3424060
-1711.3719 673.68701 2853.2942 3358011
-1697.7257 675.36993 2860.4219 3423804
-1677.088 674.27789 2855.7966 3226426
-1659.099 674.23859 2855.6301 3358268
-1641.2075 674.23859 2855.6301 3358011
-1618.2496 672.13422 2846.7175 3489599
-1603.7429 673.53229 2852.6387 3555391
-1583.7684 672.63965 2848.8582 3489598
-1561.0269 670.53802 2839.957 3489598
-1545.3325 671.45001 2843.8196 3621184
-1527.5153 671.45001 2843.8196 3686977
-1509.775 671.48431 2843.9651 3884356
-1495.3009 672.9895 2850.3398 3950149
-1478.509 673.47528 2852.3972 3950149
-1441.1162 664.47412 2814.2744 3884356
-1431.2122 668.0816 2829.5532 3687490
-1416.8556 669.67517 2836.3025 3556161
-1403.2897 671.68762 2844.8259 3621954
-1390.6545 674.20306 2855.4797 3555904
-1374.3021 674.9585 2858.6792 3621697
-1356.3917 674.9585 2858.6792 3884869
-1363.7915 687.7218 2912.7361 4148041
-1328.282 678.89984 2875.3721 4082248
-1303.7518 675.52417 2861.075 3622724
-1291.7236 678.62231 2874.1968 3688260
-1283.1719 683.6604 2895.5349 4214604
-1257.8865 679.79962 2879.1831 4148811
-1239.1436 679.41357 2877.5481 3754053
-1235.0662 687.17603 2910.4246 3622467
-1216.8315 687.17603 2910.4246 4017225
-1220.045 699.47266 2962.5049 4149068
-1204.9006 701.46167 2970.9292 4477776
-1186.2867 701.46167 2970.9292 4346448
-1143.6296 687.01801 2909.7554 4214862
-1152.3547 703.47351 2979.4502 3622725
-1151.3113 714.40936 3025.7671 3951433
-1135.9806 716.69739 3035.4578 3951689
-1122.8838 720.49677 3051.5493 3885896
-1105.5879 721.68683 3056.5896 3951433
-1080.6372 717.83386 3040.2712 3951689
-1063.274 718.97333 3045.0969 4148811
-1045.4291 719.82269 3048.6943 3885895
-1013.0905 710.53839 3009.3721 3885639
-988.93713 706.75159 2993.334 4148041
-968.6037 705.6012 2988.4614 4214091
-945.89795 702.64313 2975.9331 4213834
-916.54437 694.52863 2941.5654 4082248
-892.40411 690.11267 2922.8623 3753281
-869.95825 686.84937 2909.0413 3556159
-849.49854 685.0481 2901.4121 4148040
-829.28595 683.3717 2894.312 4411469
-811.15216 683.3717 2894.312 4608590
-786.86664 678.0705 2871.8596 4213575
-766.1936 675.70709 2861.8499 3884354
-757.26971 683.84021 2896.2964 4081476
-746.00385 690.20593 2923.2573 3818304
-716.3396 679.44147 2877.666 3489339
-699.72058 680.81366 2883.478 3423546
-686.06293 685.21649 2902.1255 3226167
-664.45538 681.70282 2887.2437 2962995
-647.54742 682.94891 2892.5215 3555132
-630.10187 683.68347 2895.6323 3489341
-611.95978 683.68347 2895.6323 3357755
-593.98541 683.8764 2896.4497 3291962
-577.85815 686.27533 2906.6099 2962997
-557.94324 684.18561 2897.7593 3160376
-543.88031 689.3728 2919.7288 3226169
-525.43463 689.17261 2918.8809 3423548
-506.43741 688.20831 2914.7969 3489341
-491.40814 692.76593 2934.0996 3555134
-472.75314 692.36755 2932.4126 3621184
-448.13165 682.84558 2892.0837 3358012
-429.09991 681.39752 2885.9507 3358012
-411.01859 681.39752 2885.9507 3358012
-392.11496 679.97174 2879.9119 3292219
-376.62048 684.60529 2899.5366 3292219
-363.65036 694.52972 2941.5701 3752770
-338.63904 681.28882 2885.4902 3489598
-320.95782 682.13318 2889.0664 3292219
-301.20322 678.40845 2873.291 3555391
-289.41052 693.28302 2936.2898 3358012
-272.67749 697.53906 2954.3157 3292219
-249.52173 684.78833 2900.312 3292219
-227.42723 673.17603 2851.1299 3292219
-207.9023 667.83807 2828.522 3292219
-189.94922 667.02509 2825.0786 3292219
-172.53412 668.1283 2829.7512 3160633
-156.11765 673.79431 2853.7485 3029047
-137.73926 671.36322 2843.4521 3292219
-119.45478 668.7356 2832.3232 3489598
-101.96606 670.42322 2839.4707 3423805
-83.912086 668.32202 2830.5715 3094840
-66.324364 669.80334 2836.8455 3029047
-48.500237 669.10791 2833.8999 3094840
-30.728853 668.75702 2832.4141 3423805
-13.107799 675.19055 2859.6621 3292219
4.8035913 674.44916 2856.522 3226426
22.848646 678.84814 2875.1531 3226426
40.907082 679.59082 2878.2988 3292219
59.145584 681.95532 2888.3132 3226426
77.344177 682.85956 2892.1428 3226426
95.438583 682.67523 2891.3621 3358012
113.55386 682.67523 2891.3621 2963254
132.56245 687.30676 2910.9785 3358269
153.1812 698.15674 2956.9316 3752770
170.10625 691.64691 2929.3604 3358012
187.674 688.76379 2917.1494 3489598
206.2738 689.84387 2921.7239 3358012
225.1571 691.61871 2929.241 3489598
244.85992 695.45355 2945.4829 3752513
259.56012 685.53827 2903.488 3621184
278.92557 688.43628 2915.7625 3358524
299.12305 692.90558 2934.6914 3292476
318.02151 694.02228 2939.4209 3226939
340.28812 701.96478 2973.0601 2766132
351.70102 687.8551 2913.3008 3029816
371.21201 690.19464 2923.2095 3358782
386.36801 684.5976 2899.5042 2963767
402.78455 681.63641 2886.9626 3226939
420.01224 680.24359 2881.0635 3292219
439.27753 682.12958 2889.0513 2963254
457.37836 682.12958 2889.0513 2831925
470.56934 675.08588 2859.2188 3489598
495.9455 685.3988 2902.8975 3687233
512.41571 683.10944 2893.2012 3687234
527.56726 679.2785 2876.9761 3752770
544.04926 677.35724 2868.8386 3687234
560.40088 675.40173 2860.5566 3621184
584.77173 682.9328 2892.4531 3818563
595.89197 675.00134 2858.8608 3687234
616.4198 677.87836 2871.0459 3555391
633.15729 676.54218 2865.3867 3621184
651.1098 676.54218 2865.3867 3818563
671.48767 678.99463 2875.7737 3818563
682.9563 672.54547 2848.4592 3950149
701.71185 673.41791 2852.1543 3818563
725.83826 679.27325 2876.9539 3423805
744.74341 680.07703 2880.3579 3555391
761.9502 679.32849 2877.1877 3621184
782.79102 681.77966 2887.5693 3555391
801.51855 682.32117 2889.8625 3621184
820.66492 683.18726 2893.531 3621184
839.76068 683.97479 2896.8665 3884356
857.54559 683.68396 2895.6345 3818563
874.90912 683.07611 2893.0601 3752770
895.20239 684.73389 2900.0813 3818563
912.89093 684.37305 2898.553 3752770
935.07697 687.33215 2911.0859 3686977
953.25159 687.28583 2910.8896 3687234
968.15448 684.92664 2900.8977 3818820
981.93719 681.87653 2887.9795 3686977
1011.8408 689.92883 2922.0837 3555391
1039.3718 696.10602 2948.2463 3752770
1057.8435 696.10602 2948.2463 3752770
1070.3175 692.22705 2931.8176 3686977
1078.7332 685.89856 2905.0142 3226426
1096.934 685.89856 2905.0142 3423805
1115.1104 685.88348 2904.9504 3686977
1133.3108 685.88348 2904.9504 3818563
1149.2925 684.56189 2899.353 3950149
1157.7861 678.89075 2875.3337 4147528
1175.9912 679.00061 2875.7991 4279114
1190.9958 677.28711 2868.5417 3949892
1217.2638 681.93451 2888.2251 3686977
1220.9547 673.98291 2854.5474 3752771
1229.2527 668.76733 2832.4575 4344907
1259.656 675.55542 2861.2073 4410700
1280.4341 677.06329 2867.5938 4015942
1289.7201 672.5368 2848.4226 3884613
1304.4066 670.91168 2841.5396 3818563
1331.9877 675.87317 2862.5532 3818563
1346.2125 674.01569 2854.686 3884356
1349.4065 666.75641 2823.9407 3620927
1386.8458 676.38702 2864.7297 2765619
1399.9618 674.0603 2854.8752 2568237
1406.7635 668.79047 2832.5557 2699054
1421.5662 667.4082 2826.7012 2830639
1440.0505 667.76721 2828.2217 2699567
1454.7689 666.3924 2822.3989 2568495
1504.2284 680.7735 2883.3076 3160632
1522.6316 680.9248 2883.9485 3423804
1517.869 670.83429 2841.2119 3357756
1540.5105 672.94873 2850.1672 3226426
1557.6892 672.65576 2848.9263 3160376
