# .PCD v0.7 - Point Cloud Data file format
VERSION 0.7
FIELDS x y z rgb
SIZE 4 4 4 4
TYPE F F F U
COUNT 1 1 1 1
WIDTH 1272
HEIGHT 1
VIEWPOINT 0 0 0 1 0 0 0
POINTS 1272
DATA ascii
-554.89069 646.57446 2122.2661 2897463
-542.74829 647.95245 2126.7893 2897720
-529.42328 647.95245 2126.7893 2963256
-516.82013 648.8587 2129.7639 3160635
-503.47656 648.8587 2129.7639 3029049
-488.80313 647.09839 2123.9858 3029049
-475.00571 646.43146 2121.7969 2963513
-462.88455 648.07312 2127.1853 2831670
-448.80975 646.99585 2123.6494 2897720
-435.90634 647.5929 2125.6091 3029306
-427.46384 655.06378 2150.1309 3094842
-409.68268 648.24414 2127.7466 3029049
-395.74637 647.25409 2124.4971 3160635
-382.43576 647.25409 2124.4971 3160635
-370.82349 650.23212 2134.272 3029049
-357.4516 650.23212 2134.272 3358014
-345.4816 652.88135 2142.9675 3489600
-328.30246 645.50275 2118.7485 3358014
-314.14844 643.70081 2112.834 3160635
-300.81769 643.5014 2112.1794 3160635
-286.82843 641.81018 2106.6284 3094842
-273.41516 641.30695 2104.9766 2963256
-260.22684 641.30695 2104.9766 3029049
-245.612 637.60376 2092.8215 3160892
-233.10341 639.25903 2098.2546 3094842
-219.95789 639.26105 2098.2612 3094842
-206.46541 638.19086 2094.7485 3292221
-192.97812 636.99249 2090.8152 2765877
-179.87852 636.99249 2090.8152 2765877
-169.00191 645.48297 2118.6836 3094842
-155.88068 646.11707 2120.7649 3423038
-142.54942 645.91772 2120.1106 3423038
-129.05418 644.85797 2116.6321 2501936
-115.56087 643.5661 2112.3918 2304814
-102.07726 642.00122 2107.2554 2107434
-89.238281 644.62799 2115.8772 2502192
-76.332619 647.60559 2125.6506 2567729
-62.995918 647.41193 2125.0151 2897207
-49.335281 642.89331 2110.1833 2502193
-36.116421 642.93054 2110.3057 2305326
-22.971914 645.09875 2117.4226 2107947
-9.7560587 648.45239 2128.4302 2173740
3.5810955 648.79291 2129.5479 2502705
16.898888 647.85425 2126.4668 2502705
30.170267 646.74817 2122.8364 2568498
43.449955 646.44257 2121.8333 2436912
56.706684 646.01868 2120.4419 2568498
70.105728 647.06921 2123.8901 2765877
83.488274 647.65649 2125.8179 2634291
96.807182 647.65649 2125.8179 2437169
110.01234 646.98761 2123.6223 2568498
123.27708 646.77545 2122.926 2503218
136.49557 646.3858 2121.647 2503218
149.50197 645.14996 2117.5906 2371632
163.00294 646.07593 2120.6299 2240046
176.28928 646.07562 2120.6289 2240046
189.1561 644.64575 2115.9355 2174253
202.51884 644.98254 2117.041 2108460
217.28522 649.47345 2131.7815 1911081
229.32234 645.75879 2119.5889 2239534
242.6022 645.75879 2119.5889 2305326
256.15604 646.45001 2121.8579 2042154
268.10715 643.22809 2111.2825 1976361
280.67191 641.71204 2106.3062 2173740
296.90231 648.33679 2128.0508 2502702
307.98053 643.62488 2112.5847 2436910
320.24146 641.67108 2106.1719 2436909
334.37134 643.46857 2112.0718 2634291
346.06656 640.62231 2102.7295 2765877
359.24081 640.62231 2102.7295 2634547
373.76419 642.94312 2110.3469 2700083
388.22992 645.00946 2117.1294 2831670
401.49438 645.00946 2117.1294 2962999
413.32877 642.78546 2109.8296 2436913
427.45993 644.16052 2114.3428 2173740
442.22192 646.37488 2121.6111 2239531
456.79984 648.19873 2127.5977 2436910
468.7363 646.27728 2121.2908 2700082
479.54935 642.95563 2110.3879 2765875
493.35004 643.71045 2112.8655 2700082
506.96539 644.19012 2114.4402 2831668
519.64331 643.48468 2112.1245 2502703
532.14252 642.59845 2109.2156 2107945
545.35736 642.59845 2109.2156 2042665
559.81848 644.0321 2113.9214 2174251
574.46143 645.60394 2119.0806 2371886
588.28223 646.20154 2121.0422 2634802
599.28088 643.74127 2112.9668 2569266
610.79523 641.92932 2107.0195 2503216
623.54852 641.46863 2105.5073 2569010
636.388 641.11383 2104.3428 2634804
650.24097 641.7738 2106.5088 2371632
666.2887 644.53052 2115.5574 2240046
686.00446 650.65875 2135.6721 2240046
699.38513 650.65875 2135.6721 2174253
709.77759 647.93097 2126.7188 2634804
725.55786 650.13135 2133.9412 2832183
730.56165 642.77069 2109.781 2568498
741.81012 641.0683 2104.1931 2305326
752.95795 639.33984 2098.5198 2568498
766.91681 640.0166 2100.7412 2436912
782.62695 642.10742 2107.604 2502705
795.83173 642.10742 2107.604 2502705
812.26715 644.67151 2116.02 2371119
825.31061 644.50427 2115.4712 2173740
833.27069 640.43542 2102.116 2371119
857.58783 648.86926 2129.7986 2305326
867.08777 646.00549 2120.3987 2305326
876.67743 643.29388 2111.4983 2107947
897.06476 648.46838 2128.4827 2568498
913.70197 650.82007 2136.2017 2897463
915.0238 642.35236 2108.408 2700341
940.21588 650.64429 2135.6248 3094842
953.59625 650.64429 2135.6248 3094842
954.81366 642.46027 2108.7622 2700084
971.4325 644.72131 2116.1836 2766134
985.99573 645.57556 2118.9875 2897463
992.07483 640.92596 2103.7261 2831670
1007.5787 642.40729 2108.5881 2831670
1020.7897 642.40729 2108.5881 2765877
1030.0642 639.96161 2100.5608 2700084
1039.9984 637.98236 2094.0642 2700084
1053.1184 637.98236 2094.0642 2634291
1065.3837 637.47101 2092.3857 2831670
1078.5096 637.48077 2092.4177 2831670
1099.4344 642.04462 2107.3979 2436912
1108.1545 639.45746 2098.906 2305326
1124.5032 641.28143 2104.8928 2700084
1132.2756 638.229 2094.8738 2305326
1144.1493 637.53168 2092.585 2305326
1157.2599 637.53168 2092.585 2502705
1170.1663 637.42035 2092.2195 2700084
1183.6097 637.60083 2092.8118 2700084
1200.2302 639.47009 2098.9473 2634291
1214.3651 639.98883 2100.6501 2765877
1228.3179 640.40155 2102.0046 3029306
1245.1873 642.30988 2108.2686 3160635
1257.0851 641.64069 2106.072 3160635
1270.2803 641.64069 2106.072 3160635
1283.3511 641.57849 2105.8679 3094842
1291.6305 639.14661 2097.8857 3029049
1304.0636 638.79846 2096.7429 2765877
1307.5612 634.12378 2081.3992 2700084
1323.3495 635.44318 2085.7297 2437167
1341.0148 637.62921 2092.905 2568497
1360.1284 640.4549 2102.1799 3028536
1373.2992 640.4549 2102.1799 2896950
1392.8103 643.38373 2111.7932 2107691
1402.4034 641.71899 2106.3291 1975592
1415.6002 641.71899 2106.3291 2239020
1433.0232 643.61713 2112.5593 2501936
1447.9635 644.37567 2115.0491 2699315
1467.4579 647.12872 2124.0854 2896950
1485.9375 649.38885 2131.5039 3159866
1496.8174 648.31702 2127.9858 3357758
1508.7444 647.71356 2126.0051 3423551
1532.3838 652.10498 2140.4192 3489344
1533.7292 647.01526 2123.7131 3094329
1542.4735 645.10754 2117.4514 2633778
1558.2725 646.15765 2120.8982 2634035
1579.6102 649.46741 2131.7617 3094329
1594.7637 650.20007 2134.1667 3423294
1605.5942 649.17291 2130.7952 3160122
1618.9443 649.17291 2130.7952 3159866
1635.7854 650.56128 2135.3523 2962743
1657.7209 653.93683 2146.4319 2831157
1678.6082 656.84778 2155.9866 2634291
1677.5522 651.19434 2137.4302 2502705
1694.6179 652.60925 2142.0745 2371119
1716.8417 655.97266 2153.1143 2502705
1736.5321 658.3233 2160.8298 2568498
1750.3171 658.4162 2161.1345 2502705
1765.7163 659.11005 2163.4121 2502705
1779.1589 659.0686 2163.2761 2436912
1788.8428 657.646 2158.6064 2305326
1805.0295 658.61743 2161.7952 2436912
1828.1965 662.10236 2173.2339 2436912
1841.1123 661.85071 2172.4077 2568241
1850.8617 660.47278 2167.885 2502192
1866.5314 661.21216 2170.312 2304813
1880.1292 661.21216 2170.312 2239020
1893.2535 661.04694 2169.7695 2502192
1907.7086 661.34534 2170.749 2567985
1914.2655 658.92084 2162.791 2436399
1924.045 657.6319 2158.5603 2239020
1941.8892 659.09821 2163.3733 2370606
1952.8546 658.22565 2160.5093 2436399
1957.1168 655.12128 2150.3196 2370606
1967.3318 654.03833 2146.7651 2304813
1982.682 654.66571 2148.8245 2370606
1996.1453 654.66571 2148.8245 2239020
2002.3298 652.29474 2141.042 2436399
2017.9276 653.00128 2143.3611 2633778
2033.8514 653.80328 2145.9937 2567985
2039.4553 651.29913 2137.7742 2567985
2051.2683 650.79761 2136.1279 2436399
2057.8606 648.65698 2129.1018 2370606
2066.2617 647.11029 2124.0251 2436399
2070.5271 644.29657 2114.7896 2304813
2086.1519 645.03094 2117.2 2239020
2093.9463 643.35016 2111.6831 2370606
2113.4548 645.26697 2117.9746 2370606
2130.0745 646.28339 2121.3108 2567985
2135.0442 643.77435 2113.0754 2502192
2146.7908 643.32715 2111.6074 2502192
2165.9954 645.10663 2117.4482 2633778
nan nan nan 16777215
nan nan nan 16777215
nan nan nan 16777215
nan nan nan 16777215
nan nan nan 16777215
nan nan nan 16777215
nan nan nan 16777215
nan nan nan 16777215
nan nan nan 16777215
nan nan nan 16777215
nan nan nan 16777215
-1912.7291 655.78351 2109.3445 2437169
-1887.8094 651.7428 2096.3477 2568498
-1865.3953 648.5166 2085.9705 2436912
-1849.1434 647.40234 2082.3865 2371119
-1837.7325 647.97919 2084.2419 2634291
-1819.1896 646.03149 2077.9771 2568498
-1797.2772 642.85059 2067.7456 2502705
-1784.3221 642.85059 2067.7456 2436912
-1762.4705 639.62201 2057.3606 2436912
-1740.4601 636.28766 2046.6357 2436912
-1726.2036 635.75958 2044.9371 2502705
-1709.0027 634.13116 2039.6993 2437169
-1691.5334 632.37781 2034.0597 2239533
-1671.6897 629.70349 2025.4575 2239533
-1658.2124 629.40466 2024.4963 2173740
-1646.7607 629.8761 2026.0127 2371119
-1635.4568 630.41174 2027.7357 2371120
-1619.1188 629.00012 2023.1952 2239530
-1600.9377 626.84467 2016.2621 2042152
-1588.3053 626.84467 2016.2621 2107945
-1571.3214 625.11359 2010.694 2042152
-1558.7238 625.11359 2010.694 2042152
-1542.9569 623.83221 2006.5725 1910566
-1532.1844 624.56567 2008.9316 1844773
-1516.8505 623.43646 2005.2996 1976359
-1507.8715 624.92218 2010.0784 2173738
-1493.5657 624.2066 2007.7769 2305324
-1481.144 624.27313 2007.9907 2502703
-1462.8104 621.82758 2000.1245 2502703
-1447.7572 620.7464 1996.6467 2568496
-1434.1693 620.27997 1995.1466 2700082
-1422.9587 620.84265 1996.9564 2634289
-1440.311 633.98798 2039.2386 2107945
-1436.054 637.77155 2051.4087 2107945
-1401.4827 628.03894 2020.1034 2371117
-1389.1483 628.18463 2020.5721 2371117
-1380.1937 629.87543 2026.0106 2371117
-1370.9298 631.45514 2031.0918 2305324
-1373.1501 638.40363 2053.4419 2239531
-1360.2845 638.40363 2053.4419 2831668
-1333.6212 631.86621 2032.4141 2897461
-1325.5145 634.07965 2039.5336 2765875
-1316.5658 635.92944 2045.4834 2765875
-1307.6398 637.82666 2051.5859 2897461
-1296.0291 638.43896 2053.5554 2634289
-1283.1628 638.43896 2053.5554 2634289
-1266.6858 636.62415 2047.7181 2831668
-1253.8562 636.62415 2047.7181 2897461
-1240.123 636.16064 2046.2272 2897461
-1230.2509 637.68872 2051.1423 3160633
-1209.7103 633.66089 2038.1865 3029304
-1198.0551 634.25092 2040.0846 3094840
-1187.1423 635.2511 2043.3016 3094840
-1172.1632 634.07336 2039.5134 3160633
-1158.1182 633.38049 2037.2849 3226426
-1144.9832 633.17548 2036.6254 3358012
-1132.1152 633.11517 2036.4313 3292219
-1122.0725 634.65137 2041.3727 3160890
-1106.8704 633.2713 2036.9336 3226426
-1092.4832 632.33063 2033.9078 3160633
-1076.4463 630.40167 2027.7032 3029047
-1081.882 641.15186 2062.2815 2897461
-1066.0669 639.41589 2056.6978 2963254
-1048.3552 636.48602 2047.2738 3094840
-1035.8961 636.71198 2048.0005 3160633
-1023.0646 636.71198 2048.0005 3029047
-1011.6489 637.60419 2050.8704 3029047
-1002.4511 639.93512 2058.3679 3094840
-989.55475 639.93512 2058.3679 3029047
-981.08832 642.83777 2067.7043 2897461
-984.11292 653.44806 2101.8325 3358012
-964.86322 649.35547 2088.6687 3489598
-943.03345 643.39008 2069.4807 3358012
-926.25647 640.75372 2061.001 3226426
-917.70746 643.81512 2070.8481 2831925
-904.16833 643.41333 2069.5557 2831668
-891.91144 643.9256 2071.2034 2831668
-880.52979 645.09418 2074.9622 3029304
-867.63922 645.17578 2075.2246 3094839
-855.02087 645.46533 2076.156 2634290
-846.87512 649.19238 2088.144 2897463
-833.09143 648.64667 2086.3889 3028793
-817.15039 646.37714 2079.0889 2766134
-804.12421 646.37714 2079.0889 2897976
-788.50262 644.25653 2072.2678 2897976
-782.56952 650.11353 2091.1069 2963769
-769.46814 650.11353 2091.1069 3490113
-751.84906 646.23053 2078.6172 3226941
-735.26276 643.11401 2068.5928 3095355
-718.80951 640.00397 2058.5894 2963769
-705.90149 639.99463 2058.5593 3226941
-693.6933 640.63123 2060.6069 3358527
-681.64099 641.43866 2063.2041 3292734
-668.57025 641.30048 2062.7595 3490113
-658.34698 643.94196 2071.2559 2963769
-649.43823 648.00122 2084.3127 3292734
-639.46686 651.14508 2094.425 3161148
-616.74432 641.16467 2062.3228 2963769
-603.80774 641.14819 2062.2698 2897976
-595.53088 646.18713 2078.4775 3226172
-579.46985 642.81622 2067.635 3621700
-566.84576 643.19098 2068.8403 2700854
-551.86292 640.84424 2061.292 2634291
-539.80927 641.86798 2064.585 2765877
-526.87402 641.86798 2064.585 2831670
-514.53156 642.60828 2066.9663 2568498
-499.47037 639.90381 2058.2671 2502962
-486.29858 639.54065 2057.0991 2897463
-476.60181 643.85229 2070.9675 2897720
-465.5824 646.56848 2079.7041 3029049
-454.05515 648.71539 2086.6099 3160635
-437.87573 644.14606 2071.9124 3095099
-424.61621 643.72412 2070.5552 2963256
-412.08084 644.4079 2072.7546 2831670
-400.20126 646.19513 2078.5034 2831670
-387.67929 647.03046 2081.1902 2897463
-373.8797 645.71741 2076.9668 2831670
-359.4527 643.18695 2068.8274 2831670
-344.06888 638.6911 2054.3665 2831927
-331.18512 638.66693 2054.2888 2765877
-320.93118 643.91736 2071.1768 2897720
-307.34769 642.64825 2067.0947 2765877
-293.72556 641.18317 2062.3823 2700084
-282.11508 644.1767 2072.011 3094842
-269.39954 644.81396 2074.0608 3029049
-255.77431 643.22815 2068.96 2700084
-241.97414 641.00952 2061.8237 3686979
-229.05617 641.00952 2061.8237 3489600
-216.21808 641.24646 2062.5857 3358014
-202.95438 640.17096 2059.1265 3358014
-188.30977 634.29803 2040.2361 2897463
-177.38455 641.01044 2061.8267 2305326
-165.41255 644.69739 2073.6858 3028534
-152.8325 646.4411 2079.2944 2897204
-138.6134 640.93091 2061.5708 2502446
-127.11904 648.18182 2084.8936 2502190
-115.40289 655.83307 2109.5042 1910053
-101.16684 649.29089 2088.4609 1647138
-87.795341 647.17792 2081.6646 2370860
-75.159828 650.69946 2092.9917 2502704
-61.89537 649.11365 2087.8909 2699826
-48.59531 646.20441 2078.5332 2305325
-35.452995 644.03064 2071.5413 1910568
-22.474146 644.03064 2071.5413 1713446
-9.5678244 648.94989 2087.364 2371119
3.5116754 649.23041 2088.2664 2502705
16.559092 647.81335 2083.7085 2371119
29.9641 655.46808 2108.3301 2173740
43.187824 655.68646 2109.0325 3029049
56.295547 654.45398 2105.0681 3029049
68.709328 647.15338 2081.5854 2765877
81.997444 649.10333 2087.8577 2634291
94.860291 647.61346 2083.0654 2568498
107.67983 646.22406 2078.5964 2502705
120.7067 646.24457 2078.6624 2436912
133.763 646.4032 2079.1726 2371376
146.67023 645.87726 2077.481 2306096
159.6153 645.59015 2076.5574 2371632
172.00031 643.25171 2069.0359 2371632
185.9417 646.65381 2079.9788 2042667
198.97342 646.65381 2079.9788 2173997
211.78986 645.99719 2077.8667 2173483
225.04602 646.68024 2080.0637 2239533
237.74202 645.76685 2077.1257 2173741
250.75584 645.76685 2077.1257 2239533
263.01682 643.92365 2071.197 2107947
275.9935 643.92365 2071.197 2107691
289.05637 644.11566 2071.8147 2239276
301.84613 643.70874 2070.5059 2239534
313.40378 640.8161 2061.2017 2699828
326.82812 641.81818 2064.4248 2371119
339.76239 641.81818 2064.4248 2305326
351.69357 639.99286 2058.5535 2305583
364.56833 639.95294 2058.4253 2436911
378.12402 641.07025 2062.019 2634289
393.17465 644.56451 2073.2585 2634288
409.8685 650.44299 2092.1667 2568495
422.97656 650.44299 2092.1667 2239531
434.11877 647.5108 2082.7354 2173738
445.41422 644.97162 2074.5679 2173738
458.24869 644.74182 2073.8286 2239531
472.31671 646.2124 2078.5588 2700082
483.91061 644.30981 2072.4392 2568496
495.77972 642.86359 2067.7874 2436910
508.57788 642.66492 2067.1484 2305067
520.164 640.98267 2061.7373 2239787
532.54755 640.3407 2059.6724 2174251
546.28748 641.32147 2062.8271 2174251
564.1087 646.93744 2080.8911 2305837
573.17261 642.48346 2066.5647 2700595
583.26385 639.35236 2056.4934 2832181
594.31006 637.38074 2050.1516 2569009
607.15485 637.38074 2050.1516 2634805
616.08093 633.35211 2037.1935 2766390
631.71631 636.24445 2046.4967 2503218
645.21448 636.91199 2048.6438 2437425
656.56659 635.47632 2044.0261 2832183
668.255 634.41492 2040.6119 2963769
690.63031 643.34863 2069.3474 2569011
703.59546 643.34863 2069.3474 2635061
711.99896 639.25305 2056.1741 2765877
724.37848 638.80939 2054.7471 2700084
735.63062 637.40448 2050.228 2700084
749.10089 637.93671 2051.9399 2634291
761.95697 637.93671 2051.9399 2634548
775.70056 638.66748 2054.2905 2568498
788.57135 638.66748 2054.2905 2568498
805.65869 642.02771 2065.0986 3029049
818.59717 642.02771 2065.0986 2831927
833.14398 643.26947 2069.093 2568498
847.3136 644.1864 2072.0422 2568755
857.72607 642.26239 2065.8535 2568498
872.73956 643.78961 2070.7659 2502705
886.48267 644.34857 2072.564 2239533
898.40369 643.58618 2070.1116 2239533
911.37354 643.58618 2070.1116 2239533
927.53131 645.80579 2077.251 2239533
943.58661 647.89362 2083.9666 2436912
952.49188 645.08203 2074.9231 2568755
966.52393 645.77155 2077.1409 2765877
979.52551 645.76343 2077.1147 2831670
991.81622 645.29297 2075.6016 2765877
1004.8206 645.29297 2075.6016 2634291
1011.0891 641.02258 2061.8657 2700084
1019.62 638.27612 2053.0317 2436912
1035.6333 640.22375 2059.2961 2634291
1048.5354 640.22375 2059.2961 2897463
1052.6492 634.92291 2042.2458 2963256
1069.5724 637.38281 2050.1582 2700084
1092.0698 643.06671 2068.4407 2765877
1105.0292 643.06671 2068.4407 2634291
1111.4069 639.28088 2056.2634 2436912
1128.1005 641.44745 2063.2324 2436912
1136.9781 639.17126 2055.9109 2634291
1144.4373 636.15741 2046.2169 2765877
1160.9104 638.16547 2052.6758 2700084
1174.9983 638.83276 2054.822 2897463
1188.0151 638.90955 2055.0691 3029049
1202.3834 639.70361 2057.6233 2831670
1216.6227 640.41302 2059.905 2963256
1222.8383 636.92828 2048.6963 3095099
1234.3389 636.24011 2046.4828 3095099
1250.1014 637.74023 2051.3081 3029049
1260.6215 636.56274 2047.5205 2897463
1270.7087 635.1925 2043.1132 2568755
1289.621 638.21704 2052.8416 2371119
1300.4338 637.21307 2049.6123 2568242
1307.2828 634.30548 2040.2601 2699828
1326.1903 637.24847 2049.7261 2765364
1347.6853 641.36633 2062.9714 2567985
1360.8002 641.45575 2063.259 2173226
1371.9449 640.62354 2060.5823 1910310
1377.9061 637.40906 2050.2427 2041896
1385.7247 635.1051 2042.832 2502190
1408.0571 639.43451 2056.7576 2173481
1431.725 644.28625 2072.3635 2173481
1450.0529 646.66949 2080.0291 2370859
1469.7494 649.61517 2089.5039 2239274
1484.2605 650.23712 2091.5044 2239020
1498.0771 650.54663 2092.5 2304813
1507.6836 649.03827 2087.6484 2436399
1525.629 651.11487 2094.3279 2502192
1538.7506 651.11487 2094.3279 2567985
1538.8287 645.64221 2076.7249 3028536
1556.8859 647.74158 2083.4775 3028536
1573.5854 649.24579 2088.3159 3225915
1588.5007 649.99518 2090.7263 3160122
1598.9663 648.92639 2087.2886 2896950
1617.4005 651.08276 2094.2246 2699571
1630.6469 651.13275 2094.3855 2633521
1645.236 651.71399 2096.2549 2633778
1655.9229 650.75238 2093.1619 2502192
1672.8296 652.23108 2097.9182 2370862
1687.6702 652.88733 2100.0291 2371119
1700.2819 652.67792 2099.3555 2305326
1713.5103 652.70654 2099.4475 2305326
1730.0671 653.99298 2103.5854 2042154
1732.2351 649.86194 2090.2979 1976361
1752.1925 652.41663 2098.5149 1976361
1773.4384 655.40936 2108.1411 2239533
1787.604 655.76062 2109.271 2370606
1803.3021 656.66473 2112.1792 2436399
1820.8297 658.21704 2117.1721 2502192
1831.8198 657.40076 2114.5466 2239020
1838.4468 655.0415 2106.958 2370606
1851.811 655.09943 2107.1443 2502192
1863.5234 654.57623 2105.4614 2370606
1877.9335 655.00128 2106.8286 2239020
1895.4941 656.5116 2111.6865 2436399
1908.1666 656.3197 2111.0693 2436399
1912.3707 653.23779 2101.1562 2370606
1923.7333 652.62653 2099.1902 2239020
1937.087 652.69446 2099.4087 2304813
1943.5656 650.46051 2092.2231 2567985
1948.5925 647.77399 2083.5818 2633778
1956.1381 645.95496 2077.7307 2567985
1967.0635 645.26862 2075.5232 2567986
1983.8079 646.48761 2079.4441 2567985
1998.9382 647.16815 2081.6331 2370606
2002.6559 644.16888 2071.9858 2239020
2013.6421 643.53113 2069.9346 2041641
2019.8424 641.3819 2063.0215 2239020
2037.2572 642.7984 2067.5776 2239020
2050.2114 642.7984 2067.5776 2436399
2049.9658 638.68591 2054.3499 2502192
2068.2424 640.35956 2059.7332 2567985
2078.1455 639.43591 2056.7622 2436399
2094.0181 640.34912 2059.6995 2502192
2111.0637 641.60773 2063.7478 2502192
nan nan nan 16777215
nan nan nan 16777215
nan nan nan 16777215
nan nan nan 16777215
nan nan nan 16777215
nan nan nan 16777215
nan nan nan 16777215
nan nan nan 16777215
nan nan nan 16777215
nan nan nan 16777215
nan nan nan 16777215
-1853.0604 648.06165 2043.5424 2173740
-1830.0653 644.47253 2032.2249 2107947
-1811.8718 642.53595 2026.1182 2107947
-1798.1237 642.15955 2024.9313 2107947
-1786.4615 642.52814 2026.0934 2107947
-1770.5712 641.37036 2022.4426 2239533
-1764.2445 643.68518 2029.7419 2371119
-1745.907 641.61957 2023.2285 2305326
-1716.1427 635.29376 2003.2812 2173740
-1705.8816 636.14777 2005.9742 2042154
-1693.6014 636.25592 2006.3153 1713189
-1670.9856 632.4538 1994.3258 1713189
-1658.4906 632.4538 1994.3258 1910568
-1634.6659 628.10052 1980.5986 2042154
-1624.2373 628.86731 1983.0166 2239533
-1610.2074 628.24084 1981.0411 2371119
-1593.2432 626.45087 1975.3967 2371119
-1580.8667 626.45087 1975.3967 2107943
-1557.9222 622.23004 1962.0872 1910822
-1542.4293 620.94183 1958.0251 1647395
-1528.9696 620.45807 1956.4998 1713187
-1516.7115 620.45807 1956.4998 1778982
-1507.1106 621.55396 1959.9553 2173737
-1496.4131 622.21185 1962.0299 2436910
-1478.4598 619.83862 1954.5464 2371117
-1467.0653 620.19855 1955.6814 2371117
-1460.8253 622.76196 1963.7644 2371117
-1456.8037 626.32263 1974.9924 2765875
-1449.5089 628.52496 1981.9371 2831668
-1437.0914 628.52496 1981.9371 2765875
-1420.4452 626.6593 1976.0542 2765875
-1405.7227 625.61707 1972.7676 2568496
-1398.418 627.8869 1979.9252 2765875
-1390.2849 629.82208 1986.0273 2765875
-1375.5165 628.75916 1982.6755 2634289
-1364.8599 629.57355 1985.2435 2568496
-1352.4218 629.57355 1985.2435 2502703
-1350.6561 634.58783 2001.0553 2173738
-1351.5629 640.96356 2021.1599 1976359
-1327.301 635.41101 2003.651 2502703
-1321.6602 638.75189 2014.1858 3029047
-1294.5359 631.67419 1991.8676 2963254
-1287.5493 634.38068 2000.402 2831668
-1275.1532 634.44879 2000.6168 2765875
-1267.5537 636.92859 2008.4363 2765875
-1255.0999 636.99438 2008.6439 2765875
-1239.1753 635.28223 2003.2449 3029047
-1225.1013 634.49341 2000.7574 2963254
-1210.4761 633.39978 1997.309 3029047
-1207.1392 638.25195 2012.6093 3358012
-1190.3357 636.01105 2005.5432 3094840
-1174.2242 634.09619 1999.5049 3029047
-1168.2863 637.69299 2010.8467 3226426
-1155.6876 637.69299 2010.8467 3423805
-1129.834 630.2984 1987.5293 3292219
-1114.5045 628.67548 1982.4117 2963254
-1103.0845 629.24609 1984.2112 2765875
-1090.8622 629.36688 1984.592 2963511
-1077.9556 629.09119 1983.7225 2897461
-1067.7258 630.3894 1987.8163 2700082
-1059.5225 632.92883 1995.8239 3226426
-1041.1827 629.40137 1984.7007 3358012
-1030.6735 630.57941 1988.4154 3226426
-1016.1343 629.29059 1984.3513 3292219
-1002.9567 628.82343 1982.8783 3226426
-999.65253 634.61261 2001.1334 3094840
-987.96539 635.15948 2002.8578 2963511
-978.15765 636.94415 2008.4854 2963254
-965.42712 636.84735 2008.1802 2963254
-956.43298 639.2453 2015.7416 3029047
-945.03918 640.08203 2018.3802 3292219
-935.39886 642.14526 2024.8862 3160633
-922.7124 642.14526 2024.8862 3226426
-904.78772 638.4491 2013.2311 3094840
-891.66974 638.08807 2012.0927 3029047
-883.56244 641.35388 2022.3907 2963254
-874.12195 643.73285 2029.8925 2963254
-862.24738 644.3631 2031.8796 3160633
-848.09088 643.28131 2028.4686 3029048
-841.64996 648.10803 2043.6887 2634292
-828.84558 648.10803 2043.6887 2963769
-812.50366 645.29846 2034.8292 3227197
-791.04498 638.27069 2012.6686 3029562
-782.4187 641.53717 2022.9686 2897976
-772.9837 644.23706 2031.4824 3029819
-760.25586 644.23706 2031.4824 3161148
-749.09949 645.59143 2035.7531 3029562
-732.54443 642.2594 2025.2461 2963769
-716.65771 639.40619 2016.249 2963769
-705.82849 641.04395 2021.4133 2897976
-693.86658 641.69391 2023.463 2897976
-680.28326 640.8407 2020.7726 2832440
-667.67126 640.88757 2020.9202 2963769
-655.00952 640.88757 2020.9202 3161148
-636.00714 634.56128 2000.9714 2766390
-623.93127 635.03021 2002.4503 2437168
-616.13116 639.95972 2017.9945 2963257
-609.10437 645.91571 2036.7756 2963513
-593.49298 642.82837 2027.0403 2305070
-580.79291 642.82837 2027.0403 3226428
-573.49146 648.93713 2046.3031 3489344
-561.70636 650.1358 2050.0828 2765877
-545.97021 646.71045 2039.2816 2765877
-527.27197 639.52832 2016.634 2568755
-514.28076 639.08545 2015.2375 2765877
-502.41229 640.0506 2018.281 2568498
-489.23245 639.35187 2016.0778 2700084
-474.14417 636.05597 2005.6847 2568498
-462.3006 637.05176 2008.8247 2502705
-454.08755 643.24622 2028.3579 2634291
-440.10318 641.38654 2022.4938 2765877
-428.2016 642.54193 2026.137 2897463
-415.26215 642.16296 2024.942 2831670
-403.13956 643.06305 2027.7803 2700084
-390.14603 642.58728 2026.28 2765877
-375.97171 640.06934 2018.3401 2897463
-360.49014 635.07306 2002.5853 2700084
-347.65942 634.55493 2000.9515 2700341
-338.86691 641.64429 2023.3064 2371119
-325.13461 639.56775 2016.7584 2371119
-311.6344 637.79822 2011.1786 2831927
-297.12421 633.7254 1998.3358 2634548
-284.70627 633.95312 1999.0538 2502705
-272.43533 634.54419 2000.9176 3160635
-261.02975 637.30505 2009.6234 3292221
-248.72658 638.04309 2011.9508 3094842
-236.12108 638.04309 2011.9508 3423807
-224.5256 640.92633 2021.0425 3423807
-212.26151 642.13141 2024.8425 3358014
-198.04413 637.20508 2009.3082 3160635
-184.19305 632.86853 1995.6337 2897720
-172.10071 634.38324 2000.41 3160635
-159.56752 634.38324 2000.41 3029306
-148.16638 639.26746 2015.8116 2502706
-136.87534 645.5813 2035.7211 2831671
-124.06655 645.29846 2034.8292 2897719
-110.80653 642.33527 2025.4852 2831927
-99.497108 651.37531 2053.9915 2502705
-86.702332 651.93262 2055.7488 2371119
-74.047264 653.91809 2062.0098 2765877
-60.648796 648.79047 2045.8406 2831670
-47.72636 647.37146 2041.3661 2765877
-35.026093 649.03027 2046.5969 2107947
-22.203526 649.03027 2046.5969 1910568
-9.4052954 650.71393 2051.9058 2239533
3.4731853 654.98621 2065.3777 2831670
16.366714 653.12244 2059.5007 3226428
29.008125 647.27637 2041.066 2831670
42.398174 656.60132 2070.4707 2766134
55.126972 653.7157 2061.3713 2765877
67.594284 649.41327 2047.8044 2436912
80.055527 646.43457 2038.4116 2502706
92.784737 646.14154 2037.4878 2239533
105.14265 643.64655 2029.6201 2107947
118.11852 645.06464 2034.0919 2173740
130.9502 645.49573 2035.4513 2173740
144.58765 649.46979 2047.9827 2700597
157.03455 647.88409 2042.9824 2832183
168.74767 643.7381 2029.9091 2700597
181.16122 642.65814 2026.5034 2700597
195.56853 648.32904 2044.3855 2766390
206.13507 641.35291 2022.3877 2766390
217.84378 638.53265 2013.4945 2634804
230.45895 638.53265 2013.4945 2635060
242.08502 635.93439 2005.3014 2700854
252.9527 631.69855 1991.9445 2437682
265.57843 632.04498 1993.0369 2305839
279.69275 635.7439 2004.7008 2437681
293.75095 639.00293 2014.9773 2240303
306.35016 638.9502 2014.811 2371117
318.39548 637.79218 2011.1595 2305324
331.17401 638.13519 2012.2412 2239531
344.22852 638.96527 2014.8586 2239531
359.23846 643.23798 2028.3318 2305324
373.09744 645.22821 2034.6077 2436910
385.84488 645.22821 2034.6077 2700082
396.24768 641.43274 2022.6394 2568498
412.40314 646.89618 2039.8673 2502705
421.71063 641.6123 2023.2057 2436910
432.57806 638.94098 2014.782 2371117
446.15479 640.30939 2019.0972 2371117
459.61017 641.43298 2022.6401 2107945
472.20135 641.32263 2022.2921 2042152
487.91885 645.35303 2035.0013 2305324
494.9361 637.96368 2011.7004 2107945
512.20935 643.83295 2030.2081 1976360
526.54388 645.81335 2036.4528 2700595
533.98065 639.43994 2016.3555 2371630
547.07465 639.97919 2018.0558 2305837
559.66217 639.91486 2017.853 2371630
565.53168 632.34174 1993.9725 2371630
579.08044 633.49689 1997.6151 2700595
589.56482 631.32172 1990.7561 2766391
602.06726 631.35291 1990.8545 2832183
616.78174 633.6554 1998.115 2634804
633.91907 638.30585 2012.7794 2700597
650.80719 642.52887 2026.0958 3095355
661.0498 640.15485 2018.6097 3226941
666.79572 633.59717 1997.9314 2437425
679.07751 633.3772 1997.2377 2305839
691.06128 632.89221 1995.7084 2436913
704.56567 633.79236 1998.5468 2568498
716.97485 633.69305 1998.2338 2634291
727.72528 632.15625 1993.3877 2568498
744.90588 636.16278 2006.0216 2831670
757.54321 636.2207 2006.2042 2897463
769.91779 636.05969 2005.6965 2568498
785.10706 638.19189 2012.4199 2963256
797.71552 638.19189 2012.4199 2831927
818.17816 644.37762 2031.9255 2173740
823.04395 638.27844 2012.6927 2239533
840.30963 641.83429 2023.9056 2700084
848.7785 638.66534 2013.913 2700084
864.52863 640.98773 2021.2362 2305326
876.02087 640.13171 2018.5369 2173740
885.14551 637.59467 2010.5367 2173740
910.31354 646.52313 2038.6909 2107947
927.5907 649.6778 2048.6387 2305326
939.42316 648.98499 2046.454 2502705
940.13641 640.73273 2020.432 2634291
960.51489 645.92413 2036.8021 2700084
976.6618 648.17108 2043.8875 2436912
985.76245 645.74408 2036.2344 2371119
984.51733 636.68848 2007.6792 2239533
994.59937 635.09424 2002.6521 2042154
1011.6766 637.95081 2011.6598 2239533
1024.2803 637.95081 2011.6598 2700084
1034.4778 636.4704 2006.9916 2963256
1052.7477 639.9325 2017.9087 2831670
1078.3066 647.69067 2042.3726 2305326
1091.1028 647.69067 2042.3726 2239533
1092.9343 641.25739 2022.0864 2173740
1105.7177 641.32379 2022.2958 2371119
1118.3881 641.32379 2022.2958 2634291
1118.8629 634.40881 2000.4907 2700084
1130.7133 634.02563 1999.2825 2700084
1143.2394 634.02563 1999.2825 2568498
1167.1404 640.26562 2018.9592 2568498
1177.3088 638.91925 2014.7135 2765877
1186.8367 637.25745 2009.4734 2765878
1195.4255 635.13165 2002.77 2831670
1205.1608 633.65271 1998.1066 2700341
1215.5682 632.55408 1994.6422 2765364
1226.8092 631.90704 1992.6019 2765621
1240.8419 632.69666 1995.0917 2963256
1256.4399 634.26062 2000.0234 2897463
1266.5482 633.0498 1996.2052 2700084
1279.0551 633.0498 1996.2052 2831670
1283.0905 628.89758 1983.1121 2831670
1298.6605 630.42444 1987.9266 2831927
1325.577 637.37793 2009.8533 2567985
1342.3041 639.34735 2016.0635 2305070
1355.6216 639.67114 2017.0846 2436655
1365.8916 638.56427 2013.5942 2436399
1385.6235 641.86072 2023.9888 2370606
1402.9185 643.97858 2030.6672 2436143
1426.7178 649.01733 2046.556 2304556
1441.0193 649.68427 2048.6589 2041385
1453.8547 649.68427 2048.6589 2107177
1465.1223 648.98975 2046.469 2107947
1471.5223 646.16986 2037.5769 2041897
1494.5718 650.64661 2051.6936 2107947
1497.2192 646.24097 2037.8013 2042667
1512.4073 647.27698 2041.0681 2371119
1529.9078 649.27692 2047.3745 2371375
1543.9514 649.78876 2048.9885 2370863
1564.543 653.02521 2059.1941 2567985
1577.106 652.88507 2058.7522 2634034
1589.5356 652.69244 2058.1448 2437169
1597.1044 650.52307 2051.304 2502705
1610.7 650.82349 2052.2512 2502705
1623.6199 650.84827 2052.3296 2567985
1631.7349 648.96173 2046.3807 2567985
1646.2825 649.64294 2048.5288 2436656
1660.193 650.06433 2049.8574 2371119
1679.1334 652.43347 2057.3281 2699827
1683.0857 648.98718 2046.4608 2502705
1696.1915 649.09595 2046.8038 2107691
1737.6951 659.98871 2081.1521 1778982
1769.0892 666.90808 2102.9712 1976361
1740.7769 651.38361 2054.0176 2239277
1755.755 652.16705 2056.488 2370606
1768.2982 652.04114 2056.0911 2436399
1783.4342 652.86627 2058.6929 2502192
1799.5719 654.04364 2062.4055 2304813
1806.1307 651.74756 2055.1653 2567985
1818.9611 651.73114 2055.1135 2633778
1832.1946 651.85834 2055.5146 2239020
1843.6395 651.35193 2053.9177 2436399
1856.5081 651.35193 2053.9177 2502192
1860.3381 648.2027 2043.9872 2502192
1867.7747 646.34454 2038.1278 2567985
1880.5442 646.34454 2038.1278 2502192
1888.2336 644.61023 2032.6591 2699571
1898.3143 643.71014 2029.8207 2699571
1907.0216 642.35931 2025.5612 2633778
1921.7306 643.03467 2027.6908 2567985
1941.1434 645.26471 2034.7228 2502192
1952.6653 644.85974 2033.4458 2436399
1953.2854 640.88312 2020.9062 2436399
1963.8706 640.20618 2018.7717 2436399
1967.8677 637.40405 2009.9357 2370606
1975.8313 635.91412 2005.2374 2304813
1984.0005 634.50879 2000.806 2370606
1992.6897 633.28638 1996.9513 2436399
2006.9817 633.84863 1998.7244 2304813
2018.8094 633.63062 1998.0367 2370606
2026.8772 632.24237 1993.6592 2436399
2046.1001 634.32941 2000.2404 2436399
nan nan nan 16777215
nan nan nan 16777215
nan nan nan 16777215
nan nan nan 16777215
nan nan nan 16777215
nan nan nan 16777215
nan nan nan 16777215
nan nan nan 16777215
nan nan nan 16777215
nan nan nan 16777215
nan nan nan 16777215
-1795.9392 640.42804 1980.5494 2239533
-1782.8081 640.16864 1979.7474 2239533
-1763.517 637.67822 1972.0457 2173740
-1749.3368 637.01379 1969.9907 2173740
-1736.8063 636.94476 1969.7775 2042154
-1718.6787 634.80762 1963.1681 2107947
-1709.4503 635.95026 1966.7019 1976361
-1698.1707 636.34082 1967.9097 1976361
-1685.8411 636.34082 1967.9097 2107947
-1667.278 633.97052 1960.5795 2173740
-1659.6528 635.75513 1966.0984 2173740
-1647.3347 635.75513 1966.0984 1779239
-1640.25 637.7901 1972.3916 1976361
-1635.0547 640.59625 1981.0697 2239533
-1611.5222 636.20605 1967.4928 2371119
-1568.7513 624.09454 1930.0376 2371120
-1550.2172 621.51184 1922.0505 2305327
-1547.1354 625.13245 1933.2473 2107945
-1519.5979 618.85065 1913.8206 1976359
-1511.9788 620.64508 1919.3699 2107944
-1511.4849 625.41656 1934.126 2239531
-1491.2231 622.01959 1923.6207 2305324
-1460.9526 614.3584 1899.9281 2305324
-1453.1466 616.09564 1905.3008 2436910
-1443.4922 617.07159 1908.3187 2502703
-1431.5359 617.07159 1908.3187 2634289
-1424.8501 619.36249 1915.4036 2436910
-1420.8032 622.84924 1926.1864 2963254
-1416.6592 626.35278 1937.0212 3094840
-1405.0531 626.58911 1937.7522 2700082
-1385.6599 623.32666 1927.6627 2502703
-1371.639 622.44464 1924.9352 2568496
-1366.3187 625.53046 1934.478 2897461
-1363.3147 629.74127 1947.5002 3029047
-1347.2269 627.92999 1941.8989 3160633
-1338.9426 629.75598 1947.5458 3358012
-1322.1541 627.57892 1940.8131 3292219
-1318.3564 631.58496 1953.202 3094840
-1306.4609 631.75031 1953.7134 3029047
-1313.8516 641.33295 1983.348 3029047
-1285.3284 633.40051 1958.8167 3094840
-1271.5485 632.65057 1956.4974 2897461
-1257.9264 631.96527 1954.3782 2766132
-1248.1366 633.21082 1958.2299 2897718
-1241.7479 636.22363 1967.5471 3095097
-1223.0171 632.90979 1957.2991 3160633
-1206.6106 630.7439 1950.6008 3094840
-1198.382 632.85217 1957.121 3160633
-1186.1199 632.85217 1957.121 3160633
-1171.3615 631.50629 1952.9587 3226426
-1161.6718 632.89349 1957.2487 3094840
-1148.2258 632.242 1955.234 2963254
-1134.1643 631.23389 1952.1162 3226426
-1128.2418 634.78302 1963.092 3423805
-1112.7538 632.96918 1957.4827 3160633
-1102.9033 634.35748 1961.7762 2700082
-1086.8207 632.15222 1954.9563 2765875
-1065.9691 627.09106 1939.3044 2963254
-1052.1049 626.07117 1936.1504 2897718
-1047.4412 630.56635 1950.0519 2963254
-1040.7628 633.94037 1960.4861 3358012
-1020.8547 629.24036 1945.9513 3226426
-1011.3785 630.93457 1951.1907 2765875
-1001.7197 632.55493 1956.2018 3029047
-991.53937 633.88208 1960.3059 2897461
-977.94794 633.03442 1957.6846 2963254
-964.4693 632.2392 1955.2252 2897461
-958.8631 636.65051 1968.8673 3029047
-946.52753 636.65051 1968.8673 2897461
-938.54297 639.61566 1978.0372 2897461
-925.38739 639.08911 1976.4087 3029047
-913.00458 639.08911 1976.4087 2963254
-896.69586 636.30322 1967.7933 2502703
-884.00256 636.04089 1966.9822 2700082
-873.98767 637.72565 1972.1923 2963254
-861.63129 637.72565 1972.1923 2831668
-850.65112 638.75909 1975.3882 2634289
-838.64111 639.03833 1976.2518 2700082
-827.34583 639.8786 1978.8505 2568497
-819.76068 643.65765 1990.5372 2831927
-811.72565 647.19476 2001.476 3161148
-793.47437 642.56952 1987.1722 3424320
-777.98071 640.06567 1979.429 3095355
-765.74744 640.20648 1979.8644 3095355
-754.92761 641.55316 1984.0291 3029562
-741.3277 640.54279 1980.9044 2964026
-727.78894 639.55176 1977.8396 2832183
-711.96783 636.48596 1968.3586 2897976
-700.44128 637.21912 1970.6259 2832183
-688.06818 637.19458 1970.5498 2766390
-674.37848 635.92755 1966.6315 2766133
-663.09558 636.92517 1969.7168 2831671
-652.47754 638.61151 1974.9318 2963256
-636.30603 634.82233 1963.2136 3029049
-621.28058 632.0498 1954.6395 2831670
-612.21265 635.34845 1964.8407 2503218
-598.85175 634.23572 1961.3997 1648165
-586.57355 634.24719 1961.4351 1582629
-574.28455 634.24719 1961.4351 1451043
-559.46661 631.39313 1952.6088 2635060
-554.12598 639.34631 1977.2042 3161405
-548.29559 647.08521 2001.1371 2700855
-532.87439 643.60254 1990.3668 2765877
-518.71661 641.51556 1983.9128 2568498
-507.04312 642.47394 1986.8766 2568498
-494.59473 642.47394 1986.8766 2963256
-480.48743 640.26343 1980.0404 3423807
-466.64249 638.29456 1973.9518 2897463
-454.36206 638.41675 1974.3296 2568498
-441.99228 638.41675 1974.3296 2634291
-429.90936 638.84308 1975.6479 2371119
-416.19815 636.80322 1969.3397 2239533
-404.45544 637.7428 1972.2452 2371119
-393.26901 639.64624 1978.1317 2831670
-380.65201 639.27106 1976.9714 2502705
-367.38364 637.73993 1972.2365 2502705
-351.88007 632.08716 1954.755 2502705
-339.63293 632.08716 1954.755 2634291
-326.88733 631.12482 1951.7789 2436912
-317.3089 636.44012 1968.2168 2700084
-307.84103 642.41608 1986.6976 2963256
-290.56915 631.92358 1954.2493 2700084
-279.19138 633.89026 1960.3312 2568498
-267.66296 635.68018 1965.8666 2700084
-254.15613 632.71747 1956.7043 3621186
-242.29398 633.75647 1959.9175 3160635
-230.40729 634.83881 1963.2646 3094842
-217.75908 633.8266 1960.1343 3226428
-204.18684 629.84314 1947.8153 3094842
-190.01952 623.40094 1927.8925 2568498
-180.28033 631.59772 1953.2415 2568242
-169.06754 635.44977 1965.1539 2502192
-156.76299 635.48114 1965.2511 2436656
-144.60614 636.16766 1967.3741 2567985
-132.38658 636.6806 1968.9604 2437169
-120.01579 636.49683 1968.3922 2634548
-108.19708 639.53436 1977.7858 2634291
-95.799728 639.49487 1977.6638 2436912
-83.570236 640.73065 1981.4855 2502705
-72.318817 651.2049 2013.8773 2831670
-58.928307 642.77386 1987.8041 2897720
-46.542198 643.71576 1990.7168 2765877
-34.183689 645.86859 1997.3748 2568498
-21.592333 643.56818 1990.2606 2305326
-9.0819092 640.68823 1981.3541 2502705
3.3406413 642.37115 1986.5586 2897463
15.85402 645.09625 1994.9862 2963256
28.356821 645.17798 1995.239 2765877
40.857609 645.17798 1995.239 2568498
53.463074 646.44354 1999.1528 2371119
66.074867 647.29077 2001.7729 2436912
78.53801 646.6438 1999.772 2305326
91.005219 646.20367 1998.4109 2371119
103.02525 643.07867 1988.7468 2305326
115.69559 644.24939 1992.3673 2371119
129.12312 648.9978 2007.0518 2568498
141.48209 648.00916 2003.9945 2765877
154.31476 649.17462 2007.5986 2831670
165.56612 644.01337 1991.6373 2831670
177.16248 640.82355 1981.7726 2831670
190.06047 642.45135 1986.8068 2634291
202.08636 641.11237 1982.6659 2766134
213.93173 639.38892 1977.3361 2766134
225.37886 636.72913 1969.1105 2765877
237.14899 635.21045 1964.4139 2897720
249.42134 635.12048 1964.1357 2831670
260.31235 631.68707 1953.5177 2305326
272.55176 631.68707 1953.5177 2371119
284.9949 632.13898 1954.9154 2502705
296.9613 631.53986 1953.0624 2502706
309.58795 632.33661 1955.5265 2568499
321.30194 631.2796 1952.2576 2305326
334.50937 633.12671 1957.9698 2305327
347.40182 634.26813 1961.4998 2502706
359.30145 633.58075 1959.3741 2568755
371.57751 633.58075 1959.3741 2502962
384.22705 634.19714 1961.2803 2831670
398.19412 636.88263 1969.5853 2831670
410.71942 637.17004 1970.4741 2634289
423.54117 637.88708 1972.6917 2634289
437.16132 639.73193 1978.3967 2502703
451.49362 642.48834 1986.921 2568496
466.25839 645.69574 1996.8402 2634289
475.8649 641.77887 1984.7269 2963254
482.05414 633.57007 1959.3409 3226426
500.52359 641.50818 1983.8899 2700082
510.67749 638.66211 1975.0883 2832438
521.2486 636.45996 1968.2782 3358527
533.58044 636.45996 1968.2782 3621698
542.59906 632.59717 1956.3323 3753541
551.93372 629.26538 1946.0286 3884869
556.55963 620.82507 1919.9266 2766388
570.7262 623.15912 1927.1447 2766391
585.23853 625.76611 1935.207 2766390
600.65656 629.216 1945.876 2634804
613.02905 629.40186 1946.4507 2700854
625.81281 629.99438 1948.2832 2766390
645.08917 636.97528 1969.8718 2371632
653.82697 633.48334 1959.0729 2502962
665.50867 632.91992 1957.3303 2568242
677.77197 632.91992 1957.3303 2239533
690.07593 632.95721 1957.4457 1910568
698.216 629.24066 1945.9521 2305326
711.04572 629.80548 1947.699 2634291
728.53143 634.40576 1961.9254 2897463
740.56702 634.1861 1961.2461 3029049
755.69141 636.57562 1968.6357 2634291
771.54968 639.49658 1977.6691 2634291
787.78296 642.63116 1987.3628 2239533
796.78143 639.85822 1978.7874 2173740
809.22644 639.89563 1978.903 2107947
823.84058 641.62128 1984.2397 2436912
838.00262 642.94873 1988.345 2634291
849.19208 641.98999 1985.38 2700084
856.65533 638.28259 1973.9147 2568498
873.05988 641.24799 1983.0852 1976361
888.65906 643.54688 1990.1947 2239533
904.3056 645.81604 1997.212 2239533
916.81866 645.81604 1997.212 2371119
930.15784 646.38995 1998.9871 2371119
940.00385 644.55359 1993.3079 2502706
949.76685 642.70905 1987.6036 2305326
962.04962 642.5954 1987.2522 1910568
972.95721 641.57788 1984.1053 1779239
984.78937 641.18787 1982.8993 1976361
993.02191 638.49316 1974.5659 1976361
1006.9206 639.4632 1977.5658 2371119
1014.6215 636.52142 1968.4683 2568498
1037.348 642.96344 1988.3904 2765877
1053.5391 645.24994 1995.4614 2568498
1062.9696 643.39069 1989.7117 2305326
1066.6567 638.13855 1973.4692 2305326
1077.9984 637.53369 1971.5986 2239533
1089.3929 636.97345 1969.8661 2173740
1101.7347 636.97345 1969.8661 2502705
1110.2866 634.80664 1963.165 2700084
1122.9871 635.03314 1963.8655 2700084
1133.0007 633.75189 1959.9032 2502705
1145.2802 633.75189 1959.9032 2436912
1155.3898 632.56396 1956.2295 2305326
1169.917 633.79413 1960.0339 2502705
1179.9336 632.58063 1956.281 2634548
1187.6827 630.18884 1948.8844 2699571
1198.1025 629.24847 1945.9762 2634291
1212.8806 630.5929 1950.134 2831670
1225.8535 630.98138 1951.3354 2896950
1238.0793 630.98138 1951.3354 2896437
1249.2821 630.46515 1949.7389 3094072
1255.0437 627.23956 1939.7637 2831157
1270.215 628.73346 1944.3835 2502192
1293.7894 634.31891 1961.6567 2436399
1309.0219 635.74774 1966.0754 2370862
1330.8904 640.34283 1980.286 2502449
1344.3818 640.85968 1981.8845 2502706
1355.2164 640.11224 1979.5729 2371375
1368.6727 640.60541 1981.098 2371375
1387.7078 643.67737 1990.5981 2436913
1407.3943 646.99402 2000.8551 2568754
1423.995 648.84619 2006.583 2700341
1441.6121 651.12488 2013.63 2305583
1465.6703 656.24811 2029.4738 2370863
1478.3856 656.24811 2029.4738 2436398
1494.1002 657.56818 2033.5562 2173741
1509.1146 658.5603 2036.6243 1910568
1503.0388 650.40948 2011.4175 1844518
1510.1411 648.04932 2004.1187 1778982
1528.5453 650.53802 2011.8152 1976361
1540.9908 650.47089 2011.6074 2305582
1540.6028 645.03156 1994.7861 2371119
1552.6453 644.84241 1994.2012 2108204
1566.3491 645.34076 1995.7423 2173997
1586.1575 648.32629 2004.9753 2305326
1594.0328 646.42584 1999.098 2371376
1598.7791 643.29596 1989.4186 2437168
1611.0449 643.21674 1989.1736 2239533
1641.1862 650.22076 2010.8339 2371119
1645.483 646.95679 2000.74 3160635
1641.8151 640.63428 1981.1874 3424064
1655.644 641.18268 1982.8834 2765877
1677.8531 644.94427 1994.5162 2107947
1690.5729 645.02954 1994.7799 2107691
1704.3224 645.50354 1996.2457 2239020
1718.1007 645.98151 1997.7239 2370606
1733.0347 646.88391 2000.5146 2304813
1746.8157 647.34613 2001.944 2304813
1760.4314 647.74084 2003.1647 2173227
1773.5189 647.93713 2003.7717 2173227
1791.0911 649.75745 2009.4011 2107434
1813.2749 653.21368 2020.0897 2239020
1823.8666 652.47504 2017.8054 2502192
1814.2057 644.55121 1993.3005 2502192
1831.2738 646.16699 1998.2976 2502193
1843.7936 646.16699 1998.2976 2567985
1845.0988 642.26331 1986.2251 2765621
1856.7745 641.99756 1985.4033 2831414
1862.2461 639.60443 1978.0024 2765364
1872.7303 638.95331 1975.9888 2896950
1887.5909 639.79395 1978.5886 2765364
1903.3971 640.9422 1982.1395 2765364
1904.0176 636.995 1969.9327 2633778
1913.3685 636.00073 1966.8578 2567985
1919.6882 634.01801 1960.7262 2502192
1932.8744 634.3139 1961.6412 2304813
1939.796 632.56311 1956.2271 2370606
1945.7212 630.51154 1949.8823 2370606
1959.2102 630.92133 1951.1497 2239020
1972.196 631.16492 1951.9031 2239020
1983.5959 630.90112 1951.0873 2239020
1994.1057 630.35913 1949.4111 2304813
nan nan nan 16777215
nan nan nan 16777215
nan nan nan 16777215
nan nan nan 16777215
nan nan nan 16777215
nan nan nan 16777215
nan nan nan 16777215
nan nan nan 16777215
nan nan nan 16777215
nan nan nan 16777215
nan nan nan 16777215
-1740.7247 632.70233 1919.6594 2305326
-1729.0703 632.83875 1920.0735 2239533
-1717.819 633.12573 1920.9441 2239533
-1707.4277 633.7359 1922.7954 2173740
-1695.9655 633.95441 1923.4584 2107947
-1673.4131 630.00092 1911.4633 1778982
-1671.3221 633.74927 1922.8358 1844775
-1658.8597 633.59058 1922.3545 1976361
-1635.2916 629.15698 1908.9026 2173740
-1617.3151 626.82501 1901.8274 2173740
-1600.7136 624.99542 1896.2762 2239533
-1610.4872 633.51355 1922.1207 2173740
-1603.1753 635.38849 1927.8094 1910568
-1555.5239 621.1828 1884.7084 2963256
-1540.9102 620.05389 1881.2832 3094842
-1524.2035 618.0589 1875.2303 2831670
-1512.2125 617.95996 1874.9302 2502705
-1498.5253 617.16089 1872.5057 2436910
-1484.5533 616.23102 1869.6844 2502703
-1467.9988 614.20575 1863.5398 2568496
-1453.9048 613.18591 1860.4453 2700082
-1448.1666 615.70203 1868.0795 2963254
-1436.4625 615.70203 1868.0795 2765875
-1428.4315 617.28931 1872.8954 2634289
-1417.3829 617.58807 1873.8019 2502703
-1405.6429 617.58807 1873.8019 2568496
-1396.8318 618.88574 1877.739 2502703
-1392.623 622.2619 1887.9825 2502703
-1381.7565 622.69556 1889.2982 2502703
-1366.9767 621.35791 1885.2397 2568496
-1354.9823 621.27411 1884.9855 2568496
-1343.3627 621.36212 1885.2527 2436910
-1340.9761 625.76031 1898.597 2765875
-1329.0808 625.76031 1898.597 2831668
-1333.8256 633.66559 1922.5822 2831925
-1316.0321 630.91003 1914.2216 2700082
-1313.6837 635.57629 1928.3793 3160633
-1301.6017 635.57629 1928.3793 3292219
-1285.8838 633.78418 1922.9419 2765875
-1273.8361 633.78418 1922.9419 2568753
-1256.1687 630.96155 1914.3779 2502703
-1238.9128 628.29315 1906.2817 2502703
-1226.7665 628.18933 1905.9667 2765875
-1211.2264 626.32849 1900.3208 2700082
-1197.2665 625.25586 1897.0664 2897718
-1188.2444 626.7663 1901.6492 2831668
-1178.6401 627.99719 1905.3838 2700339
-1170.5557 630.07141 1911.677 3292219
-1158.0333 629.7749 1910.7775 3160890
-1143.0745 628.13342 1905.7971 3094840
-1131.134 628.13342 1905.7971 3094840
-1131.4517 635.01306 1926.6704 3160633
-1109.3365 629.31519 1909.3827 3160633
-1096.3943 628.7536 1907.6788 2963254
-1095.7739 635.32367 1927.6129 2963254
-1088.6193 638.20953 1936.3687 3489598
-1059.9329 628.39502 1906.5908 3094840
-1044.9574 626.57806 1901.0781 2831668
-1034.5928 627.51587 1903.9235 3029047
-1022.6641 627.51587 1903.9235 2963254
-1006.4879 624.87891 1895.9226 2897718
-998.68964 627.44238 1903.7004 2766132
-990.78448 629.99988 1911.46 2963254
-976.28821 628.37762 1906.5381 2963254
-962.79297 627.36749 1903.4733 2963254
-951.44781 627.75061 1904.6357 3029047
-940.61725 628.48737 1906.871 3160890
-932.17548 630.85962 1914.0686 3029047
-922.09967 632.17352 1918.0551 2765875
-901.69727 626.34882 1900.3826 2371117
-886.05603 623.71985 1892.406 2239531
-875.65179 624.75598 1895.5498 2502959
-871.5199 630.35736 1912.5447 2437167
-870.28192 638.23724 1936.4526 2765875
-858.00427 638.12921 1936.125 2897461
-844.71698 637.25653 1933.4772 2634289
-831.92932 636.74072 1931.9122 2831668
-819.8252 636.74072 1931.9122 2765875
-807.96527 636.93317 1932.496 2766132
-792.45312 634.2085 1924.2292 3029049
-782.2619 635.72388 1928.827 2963256
-772.64276 637.75897 1935.0017 2765877
-760.51935 637.75897 1935.0017 2831670
-743.79858 633.84119 1923.115 3029050
-727.56604 630.21741 1912.12 2634291
-716.54553 631.06238 1914.6838 2634291
-704.12781 630.68475 1913.5381 2897206
-696.36871 634.539 1925.2322 2963000
-689.44928 639.30774 1939.7007 2568498
-674.67407 636.83246 1932.1906 2502705
-658.75085 633.16333 1921.0581 2568755
-647.73322 634.16034 1924.0831 2700341
-638.28229 636.75818 1931.9652 2700341
-623.49738 634.03235 1923.6948 2568754
-609.93103 632.46259 1918.9321 2634292
