# .PCD v0.7 - Point Cloud Data file format
VERSION 0.7
FIELDS x y z rgb
SIZE 4 4 4 4
TYPE F F F U
COUNT 1 1 1 1
WIDTH 1270
HEIGHT 1
VIEWPOINT 0 0 0 1 0 0 0
POINTS 1270
DATA ascii
-3801.9973 787.33423 5289.1538 3424318
-3716.1758 776.32849 5215.2192 3424575
-3638.8569 766.91937 5152.0107 3490367
-3558.6394 756.72552 5083.5303 3621953
-3426.0085 735.10138 4938.2642 3819076
-3289.0615 712.14868 4784.0723 4148298
-3092.4087 675.72729 4539.4009 4083018
-2951.2788 650.87488 4372.4473 3951433
-2878.8821 640.85712 4305.1499 3952204
-2802.5686 629.76984 4230.6675 4478290
-2634.9514 597.75781 4015.6172 4939611
-2608.6536 597.49695 4013.865 5071197
-2585.2512 597.90076 4016.5774 5071196
-2555.2141 596.76288 4008.9336 5136990
-2531.8352 597.17285 4011.6877 5071197
-2598.9832 619.15741 4159.3755 4741975
-2541.71 611.64612 4108.916 3951689
-2602.4653 632.6745 4250.1807 2965049
-2723.1453 668.85626 4493.2427 3227965
-2845.2336 706.14355 4743.731 3162172
-2908.1069 729.36658 4899.7388 3358781
-2912.4861 738.25806 4959.4697 3424318
-2958.4133 757.98651 5092.002 3490111
-2964.3625 767.79053 5157.8628 3490111
-2923.7664 765.62207 5143.2959 3226939
-2881.6848 763.01215 5125.7627 3094840
-2868.5193 768.08594 5159.8477 3226939
-2863.8132 775.56647 5210.1006 3358525
-2842.0217 778.539 5230.0693 3358525
-2809.2534 778.539 5230.0693 3621697
-2888.1702 809.8559 5440.4497 3621440
-2868.2019 813.86188 5467.3613 3622210
-2833.9473 813.86188 5467.3613 3688517
-2827.4214 821.92255 5521.5112 3754053
-2832.0859 833.47632 5599.127 3688260
-2802.2449 835.03748 5609.6147 3688260
-2789.4019 841.76788 5654.8286 3951432
-2700.7581 825.50262 5545.5615 4017225
-2647.6516 819.81708 5507.3672 4017225
-2607.5979 818.07635 5495.6733 4017225
-2575.0139 818.66394 5499.6206 4017225
-2558.3108 824.38483 5538.0527 4083018
-2518.7791 822.80579 5527.4443 4017482
-2482.8784 822.38531 5524.6196 4017225
-2399.4836 805.99927 5414.542 4017482
-2360.9895 804.44208 5404.0811 4148811
-2329.8477 805.3811 5410.3892 4083018
-2309.864 810.26196 5443.1777 3951432
-2282.9143 812.8089 5460.2876 3951432
-2223.6565 803.75531 5399.4673 4017225
-2165.3086 794.7561 5339.0122 4083018
-2129.7485 793.9696 5333.729 4083275
-2076.1375 786.32147 5282.3501 4083275
-2008.7831 773.13599 5193.7729 4017225
-1978.6305 774.07025 5200.0488 3951432
-1960.135 779.67249 5237.6836 4017225
-1913.4243 774.05151 5199.9229 3951689
-1875.7751 771.9649 5185.9058 3885639
-1843.2838 771.9649 5185.9058 3885639
-1797.328 766.22479 5147.3447 3951432
-1755.8263 762.20856 5120.3643 4017225
-1597.6742 706.46204 4745.8706 3951432
-1578.6162 711.27246 4778.186 3885639
-1584.0305 727.50842 4887.2559 3885639
-1563.2098 732.09778 4918.0864 3754053
-1552.8224 741.85626 4983.6416 3622467
-1520.7797 741.45709 4980.9604 3951432
-1513.3539 753.29468 5060.4829 4280397
-1311.0215 666.5451 4477.7168 4280653
-1330.016 690.98859 4641.9229 3754055
-1292.9067 686.72546 4613.2842 4016971
-1247.7809 677.91199 4554.0771 4082765
-1167.3761 649.07074 4360.3271 3819592
nan nan nan 16777215
nan nan nan 16777215
nan nan nan 16777215
-1035.6022 635.26935 4267.6123 4148812
-1009.8249 635.87421 4271.6758 4214349
nan nan nan 16777215
nan nan nan 16777215
nan nan nan 16777215
nan nan nan 16777215
nan nan nan 16777215
nan nan nan 16777215
-808.28387 624.89801 4197.9399 3884871
nan nan nan 16777215
-747.52704 618.15515 4152.6426 4411729
-722.6059 619.09448 4158.9531 4543315
-709.03961 630.19647 4233.5337 4017228
-734.25061 677.966 4554.4399 3951435
-709.16858 681.2832 4576.7241 4543317
-626.20654 626.93274 4211.6089 4609109
-654.26929 683.84387 4593.9263 4477781
-625.48694 683.84387 4593.9263 4609625
-589.48383 675.56866 4538.335 4543575
-585.48077 704.98651 4735.958 4544086
-555.29633 704.33673 4731.5933 4675416
-520.88464 697.94952 4688.6855 4675415
-502.08957 712.97473 4789.6216 4478292
-481.54022 727.26074 4885.5918 4412499
-467.56165 754.08337 5065.7812 4478035
-440.70813 762.53601 5122.5645 4411985
-410.8154 766.64478 5150.166 4345936
-380.75217 771.1087 5180.1538 4148812
-349.64621 774.09595 5200.2217 4017227
-319.00272 778.82629 5231.999 3951432
-287.69168 782.82367 5258.8525 4081991
-256.92679 789.53339 5303.9272 4213834
-225.90378 797.32562 5356.2739 4345420
-192.78883 799.1651 5368.6313 4345163
-159.29214 799.86542 5373.3354 4147785
-126.68857 806.62738 5418.7612 3884357
-92.601578 805.43774 5410.7695 3753027
-58.701427 805.43774 5410.7695 3818563
-24.937801 809.8714 5440.5542 3556161
9.1921082 813.69116 5466.2144 3621698
43.47298 814.31573 5470.4102 3621954
77.523705 811.97906 5454.7129 3556160
111.69917 811.97906 5454.7129 3687233
147.13565 818.99823 5501.8662 3753027
179.91241 811.35815 5450.5415 3424318
214.1256 811.6001 5452.167 3226682
248.30151 811.65369 5452.5273 3161146
278.3179 799.742 5372.5068 3095354
311.37415 798.1933 5362.1025 3358525
347.07391 803.06281 5394.8149 3358525
380.69086 802.67639 5392.2192 3292732
415.10941 803.9054 5400.4756 3226939
448.42166 802.96814 5394.1792 3161146
478.2301 796.32788 5349.5713 3226939
508.95023 791.97614 5320.3374 3292732
541.3324 790.58667 5311.0029 3161147
572.50531 787.6944 5291.5732 3095355
603.06952 784.32703 5268.9521 3095355
635.2804 783.33966 5262.3188 2963515
668.2887 783.38446 5262.6201 3029054
711.0437 794.31323 5336.0371 2634297
751.78357 802.11035 5388.417 1844527
781.61951 798.10352 5361.4995 1449771
818.76337 801.5813 5384.8628 1449261
848.58612 797.90009 5360.1333 1251883
876.15137 792.45728 5323.5693 1054762
898.7337 783.07202 5260.521 922663
931.47845 782.89209 5259.3125 857127
956.87225 776.7572 5218.0996 856870
993.24176 779.64313 5237.4863 856613
1029.8136 782.49817 5256.666 396062
1059.4941 780.10217 5240.5703 396061
1094.0178 781.30896 5248.6772 396059
1124.6588 779.75342 5238.2275 396312
1155.8234 778.63879 5230.7397 396310
1205.7168 789.8548 5306.0864 265237
1224.1986 780.44348 5242.8633 1712424
1247.8201 774.71509 5204.3809 3160637
1271.6235 769.38849 5168.5981 3094843
1350.874 797.04132 5354.3643 3226428
1387.7015 798.93005 5367.0522 3292477
1437.3256 807.92242 5427.4614 3292731
1449.2003 795.77069 5345.8281 3226939
1503.7166 807.05377 5421.626 3161146
1571.2915 824.69238 5540.1182 3161146
1624.6259 834.2558 5604.3633 3161146
1671.2648 840.04919 5643.2822 3226939
1716.2229 844.77509 5675.0303 3292732
1753.2611 845.48999 5679.8325 3161147
1789.228 845.6701 5681.0425 3095353
1829.6677 847.91602 5696.1299 3095610
1874.1178 851.89874 5722.8857 3095353
1917.4637 855.23969 5745.3291 3226939
1929.9789 844.95947 5676.2686 3226939
1951.8358 839.06726 5636.6855 3292732
1987.4684 839.20105 5637.5845 3226939
2011.7495 834.62079 5606.8154 3095353
2006.6154 818.20361 5496.5278 3161146
2056.179 824.26733 5537.2627 2832181
2055.7222 810.41052 5444.1758 2766388
2089.8313 810.41052 5444.1758 2963767
2045.4559 780.46387 5243 2963511
2051.0344 770.22296 5174.2036 2963511
2054.6553 759.57703 5102.6865 3094840
2083.9934 758.61902 5096.2505 3160633
2103.8669 754.29663 5067.2139 3094840
2151.1675 759.78979 5104.1157 3094840
2180.7559 758.95795 5098.5273 2963254
2202.5334 755.47089 5075.1021 3226168
2268.6023 767.05884 5152.9478 3160632
2255.7976 752.0271 5051.9678 3160888
2266.4487 745.12274 5005.5854 3029304
2294.1204 743.92615 4997.5469 2436910
2288.3152 732.05237 4917.7812 3228225
2286.3162 721.69543 4848.2056 4742234
2336.1572 727.7594 4888.9419 4411472
2386.3418 733.77185 4929.3325 2634547
2460.562 746.92706 5017.7065 3029306
2543.3586 762.32092 5121.1196 3160892
2633.2993 779.44592 5236.1616 3226940
2608.9133 762.72552 5123.8374 3095355
2652.6482 766.08496 5146.4058 3095614
2743.4241 782.78607 5258.6001 3885647
2850.5593 803.70319 5399.1172 4806755
2884.3865 803.70319 5399.1172 5859443
2918.6636 803.82709 5399.9497 5399404
2780.189 756.91589 5084.8096 3490633
2840.5129 764.57812 5136.2827 2832957
3004.1021 799.55304 5371.2373 3161664
3061.5327 805.81152 5413.2808 3424319
3131.5178 815.20117 5476.3584 3358015
3182.5659 819.51093 5505.3105 3358014
3236.8755 824.55914 5539.2236 3292221
3289.7322 829.13416 5569.957 3292221
3344.894 834.18787 5603.9067 3358013
3351.115 827.05798 5556.0098 3292220
3396.0498 829.53107 5572.6235 3423805
3449.3301 833.97156 5602.4541 3358012
3508.7993 839.80377 5641.6338 3423805
3499.7278 829.27875 5570.9287 3358012
3526.1768 827.29517 5557.6035 3226426
3549.4199 824.60559 5539.5356 3226426
3622.0984 833.34174 5598.2231 3160633
3637.6187 828.88605 5568.2905 3029047
3672.5059 828.88605 5568.2905 3094840
3774.3826 843.86334 5668.9053 3160633
3865.7986 856.24445 5752.0786 3160633
3902.2146 856.32733 5752.6353 3160376
3950.2554 858.93634 5770.1621 3029047
3987.7935 859.23499 5772.1685 3029047
4013.9324 857.09424 5757.7876 2963254
4034.2583 853.76141 5735.3984 2963254
4070.1926 853.76141 5735.3984 2963254
4143.0527 861.43921 5786.9766 3029304
4001.8962 824.87079 5541.3169 2963255
4036.6145 824.87079 5541.3169 3029048
4119.1001 834.54871 5606.3315 3226426
4154.2256 834.54871 5606.3315 3292219
4223.5581 841.36304 5652.1084 3292476
4309.5635 851.35773 5719.251 3292219
4335.4448 849.40814 5706.1538 3358012
4373.54 849.86365 5709.2139 3358012
4411.979 850.37805 5712.6694 3423805
4455.0581 851.7713 5722.0293 3423548
4505.834 854.60223 5741.0469 3489341
4556.0508 857.28308 5759.0562 3423548
4600.2065 858.79028 5769.1812 3423548
4566.4326 845.83905 5682.1772 3489341
4687.0952 861.47321 5787.2046 3949892
4671.1587 851.95361 5723.2534 3949892
4695.6064 849.88831 5709.3794 3884099
4778.0234 858.26727 5765.6675 3555134
4814.147 858.26727 5765.6675 3489341
4873.9404 862.45569 5793.8042 3555134
4932.9316 866.44122 5820.5786 3489598
4975.543 867.51245 5827.7749 3489598
5065.6772 876.7934 5890.123 3555391
5133.9194 882.17853 5926.2983 3555391
5188.3506 885.13 5946.1265 3555391
5235.3481 886.7804 5957.2129 3555391
5257.0371 884.15088 5939.5488 3555648
5308.5815 886.54425 5955.627 3489598
5345.896 886.54425 5955.627 3489599
5427.2354 893.79468 6004.334 3555394
5483.8887 896.9079 6025.248 3686979
5551.231 901.71478 6057.5391 3752772
5609.8003 905.04089 6079.8833 3686979
5670.8833 908.72498 6104.6328 3686979
5719.2729 910.33942 6115.4775 3555393
5794.3354 916.14941 6154.5088 3621443
5848.0732 918.53345 6170.5234 3621443
5935.7837 926.18689 6221.9385 3621443
5998.5996 929.88153 6246.7578 3621443
6037.4512 929.8374 6246.4614 3555650
6126.1284 937.41815 6297.3877 3555137
6221.7041 945.95074 6354.708 3489087
6320.2153 954.81842 6414.2788 3489087
6392.1318 959.58142 6446.2764 3489087
6433.8818 959.78467 6447.6416 3489087
6530.4238 968.10803 6503.5562 3489087
6608.6914 973.63586 6540.6909 3489087
6627.3291 970.36456 6518.7148 3489087
6686.5645 973.04138 6536.6968 3489087
nan nan nan 16777215
nan nan nan 16777215
nan nan nan 16777215
nan nan nan 16777215
nan nan nan 16777215
nan nan nan 16777215
-4483.3545 741.19421 4779.1104 3094329
-4453.4121 741.19421 4779.1104 3094586
-4466.561 748.41467 4825.6665 3225915
-4455.9424 751.72388 4847.0039 3160889
-4482.3945 761.37524 4909.2344 3358012
-4424.4121 756.71899 4879.2114 3292219
-4424.8501 762.0592 4913.6445 3818563
-4442.2231 770.41125 4967.4976 4081735
-4378.6699 764.74719 4930.9766 4081992
-4379.7534 770.37195 4967.2437 4410700
-4378.6089 775.68243 5001.4849 4279114
-4384.8218 782.3822 5044.6846 3950149
-4438.0977 797.63776 5143.0498 3621184
-4460.5098 807.52881 5206.8257 3489598
-4456.5029 812.7475 5240.4751 3358012
-4488.9893 824.74847 5317.8555 3489598
-4449.6494 823.63379 5310.6685 3489855
-4414.5015 823.28418 5308.4141 3686977
-4401.8569 827.15778 5333.3906 3752770
-4367.6074 826.99982 5332.3721 3687234
-4342.0371 828.49554 5342.0161 3752770
-4292.2559 825.35889 5321.7915 3752770
-4258.9131 825.35889 5321.7915 4081734
-4254.4531 831.00037 5358.167 4213835
-4208.5049 828.56354 5342.4546 4279627
-4175.4595 828.64825 5343.0005 4213834
-4123.998 825.05005 5319.7998 4213834
-4057.2437 818.30859 5276.332 4213834
-3986.6167 810.66901 5227.0732 4082248
-3898.7258 799.36322 5154.1753 4016455
-3834.228 792.70496 5111.2437 3884869
-3763.5652 784.64917 5059.3013 3950662
-3703.9417 778.77771 5021.4429 3950662
-3649.6689 773.94031 4990.252 4016455
-3618.4033 773.94031 4990.252 3884869
-3576.864 771.72357 4975.959 3884869
-3518.2339 765.74823 4937.4307 3884869
-3450.7107 757.71405 4885.6274 3754053
-3358.72 744.11523 4797.9443 3885639
-3242.0281 724.74896 4673.0737 4083018
-3052.4141 688.57959 4439.8589 4280397
-2909.8816 662.4635 4271.4663 4543313
-2840.8145 652.74292 4208.7896 4214605
-2819.9675 654.02374 4217.0479 4215630
-2697.7646 631.59937 4072.4587 4741974
-2545.3291 601.60114 3879.0347 5070683
-2535.9895 605.17194 3902.0588 5005659
-2539.7341 611.96503 3945.8596 5071709
-2515.012 611.96503 3945.8596 4940123
-2519.2639 619.08508 3991.7688 5005917
-2528.1763 627.5047 4046.0571 5005660
-2499.9558 626.78497 4041.4163 4084045
-2522.5974 638.93298 4119.7451 3096380
-2632.7563 673.72815 4344.0991 3359552
-2694.9937 696.85889 4493.2427 3425088
-2765.0776 722.52832 4658.7554 3556417
-2793.2705 737.68231 4756.4658 3621697
-2771.4099 739.80194 4770.1328 3490111
-2773.0649 748.31335 4825.0132 3555904
-2813.7871 767.6709 4949.8276 3687490
-2763.2141 762.27478 4915.0347 3753283
-2728.1658 761.08801 4907.3823 3753283
-2697.4197 761.08801 4907.3823 3819076
-2763.7478 788.79376 5086.0249 3753283
-2756.4241 795.87988 5131.7153 3621954
-2739.8315 800.42548 5161.0244 3621440
-2709.8188 801.11206 5165.4517 3491138
-2671.4348 799.31061 5153.8359 3622467
-2652.7583 803.43378 5180.4219 3754053
-2642.2388 810.16016 5223.7925 3688260
-2616.6074 812.36365 5238 3622467
-2583.7896 812.36365 5238 3754053
-2532.1936 806.38367 5199.4419 3885639
-2480.7346 800.29199 5160.1641 3885639
-2434.1946 795.64722 5130.2153 4083018
-2390.781 791.91388 5106.1431 4148811
-2350.7969 789.23047 5088.8408 4279884
-2322.8662 790.57574 5097.5151 4148555
-2303.2644 794.8327 5124.9629 4017225
-2243.9956 785.32776 5063.6768 4017482
-2206.4224 783.25183 5050.2915 4017225
-2178.1606 784.46918 5058.1406 4017482
-2146.4697 784.46918 5058.1406 4017225
-2080.1592 771.62701 4975.3364 3885639
-2072.5491 780.50024 5032.5498 4017225
-2015.582 770.77313 4969.8306 4017225
-1970.5524 765.37732 4935.0391 4017225
-1933.3376 762.89325 4919.0225 3885639
-1893.3751 759.22681 4895.3818 3754053
-1864.3711 759.90631 4899.7632 3885639
-1850.4578 766.86243 4944.6147 3820102
-1828.3735 770.61151 4968.7886 3754053
-1739.5082 745.85651 4809.1719 3556931
-1710.3175 746.26678 4811.8174 3556674
-1677.5072 745.08417 4804.1919 3688260
-1627.4086 736.03906 4745.8706 3688517
-1585.984 730.65344 4711.145 3622467
-1497.4709 702.95886 4532.5742 3490881
nan nan nan 16777215
nan nan nan 16777215
-1317.4658 655.76666 4228.2861 4938583
-1368.0292 694.90765 4480.6616 5201498
-1339.0758 694.45099 4477.7168 4346191
-1179.3591 624.70917 4028.0317 3096124
-1161.6208 628.76801 4054.2026 3556161
-1220.0505 675.15863 4353.3228 3556164
-1086.4071 614.94977 3965.105 3753542
-1061.5645 614.94977 3965.105 3687749
-1036.7872 614.98853 3965.3547 3358784
-1083.262 658.33124 4244.8218 4016713
-1071.6296 667.65338 4304.9302 4279886
-1041.8824 665.8797 4293.4932 4543059
-1009.8249 662.49603 4271.6758 4082764
-923.62543 622.44141 4013.4099 2964284
-886.04474 613.82648 3957.8621 4213837
-884.96637 630.73132 4066.8618 4411215
-863.6225 633.76672 4086.4336 4608593
-833.25842 630.16595 4063.2163 4016457
-807.80109 630.16595 4063.2163 2963513
-808.28387 651.0603 4197.9399 3753542
-774.32495 644.68475 4156.8315 4477008
-746.28754 642.96716 4145.7568 4411215
-715.0025 638.22687 4115.1919 4872023
-689.21954 638.22687 4115.1919 3359299
-667.07703 641.72894 4137.7729 3227457
-638.00543 638.57898 4117.4624 4609367
-614.4834 640.95209 4132.7642 4806746
-596.13489 649.16785 4185.7378 4740955
-581.45319 662.31635 4270.5176 3096129
-536.34198 640.40015 4129.2051 3556681
-515.94354 647.26532 4173.4707 4872794
-516.53979 682.60803 4401.355 5070175
-491.23608 685.77997 4421.8076 4346451
-467.55014 691.72455 4460.1372 3951692
-466.76654 734.46185 4735.7012 4215120
-447.82919 752.49725 4851.9907 4280399
-419.56662 756.34906 4876.8262 4214607
-392.81979 763.75287 4924.5649 4017228
-364.61612 769.34497 4960.6221 4016970
-336.32831 775.7851 5002.147 4082763
-306.5257 779.69568 5027.3618 3951434
-277.01492 785.32935 5063.687 4082505
-245.51263 786.04419 5068.2964 4148299
-214.39603 788.38977 5083.4199 4214091
-182.37064 787.62885 5078.5137 4411214
-150.62196 787.99402 5080.8682 4082508
-119.23128 790.9295 5099.7959 4082507
-87.756332 795.25079 5127.6587 4411472
-55.448372 792.65491 5110.9214 4411729
-23.404951 791.91345 5106.1401 4543572
8.5202284 785.79218 5066.6714 4674901
40.594158 792.22577 5108.1543 4411986
72.908569 795.61133 5129.9834 4280143
104.87595 794.29681 5121.5078 4280143
135.86549 787.92749 5080.4395 4148555
167.69603 787.92749 5080.4395 4016713
198.03563 782.03992 5042.4771 4148297
229.62831 782.03992 5042.4771 4082505
261.88019 784.01337 5055.2017 3819333
294.80725 787.3642 5076.8076 3950662
326.61502 787.3642 5076.8076 3687490
359.20847 789.09015 5087.936 3753283
377.39188 761.45972 4909.7793 3819076
418.30182 780.39325 5031.8599 3621697
447.35846 776.10901 5004.2358 3555904
478.71158 776.10901 5004.2358 3424574
510.41885 776.64801 5007.7109 3424318
539.84058 773.84821 4989.6582 3226940
571.44849 774.3172 4992.6821 3161148
602.46118 773.9729 4990.4624 3160892
635.42719 776.04822 5003.8438 3029308
673.09198 783.39709 5051.228 2832186
720.3172 800.71344 5162.8813 2831932
760.12085 808.64606 5214.0298 2766139
782.21088 797.85706 5144.4639 3028801
813.59033 797.02216 5139.0806 2831678
846.27649 797.48224 5142.0469 2568249
882.81854 801.40887 5167.3652 2371384
902.15308 789.98956 5093.7354 2173492
940.42236 795.36469 5128.3936 2173491
967.5127 791.24249 5101.814 2370358
1001.5507 792.88403 5112.3984 2107441
1041.4475 798.91827 5151.3062 1844269
1076.3643 800.88422 5163.9824 1713195
1102.0441 796.06311 5132.897 1713451
1132.8619 795.1217 5126.8267 1910574
1165.9341 795.77075 5131.0117 2700087
1182.5938 785.48376 5064.6826 3094846
1167.1664 754.97894 4867.9922 3160892
1206.6956 760.67102 4904.6938 2963258
1276.0863 784.43701 5057.9331 3029305
1319.1893 791.28308 5102.0757 3094842
1365.7683 799.84088 5157.2554 3095096
1400.9795 801.49957 5167.9502 3095097
1439.5355 804.95374 5190.2222 3029303
1484.9285 811.9939 5235.6162 3029047
1522.3961 814.48969 5251.7085 2897461
1555.2998 814.48969 5251.7085 2831668
1574.7224 807.57617 5207.1313 2569265
1624.5455 816.21729 5262.8481 2832181
1658.0811 816.49408 5264.6328 2832180
1696.5941 819.16345 5281.8442 2832180
1736.3959 822.34088 5302.332 2898230
1769.7435 822.3999 5302.7124 2832181
1801.1698 821.58026 5297.4277 2832438
1833.3877 821.1449 5294.6206 2832437
1869.7471 822.54694 5303.6606 2832181
1911.0833 826.05115 5326.2554 2964024
1950.047 828.42731 5341.5762 2964023
1984.2141 828.71979 5343.4624 2700852
2019.5543 829.4845 5348.3931 2635059
2010.3363 812.22174 5237.085 2634802
2017.9628 802.20959 5172.5283 2700338
2040.9531 798.52515 5148.7715 2765875
2052.0637 790.37964 5096.2505 2700082
2051.1091 777.90796 5015.835 2502703
2053.0498 766.89404 4944.8188 2700082
2107.5955 775.56561 5000.7319 3094840
2180.7559 790.73273 5098.5273 3094582
2235.5808 798.90961 5151.2505 3029557
2269.7583 799.58002 5155.5732 3226167
2232.5547 775.43878 4999.9141 3029304
2241.9988 767.94354 4951.5859 2832185
2247.4846 759.31573 4895.9551 3098710
2262.2344 754.00787 4861.731 6259088
2439.4365 802.26752 5172.9019 8562355
2456.4492 797.2702 5140.6802 7902884
2450.3147 784.98676 5061.478 3425354
2465.1562 779.65131 5027.0757 2963515
2515.7263 785.60754 5065.481 3160636
2590.1589 798.77454 5150.3794 3160635
2623.9038 799.22418 5153.2788 3095099
2679.709 806.3006 5198.9062 3029307
2765.0552 821.98889 5300.0625 2831928
2798.2617 821.98889 5300.0625 3226686
2839.6479 824.36365 5315.374 4279635
2769.9583 794.81104 5124.8232 3555912
2751.7124 780.52789 5032.728 2635065
2783.2441 780.52789 5032.728 2963259
2880.2805 798.6922 5149.8486 3029307
2940.7998 806.44 5199.8057 3095355
2980.9182 808.48511 5212.9917 3160635
3021.9858 810.74042 5227.5337 3226428
3065.7227 813.65576 5246.3315 3292221
3112.272 817.24792 5269.4932 3160633
3140.3079 815.95422 5261.1514 3226426
3171.6882 815.5473 5258.5278 3226427
3211.4919 817.29248 5269.7803 3358012
3260.9336 821.42981 5296.4575 3358012
3324.0759 828.90033 5344.6265 3555391
3316.7463 818.82404 5279.6558 3555391
3314.3247 810.14642 5223.7036 3489598
3344.9497 809.63739 5220.4214 3292219
3379.8247 810.1568 5223.771 3292219
3367.8411 799.54199 5155.3281 3292219
3505.5071 824.31885 5315.0854 3292219
3576.7461 833.15601 5372.0664 3226426
3606.2412 832.1955 5365.873 3094840
3631.3435 830.24835 5353.3179 3160376
3662.6873 829.75085 5350.1099 3291705
3682.3752 826.64569 5330.0884 3225912
3719.1038 827.38727 5334.8701 3226169
3754.9988 827.93201 5338.3828 3160375
3785.9856 827.39441 5334.9165 3160375
3828.5979 829.38458 5347.749 3160375
3825.9409 821.61884 5297.6763 3029046
3893.9011 829.02118 5345.4053 3160632
3837.75 810.099 5223.3979 3226169
3949.332 826.60358 5329.8174 3094584
3970.1582 823.99542 5313.0005 3094583
3996.4458 822.55475 5303.7109 3029047
4029.7642 822.57288 5303.8276 3358012
4067.7886 823.54352 5310.0859 3358012
4106.7427 824.68506 5317.4468 3357755
4140.0581 824.68506 5317.4468 3423548
4178.6245 825.7226 5324.1367 3489341
4223.5933 827.99902 5338.8145 3357755
4260.2432 828.62152 5342.8286 3357755
4301.6206 830.14661 5352.6621 3291962
4316.5894 826.59125 5329.7373 3291962
4363.917 829.2392 5346.811 3226169
4414.2158 832.4071 5367.2373 3226169
4413.5654 825.99194 5325.8735 3291962
4483.7964 832.83917 5370.0229 3423548
4528.644 834.90442 5383.3398 3423291
4572.5903 836.77429 5395.3965 3358012
4613.1426 838.00018 5403.3008 3292219
4676.5684 843.33307 5437.686 3160633
4714.4097 844.00848 5442.041 3226426
4800.5029 853.25049 5501.6323 3292219
4785.0493 844.44031 5444.8257 3292219
4848.7344 849.62207 5478.2368 3160633
4896.0615 851.88464 5492.8257 3292219
4961.9375 857.32068 5527.8765 3226426
5036.9189 864.24359 5572.5142 3423807
5105.9399 870.05548 5609.9883 3555393
5186.5503 877.74921 5659.5967 3621186
5257.499 883.7146 5698.0605 3555393
5322.4868 888.60425 5729.5884 3555393
5361.2041 889.07184 5732.603 3489600
5407.522 890.78522 5743.6509 3489600
5476.4307 896.17291 5778.3896 3424063
5515.5747 896.65094 5781.4722 3489600
5580.2598 901.24774 5811.1113 3555393
5617.9009 901.4455 5812.3867 3621186
5729.4463 913.42303 5889.6162 3555393
5800.6572 918.85809 5924.6602 3620673
5885.1367 926.31244 5972.7246 3554880
5927.0884 927.02106 5977.2939 3489087
5973.1499 928.3595 5985.9243 3489087
6037.4624 932.50018 6012.6226 3489087
6136.6245 941.93878 6073.4814 3489087
6193.0791 944.74597 6091.582 3489087
6244.9688 946.82672 6104.9985 3554880
nan nan nan 16777215
nan nan nan 16777215
nan nan nan 16777215
nan nan nan 16777215
nan nan nan 16777215
nan nan nan 16777215
-4293.438 738.31952 4576.6655 3225915
-4264.7637 738.31952 4576.6655 3225915
-4245.0645 739.88373 4586.3618 3160635
-4245.0073 744.91614 4617.5566 3095096
-4220.7734 745.74591 4622.7002 3160633
-4220.2217 750.80042 4654.0317 3160633
-4198.8511 752.19562 4662.6802 3160633
-4121.7227 743.55182 4609.0996 3160890
-4121.0269 748.67163 4640.8359 3226683
-4191.9468 766.9671 4754.2451 3489598
-4175.1245 769.35614 4769.0542 3555391
-4157.7598 771.67883 4783.4521 3687234
-4229.4526 790.68445 4901.2632 3752770
-4228.2646 796.24341 4935.7222 3818563
-4237.584 803.87769 4983.0449 4015942
-4228.5239 808.11267 5009.2969 3884356
-4201.3242 808.91852 5014.292 3884356
-4185.7856 811.99854 5033.3843 3818563
-4163.4136 813.78967 5044.4873 3687234
-4129.0293 813.24231 5041.0942 3752770
-4104.7446 814.69104 5050.0747 3752770
-4049.2158 809.91296 5020.4565 3950149
-3977.2217 801.74091 4969.7993 4081735
-3917.9412 796.02295 4934.3555 4015686
-3887.0259 796.02295 4934.3555 3819333
-3832.8457 791.2204 4904.5854 3950662
-3804.8923 791.79785 4908.165 3950662
-3745.8618 785.86499 4871.3887 3950662
-3686.8132 779.83087 4833.9844 3950918
-3665.9785 781.84668 4846.48 3819076
-3644.3359 783.72229 4858.1064 3753283
-3649.9163 791.53326 4906.5249 3687747
-3605.1953 788.47577 4887.5723 3687746
-3489.313 769.66913 4770.9946 3753283
-3466.5244 771.24957 4780.791 3687490
-3400.8984 763.24365 4731.1646 3884869
-3300.6221 747.25226 4632.0376 3884869
-3256.2644 743.74933 4610.3237 3425344
-3173.8474 731.41296 4533.8535 3491139
-3131.9849 728.28387 4514.457 3622468
-3012.188 706.81049 4381.3486 3294016
-2837.1892 671.86981 4164.7598 3360580
-2765.7507 661.03204 4097.5791 3492937
-2659.4856 641.58948 3977.0593 4151382
-2580.1086 628.32709 3894.8489 4679008
-2566.1191 630.88715 3910.718 4810595
-2510.7324 623.22076 3863.1963 4744802
-2504.0232 627.60571 3890.3774 4744546
-2497.8325 632.20807 3918.9062 4546909
-2492.7246 637.17859 3949.7173 4678237
-2470.0461 637.71246 3953.0266 4545367
-2453.4846 639.85236 3966.2913 4610648
-2499.865 658.6189 4082.6204 4544595
-2544.2012 677.22925 4197.9814 4149069
-2573.6221 692.21667 4290.8853 3622724
-2564.686 697.09497 4321.1245 3359295
-2665.7952 732.30731 4539.3975 3359295
-2641.3848 733.42633 4546.334 3621954
-2638.5381 740.62268 4590.9424 3621697
-2617.3435 742.77069 4604.2573 3753283
-2588.4963 742.77069 4604.2573 3950919
-2580.2104 748.73718 4641.2422 4016455
-2585.822 758.91864 4704.3545 4016455
-2581.8489 766.48932 4751.2832 3819076
-2556.1294 767.70526 4758.8208 3621697
-2583.7168 785.14905 4866.9507 3490881
-2553.2646 785.16156 4867.0283 3622724
-2495.7542 776.75311 4814.9062 3951432
-2489.4961 784.28522 4861.5962 3885639
-2477.3247 790.11804 4897.7524 3819846
-2441.74 788.53607 4887.9458 3622467
-2411.7368 788.7392 4889.2051 3556674
-2381.2058 788.77283 4889.4136 3490881
-2324.3704 779.98035 4834.9111 3556674
-2261.4607 768.8905 4766.168 3885639
-2244.6792 773.39716 4794.1035 4083018
-2215.6726 773.7569 4796.3335 4016455
-2199.144 778.54395 4826.0073 3885639
-2169.0251 778.58612 4826.2686 3754053
-2103.2205 765.63879 4746.0112 3622467
-2072.1785 765.15625 4743.02 3622467
-2026.1348 759.03967 4705.105 3622467
-1979.166 752.39087 4663.8906 3622467
-1948.5027 751.83423 4660.4399 3754053
-1925.975 754.44751 4676.6392 3885896
-1881.2473 748.31104 4638.6006 3819846
-1845.146 745.46716 4620.9722 3754053
-1797.0979 737.62897 4572.3853 3556674
-1762.2561 735.04529 4556.3696 3688260
-1735.0643 735.61987 4559.9312 3819846
-1712.7993 738.33752 4576.7773 3753539
-1667.9814 731.26031 4532.9072 3753026
-1640.0376 731.46375 4534.1685 3490624
-1590.9697 722.08698 4476.0439 3490881
-1552.1133 717.09137 4445.0776 3754309
-1499.6217 705.49866 4373.2168 3622468
-1495.0568 716.44116 4441.0469 3687749
nan nan nan 16777215
-1259.6041 626.94696 3886.2937 4806486
-1235.2554 626.94696 3886.2937 4938072
-1287.2701 666.48425 4131.376 3753799
-1200.7003 634.41956 3932.6147 2306610
-1130.8967 610.05579 3781.5896 2305840
-1166.4207 642.68353 3983.8411 3358527
-1140.2638 642.0097 3979.6641 3621699
-1132.6655 651.98846 4041.52 3884871
-1102.3323 649.03754 4023.2278 2503218
-1060.3296 638.91681 3960.4922 2305583
-1033.0035 637.36676 3950.8838 3226429
-1011.5523 639.45428 3963.8237 3884359
-1004.7452 651.13721 4036.2434 4476497
-946.90991 629.50012 3902.1204 4147531
-922.46185 629.50012 3902.1204 1976619
-917.81696 643.3819 3988.1702 2765878
-899.28168 648.03119 4016.99 4607825
-880.72949 652.93561 4047.3914 4739411
-834.2265 636.79504 3947.3398 4673876
-809.00964 636.41302 3944.9719 2437170
-783.56396 635.82135 3941.304 2306097
-763.73322 639.89563 3966.5596 4214095
-735.8465 637.26721 3950.2666 4674389
-701.8894 629.01575 3899.1177 4806231
-677.46027 629.01575 3899.1177 2831929
-656.34705 632.20978 3918.9167 1714476
-634.8446 635.26257 3937.8403 3490887
-616.95703 642.32574 3981.6233 4675161
-589.70251 639.82117 3966.0979 4806747
-568.98547 644.50134 3995.1091 4280660
-540.94128 640.93066 3972.9756 1385513
-516.04938 640.93066 3972.9756 3820365
-501.13422 653.94977 4053.6777 4873054
-478.02383 657.09369 4073.1663 4938844
-452.50418 657.09369 4073.1663 3557448
-445.41754 685.46057 4249.0059 3556935
-436.5347 714.49396 4428.9766 4083535
-416.11081 727.29681 4508.3389 3951948
-397.69016 745.72095 4622.5454 3951691
-369.62692 747.53802 4633.8091 3951177
-343.87927 754.74707 4678.4961 3951179
-318.21701 763.50446 4732.7812 3819849
-290.39325 768.34265 4762.772 3951435
-262.35614 773.65991 4795.7324 3885385
-232.66948 774.85913 4803.166 3885385
-205.85242 787.39093 4880.8477 3951178
-175.79305 789.72992 4895.3462 4082764
-144.21371 784.78613 4864.7012 4148557
-114.38464 789.26978 4892.4941 3951435
-83.32016 785.39105 4868.4507 3885385
-53.040787 788.70667 4889.0034 3688006
-22.213995 781.82001 4846.3149 3819592
8.1359854 780.50708 4838.1763 3885385
38.208622 775.63434 4807.9712 3951178
68.407967 776.49603 4813.3125 4082764
97.430367 767.55841 4757.9106 3820103
125.16286 755.0274 4680.2339 3491138
157.43387 769.43481 4769.542 3491138
188.0674 772.51917 4788.6611 3754053
219.61157 777.98083 4822.5166 3622467
247.05571 769.35345 4769.0376 3688517
274.79395 763.40485 4732.1636 3819333
306.37607 768.25348 4762.2192 3753283
335.63239 766.92712 4753.9976 3753283
364.32578 764.63556 4739.7925 3687490
392.25522 761.20679 4718.5386 3687490
419.80173 757.56769 4695.9805 3490111
449.85538 758.63336 4702.5864 3490111
479.67331 759.19482 4706.0669 3490367
507.31619 756.44824 4689.041 3424318
532.24792 750.18091 4650.1914 3161147
564.63873 754.5318 4677.1616 3161148
593.9975 754.60162 4677.5942 3161148
629.47754 762.07544 4723.9229 3160893
655.08466 757.46222 4695.3267 3226686
679.13989 751.52814 4658.543 3160892
703.54504 746.45447 4627.0923 3160895
743.71277 757.84442 4697.6958 3095358
782.9624 767.46722 4757.3452 3292480
809.63062 764.50409 4738.9775 3358530
837.7074 763.03363 4729.8628 3424067
879.04962 773.33374 4793.7104 2897979
905.15265 769.98975 4772.9819 3095358
907.76941 747.51935 4633.6934 3489860
959.48767 765.62225 4745.9087 3621189
955.7381 739.70673 4585.2646 3489858
984.46625 739.70673 4585.2646 3226686
1025.3964 748.61517 4640.4858 3160893
1047.5013 743.66742 4609.8159 3160893
1073.3591 741.57806 4596.8647 3161148
1109.2668 746.35986 4626.5059 3226941
1168.5729 766.2406 4749.7417 3161148
1208.7177 772.88171 4790.9087 3161145
1246.8751 777.96112 4822.3945 3292732
1278.4271 778.77637 4827.4478 3358525
1321.8696 786.6297 4876.1289 3490111
1354.9957 788.12787 4885.4155 3490111
1389.5077 790.34808 4899.1782 3490111
1419.5831 790.0033 4897.041 3424061
1451.4838 790.66742 4901.1577 3423549
1496.6572 798.3844 4948.9932 3291963
1523.4961 796.20605 4935.4902 3358012
1562.9889 800.59601 4962.7026 3489341
1585.9047 796.4892 4937.2456 3357755
1626.2291 801.11542 4965.9224 2897461
1665.4822 805.05011 4990.3125 2700081
1703.3971 808.20483 5009.8682 2765876
1739.2013 810.26215 5022.6206 2634546
1772.6771 811.18073 5028.3149 2700082
1806.9738 812.43646 5036.0986 2831669
1852.4633 818.59497 5074.2739 2962998
1886.8252 819.71149 5081.1948 2963253
1915.6143 818.41003 5073.1279 2897460
1924.2651 808.68787 5012.8623 2831925
1914.6132 791.70966 4907.6182 2831668
1980.324 805.9386 4995.8203 2831668
1961.5284 785.86816 4871.4082 2765875
1987.8105 784.19598 4861.043 2634289
2019.717 784.75958 4864.5366 3029047
2072.5024 793.29834 4917.4663 2963254
2121.4697 800.14679 4959.918 2963252
2150.3694 799.33801 4954.9048 2766388
2157.0115 790.39642 4899.478 2831926
2164.8237 782.12842 4848.2266 2438194
2235.7332 796.57025 4937.748 2437686
2263.0107 795.28448 4929.7778 4940662
2397.0037 831.03094 5151.3618 7047070
2394.8311 819.24683 5078.3145 7507619
2426.6482 819.24683 5078.3145 7375004
2355.8655 785.05688 4866.3794 4938596
2403.9475 790.84448 4902.2554 3029565
2452.2783 796.56689 4937.7271 2963513
2520.8232 808.63092 5012.5093 2831669
2576.0122 816.1665 5059.2207 2963256
2586.7166 809.59601 5018.4917 3029049
2552.5374 789.30426 4892.708 3029050
2559.5337 782.0755 4847.8984 3226429
2554.5466 771.39764 4781.709 3094843
2629.6238 784.86401 4865.1841 2832185
2711.1462 799.92365 4958.5347 3029307
2756.4155 804.06653 4984.2158 3095357
2789.9954 804.745 4988.4214 2963515
2832.4854 807.95007 5008.2886 2964026
2866.8779 808.80035 5013.5596 3094842
2907.001 811.23151 5028.6294 3094842
2940.3269 811.73383 5031.7437 3094843
2972.3503 811.86987 5032.5869 3160635
2979.8982 805.38794 4992.4067 3029050
3015.6895 806.59485 4999.8882 3094842
3050.8208 807.60217 5006.1323 3292219
3104.675 813.495 5042.6602 3358012
3153.5801 817.98511 5070.4937 3292219
3130.2935 803.84723 4982.8564 3423805
3097.3196 787.52557 4881.6821 3358012
3205.8303 807.1452 5003.2993 3226426
3275.5615 816.71564 5062.6245 3160633
3294.1411 813.47101 5042.5117 3358012
3340.2949 817.03253 5064.5889 3160633
3372.0259 817.03253 5064.5889 3160633
3399.3467 815.97388 5058.0264 3029047
3426.6355 814.92719 5051.5381 3094840
3452.6484 813.59882 5043.3042 3226426
3458.8933 807.67877 5006.6069 3226426
3527.8276 816.37207 5060.4946 3160633
3546.8171 813.45557 5042.416 2897461
3579.1926 813.63367 5043.52 2765875
3598.6555 810.89886 5026.5679 2897461
3624.2053 809.57141 5018.3389 3358012
3654.5852 809.33618 5016.8809 3423806
3677.4585 807.45691 5005.2319 3358012
3718.689 809.60608 5018.5537 3489598
3737.5911 806.89862 5001.771 3489598
3778.8132 809.01489 5014.8892 3358012
3808.6257 808.67358 5012.7734 3358012
3843.0928 809.31805 5016.7686 3423805
3863.5825 807.03253 5002.6011 3358012
3901.0449 808.30042 5010.4604 3357755
3933.8076 808.58221 5012.207 3226169
3963.363 808.20544 5009.8716 3489341
4005.8201 810.44476 5023.7529 3686720
4042.8965 811.56915 5030.7227 3489341
4064.5154 809.59717 5018.4985 3291962
4095.9578 809.59717 5018.4985 3094583
4147.8091 813.60046 5043.314 2962997
4185.8398 814.85272 5051.0767 3094583
4217.4868 814.85272 5051.0767 3094583
4277.9561 820.38013 5085.3394 3160376
4309.8174 820.38013 5085.3394 3094840
4365.3306 824.84924 5113.0425 3160633
4399.6689 825.28131 5115.7207 3094840
4454.7461 829.56915 5142.3003 2897461
4493.6821 830.81116 5149.9995 2765875
4556.8843 836.48993 5185.2007 2700082
4508.75 821.79541 5094.1128 3029047
4540.6665 821.79541 5094.1128 3358012
4670.7788 839.44348 5203.5093 3292219
4722.8335 842.91553 5225.0308 3160635
4776.4082 846.60895 5247.9258 3291964
4842.6792 852.48694 5284.3623 3357501
4887.0659 854.45905 5296.5864 3423294
4957.9116 860.99927 5337.1279 3291708
4991.3662 861.00189 5337.1445 3094329
5039.981 863.60236 5353.2642 3094586
5087.417 865.96765 5367.9263 3291452
5118.4453 865.52753 5365.1978 3291708
5154.084 865.86755 5367.3052 3291708
5140.7583 858.03064 5318.7261 3357757
5247.1328 870.1449 5393.8193 3357757
5418.2329 892.76898 5534.061 3423294
5497.3193 900.04053 5579.1357 3489087
5543.4839 901.86426 5590.4404 3357501
5580.9673 902.26154 5592.9028 3423294
5652.332 908.09729 5629.0771 3291708
5714.2173 912.34705 5655.4204 3291708
5773.3447 916.10687 5678.7266 3160122
5666.9492 893.71649 5539.9341 3028536
nan nan nan 16777215
nan nan nan 16777215
nan nan nan 16777215
nan nan nan 16777215
nan nan nan 16777215
nan nan nan 16777215
-4113.6675 734.73364 4385.0361 3160378
-4086.6206 734.81024 4385.4937 3226171
-4074.3062 737.55505 4401.875 3291708
-4068.2722 741.48181 4425.311 3291961
-4055.6946 744.26172 4441.9019 3291962
-4027.865 744.26172 4441.9019 3292219
-3954.365 735.76422 4391.187 3291962
-3965.5513 743.01501 4434.4614 3357755
-3975.4749 750.12994 4476.9243 3424062
-3947.4253 750.12994 4476.9243 3489341
-3946.2041 755.26447 4507.5684 3686977
-3943.1641 760.12256 4536.5625 3686977
-3958.2236 768.56549 4586.9517 3752770
-3932.4238 769.14032 4590.3823 3489598
-3912.5425 770.88971 4600.8232 3489598
-3906.3521 775.38263 4627.6377 3489598
-3881.1145 776.13373 4632.1206 3621184
-3852.1011 776.13544 4632.1304 3621184
-3825.2917 776.58459 4634.811 3489598
-3794.8967 776.30707 4633.1548 3489598
-3752.2019 773.48981 4616.3408 3555391
-3723.2793 773.48981 4616.3408 3489598
-3694.561 773.53265 4616.5967 3621184
-3639.0203 767.91595 4583.0752 3555391
-3588.1536 763.20416 4554.9541 3489597
-3559.1719 763.10907 4554.3867 3555390
-3515.9233 759.92883 4535.4062 3555647
-3482.96 758.93793 4529.4922 3555648
-3454.1133 758.83502 4528.8784 3620928
-3425.0825 758.68982 4528.0117 3555391
-3392.0457 757.64728 4521.7896 3489598
-3361.8389 757.22467 4519.2671 3489342
-3297.2744 748.9903 4470.123 3423805
-3255.4509 745.82495 4451.2314 3489854
-3196.3579 738.61414 4408.1958 3424574
-3211.3484 748.54608 4467.4717 3753283
-3159.542 742.94586 4434.0483 3753026
-3117.6133 739.58948 4414.0171 3359295
-3039.658 727.55005 4342.1631 3293248
-2901.9138 700.85327 4182.8315 3424834
-2863.2827 697.82526 4164.7598 4280656
-2779.6599 683.67554 4080.3115 4808027
-2714.6455 673.88251 4021.8647 5532006
-2643.0371 662.25366 3952.4617 5334884
-2603.7268 658.57428 3930.5022 5137761
-2565.1416 655.0097 3909.2283 5005919
-2491.6213 642.36981 3833.7908 4479575
-2478.0576 645.0918 3850.0359 4215890
-2482.8113 652.6825 3895.3389 3952461
-2468.9851 655.49127 3912.1021 3755082
-2457.3164 658.93481 3932.6541 2834236
-2445.2793 662.34833 3953.0266 3030589
-2490.2117 681.4209 4066.8552 3556930
-2443.1016 675.44086 4031.1653 3359552
-2452.1804 685.03259 4088.4109 3359552
-2473.4697 698.27399 4167.438 3293759
-2505.5991 714.89081 4266.6104 3622467
-2512.2808 724.52698 4324.1211 4016968
-2469.3628 719.91309 4296.5845 4016969
-2459.4053 724.91266 4326.4229 4082762
-2446.5417 729.15759 4351.7573 4082248
-2448.1167 737.84979 4403.6343 3622468
-2449.3342 746.63129 4456.0439 3490881
-2443.8965 753.56311 4497.4146 3491138
-2434.1514 759.31293 4531.7305 3621697
-2411.9229 761.25848 4543.3418 3753283
-2299.052 734.30011 4382.4487 4148041
-2349.9868 759.64056 4533.686 4082505
-2321.5818 759.64056 4533.686 3951432
-2310.3792 765.33905 4567.6953 3819846
-2288.5752 767.62457 4581.3359 3688260
-2267.8113 770.32147 4597.4316 3622467
-2234.4399 768.75024 4588.0542 3622467
-2188.9666 762.9201 4553.2588 3425088
-2137.4475 754.80109 4504.8027 3754053
-2115.5518 757.06567 4518.3184 3754053
-2100.8931 762.01672 4547.8672 3950662
-2084.0774 766.31061 4573.4941 3754309
-2037.5623 759.65173 4533.7524 3754053
-1993.3213 753.66443 4498.019 3622724
-1960.3439 751.82507 4487.0415 3622467
-1927.5669 750.01019 4476.21 3688260
-1886.6761 744.93811 4445.9385 3819846
-1858.9174 744.97668 4446.1689 3688260
-1824.2185 742.19287 4429.5547 3820103
-1797.6273 742.67273 4432.4185 3754053
-1735.5604 728.28119 4346.5269 3754053
-1694.9557 722.58038 4312.5034 3556931
-1686.4615 730.60577 4360.4004 3688260
-1659.7234 730.86157 4361.9272 3622724
-1646.7919 737.30768 4400.3989 3359552
-1553.1835 707.23718 4220.9321 3096123
-1538.3507 712.61658 4253.0376 3161660
-1516.8752 715.05426 4267.5859 3490883
-1506.9915 723.14178 4315.854 4082764
-1402.8165 685.45178 4090.9124 4938072
-1357.8025 675.80438 4033.335 5267294
-1296.2299 657.39325 3923.4534 5596260
-1265.9097 654.42664 3905.7483 5859175
-1218.6989 642.43915 3834.2046 2964541
-1224.5487 658.50305 3930.0771 2372146
-1165.6095 639.67084 3817.6826 4081993
-1130.8967 633.62329 3781.5896 4937559
-1098.9163 628.88043 3753.2834 4543058
-1086.1559 635.16998 3790.8206 3687492
-1062.4052 635.16998 3790.8206 1976874
-1031.6843 630.90747 3765.3811 2634547
-1002.579 627.45654 3744.7854 4016201
-988.51447 633.47894 3780.7283 4015944
-975.22089 640.30316 3821.4568 4279116
-963.71582 648.67493 3871.4209 2963256
-933.01904 644.22748 3844.8777 1778982
-891.10925 631.5968 3769.4954 3489600
-868.67255 632.45612 3774.6238 4871253
-840.96252 629.41681 3756.4846 5068632
-817.44623 629.43164 3756.5732 5331805
-788.82886 625.40314 3732.53 2766135
-770.22198 629.30743 3755.8318 2239791
-744.74646 627.66895 3746.053 4543058
-741.33191 645.12177 3850.2148 5068632
-701.12622 630.6554 3763.8767 5068632
-669.25751 622.94202 3717.8418 3292735
-651.63129 628.40723 3750.4595 1713447
-634.08588 634.36224 3785.9998 2239791
-625.91339 650.52142 3882.4414 4674132
-592.3194 640.49823 3822.6206 4739925
-573.09985 645.82886 3854.4351 4674646
-535.82751 630.38983 3762.2917 2898750
-507.37445 624.38306 3726.4421 1582634
-496.42313 640.3736 3821.8767 3820106
-474.75211 643.45587 3840.2727 4805975
-461.99265 659.59052 3936.5671 4477780
-435.98779 657.56793 3924.4961 3490629
-418.96524 669.66058 3996.6672 2964284
-411.1713 698.979 4171.6455 3030077
-400.84726 727.68469 4342.9668 3424834
-375.07303 730.48102 4359.6558 3688006
-354.27731 744.17419 4441.3794 3621699
-329.94632 752.14276 4488.9375 3358784
-304.77597 759.5047 4532.875 3226941
-275.80823 757.94415 4523.5615 2766390
-245.08626 750.65326 4480.0479 2700854
-212.82256 736.14362 4393.4512 3490113
-190.02725 754.93903 4505.626 3687749
-161.94199 755.61035 4509.6328 3490370
-133.84012 756.47162 4514.7729 3555906
-105.3801 755.22772 4507.3491 3687492
-77.102539 754.85938 4505.1509 3490112
-48.915276 755.46021 4508.7368 3556160
-20.818863 761.0246 4541.9463 3490112
7.5786681 755.12897 4506.7598 2897975
36.218315 763.63434 4557.5215 3490112
64.95697 765.80792 4570.4941 3227196
93.413605 764.34393 4561.7563 3292732
120.40417 754.38037 4502.292 3161146
150.42595 763.58606 4557.2334 3555904
177.5788 757.61469 4521.5952 3358525
205.31847 755.44568 4508.6499 3227196
235.20168 760.73431 4540.2134 3556674
262.60025 757.7124 4522.1782 3556160
290.89169 757.60455 4521.5347 3490111
319.1333 757.39764 4520.2998 3687490
345.97876 754.18097 4501.1021 3687490
374.17957 754.18097 4501.1021 3621697
402.06451 753.58899 4497.5688 3490111
430.38779 753.84229 4499.0806 3556160
458.89789 754.37152 4502.2393 3621697
486.22537 753.008 4494.1016 3424318
512.28534 749.93829 4475.7808 3226940
538.63898 747.59473 4461.7939 3226941
563.44421 743.43939 4436.9941 3292734
590.67102 742.71967 4432.6987 3358272
620.95679 745.7384 4450.7148 3358272
639.04871 734.48267 4383.5386 3489858
665.84698 733.74878 4379.1587 3753032
687.55359 727.6842 4342.9639 3753032
716.12646 729.07172 4351.2446 3687240
743.38837 729.07172 4351.2446 3555654
773.97717 732.21906 4370.0288 3555653
806.26715 736.70581 4396.8066 3687239
829.13879 732.57471 4372.1514 3358274
869.97131 744.06927 4440.7534 3424067
903.53693 748.82892 4469.1597 3423810
926.99237 745.17517 4447.3535 3424065
954.85645 745.17517 4447.3535 3490113
987.49695 748.79706 4468.9697 3160893
1017.9204 750.58447 4479.6372 3160893
1050.4001 753.7514 4498.5381 3161148
1078.5848 753.7514 4498.5381 3095355
1117.5758 761.1109 4542.4609 3095355
1151.4471 764.70471 4563.9097 3095355
1186.6256 768.97144 4589.3745 3226941
1209.9982 765.56671 4569.0542 3358527
1238.6246 765.56671 4569.0542 3292732
1275.1793 770.35614 4597.6387 3292732
1286.0281 759.74774 4534.3257 3161146
1329.6556 768.54413 4586.8242 3029560
1379.6105 780.5481 4658.4663 3423805
1410.4509 781.46442 4663.9351 3358011
1448.9202 786.48444 4693.8955 3358269
1491.7588 793.62921 4736.5371 3753026
1514.8782 790.20917 4716.1255 3950149
1531.4713 783.58081 4676.5659 3884613
1565.9805 786.19598 4692.1738 3555647
1583.7268 780.4541 4657.9053 3358268
1612.91 780.4541 4657.9053 3358012
1658.3009 788.15729 4703.8794 3423805
1704.4114 795.92761 4750.2539 3160633
1741.6814 799.37347 4770.8198 3226426
1770.6479 798.95648 4768.3311 3160633
1782.39 790.91034 4720.3101 3160633
1788.7229 780.76556 4659.7642 3226426
1817.4384 780.55975 4658.5356 3094840
1871.4623 791.05804 4721.1914 2963254
1897.1498 789.43842 4711.5254 2897461
1918.3005 786.00952 4691.061 2897461
1968.8412 794.54474 4742.001 2963254
2009.5537 798.91882 4768.1064 2897718
2020.8268 791.63239 4724.6191 2963257
2054.4919 793.20129 4733.9829 2831670
2091.9824 796.18158 4751.77 2766134
2100.3147 788.13672 4703.7563 2569012
2105.9548 779.31805 4651.125 2634805
2202.9941 804.10138 4799.0366 3359047
2351.0576 846.59033 5052.6196 4675425
2350.4756 835.13593 4984.2573 5201770
2325.376 815.38495 4866.3794 3095621
2300.7434 796.30676 4752.5171 2700859
2330.5193 796.30676 4752.5171 2832701
2405.5337 811.56903 4843.6055 2898236
2441.1353 813.31982 4854.0542 2963514
2460.2048 809.58728 4831.7778 3029307
2486.9158 808.42957 4824.8682 2700599
2489.8118 799.65094 4772.4756 2765878
2519.7129 799.65094 4772.4756 3094842
2514.9749 788.78693 4707.6372 3094841
2569.3633 796.50397 4753.6938 3160635
2620.3337 802.9967 4792.4438 3029049
2637.2588 799.02728 4768.7539 2700338
2667.1365 799.02728 4768.7539 2897461
2707.6995 802.19293 4787.647 2963254
2708.0562 793.50812 4735.814 2963510
2773.9883 804.01807 4798.5396 3029047
2778.1379 796.5874 4754.1919 3160633
2807.9243 796.5874 4754.1919 3160634
2861.2834 803.20459 4793.6846 2897461
2889.3757 802.66516 4790.4653 3094840
2923.1719 803.70514 4796.6719 3226426
2956.4458 804.58179 4801.9038 3094840
2989.4231 805.3609 4806.5537 3292219
2996.4829 799.21173 4769.8545 3160633
2945.4573 777.84473 4642.332 3226426
2924.6873 764.8075 4564.5229 3160633
3084.5977 798.81323 4767.4761 3226426
3114.4675 798.81323 4767.4761 3160633
3156.3616 801.86798 4785.7075 3160633
3204.6729 806.48016 4813.2339 3160633
3227.9163 804.75665 4802.9478 3094840
3252.821 803.47534 4795.3008 3094840
3278.0803 802.30438 4788.312 3226426
3309.678 802.69177 4790.624 3226426
3336.6985 801.97217 4786.3291 3292219
3361.1079 800.64325 4778.3979 3292219
3337.1216 787.9115 4702.4121 3292219
3355.3853 785.29053 4686.77 3358012
3379.0054 783.95795 4678.8169 3489598
3426.7944 788.20746 4704.1787 3423805
3448.2954 786.38934 4693.3276 3489598
3483.3018 787.65588 4700.8867 3489598
3485.7896 781.60962 4664.8018 3621184
3508.946 780.25989 4656.7461 3489598
3570.4753 787.39478 4699.3286 3489598
3608.4851 789.26855 4710.5117 3423805
3634.7976 788.57434 4706.3682 3292476
3655.8174 786.75214 4695.4932 3555134
3681.71 785.99939 4691.0005 3555134
3710.6699 785.90814 4690.4561 3620927
3748.5315 787.6889 4701.084 3620927
3777.9851 787.6889 4701.084 3752513
3837.239 793.85394 4737.8779 3489597
3865.3494 793.53082 4735.9497 3620927
3895.6919 793.66748 4736.7651 3818306
3934.5161 795.51685 4747.8027 3818306
3982.771 799.23096 4769.9692 3620927
4027.4373 802.17493 4787.5396 3291962
4063.0376 803.28314 4794.1533 3095097
4093.0747 803.28314 4794.1533 3226426
4116.0728 801.9118 4785.9688 3489598
4158.8076 804.37769 4800.686 3555391
4193.5708 805.2774 4806.0557 3555391
4235.4336 807.51788 4819.4272 3423805
4243.4507 803.31946 4794.3701 3358012
4347.4165 817.21619 4877.3086 3423805
4404.123 822.09717 4906.4395 3292219
4434.8633 822.09717 4906.4395 3160635
4466.4829 822.25897 4907.4053 3094842
4519.4888 826.32892 4931.6953 3160635
4568.354 829.59161 4951.1675 3226428
4619.9966 833.31116 4973.3667 3292477
4675.167 837.61292 4999.0405 3160635
4748.1074 845.02002 5043.2476 3160635
4817.6958 851.73651 5083.333 3226685
4821.6211 846.83234 5054.0635 3423806
4873.6772 850.3902 5075.2979 3358014
4921.2524 853.12531 5091.6216 3423807
4978.0918 857.42065 5117.2568 3489600
5054.3359 864.98193 5162.3843 3357501
5105.6865 868.21405 5181.6743 3357501
5140.2729 868.57263 5183.814 3225915
5205.1641 874.01514 5216.2959 3423294
5263.4624 878.28961 5241.8071 3554880
5296.3037 878.28961 5241.8071 3357501
5377.0312 886.1817 5288.9082 3423294
5381.7798 881.53174 5261.1562 3291708
nan nan nan 16777215
nan nan nan 16777215
nan nan nan 16777215
nan nan nan 16777215
nan nan nan 16777215
nan nan nan 16777215
-3768.1624 698.05658 4016.7388 3488830
-3908.623 728.94543 4194.4785 3423293
-3884.9316 729.4314 4197.2749 3423294
-3872.4485 732.04279 4212.3013 3489597
-3848.4382 732.49603 4214.9092 3489598
-3828.1523 733.66925 4221.6602 3423805
-3820.1208 737.22375 4242.1133 3358012
-3793.0994 737.13763 4241.6177 3621441
-3743.4604 732.62378 4215.6445 3555391
-3735.3928 736.23956 4236.4502 3687234
-3728.8052 740.20081 4259.2437 3752770
-3739.627 747.70001 4302.3955 3752770
-3682.6697 741.65796 4267.6284 4015942
-3580.6494 726.38586 4179.7505 3818819
-3612.9624 738.34094 4248.542 3423805
-3588.1477 738.71228 4250.6787 3423805
-3640.4182 755.07776 4344.8486 3555391
-3608.1165 754.01624 4338.7402 3555391
-3561.1389 749.84833 4314.7573 3358012
-3518.0269 746.43683 4295.127 3358012
-3488.4619 745.86926 4291.8613 3489598
-3447.0283 742.73541 4273.8286 3423805
-3373.21 732.52002 4215.0474 3358012
-3331.0054 729.06268 4195.1533 3423805
-3305.1499 729.15723 4195.6973 3423805
