# .PCD v0.7 - Point Cloud Data file format
VERSION 0.7
FIELDS x y z rgb
SIZE 4 4 4 4
TYPE F F F U
COUNT 1 1 1 1
WIDTH 1270
HEIGHT 1
VIEWPOINT 0 0 0 1 0 0 0
POINTS 1270
DATA ascii
-1861.2874 669.73767 2836.5674 3424574
-1843.6887 669.80066 2836.8342 3424318
-1835.6813 673.38318 2852.0073 3687490
-1817.8124 673.38318 2852.0073 3687746
-1789.2688 669.38959 2835.093 3621697
-1775.8932 671.0473 2842.114 3621697
-1765.6997 673.95319 2854.4214 3687746
-1740.5908 671.1673 2842.6221 3687233
-1720.1062 670.12524 2838.2087 3489598
-1707.0938 672.00287 2846.1611 3292219
-1690.6207 672.54352 2848.4509 3489598
-1672.3903 672.3891 2847.7969 3423805
-1654.9928 672.56989 2848.5627 3555135
-1636.462 672.28906 2847.3733 3292733
-1623.1213 674.15771 2855.2876 3424318
-1605.918 674.44574 2856.5076 3490112
-1586.3049 673.71692 2853.4207 3490111
-1564.2966 671.94257 2845.9058 3490111
-1547.5189 672.39996 2847.843 3490111
-1530.5031 672.76337 2849.3823 3621697
-1514.3378 673.51367 2852.5601 3753283
-1499.3727 674.82208 2858.1016 3819076
-1469.5916 669.41321 2835.1931 3885126
-1446.6628 667.03162 2825.1062 3950662
-1434.1508 669.45331 2835.363 3819076
-1418.9465 670.66345 2840.4883 3621697
-1403.6339 671.85242 2845.5239 3687490
-1392.1934 674.9491 2858.6394 3555904
-1375.5941 675.59302 2861.3667 3490111
-1357.5909 675.55524 2861.2068 3753283
-1361.2563 686.44336 2907.3215 4279627
-1331.8348 680.71576 2883.0632 4148298
-1307.7411 677.59113 2869.8293 3754310
-1300.3748 683.16736 2893.4465 3820103
-1288.7106 686.61139 2908.0332 4214604
-1262.0906 682.07166 2888.8059 4149068
-1245.7139 683.01605 2892.8059 3885896
-1245.6515 693.06555 2935.3687 3754310
-1233.1906 696.41443 2949.5525 4083018
-1233.7585 707.33484 2995.8042 4346190
-1219.7072 710.08173 3007.438 4411983
-1197.244 707.9408 2998.3706 4543569
-1156.1433 694.53546 2941.5942 4346190
-1157.6018 706.67664 2993.0164 3622467
-1150.9401 714.17896 3024.7913 4017225
-1141.9559 720.46735 3051.4246 4017225
-1127.7351 723.60962 3064.7334 4083018
-1113.7317 727.00275 3079.1045 4017225
-1080.4364 717.70056 3039.7063 3951432
-1058.4886 715.73749 3031.3923 4083018
-1038.7253 715.20685 3029.1448 3819846
-1012.5594 710.16602 3007.7949 3819846
-992.40857 709.23248 3003.8413 3885896
-964.97211 702.95569 2977.2568 4213577
-941.59894 699.44977 2962.408 4213834
-911.72913 690.8797 2926.1111 4016712
-885.88538 685.07159 2901.5117 3621697
-867.7066 685.07159 2901.5117 3556160
-841.86005 678.88831 2875.3232 4148041
-823.95129 678.97571 2875.6936 4477006
-805.9342 678.97571 2875.6936 4542799
-790.66382 681.34271 2885.7185 4279371
-767.32379 676.7038 2866.071 3950406
-764.73041 690.57745 2924.8308 4015942
-747.55127 691.63763 2929.321 3752513
-717.93536 680.95496 2884.0764 3555134
-702.02704 683.05792 2892.9829 3423547
-683.90161 683.05792 2892.9829 3160375
-663.71558 680.94379 2884.0291 3028789
-645.88556 681.19617 2885.0979 3620926
-621.97455 674.86505 2858.2834 3555133
-613.17358 685.03943 2901.3755 3226169
-594.99554 685.03943 2901.3755 3358011
-576.30035 684.42523 2898.7742 3029047
-554.203 679.59912 2878.3337 3160633
-542.52228 687.65161 2912.4387 3094840
-525.49567 689.25256 2919.2195 3160633
-501.81717 681.92981 2888.2053 3358012
-483.72168 681.92981 2888.2053 3489598
-467.45062 684.60181 2899.522 3686977
-445.6261 679.02771 2875.9138 3358012
-427.75763 679.26599 2876.9229 3292219
-409.52124 678.91522 2875.4373 3358012
-392.7774 681.12042 2884.7771 3292219
-374.55377 680.84845 2883.6252 3292219
-363.17657 693.62482 2937.7375 3752770
-338.60355 681.21741 2885.188 3555391
-320.05792 680.22058 2880.9658 3489598
-301.8158 679.78821 2879.1348 3555391
-286.68063 686.74347 2908.5928 3358012
-268.56699 687.02386 2909.7803 3292219
-248.94417 683.20331 2893.5989 3292219
-228.46304 676.24188 2864.115 3160633
-209.29102 672.29907 2847.4155 3160633
-190.74353 669.81439 2836.8923 3489598
-172.7433 668.93842 2833.1821 3292219
-154.58038 667.15955 2825.6482 3160633
-136.77641 666.67017 2823.5752 3423805
-119.48645 668.9129 2833.074 3621184
-101.83665 669.57233 2835.8669 3423805
-84.007477 669.08173 2833.7891 3094840
-66.505661 671.63428 2844.6001 3094840
-48.658287 671.28839 2843.135 3160633
-30.818104 670.6994 2840.6406 3292219
-13.101193 674.85034 2858.2212 3292219
4.8064489 674.85034 2858.2212 3160632
22.746174 675.80353 2862.2583 3226425
40.801243 677.83252 2870.8518 3095096
58.950695 679.70819 2878.7959 3226425
76.987244 679.70819 2878.7959 3292219
94.791183 678.04437 2871.749 3358011
112.67901 677.41565 2869.0862 3029047
131.2431 680.46637 2882.0068 3423805
152.7717 696.29034 2949.0269 3753026
169.91258 690.8595 2926.0254 3423805
188.36096 691.28491 2927.8274 3555391
207.38487 693.55963 2937.4614 3358012
225.81071 693.6264 2937.7441 3358012
244.20674 693.59845 2937.6257 3686977
260.48312 687.97607 2913.8132 3621184
279.56567 690.0163 2922.4541 3423805
299.61911 694.05469 2939.5581 3358012
318.43085 694.91553 2943.2041 3226426
336.44406 694.03503 2939.4749 2765875
350.1539 684.82935 2900.4856 3226426
369.30261 686.64447 2908.1733 3489598
387.72748 687.00641 2909.7063 2963254
403.76495 683.29559 2893.9897 3226426
421.67142 682.93079 2892.4446 3292475
439.61566 682.65466 2891.2751 2832181
456.06744 680.1745 2880.7708 2700595
472.58279 677.97443 2871.4529 3555904
497.43283 687.45428 2911.6033 3687490
515.67499 687.45428 2911.6033 3687747
525.59869 676.74384 2866.2407 3819076
543.36676 676.50757 2865.24 3687747
560.68585 675.74518 2862.0112 3621697
583.28802 681.20007 2885.1145 3818563
598.33972 677.77411 2870.6042 3818563
616.38623 677.84149 2870.8896 3621184
633.98401 677.4256 2869.1282 3621441
650.74603 676.16418 2863.7859 3818820
672.29529 679.81128 2879.2324 4015942
686.55652 676.09082 2863.4751 3950149
704.87604 676.45447 2865.0151 3686977
731.60748 684.67236 2899.8208 3489598
747.31396 682.42432 2890.2996 3555391
763.4071 680.62738 2882.689 3555391
781.2146 680.40668 2881.7542 3621184
799.95801 680.99261 2884.2358 3686977
818.02863 680.99261 2884.2358 3621184
839.211 683.5271 2894.9702 3752770
857.34888 683.5271 2894.9702 3884100
875.57629 683.59698 2895.2661 3621438
896.8244 685.97455 2905.3359 3884610
916.86682 687.35364 2911.177 3687231
934.99738 687.27368 2910.8381 3687231
953.27759 687.3045 2910.969 3753024
969.51324 685.88788 2904.969 3884610
981.89941 681.85034 2887.8684 3753024
1010.1921 688.80475 2917.3228 3687230
1038.4791 695.50818 2945.7144 3753023
1051.9862 692.25171 2931.9219 3753023
1067.6469 690.49976 2924.502 3753025
1077.7904 685.29913 2902.4753 3358012
1086.1281 679.14172 2876.3967 3423805
1118.4834 687.95825 2913.7375 3752514
1139.5115 689.63623 2920.8445 3884356
1147.2948 683.37207 2894.3135 4016199
1165.4286 683.37207 2894.3135 4081735
1179.6744 681.12732 2884.8062 4279114
1198.9539 681.81256 2887.7087 3884355
1210.1609 677.95532 2871.3718 3686720
1223.5842 675.43445 2860.6951 3687233
1229.3942 668.84436 2832.7837 4279114
1264.8341 678.3324 2872.969 4410443
1285.9346 679.9718 2879.9124 4147528
1295.5101 675.55615 2861.2104 3884356
1315.7866 676.76489 2866.3298 3950149
1333.6989 676.74139 2866.2305 3818563
1350.538 676.18134 2863.8584 3818563
1368.6525 676.26605 2864.2173 3555391
1401.8123 683.68646 2895.6453 2699825
1401.8143 674.95227 2858.6531 2568239
1415.6682 673.0238 2850.4854 2568239
1429.3301 671.05322 2842.1392 2634032
1447.3499 671.15198 2842.5574 2634289
1464.481 670.84119 2841.2412 2634032
1488.2932 673.56158 2852.7629 3094840
1516.8134 678.32288 2872.9285 3423805
1523.7239 673.42188 2852.1711 3358012
1541.9448 673.57526 2852.8208 3226426
1558.1829 672.86896 2849.8293 3160633
1574.111 672.0462 2846.3447 3029047
1590.9866 671.64197 2844.6326 3029047
1613.4159 673.56519 2852.7781 3423805
1623.2476 670.24469 2838.7146 3292219
1643.7192 671.3418 2843.3613 3358012
1659.6013 670.56104 2840.0544 3358012
1691.9614 676.38409 2864.717 3358012
1711.1077 676.85797 2866.7241 3292219
1722.2233 674.17828 2855.3748 3423548
1737.4298 673.13867 2850.9717 3291962
1763.8759 676.43054 2864.9138 3028790
1778.5077 675.17102 2859.5793 2897204
1796.4238 675.17102 2859.5793 3094583
1818.0579 676.55457 2865.4392 3160376
1837.582 677.13348 2867.8911 2963254
1863.9663 680.20471 2880.8989 2962997
1886.8544 681.95343 2888.3052 2897204
1904.8975 681.93445 2888.2249 2831411
1927.6493 683.58569 2895.2183 2765618
1945.9193 683.63153 2895.4126 2699825
1964.8956 683.92242 2896.6445 2634032
1985.1414 684.64575 2899.708 2371116
2007.7124 686.15063 2906.0818 2107688
2013.7426 682.02631 2888.614 2699825
2088.033 700.88843 2968.5015 3028790
2070.6279 688.90979 2917.7678 2897204
2088.9087 688.90979 2917.7678 2897204
2106.1372 688.56586 2916.311 2765618
2125.8977 689.04834 2918.3547 2831411
2145.7454 689.55072 2920.4824 2831411
2171.6865 691.98627 2930.7976 2962997
2173.1318 686.64099 2908.1587 2962997
2198.1685 688.77679 2917.2043 2831411
2206.6792 685.74176 2904.3501 3094583
2227.4126 686.52368 2907.6616 3094583
2274.7961 695.44019 2945.4263 3291962
2272.8013 689.23889 2919.1616 3357755
2299.719 691.83459 2930.1553 3291962
2321.9543 692.9917 2935.0562 3291962
2346.8826 694.92804 2943.2571 3357755
2349.647 690.32239 2923.7507 3291962
2360.6963 688.20343 2914.7761 2897204
2375.0957 687.086 2910.0432 3094583
2396.7542 688.06958 2914.2092 3357755
2413.9988 687.78076 2912.9858 3357755
2432.2495 687.78076 2912.9858 3423548
2443.9299 685.93665 2905.1753 3555134
2470.7412 688.33521 2915.3342 3555134
2498.7781 691.03748 2926.7793 3489341
2496.7922 685.45807 2903.1484 3423548
2507.5757 683.4397 2894.5999 3357755
2526.7102 683.70996 2895.7449 3489341
2538.4556 681.99121 2888.4653 3489341
2534.97 676.2337 2864.0803 3489341
2551.2832 675.8017 2862.2505 3357755
2575.8135 677.53705 2869.6003 3291962
2600.4707 679.28156 2876.9888 3357755
2618.4958 679.28156 2876.9888 3357755
2628.3188 677.16827 2868.0383 3160376
2641.9592 676.06061 2863.3469 3029047
2659.2793 675.90308 2862.6799 3094840
2671.5518 674.47327 2856.6243 3094583
2703.345 677.95813 2871.3838 2831668
2711.4954 675.50684 2861.0015 3094583
2730.9414 675.88324 2862.5957 3291962
2749.6104 676.06366 2863.3601 3226169
2767.259 675.99255 2863.0588 3357755
2793.9419 678.11505 2872.0483 3555390
2812.1987 678.17834 2872.3164 3620928
2831.7092 678.54126 2873.8535 3423294
2849.6174 678.51801 2873.7551 3291709
2845.6541 673.32007 2851.74 3160122
2856.376 671.64001 2844.6243 3028536
2875.1797 671.86932 2845.5955 3160122
2893.0083 671.86932 2845.5955 3291708
2890.8625 667.25885 2826.0686 3160122
nan nan nan 16777215
nan nan nan 16777215
nan nan nan 16777215
nan nan nan 16777215
nan nan nan 16777215
nan nan nan 16777215
nan nan nan 16777215
nan nan nan 16777215
-2509.751 657.11432 2711.5315 3884356
-2498.2009 658.54803 2717.4475 3884356
-2481.1753 658.54803 2717.4475 3687234
-2464.2886 658.58514 2717.6006 3686977
-2429.0774 653.69147 2697.4072 3884356
-2402.657 651.11151 2686.7612 4015942
-2396.0771 653.90979 2698.3081 4213321
-2378.5095 653.72784 2697.5574 4147528
-2371.7273 656.52893 2709.1157 3686977
-2321.908 647.37115 2671.3271 3292219
-2333.884 655.43469 2704.6003 3358012
-2317.3247 655.54388 2705.051 3752770
-2290.418 652.70593 2693.3403 4015942
-2281.0964 654.87427 2702.2878 3950406
-2288.3188 661.86017 2731.1147 3621184
-2272.6777 662.28857 2732.8826 3029047
-2234.3481 656.06165 2707.1875 3160633
-2238.3708 662.2702 2732.8066 3292219
-2226.5396 663.84753 2739.3154 3292219
-2209.3767 663.84753 2739.3154 3292219
-2202.2583 666.8891 2751.8662 3620928
-2184.2498 666.65503 2750.9001 3819076
-2153.564 662.51709 2733.8254 4147784
-2153.9521 667.94897 2756.2397 4148041
-2152.3667 672.85175 2776.4707 3490111
-2142.4734 675.21613 2786.2271 3292732
-2124.5771 675.07642 2785.6504 3950662
-2097.4973 671.99219 2772.9236 3687490
-2080.124 671.99219 2772.9236 3884869
-2047.528 667.0329 2752.4597 3621954
-2005.8649 659.0105 2719.356 3226939
-1998.4926 662.2132 2732.5715 3226939
-1987.9277 664.40424 2741.6125 3687490
-1981.8031 668.13037 2756.9883 3950662
-1931.2894 656.8255 2710.3394 3687490
-1942.8744 666.62683 2750.7839 3292732
-1916.2225 663.3667 2737.3313 3095609
-1892.246 660.98224 2727.4919 3555904
-1879.1196 662.37885 2733.2551 3753539
-1863.3539 662.8623 2735.25 3753027
-1856.069 666.3996 2749.8464 3687234
-1838.8403 666.3996 2749.8464 3424318
-1806.8392 660.99542 2727.5464 3424061
-1792.6932 662.08228 2732.0312 3424061
-1772.6826 661.00336 2727.5791 3489855
-1758.4357 662.07336 2731.9946 3621441
-1743.9479 663.07306 2736.1196 3686720
-1725.7397 662.66388 2734.4312 3489854
-1708.682 662.69275 2734.5503 3489598
-1694.0447 663.67035 2738.5845 3423805
-1678.2477 664.20905 2740.8074 3423805
-1657.2157 662.66553 2734.438 3423805
-1643.86 664.19141 2740.7344 3423805
-1636.7983 668.3194 2757.7681 3555391
-1610.2804 664.50647 2742.0344 3884356
-1581.7372 659.76654 2722.4756 3687234
-1575.4185 664.29456 2741.1602 3423805
-1568.6932 668.74908 2759.5413 3358782
-1551.7206 668.88562 2760.1047 3424318
-1528.4417 666.27618 2749.3372 3424318
-1512.3256 666.76526 2751.3552 3424575
-1500.3385 669.10706 2761.0186 3621954
-1484.9398 669.96436 2764.5559 3753539
-1461.7338 667.27771 2753.4697 3621953
-1443.9432 667.02856 2752.4419 3753540
-1429.1659 668.18225 2757.2024 3621954
-1413.4854 668.93677 2760.3157 3226939
-1404.7869 673.05511 2777.3098 3029816
-1375.6139 667.34412 2753.7437 3621953
-1352.8469 664.63513 2742.5654 3819076
-1333.2999 663.4588 2737.7114 3950662
-1320.7848 665.79657 2747.3579 3884869
-1312.0382 670.12079 2765.2014 3621697
-1303.9437 674.89832 2784.9155 3687490
-1294.903 679.30884 2803.1155 3555904
-1271.8237 676.37494 2791.0088 3424062
-1247.0074 672.42255 2774.6997 3753282
-1246.688 681.75458 2813.2073 3687746
-1234.7028 684.88324 2826.1177 3556161
-1218.7981 685.89728 2830.302 3754309
-1206.4797 688.98926 2843.0608 3819846
-1213.0522 703.12366 2901.3853 3951432
-1197.809 704.85059 2908.5115 4017225
-1176.5221 703.01978 2900.9565 3688260
-1152.6279 699.54889 2886.6343 3754053
-1131.7716 697.84052 2879.5847 3754053
-1121.8851 702.95026 2900.6699 3819846
-1103.1201 702.57355 2899.1155 3754053
-1083.7301 701.7796 2895.8391 3885639
-1069.1621 704.13428 2905.5557 3885639
-1050.7081 703.96692 2904.865 3754053
-1028.0681 700.93958 2892.3728 4017225
-1022.5321 709.6745 2928.4167 4017225
-995.16876 703.30273 2902.1243 3754053
-976.98602 703.30273 2902.1243 3884613
-964.31348 707.3446 2918.8027 4147785
-940.49188 703.20648 2901.7271 4345420
-905.02539 690.02679 2847.342 4214090
-883.79071 687.38611 2836.4456 3358012
-851.94513 676.21484 2790.3481 3358012
-840.05609 680.7475 2809.0518 3357756
-817.10724 676.31989 2790.7817 3752770
-806.88672 682.46429 2816.136 3884356
-788.35199 681.69403 2812.9575 4279114
-769.68658 680.77301 2809.157 4213321
-752.57373 681.21411 2810.9773 3950149
-745.05078 690.565 2849.563 3489341
-722.83862 686.42584 2832.4832 3423548
-706.79901 688.0874 2839.3394 3949892
-686.27094 685.35236 2828.0535 4015685
-663.93597 680.62006 2808.5259 4344650
-646.9762 681.29028 2811.2917 4015942
-629.37225 681.30078 2811.335 4015685
-612.73303 682.38623 2815.814 3818306
-598.25378 686.01282 2830.7788 3160633
-579.07666 684.30957 2823.7502 3292219
-559.17676 681.6178 2812.6431 3489598
-540.05316 679.72791 2804.8447 3621184
-522.72021 680.04053 2806.1345 3555391
-505.13892 680.04053 2806.1345 3555391
-488.29526 681.06934 2810.3799 3358012
-470.02536 680.11151 2806.4275 3555391
-447.68494 672.96033 2776.9187 3752770
-423.22604 661.9176 2731.3518 3818563
-414.99237 676.38947 2791.0688 3292219
-401.18686 682.65375 2816.9177 3423805
-382.83984 681.41107 2811.79 3423805
-364.3923 679.86102 2805.3938 3423805
-347.83292 681.85516 2813.6226 3489598
-327.44937 676.16559 2790.1448 3489598
-312.38834 681.44476 2811.9292 3621441
-292.66241 676.57074 2791.8169 3686977
-274.01944 673.73987 2780.1355 3489598
-258.86179 679.67584 2804.6296 3292219
-237.45682 668.87854 2760.0757 3226426
-219.50056 666.86273 2751.7576 3292219
-201.98605 665.95966 2748.031 3160633
-184.52441 665.07892 2744.3965 3226426
-167.10097 664.16888 2740.6414 3489598
-149.59607 662.68958 2734.5374 3555391
-132.57042 663.22534 2736.7478 3686977
-115.02494 660.93317 2727.2896 3686977
-98.121651 662.17511 2732.4143 3423805
-81.309372 664.68597 2742.7751 3226426
-63.595062 659.1925 2720.1069 3160633
-46.661247 660.72888 2726.4465 3094840
-29.662573 662.59088 2734.1301 3489598
-12.519084 661.88696 2731.2253 3358012
4.6083517 664.11517 2740.4199 3292219
21.956367 669.55658 2762.8733 3358011
39.446419 672.62225 2775.5237 3358012
56.835934 672.62225 2775.5237 3292475
74.555016 675.60876 2787.8472 3094840
92.021744 675.60876 2787.8472 3094840
108.75345 671.07324 2769.1316 3029047
129.30894 688.13452 2839.5339 3555392
148.01523 692.41833 2857.2104 3818563
165.54773 690.87915 2850.8594 3489598
183.06578 689.58539 2845.5205 3094840
200.88274 689.54718 2845.363 3489598
218.49513 688.8703 2842.5701 3686978
235.84529 687.53107 2837.0437 3686977
253.12474 686.18774 2831.5007 3950149
273.18246 692.05872 2855.7266 3423805
290.52112 690.74304 2850.2976 3489598
307.97708 689.84259 2846.582 3489341
325.30911 688.7782 2842.1899 3424061
342.57867 687.69897 2837.7366 3423805
359.34869 685.77283 2829.7886 3358012
374.13474 680.41968 2807.6992 3029304
392.51584 681.79193 2813.3616 3029047
411.04437 683.29132 2819.5486 2634545
431.01987 686.97327 2834.7419 2569266
449.08148 687.43414 2836.6438 2964023
462.39676 680.87097 2809.5615 2898231
476.68887 676.17493 2790.1833 3095609
494.17023 676.17493 2790.1833 3621953
513.0675 678.04614 2797.9048 3490111
526.97217 673.41376 2778.7896 3556161
542.79266 671.44745 2770.6758 3424318
555.23358 665.552 2746.3489 2963254
572.47101 665.58771 2746.4961 3686977
593.5293 669.93402 2764.4307 3423805
610.8493 669.93402 2764.4307 3686977
626.21155 667.84607 2755.8152 3752770
652.41553 677.1225 2794.0935 3686977
664.59863 671.74255 2771.8936 3489598
684.96985 674.70197 2784.1052 3686977
703.37708 675.62787 2787.926 3555391
723.29028 677.92047 2797.3862 3950406
736.9646 674.39526 2782.8398 3818563
754.31586 674.32007 2782.5295 3621441
781.17285 682.55402 2816.5063 3621184
798.81915 682.55402 2816.5063 3423805
814.1084 680.58356 2808.3755 3818563
829.7569 678.99042 2801.8015 4213321
850.19879 681.3045 2811.3503 4081989
869.4552 682.59399 2816.6711 3950403
889.37006 684.33881 2823.8711 3818564
907.0625 684.33881 2823.8711 3818563
926.13464 685.3598 2828.0842 4148297
941.83301 683.8927 2822.0303 4279626
961.20526 685.09821 2827.0046 3884869
983.45428 688.27338 2840.1069 4016198
1000.6924 687.89117 2838.5298 5003350
1019.8734 688.83453 2842.4224 5069144
1033.8152 686.26764 2831.8303 4674641
1049.3647 684.83667 2825.9253 4477007
1062.6434 681.99561 2814.2021 4214091
1086.3932 685.85797 2830.1399 4213834
1094.7294 680.02173 2806.0569 4081735
1112.3102 680.02173 2806.0569 4147528
1127.9568 678.8576 2801.2534 4015942
1141.7356 676.62225 2792.0293 4016198
1158.0459 675.93195 2789.1809 4082504
1175.521 675.93195 2789.1809 4016712
1187.3899 672.75562 2776.074 4213834
1203.6129 672.10236 2773.3782 4477006
1213.923 668.21277 2757.3281 4410956
1232.0029 668.64941 2759.1299 4213577
1260.337 674.56219 2783.5286 4015942
1275.4845 673.35211 2778.5352 4081735
1295.5394 674.73041 2784.2229 3752770
1314.2544 675.38361 2786.918 3687234
1339.4736 679.31824 2803.1541 3489598
1355.8973 678.74805 2800.8013 3028790
1369.153 676.62683 2792.0483 3226169
1390.3979 678.45758 2799.6028 3357755
1395.2676 672.35187 2774.408 3291962
1412.536 672.29761 2774.1838 3094583
1432.8285 673.66644 2779.8323 2962997
1449.3616 673.25604 2778.1389 3160633
1457.8755 669.17456 2761.2969 3555391
1463.8027 664.01538 2740.0081 3423805
1480.9696 664.01538 2740.0081 3292219
1498.5149 664.18304 2740.7 3094840
1528.7363 669.90167 2764.2974 2963254
1529.6594 662.7973 2734.9817 3160633
1544.2761 661.71802 2730.5281 3226426
1562.3933 662.14581 2732.2935 3160633
1585.7782 664.77271 2743.1331 3160633
1597.1489 662.36078 2733.1804 3292219
1620.2117 664.79742 2743.2351 3358012
1637.3988 664.79742 2743.2351 3292219
1652.8726 664.10895 2740.3943 3291705
1666.3599 662.64471 2734.3521 3028790
1707.8325 672.22565 2773.8872 3028790
1711.2371 666.78052 2751.4182 2897204
1733.9764 668.90259 2760.1746 2962997
1752.5725 669.40009 2762.2275 2962997
1776.2347 671.80408 2772.1475 2962997
1799.2191 673.90759 2780.8274 3094583
1818.3457 674.53967 2783.4355 3160376
1825.0355 670.5899 2767.1375 3028790
1855.7117 675.44513 2787.1719 2765618
1882.0193 678.63458 2800.333 2897461
1909.5471 682.20105 2815.0498 2831411
1930.535 683.38721 2819.9443 2765875
1952.6052 684.9314 2826.3164 2502703
1970.313 684.9314 2826.3164 2700082
2001.8661 689.70154 2846 2897461
2010.929 686.70734 2833.6448 2831668
2028.209 686.547 2832.9829 2897204
2048.7561 687.48578 2836.8567 2699825
2068.3447 688.08954 2839.3481 2634032
2077.8381 685.35315 2828.0566 2765618
2088.4788 683.03839 2818.5049 3029047
2108.4258 683.7804 2821.5669 3160376
2144.0559 689.55402 2845.3911 2962997
2153.6804 686.93768 2834.595 2765875
2161.3379 683.74188 2821.408 2765618
2178.4521 683.56531 2820.6792 3226169
2200.0405 684.78418 2825.7087 3357755
2220.6255 685.67371 2829.3794 3291962
2237.4954 685.41119 2828.2961 3357755
2256.3765 685.76404 2829.7522 3357755
2259.7983 681.44958 2811.949 2962997
2289.5845 685.09064 2826.9734 2897204
2310.5659 686.0614 2830.9792 3028790
2327.3926 685.79321 2829.8726 3291962
2355.177 688.73352 2842.0054 3226169
2373.6543 688.92828 2842.8091 3226169
2373.3459 683.70856 2821.2703 3094583
2372.1765 678.31958 2799.0332 3160376
2392.3093 679.05646 2802.074 3291962
2409.8652 679.05646 2802.074 3160376
2435.2993 681.26044 2811.1682 3160376
2451.9282 680.98712 2810.0405 3226169
2465.2976 679.81891 2805.2202 3094583
2482.8733 679.81891 2805.2202 2897204
2499.8694 679.66138 2804.5701 3226169
2499.6902 674.86896 2784.7947 3423548
2508.8174 672.63824 2775.5896 3489341
2527.6946 673.03424 2777.2236 3291962
2547.8455 673.76166 2780.2253 3357755
2564.2075 673.48407 2779.0798 3094583
2569.0417 670.20288 2765.5403 3028790
2587.5903 670.51941 2766.8464 3029047
2603.8035 670.23053 2765.6545 3160376
2619.2871 669.75909 2763.709 3226169
2640.1262 670.65417 2767.4026 3226169
2665.05 672.56842 2775.3015 3291962
2685.8171 673.41565 2778.7976 3160376
2712.2424 675.66144 2788.0647 3094583
2730.4875 675.85382 2788.8584 3028789
2739.3076 673.72565 2780.0767 3029046
2747.4131 671.44965 2770.6851 2963510
2764.7722 671.44965 2770.6851 3029303
2772.0166 669.00854 2760.6118 3029047
2788.2517 668.75409 2759.5618 2830385
2798.8372 667.15601 2752.9675 2699056
2809.7751 665.66107 2746.7988 2699570
nan nan nan 16777215
nan nan nan 16777215
nan nan nan 16777215
nan nan nan 16777215
nan nan nan 16777215
nan nan nan 16777215
nan nan nan 16777215
nan nan nan 16777215
nan nan nan 16777215
-2427.0322 656.24048 2640.033 3489598
-2400.4004 653.49316 2628.9807 3226426
-2365.123 648.33795 2608.2415 3292219
-2346.5537 647.72302 2605.7676 3818820
-2348.7415 652.8692 2626.4705 3818820
-2332.2859 652.8692 2626.4705 3884356
-2317.3945 653.31018 2628.2446 3884356
-2311.0381 656.18091 2639.7932 3621184
-2283.9717 653.17029 2627.6816 3423805
-2269.6309 653.78168 2630.1414 3489598
-2254.627 654.20959 2631.8628 3950149
-2238.1375 654.20959 2631.8628 4081735
-2237.1375 658.77075 2650.2122 4147528
-2209.7322 655.56641 2637.3213 4015942
-2207.686 659.8938 2654.7302 3621184
-2205.4348 664.22516 2672.1553 3489598
-2191.0063 664.92731 2674.9797 3489598
-2174.0686 664.8728 2674.7605 3423805
-2157.3103 664.8728 2674.7605 3489598
-2132.6938 662.43201 2664.9412 3818563
-2113.8315 661.75391 2662.2134 3687747
-2129.407 671.93201 2703.1594 3424318
-2097.4478 667.1535 2683.9358 3029560
-2069.9507 663.72845 2670.157 3029560
-2062.0562 666.58447 2681.6465 3292732
-2049.6438 668.01495 2687.4011 3292989
-2018.5598 663.33319 2668.5669 3620928
-2020.1732 669.40802 2693.0056 4147528
-1975.3342 660.06293 2655.4106 3818306
-1979.6367 667.11932 2683.7983 3029816
-1962.8218 667.11932 2683.7983 3358525
-1931.6392 662.19385 2663.9832 3687490
-1912.6725 661.4068 2660.8169 3490111
-1894.1976 660.77747 2658.2852 3490111
-1889.2195 664.88696 2674.8176 3424318
-1862.3054 661.28094 2660.3105 3489341
-1840.1742 659.32336 2652.4353 3818563
-1823.5559 659.32336 2652.4353 3818563
-1803.5651 658.09277 2647.4849 3489598
-1787.3395 658.22601 2648.0208 3423805
-1774.0314 659.44617 2652.9294 3423805
-1757.28 659.39746 2652.7334 3555391
-1738.4695 658.56769 2649.3953 3555135
-1726.4161 660.3064 2656.3901 3621184
-1707.7865 659.53925 2653.3037 3686977
-1684.0583 656.76855 2642.1575 3555647
-1669.275 657.46594 2644.9629 3555391
-1657.4811 659.36652 2652.6089 3423805
-1643.4509 660.40698 2656.7947 3358012
-1627.3286 660.61945 2657.6494 3423805
-1610.6776 660.61945 2657.6494 3423804
-1601.9567 663.90594 2670.8708 3489596
-1590.4808 666.10797 2679.7297 3358524
-1566.4568 663.04578 2667.4104 3292474
-1549.7893 663.06476 2667.4871 3424059
-1533.0765 663.06476 2667.4871 3489343
-1523.0187 665.97473 2679.1936 3489598
-1506.7742 666.21411 2680.1567 3555391
-1486.2185 664.53131 2673.3867 3555391
-1472.0601 665.70306 2678.1008 3555647
-1463.7622 669.58276 2693.7085 3752770
-1445.4149 668.90234 2690.9712 3752769
-1425.1903 667.32678 2684.6328 3687232
-1413.5111 669.76263 2694.4324 3489853
-1388.4329 665.83185 2678.6187 3489852
-1378.5465 669.17932 2692.0854 3292473
-1354.9888 665.89111 2678.8572 3292216
-1333.2545 663.4278 2668.9475 3423806
-1313.5829 661.94128 2662.9673 3423805
-1296.0156 661.49066 2661.1543 3490111
-1283.902 663.84808 2670.6382 3555904
-1284.3315 672.83893 2706.8079 3424318
-1261.757 669.85767 2694.8145 3555905
-1241.5096 668.04779 2687.5334 3555904
-1234.5397 673.43085 2709.1895 3819076
-1217.624 673.46307 2709.3191 3950662
-1201.5321 673.95825 2711.311 3753283
-1192.3119 678.37738 2729.0889 3819076
-1181.9137 682.24506 2744.6484 3687491
-1171.2528 686.07312 2760.0488 3753282
-1156.3049 687.4671 2765.6567 3556931
-1138.9772 687.4671 2765.6567 3425088
-1126.7902 690.61786 2778.332 3754053
-1122.5781 698.83209 2811.3777 3885639
-1102.3992 697.21008 2804.8523 3819846
-1076.0853 691.59253 2782.2529 3754053
-1066.6028 696.78546 2803.144 3688260
-1051.2144 698.22961 2808.9539 4017225
-1033.4246 698.10065 2808.4351 3951689
-1015.8288 698.10065 2808.4351 3951432
-994.30011 695.35016 2797.3699 3556674
-975.53607 694.46906 2793.8254 3359295
-962.99048 698.0636 2808.2859 3688260
-944.4198 697.34296 2805.387 3687490
-921.25757 693.14044 2788.4802 3950662
-902.83551 692.41077 2785.5449 4015686
-880.21027 688.36536 2769.2703 3883844
-870.05341 694.10406 2792.3569 3095093
-839.07581 683.12726 2748.1975 3095092
-819.17676 680.89905 2739.2336 3357496
-799.33612 678.62506 2730.0854 4015684
-786.26508 682.12457 2744.1638 3555391
-766.72083 680.03918 2735.7744 3029304
-739.2525 670.66949 2698.0803 3160377
-723.75201 671.9729 2703.324 3226169
-716.20233 680.89758 2739.2278 3094583
-711.76886 693.2959 2789.1057 3291962
-694.29425 693.2959 2789.1057 3949892
-662.42651 678.55243 2729.7932 4213064
-644.80414 678.00623 2727.5959 4147271
-628.521 678.87689 2731.0986 3884099
-613.32019 680.99817 2739.6323 3752513
-600.89087 686.40735 2761.3933 2831411
-590.22137 694.20721 2792.7717 3489598
-572.72382 694.20721 2792.7717 3423805
-546.57062 683.38501 2749.2344 3489598
-524.17419 676.70837 2722.3748 3686977
-506.90234 676.42108 2721.219 3555391
-489.60864 676.08356 2719.8611 3423805
-473.36774 677.22784 2724.4646 3423805
-455.86984 676.59222 2721.9075 3489854
-436.90988 673.65295 2710.0828 3489855
-417.14905 669.19116 2692.1331 3752770
-400.27087 669.17249 2692.0581 3423805
-386.03461 673.76331 2710.5269 3423805
-370.3374 676.1095 2719.9653 3489598
-352.65805 674.88867 2715.054 3094840
-333.96021 671.49622 2701.4062 3094840
-316.99335 671.40784 2701.0508 3226426
-299.15762 669.36542 2692.8342 3358012
-283.75568 672.84991 2706.8523 3752770
-264.33914 666.65283 2681.9214 3489598
-247.44827 666.41638 2680.9702 3423805
-227.99977 658.75574 2650.1519 3423805
-211.81232 660.05389 2655.3743 3621184
-195.28308 660.41748 2656.8369 3292219
-179.69394 664.32434 2672.554 3423549
-162.94957 664.32434 2672.554 3489598
-144.81816 658.02197 2647.2 3423805
-128.06679 657.1709 2643.7761 3423806
-112.18243 661.177 2659.8926 3752770
-96.029861 664.72449 2674.1638 3621184
-78.771912 660.50281 2657.1802 3489598
-61.747105 656.49713 2641.0654 3621184
-44.852833 651.45465 2620.7798 3752770
-28.554268 654.23688 2631.9727 3555391
-12.120755 657.30713 2644.324 3423805
4.4657531 660.11542 2655.6218 3489598
21.127117 660.83698 2658.5247 3555391
37.833843 661.71582 2662.0601 3358012
54.592056 662.68182 2665.9463 3752770
71.197166 661.77209 2662.2866 3621184
88.693924 667.92249 2687.0293 3489854
105.69649 668.9826 2691.2942 3358525
123.07552 671.80591 2702.6521 3358525
143.62502 689.15924 2772.4641 3687490
160.51413 687.0993 2764.177 3621697
177.08163 684.19794 2752.5049 3687490
195.48225 688.26562 2768.8691 3753283
212.35693 686.73553 2762.7136 3753540
229.73894 686.95306 2763.5886 3819076
248.35146 690.56165 2778.106 4082248
265.03668 688.68951 2770.5745 3950662
280.87039 684.97089 2755.6145 3555904
298.89832 686.72424 2762.6682 3753283
314.30469 682.59229 2746.0454 3556160
332.14951 683.91003 2751.3467 3621953
345.82321 676.93304 2723.2786 3753283
364.61969 680.16821 2736.2935 3094583
378.61514 674.55914 2713.7283 3094840
400.19659 682.36682 2745.1384 2897461
415.18762 678.75696 2730.616 2700595
430.60977 676.10974 2719.9663 2569265
445.92007 673.49512 2709.448 2437936
461.58218 671.58417 2701.76 2240301
476.94168 669.38373 2692.9077 3095609
493.84241 669.42273 2693.0647 3292732
510.72604 669.43683 2693.1216 3160376
525.95581 667.3515 2684.7322 3094840
546.66644 672.13422 2703.9731 3160633
563.60767 672.13422 2703.9731 3292219
573.84167 664.3689 2672.7334 3160633
595.18768 669.54413 2693.5532 3160633
608.93005 666.11633 2679.7632 3555134
622.22443 662.39551 2664.7944 3489598
638.92017 662.39551 2664.7944 3358012
664.95886 671.83502 2702.7693 3752770
681.89258 671.83502 2702.7693 3423805
702.30542 675.17981 2716.2253 3423805
712.1615 668.4574 2689.1814 3686977
724.79547 664.5929 2673.6345 3752770
744.87811 667.57867 2685.6462 3752770
775.83557 679.96356 2735.47 3950149
783.96985 672.24249 2704.4084 3818563
800.91376 672.24249 2704.4084 4213065
834.487 685.91101 2759.3965 4213830
855.71527 689.08356 2772.1597 4016195
862.68732 680.87811 2739.1494 3753280
879.50708 680.61365 2738.0854 3555900
915.43207 694.86108 2795.4023 3884867
928.82526 691.79181 2783.0549 4476748
938.15204 685.86285 2759.2029 4542540
955.0979 685.61774 2758.2168 4608592
969.61499 683.66895 2750.3767 4674128
995.13446 689.4104 2773.4744 4608336
1012.5112 689.4104 2773.4744 4213834
1025.6068 686.54462 2761.9456 3292989
1026.3323 675.63074 2718.0393 3358012
1038.6288 672.56592 2705.7097 3818563
1057.2032 673.59967 2709.8684 3818563
1075.7567 674.58746 2713.8423 4081992
1090.2238 673.02197 2707.5444 4081735
1109.1281 674.2016 2712.29 3950149
1126.6437 674.51434 2713.5481 3884612
1142.7834 674.00629 2711.5042 4147528
1158.7037 673.3855 2709.0068 4213321
1172.1864 671.38654 2700.9651 4147784
1184.7728 668.93829 2691.116 4148041
1198.1879 667.02014 2683.3994 4148041
1216.347 667.75958 2686.374 4476237
1225.0719 663.37018 2668.7156 4476493
1240.4496 662.65295 2665.8301 3752770
1302.9235 686.77948 2762.8904 3621184
1298.4148 675.42932 2717.229 3555648
1318.5682 677.03595 2723.6926 3028790
1335.6329 677.03595 2723.6926 3094583
1343.4399 672.40234 2705.0518 3620927
1336.9666 660.82581 2658.4797 3489341
1354.8622 661.43091 2660.9138 3226169
1378.5736 664.82599 2674.5723 3357755
1395.3307 664.82599 2674.5723 3818306
1396.6212 657.54419 2645.2778 3950149
1422.8425 662.03326 2663.3372 3818563
1439.5292 662.03326 2663.3372 3226426
1455.6276 661.76581 2662.2612 3489598
1463.2844 657.71021 2645.9456 3489598
1468.7834 652.78638 2626.1372 3423805
1489.1218 654.49384 2633.0063 3292219
1507.52 655.32043 2636.3318 3358012
1524.0375 655.32043 2636.3318 3489598
1539.5919 654.91083 2634.6838 3489598
1560.2739 656.66797 2641.7527 3292219
1580.531 658.21118 2647.9609 3292219
1598.0999 658.61438 2649.5833 3226169
1614.8745 658.68549 2649.8691 3160633
1637.8431 661.2558 2660.2095 3291962
1664.8027 665.36945 2676.7585 3291962
1678.332 664.08691 2671.5989 3291962
1704.3169 667.70941 2686.1721 3028790
1721.9424 668.01807 2687.4138 2765618
1736.8196 667.26495 2684.384 2962997
1750.958 666.24524 2680.2817 3423548
1761.1743 663.7666 2670.3103 3226169
1790.3779 668.4234 2689.0447 2568239
1825.8351 675.30634 2716.7344 2897204
1843.2683 675.45734 2717.3418 2831411
1865.7671 677.44476 2725.3372 2897204
1895.5985 682.03455 2743.8018 2897204
1913.4153 682.25775 2744.6997 2765618
1924.0082 679.92413 2735.3115 2897461
1938.6099 679.03589 2731.7383 2962997
1955.782 679.05566 2731.8176 2897204
1977.8403 680.7569 2738.6616 2765618
2040.7692 696.37512 2801.4934 2699825
2051.072 693.92255 2791.6267 2699825
2020.0383 677.64459 2726.1411 3028790
2036.327 677.38129 2725.0818 3423548
2058.8594 679.18213 2732.3264 3620927
2070.5864 677.41809 2725.2297 3752513
2103.334 682.50378 2745.6895 3686720
2123.0359 683.30823 2748.9255 3555134
2124.4021 678.24573 2728.5593 3291962
2146.7903 679.92212 2735.3035 3357755
2170.0757 681.85382 2743.0747 3160376
2191.6028 683.20703 2748.5186 2831411
2192.1777 678.05847 2727.8062 2831411
2220.1519 681.3988 2741.2441 2831411
2251.384 685.68011 2758.4678 2962997
2280.3008 689.19641 2772.6135 2962997
2287.3909 686.11255 2760.2073 2897204
2303.2759 685.69318 2758.5203 2765618
2302.0813 680.23334 2736.5554 2700082
2306.3696 676.4624 2721.385 2897204
2319.4419 675.30414 2716.7256 3094583
2348.3232 678.73206 2730.5159 3291962
2371.8071 680.56171 2737.8765 3226169
2386.7278 679.9256 2735.3174 3226169
2392.6938 676.76569 2722.6052 3028790
2396.9233 673.1629 2708.1116 2962997
2413.2329 672.97949 2707.3735 3094583
2407.4268 666.67438 2682.0083 3555134
2434.72 669.55902 2693.613 3555134
2451.5962 669.55902 2693.613 3357755
2467.9077 669.40588 2692.9968 3357755
2486.1118 669.76453 2694.4399 3291962
2502.9934 669.76453 2694.4399 3357755
2512.5061 667.80603 2686.5608 3160376
2573.5986 679.49182 2733.5725 3489341
2590.7256 679.49182 2733.5725 3555134
2563.1218 667.8371 2686.6858 3291962
2588.4421 670.03412 2695.5244 3160376
2602.4995 669.30603 2692.5952 3028790
2619.3694 669.30603 2692.5952 2831411
2633.072 668.50189 2689.3604 2765619
2649.0388 668.27911 2688.4641 2699316
2675.8992 670.79004 2698.5654 2699315
2680.6433 667.76013 2686.3762 2304557
2681.2588 663.74597 2670.2275 2436141
2708.342 666.29309 2680.4744 2238761
2745.6218 671.30182 2700.6243 2238504
2740.6509 665.98224 2679.2239 2896434
nan nan nan 16777215
nan nan nan 16777215
nan nan nan 16777215
nan nan nan 16777215
nan nan nan 16777215
nan nan nan 16777215
nan nan nan 16777215
nan nan nan 16777215
nan nan nan 16777215
-2355.1995 652.78381 2561.8958 3686977
-2335.9695 651.89667 2558.4141 3752770
-2314.9626 650.49805 2552.925 3884356
-2299.6318 650.68591 2553.6624 4015942
-2279.1809 649.41754 2548.6846 3950149
-2259.3669 648.31409 2544.354 3884613
-2246.4163 649.17822 2547.7454 3950149
-2274.9192 662.12006 2598.5364 3818563
-2251.3625 659.987 2590.165 4015942
-2203.345 650.60034 2553.3264 4344907
-2216.2939 659.21002 2587.116 4344907
-2204.0137 660.38727 2591.7361 4279114
-2177.7007 657.34607 2579.8008 4279114
-2161.5374 657.34607 2579.8008 4015942
-2146.5427 657.7041 2581.2058 3752770
-2137.7942 659.99597 2590.2004 3686977
-2130.6655 662.82684 2601.3103 3818563
-2127.0952 666.81677 2616.969 4213321
-2110.1812 666.65314 2616.3269 3818820
-2091.5862 665.95172 2613.5742 3818563
-2075.9097 666.1759 2614.4539 3621954
-2059.5293 666.1759 2614.4539 3687490
-2054.26 669.79865 2628.6716 3819076
-2033.6711 668.44458 2623.3577 3819076
-2008.6917 665.61371 2612.2476 3621953
-1992.2125 665.57605 2612.0999 3226939
-1975.847 665.57605 2612.0999 3424318
-1960.7018 665.99066 2613.7268 3753027
-1943.5601 665.72833 2612.6973 3686721
-1936.5651 668.96655 2625.406 3620928
-1919.9886 668.92212 2625.2317 3818306
-1878.7223 660.20074 2591.0039 3621184
-1857.3551 658.38092 2583.8621 3621184
-1839.8693 657.91705 2582.0415 3686977
-1818.5029 656.0451 2574.6948 3686977
-1802.1798 655.97534 2574.4209 3818306
-1801.3868 661.60809 2596.5271 3884099
-1778.8455 659.28302 2587.4023 3687234
-1743.9177 652.28235 2559.9275 3752771
-1732.9738 654.20557 2567.4756 3555133
-1715.0684 653.51227 2564.7546 3555390
-1698.8853 653.46844 2564.5825 3489853
-1680.1729 652.44153 2560.5525 3489597
-1662.3162 651.73035 2557.7612 3621184
-1643.2139 650.51215 2552.9805 3555391
-1626.2894 650.14062 2551.5225 3423805
-1613.9589 651.61658 2557.3147 3423805
-1604.4052 654.25433 2567.667 3489598
-1596.0518 657.44006 2580.1694 3555391
-1576.8949 656.19531 2575.2844 3489853
-1554.416 653.52808 2564.8167 3489596
-1542.4552 655.2735 2571.6667 3423803
-1530.042 656.86157 2577.8992 3292473
-1520.9716 659.9339 2589.9568 3160886
-1509.1194 661.85248 2597.4863 2963764
-1479.4292 655.90442 2574.1428 3160886
-1471.6993 659.6687 2588.916 3621184
-1449.0748 656.76617 2577.5247 3686977
-1431.616 656.16577 2575.1685 3555392
-1419.5909 658.07062 2582.6443 3358012
-1403.9509 658.3244 2583.6401 3160631
-1387.7637 658.3244 2583.6401 3424315
-1372.0532 658.55334 2584.5386 3358266
-1357.3472 659.27551 2587.3728 3358266
-1341.1365 659.27551 2587.3728 3424059
-1322.4894 658.06311 2582.6147 3424059
-1305.5983 657.70532 2581.2104 3424059
-1297.7209 661.93634 2597.8154 3226680
-1286.9364 664.77301 2608.9482 3160887
-1266.7699 662.77411 2601.1033 2963508
-1248.7246 661.84729 2597.4658 3029301
-1226.467 658.63397 2584.855 3555645
-1217.3856 662.50519 2600.0479 3621441
-1204.0697 664.14569 2606.4861 3687235
-1186.3076 663.34509 2603.3442 3621695
-1169.2141 662.90137 2601.6028 3029558
-1161.4143 667.7887 2620.7834 3358523
-1149.2366 670.26294 2630.4937 3621695
-1133.8744 670.9248 2633.0913 3424316
-1124.161 674.99805 2649.0771 3555904
-1113.3479 678.52325 2662.9119 3818820
-1100.9927 681.20148 2673.4229 3491394
-1084.2161 681.18469 2673.3569 3622724
-1074.7618 685.83997 2691.627 3951432
-1057.8979 685.83997 2691.627 3688260
-1034.6772 681.65204 2675.1909 3754053
-1020.4558 683.35254 2681.865 4017482
-1020.7711 695.00763 2727.606 4083018
-1002.0936 693.9079 2723.29 3885639
-982.55121 692.16077 2716.4333 3950919
-960.4729 688.53412 2702.2002 3687746
-942.55579 687.81384 2699.3735 3424575
-923.98993 686.58527 2694.5518 3753540
-905.29657 685.21442 2689.1719 3885126
-885.87561 683.23035 2681.3853 3884869
-867.91687 682.31921 2677.8093 3555904
-850.83966 682.0788 2676.866 3687747
-828.70551 677.69324 2659.6545 3621184
-812.04193 677.69324 2659.6545 4016199
-800.86572 682.36871 2678.0037 3950149
-781.57928 680.18616 2669.438 4147528
-771.01685 685.66638 2690.9456 3620669
-752.34344 684.01727 2684.4736 3160117
-725.40509 674.60663 2647.541 2502445
-711.474 677.13501 2657.4636 3226167
-695.29102 677.59003 2659.2493 3160376
-681.6095 680.56488 2670.9246 3160376
-675.52869 691.46967 2713.7209 3555134
-654.62476 687.37286 2697.6428 3555134
-634.65558 684.06635 2684.6663 3423805
-614.57178 680.453 2670.4854 3489341
-597.40002 679.95184 2668.5186 3423548
-584.59363 684.53339 2686.4993 3423291
-567.76184 684.53339 2686.4993 3686977
-554.97919 689.56439 2706.2437 4410700
-529.42957 678.54962 2663.0154 4410957
-510.11481 675.06897 2649.3552 3686977
-493.51575 675.06897 2649.3552 3621184
-476.56827 674.57574 2647.4197 3818563
-460.62207 675.51532 2651.1072 3884356
-443.79605 675.18671 2649.8174 3752770
-425.44049 672.4151 2638.9399 3818563
-407.79092 670.58026 2631.739 3621441
-392.62473 672.84656 2640.6333 3226426
-375.36029 671.55823 2635.5774 3423805
-359.27487 672.35797 2638.7158 3555391
-342.74252 672.35797 2638.7158 3029047
-324.64392 669.12982 2626.0466 2897461
-308.11942 668.97455 2625.4373 3160633
-291.24393 667.9967 2621.5999 3226426
-275.43759 669.50085 2627.5029 3489598
-257.47156 665.61304 2612.2449 3095095
-241.18358 665.82983 2613.0957 3490107
-226.01326 669.38837 2627.0615 4148038
-206.29158 658.96741 2586.1636 3753024
-190.21986 659.42291 2587.9514 3029557
-173.14287 656.15369 2575.1208 2963764
-156.48044 653.94507 2566.4531 2963764
-140.22388 653.12091 2563.2188 3160886
-123.00816 647.03839 2539.3474 2897715
-106.69183 644.58228 2529.7083 2897717
-92.455124 656.02539 2574.6174 3752770
-75.689362 650.56757 2553.1978 3621441
-59.307945 646.37323 2536.7371 3752770
-42.803516 637.27667 2501.0369 3686977
-27.131905 637.23352 2500.8674 3555391
-11.595509 644.58868 2529.7334 3818563
4.2540565 644.58868 2529.7334 3686977
20.548979 658.86835 2585.7749 3555391
36.818584 660.10406 2590.6245 3621184
53.570801 666.58881 2616.0742 3490367
69.885582 665.86719 2613.2424 3358781
86.483612 667.60602 2620.0667 3358525
103.71859 672.92255 2640.9316 3358781
121.00535 677.06592 2657.1926 3555904
137.82852 677.92688 2660.5715 3687490
155.42226 681.98322 2676.491 3621953
172.70732 684.02698 2684.5117 3621697
189.77351 684.91803 2688.0088 3358525
206.17958 683.47552 2682.3477 3490111
223.86192 686.16248 2692.8926 3490111
240.73372 686.16248 2692.8926 3358526
257.65991 686.30731 2693.4612 3358525
272.86966 682.14343 2677.1196 3161146
289.47562 681.75 2675.5757 3160890
306.23892 681.75 2675.5757 3423805
323.81909 683.47418 2682.3423 3555391
340.20181 682.62543 2679.0112 3489598
356.98666 682.62543 2679.0112 2700082
376.91373 688.3642 2701.5334 1910823
387.22601 676.80463 2656.167 2371117
401.09927 672.16522 2637.9595 2831668
418.30197 673.25171 2642.2234 2897461
432.06268 668.92664 2625.2493 3029047
446.44266 665.84229 2613.1445 2963254
462.2695 665.05774 2610.0654 3029047
478.68231 665.14099 2610.3923 3226426
495.37604 665.59619 2612.179 3292219
511.74216 665.59619 2612.179 3226427
527.401 664.7049 2608.6807 3160633
541.1535 661.53662 2596.2466 3094840
556.78687 660.78546 2593.2988 3094583
572.90179 660.6322 2592.6973 3225912
584.18365 655.06793 2570.8599 3226169
599.66858 654.38885 2568.1948 3094840
621.61584 660.61304 2592.6221 3555391
638.91724 661.7085 2596.9214 3555647
657.33319 663.87531 2605.425 3226426
676.30865 666.48846 2615.6807 2700082
692.18164 665.99292 2613.7358 3160633
708.11096 665.57324 2612.0886 3621184
725.56934 666.57721 2616.0288 4279114
750.6239 674.36121 2646.5776 4214090
768.26636 675.2937 2650.2373 4082504
784.87097 675.2937 2650.2373 4016715
801.76562 675.53815 2651.1965 3885126
822.9743 679.33368 2666.0925 3884100
839.07538 678.84601 2664.1785 3818563
862.24536 683.9848 2684.3462 3686977
880.03845 684.74329 2687.323 3950149
891.36609 680.53711 2670.8154 3884356
910.86145 682.60687 2678.9385 3818564
936.02649 688.77374 2703.1406 3752770
955.81836 690.83795 2711.2417 3292219
962.1106 683.24316 2681.4355 3489598
976.85938 681.8114 2675.8167 4081735
990.51251 679.67627 2667.437 3687234
1001.6402 675.90778 2652.6472 4015942
1007.7242 668.91437 2625.2012 4279113
1025.7417 669.93958 2629.2249 3950149
1046.6156 672.76855 2640.3271 3884355
1066.1648 674.6712 2647.7944 4213321
1079.0084 672.33734 2638.635 4344906
1094.2386 671.53845 2635.4998 4213321
1105.575 668.40918 2623.2188 4147528
1127.5187 671.69073 2636.0972 3686977
1149.6958 675.01459 2649.1418 3621184
1178.8479 682.28064 2677.658 3686977
1186.17 676.88556 2656.4849 3752770
1192.2539 670.94299 2633.1628 3555391
1208.7515 670.94299 2633.1628 3950406
1235.4998 676.55634 2655.1926 3884356
1246.3024 673.4046 2642.8235 3884356
1266.7579 675.48285 2650.9797 3752770
1277.183 672.22797 2638.2056 3292219
1297.0098 673.94141 2644.9302 3292219
1295.7212 664.77832 2608.969 3489084
1308.5197 662.9809 2601.9148 3358012
1319.6669 660.40137 2591.7913 3292219
1334.0004 659.45966 2588.0955 3686977
1337.6166 653.30621 2563.9458 3818563
1342.6071 647.96204 2542.9722 3818563
1374.5983 655.62128 2573.0315 3818563
1396.3286 658.26575 2583.4099 4015942
1412.5145 658.26575 2583.4099 4147528
1425.9744 657.00977 2578.4807 3489598
1425.2809 649.33386 2548.3562 3555391
1441.2472 649.33386 2548.3562 3358012
1458.1543 649.75317 2550.0017 3423805
1473.8695 649.63794 2549.5496 3489598
1502.7556 655.26837 2571.6465 3292219
1520.2062 655.84576 2573.9126 3292219
1536.3326 655.84576 2573.9126 3423805
1561.0677 659.4826 2588.1855 3555134
1568.0576 655.62512 2573.0466 3160376
1578.7334 653.37164 2564.2026 3028790
1607.8032 658.69928 2585.1116 3028790
1625.9473 659.48926 2588.2117 3028790
1649.3871 662.39038 2599.5974 3160376
1666.845 662.8559 2601.4243 3160376
1702.0927 670.31836 2630.7112 3423548
1721.0392 671.27948 2634.4834 3489341
1725.9041 666.7821 2616.833 3423548
1745.9097 668.16388 2622.2559 3489341
1766.3427 669.68182 2628.2131 3094583
1781.522 669.19824 2626.3154 3160376
1801.2217 670.40601 2631.0554 3094840
1819.0648 670.90717 2633.0222 3160376
1843.5516 673.82764 2644.4836 3160376
1853.6079 671.46857 2635.2253 2962997
1877.9137 674.26746 2646.21 3028790
1895.027 674.45758 2646.9558 3028790
1913.8152 675.23523 2650.0078 3028790
1936.1962 677.25623 2657.9395 2897204
1958.92 679.36176 2666.2026 2897204
1983.8997 682.20728 2677.3701 2962997
1990.6376 678.78485 2663.9387 3094583
2006.7104 678.57605 2663.1191 3094583
2019.2479 677.18506 2657.6602 3555134
2049.0222 681.55011 2674.791 4081478
2053.9285 677.63983 2659.4448 4081478
2078.8367 680.3385 2670.0359 3621183
2095.5654 680.3385 2670.0359 3621183
2110.3591 679.71527 2667.5901 3226169
2133.9287 681.90631 2676.189 2962997
2147.6328 680.93506 2672.3772 2699825
2162.21 680.2536 2669.7029 2699825
2175.3223 679.12524 2665.2747 2568239
2199.6196 681.47943 2674.5137 2831411
2215.3818 681.17371 2673.3137 2765618
2237.5583 682.8299 2679.8137 2700082
2260.4185 684.66852 2687.0295 2502446
2280.0103 685.49738 2690.2822 2699825
2270.1465 677.52307 2658.9866 2962997
2286.8059 677.52307 2658.9866 3423548
2290.6592 673.75641 2644.2041 3423548
2301.5215 672.09064 2637.6665 3489341
2311.5024 670.19293 2630.219 3620927
2324.0305 669.05548 2625.7551 3555134
2332.8909 666.88556 2617.239 3555134
2349.7854 667.02661 2617.7925 3752513
2360.7124 665.4834 2611.7361 3686720
2388.7856 668.76172 2624.6021 3489341
2399.5818 667.19135 2618.4392 3489341
2412.8843 666.33447 2615.0762 3226169
2429.136 666.29803 2614.9333 3160376
2452.2192 668.12354 2622.0977 3226169
2475.5061 669.97974 2629.3823 3226169
2491.98 669.97974 2629.3823 3226169
2515.0195 671.7334 2636.2646 3226169
2517.3259 667.96265 2621.4661 3094583
2534.3774 668.12799 2622.115 2962997
2551.9758 668.43445 2623.3179 2962997
2567.3784 668.16559 2622.2625 2896948
2580.0613 667.19672 2618.4602 2765363
2601.2085 668.41522 2623.2422 2830899
2638.5569 673.75531 2644.1997 2567983
2634.0479 668.40717 2623.2107 2436399
2622.8557 661.44006 2595.8677 2370606
2660.4949 666.79724 2616.8926 2633778
2730.5957 680.17493 2669.394 3094329
nan nan nan 16777215
nan nan nan 16777215
nan nan nan 16777215
nan nan nan 16777215
nan nan nan 16777215
nan nan nan 16777215
nan nan nan 16777215
nan nan nan 16777215
nan nan nan 16777215
-2294.1143 651.40515 2495.45 3686977
-2287.5498 653.99823 2505.3838 3818563
-2265.8105 652.25879 2498.7202 3884356
-2266.4622 656.98578 2516.8286 4081735
-2237.6816 653.18756 2502.2781 4081735
-2203.6978 647.80621 2481.6628 3884356
-2206.7461 653.31177 2502.7542 3950149
-2191.0657 653.31177 2502.7542 4279114
-2176.7913 653.73419 2504.3721 4344907
-2164.748 654.83746 2508.5986 4279114
-2163.9451 659.38202 2526.0083 4279114
-2137.5881 656.14954 2513.625 4015942
-2134.9006 660.18848 2529.0979 4015942
-2110.7102 657.58868 2519.1382 3950149
-2094.0774 657.32202 2518.1167 3818563
-2083.4092 658.93774 2524.3064 3884356
-2076.5461 661.79083 2535.2363 3950149
-2060.6621 661.79083 2535.2363 3950149
-2045.2261 661.93585 2535.7917 3818563
-2036.9412 664.41571 2545.2917 3752770
-2019.1628 663.81366 2542.9854 3687746
-1995.5388 661.26495 2533.2217 3621697
-1993.7706 665.97577 2551.2683 3950662
-1977.7861 665.97577 2551.2683 4016455
-1957.2834 664.44202 2545.3926 3621697
-1934.1021 661.96619 2535.908 3358781
-1922.3356 663.38855 2541.3569 3555904
-1906.8235 663.53131 2541.9038 3621697
-1893.7003 664.51489 2545.6716 3621697
-1867.8518 661.01172 2532.2515 3753540
-1837.3545 655.78918 2512.2446 3819076
-1821.3879 655.7077 2511.9324 3884869
