# .PCD v0.7 - Point Cloud Data file format
VERSION 0.7
FIELDS x y z rgb
SIZE 4 4 4 4
TYPE F F F U
COUNT 1 1 1 1
WIDTH 1285
HEIGHT 1
VIEWPOINT 0 0 0 1 0 0 0
POINTS 1285
DATA ascii
-1021.2152 600.59265 1237.3278 2568498
-1011.2272 599.26764 1234.5981 2568755
-1002.6052 598.73804 1233.507 2568498
-993.73309 598.04968 1232.0889 2568498
-983.52142 596.53802 1228.9746 2568498
-975.65845 596.43835 1228.7693 2502705
-965.20929 594.74353 1225.2776 2436912
-956.11639 593.86395 1223.4655 2436912
-946.13623 592.41455 1220.4795 2371120
-938.00671 592.1098 1219.8516 2502705
-931.46082 592.80786 1221.2897 2436912
-920.96326 590.98169 1217.5276 2305326
-916.17297 592.81799 1221.3105 2305326
-909.43622 593.4151 1222.5408 2502705
-901.58398 593.28833 1222.2797 2700084
-895.92102 594.61237 1225.0074 2437169
-888.64557 594.87988 1225.5585 2371119
-881.26337 595.07996 1225.9707 2568498
-876.04602 596.7583 1229.4283 2700084
-869.63892 597.64868 1231.2627 2239533
-866.26471 600.65796 1237.4624 1910568
-858.51154 600.65796 1237.4624 1778982
-855.21588 603.80505 1243.9459 2239533
-845.60107 602.50745 1241.2727 2765877
-837.82422 602.50745 1241.2727 2173740
-829.72998 602.27722 1240.7983 2436912
-825.98206 605.22729 1246.876 2436912
-819.33545 606.08942 1248.6521 2765877
-811.78412 606.29236 1249.0703 2963513
-797.96906 601.77576 1239.7653 2700084
-793.17377 604.03925 1244.4283 2371889
-781.6355 601.16156 1238.4999 2437682
-769.36383 597.65649 1231.2788 2108460
-758.1944 594.94531 1225.6934 1450530
-753.18213 597.05957 1230.0491 1318944
-744.70728 596.44434 1228.7815 1713702
-740.47229 599.24744 1234.5564 2503218
-738.11444 603.6449 1243.616 2503218
-731.46698 604.59058 1245.5642 2569011
-725.28949 605.94934 1248.3635 2503218
-717.58582 606.04877 1248.5684 2437425
-710.29926 606.50653 1249.5115 2437425
-702.06793 606.15881 1248.795 2371632
-696.14502 607.81873 1252.2148 2305839
-691.48981 610.63599 1258.0189 2174253
-684.53625 611.46521 1259.7273 2306096
-671.90564 607.18365 1250.9064 2635060
-658.40387 602.00439 1240.2362 3160635
-658.10773 608.92004 1254.4838 3226428
-649.6142 608.32654 1253.261 2897463
-633.28918 600.29498 1236.7146 2305326
-623.65106 598.48157 1232.9786 2700084
-619.1554 601.61938 1239.4431 2239533
-609.71436 599.97076 1236.0465 2107947
-607.79816 605.77936 1248.0133 2897463
-600.57214 606.3783 1249.2472 2963256
-587.12592 600.62976 1237.4042 2700084
-576.74927 597.90948 1231.8 2107948
-573.44531 602.54718 1241.3545 1713190
-565.4115 602.27411 1240.7919 1384481
-559.05359 603.80347 1243.9426 1516067
-546.96869 599.10327 1234.2594 1910568
-538.43073 598.20886 1232.4169 2107948
-535.10638 603.16528 1242.6279 2107947
-522.89478 598.10254 1232.1978 2305326
-515.17468 598.10254 1232.1978 3160635
-507.34671 597.97534 1231.9358 2831926
-502.69803 601.64941 1239.505 3621442
-495.49826 602.33759 1240.9227 4673874
-484.5817 598.45752 1232.9291 3489600
-478.38104 600.37018 1236.8695 2042154
-474.08295 604.77289 1245.9398 2173996
-465.63153 603.93597 1244.2157 1976361
-458.77023 605.16815 1246.7542 1844775
-453.31564 608.33081 1253.2698 1647653
-444.90045 607.56189 1251.6857 2305326
-437.05829 607.56189 1251.6857 2502705
-428.72372 606.86499 1250.2499 2436912
-420.8905 606.86499 1250.2499 2173740
-411.80997 605.03235 1246.4744 2305326
-402.96735 603.48517 1243.287 2502705
-392.1459 598.85516 1233.7483 2305326
-379.73602 591.56445 1218.728 2436912
-372.86688 592.78308 1221.2388 2897463
-363.65488 590.25012 1216.0204 2831670
-358.12595 593.71472 1223.1581 2700084
-348.86224 591.00385 1217.5731 3029049
-344.01752 595.82513 1227.5059 3029049
-335.44995 594.27173 1224.3055 2897463
-327.56284 593.87927 1223.4971 2634291
-319.41306 592.98035 1221.6451 2371119
-311.4733 592.43677 1220.5253 2239533
-305.35098 595.40979 1226.6501 2700084
-296.8147 593.7077 1223.1436 2765877
-288.60294 592.58173 1220.8239 2436912
-281.26498 593.2373 1222.1746 2502705
-274.24579 594.62097 1225.025 2568498
-266.94852 595.46387 1226.7616 2371119
-259.35248 595.67059 1227.1875 2436912
-250.24692 592.31696 1220.2784 2831670
-244.53253 597.03168 1229.9916 2239533
-237.41057 598.50464 1233.0262 2371119
-229.68527 598.50464 1233.0262 3226428
-220.96774 595.82922 1227.5143 2634291
-213.27701 595.82922 1227.5143 2700084
-205.16675 594.6134 1225.0095 2173740
-200.17374 602.68866 1241.6459 2436912
-192.61688 603.3855 1243.0815 2107947
-185.29152 604.89673 1246.1949 2042154
-176.71698 602.28351 1240.8113 2568498
-169.70622 605.0047 1246.4175 2765877
-162.44121 607.03833 1250.6071 2502705
-154.31102 605.88104 1248.2228 2174510
-146.49051 605.88104 1248.2228 2371632
-139.42484 609.17902 1255.0172 2371632
-131.71927 609.90833 1256.5198 1911081
-123.59187 608.65295 1253.9335 2305839
-115.73057 608.62659 1253.8792 2700597
-108.04501 609.58783 1255.8595 2305839
-100.66236 612.5434 1261.9485 2108460
-92.679138 612.03674 1260.9047 1779752
-84.648796 611.09552 1258.9656 2042667
-77.059669 613.47327 1263.8641 2108460
-69.180847 613.82538 1264.5896 2042667
-61.423649 615.48724 1268.0133 1845545
-53.305447 613.48804 1263.8947 1779495
-45.182251 610.72375 1258.1997 1779752
-37.216011 609.36096 1255.3921 1845288
-29.373484 609.83636 1256.3715 1845288
-21.422762 607.591 1251.7457 1976874
-13.565383 606.92871 1250.3812 1779752
-5.6834478 601.85529 1239.9291 2240046
2.0864191 602.23822 1240.718 2503218
9.9333696 606.72565 1249.9628 2042667
17.775261 607.0838 1250.7007 1581603
25.492411 604.26593 1244.8954 1515810
33.034168 599.58496 1235.2518 1976361
40.773407 599.58496 1235.2518 2305326
48.956425 605.06989 1246.5516 2239533
56.691219 604.26788 1244.8994 2042154
64.525291 604.59015 1245.5634 1910568
72.531303 606.28009 1249.0449 1844775
80.272148 605.6402 1247.7267 1515810
87.921082 604.48199 1245.3406 1844775
95.91346 605.6814 1247.8115 2239533
103.23332 602.77313 1241.8201 2436912
111.05698 603.00818 1242.3042 2305326
119.17279 604.69476 1245.7789 2239533
127.3937 606.67444 1249.8574 2305326
135.22304 606.66815 1249.8445 2107947
142.97104 606.31763 1249.1222 2239533
150.89294 606.7027 1249.9155 2239532
158.85045 607.18585 1250.9109 2173740
165.8622 604.17847 1244.7152 2107947
173.61755 604.02826 1244.4058 2042154
181.79086 605.28259 1246.9899 2173740
189.91934 606.29041 1249.0662 1976618
198.01721 607.12463 1250.7848 1845032
204.09242 601.92981 1240.0826 1844775
211.73856 601.57935 1239.3606 2305326
218.11821 597.78271 1231.5388 2173740
225.60863 597.18567 1230.3088 1844775
235.19514 601.9931 1240.213 1778982
243.55206 603.44653 1243.2073 1910568
252.13904 605.36218 1247.1539 1844775
259.62811 604.60596 1245.5959 1778982
267.92041 605.70978 1247.87 1647396
275.17862 604.47943 1245.3353 2042154
282.98102 604.47943 1245.3353 1844775
293.1777 609.45667 1255.5892 2042154
300.41718 608.18689 1252.9734 2239533
308.20297 608.05975 1252.7113 2042154
317.06424 610.008 1256.7251 1778983
324.90231 609.94098 1256.587 1844776
332.9462 610.25439 1257.2327 1910569
340.48004 609.63995 1255.9669 1976618
347.27075 607.75287 1252.0791 1910569
355.25507 607.99188 1252.5715 1713447
363.24292 608.2265 1253.0549 2042411
373.06851 611.46326 1259.7231 2107948
380.41132 610.58087 1257.9053 2173741
389.31241 612.18463 1261.2094 2107948
397.21426 612.18463 1261.2094 2436912
404.81924 611.73596 1260.285 2173740
411.88086 610.49915 1257.7369 1581603
418.9537 609.32507 1255.3181 1384480
425.98538 608.13544 1252.8673 1515810
435.91364 611.04926 1258.8702 1778982
446.87384 615.28033 1267.587 2173740
454.07669 614.28058 1265.5275 3029049
461.01266 612.96039 1262.8076 2831670
470.36526 614.84363 1266.6874 2963256
480.21899 617.30859 1271.7656 3489600
485.74362 614.21893 1265.4004 1976360
495.44223 616.42175 1269.9386 1713189
503.5997 616.66779 1270.4454 2107947
511.21176 616.24872 1269.582 2107947
519.211 616.302 1269.6919 1976361
526.86371 615.94855 1268.9636 1844262
537.94122 619.55005 1276.3834 1646883
542.44244 615.58295 1268.2104 1318175
548.61224 613.59668 1264.1184 1581602
552.57361 609.23199 1255.1265 1778983
558.46429 607.08716 1250.7076 1976361
566.20312 606.98291 1250.4929 2173740
569.79382 602.49536 1241.2477 2239533
576.80664 601.6983 1239.6057 2239533
580.72717 597.73975 1231.4503 2436912
591.58319 600.92993 1238.0227 2700341
599.66229 601.2533 1238.6888 2634291
606.37292 600.21387 1236.5474 2568498
613.45709 599.56567 1235.212 2568498
620.03052 598.44067 1232.8944 2436912
626.05353 596.81866 1229.5527 2436912
631.54968 594.73993 1225.2703 2765877
633.32965 589.2536 1213.9674 2765877
642.49915 590.69116 1216.929 2436912
652.59741 592.93884 1221.5596 2436912
662.85492 595.2774 1226.3774 2173741
672.27472 596.81873 1229.5529 2239533
679.94269 596.78754 1229.4885 2568498
684.78064 594.3009 1224.3656 2634291
692.73145 594.54102 1224.8604 2305326
701.51208 595.48029 1226.7954 2305326
709.31982 595.58234 1227.0056 2305326
712.24622 591.62738 1218.8578 2107947
726.69061 597.22235 1230.3844 2765877
730.05212 593.68713 1223.1013 2897463
736.30005 592.54828 1220.755 2765877
742.66174 591.52344 1218.6436 2963256
747.96454 589.68463 1214.8553 2765877
755.57605 589.68463 1214.8553 2568498
764.56433 590.74847 1217.047 2568498
771.73846 590.40344 1216.3362 2371119
780.40417 591.19501 1217.967 2371119
786.91571 590.35522 1216.2369 2502705
791.02161 587.74414 1210.8575 2568498
797.88257 587.21027 1209.7577 2436912
806.55829 588.00934 1211.4041 2568498
815.98102 589.33319 1214.1313 2371119
825.19861 590.48578 1216.5059 2042154
829.96222 588.45923 1212.3308 1581603
839.12872 589.56293 1214.6046 1647653
854.28119 594.81464 1225.4241 1778982
857.10107 591.4624 1218.5179 2107947
863.99377 590.9552 1217.4729 2107947
871.49017 590.86597 1217.2892 2173740
881.49847 592.46674 1220.5869 2239533
887.50665 591.37445 1218.3367 2502705
896.8056 592.47498 1220.6039 2568498
904.43542 592.46332 1220.58 2502192
912.0827 592.46332 1220.58 2370606
916.29114 590.24811 1216.0162 2370606
926.10211 591.64868 1218.9016 2831157
937.34485 593.93347 1223.6088 2831157
954.33459 599.79327 1235.6809 2633778
957.46838 596.92041 1229.7623 2633778
965.17328 596.92041 1229.7623 2699571
976.85974 599.3634 1234.7953 2633778
986.45184 600.49304 1237.1226 2699571
993.92755 600.32672 1236.78 2831157
1003.5223 601.43304 1239.0592 2962743
1010.6417 601.05029 1238.2706 2897207
1013.1862 597.97321 1231.9313 3159865
1030.9401 603.85126 1244.0411 2831157
1036.2417 602.40222 1241.0558 2567985
1045.036 602.98999 1242.2667 2436399
1054.4591 603.9292 1244.2018 2502192
1057.2283 601.07166 1238.3147 2502192
1066.2621 601.79156 1239.7977 2041898
1077.5377 603.75702 1243.8469 1712933
1082.3489 602.09827 1240.4296 1777443
1091.2389 602.71588 1241.702 1645857
1101.0767 603.8446 1244.0275 1711649
1108.616 603.70581 1243.7415 1711650
1116.4083 603.70581 1243.7415 1711649
1120.8241 601.89246 1240.0056 1711907
1127.8701 601.50684 1239.2112 1712162
1134.296 600.7981 1237.7511 1844519
1138.3901 598.87231 1233.7836 2041641
1144.3308 597.93732 1231.8573 2239020
1152.3555 598.0965 1232.1853 2107434
1160.0756 598.0965 1232.1853 2173227
1170.144 599.29932 1234.6633 2370606
1177.8796 599.29932 1234.6633 2436399
1186.0243 599.5061 1235.0894 2370606
1193.6144 599.43176 1234.9362 2239020
1200.4197 598.96674 1233.9781 2239020
1213.1804 601.46021 1239.1151 2041641
1221.9244 601.94324 1240.1102 1975848
1229.9904 602.08826 1240.4091 1844262
1236.6128 601.52924 1239.2574 2107434
1248.8379 603.68561 1243.7 2304813
1255.5874 603.18475 1242.668 2107691
1265.2822 604.09625 1244.5458 1910056
1275.2571 605.12939 1246.6743 1844261
nan nan nan 16777215
nan nan nan 16777215
nan nan nan 16777215
nan nan nan 16777215
nan nan nan 16777215
nan nan nan 16777215
nan nan nan 16777215
nan nan nan 16777215
nan nan nan 16777215
nan nan nan 16777215
nan nan nan 16777215
nan nan nan 16777215
nan nan nan 16777215
nan nan nan 16777215
nan nan nan 16777215
nan nan nan 16777215
nan nan nan 16777215
-1072.6342 606.69366 1234.0526 2305326
-1062.3529 605.24121 1231.0981 2371119
-1050.6418 602.9469 1226.4314 2502705
-1041.7544 602.25116 1225.0162 2502705
-1033.1947 601.7359 1223.9681 2502705
-1023.215 600.37988 1221.2098 2436912
-1014.172 599.55707 1219.5363 2371119
-1004.5072 598.35138 1217.0839 2436912
-995.18713 597.33423 1215.0149 2436912
-987.57471 597.33423 1215.0149 2371119
-978.54053 596.46765 1213.2522 2173740
-965.43787 593.08813 1206.3781 1910568
-956.6441 592.32318 1204.8221 2042154
-948.88257 592.19025 1204.5518 2239533
-943.34784 593.45612 1207.1266 2305326
-933.33539 591.90277 1203.9669 2371119
-925.88165 591.9599 1204.0833 2173740
-918.97455 592.37042 1204.9182 2107947
-912.25604 592.9104 1206.0165 2239533
-905.16345 593.21411 1206.6343 2305326
-897.51349 593.15466 1206.5133 2239533
-889.14038 592.61218 1205.4099 2305326
-882.08618 592.94696 1206.0908 2436912
-874.5296 592.94696 1206.0908 2436912
-865.90485 592.21631 1204.6047 2568755
-859.4118 592.9436 1206.0841 2305326
-850.69714 592.13745 1204.4443 1647396
-841.9491 591.2934 1202.7275 1647396
-845.67755 599.27539 1218.9634 1581603
-839.99127 600.67053 1221.8011 1647396
-832.33636 600.67053 1221.8011 1713189
-825.96472 601.60529 1223.7024 2436912
-823.63611 605.52991 1231.6854 2568498
-816.22235 605.75488 1232.1431 2502705
-809.43732 606.4552 1233.5675 2568498
-802.53473 607.08014 1234.8386 2502705
-792.90393 605.63336 1231.8958 2370862
-782.81384 603.80383 1228.1744 2042924
-772.7702 601.97424 1224.4529 2240046
-762.12537 599.63489 1219.6946 2042667
-753.54175 598.88629 1218.1719 1516323
-746.19257 599.11359 1218.6342 1647909
-740.04706 600.3219 1221.092 2042667
-732.7439 600.60663 1221.6711 2042667
-718.8714 595.45587 1211.1942 2306096
-717.0166 600.25592 1220.9578 2569011
-712.01331 602.49524 1225.5127 2569011
-704.98309 603.0495 1226.6401 2766390
-695.58575 601.56891 1223.6284 2832183
-688.8689 602.39923 1225.3174 2897976
-683.49298 604.43414 1229.4565 2897976
-677.90741 606.328 1233.3087 2371632
-671.96344 607.94116 1236.59 2174253
-664.21582 607.94116 1236.59 2371633
-647.30432 599.45471 1219.328 2897463
-643.90955 603.4325 1227.4192 3358014
-637.3916 604.54443 1229.6808 3029049
-624.88074 599.92975 1220.2943 2700084
-617.23523 599.92975 1220.2943 3160635
-610.86584 601.18573 1222.849 2634291
-605.63153 603.60474 1227.7695 2502705
-594.5816 600.21533 1220.8752 2700084
-589.6076 602.95105 1226.4398 2897463
-581.78046 602.8028 1226.1382 2568498
-573.34576 602.01257 1224.531 2173740
-566.24054 602.61578 1225.7579 2108204
-559.00696 603.09723 1226.7372 1844775
-552.89062 604.81415 1230.2295 2305326
-543.51874 602.96802 1226.4744 2239533
-535.26569 602.32794 1225.1724 2239533
-528.0285 602.82904 1226.1917 2239276
-516.38379 598.23871 1216.8546 2634548
-507.98343 597.32574 1214.9977 2831928
-501.13327 598.2356 1216.8484 2042155
-493.50934 598.2356 1216.8484 3687237
-492.16821 605.97119 1232.583 5003097
-482.72922 603.82416 1228.2158 3095099
-473.25064 601.55719 1223.6046 2634291
-467.29413 603.7663 1228.0981 2239790
-459.74957 603.96313 1228.4985 1910568
-453.28378 605.60803 1231.8442 1647396
-445.16794 605.06708 1230.744 1844775
-437.28992 604.83606 1230.274 2305326
-432.06732 608.33557 1237.3922 2568498
-419.90079 602.00732 1224.5203 2502705
-411.38867 600.78046 1222.0248 2502705
-405.01849 602.69446 1225.9178 2239533
-399.1955 605.51233 1231.6497 2371119
-390.70386 604.3136 1229.2114 2371119
-377.3031 595.32098 1210.9198 2700084
-369.29251 594.63861 1209.5317 3094842
-363.07547 596.87604 1214.0829 2568498
-355.65826 597.19409 1214.7299 2700084
-347.58762 596.40485 1213.1244 3226428
-340.43066 597.18304 1214.7074 3226428
-333.23911 597.93481 1216.2365 3423807
-324.26657 595.45142 1211.1851 2700341
-316.27426 594.69196 1209.6403 2436912
-309.31165 595.87897 1212.0548 3029049
-301.71774 595.87897 1212.0548 2831927
-294.27588 596.18701 1212.6813 2831670
-284.48367 591.62341 1203.3988 2963256
-277.32397 592.43512 1205.0498 2305326
-270.86273 594.82617 1209.9133 2502705
-262.40155 592.83643 1205.8661 2634291
-255.23424 593.73859 1207.701 2568498
-248.66843 596.13782 1212.5813 2239533
-240.78059 595.41913 1211.1194 2371119
-234.65091 599.14276 1218.6936 2634291
-226.60603 598.06238 1216.496 2963256
-218.81148 597.59027 1215.5358 2568498
-211.4865 598.41296 1217.2091 2371119
-204.71498 600.92175 1222.3121 2305326
-196.76999 600.04712 1220.5331 2436912
-189.42101 600.99274 1222.4564 2042154
-184.10129 608.72772 1238.1899 2107947
-176.14592 608.04517 1236.8016 2436912
-167.92017 606.32355 1233.2997 2700084
-160.49208 607.45496 1235.6011 2634291
-152.70482 607.27264 1235.2302 2634804
-145.68921 610.30334 1241.3949 2569011
-137.28346 607.52417 1235.7418 2437425
-128.8488 604.27722 1229.1373 2240046
-121.51366 606.10168 1232.8484 2240046
-113.78947 606.10168 1232.8484 2371632
-105.40672 602.33826 1225.1934 2503218
-99.232536 611.5957 1244.0236 2240046
-91.475388 611.84351 1244.5276 1976874
-83.489395 610.46411 1241.7219 2108460
-75.670319 610.14722 1241.0773 2042411
-67.749847 608.8465 1238.4315 1910824
-60.114315 610.10126 1240.9838 2108204
-52.341171 610.12457 1241.0312 1911081
-44.455601 608.61688 1237.9645 1977131
-36.69574 608.55676 1237.8422 1911081
-28.900642 607.72333 1236.1469 1845288
-21.116722 606.60077 1233.8636 1845288
-13.348468 604.89172 1230.3872 1779495
-5.6163807 602.38947 1225.2975 2174253
2.0663285 604.09698 1228.7708 2569011
9.8120871 607.01257 1234.7013 2174510
17.4872 604.91376 1230.4321 2107947
25.04632 601.31451 1223.111 1976361
32.709488 601.31451 1223.111 2239533
40.456512 602.56342 1225.6514 2107947
48.154785 602.80359 1226.1399 1976361
55.862244 603.0769 1226.6958 1976361
63.628101 603.83826 1228.2445 2107947
71.236603 603.10315 1226.7491 2305326
78.554825 600.29297 1221.0331 1910568
86.259483 600.67249 1221.8051 1844518
94.017059 601.32867 1223.1398 1976361
101.68041 601.32867 1223.1398 1976361
110.27914 606.47272 1233.6031 2173996
117.98582 606.35852 1233.3708 2108460
125.50628 605.36011 1231.34 2371632
133.12762 604.93573 1230.4768 2371632
140.15762 602.01788 1224.5417 2371632
148.6922 605.53009 1231.6857 2174253
156.04065 604.1037 1228.7844 2174254
162.39522 599.14453 1218.6971 2502961
170.3172 600.15399 1220.7505 2436656
177.96559 600.15399 1220.7505 2305326
186.44437 602.83899 1226.2119 2239533
193.98198 602.38873 1225.296 2239533
200.95251 600.27881 1221.0044 2042154
208.27364 599.33258 1219.0796 2173740
215.46747 598.09979 1216.5721 1713189
222.88408 597.54865 1215.451 1581603
231.08543 599.06824 1218.542 1713189
239.72285 601.58496 1223.6611 1844775
247.91179 602.85516 1226.2448 1713189
255.16682 601.84613 1224.1924 1647396
263.3461 603.01239 1226.5647 1778982
269.87393 600.43829 1221.3287 1976361
277.64621 600.69855 1221.858 2305326
285.39542 600.89624 1222.2601 2107947
295.9548 606.8457 1234.3618 1976361
303.95969 607.3877 1235.4642 1778982
312.50494 608.95575 1238.6538 1647396
320.07547 608.59442 1237.9188 1647396
327.83142 608.59442 1237.9188 1581603
335.91425 609.18719 1239.1246 1713189
343.66406 609.16296 1239.0753 1647652
353.78931 613.25739 1247.4036 1647396
359.77264 610.15039 1241.0837 1778982
367.16028 609.50604 1239.7731 2042154
376.16031 611.50964 1243.8485 2042154
384.46524 612.32477 1245.5066 2107948
393.50821 614.25964 1249.4421 2239534
401.46191 614.45178 1249.833 2107948
409.5394 614.82239 1250.5869 1778983
416.17499 613.05518 1246.9922 1976362
425.83655 615.72833 1252.4296 2042156
433.37952 615.29688 1251.552 1976619
443.14044 617.97375 1256.9969 1976362
448.61871 614.68921 1250.3159 2371377
458.16309 616.99298 1255.002 2963512
466.55978 617.69965 1256.4393 3489601
475.53278 619.13306 1259.3551 2963257
482.74728 618.26764 1257.5947 2371120
489.95279 617.41864 1255.8678 2305326
497.64764 617.20343 1255.4301 1910568
505.81052 617.56635 1256.1682 1779239
514.47833 618.52515 1258.1185 1778982
521.41602 617.40631 1255.8428 1779239
529.51477 617.67523 1256.3898 1581860
536.08441 616.17871 1253.3457 1450273
541.28973 613.17987 1247.2458 1450016
547.1355 610.98145 1242.7742 1318432
554.75006 610.79236 1242.3895 2042154
560.50085 608.58478 1237.8992 2568498
565.63708 605.7793 1232.1926 2173740
572.21124 604.56848 1229.7299 2239533
575.61768 600.08765 1220.6155 2436912
581.99652 598.78235 1217.9604 2305326
590.55084 599.72015 1219.8679 2436912
596.81427 598.33716 1217.0548 2700084
604.22003 598.11993 1216.613 2371119
610.0127 596.33112 1212.9745 2305326
609.71368 588.70465 1197.4618 2305326
617.49054 588.96631 1197.994 2963513
620.86957 585.07745 1190.0839 2963256
628.6098 585.34198 1190.6218 2305326
641.82892 590.64209 1201.4027 2042154
654.66394 595.47003 1211.223 2173740
664.76514 597.72913 1215.8181 2173740
672.34534 597.69604 1215.7509 2239533
674.12982 592.56909 1205.3223 2436912
682.83234 593.56946 1207.3571 2502705
694.11908 596.76971 1213.8666 2436912
702.01422 597.01624 1214.368 2371119
708.57532 596.13513 1212.5758 2371119
716.17249 596.13513 1212.5758 2765877
721.5871 594.33752 1208.9193 2831670
728.01642 593.40424 1207.021 2700341
734.74438 592.73108 1205.6519 2766134
739.38849 590.40771 1200.9259 2700084
748.11768 591.36023 1202.8634 2502705
754.94434 590.80487 1201.7338 2502705
761.9538 590.4021 1200.9146 2371119
770.37646 591.09155 1202.3169 2305326
777.76361 590.98083 1202.0917 2371119
783.97705 589.98895 1200.0741 2502705
788.14948 587.49451 1195.0002 2502705
789.2002 582.74194 1185.3333 2173740
797.25385 583.20074 1186.2665 2305069
808.1673 585.72369 1191.3983 2304813
819.3844 588.41852 1196.8798 1975848
826.88318 588.41852 1196.8798 1844262
840.34332 592.6225 1205.4309 1976105
847.37494 592.25854 1204.6906 2042154
854.66211 592.078 1204.3234 2239533
862.48315 592.26721 1204.7083 2239533
871.27563 593.1145 1206.4316 2305326
876.00751 591.20673 1202.5511 2436912
884.88617 592.10626 1204.3809 2502962
894.10583 593.2168 1206.6398 2502192
903.46075 594.39764 1209.0417 2370606
908.77893 592.92529 1206.0468 2370606
913.83417 591.30695 1202.755 2962743
926.22009 594.41968 1209.0865 3094329
935.60284 595.57031 1211.4269 2896950
947.91321 598.5509 1217.4897 2567985
955.54126 598.5509 1217.4897 2436399
958.64783 595.74121 1211.7747 2041641
966.24005 595.74121 1211.7747 2436399
976.12726 597.14526 1214.6305 2699828
990.26587 601.10822 1222.6914 2962743
998.64551 601.54138 1223.5725 2765364
1006.3116 601.54138 1223.5725 2765364
1014.1213 601.62665 1223.7458 2567985
1022.4152 601.99567 1224.4965 2633778
1029.6887 601.76282 1224.0229 2436399
1040.7837 603.75031 1228.0656 2239020
1047.5128 603.19458 1226.9352 2239020
1055.8098 603.54315 1227.6443 2239020
1063.7661 603.69342 1227.9498 1975848
1073.7692 604.99475 1230.5968 1844262
1078.4069 603.276 1227.1007 1646883
1085.4181 602.90002 1226.3359 1515297
1092.3065 602.46149 1225.4441 1645857
1099.9844 602.46149 1225.4441 1646113
1108.5563 602.94788 1226.4333 1580320
1115.4927 602.54401 1225.6119 1514527
1119.3826 600.51135 1221.4774 1514784
1121.9984 597.82751 1216.0182 1449504
1129.358 597.69037 1215.7394 1515554
1139.3356 598.93134 1218.2634 1778469
1146.1777 598.51849 1217.4237 2041641
1153.8053 598.51849 1217.4237 2173227
1162.8744 599.26135 1218.9347 2436399
1170.522 599.26672 1218.9457 2304813
1178.6141 599.49823 1219.4165 2173227
1187.3872 600.07086 1220.5813 2041641
1195.1407 600.12408 1220.6897 2173227
1204.5867 601.02118 1222.5144 2041641
1212.5435 601.1687 1222.8143 1975848
1221.8307 601.96973 1224.4437 2107434
1232.1807 603.28113 1227.1112 2173227
1240.5878 603.63086 1227.8226 1975848
1253.983 606.38849 1233.4318 1974823
1258.7506 604.96576 1230.5378 1778212
nan nan nan 16777215
nan nan nan 16777215
nan nan nan 16777215
nan nan nan 16777215
nan nan nan 16777215
nan nan nan 16777215
nan nan nan 16777215
nan nan nan 16777215
nan nan nan 16777215
nan nan nan 16777215
nan nan nan 16777215
nan nan nan 16777215
nan nan nan 16777215
nan nan nan 16777215
nan nan nan 16777215
nan nan nan 16777215
nan nan nan 16777215
-1050.1115 601.48389 1208.1404 2436912
-1053.0083 607.52234 1220.2692 2436912
-1042.1415 605.65021 1216.5088 2502705
-1032.8131 604.65106 1214.502 2502705
-1022.1985 602.87854 1210.9417 2239533
-1013.7501 602.36664 1209.9135 2173740
-1006.1696 602.36664 1209.9135 2173740
-995.24707 600.35059 1205.8641 2173740
-986.19739 599.4422 1204.0394 2239533
-976.96814 598.40967 1201.9656 2173740
-964.87244 595.59186 1196.3057 2107947
-956.19775 594.85809 1194.8319 1976618
-948.35522 594.63452 1194.3828 2239533
-938.10822 592.88782 1190.8743 2436912
-926.46649 590.22449 1185.5248 2436912
-920.45404 591.13342 1187.3505 2371119
-914.6402 592.18567 1189.4641 1910568
-909.28003 593.55139 1192.2073 2239533
-901.34082 593.24231 1191.5863 2436912
-892.17859 592.11633 1189.3247 2239533
-883.93866 591.58862 1188.2648 2305326
-877.72266 592.41803 1189.9308 2568498
-869.54724 591.92786 1188.9462 2568498
-862.75629 592.37976 1189.8539 2568498
-856.50586 593.21393 1191.5293 2568498
-852.38507 595.5506 1196.2229 2173740
-842.56409 593.91089 1192.9293 2042154
-833.45746 592.74982 1190.5972 1647396
-831.64032 596.79883 1198.7301 1713189
-827.65558 599.35199 1203.8583 1515810
-818.77966 598.37756 1201.901 1713189
-811.24939 598.37756 1201.901 2502705
-812.9809 605.27301 1215.7513 2634291
-806.8493 606.38947 1217.9938 2634548
-799.13483 606.32623 1217.8667 2502705
-793.047 607.50787 1220.2401 2436912
-784.20953 606.58557 1218.3877 2305326
-774.02911 604.59619 1214.3918 2371888
-765.73224 604.05328 1213.3013 2503218
-758.95428 604.70959 1214.6196 2108460
-749.86786 603.52124 1212.2327 1911081
-743.367 604.41089 1214.0197 2042667
-724.44104 595.112 1195.3418 2305839
-713.92316 592.59796 1190.2922 2437425
-707.77216 593.69391 1192.4935 2635061
-702.33624 595.41949 1195.9595 2569011
-697.92633 598.06152 1201.2662 2700597
-688.80206 596.67731 1198.4858 2766390
-682.20734 597.47791 1200.094 2700597
-678.6582 600.99347 1207.1553 2305839
-671.92413 601.7359 1208.6466 2174253
-664.98352 602.30835 1209.7964 2240046
-655.60461 600.65997 1206.4855 2174253
-649.82373 602.30804 1209.7958 2502961
-642.36078 602.4176 1210.0159 2897463
-635.4682 603.07098 1211.3282 3358014
-627.89258 603.08423 1211.3549 3094842
-618.65479 601.48169 1208.136 3160635
-611.9469 602.32959 1209.8391 3358014
-601.84949 599.82068 1204.7997 3094842
-592.25439 597.755 1200.6506 2765877
-588.73431 601.8465 1208.8688 2831670
-573.21686 593.62024 1192.3456 3029049
-575.55847 603.91577 1213.025 2371119
-567.96667 603.92438 1213.0425 2305326
-557.23804 600.55273 1206.27 2173740
-551.02142 602.01782 1209.2129 1976361
-546.25104 605.12598 1215.4559 2107947
-537.12006 603.42303 1212.0354 2173740
-529.93323 603.88684 1212.9669 2371119
-517.0675 597.79852 1200.738 2502705
-509.54456 597.79852 1200.738 3094585
-501.89252 597.64484 1200.4293 2897463
-496.78815 600.56647 1206.2976 2173740
-491.39291 603.22113 1211.6299 2634291
-483.99231 603.45892 1212.1074 2897463
-476.39813 603.45892 1212.1074 2634291
-467.64856 601.97174 1209.1204 2766134
-458.68076 600.15002 1205.4612 2437169
-456.36945 607.12262 1219.4664 2436912
-446.93893 604.70056 1214.6014 2634291
-438.83273 604.0174 1213.2292 2568241
-432.3013 605.51587 1216.2391 2502962
-424.34525 605.03693 1215.277 2502705
-416.77328 605.09802 1215.3998 2305070
-408.84314 604.63177 1214.4633 2239533
-400.93054 604.17426 1213.5443 2239533
-392.95679 603.6051 1212.4011 2436912
-383.78418 601.13568 1207.441 2700084
-373.9256 597.47095 1200.0801 3358014
-366.65558 597.87677 1200.8951 3358014
-357.92682 595.87103 1196.8665 2765877
-352.77066 599.85443 1204.8674 2700084
-343.84802 597.46729 1200.0728 2831670
-336.37289 597.54498 1200.2288 2765877
-328.54694 596.98871 1199.1113 2634548
-318.03156 591.40509 1187.8962 2765877
-312.41977 594.89111 1194.8982 3029049
-303.76706 592.61578 1190.328 2963256
-297.69858 595.39441 1195.9091 2963256
-290.44888 595.89307 1196.9106 2831670
-282.9595 595.91333 1196.9514 2765877
-274.58014 594.00934 1193.1271 2371119
-266.92673 593.61334 1192.3317 2173740
-258.95505 592.46631 1190.0277 2700084
-252.12497 593.94049 1192.9888 2502705
-244.85085 594.42682 1193.9656 2568498
-237.40607 594.51648 1194.1456 2700084
-229.4664 593.33228 1191.7671 2634291
-222.33278 594.22272 1193.5557 2502705
-215.86125 597.00635 1199.1467 2436912
-207.75186 595.29742 1195.7144 2239533
-201.05309 597.65405 1200.4478 2042154
-193.28583 596.89404 1198.9213 2042154
-185.00589 594.42542 1193.9628 2042154
-177.98611 595.96826 1197.0618 2107947
-170.48615 595.96826 1197.0618 2700084
-165.63258 605.64496 1216.4984 2371119
-158.16695 606.24329 1217.7002 2437169
-150.7374 607.04761 1219.3157 2371888
-143.61195 609.22791 1223.6951 2371632
-136.30748 610.85181 1226.9568 2174253
-128.43567 609.97528 1225.1963 2042667
-120.75272 609.94135 1225.1281 2305839
-113.00809 609.57019 1224.3826 2174253
-104.56492 605.10248 1215.4087 2634804
-97.217346 606.77112 1218.7603 2371632
-89.52623 606.39709 1218.0092 2174253
-81.896202 606.40582 1218.0266 2042667
-74.147652 605.44855 1216.1039 1845288
-66.51416 605.31915 1215.8439 1976874
-58.978355 606.16022 1217.5332 2240303
-51.192818 604.30316 1213.8032 2305839
-43.558266 603.89142 1212.9762 2174253
-35.988533 604.39423 1213.9862 1976874
-28.338261 603.45148 1212.0925 1779495
-20.718369 602.70221 1210.5875 1845288
-13.129574 602.51459 1210.2107 1779495
-5.5537477 603.22278 1211.6331 2240046
2.0364611 602.91241 1211.0098 2108460
9.6238127 602.91241 1211.0098 2042667
17.195934 602.37891 1209.9381 2370863
24.797903 602.89752 1210.9799 2173740
32.236118 600.12457 1205.4102 2700084
39.437935 594.83881 1194.7931 2371119
47.293159 599.52252 1204.2008 1779239
54.929554 600.52509 1206.2145 1844775
62.600361 601.61584 1208.4054 2042154
70.346741 603.1192 1211.425 2107947
77.846092 602.41803 1210.0167 1910568
85.23967 601.0954 1207.3601 1713959
92.875862 601.55988 1208.2931 1845288
100.43089 601.46826 1208.109 1779494
108.03954 601.68799 1208.5504 1779495
116.18808 604.6889 1214.578 1976874
124.30483 607.16559 1219.5526 2240046
131.63109 605.71783 1216.6447 3029562
139.19255 605.4516 1216.11 2832183
146.09904 602.51202 1210.2054 2305839
153.63333 602.32373 1209.8273 2240046
161.21329 602.32373 1209.8273 2700340
167.59714 598.05554 1201.2543 2634803
174.52188 596.00146 1197.1284 2173997
183.67531 601.41412 1208.0002 2108204
191.43977 602.0304 1209.2382 2371119
198.92145 601.74426 1208.6635 2239533
206.78085 602.5799 1210.3419 2042154
214.30978 602.42743 1210.0356 1581860
220.60114 598.92542 1203.0015 1318431
228.05695 598.71179 1202.5724 1581603
236.24715 600.37823 1205.9196 2042154
241.96928 595.86353 1196.8513 1910568
252.00812 601.93085 1209.0382 1713189
260.34537 603.69836 1212.5885 1713189
267.74515 603.25348 1211.6948 1976361
275.1597 602.86542 1210.9154 2173740
283.99631 605.53033 1216.2682 1976618
292.46906 607.30048 1219.8236 1844775
300.26239 607.60559 1220.4364 2173740
308.0975 607.97797 1221.1843 2042154
315.72556 607.93353 1221.0952 1976361
322.457 606.20569 1217.6246 1778982
330.08582 606.20569 1217.6246 1581603
339.64224 609.66583 1224.5747 1581603
348.32281 611.43561 1228.1295 1647396
356.69464 612.59875 1230.4657 1778982
361.25458 607.30444 1219.8315 2042154
369.83728 608.85211 1222.9402 2108204
378.91528 611.13574 1227.5271 1910568
386.60611 611.13574 1227.5271 1910568
395.63867 613.21527 1231.7041 2042154
402.71851 612.24664 1229.7584 2107948
411.18903 613.38885 1232.0527 2042155
420.02939 615.03046 1235.3501 2173741
427.42896 614.54126 1234.3674 2371119
436.52667 616.46753 1238.2366 1976361
447.1293 620.41467 1246.1648 2502706
452.93018 617.67798 1240.668 2568498
463.1731 620.98926 1247.319 2173740
469.21063 618.646 1242.6122 2305326
481.12683 624.00348 1253.3733 2436912
484.10764 617.78619 1240.8853 2107947
491.98621 617.91693 1241.1478 1450017
499.7421 617.89185 1241.0974 1450274
508.75244 619.39478 1244.1162 1581603
515.18488 617.76117 1240.835 1910568
519.45624 613.62329 1232.5237 2173740
528.62988 615.31293 1235.9174 1647396
534.7926 613.49957 1232.2751 1778982
540.44769 611.16382 1227.5835 1647396
547.50256 610.45422 1226.1583 1384224
551.94061 606.88715 1218.9934 1450274
559.30914 606.59546 1218.4076 1844775
565.28815 604.82507 1214.8516 2107947
569.21313 600.93323 1207.0343 1976361
574.17987 598.22882 1201.6023 1647396
577.86951 594.28101 1193.6727 2173740
585.34827 594.28101 1193.6727 2634291
591.94513 593.39703 1191.8971 2107947
598.81067 592.80096 1190.7 1779239
605.28613 591.8382 1188.7661 1976361
612.73413 591.8382 1188.7661 2239533
623.33203 594.84418 1194.804 2634548
626.90845 591.15771 1187.3993 2897463
633.78839 590.63635 1186.3521 2502705
642.92242 592.20331 1189.4995 1910568
654.06293 595.5614 1196.2445 1910568
663.34393 597.16931 1199.4742 2042154
666.85913 593.60889 1192.3226 2107947
674.32947 593.60889 1192.3226 2634292
685.78418 597.07794 1199.2906 2568755
692.88977 596.72626 1198.5842 2436912
702.01495 598.10284 1201.3492 2502962
708.30396 597.05939 1199.2534 2700084
714.87769 596.27533 1197.6786 2700084
721.16229 595.26898 1195.6572 2897463
728.10516 594.82104 1194.7574 2765877
735.2627 594.55579 1194.2247 2700084
739.22943 591.74176 1188.5724 2568498
746.65985 591.72882 1188.5464 2502705
754.06494 591.69623 1188.481 2502705
762.85297 592.73877 1190.5751 2173740
767.30951 590.42828 1185.9341 1647140
774.06891 589.91705 1184.9072 1713189
777.91595 587.2171 1179.4841 1910568
781.30029 584.22192 1173.468 1647396
784.32294 581.01471 1167.026 2436912
797.32422 585.19049 1175.4135 2766134
806.71881 586.66693 1178.379 2436912
817.60217 589.18945 1183.4458 1844775
826.61371 590.3299 1185.7365 2173740
838.89429 593.76373 1192.6338 2305582
844.63098 592.54626 1190.1882 2239533
852.77643 593.02502 1191.15 2239533
861.63971 593.99042 1193.089 2173740
865.90405 591.79608 1188.6815 2371119
875.37689 593.16846 1191.4381 2239533
881.52734 592.28552 1189.6646 2239277
891.9516 594.26465 1193.6399 2370606
895.27747 591.52094 1188.1289 2370606
902.72156 591.52094 1188.1289 2370606
914.5011 594.33868 1193.7886 3094329
923.76123 595.48657 1196.0942 3028536
934.37225 597.4798 1200.0978 2502192
944.11273 598.88904 1202.9283 2370606
945.09058 594.76135 1194.6376 2173227
949.47571 592.82611 1190.7504 2041641
956.04993 592.27704 1189.6476 2370606
974.63538 599.11993 1203.3922 2699571
986.7663 601.92065 1209.0177 2436399
990.57648 599.64172 1204.4402 2173227
1002.7219 602.40479 1209.9901 2107434
1012.4802 603.703 1212.5978 2304813
1021.5112 604.55157 1214.3021 2304813
1026.0378 602.74139 1210.6663 2239020
1035.1947 603.6579 1212.5071 1910055
1043.9857 604.34924 1213.8958 2041641
1050.8903 603.94641 1213.0867 2107434
1059.593 604.5755 1214.3502 2173484
1068.181 605.13049 1215.465 1844262
1072.2281 603.12341 1211.4336 1778469
1077.0789 601.59338 1208.3604 1581347
1088.3979 603.67242 1212.5363 1646370
1095.1174 603.18909 1211.5654 1580577
1101.8928 602.74304 1210.6696 1514527
1105.578 600.62427 1206.4138 1382941
1112.9248 600.51001 1206.1843 1448990
1118.4307 599.41064 1203.9762 1383454
1111.2552 591.5752 1188.2378 1712676
1126.8016 595.85944 1196.8431 1778469
1133.2216 595.29279 1195.705 1975848
1144.1821 597.10321 1199.3414 1975848
1154.5135 598.56372 1202.275 2239020
1162.3944 598.7431 1202.6353 2239020
1171.1014 599.34302 1203.8402 2107434
1181.8027 600.94928 1207.0667 2107434
1188.6273 600.57635 1206.3176 2173227
1197.2692 601.12054 1207.4106 2173227
1205.8795 601.64227 1208.4585 2239020
1216.38 603.09448 1211.3755 2173227
1226.2186 604.20264 1213.6013 1910055
1231.8408 603.23242 1211.6525 1778727
1239.4323 603.23242 1211.6525 1647140
nan nan nan 16777215
nan nan nan 16777215
nan nan nan 16777215
nan nan nan 16777215
nan nan nan 16777215
nan nan nan 16777215
nan nan nan 16777215
nan nan nan 16777215
nan nan nan 16777215
nan nan nan 16777215
nan nan nan 16777215
nan nan nan 16777215
nan nan nan 16777215
nan nan nan 16777215
nan nan nan 16777215
nan nan nan 16777215
nan nan nan 16777215
-1049.9269 608.90619 1207.9281 2502705
-1042.3589 608.90619 1207.9281 2436912
-1033.9918 608.43604 1206.9955 2305326
-1020.5492 604.95032 1200.0806 2239533
-1011.6406 604.12048 1198.4343 2305326
-1002.9708 603.42181 1197.0483 2239533
-994.92389 603.09015 1196.3905 2239533
-990.1557 604.7561 1199.6953 1976361
-978.41022 602.15338 1194.5321 1647396
-965.48077 598.77631 1187.8328 1450017
-955.05109 596.90906 1184.1285 1515810
-946.21423 596.01593 1182.3568 1976361
-942.33484 598.25604 1186.8007 2305326
-934.12933 597.76337 1185.8234 2634291
-922.3877 594.98187 1180.3055 2568498
-918.297 597.13055 1184.568 2436912
-906.64996 594.3606 1179.073 2568498
-902.07916 596.22205 1182.7657 2700084
-890.71899 593.5899 1177.5441 2502705
-882.75104 593.19324 1176.7573 2042154
-875.37836 593.19324 1176.7573 2107947
-866.5849 592.22235 1174.8313 2568498
-861.46918 593.76971 1177.9009 2634291
-852.91583 592.95398 1176.2826 2634291
-848.40784 594.96088 1180.2638 2568498
-847.92896 599.85327 1189.9692 2436912
-837.13617 597.47144 1185.2443 2502705
-827.88055 596.15393 1182.6306 1910568
-823.66785 598.47675 1187.2385 1976361
-818.73706 600.31543 1190.886 1713189
-813.63934 602.06433 1194.3555 1910568
-800.99902 598.21271 1186.7147 2239533
-796.36365 600.32318 1190.9015 2765877
-795.41754 605.28107 1200.7367 2897463
-789.77264 606.72388 1203.5989 2502705
-783.75348 607.90424 1205.9404 2502705
-775.70093 607.51495 1205.1682 2634035
-764.30206 604.47156 1199.1309 2832183
-754.00482 602.24768 1194.7191 2700597
-744.62366 600.7182 1191.6851 2108460
-738.76685 602.02972 1194.2869 2108460
-731.28424 602.02972 1194.2869 2634804
-719.20117 598.20325 1186.6959 2569011
-709.84717 596.59039 1183.4965 2306095
-703.65247 597.62683 1185.5525 2569267
-696.79663 598.11786 1186.5265 2700597
-689.12872 597.91486 1186.1239 2569268
-680.79254 597.12128 1184.5496 2634804
-673.2489 597.01306 1184.3348 2437682
-669.30743 600.13226 1190.5227 2305839
-663.55615 601.68073 1193.5945 2174253
-654.73993 600.45367 1191.1603 2107947
-647.90857 601.03961 1192.3226 2436912
-640.56738 601.16077 1192.563 2634291
-634.7663 602.74719 1195.7101 2568498
-627.27484 602.74719 1195.7101 2568498
-621.53387 604.44965 1199.0874 3226428
-615.86493 606.26465 1202.6879 3358014
-609.67834 607.6087 1205.3541 3226428
-601.50909 606.98572 1204.1183 3160635
-589.57434 602.4989 1195.2175 2700341
-582.16943 602.58527 1195.3889 2765877
-569.55579 597.21234 1184.7302 2897720
-569.56592 605.10901 1200.3954 2239533
-562.79712 605.91858 1202.0015 2173740
-552.57916 602.98651 1196.1848 1976361
-544.93896 602.82526 1195.865 2239533
-536.71204 602.00146 1194.2307 2239533
-529.52332 602.33533 1194.8931 1910568
-525.24756 606.03986 1202.2419 2502705
-516.80225 604.97119 1200.1219 2897463
-507.27432 602.58496 1195.3882 3160635
-500.46808 603.40875 1197.0225 2897463
-494.37143 605.1261 1200.4293 2239533
-485.18787 603.05975 1196.3301 1976361
-480.09802 606.09656 1202.3545 2042154
-475.22412 609.5072 1209.1204 2700084
-467.20715 608.93182 1207.979 2831670
-457.81595 606.51697 1203.1884 2107947
-451.28406 607.87262 1205.8778 2108461
-444.53021 608.9704 1208.0555 2437425
-432.09656 602.19061 1194.606 3358527
-426.06702 604.25415 1198.6996 3490370
-419.26663 605.27893 1200.7324 2437682
-411.89322 605.49878 1201.1686 2239790
-404.45963 605.63666 1201.4421 2305839
-398.99084 608.77771 1207.6732 2437425
-387.95807 603.38654 1196.9784 2305326
-376.30481 596.79883 1183.9099 2831670
-369.39578 597.62152 1185.542 3555393
-359.98792 594.35242 1179.0568 3358014
-352.77933 594.65332 1179.6538 2700341
-347.25745 597.87122 1186.0374 2436912
-342.08362 601.84216 1193.9148 3160635
-332.51828 598.0918 1186.4749 3292221
-325.32935 598.54199 1187.3679 3094842
-317.90881 598.57715 1187.4377 3555393
-310.32635 598.30188 1186.8916 3160635
-302.23566 597.00916 1184.3271 2765877
-294.7587 596.89417 1184.0991 3292221
-287.36584 596.94794 1184.2057 3226428
-279.61447 596.24011 1182.8015 3029049
-273.4184 598.90045 1188.0791 2371119
-266.92673 601.04419 1192.3317 2042154
-257.7771 597.15393 1184.6144 2436912
-249.41409 594.90936 1180.1616 2831927
-241.09203 592.6283 1175.6365 2831670
-233.33855 591.64508 1173.6862 3029049
-225.77643 591.09894 1172.6027 2700084
-218.4297 591.09894 1172.6027 2305326
-211.5451 592.39307 1175.1699 2371119
-205.35327 595.79034 1181.9093 2239533
-198.13121 596.34106 1183.0018 1845032
-190.40869 595.36975 1181.075 2107947
-184.02226 598.66644 1187.6149 2107947
-176.06105 596.90204 1184.1146 2042154
-169.18736 598.83154 1187.9424 2700084
-162.90062 603.11182 1196.4333 2436912
-156.10622 605.83466 1201.835 2436912
-148.81456 606.80603 1203.762 2306095
-141.49013 607.7403 1205.6152 2437425
-133.44685 605.51825 1201.2072 2240046
-125.92092 605.51825 1201.2072 2108460
-118.5734 606.43073 1203.0173 2371632
-110.77283 604.99268 1200.1647 2305839
-102.88899 602.85742 1195.9287 2437425
-95.599464 604.14233 1198.4778 2371632
-88.054146 603.89209 1197.9813 2108460
-81.323227 609.70105 1209.5049 2371632
-73.740852 609.66425 1209.4319 2634804
-66.005981 608.21387 1206.5547 2503218
-58.060009 604.19147 1198.5752 2437425
-50.407673 602.48358 1195.1871 2305839
-42.780472 600.53259 1191.3169 2240046
-35.358395 601.24493 1192.73 1911338
-27.909056 601.75134 1193.7345 1845545
-20.429941 601.75134 1193.7345 1911081
-12.92224 600.42322 1191.0999 1911081
-5.4656572 601.08612 1192.4149 2108460
2.0051916 601.08612 1192.4149 2240046
9.5044632 602.88904 1195.9915 1845288
16.977425 602.16913 1194.5634 2305070
24.402121 600.70166 1191.6522 2173740
31.856449 600.48029 1191.2131 2173740
39.319767 600.48029 1191.2131 2239533
46.841724 601.23297 1192.7062 1779239
54.061264 598.43085 1187.1475 1779239
61.628632 599.69122 1189.6477 1844775
69.343788 601.96252 1194.1534 1778982
76.822983 601.9425 1194.1138 1713189
84.304474 601.9425 1194.1138 1779495
91.759819 601.77106 1193.7737 1976874
99.628815 604.13367 1198.4606 1647909
106.76768 602.0481 1194.3232 1713702
115.05377 606.28107 1202.7205 1779495
123.87611 612.64569 1215.3464 2240046
131.47234 612.56042 1215.1772 2700597
138.51814 610.06042 1210.2178 2437425
145.18501 606.23755 1202.6342 2305839
152.11531 603.83765 1197.8733 2108460
160.14301 605.81476 1201.7954 2240046
167.34395 604.6272 1199.4396 2240046
174.16008 602.21112 1194.6467 1911081
180.62109 598.81683 1187.9132 1713959
188.41942 599.9494 1190.1599 1976105
196.17371 600.86078 1191.9679 2042154
203.71104 601.06525 1192.3735 2107947
213.88034 608.74628 1207.6108 1778982
219.0432 602.14001 1194.5056 1450017
226.41431 601.84003 1193.9105 1252895
234.40341 603.14948 1196.5082 1647396
241.3349 601.74072 1193.7135 1778982
249.33272 602.99548 1196.2026 1646883
257.26361 604.0199 1198.2349 1646883
264.77094 604.0199 1198.2349 1778725
272.89294 605.38354 1200.9401 1910311
280.70987 606.01538 1202.1935 1844518
288.49857 606.55481 1203.2635 1976105
297.16064 608.85626 1207.8291 2041897
305.71082 610.81989 1211.7244 2107947
313.04721 610.32184 1210.7365 2107691
320.48868 610.04742 1210.192 1647396
328.07089 610.04742 1210.192 1450017
336.07788 610.8194 1211.7235 1581603
343.66974 610.8194 1211.7235 1647396
351.40857 611.07507 1212.2307 1844775
359.39297 611.73785 1213.5455 2173740
366.6843 611.21796 1212.5142 2108204
375.10016 612.55554 1215.1676 1647396
383.36517 613.59851 1217.2366 1713189
392.13968 615.40033 1220.811 1647653
399.91608 615.59686 1221.2008 1713189
406.81424 614.45941 1218.9445 1713189
414.80063 614.97729 1219.9718 1976361
423.91068 617.11224 1224.207 2765877
433.38153 619.68726 1229.3152 2897720
446.28189 626.99048 1243.8031 3094843
450.62646 622.22906 1234.3577 2897464
461.30383 626.22522 1242.285 1910569
467.98395 624.7525 1239.3635 1976361
475.1456 623.96014 1237.7917 2239533
483.34348 624.53223 1238.9265 1976361
491.10568 624.53223 1238.9265 1647396
495.39093 620.17932 1230.2914 1515809
503.19138 620.29309 1230.5171 1581603
510.33365 619.60431 1229.1506 1515810
516.98401 618.34766 1226.6578 1976361
522.97284 616.34814 1222.6913 2239533
530.67035 616.39111 1222.7765 2436912
537.99677 616.00793 1222.0164 2107947
545.61713 615.96735 1221.9358 1384224
551.27325 613.74115 1217.5195 1450017
553.09808 607.36835 1204.8774 1515810
557.10309 603.52911 1197.2612 1713446
561.08557 599.76782 1189.7997 1844776
566.82471 597.95825 1186.21 1450018
573.39215 597.05804 1184.4241 1647397
580.05884 596.28284 1182.8864 1844775
585.50702 594.29041 1178.9338 1844775
594.56616 595.9671 1182.26 1778982
603.06274 597.04565 1184.3995 1713189
610.4834 597.04565 1184.3995 1844775
623.33203 602.29041 1194.804 2107947
625.61108 597.31909 1184.942 2239533
631.40491 595.78088 1181.8905 2305326
635.87573 593.04443 1176.462 2239533
648.81586 598.17902 1186.6478 1910568
659.19025 600.85858 1191.9635 2173740
663.8302 598.30963 1186.907 2239533
673.22394 600.05432 1190.368 2502705
682.57715 601.72498 1193.6823 2634291
687.69098 599.66266 1189.5912 2765877
693.27881 598.05359 1186.3992 2568755
700.83777 598.16101 1186.6122 2568498
707.22235 597.27429 1184.8531 2700084
714.87427 597.46527 1185.2319 2897463
721.01465 596.40192 1183.1226 2897463
728.13757 596.16467 1182.652 2831670
734.60828 595.40375 1181.1423 2634291
741.0816 594.65997 1179.6669 2502449
747.76782 594.09998 1178.556 2567985
760.19598 598.0683 1186.4283 2304813
763.43622 594.80145 1179.9476 1712676
769.89288 594.07922 1178.5148 1515040
776.75043 593.677 1177.7169 1120282
781.30029 591.53516 1173.468 1186075
786.87451 590.2016 1170.8226 1515297
795.69263 591.30334 1173.0082 2305070
803.04187 591.30334 1173.0082 2436398
814.40704 594.23352 1178.821 2173484
823.23206 595.27435 1180.8857 2239533
837.17407 599.96368 1190.1882 2502705
844.0744 599.56836 1189.4041 2634291
845.94318 595.63708 1181.6053 2305326
853.04309 595.42548 1181.1855 1976361
861.51331 596.16577 1182.6541 2173740
867.43365 595.14392 1180.627 2502705
873.98657 594.5697 1179.4878 2568242
883.38336 595.92352 1182.1736 2831157
887.6474 593.82117 1178.0029 2567985
896.96716 595.10779 1180.5553 2304813
909.37396 598.40472 1187.0956 2567985
919.87939 600.4071 1191.068 2831157
934.37225 604.95898 1200.0978 2436399
937.60583 602.20654 1194.6376 2239020
937.56036 597.40839 1185.1191 2239020
945.82764 597.94073 1186.1752 1910055
952.96484 597.75592 1185.8086 2239020
965.7677 601.1004 1192.4432 2436399
975.03094 602.20734 1194.6392 2239020
987.76215 605.42297 1201.0183 2239020
995.28693 605.42297 1201.0183 1975848
999.05255 603.1535 1196.5161 2041641
1009.188 604.7348 1199.6531 2239020
1017.1855 605.02112 1200.2211 2304813
1026.5909 606.13446 1202.4297 2041641
1031.1012 604.36243 1198.9143 1910055
1037.5665 603.75366 1197.7067 1975848
1046.7285 604.71143 1199.6067 2173227
1054.9746 605.13025 1200.4375 2304813
1066.9125 607.64581 1205.4279 2173227
1067.1433 603.50513 1197.2137 1778469
1075.0433 603.72937 1197.6584 1581090
1082.547 603.72937 1197.6584 1515297
1086.3254 601.66602 1193.5653 1383968
1093.6387 601.57538 1193.3855 1448990
1101.9733 602.04395 1194.3151 1383197
1108.6055 601.5824 1193.3994 1580063
1108.2932 597.38391 1185.0706 1778982
1114.04 596.48547 1183.2882 1844519
1123.076 597.34833 1185 1778469
1131.691 597.97748 1186.248 1778469
1139.8243 598.34552 1186.9781 2041641
1148.2228 598.84705 1187.9731 2041641
1155.4854 598.75354 1187.7876 2173227
1162.8071 598.69171 1187.6649 1976105
1171.8286 599.50024 1189.2689 2041641
1181.9061 600.83533 1191.9175 2107691
1189.8945 601.09839 1192.4393 2107434
1199.5333 602.18665 1194.5981 2173227
1209.7594 603.55444 1197.3115 2107433
1219.2666 604.54895 1199.2843 1910056
1229.3652 605.82269 1201.8112 1646885
nan nan nan 16777215
nan nan nan 16777215
nan nan nan 16777215
nan nan nan 16777215
nan nan nan 16777215
nan nan nan 16777215
nan nan nan 16777215
nan nan nan 16777215
nan nan nan 16777215
nan nan nan 16777215
nan nan nan 16777215
nan nan nan 16777215
nan nan nan 16777215
nan nan nan 16777215
nan nan nan 16777215
nan nan nan 16777215
nan nan nan 16777215
nan nan nan 16777215
-1031.7776 610.17664 1195.6661 2305326
-1023.6768 609.81354 1194.9546 2305326
-1012.0415 607.32397 1190.0763 2371119
-1002.7069 606.18835 1187.851 2371119
-993.99243 605.41351 1186.3326 2239533
-985.56891 604.80554 1185.1412 2108204
-976.93103 604.05573 1183.672 1779239
-968.36987 603.34222 1182.2739 1450017
-951.87585 597.63721 1171.0946 1581603
-944.35297 597.51971 1170.8644 2042154
-933.96417 595.57294 1167.0496 2634291
