# .PCD v0.7 - Point Cloud Data file format
VERSION 0.7
FIELDS x y z rgb
SIZE 4 4 4 4
TYPE F F F U
COUNT 1 1 1 1
WIDTH 1286
HEIGHT 1
VIEWPOINT 0 0 0 1 0 0 0
POINTS 1286
DATA ascii
144.49597 603.36029 1196.9264 3028788
151.1255 599.90845 1190.0787 2634030
159.71486 604.19513 1198.5824 2699823
166.30365 600.86853 1191.9833 2897202
173.12819 598.64307 1187.5685 2568237
179.49524 595.08429 1180.5087 2305321
186.77644 594.71796 1179.782 2634287
194.43657 595.54016 1181.413 2700336
203.76141 601.21387 1192.6683 2634543
213.21915 606.86444 1203.8777 2239785
218.34244 600.21362 1190.6841 1910820
225.12483 598.41248 1187.111 1845027
232.69456 598.75244 1187.7854 2042406
240.29018 599.13586 1188.546 2371371
248.23482 600.34027 1190.9353 2305578
257.25299 603.995 1198.1854 2239786
265.17914 604.95111 1200.0822 2173736
272.02106 603.44934 1197.103 2371116
280.09033 604.67792 1199.5402 2502702
287.90558 605.30817 1200.7904 2568495
296.21503 606.91882 1203.9856 2634544
304.72839 608.85699 1207.8304 2765874
312.29584 608.85699 1207.8304 2700082
319.24805 607.68591 1205.5073 2239531
326.27689 606.71143 1203.5742 1910566
335.69458 610.12274 1210.3414 2173738
342.39456 608.55304 1207.2275 2305324
349.85965 608.38159 1206.8875 2371117
357.45715 608.44287 1207.009 2765875
365.01947 608.44287 1207.009 2831668
374.63788 611.80066 1213.67 2305067
382.25192 611.81671 1213.7019 2239274
389.95801 611.97656 1214.019 2370860
397.69525 612.17828 1214.4192 2436653
405.80106 612.92908 1215.9086 2436653
414.13983 613.99762 1218.0283 2502446
422.11136 614.49292 1219.0109 3423548
431.84027 617.48334 1224.9432 3555134
444.91339 625.06781 1239.989 3818306
449.35992 620.48029 1230.8884 3686720
460.30258 624.86603 1239.5887 2568239
467.48297 624.08374 1238.0369 2699825
474.45132 623.04846 1235.9832 2831411
481.75525 622.4801 1234.8556 2568496
491.74652 625.34711 1240.5431 2173481
495.60672 620.44946 1230.8273 2173481
501.38474 618.06598 1226.099 2173481
509.00842 617.99536 1225.9589 2107688
514.50543 615.38312 1220.7769 2634032
521.90546 615.09027 1220.1958 2962997
530.37769 616.05121 1222.1022 3094583
537.59192 615.54437 1221.0967 2897204
545.24243 615.54437 1221.0967 2041895
547.34235 609.36475 1208.8378 2173481
552.00281 606.16559 1202.4915 2107688
556.30524 602.66479 1195.5466 2436653
559.27472 597.83215 1185.9597 2502702
565.55969 596.62378 1183.5626 2041895
571.76233 595.36096 1181.0575 2239274
578.42004 594.59821 1179.5444 2502446
581.71106 590.4375 1171.2905 2502446
591.56403 592.95789 1176.2904 2370860
598.93384 592.95789 1176.2904 2370859
604.95886 591.6427 1173.6814 2567469
617.01471 596.18634 1182.6949 2633518
622.80865 594.64343 1179.634 2896690
629.02356 593.53394 1177.4331 3225397
636.40057 593.53394 1177.4331 2962225
647.77472 597.21912 1184.7437 2699053
660.31488 601.88367 1193.9971 3093811
663.29352 597.82593 1185.9474 3028018
668.38654 595.74261 1181.8146 3225397
679.47687 598.99188 1188.2605 3356983
686.28442 598.43622 1187.1581 3554362
690.3905 595.56201 1181.4564 3422520
698.81378 596.43353 1183.1853 3356727
707.04553 597.125 1184.5569 3488569
714.242 596.93677 1184.1836 3685949
718.31921 594.17236 1178.6996 3751742
726.84808 595.10895 1180.5576 3685948
734.48395 595.30292 1180.9424 3291190
741.83063 595.26099 1180.8591 3225397
746.37958 592.99707 1176.368 3225397
760.18671 598.06104 1186.4139 2961968
760.85016 592.78668 1175.9507 2435624
768.4079 592.93329 1176.2416 2106918
775.31213 592.5777 1175.5361 1580831
780.71851 591.09467 1172.5942 1580573
786.61609 590.00781 1170.4381 2107174
795.48212 591.14691 1172.6979 3028018
803.52069 591.65588 1173.7075 3093811
812.08386 592.53839 1175.4583 2764846
826.7157 597.79333 1185.8828 2765102
844.60132 605.28644 1200.7473 3488825
840.76172 597.21527 1184.7361 3554362
844.81531 594.84302 1180.03 2962225
850.18573 593.43103 1177.229 2567467
857.30585 593.25415 1176.8782 2962225
868.66431 595.98822 1182.3019 3291446
874.30261 594.78467 1179.9143 3291448
879.96155 593.61517 1177.5944 3620157
887.30487 593.59204 1177.5483 3225399
895.75519 594.30365 1178.9601 2830641
903.13312 594.29803 1178.9489 3028020
920.29095 600.67572 1191.6008 3422778
935.53094 605.70917 1201.5859 3159606
938.28522 602.64294 1195.5033 2896434
936.39325 596.66467 1183.6438 2896434
944.22852 596.92981 1184.1698 2567469
957.2738 600.4588 1191.1704 2962227
964.38501 600.23981 1190.7361 2962227
971.59863 600.08746 1190.4338 2962227
980.80573 601.15924 1192.5599 2830641
990.08014 602.2558 1194.7352 2633519
998.05951 602.55396 1195.3268 2699312
1007.4302 603.68146 1197.5635 2830641
1009.8227 600.64172 1191.5333 3093813
1024.1194 604.67517 1199.5348 2896691
1023.692 600.01959 1190.2992 2304297
1028.0333 598.2063 1186.702 2699055
1039.3896 600.47168 1191.196 2896434
1046.0707 600.02295 1190.3059 2962227
1055.278 601.01947 1192.2827 3028020
1058.9723 598.88422 1188.0469 2699055
1067.3693 599.41974 1189.1091 2238504
1077.0632 600.67108 1191.5916 2238504
1083.1492 599.90686 1190.0756 2106918
1089.9336 599.53735 1189.3425 1975332
1094.3987 597.90576 1186.1058 1909796
1100.599 597.23773 1184.7806 2041381
1103.809 594.9668 1180.2756 2501676
1112.3324 595.57111 1181.4745 2567469
1121.4485 596.48273 1183.2828 2567469
1129.3137 596.72131 1183.7561 2501676
1142.6274 599.81696 1189.8972 2633262
1150.0825 599.81696 1189.8972 2830641
1154.0162 597.99225 1186.2775 2896434
1162.0116 598.2821 1186.8524 2764848
1169.4476 598.2821 1186.8524 2699055
1176.1045 597.88605 1186.0668 2699055
1184.1617 598.20233 1186.6942 2764848
1191.4933 598.15039 1186.5912 2830641
1201.0577 599.2132 1188.6995 2896434
1214.6304 602.25012 1194.724 2567469
1220.8425 601.62274 1193.4795 2304297
nan nan nan 16777215
nan nan nan 16777215
nan nan nan 16777215
nan nan nan 16777215
nan nan nan 16777215
nan nan nan 16777215
nan nan nan 16777215
nan nan nan 16777215
nan nan nan 16777215
nan nan nan 16777215
nan nan nan 16777215
nan nan nan 16777215
nan nan nan 16777215
nan nan nan 16777215
nan nan nan 16777215
nan nan nan 16777215
nan nan nan 16777215
nan nan nan 16777215
-1031.5148 610.02124 1195.3616 2897204
-1020.7553 608.07318 1191.5443 2897204
-1011.5132 607.00702 1189.4551 3094583
-1003.5027 606.66956 1188.7938 2962997
-994.61847 605.79486 1187.0798 2897204
-983.97449 603.82703 1183.2239 2831411
-984.50922 608.74146 1192.8539 2436653
-972.72308 606.05457 1187.5887 1976102
-957.13599 600.9397 1177.566 2173481
-943.40924 596.92255 1169.6943 2634032
-938.19183 598.2688 1172.3323 3160376
-930.82263 598.2533 1172.3019 3357755
-908.45502 588.52112 1153.2313 4015685
-902.91675 589.6228 1155.3901 4410443
-897.06952 590.53894 1157.1853 4213064
-893.90887 593.25293 1162.5035 3620927
-891.4632 596.48999 1168.8466 3358012
-879.52972 593.37958 1162.7517 3160890
-880.37982 598.91382 1173.5963 2831411
-871.82397 598.08862 1171.9792 3226169
-857.71771 593.40936 1162.8101 3291705
-849.4248 592.7063 1161.4324 2897204
-842.14801 592.7063 1161.4324 3357755
-837.16821 594.33698 1164.6277 3489341
-830.52502 594.80505 1165.5449 3291962
-824.75897 595.91516 1167.7202 3291962
-817.44281 595.91516 1167.7202 3029047
-813.31476 598.26025 1172.3156 2897461
-808.06805 599.81769 1175.3674 3292219
-800.70398 599.81769 1175.3674 2963254
-793.98541 600.30573 1176.3237 3029047
-788.07727 601.42139 1178.5099 4213321
-780.46576 601.24591 1178.166 4213321
-774.15143 602.07593 1179.7925 3292219
-771.01721 605.41907 1186.3435 3226426
-763.10132 605.03601 1185.5929 3621184
-755.67322 605.03601 1185.5929 3621184
-743.58636 601.26886 1178.2111 3423805
-736.01312 601.11261 1177.9048 3555391
-726.53265 599.3797 1174.5092 3752770
-714.62561 595.58899 1167.0811 4344907
-702.10132 591.20007 1158.4808 3752770
-700.27472 595.82153 1167.5367 3029304
-693.70581 596.46307 1168.7938 2766132
-684.38806 594.72949 1165.3969 2897717
-676.79199 594.47076 1164.8899 3094838
-667.73444 592.90875 1161.8291 3094581
-662.15375 594.43359 1164.817 3161143
-658.34473 597.60059 1171.0229 3489852
-654.83722 601.11572 1177.911 3358266
-647.45721 601.11572 1177.911 3226680
-637.59613 598.78564 1173.3451 3292473
-633.06335 601.46356 1178.5925 3621438
-622.83276 598.72736 1173.2308 3489339
-615.48212 598.72736 1173.2308 3094581
-610.70721 601.26331 1178.2002 3291960
-605.80255 603.73199 1183.0376 3686718
-598.39044 603.73199 1183.0376 3686718
-591.55017 604.3161 1184.1823 3818304
-581.02289 601.10071 1177.8815 3489339
-572.91876 600.34167 1176.3942 3291960
-565.55341 600.34711 1176.4048 3752511
-559.78174 602.06683 1179.7747 4344647
-553.04999 602.78601 1181.184 3752510
-545.07574 602.15222 1179.942 3489338
-537.07147 601.46729 1178.5999 3884097
-529.76422 601.55475 1178.7712 3160374
-523.77277 603.15997 1181.9167 2962995
-517.64557 604.65265 1184.8417 3029045
-512.81012 607.71954 1190.8514 3621182
-502.54837 604.3515 1184.2516 3686975
-495.12866 604.3515 1184.2516 3687232
-488.56799 605.41602 1186.3375 3621181
-480.3486 604.42621 1184.3979 3358265
-475.74228 608.02301 1191.446 2897714
-467.82379 607.4339 1190.2916 3226936
-462.1489 609.78607 1194.9008 3029301
-453.49597 608.22156 1191.8351 2832177
-444.98166 606.7937 1189.0371 3423806
-434.70242 602.86951 1181.3475 4016195
-426.33566 601.50763 1178.679 4674125
-424.29987 609.18744 1193.7278 4147782
-418.71625 611.9577 1199.1562 3555902
-406.50153 604.96063 1185.4452 2897462
-399.07434 604.96063 1185.4452 2568751
-393.0415 607.11444 1189.6656 3358265
-384.49887 605.39972 1186.3057 3753023
-374.02097 600.51031 1176.7246 3687487
-364.86853 597.59509 1171.0122 4016452
-358.10629 598.55542 1172.8939 4016453
-350.32187 597.81165 1171.4364 3226680
-342.97253 597.79431 1171.4025 3292473
-336.16483 598.74097 1173.2574 3621438
-326.82697 595.12268 1166.1674 3884357
-319.47363 595.03528 1165.9961 4279370
-314.00928 598.54443 1172.8724 4410956
-305.92957 597.11707 1170.0754 3884612
-299.34363 598.60675 1172.9945 3358265
-289.34195 593.16901 1162.339 3160887
-281.86078 592.75098 1161.5199 3358266
-273.9035 591.28308 1158.6434 4016196
-267.44897 593.06757 1162.1403 3029301
-262.55133 598.50098 1172.7872 2897202
-255.29646 598.71912 1173.2146 3423546
-245.64053 593.15222 1162.3062 3357753
-237.47885 590.96368 1158.0176 3357753
-231.02649 593.02484 1162.0565 3949890
-221.96043 588.29272 1152.7838 3686718
-214.245 586.94244 1150.1378 2831409
-207.03903 586.94244 1150.1378 2962995
-200.59976 589.19434 1154.5505 3555389
-195.2836 595.03693 1165.9993 2897715
-189.32393 599.29657 1174.3463 2963508
-181.94116 599.21381 1174.1841 2766386
-174.90628 600.31812 1176.348 2503213
-167.40102 599.83417 1175.3997 2831922
-160.29225 600.79169 1177.276 3029301
-153.32326 602.39081 1180.4095 2437164
-145.86742 602.14227 1179.9225 2963508
-138.0901 600.46924 1176.6442 3292473
-130.25107 598.32404 1172.4406 2766129
-123.4735 601.08984 1177.8602 3095094
-115.87927 599.97894 1175.6833 3095351
-109.42951 605.04498 1185.6105 2568750
-101.45177 601.78534 1179.2231 2766128
-93.876328 600.5874 1176.8757 2897462
-86.481331 600.43811 1176.5831 2634543
-79.589783 604.08215 1183.7238 2634543
-72.694199 608.44128 1192.2656 3358266
-64.624321 602.8446 1181.2987 2963508
-56.854336 598.95941 1173.6855 2700336
-49.344711 597.07037 1169.9839 2437421
-41.955563 596.23419 1168.3455 2634543
-34.818382 599.38214 1174.5139 3028788
-27.47331 599.6795 1175.0967 3094581
-20.110966 599.6795 1175.0967 2765616
-12.684691 596.67236 1169.204 2568237
-5.3776531 598.71948 1173.2155 2634030
1.9743782 599.1665 1174.0913 2370858
9.357584 600.91058 1177.5089 2370858
16.794729 603.05377 1181.7086 2831409
24.16165 602.13538 1179.9091 2699823
31.428581 599.73938 1175.2139 2699823
38.832394 600.36908 1176.4479 2699823
46.098679 599.01086 1173.7864 2436651
53.418247 598.62354 1173.0273 2568237
60.734749 598.29956 1172.3926 2634030
68.163979 599.03632 1173.8362 2502444
75.532959 599.15155 1174.062 2634030
83.524269 603.74481 1183.0627 2568237
91.080688 604.7019 1184.9382 3028788
98.316475 603.54651 1182.6742 2897202
105.47852 602.13202 1179.9025 2831409
112.87097 602.13202 1179.9025 2502700
120.70579 604.3468 1184.2424 2962995
128.12543 604.3468 1184.2424 2962995
134.63037 600.26849 1176.2507 2699823
141.1438 596.64929 1169.1588 2699823
149.42479 600.49066 1176.686 2699823
156.13312 597.94769 1171.7031 2436395
162.64955 594.9314 1165.7925 2436394
170.09698 595.43329 1166.776 2370858
177.467 595.63403 1167.1693 2304808
184.90607 596.04138 1167.9677 2370601
191.15289 592.72101 1161.4611 2305322
200.2412 598.13165 1172.0636 3029045
207.46811 597.79614 1171.4061 3029045
213.99025 595.52234 1166.9504 2568751
222.10419 597.68219 1171.1829 2239786
229.44202 597.68219 1171.1829 1713698
236.14238 596.07318 1168.0298 1713698
245.00125 599.84558 1175.422 2042406
253.2908 602.04456 1179.731 2239785
261.2688 603.39929 1182.3857 2503213
268.65939 603.36023 1182.3091 2437164
276.00085 603.21582 1182.0261 2173992
284.27524 605.06458 1185.6489 2108199
291.34207 604.31451 1184.1791 2239785
298.79355 604.37976 1184.3069 2305323
307.04816 606.02692 1187.5347 2305324
315.08987 607.18585 1189.8057 1976359
322.97934 608.0047 1191.4102 1844773
328.73917 604.86804 1185.2638 2107945
337.63113 607.50574 1190.4324 2371117
343.98892 605.56812 1186.6356 2502703
351.42358 605.56812 1186.6356 2502703
360.95499 609.10645 1193.5691 2042152
369.56342 610.97516 1197.231 1778980
375.54935 608.5202 1192.4203 2370860
382.46725 607.64166 1190.6987 2173481
389.92734 607.64166 1190.6987 1515551
401.3125 613.64343 1202.4595 2239531
410.34439 615.89197 1206.8656 2962997
419.44382 618.15869 1211.3073 2699825
425.43317 615.84271 1206.769 2634032
437.05984 621.62567 1218.101 3028790
444.36011 621.16223 1217.1929 2962997
451.345 620.28101 1215.4661 2568239
461.34943 623.50995 1221.7933 2831411
469.00436 623.50995 1221.7933 2897204
474.55481 620.75714 1216.399 2897204
482.43405 621.08942 1217.0503 2765618
490.72086 621.92798 1218.6934 2304812
496.84625 620.0434 1215.0005 2699826
502.74399 617.93597 1210.8708 2568497
509.29987 616.68799 1208.4255 2568240
516.08954 615.75555 1206.5984 2962741
521.74847 613.52045 1202.2185 2962997
530.36731 614.78003 1204.6866 3160376
536.84155 613.5531 1202.2825 3028790
537.72321 606.05682 1187.5933 2370860
542.40863 602.99396 1181.5914 1976102
547.12292 600.0451 1175.813 1844262
552.09607 597.45477 1170.7372 2502192
562.66711 600.91077 1177.5093 2436910
565.73383 596.36658 1168.6047 2107688
571.48334 594.73041 1165.3987 1976359
576.77985 592.67017 1161.3615 2107688
584.05615 592.67017 1161.3615 2831411
589.37921 590.71252 1157.5254 2699825
596.74725 590.82715 1157.75 2765618
604.99445 591.79901 1159.6544 2896946
611.53583 591.09894 1158.2827 2831152
621.87408 594.0423 1164.0503 2896688
628.23102 593.15839 1162.3182 3159603
638.33838 595.79517 1167.4851 2896176
650.03931 599.84271 1175.4165 3093555
657.52142 599.9502 1175.6271 3685948
662.25671 597.57678 1170.9762 3488569
668.98596 597.03479 1169.9142 2699053
678.30707 598.79254 1173.3586 2896432
684.45544 597.74188 1171.2998 3356983
690.75452 596.84375 1169.5398 3356983
699.06116 597.68085 1171.1802 3422776
705.10126 596.58295 1169.0287 3422776
710.00244 594.55377 1165.0525 3554362
716.66089 594.0224 1164.0114 3751741
721.52441 592.02911 1160.1053 3356983
728.79279 592.02911 1160.1053 3291190
739.59344 594.87018 1165.6725 3225397
748.16663 595.88153 1167.6543 3291190
755.01428 595.51233 1166.9309 3356983
762.87366 595.94055 1167.77 2369833
770.19006 595.94055 1167.77 1711645
776.22375 594.95734 1165.8434 1382680
784.24146 595.49902 1166.9048 1514523
791.55249 595.49902 1166.9048 1843232
798.21667 595.01685 1165.96 2830126
802.80707 593.01154 1162.0305 3094068
810.08759 593.01154 1162.0305 3159604
824.935 598.50146 1172.7882 3159604
835.45117 600.77985 1177.2528 2896688
838.79303 597.90436 1171.6182 2699824
841.66284 594.74518 1165.4276 2765359
847.37799 593.63373 1163.2496 2962482
854.53113 593.53986 1163.0658 3291189
864.35052 595.28406 1166.4835 3488313
872.07538 595.56842 1167.0408 4080708
874.7356 592.41809 1160.8676 3883329
884.6698 594.20538 1164.3699 3093813
891.9649 594.20538 1164.3699 3225399
901.52386 595.70129 1167.3011 3356985
912.8042 598.30127 1172.396 3422778
923.04071 600.18121 1176.0797 3291192
929.76019 599.76251 1175.2593 3159863
938.39227 600.57452 1176.8505 2830641
942.47064 598.48218 1172.7504 3028020
953.92285 601.06842 1177.8182 3225399
959.01636 599.63916 1175.0176 3093813
967.2334 600.1698 1176.0574 2830641
974.55707 600.14227 1176.0034 2830641
982.77673 600.66278 1177.0234 2764848
989.43292 600.22711 1176.1697 2962227
996.78247 600.21533 1176.1466 3159606
1006.5724 601.66248 1178.9823 3028020
1012.8112 600.98132 1177.6476 2962227
1018.0791 599.7381 1175.2114 2962227
1024.5508 599.21674 1174.1898 2830641
1032.4722 599.54468 1174.8325 2962227
1039.3624 599.27344 1174.3009 3028020
1050.484 601.42853 1178.5239 2764848
1061.6143 603.55853 1182.6978 2830641
1064.7526 601.14679 1177.9718 2699055
1069.1434 599.47058 1174.6873 2435883
1074.0437 598.10101 1172.0034 2172711
1083.2789 599.14758 1174.0542 1975332
1090.6348 599.14758 1174.0542 2041125
1091.9202 595.83508 1167.5634 2370090
1099.545 596.00293 1167.8922 2501676
1108.4883 596.87854 1169.608 2501676
1115.7212 596.8277 1169.5083 2501676
1124.8596 597.79016 1171.3944 2435883
1133.7585 598.61371 1173.0082 2501676
1136.7772 596.34186 1168.5564 2764848
1149.2505 599.02722 1173.8185 2567469
1156.3823 598.91199 1173.5927 2633262
1163.8131 598.95209 1173.6713 2567469
1170.9207 598.82635 1173.4248 2633262
1178.2761 598.82819 1173.4285 2633262
1190.4103 601.24359 1178.1615 2830641
1197.7919 601.24359 1178.1615 2633262
1207.1199 602.21466 1180.0643 2304297
nan nan nan 16777215
nan nan nan 16777215
nan nan nan 16777215
nan nan nan 16777215
nan nan nan 16777215
nan nan nan 16777215
nan nan nan 16777215
nan nan nan 16777215
nan nan nan 16777215
nan nan nan 16777215
nan nan nan 16777215
nan nan nan 16777215
nan nan nan 16777215
nan nan nan 16777215
nan nan nan 16777215
nan nan nan 16777215
nan nan nan 16777215
nan nan nan 16777215
-1018.311 609.56702 1180.0605 2765618
-1003.549 605.1239 1171.4591 2831411
-999.22522 606.95575 1175.0054 2634032
-987.04095 604.00476 1169.2925 2568239
-978.08002 602.99677 1167.3411 2831411
-971.24438 603.2937 1167.916 2699825
-966.67432 605.01318 1171.2448 2699825
-960.36749 605.66364 1172.5039 2699825
-948.33398 602.68475 1166.7371 2831411
-935.323 599.03345 1159.6686 3160376
-921.17896 594.59369 1151.0736 3094840
-910.67841 592.4541 1146.9316 3489341
-901.86224 591.38507 1144.8621 3818563
-892.01404 589.61676 1141.4388 3621184
-890.38165 593.29431 1148.5582 3489855
-881.85187 592.39838 1146.8237 3358012
-878.49664 594.99237 1151.8455 3292219
-869.49603 593.77411 1149.4871 3292219
-858.21729 590.9668 1144.0524 3357755
-849.68793 590.02142 1142.2222 3686977
-842.3877 589.92065 1142.0271 3752770
-831.15289 587.03925 1136.449 3226426
-833.52942 593.80463 1149.5461 3160890
-827.97357 594.98779 1151.8365 3226426
-820.47668 594.78461 1151.4432 3226426
-813.53119 594.98114 1151.8236 3291962
-806.2345 594.92194 1151.7091 3095097
-797.03186 593.44263 1148.8453 3094840
-791.44409 594.65234 1151.1873 3621184
-784.32727 594.72498 1151.3278 3621184
-775.25079 593.29919 1148.5676 4213321
-774.4129 598.21069 1158.0758 4279114
-762.27411 594.40295 1150.7045 3555391
-764.60321 601.91205 1165.2412 3621184
-760.07794 604.11786 1169.5115 3621184
-753.18433 604.46594 1170.1854 3621441
-745.36902 604.07391 1169.4264 3423805
-737.2525 603.42761 1168.1752 3358012
-733.24219 606.16284 1173.4703 3555391
-719.82245 601.09601 1163.6615 3686977
-707.77429 597.08258 1155.8918 3884098
-698.19666 595.09186 1152.0381 3226168
-695.10455 598.64508 1158.9167 2700080
-685.51764 596.62079 1154.9979 3029044
-677.2616 595.72388 1153.2616 3226167
-665.60565 591.78491 1145.6361 3095094
-656.73193 590.26062 1142.6852 2897715
-650.9259 591.4903 1145.0658 3358266
-651.29761 598.42358 1158.4879 4081989
-644.49426 598.84631 1159.3063 3884610
-634.99762 596.74756 1155.2434 3621695
-628.86517 597.79846 1157.2778 3490109
-622.51624 598.66571 1158.9567 3423802
-616.3869 599.76709 1161.0887 3555132
-609.11224 599.76709 1161.0887 3028788
-604.00922 601.93109 1165.2781 2831409
-593.50183 598.69641 1159.0161 2568494
-587.23932 599.7168 1160.9915 3028788
-580.6015 600.37463 1162.2649 3357753
-572.63934 599.66229 1160.886 3160374
-562.58209 596.70947 1155.1696 3160374
-557.29053 598.80035 1159.2173 3753026
-553.62311 602.7146 1166.7949 3818563
-544.44025 600.6488 1162.7957 3950405
-537.82404 601.39691 1164.244 2963766
-531.45294 602.44348 1166.27 3753024
-524.10162 602.39258 1166.1715 4608333
-519.099 605.07794 1171.3701 3752767
-513.83264 607.52856 1176.1143 3358265
-504.07651 604.66479 1170.5702 3226680
-496.10013 603.88275 1169.0564 2963508
-493.91647 610.23431 1181.3523 3884610
-487.2702 611.18164 1183.1862 4147782
-477.2803 607.89948 1176.8324 3818817
-470.18323 608.25671 1177.5239 3358266
-463.68323 609.4101 1179.7567 3292729
-456.29166 609.4101 1179.7567 3029300
-448.35666 608.6723 1178.3284 3424061
-441.02155 608.73779 1178.4552 3489855
-428.60858 601.67731 1164.7869 4082249
-420.77921 600.91809 1163.3171 4345421
-415.50293 603.84253 1168.9784 3819333
-410.40756 607.13953 1175.3611 3621697
-400.28961 602.99097 1167.33 3424574
-395.91791 607.50525 1176.0691 3095097
-388.67557 607.70239 1176.4507 3424575
-380.67145 606.69312 1174.4968 4081992
-371.05182 603.01855 1167.3833 3753282
-362.67368 601.25439 1163.968 4279113
-354.26553 599.36707 1160.3145 4345161
-344.3483 594.79401 1151.4614 3950402
-336.40573 593.50909 1148.974 3424059
-328.38239 592.02228 1146.0957 3292473
-320.33905 590.43225 1143.0176 4213575
-314.26892 592.48956 1147.0002 4213574
-307.5563 593.4035 1148.7695 3818817
-300.09225 592.87671 1147.7498 3358266
-294.51016 596.13336 1154.0543 3753024
-285.66614 592.78516 1147.5725 3950403
-277.64197 591.00922 1144.1345 3621438
-269.48163 588.84174 1139.9385 3555645
-262.69043 589.62927 1141.463 3423802
-255.73857 590.09021 1142.3553 3028788
-249.63844 592.59955 1147.2131 3028788
-242.56758 592.88495 1147.7657 3160374
-235.08917 592.16132 1146.3647 3028788
-227.47046 591.02747 1144.1698 3357753
-220.29227 591.00171 1144.1199 3884097
-212.48289 589.22388 1140.6782 2699823
-206.05994 591.30066 1144.6987 2897202
-200.20128 595.20496 1152.2571 3226423
-194.6963 600.49225 1162.4927 3226680
-186.31404 596.97125 1155.6764 2897715
-181.11749 603.78571 1168.8684 2568750
-172.72488 600.07086 1161.6769 2831922
-165.44661 600.07086 1161.6769 3160887
-159.04164 603.38403 1168.0908 2766129
-152.02412 604.58081 1170.4077 2502957
-144.11015 602.15314 1165.7079 2766386
-136.32367 600.02734 1161.5927 2963765
-128.74886 598.64606 1158.9186 3358266
-123.17278 606.94867 1174.9916 3555645
-115.60765 605.88245 1172.9275 3160887
-108.30875 606.16144 1173.4677 2371371
-99.999168 600.41284 1162.3389 2700335
-91.806625 594.51898 1150.929 2700339
-84.739815 595.5318 1152.8898 2766386
-77.426788 594.8418 1151.554 2568750
-70.126381 594.11682 1150.1505 2634799
-62.920326 594.11682 1150.1505 2962994
-55.695248 593.91394 1149.7577 3028788
-48.381149 592.56042 1147.1375 2502701
-41.110584 591.36084 1144.8152 2897459
-33.932842 591.27161 1144.6425 3160374
-26.899433 594.32349 1150.5505 2765616
-19.755856 596.28473 1154.3473 2962995
-12.49743 595.04291 1151.9432 2699823
-5.2737665 594.32373 1150.551 2568237
1.9337214 593.99475 1149.9142 2436651
9.1675739 595.89819 1153.599 2041893
16.479158 598.94867 1159.5044 2305065
23.70059 597.85834 1157.3937 2765616
30.829458 595.49097 1152.8107 3160374
37.705601 590.06732 1142.311 2765616
45.036133 592.35065 1146.7313 2305065
52.544994 596.0285 1153.8513 2239272
59.768635 595.97272 1153.7433 2239272
67.050461 596.44647 1154.6605 2305065
74.521011 598.34338 1158.3326 2370858
81.339783 595.1347 1152.121 2568237
89.726028 602.98297 1167.3145 3357753
96.508179 599.68079 1160.9218 2765616
102.57792 592.72485 1147.4558 2765872
110.4743 596.5437 1154.8488 2765616
118.91057 602.62921 1166.6296 2962995
125.88699 601.03992 1163.5529 2765873
132.17642 596.52417 1154.8108 2963252
138.83043 594.03711 1149.9961 2502444
146.72932 596.85944 1155.4598 2502957
154.26663 598.01453 1157.696 2569006
160.82755 595.45099 1152.7333 2634288
168.4424 596.84216 1155.4264 2239529
176.71359 600.34839 1162.2142 2437165
181.36694 591.77271 1145.6125 2766130
188.65047 592.10516 1146.2561 3029046
196.58287 594.37506 1150.6504 2897716
204.13698 595.38116 1152.598 2766130
211.35838 595.38116 1152.598 2240042
218.40822 594.91388 1151.6935 2239785
226.35667 596.84589 1155.4337 1845028
233.59583 596.84589 1155.4337 1581856
242.74043 601.56812 1164.5754 2305577
251.08791 604.09686 1169.4708 2569006
258.39996 604.06165 1169.4027 2634542
263.74115 599.54816 1160.665 2502957
270.72345 598.90747 1159.4247 1976613
277.2854 597.39459 1156.4958 1910819
286.43155 601.38452 1164.22 2437163
294.77118 603.52502 1168.3638 2173991
301.99008 603.32269 1167.972 2107945
308.76764 602.26904 1165.9324 2568496
316.31775 602.73627 1166.8368 2239274
325.71631 606.625 1174.365 1910309
333.07407 606.625 1174.365 2041895
341.30667 608.18384 1177.3828 2436910
347.26514 605.71021 1172.5941 2041895
355.64853 607.48102 1176.0222 1581343
363.23764 607.85077 1176.738 1581600
369.98941 606.83252 1174.7667 1844772
377.3497 606.83252 1174.7667 2107688
385.42215 607.95587 1176.9415 2173481
395.16351 611.62018 1184.0352 2107688
405.20743 615.60901 1191.7572 1844516
415.9585 620.50842 1201.2419 1844516
421.92648 618.22534 1196.8221 2239274
428.55338 616.97058 1194.3931 2502446
440.43491 623.19397 1206.4409 3028790
447.99365 623.19397 1206.4409 2897204
454.86899 622.25909 1204.6311 2436910
462.1304 621.87427 1203.8861 2897461
469.47638 621.61383 1203.3818 2962997
476.41589 620.83185 1201.868 2502446
483.69434 620.50903 1201.2432 2305067
491.2449 620.53986 1201.3029 2370860
498.3931 620.06915 1200.3916 2502446
506.34732 620.60034 1201.4199 2765875
510.68451 616.74774 1193.9617 3621184
518.1651 616.74774 1193.9617 3160376
528.97467 620.65375 1201.5233 2436653
535.30914 619.27313 1198.8506 1844516
536.96503 612.59314 1185.9188 1844516
539.7561 607.37292 1175.813 1647137
539.35693 598.75171 1159.1232 1515807
545.44739 597.46814 1156.6383 2107688
548.30981 592.72876 1147.4634 2436653
555.36694 592.58783 1147.1904 1844516
564.03259 594.14484 1150.2047 1384222
572.9342 595.90808 1153.6182 1778723
580.16199 595.90808 1153.6182 2173481
585.04401 593.52832 1149.0112 2305067
593.51807 594.80621 1151.4851 2568239
600.13019 594.20984 1150.3306 2436652
607.46613 594.33582 1150.5745 2568238
614.88501 594.53906 1150.9679 2502446
624.33502 596.67877 1155.1101 2962995
629.81146 595.01532 1151.8899 3160631
637.85828 595.79047 1153.3905 3028788
650.80896 601.07739 1163.6254 3489082
657.7998 600.80371 1163.0956 3554362
667.29016 602.79395 1166.9485 3685948
669.10431 597.88196 1157.4395 3751741
675.53021 597.15198 1156.0262 3488569
684.24609 598.44019 1158.5201 3225397
691.50452 598.44019 1158.5201 3159604
697.4491 597.31488 1156.3417 3159604
703.43219 596.24542 1154.2712 3028018
709.03992 594.88281 1151.6333 3356983
716.39215 594.99652 1151.8534 3356983
724.26465 595.53571 1152.8973 3356983
733.30792 597.01746 1155.7659 3422776
737.81268 594.81134 1151.495 3225397
744.94562 594.74628 1151.369 3159604
756.21338 597.9519 1157.5748 2962225
763.08905 597.65668 1157.0033 2567723
769.83453 597.26605 1156.2471 2041123
777.76904 597.79657 1157.2742 1712158
785.4845 598.15057 1157.9594 2172709
788.29999 594.80084 1151.4746 2765102
795.93323 595.11401 1152.0809 3225397
802.85181 594.89209 1151.6512 3356983
810.7124 595.36578 1152.5684 3356983
822.65674 598.80377 1159.2239 2962225
825.33038 595.49249 1152.8136 2765103
834.14166 596.62872 1155.0133 2830639
841.51721 596.72729 1155.2041 2962225
847.39575 595.77167 1153.3541 2765103
851.95258 593.91089 1149.7518 2568236
860.26898 594.68018 1151.2411 3620157
868.79871 595.58295 1152.9888 4146501
878.55243 597.30292 1156.3185 3291192
886.09955 597.5069 1156.7133 3093813
886.70105 593.06201 1148.1084 3356985
895.06995 593.84192 1149.6183 3488571
904.36835 595.22131 1152.2886 3356985
912.89661 596.07587 1153.943 3422778
920.98621 596.63281 1155.0212 3225399
933.9043 600.28473 1162.0909 3159606
939.37714 599.13159 1159.8585 3291192
945.37628 598.32922 1158.3053 3159606
952.09198 597.9892 1157.647 2764848
958.37079 597.38196 1156.4714 2896434
964.36243 596.60608 1154.9695 3291192
971.83466 596.75098 1155.25 3356985
979.07269 596.75098 1155.25 3356985
990.08191 599.03278 1159.6672 3028020
998.40161 599.66583 1160.8928 3159606
1005.4981 599.56036 1160.6886 3291192
1008.4792 597.02014 1155.771 3356985
1017.6639 598.16248 1157.9824 3356985
1025.1086 598.27313 1158.1967 3291192
1032.0668 598.10022 1157.8619 2962227
1044.3805 601.01172 1163.4983 2896434
1051.3921 600.85284 1163.1907 3028020
1058.6798 600.85284 1163.1907 2699055
1061.2228 598.17834 1158.0132 2238504
1070.5051 599.31317 1160.2101 2172967
1077.7743 599.31317 1160.2101 2106661
1081.7462 597.49207 1156.6846 2238247
1089.0321 597.51337 1156.7258 2304041
1094.7313 596.66968 1155.0925 2436140
1101.7507 596.55182 1154.8644 2304297
1112.0601 598.20526 1158.0653 2370090
1119.3158 598.20526 1158.0653 2764848
1120.9784 595.23547 1152.316 2962484
1121.8616 591.89233 1145.8441 3291192
1138.8691 597.04486 1155.8188 3028020
1152.021 600.12372 1161.7792 2435883
1159.2999 600.12372 1161.7792 2370090
1163.2665 598.4198 1158.4806 2172711
1168.8009 597.53845 1156.7744 2238504
1178.2378 598.65082 1158.9279 2304297
1190.505 601.17889 1163.8219 2238504
nan nan nan 16777215
nan nan nan 16777215
nan nan nan 16777215
nan nan nan 16777215
nan nan nan 16777215
nan nan nan 16777215
nan nan nan 16777215
nan nan nan 16777215
nan nan nan 16777215
nan nan nan 16777215
nan nan nan 16777215
nan nan nan 16777215
nan nan nan 16777215
nan nan nan 16777215
nan nan nan 16777215
nan nan nan 16777215
nan nan nan 16777215
nan nan nan 16777215
-1004.5636 608.59271 1164.1294 2765618
-998.28766 609.21393 1165.3175 2897204
-990.98663 609.21393 1165.3175 3028790
-981.21088 607.68127 1162.3859 3094583
-971.24683 606.00824 1159.1857 3094583
-959.07056 602.91931 1153.2771 2897204
-951.84491 602.91931 1153.2771 2765618
-943.68884 602.32544 1152.1411 3291705
-933.84204 600.63489 1148.9075 3160633
-918.96552 595.65802 1139.3876 3160376
-905.75946 591.6944 1131.8059 3292219
-904.07288 595.25287 1138.6125 3555391
-889.53314 590.33783 1129.2111 3686977
-883.22064 590.8479 1130.1866 4344907
-879.51001 593.12073 1134.5342 4015942
-878.91089 597.54614 1142.9991 2897461
-867.77808 594.82373 1137.7917 3160633
-860.76215 594.90167 1137.9408 3423805
-851.09998 593.13666 1134.5646 3818563
-845.47943 594.18225 1136.5647 4015942
-829.63184 587.99725 1124.7339 3950149
-827.77179 591.7049 1131.8259 3292219
-824.63153 594.55347 1137.2748 3358012
-818.8512 595.53174 1139.146 3160633
-811.65283 595.48682 1139.0601 3160633
-805.10297 595.92102 1139.8906 3357755
-798.42828 596.26984 1140.5579 3358012
-790.24292 595.48657 1139.0597 3292219
-790.0722 600.78357 1149.1918 4015942
-781.47729 599.71307 1147.1442 4015942
-773.82477 599.35272 1146.4548 3950149
-761.19879 595.09735 1138.3152 3226426
-753.21478 594.42487 1137.0288 3292219
-754.34753 601.00311 1149.6117 3621184
-745.73804 599.8714 1147.447 3686977
-737.4715 598.99628 1145.7731 3423805
-731.39844 599.90314 1147.5077 3358012
-724.09631 599.80981 1147.3292 3423805
-717.328 600.16125 1148.0015 3489598
-710.8407 600.75732 1149.1416 3555644
-703.64099 600.75732 1149.1416 2962995
-694.3205 598.92798 1145.6423 2634032
-688.3551 599.98468 1147.6637 3357753
-681.4303 600.21869 1148.1113 2962995
-671.61053 597.88055 1143.6389 2502700
-662.77063 596.37366 1140.7565 3489853
-654.15558 595.03851 1138.2025 3292217
-647.62494 595.59082 1139.2589 3226423
-641.164 596.22021 1140.4629 3752254
-630.13055 592.56396 1133.4691 3620925
-628.84308 598.09369 1144.0465 3489339
-621.67529 598.09369 1144.0465 3620925
-618.55005 602.0282 1151.5726 3423546
-610.77002 601.4718 1150.5083 3357753
-601.60352 599.52039 1146.7755 3160374
-595.14526 600.2533 1148.1775 3226167
-588.42719 600.73877 1149.1062 2634030
-581.22766 600.73877 1149.1062 2897202
-576.15704 602.96674 1153.3678 3028788
-568.46411 602.47205 1152.4216 2831409
-559.66412 600.77637 1149.178 3884096
-554.22015 602.68591 1152.8307 3687487
-548.45728 604.29449 1155.9076 3555644
-539.49994 602.37939 1152.2443 3292473
-530.12994 599.94525 1147.5883 2897972
-524.62262 601.87573 1151.2809 3424059
-519.61523 604.44153 1156.1888 3292473
-512.89203 605.05585 1157.3639 3292473
-503.819 602.87585 1153.194 3358266
-499.82764 606.8017 1160.7034 3095094
-491.04431 604.94 1157.1423 3358266
-486.14435 607.8783 1162.7628 3884610
-480.80298 610.3457 1167.4825 4016196
-474.5968 611.7746 1170.2157 3818817
-463.2301 606.49176 1160.1106 3226424
-457.54538 608.59839 1164.1401 3291964
-449.85562 608.06299 1163.1161 3358012
-441.0889 606.03033 1159.2279 3423804
-433.71231 605.87164 1158.9243 3686977
-425.75082 604.87634 1157.0206 3621696
-416.69321 602.26245 1152.0206 3556161
-409.88632 602.86676 1153.1766 4082504
-403.57904 604.24084 1155.8049 4148298
-394.54077 601.50153 1150.5651 4082248
-389.6189 605.05273 1157.3579 3292732
-381.02286 602.92468 1153.2874 3819333
-371.28299 598.86932 1145.5303 4805971
-362.73624 596.61664 1141.2212 4608592
-355.58612 596.61664 1141.2212 4477262
-347.67984 595.32184 1138.7445 4608593
-340.02432 594.41113 1137.0026 4016455
-331.68961 592.24878 1132.8663 3226939
-324.38214 591.86615 1132.1344 3424059
-317.48785 592.23718 1132.8441 4147782
-311.65161 594.64392 1137.4478 3818817
-302.42957 590.55188 1129.6205 3029301
-293.24448 586.33765 1121.5593 2897715
-288.27527 590.55304 1129.6226 3292729
-281.56149 591.31677 1131.0835 4279368
-275.20236 592.88391 1134.0812 3818817
-269.28961 595.52142 1139.1262 2700336
-260.71976 592.26636 1132.8999 3094837
-255.73857 597.20953 1142.3553 2962995
-246.95851 593.31067 1134.8976 2897459
-239.4511 592.32886 1133.0194 2962995
-232.10172 591.68982 1131.7971 2699823
-224.74661 590.99548 1130.469 2897203
-218.86395 594.25397 1136.7018 3489339
-211.25397 592.88379 1134.0809 2897202
-204.6662 594.38702 1136.9563 2699823
-198.86891 598.37708 1144.5886 2831666
-192.29408 600.23865 1148.1495 3226937
-183.63017 595.47046 1139.0288 3029301
-176.20517 594.49658 1137.166 2634543
-168.52545 592.54517 1133.4332 2832179
-161.42413 592.54517 1133.4332 3226680
-154.51537 593.28442 1134.8473 2831922
-148.22789 596.5957 1141.1812 2305578
-141.40125 597.96246 1143.7955 2634543
-134.36169 598.52679 1144.875 2963508
-127.1887 598.52679 1144.875 3160887
-120.72057 602.04199 1151.599 3029301
-113.74821 603.32965 1154.062 2766129
-106.169 601.35486 1150.2845 2371371
-97.925888 595.05817 1138.2401 2831152
-90.75106 594.77362 1137.6959 2634032
-83.609962 594.68073 1137.5181 2831408
-76.323166 593.43738 1135.1399 2634030
-68.863708 590.45819 1129.4413 2699823
-61.796196 590.5423 1129.6021 3094581
-54.98914 593.45886 1135.1809 3226167
-47.984753 594.79602 1137.7386 2962739
-40.834747 594.47986 1137.1339 3028788
-33.627232 593.01575 1134.3334 3423546
-26.533447 593.31018 1134.8965 3226167
-19.442533 593.90778 1136.0397 3094581
-12.293264 592.38373 1133.1244 3028788
-5.1913676 592.09619 1132.5745 2831666
1.8981836 590.1131 1128.7811 2568237
9.0569363 595.80933 1139.677 2239272
16.136623 593.57495 1135.403 2173479
23.255621 593.71143 1135.6641 2765616
30.243849 591.22754 1130.9128 2634030
37.329365 591.22754 1130.9128 2634030
44.845268 596.95654 1141.8715 2370858
51.875103 595.52911 1139.141 2568237
59.007694 595.48389 1139.0544 2370858
66.137688 595.42505 1138.9419 2173479
73.247337 595.21234 1138.535 2436651
80.144814 593.46625 1135.1951 3028788
87.336853 594.00824 1136.2318 3028788
94.484474 594.18921 1136.578 2436652
101.60549 594.18921 1136.578 1976103
108.93674 595.33807 1138.7756 3291961
116.6779 598.44836 1144.725 3029047
123.00101 594.34619 1136.8782 2765874
130.39679 595.59265 1139.2625 2831667
137.53464 595.59265 1139.2625 3226425
144.17281 593.53558 1135.3278 2437165
152.1998 597.12079 1142.1855 2568752
159.35594 597.12079 1142.1855 2634544
166.13789 595.77893 1139.6188 2371372
173.62691 596.97864 1141.9137 2963508
180.56917 596.27795 1140.5734 3555644
187.23294 594.74603 1137.6431 2371628
194.41272 594.90546 1137.948 2700593
201.68875 595.33765 1138.7748 2700335
208.15387 593.42853 1135.1229 1779234
215.17825 593.18732 1134.6615 1779235
222.48175 593.70636 1135.6543 2173992
229.11189 592.4519 1133.2549 2437164
238.02014 596.98676 1141.9292 2239785
246.09663 599.23175 1146.2234 2239785
254.51244 602.15204 1151.8094 1910822
260.7207 599.83258 1147.3727 1713443
266.70157 597.12842 1142.2002 1910822
273.49408 596.33533 1140.6831 1713187
281.63058 598.43854 1144.7062 2634289
289.26355 599.3938 1146.5334 2239532
296.85931 600.2276 1148.1284 2173738
303.96307 600.05066 1147.7899 2634289
309.91263 597.65613 1143.2096 2371117
322.29346 607.492 1162.0239 2042152
328.83481 606.12964 1159.418 1976359
334.74185 603.68231 1154.7366 1778980
340.96698 601.90002 1151.3274 1844773
348.83408 603.03003 1153.4889 1647651
357.55008 605.55188 1158.3127 1778724
364.80728 605.55188 1158.3127 1910566
372.17404 605.73029 1158.6539 1844516
379.29761 605.51349 1158.2394 2042152
390.15918 611.16022 1169.0405 1976102
395.79865 608.56952 1164.085 1712930
404.59714 610.84192 1168.4316 2568239
412.50668 611.71533 1170.1023 2436653
418.14612 609.25055 1165.3877 2173738
436.31952 624.81946 1195.1681 3028790
439.59647 618.89069 1183.8275 3094583
449.50031 622.33362 1190.4132 2897204
456.04611 621.09082 1188.036 3094583
464.98087 623.08929 1191.8588 2962997
474.70502 626.06573 1197.552 2436653
479.32098 622.31738 1190.3821 2371117
485.37793 620.526 1186.9556 2107688
492.48471 620.11072 1186.1611 2041895
499.14987 619.15991 1184.3424 1976102
506.47067 619.03833 1184.1099 2239274
513.74512 618.86438 1183.7771 2634032
520.26007 617.79352 1181.7288 2699825
526.75775 616.73254 1179.6993 2370860
533.77222 616.29761 1178.8673 1844773
532.83453 606.81824 1160.735 1448988
535.91296 602.10626 1151.7219 1317402
540.61462 599.31903 1146.3904 1317402
545.6225 596.93988 1141.8395 1317145
551.48865 595.54913 1139.1793 1515037
554.53479 591.18756 1130.8364 1581344
562.5257 592.14111 1132.6603 1647137
573.89093 596.57861 1141.1486 1647394
581.04059 596.57861 1141.1486 1976102
591.10883 599.53888 1146.8109 2502446
597.43634 598.67944 1145.167 2436653
604.36432 598.43506 1144.6995 2370860
611.05511 597.96429 1143.799 2502446
617.22626 597.00171 1141.9578 2831411
624.57904 597.1911 1142.3201 3423547
631.73602 597.1911 1142.3201 3226167
641.84589 599.95123 1147.5997 3094580
649.62317 600.49408 1148.6381 2041123
656.81976 600.49408 1148.6381 2304295
665.01184 601.39435 1150.3601 2962225
669.38531 598.85901 1145.5105 3422776
675.0426 597.51392 1142.9375 3291190
682.20349 597.51392 1142.9375 2962225
688.77893 597.00647 1141.9669 3028018
695.93372 597.00647 1141.9669 2962482
700.80762 595.06976 1138.2623 2896689
707.63354 594.81287 1137.7709 3028018
711.74841 592.30499 1132.9738 2962225
718.84705 592.30505 1132.974 2896432
729.53229 595.23169 1138.572 3291190
738.5329 596.7403 1141.4578 3488569
745.69519 596.74884 1141.4741 3093811
757.09662 600.11743 1147.9176 3159604
764.42438 600.22394 1148.1213 3093811
773.00635 601.3042 1150.1876 2699053
777.25531 599.02496 1145.8279 2896432
780.88409 596.31384 1140.6421 3093811
786.96204 595.50537 1139.0955 2699053
796.73932 597.48553 1142.8832 2567467
803.8999 597.48553 1142.8832 2896689
810.89008 597.36005 1142.6432 2962225
819.02228 598.07068 1144.0026 2699053
826.18982 598.07068 1144.0026 2699053
831.54901 596.77289 1141.5201 2370088
838.70105 596.77289 1141.5201 2567211
844.98737 596.16223 1140.3521 2962224
854.60925 597.89532 1143.6671 3159863
854.64154 592.94641 1134.2007 3159606
863.4212 594.0979 1136.4033 3159606
872.59027 595.49634 1139.0782 2896434
877.20941 593.79211 1135.8185 3291192
884.45013 593.87579 1135.9784 3620157
892.89227 594.75824 1137.6664 3488571
901.83667 595.95868 1139.9626 3422778
908.8559 595.87799 1139.8083 3159606
915.98853 595.87244 1139.7977 3422778
917.69507 592.36444 1133.0875 3751743
924.13831 591.94434 1132.2839 3685950
939.74902 597.35791 1142.6392 3422778
946.32959 596.99304 1141.9412 3291192
952.02179 596.07739 1140.1897 3422778
957.1803 594.84369 1137.83 3554364
958.28839 591.12976 1130.7258 3422778
973.32013 595.99615 1140.0344 2896434
981.80121 596.80981 1141.5907 2699055
988.95367 596.80981 1141.5907 2962227
993.71771 595.37885 1138.8535 3225399
1001.3541 595.67694 1139.4237 3291192
1007.0152 594.80408 1137.7542 3356985
1018.9869 597.64471 1143.1877 2896434
1031.267 600.62537 1148.8892 2501676
1034.4736 598.31671 1144.4731 2172711
1045.8833 600.75171 1149.1309 2238504
1053.6277 601.0625 1149.7253 2172711
1057.9181 599.41199 1146.5682 2106662
1064.0914 598.84344 1145.4807 2172198
1071.1669 598.78674 1145.3723 2303784
1078.9877 599.14471 1146.057 2303784
1086.3959 599.27039 1146.2974 2237991
1097.8676 601.62115 1150.7939 2172198
1106.3029 602.28815 1152.0698 2040356
1113.7588 602.41687 1152.316 1909283
1107.0288 594.92029 1137.9764 2699055
1116.0581 595.93451 1139.9165 3685950
1122.0905 595.34583 1138.7904 3488571
1135.489 598.64813 1145.1072 2567469
1153.4355 604.29175 1155.9023 2041125
1147.5585 597.46143 1142.8372 1975332
1156.6945 598.4837 1144.7926 1975332
1164.3312 598.72241 1145.2491 2106918
1176.9203 601.48926 1150.5416 2370090
nan nan nan 16777215
nan nan nan 16777215
nan nan nan 16777215
nan nan nan 16777215
nan nan nan 16777215
nan nan nan 16777215
nan nan nan 16777215
nan nan nan 16777215
nan nan nan 16777215
nan nan nan 16777215
nan nan nan 16777215
nan nan nan 16777215
nan nan nan 16777215
nan nan nan 16777215
nan nan nan 16777215
nan nan nan 16777215
nan nan nan 16777215
nan nan nan 16777215
-988.30664 605.88153 1145.2903 2962997
-980.87512 605.72345 1144.9915 2963254
-970.43939 603.69421 1141.1556 3028790
-961.6145 602.64441 1139.1711 2962997
-950.11548 599.89038 1133.9653 2962997
-942.18018 599.362 1132.9666 2370860
-935.08185 599.362 1132.9666 2371374
-924.82074 597.31927 1129.1052 3818563
-907.50806 590.65558 1116.5088 3686977
-899.87701 590.23846 1115.7205 3424062
-896.0351 592.31976 1119.6547 3489598
-889.02008 592.31976 1119.6547 3555391
-875.69592 588.08276 1111.6455 3621184
-873.33844 591.20172 1117.5411 4476493
-865.43109 590.58368 1116.3729 3621184
-870.04895 598.57263 1131.4744 3160633
-856.36615 593.99908 1122.829 3292219
-853.36658 596.82123 1128.1637 3555391
-846.55304 597.00085 1128.5033 3950149
-837.4234 595.53644 1125.7351 4015942
-828.53119 594.21741 1123.2417 3950149
-826.74554 598.0163 1130.4227 3752770
-821.06232 599.03711 1132.3524 3621184
-817.5061 601.64117 1137.2748 3621184
-806.45013 598.72302 1131.7587 3752770
-795.93103 596.15521 1126.9048 3621184
-789.94421 596.96655 1128.4384 3621184
-786.98895 600.10413 1134.3694 3752770
-783.01849 602.51776 1138.9319 4147785
-767.70319 596.16589 1126.9249 4147528
-755.758 592.33746 1119.6881 3489598
-749.81708 593.18738 1121.2947 3226426
-742.79187 593.18738 1121.2947 3292219
-737.63885 594.69684 1124.1479 3358012
-733.84241 597.3396 1129.1436 3489598
-726.76794 597.3396 1129.1436 3358269
-720.38739 597.91547 1130.2322 3226682
-715.59833 599.83691 1133.8641 3095096
-709.10809 600.35657 1134.8464 3554876
-703.20166 601.38599 1136.7924 3291704
-703.64099 607.91901 1149.1416 2699822
-692.0094 604.05042 1141.829 2897458
-680.6701 600.35883 1134.8508 2963251
-674.79297 601.45801 1136.9285 2634286
-663.16626 597.401 1129.2596 2568237
-657.18243 598.39471 1131.1381 3226167
-650.09546 598.39471 1131.1381 3291960
-640.21075 595.79108 1126.2164 3357753
-637.88 600.23761 1134.6216 3028788
-628.03308 597.6319 1129.6962 2897202
-616.1842 593.04016 1121.0164 3752511
-612.94623 596.72552 1127.9828 4213062
-610.20667 600.98767 1136.0396 3555132
-600.9455 598.85168 1132.0018 3357753
-593.95599 598.95538 1132.1979 3029045
-587.71698 599.82751 1133.8464 3094581
-580.35687 599.56281 1133.3461 3226167
-573.95642 600.29529 1134.7307 3423546
-570.36938 604.02551 1141.7819 3357753
-560.69324 601.32025 1136.6681 3949890
-553.57159 601.32025 1136.6681 3949890
-541.57867 595.95972 1126.5352 3620925
-533.08618 594.36041 1123.5121 3094580
-527.66522 596.18872 1126.9681 3423290
-522.85846 598.77008 1131.8475 3423546
-516.59412 599.7301 1133.6624 3160373
-512.45825 603.22253 1140.264 3423802
-506.0188 604.06378 1141.8541 3226679
-496.95004 601.74524 1137.4716 3489852
-488.9126 600.62634 1135.3564 4345160
-483.10623 602.25568 1138.4363 3489852
-479.6178 606.8667 1147.1526 3687231
-473.05594 607.6701 1148.6711 3819074
-464.79929 606.2876 1146.0579 3818817
-456.92358 605.36646 1144.3167 3161144
-450.54681 606.43347 1146.3336 3555644
-443.58759 606.73834 1146.9099 3818817
-433.90891 603.27234 1140.3582 3753024
-426.61685 603.06409 1139.9645 3621184
-419.79446 603.52386 1140.8336 3424058
-412.64679 603.52386 1140.8336 3423802
-408.9549 608.6673 1150.5562 2897715
-397.85513 602.77197 1139.4122 2831666
-390.71634 602.77197 1139.4122 3686977
-386.20187 606.89581 1147.2076 3621954
-378.46008 606.00848 1145.5303 3687490
-366.77942 598.65778 1131.6354 4608592
-356.672 593.63574 1122.1422 4871764
-351.09491 596.10345 1126.807 4740177
-344.63388 597.14099 1128.7682 4608848
-333.51028 589.97394 1115.2203 3621695
-327.03632 590.90131 1116.9733 3292730
-320.94574 592.57703 1120.141 3424316
-315.90497 596.30933 1127.196 3424059
-305.41214 589.68555 1114.6753 3292473
-298.18909 589.21283 1113.7816 3358266
-291.39133 589.57788 1114.4717 3555645
-284.95593 590.71204 1116.6156 2831922
-278.39581 591.63831 1118.3665 3621438
-271.71408 592.34711 1119.7063 4213575
-264.69876 592.34711 1119.7063 3555644
-261.06097 600.11115 1134.3826 4147525
-254.18802 600.66486 1135.4292 4213574
-243.68718 592.4306 1119.8641 3160887
-235.52109 589.55243 1114.4236 3818817
-229.22273 591.31653 1117.7583 2700336
-223.00549 593.40771 1121.7112 2700080
-215.34428 591.6676 1118.4219 3160374
-208.09839 590.98987 1117.1407 3226167
-201.75757 592.9248 1120.7983 2634030
-195.82811 596.25177 1127.0873 2963252
-189.50891 598.59662 1131.5198 2963508
-182.29196 598.17786 1130.7281 2766129
-175.50089 599.17914 1132.6208 2042406
-167.07483 594.44763 1123.6769 2897972
-160.21155 595.10474 1124.9191 3292473
-153.01096 594.51178 1123.7981 2766129
-145.92912 594.34521 1123.4833 2173479
-138.57539 592.99829 1120.9373 2765873
-131.55237 592.99829 1120.9373 3028788
-123.84538 589.74127 1114.7805 2436651
-117.83601 594.66193 1124.082 2831665
-111.40218 597.93011 1130.2598 2831152
-104.05208 596.39014 1127.3489 2568237
-96.615105 594.09174 1123.0042 2765616
-89.519867 593.69867 1122.2612 2370861
-81.642044 587.60608 1110.7444 2699823
-74.609108 587.02557 1109.6471 2634030
-66.787773 579.48523 1095.3937 2634030
-60.81778 588.12061 1111.717 3094581
-54.06292 590.41827 1116.0603 3423546
-47.651558 597.70721 1129.8385 2962995
-40.330772 594.14221 1123.0996 2634287
-33.164585 591.82904 1118.7271 3094581
-25.929609 586.71973 1109.069 3160374
-19.015682 587.7934 1111.0985 3160374
-12.065699 588.349 1112.1487 3555132
-5.0886836 587.30341 1110.1724 3291704
1.8698653 588.2392 1111.9412 2436651
8.8800879 591.13934 1117.4233 2436651
15.89805 591.77063 1118.6166 2502187
22.794138 588.86707 1113.1281 2567980
29.962257 592.70526 1120.3833 2502188
36.981808 592.70526 1120.3833 2567981
43.908001 591.44769 1118.0062 2436394
50.943954 591.8114 1118.6936 2699567
58.056412 592.86823 1120.6914 2634286
64.991211 592.07855 1119.1987 2831411
71.887932 591.12952 1117.4048 2831412
80.004379 599.48865 1133.2059 3028790
87.077003 599.30109 1132.8513 2831411
93.715675 596.38013 1127.33 2634032
100.13309 592.55939 1120.1075 2305067
108.00105 597.26074 1128.9945 3226169
114.89139 596.31 1127.1974 3555134
120.96764 591.48895 1118.0842 3094583
128.01285 591.67413 1118.4342 2568753
135.80334 595.10602 1124.9214 2963254
143.10899 596.17944 1126.9506 2634289
150.16969 596.17944 1126.9506 2371118
157.23163 596.18414 1126.9595 2568496
164.25751 596.05756 1126.7202 2568496
172.21568 599.18524 1132.6323 2436910
