# .PCD v0.7 - Point Cloud Data file format
VERSION 0.7
FIELDS x y z rgb
SIZE 4 4 4 4
TYPE F F F U
COUNT 1 1 1 1
WIDTH 1264
HEIGHT 1
VIEWPOINT 0 0 0 1 0 0 0
POINTS 1264
DATA ascii
2451.4841 740.27576 4588.792 8036260
2467.1704 736.37659 4564.6221 7509402
2453.6909 723.96136 4487.6631 3951963
2470.9673 720.79926 4468.0615 3029052
2530.7947 729.98132 4524.979 3226171
2626.4951 749.19257 4644.0649 3160379
2657.6755 749.78046 4647.709 3291707
2725.1772 760.49152 4714.1045 3291451
2764.2856 763.13428 4730.4863 3226171
2803.6707 765.79663 4746.9897 3226428
2833.9055 765.92999 4747.8164 3160635
2877.9165 769.74524 4771.4663 3292478
2910.2578 770.39294 4775.481 3489600
2972.0828 778.75275 4827.3018 3423807
3050.1113 791.14716 4904.1313 3423807
3097.6091 795.4541 4930.8291 3555393
3048.4438 775.09833 4804.6489 3489600
3158.1785 795.14764 4928.9297 3358014
3187.8157 794.83746 4927.0068 3292221
3226.104 796.66962 4938.3638 3226427
3267.4224 799.20801 4954.0986 3291962
3306.9148 801.25629 4966.7954 3291705
3345.0037 802.92944 4977.167 3160376
3380.9932 804.07239 4984.252 3094583
3418.1448 805.46832 4992.9048 3291962
3459.1768 807.745 5007.0176 3291962
3316.7659 767.53033 4757.7363 3357755
3502.9133 803.38635 4979.9995 2962997
3567.948 811.07745 5027.6748 2699825
3552.6108 800.5235 4962.2534 2831411
3651.9106 815.76007 5056.7012 3357755
3655.8958 809.62646 5018.6802 3423548
3701.2527 812.6814 5037.6172 3489341
3732.9431 812.70929 5037.79 3489341
3748.5095 809.25586 5016.3828 3555134
3779.9392 809.25586 5016.3828 3357755
3816.3096 810.30505 5022.8867 3423548
3851.4734 811.08295 5027.7085 3358012
3887.9436 812.12115 5034.144 3489341
3914.0168 810.98822 5027.1216 3291962
3947.0984 811.31403 5029.1411 3160376
3985.8606 812.79315 5038.3096 3423548
4022.4778 813.81488 5044.6436 3357755
4065.4939 816.10535 5058.8413 3489341
4097.189 816.10535 5058.8413 3160376
4106.1553 811.61279 5030.9932 3028790
4136.915 811.46344 5030.0674 3028790
4167.6143 811.30469 5029.0835 3028790
4207.4932 812.92194 5039.1079 3094584
4241.3154 813.35352 5041.7832 3160121
4275.3105 813.81158 5044.623 3225915
4321.4321 816.55444 5061.625 3225914
4366.8916 819.133 5077.6089 3160122
4412.832 821.76392 5093.9175 2897206
4429.7397 818.98926 5076.7183 2831157
4461.6562 819.00934 5076.8423 2831413
4421.7788 805.94342 4995.8501 3094328
4453.0791 805.94342 4995.8501 3423293
4568.8145 821.11823 5089.915 3357502
4610.5942 822.8833 5100.8564 3291708
4647.3535 823.73425 5106.1313 3357501
4723.3545 831.48151 5154.1548 3357501
4771.6562 834.28064 5171.5059 3357501
4815.9644 836.34845 5184.3237 3423294
4853.3403 837.19275 5189.5571 3160122
4897.2671 839.14838 5201.6792 3094329
4929.8872 839.15332 5201.7104 3291708
4952.5332 837.4718 5191.2871 3291708
4997.4106 839.547 5204.1504 3291708
5003.2446 835.07867 5176.4521 3357501
5072.9478 841.2594 5214.7651 3423294
5198.521 856.56677 5309.6519 3423294
5260.5503 861.27594 5338.8428 3423294
5294 861.27594 5338.8428 3423294
5359.2754 866.42114 5370.7368 3357501
5413.812 869.77692 5391.5381 3423294
5441.2231 868.76007 5385.2354 3357501
5417.1201 859.58167 5328.3403 3225915
4673.8701 737.10114 4569.1133 3160122
nan nan nan 16777215
nan nan nan 16777215
nan nan nan 16777215
nan nan nan 16777215
nan nan nan 16777215
nan nan nan 16777215
-3950.0356 705.50763 4210.6099 3225915
-4109.5947 738.94122 4410.1479 3291708
-4086.5337 739.76849 4415.0854 3225915
-4091.5537 745.7251 4450.6357 3291708
-4063.478 745.69006 4450.4263 3291708
-4039.5649 746.42365 4454.8047 3291708
-3993.6846 743.0802 4434.8501 3357501
-3983.8459 746.44287 4454.9194 3423294
-4013.2632 757.26013 4519.479 3489087
-3984.947 757.26013 4519.479 3554880
-3974.6936 760.7171 4540.1108 3752259
-3951.4595 761.72162 4546.106 3752259
-3958.9617 768.7088 4587.8071 3752259
-3933.8303 769.41547 4592.0244 3686723
-3925.7168 773.48547 4616.3149 3555393
-3912.1631 776.53607 4634.5215 3555650
-3881.886 776.28802 4633.041 3555648
-3852.4863 776.21307 4632.5938 3686977
-3832.2024 777.98755 4643.1841 3555647
-3791.3779 775.58728 4628.8589 3489598
-3692.9041 761.26599 4543.3867 3423805
-3664.4385 761.26599 4543.3867 3489599
-3707.345 776.20923 4632.5708 3555391
-3659.7959 772.30017 4609.2407 3555391
-3607.2578 767.2677 4579.2061 3489598
-3580.9514 767.77875 4582.2563 3423806
-3535.8074 764.22656 4561.0562 3555392
-3507.1377 764.20624 4560.9346 3621185
-3478.562 764.20624 4560.9346 3555393
-3437.5027 761.44098 4544.4312 3621186
-3410.3306 761.73132 4546.1641 3555393
-3381.0173 761.54443 4545.0483 3489601
-3330.1753 756.46393 4514.7271 3555393
-3290.7168 753.9043 4499.4507 3424064
-3230.7112 746.55249 4455.5737 3555393
-3225.2627 751.78943 4486.8286 3818565
-3171.9688 745.86792 4451.4878 3687492
-3137.4553 744.29657 4442.1099 3424063
-3066.0796 733.87408 4379.9062 3292991
-2949.3704 712.31476 4251.2358 3490884
-2918.582 711.30255 4245.1948 4478035
-2854.1375 701.99371 4189.6382 4873820
-2769.1956 687.42401 4102.6831 5400163
-2694.8232 675.22955 4029.9041 5400164
-2660.0767 672.82715 4015.5662 5071457
-2631.865 672.04761 4010.9138 5005663
-2597.6545 669.70642 3996.9412 4808284
-2544.7258 662.4469 3953.615 4215889
-2525.6731 663.95007 3962.5857 3952459
-2509.126 666.14825 3975.7051 3689800
-2484.2168 666.14825 3975.7051 2899771
-2469.1921 668.82562 3991.6841 2899771
-2495.4236 682.84711 4075.3669 3556675
-2463.3752 681.04584 4064.6169 3425345
-2469.7229 689.93323 4117.6587 3425345
-2472.1353 697.89728 4165.1899 3359295
-2497.2808 712.51746 4252.4458 3622467
-2517.2727 725.96667 4332.7134 3951175
-2478.8267 722.67218 4313.0513 4016456
-2460.2432 725.15967 4327.897 4016455
-2444.3696 728.51019 4347.8936 4148041
-2446.2964 737.30115 4400.3599 3819076
-2443.5208 744.85913 4445.4673 3753283
-2449.5034 755.29193 4507.7324 3687490
-2431.4285 758.46356 4526.6611 3621697
-2418.272 763.26251 4555.3022 3621697
-2339.406 747.18878 4459.3711 4148041
-2349.6394 759.52826 4533.0156 4148041
-2325.8557 761.039 4542.0322 4082248
-2309.5679 765.07031 4566.0918 3754310
-2290.7788 768.36377 4585.7476 3622467
-2271.906 771.71228 4605.7324 3622467
-2240.4487 770.8175 4600.3921 3556674
-2169.7791 756.2326 4513.3467 3490881
-2129.0017 751.81854 4487.0024 3688260
-2110.9812 755.43005 4508.5566 3819846
-2099.1567 761.38684 4544.1079 3754053
-2084.9517 766.63214 4575.4131 3754053
-2039.691 760.44543 4538.4893 3819846
-1997.8163 755.36389 4508.1621 3556674
-1958.4392 751.09454 4482.6816 3688260
-1926.9506 749.77039 4474.7788 3754053
-1889.0769 745.88605 4451.5962 3820103
-1856.553 744.02924 4440.5142 3754053
-1814.371 738.1864 4405.6431 3885384
-1786.4667 738.06177 4404.8994 3819592
-1740.7029 730.43903 4359.4053 3819592
-1696.5046 723.24072 4316.4443 3688263
-1681.7373 728.55908 4348.1855 3688263
-1655.338 728.93054 4350.4023 3556420
-1636.7545 732.81366 4373.5776 3359041
-1540.2651 701.35486 4185.8252 3095869
-1526.7745 707.25409 4221.0332 3227454
-1503.6196 708.8056 4230.2925 3490626
-1480.2009 710.28613 4239.1289 4148814
-1388.8345 678.61975 4050.1375 5004124
-1336.8423 665.37207 3971.073 5464674
-1277.861 648.07727 3867.854 5924970
-1251.337 646.89319 3860.7869 5859176
-1205.8838 635.68372 3793.8867 3030077
-1204.1616 647.53992 3864.6467 2306870
-1167.09 640.48334 3822.5317 4279117
-1115.8069 625.1687 3731.1311 4805718
-1098.3757 628.57117 3751.4375 4476753
-1076.4132 629.4726 3756.8176 3818823
-1056.4351 631.60059 3769.5181 2042154
-1037.1837 634.27045 3785.4521 2699828
-1005.089 629.02734 3754.1602 4081737
-986.21417 632.00476 3771.9302 4015944
-971.11884 637.60992 3805.3828 4213579
-962.31415 647.73145 3865.79 2963256
-920.3349 635.46936 3792.6074 1713189
-890.05682 630.85077 3765.043 3423808
-866.11639 630.59509 3763.5168 4805461
-839.38104 628.23315 3749.4204 5002840
-815.63373 628.03607 3748.2439 5463391
-787.30322 624.19354 3725.311 2831928
-771.37665 630.25085 3761.4624 2305584
-747.80994 630.25085 3761.4624 4608596
-733.25934 638.09692 3808.2891 5134940
-700.42029 630.02039 3760.0872 5002840
-668.15643 621.91718 3711.7253 3226943
-652.66364 629.40277 3756.4009 1713447
-635.37354 635.65039 3793.688 2305584
-624.20831 648.74933 3871.865 4608339
-593.49438 641.76874 3830.2036 4805718
-570.86621 643.31183 3839.4128 4740181
-535.48859 629.99109 3759.9121 3160894
-506.17767 622.91022 3717.6521 1648423
-491.37323 633.85931 3782.9985 4015945
-469.81265 636.76117 3800.3174 4871770
-461.18964 658.44403 3929.7249 4739925
-435.18604 656.3587 3917.2791 3621958
-416.78287 666.17236 3975.8489 3029820
-411.03229 698.74261 4170.2349 3161405
-400.1683 726.45209 4335.6104 3556163
-375.10178 730.53693 4359.9897 3753285
-354.9068 745.49634 4449.2705 3621699
-329.8049 751.82037 4487.0132 3293248
-305.4321 761.13983 4542.6338 3029562
-276.18967 758.99237 4529.8174 2701111
-246.18385 754.01501 4500.1113 2700597
-213.425 738.22748 4405.8882 3424577
-180.28636 716.24048 4274.6655 3688006
-162.91069 760.13025 4536.6084 3556162
-134.59096 760.71539 4540.1006 3556160
-105.99249 759.61652 4533.5425 3687746
-77.293488 756.72888 4516.3081 3556161
-49.109463 758.45929 4526.6357 3621698
-20.907091 764.24982 4561.1948 3621696
7.5910282 756.36053 4514.1099 3029561
36.451668 768.55438 4586.8853 3424319
65.234863 769.08411 4590.0469 3227196
93.937363 768.62946 4587.3335 3292732
121.45579 760.96918 4541.6152 3161146
150.90324 766.00891 4571.6934 3424319
178.59966 761.97009 4547.5889 3358781
207.09171 761.97009 4547.5889 3227196
235.82216 762.74121 4552.1909 3687491
263.08801 759.11987 4530.5781 3687746
291.54504 759.30621 4531.6904 3621697
318.70187 756.37366 4514.1885 3753283
346.44287 755.19275 4507.1401 3687490
373.21625 752.23938 4489.5142 3687490
401.00726 751.60736 4485.7422 3490367
429.53082 752.34125 4490.1221 3555904
457.90881 752.74561 4492.5356 3555903
485.67224 752.15143 4488.9893 3358526
510.58136 747.44379 4460.8931 3226941
538.17029 746.94421 4457.9116 3292734
561.01404 740.23285 4417.8569 3490113
588.6933 740.23285 4417.8569 3424320
617.539 741.63379 4426.2178 3424065
637.54498 732.75439 4373.2236 3555651
664.94458 732.75439 4373.2236 3687237
686.89569 726.98785 4338.8081 3687237
716.34973 729.29895 4352.6011 3555651
744.43774 730.10083 4357.3867 3555651
774.38306 732.60309 4372.3208 3555651
806.52954 736.94562 4398.2378 3555651
836.35254 738.94824 4410.1899 3292479
869.63806 743.78424 4439.0522 3226687
903.30811 748.63928 4468.0278 3423810
925.68927 744.12762 4441.1016 3424066
958.6026 748.09875 4464.8018 3489858
986.57599 748.09875 4464.8018 3160893
1021.8207 753.46039 4496.8013 3095100
1050.9889 754.17395 4501.0601 3161148
1080.2828 754.93805 4505.6201 3029562
1119.3937 762.34888 4549.8496 3095355
1153.0819 765.79034 4570.3892 3095355
1186.5289 768.90881 4589.0005 3161404
1212.4177 767.09753 4578.1904 3358527
1241.1014 767.09753 4578.1904 3358527
1271.9246 768.38989 4585.9038 3292991
1285.6205 759.50696 4532.8887 3095612
1334.5978 771.40076 4603.873 3029562
1374.4215 777.61237 4640.9453 3161149
1402.1069 776.84143 4636.3438 3226939
1435.9169 779.42615 4651.77 3292988
1473.2024 783.75708 4677.6182 3621697
1495.3652 780.03064 4655.3779 3752770
1524.5327 780.03064 4655.3779 3752770
1554.3593 780.36157 4657.353 3489598
1572.6024 774.97211 4625.1875 3226426
1599.7222 774.07281 4619.8203 3291962
1632.2667 775.78381 4630.0317 3226169
1667.9381 778.89514 4648.6011 3160376
1700.7288 780.5777 4658.6426 3094583
1732.2715 781.64014 4664.9839 3028790
1749.1111 776.14319 4632.1768 3028790
1762.3427 769.25079 4591.0415 3094583
1791.1069 769.25079 4591.0415 3028790
1829.9655 773.51764 4616.5068 2765618
1866.4531 776.66498 4635.291 2765618
1896.3124 777.00006 4637.291 2634032
1935.7727 781.19958 4662.3545 2765618
1984.6041 788.99988 4708.9082 2699825
2007.5579 786.43439 4693.5967 2699825
2026.902 782.54938 4670.4102 2765616
2055.8901 782.44525 4669.7891 2699824
2071.4478 777.30438 4639.1069 2634801
2093.5127 774.71381 4623.646 2569524
2113.9985 771.61761 4605.1675 2767160
2150.7986 774.47925 4622.2461 4149599
2213.3828 786.42627 4693.5483 6452873
2235.1021 783.73065 4677.4604 6847887
2277.866 788.38879 4705.2607 5795197
2302.0642 786.58405 4694.4897 4347750
2275.6118 767.73657 4582.0044 3492693
2279.0959 759.33282 4531.8491 2242364
2330.0239 766.74829 4576.1064 2373693
2372.7185 771.30707 4603.314 2044213
2457.5625 789.29346 4710.6602 2044216
2460.1716 780.75507 4659.7012 4415599
2468.3442 774.1618 4620.3516 7049886
2459.8354 762.55023 4551.0513 8629432
2445.3665 749.37823 4472.438 6915738
2473.3977 749.38123 4472.4561 2108464
2523.7 756.05627 4512.2939 2832186
2560.4189 758.55914 4527.2314 2635832
2604.1702 763.06769 4554.1396 2700342
2648.1934 767.55737 4580.9351 2897721
2676.8945 767.55737 4580.9351 3094842
2720.1755 771.69366 4605.6211 3029049
2770.4604 777.70917 4641.5229 3028792
2803.5872 778.83313 4648.231 3094329
2849.0552 783.32727 4675.0527 3226169
2876.3381 782.78082 4671.7915 3226169
2898.1982 780.78455 4659.8774 3291706
2961.3982 789.85413 4714.0063 3160120
2998.6965 791.90436 4726.2427 3029047
3028.4568 791.94324 4726.4746 3160633
3068.5537 794.65833 4742.6787 3226170
3098.3447 794.67792 4742.7959 3160377
3139.2349 797.51697 4759.7397 3094840
3169.3811 797.59875 4760.228 3094840
3196.3806 796.89453 4756.0249 3094583
3220.8262 795.57239 4748.1343 3160376
3248.6987 795.11328 4745.394 3291962
3279.2363 795.30878 4746.561 3226169
3295.9087 792.16827 4727.8179 3226169
3320.3904 790.94403 4720.5112 3291962
3349.9658 790.94403 4720.5112 3423291
3382.1323 791.55048 4724.1304 3555134
3406.9072 790.4314 4717.4517 3555134
3439.4019 791.10724 4721.4854 3489341
3468.9836 791.10724 4721.4854 3555134
3492.8748 789.82056 4713.8062 3555134
3492.6172 783.14056 4673.9385 3620927
3517.8271 782.23468 4668.5322 3423805
3579.7668 789.44379 4711.5576 3358012
3615.5593 790.81592 4719.7466 3423805
3658.9658 793.81763 4737.6611 3489341
3688.6484 793.81763 4737.6611 3555134
3719.6577 794.10071 4739.3511 3555134
3754.4941 795.19 4745.8521 3620927
3782.1855 794.76074 4743.29 3621184
3800.0967 792.29895 4728.5977 3555391
3850.79 796.65741 4754.6099 3555134
3883.325 797.22113 4757.9741 3621184
3913.1353 797.22113 4757.9741 3752770
3940.7141 796.77002 4755.2817 3884099
3976.0481 797.88184 4761.9175 3620927
3997.7942 796.27081 4752.3022 3225915
4039.9404 798.71667 4766.8999 3094329
4069.8064 798.71667 4766.8999 3291709
4085.9478 796.04279 4750.9414 3423294
4123.8804 797.62225 4760.3682 3620673
4148.1377 796.5531 4753.9873 3686466
4181.0029 797.14026 4757.4917 3554880
4210.8101 797.14026 4757.4917 3489087
4265.8838 801.88989 4785.8384 3489087
4325.1694 807.35931 4818.481 3357501
4352.7817 806.88165 4815.6299 3291708
4385.8418 807.41339 4818.8037 3225915
4421.1392 808.34698 4824.3755 3291708
4469.3315 811.60956 4843.8472 3291708
4520.3188 815.33228 4866.0649 3423294
4562.2593 817.38416 4878.3115 3291708
4628.9727 823.81763 4916.7075 3225915
4688.623 828.91736 4947.1436 3357501
4636.6504 814.34552 4860.1758 3423294
4718.9966 823.40063 4914.2188 3489087
4768.0234 826.56232 4933.0879 3357501
4813.2402 829.02692 4947.7974 3423294
4899.8955 838.55164 5004.6426 3357501
4957.7881 843.06421 5031.5747 3291708
4991.0879 843.36414 5033.3647 3291708
5043.4116 846.8548 5054.1978 3423294
5082.1626 848.03699 5061.2534 3357501
5098.9819 845.56769 5046.5156 3423294
5133.1143 845.98199 5048.9888 3423294
5084.9702 832.91455 4970.9995 3357501
nan nan nan 16777215
nan nan nan 16777215
nan nan nan 16777215
nan nan nan 16777215
nan nan nan 16777215
nan nan nan 16777215
-3793.1565 702.68683 4043.3818 3423294
-3932.3542 733.37122 4219.9453 3423294
-3916.1646 735.29565 4231.019 3423294
-3873.3674 732.21649 4213.3008 3620673
-3855.2952 733.80115 4222.4189 3620673
-3853.0991 738.45032 4249.1714 3423038
-3830.676 739.26068 4253.8345 3489087
-3798.4441 738.17627 4247.5942 3620418
-3765.6594 736.96832 4240.6436 3752259
-3748.54 738.83081 4251.3608 3686467
-3761.5288 746.69672 4296.6226 3883845
-3751.571 750.08807 4316.1367 4015941
-3718.3511 748.84387 4308.9775 4147270
-3590.3105 728.34576 4191.0278 3884355
-3651.7095 746.25922 4294.105 3489597
-3641.2754 749.65002 4313.6162 3489598
-3654.5945 758.01825 4361.7686 3621184
-3622.8396 757.09302 4356.4448 3555391
-3595.616 757.10797 4356.5308 3423805
-3562.5098 755.87494 4349.4355 3423805
-3515.3501 751.61816 4324.9414 3423805
-3464.5813 746.51764 4295.5923 3423805
-3417.9409 742.2337 4270.9414 3358012
-3363.5342 736.18237 4236.1211 3423805
-3343.7959 737.68311 4244.7563 3358011
-3334.1565 741.45361 4266.4526 3423805
-3284.3848 736.28827 4236.7305 3489597
-3242.4065 732.80011 4216.6592 3423805
-3217.4529 733.13397 4218.5801 3489597
-3205.0994 736.36816 4237.1904 3423806
-3173.3325 735.159 4230.2324 3423804
-3148.6292 735.57965 4232.6528 3489597
-3130.9905 737.67181 4244.6914 3489599
-3094.4822 735.31598 4231.1357 3555393
-3052.2766 731.55402 4209.4888 3555393
-3021.5757 730.50793 4203.4692 3620930
-3003.2053 732.45062 4214.6479 3358784
-2938.3418 722.98804 4160.1987 3292734
-2894.6255 718.60602 4134.9839 3161405
-2883.8989 722.40863 4156.8647 2832440
-2787.8164 704.70428 4054.9907 2569268
-2730.0215 696.44171 4007.4465 2174766
-2714.2515 698.84589 4021.2808 2240303
-2685.2354 697.85278 4015.5662 2371372
-2645.6282 694.06238 3993.7554 2371372
-2599.8362 688.56146 3962.1023 2502957
-2575.0122 688.56146 3962.1023 2765872
-2544.7258 687.08649 3953.615 2896945
-2504.4905 682.86993 3929.3523 2831151
-2479.8721 682.86993 3929.3523 2962737
-2453.7732 682.45831 3926.9834 2896945
-2430.7012 682.88861 3929.4597 2962738
-2428.1116 689.14105 3965.437 3028791
-2447.1426 701.72247 4037.833 3620927
-2376.0566 688.45557 3961.4929 4147785
-2408.636 705.26245 4058.2026 4279884
-2390.8135 707.51257 4071.1501 4083018
-2392.1392 715.53882 4117.3345 4082249
-2370.6819 716.85089 4124.8843 4410957
-2329.5591 712.17975 4098.0059 4279627
-2299.5146 710.82916 4090.2344 4082248
-2309.9358 722.0979 4155.0767 3819076
-2301.0576 727.52167 4186.2861 3884869
-2312.1138 739.4458 4254.8994 3884869
-2291.8108 741.50195 4266.731 3490111
-2256.6323 738.73706 4250.8213 3490111
-2248.1472 744.74884 4285.4141 3819076
-2222.9878 745.31555 4288.6748 3950662
-2204.3684 748.11542 4304.7861 3884869
-2196.386 754.63959 4342.3271 3754053
-2172.8767 755.92566 4349.7275 3688260
-2147.9766 756.75439 4354.4961 3688260
-2116.2507 755.1687 4345.3716 3622467
-2076.0042 750.46149 4318.2856 3688260
-2034.6636 745.22937 4288.1792 3754053
-2013.9099 747.49841 4301.2354 3688260
-1987.6475 747.75647 4302.7207 3688260
-1979.4016 754.8927 4343.7837 3688260
-1933.4735 747.65662 4302.146 3688260
-1881.8903 737.99817 4246.5698 3622467
-1849.0646 735.52411 4232.3335 3490881
-1814.0436 732.09222 4212.5854 3688260
-1781.2574 729.474 4197.52 3951432
-1735.858 721.53455 4151.835 3885638
-1705.4994 719.70062 4141.2822 3885128
-1678.7706 719.36536 4139.353 3819592
-1640.9701 714.20081 4109.6353 4148557
-1615.2219 714.20081 4109.6353 4214350
-1589.8558 714.37244 4110.623 3950921
-1568.8282 716.53125 4123.0454 3687492
-1529.4178 710.22595 4086.7632 3358527
-1490.1167 703.75732 4049.5417 3161405
-1438.121 690.96545 3975.9351 3095613
-1420.63 694.59302 3996.8088 3950921
-1359.6366 676.69946 3893.8462 4740181
-1303.3408 660.53271 3800.8201 4806486
-1277.0342 659.24561 3793.4136 5069148
-1237.3816 650.8894 3745.3306 4345424
-1213.916 650.8894 3745.3306 2437171
-1201.9728 657.18939 3781.582 3161150
-1190.5323 664.02325 3820.9048 4739926
-1146.0426 652.32587 3753.5962 4345678
-1119.4714 650.55127 3743.3848 4279116
-1093.1984 648.87762 3733.7544 2897719
-1069.8052 648.87762 3733.7544 1845032
-1060.2882 657.48218 3783.2666 2634547
-1027.5038 651.72223 3750.123 3555649
-1001.7667 650.26727 3741.751 3555650
-983.67944 653.82733 3762.2358 3686979
-965.61157 657.57526 3783.8022 3029049
-925.39404 646.04852 3717.4753 1976362
-903.7973 647.26196 3724.4578 2700085
-893.3374 656.72687 3778.9204 4213324
-864.23053 652.62579 3755.322 3950152
-830.19159 644.46655 3708.3723 4410447
-804.06238 642.15436 3695.0679 3686467
-780.08038 641.47083 3691.1345 2107691
-757.32355 641.78375 3692.9351 2831671
-735.99792 643.36749 3702.0483 3356988
-712.30249 642.91534 3699.4465 2896436
-691.13177 644.78827 3710.2234 3554367
-665.18683 642.18225 3695.2283 2699058
-642.08276 642.22992 3695.5027 2370093
-620.85553 644.2287 3707.0039 2830386
-604.3465 651.46899 3748.6655 2896437
-578.33508 648.63721 3732.3708 2699058
-555.40991 649.17401 3735.4597 2633778
-529.46826 646.07721 3717.6406 2633265
-511.12073 652.38849 3753.9568 2699058
-491.87354 658.10498 3786.8501 2699058
-467.67163 657.43561 3782.9985 2435886
-447.9173 663.28088 3816.6333 2435885
-430.7674 673.85962 3877.5051 2436655
-407.42181 675.43152 3886.5503 2699827
-393.30405 693.47382 3990.3687 3094586
-374.51593 705.17175 4057.6807 3095099
-349.09329 705.17175 4057.6807 3161148
-330.39209 719.81555 4141.9434 3226941
-306.55469 724.81183 4170.6929 3226941
-286.8519 741.42603 4266.2939 3160891
-260.84 743.47174 4278.0654 3161148
-233.63675 742.2016 4270.7568 3358270
-205.42982 737.00208 4240.8379 3292734
-179.59351 740.02588 4258.2373 3621442
-154.05815 745.5614 4290.0898 3358527
-126.42719 741.15179 4264.7158 3358527
-98.932442 735.39105 4231.5679 3424320
-73.324104 744.56818 4284.3745 3555649
-46.810028 749.83606 4314.687 3292991
-19.869064 753.31989 4334.7334 3358784
7.3292375 757.43842 4358.4321 3359042
34.765438 760.26538 4374.6992 3556677
62.279255 761.54901 4382.085 3161663
89.340401 758.20544 4362.8457 3227712
116.10358 754.49219 4341.479 3161663
141.08887 742.828 4274.3613 3095870
169.75398 751.16882 4322.356 3622213
197.90555 755.25482 4345.8672 3359042
225.91074 757.86133 4360.8657 3227197
249.46167 746.57495 4295.9219 3555904
274.28375 740.92059 4263.3857 3687747
301.20193 741.42957 4266.3145 3753283
328.41675 742.52618 4272.6245 3555904
353.1853 738.34351 4248.5566 3358525
377.46265 733.79224 4222.3677 3424318
404.34811 734.57526 4226.8735 3424318
429.43845 732.20129 4213.2134 3358784
456.67218 733.54517 4220.9463 3292733
484.98279 736.37701 4237.2412 3161147
511.38528 736.16815 4236.0391 3095355
531.94122 727.97858 4188.915 3161148
555.06049 723.90228 4165.4595 3424320
582.16907 725.16113 4172.7031 3292479
604.22046 720.2832 4144.6348 3292990
630.18787 720.2832 4144.6348 3621444
654.22308 718.16223 4132.4302 3621444
682.74658 720.94208 4148.4258 3555651
708.89716 721.10413 4149.3584 3555651
737.40192 723.56482 4163.5176 3489858
766.02399 725.96857 4177.3491 3555651
801.31561 734.32544 4225.436 3621444
823.38953 730.42249 4202.9775 3555651
855.23517 735.16119 4230.2451 3423809
885.24786 738.08679 4247.0796 3424065
916.62036 741.94226 4269.2646 3489858
947.14453 744.91193 4286.3525 3160893
968.64319 740.81525 4262.7793 3095100
995.35083 740.81525 4262.7793 3226942
1025.2936 743.16016 4276.2725 3161148
1061.6627 749.92505 4315.1987 3161148
1097.1885 755.77283 4348.8481 3292734
1128.7288 758.65857 4365.4531 3226940
1154.9747 757.93353 4361.2812 3161148
1176.943 754.49963 4341.522 3095612
1205.087 755.09058 4344.9224 3161404
1237.0603 758.00165 4361.6733 3095355
1275.0138 764.37213 4398.3301 2832183
1292.2368 758.30804 4363.436 2963254
1330.7543 764.7323 4400.4023 2897461
1360.1289 765.74835 4406.249 2634289
1387.7355 765.74835 4406.249 2502703
1424.5284 770.71857 4434.8481 2831668
1452.3141 770.71857 4434.8481 2897462
1475.0083 768.06726 4419.5923 3094584
1495.4797 764.37762 4398.3613 3292219
1508.2615 756.96222 4355.6919 3029047
1553.1909 765.65784 4405.728 3029047
1597.5555 773.77625 4452.4429 2963254
1631.261 776.54175 4468.356 3029047
1663.0621 778.32281 4478.6045 2963511
1678.5066 772.5166 4445.1948 3028790
1714.3627 776.14099 4466.0498 3029047
1736.2863 773.44257 4450.5229 3029047
1764.1702 773.44257 4450.5229 2962997
1802.0808 777.77002 4475.4238 2831411
1825.8357 775.94904 4464.9453 2831411
1860.3903 778.70331 4480.7939 2634032
1893.1782 780.64728 4491.98 2568239
1924.3113 781.86194 4498.9692 2634032
1956.8169 783.59106 4508.9189 2634031
1988.9863 785.13837 4517.8223 2633262
2023.1842 787.4317 4531.0186 2370605
2052.1965 787.67126 4532.397 2305070
2079.9592 787.43109 4531.0151 2963514
2143.125 800.41986 4605.7549 4147789
2172.488 800.60663 4606.8296 4411220
2216.1045 805.97223 4637.7041 2832446
2284.1865 819.98163 4718.3164 1911601
2278.5696 807.51447 4646.5781 2175032
2250.7026 787.57599 4531.8491 2634815
2279.0959 787.57599 4531.8491 2635582
2304.6038 786.59106 4526.1816 2635839
2339.4514 788.77911 4538.772 2702146
2397.3296 798.58655 4595.2056 2307899
2432.3494 800.63702 4607.0044 3162962
2468.9265 803.146 4621.4414 5467260
2459.8354 790.91309 4551.0513 6060423
2435.2031 774.02081 4453.8501 4150116
2466.9973 775.2431 4460.8833 2437942
2477.2087 769.73163 4429.1694 2701370
2523.3037 775.36865 4461.606 2569526
2554.0439 776.21564 4466.4795 2503219
2551.2808 766.97241 4413.2925 2700085
2573.6648 765.40619 4404.2798 3292222
2637.1003 775.95227 4464.9639 3423807
2690.6707 783.40466 4507.8462 3357758
2716.9692 782.84436 4504.6221 3423037
2735.106 779.96808 4488.0718 3291705
2762.259 779.69543 4486.5029 3094840
2796.0654 781.28729 4495.6626 3225912
2836.24 784.60913 4514.7773 3291962
2869.0806 785.85645 4521.9546 3225912
2881.8264 781.62927 4497.6304 3160376
2908.4946 781.22351 4495.2954 3226169
2937.5312 781.45551 4496.6304 3226169
2973.3262 783.46387 4508.187 3226169
3009.6687 785.57745 4520.3491 3291962
3036.9441 785.30695 4518.7925 3291962
3065.2556 785.30695 4518.7925 3226169
3099.7473 786.87579 4527.8198 3291962
3136.0596 788.87408 4539.3184 3292219
3161.0518 788.01453 4534.3726 3292219
3186.6802 787.32751 4530.4189 3292476
3215.0647 787.32751 4530.4189 3292219
3247.4221 788.29187 4535.9683 3423548
3245.0547 780.88342 4493.3389 3555134
3271.866 780.56354 4491.498 3489341
3311.3757 783.25275 4506.9722 3489341
3338.5532 783.00409 4505.5415 3489341
3370.7446 783.92572 4510.8447 3423548
3400.8953 784.36139 4513.3516 3489341
3428.218 784.14294 4512.0947 3489341
3456.0513 784.04395 4511.5249 3555134
3493.6848 786.15186 4523.6543 3554877
3522.9431 786.35632 4524.8311 3686720
3527.1533 781.01123 4494.0742 3555134
3559.5317 781.9386 4499.4106 3686720
3591.9951 782.86993 4504.7695 3555134
3610.4453 780.75641 4492.6079 3620927
3650.9834 783.41516 4507.9067 3621183
3689.9045 785.68872 4520.9893 3752513
3719.6292 785.98438 4522.6904 3686463
3739.6003 784.23022 4512.5967 3752513
3784.7668 787.7464 4532.8296 3949892
3775.9622 780.06049 4488.6035 4015174
3825.6125 784.47491 4514.0049 3949638
3867.8125 787.30811 4530.3076 3554880
3882.8193 784.60504 4514.7534 3554880
3928.8647 788.1676 4535.2534 3423294
3970.9109 790.88257 4550.8755 3489087
4004.8164 791.94904 4557.0122 3423294
4034.1138 792.09558 4557.8555 3357501
4044.4714 788.54742 4537.4385 3423294
4072.8999 788.54742 4537.4385 3357501
4116.2368 791.41376 4553.9321 3225915
4150.3906 792.4873 4560.1094 3225915
4186.2388 793.86743 4568.0508 3160122
4231.2612 796.95667 4585.8271 3357501
4269.4546 798.72681 4596.0127 3291708
4308.2832 800.59131 4606.7412 3291708
4359.5752 804.73145 4630.5645 3225915
4412.0581 809.03534 4655.3296 3291708
4427.8477 806.59839 4641.3071 3291708
4459.7646 807.11194 4644.2622 3291708
4506.5869 810.29889 4662.6006 3357501
4547.0327 812.3056 4674.1475 3357501
4611.1694 818.49194 4709.7446 3357501
4665.6997 822.90521 4735.1392 3423294
4695.3672 822.90521 4735.1392 3291708
4754.5913 828.05286 4764.7598 3225915
4787.1553 828.52203 4767.4595 3225915
4821.0522 829.21478 4771.4458 3291708
4852.4985 829.47992 4772.9717 3160122
4926.1201 836.90723 4815.7095 3160122
nan nan nan 16777215
nan nan nan 16777215
nan nan nan 16777215
nan nan nan 16777215
nan nan nan 16777215
nan nan nan 16777215
-3621.1226 694.87341 3859.999 3686466
-3767.8235 727.8858 4043.3818 3752259
-3745.6221 728.49481 4046.7649 3620929
-3727.3877 729.88904 4054.5098 3686976
-3705.5449 730.59094 4058.4087 3686719
-3682.9404 731.15131 4061.5215 3752512
-3655.5496 730.7627 4059.3628 3752512
-3624.7329 729.67902 4053.3428 3620927
-3607.228 731.27856 4062.2285 3686720
-3576.2869 730.15765 4056.0017 3620927
-3562.7244 732.5943 4069.5371 3555134
-3544.47 734.0943 4077.8699 3555134
-3507.0364 731.61499 4064.0974 3226169
-3468.2075 728.80621 4048.4949 3160890
-3447.2598 729.74139 4053.6897 3094840
-3440.574 733.73181 4075.8564 3094840
-3415.0376 733.73181 4075.8564 3160633
-3395.3882 735.00623 4082.9355 3226426
-3370.1111 735.07251 4083.3037 3423805
-3338.9922 733.85577 4076.5449 3489598
-3313.4512 733.85577 4076.5449 3423805
-3285.3328 733.28052 4073.3491 3423805
-3197.1565 719.1864 3995.0569 3358012
-3182.7639 721.59821 4008.4543 3423805
-3180.1238 726.73407 4036.9839 3489598
-3167.4729 729.64624 4053.1611 3621184
-3108.8818 721.93738 4010.3386 3686977
-3083.7561 721.93738 4010.3386 3621184
-3066.5442 723.80542 4020.7153 3489598
-3035.3779 722.38336 4012.8159 3489598
-3002.5623 720.54181 4002.5862 3489598
-2977.1638 720.46405 4002.1543 3489598
-2957.5039 721.78564 4009.4954 3621186
-2906.1609 715.33118 3973.6414 3555393
-2887.6404 716.914 3982.4338 3621186
-2864.1836 717.28827 3984.5129 3423551
-2838.3647 717.07239 3983.3137 3358783
-2811.6299 716.61908 3980.7957 3358528
-2781.324 715.2395 3973.1321 3424320
-2750.9412 713.815 3965.219 3489598
-2703.0059 707.76849 3931.6306 3160633
-2665.094 704.25946 3912.1382 2963253
-2633.3015 702.31732 3901.3499 3292476
-2587.4387 696.55109 3869.3186 3358012
-2554.032 694.06067 3855.4844 3160890
-2544.1711 697.98248 3877.2698 3160633
-2526.4558 699.80426 3887.3896 3358269
-2488.2249 695.92352 3865.8323 3292476
-2452.8699 692.77875 3848.3633 3424318
-2421.9348 690.8324 3837.5513 3687746
-2381.8289 686.20471 3811.8447 3884612
-2382.4563 693.33752 3851.4673 3622980
-2369.4758 696.6156 3869.677 3688516
-2298.9734 682.87549 3793.3511 3754310
-2318.2827 695.8042 3865.1694 3885639
-2278.127 690.96973 3838.3142 3754310
-2270.1101 695.88397 3865.6128 3754053
-2286.6787 708.52203 3935.8167 4016968
-2290.6506 717.48993 3985.6331 4280140
-2262.0408 716.33771 3979.2324 4411213
-2270.0886 726.89777 4037.8933 3950662
-2241.0642 725.69135 4031.1917 3753283
-2215.8076 725.69135 4031.1917 3753283
-2210.5417 732.3139 4067.98 3753283
-2183.1392 731.672 4064.4141 3753540
-2155.9399 731.08386 4061.147 3687490
-2132.6936 731.83807 4065.3364 3424318
-2107.2229 731.83807 4065.3364 3424318
-2078.2969 730.62323 4058.5884 3424318
-2055.1692 731.44208 4063.137 3491138
-2044.0449 736.60706 4091.8281 3688260
-2025.3807 739.15161 4105.9629 3491138
-1999.0936 738.94385 4104.8091 3622467
-1956.5853 732.65662 4069.8833 3754053
-1932.8792 733.33685 4073.6621 3688260
-1916.3479 736.79382 4092.8657 3688260
-1891.8143 737.22626 4095.2678 3688260
-1879.5885 742.53265 4124.7446 3688260
-1849.218 740.71912 4114.6704 3490881
-1818.4254 738.68274 4103.3584 3490881
-1787.0176 736.33447 4090.314 3490881
-1753.4287 733.00616 4071.825 3359295
-1723.9615 731.32794 4062.5027 3293502
-1697.8654 731.05096 4060.9644 3490881
-1663.5409 727.16876 4039.3984 3622213
-1629.5687 723.32294 4018.0354 3753799
-1587.6556 715.77649 3976.115 3885642
-1552.8301 711.23566 3950.8906 3753285
-1500.701 698.4939 3880.1106 3884871
-1489.4149 704.65558 3914.3389 3621699
-1453.9865 699.41052 3885.2024 3490113
-1422.3947 695.86377 3865.5005 3292734
-1410.4075 701.95123 3899.3162 2964026
-1380.6732 699.26501 3884.3943 2437682
-1327.8199 684.56329 3802.7268 1845032
-1300.8011 682.88678 3793.4136 1910568
-1272.8114 680.6286 3780.8696 1778982
-1232.3705 671.50037 3730.1626 2173998
-1214.6195 674.62164 3747.5012 2634548
-1209.6249 685.0907 3805.6565 2173227
-1165.9205 673.61615 3741.9155 1120797
-1138.8702 671.48999 3730.105 988954
-1122.5251 675.71887 3753.5962 989210
-1083.4369 666.1452 3700.4148 2171944
-1069.8052 672.14697 3733.7544 2698801
-1056.7567 678.79175 3770.6658 2239276
-1027.2335 674.91602 3749.1365 1252125
-999.08221 671.78143 3731.7239 857624
-972.46088 669.55005 3719.3286 923160
-939.31818 662.60883 3680.7703 2041641
-930.90778 673.2038 3739.625 2633522
-900.65417 668.14172 3711.5054 2370349
-883.38611 672.69977 3736.8252 1251868
-858.85968 671.82831 3731.9844 1185562
-830.19159 667.5777 3708.3723 1251099
-797.53284 659.78088 3665.0613 1777697
-769.0011 655.03717 3638.7102 2501421
-747.67365 656.32776 3645.8794 2369578
-727.24292 658.51172 3658.011 1448733
-701.29596 655.6803 3642.2827 1448732
-673.58026 650.9491 3616.001 1448476
-650.92493 650.9491 3616.001 2238248
-632.96106 655.80994 3643.0027 2961716
-616.36621 662.50598 3680.199 2501163
-589.19067 657.90778 3654.6562 1580318
-570.48975 662.78339 3681.74 1580061
-548.2774 663.81842 3687.4895 2040614
-524.97119 663.56183 3686.0645 2698544
-508.14011 671.84296 3732.0654 2895923
-488.98871 677.70703 3764.6404 2303786
-461.10327 671.4472 3729.8672 1646370
-439.07605 673.505 3741.2983 1646114
-424.69904 688.19147 3822.8813 2041641
-403.12274 692.27051 3845.5398 2831157
-380.65839 695.24597 3862.0686 3358014
-356.74142 695.79224 3865.1033 3555650
-338.87692 709.08264 3938.9307 3555649
-317.80032 717.21167 3984.0872 3424320
-293.25272 718.22552 3989.719 3358784
-271.48859 726.88068 4037.7981 3358527
-246.72797 728.46747 4046.6128 3621956
-222.50891 732.19983 4067.3462 3555906
-198.35098 737.12482 4094.7041 3490113
-172.59723 736.70154 4092.353 3687492
-146.43552 734.08551 4077.821 3621699
-121.19879 735.98065 4088.3484 3819078
-95.333733 734.05341 4077.6428 3621697
-69.801498 734.21606 4078.5461 3555904
-44.681248 741.40271 4118.4678 3358525
-18.995455 746.02466 4144.1426 3424317
7.0272207 752.26978 4178.834 3687490
32.313892 731.99524 4066.2097 3490111
58.229626 737.56427 4097.1455 3292732
85.061035 747.77527 4153.8672 3226938
110.83019 746.05133 4144.2905 3358525
136.39627 743.87427 4132.1973 3424318
161.60382 740.74835 4114.833 3687490
185.82997 734.60303 4080.6958 3555904
214.82852 746.52832 4146.9404 3490111
239.36655 742.05231 4122.0762 3555904
264.36929 739.74847 4109.2783 3687747
286.82336 731.35474 4062.6516 3753283
312.90244 732.81921 4070.7869 3424318
338.06067 732.06885 4066.6187 3621697
363.34222 731.672 4064.4141 3490111
388.45224 731.00433 4060.7053 3490111
410.96613 725.83356 4031.9817 3621696
435.2468 724.20135 4022.9148 3555904
463.52097 729.02887 4049.7317 3424318
488.63306 728.64008 4047.5718 3358525
504.12668 714.65442 3969.8818 3095354
519.98108 702.47131 3902.2053 2700595
548.71729 708.00366 3932.9373 3358526
581.20599 717.69421 3986.7678 3621697
608.16791 720.04272 3999.8137 3490114
633.61566 720.48352 4002.2625 3490114
658.6911 720.48352 4002.2625 3358528
686.41614 723.27539 4017.7712 3358527
712.76917 724.47522 4024.4363 3358528
741.69385 728.11774 4044.6702 3029563
767.03497 728.11774 4044.6702 3292735
800.50366 735.58618 4086.157 3555650
826.00116 735.49396 4085.645 3621443
852.82977 736.55695 4091.5498 3621187
870.21655 729.64124 4053.1333 3555394
900.03821 733.24829 4073.1704 3292479
929.32581 736.2334 4089.7522 3160893
954.54968 735.92517 4088.0403 3292478
980.16241 735.92517 4088.0403 3226941
1011.6839 740.24847 4112.0562 3226428
1034.9889 738.49445 4102.3125 3358014
1053.5759 733.54047 4074.7935 3357757
1091.9363 742.26233 4123.2427 3291965
1117.7697 742.26233 4123.2427 3423807
1137.488 738.29327 4101.1948 3424833
1161.6265 737.30511 4095.7058 3621955
1187.2874 737.30511 4095.7058 3292990
1237.9875 752.52557 4180.2549 2766646
1268.746 755.24469 4195.3594 2831668
1295.7963 755.69086 4197.8379 3029047
1321.1656 755.15857 4194.8809 3226426
1341.8391 752.01514 4177.4194 3160889
1359.9535 747.58533 4152.812 3226169
1382.1956 745.54828 4141.4961 3029046
1419.6588 751.64514 4175.3643 3029046
1452.8053 755.27728 4195.5405 2699824
1469.7307 750.49725 4168.9878 2371116
1496.8364 750.99182 4171.7349 2634289
1535.7858 757.30963 4206.8301 2831411
1565.3221 758.85083 4215.3916 2896947
1596.6293 761.18518 4228.3589 2897718
1622.4526 760.8717 4226.6172 2963254
1649.2585 761.02155 4227.4497 3028790
1661.847 754.71008 4192.3896 2962997
1688.1138 754.71008 4192.3896 3028790
1721.0441 757.64349 4208.6851 3094583
1735.0408 752.2793 4178.8867 3094583
1804.053 770.57355 4280.5107 2831411
1846.2672 777.05316 4316.5049 2765618
1874.08 777.37195 4318.2759 2765618
1911.2817 781.52087 4341.3228 2831667
1932.6866 779.18457 4328.3447 2897205
1952.2048 776.16284 4311.5591 2897463
2010.2083 788.31586 4379.0688 3029049
2061.3484 797.48639 4430.0107 2371376
2054.3811 784.23145 4356.3799 2305842
2017.3151 759.98499 4221.6919 2437942
2099.593 780.74475 4337.0117 2635578
2159.5085 792.76483 4403.7827 2766907
2204.9912 799.25 4439.8076 2964286
2232.8076 799.25 4439.8076 3029826
2273.9885 803.97479 4466.0537 3029826
2310.4585 806.93958 4482.5229 2964033
2366.4236 816.56012 4535.9648 2964805
2386.7307 813.79419 4520.6001 2767426
2384.2441 803.41241 4462.9297 2635070
2307.1467 768.42133 4268.5552 2503484
2167.9695 713.7926 3965.0945 2898239
2302.3245 749.44055 4163.1177 3161412
2373.2153 763.86273 4243.2324 3227714
2442.8286 777.55865 4319.313 3358271
2441.1313 768.50488 4269.0195 3160893
2467.7214 768.45612 4268.7485 3226686
2494.4666 768.45612 4268.7485 3358271
2515.1477 766.60785 4258.4814 3489856
2559.7139 772.00208 4288.4463 3489344
2587.7332 772.34558 4290.3545 3489601
2612.1038 771.60413 4286.2358 3555391
2632.4446 769.69965 4275.6562 3489598
2651.009 767.31921 4262.4331 3423805
2685.0771 769.42908 4274.1533 3358012
2719.9817 771.73456 4286.96 3291962
2735.8623 768.65009 4269.8262 3292219
2758.8884 767.61353 4264.0679 3226169
2785.677 767.63354 4264.1792 3292219
2814.2646 768.14435 4267.0166 3357755
2842.3938 768.52148 4269.1118 3423548
2871.3022 769.1004 4272.3276 3291962
2902.5864 770.29907 4278.9858 3291962
2917.522 767.17682 4261.6421 3226169
2961.6572 771.71985 4286.8784 3423548
2988.5161 771.71985 4286.8784 3423548
2996.8162 766.97015 4260.4941 3555134
3014.229 764.61603 4247.417 3489341
3070.2458 772.01001 4288.4902 3423548
3097.9839 772.22668 4289.6938 3291962
3124.8601 772.22668 4289.6938 3226169
3149.0945 771.57935 4286.0981 3160376
3174.1985 771.1543 4283.7368 3291962
3188.6121 768.16095 4267.1089 3357755
3207.2188 766.21906 4256.3218 3489341
3238.8411 767.39313 4262.8438 3489341
3285.2666 772.02673 4288.583 3357755
3320.2009 773.90656 4299.0254 3489341
3327.6013 769.38995 4273.936 3357755
3353.3364 769.15088 4272.6079 3291962
3374.4824 767.87122 4265.4995 3291962
3392.012 765.79529 4253.9678 3423548
3418.6641 765.79529 4253.9678 3357755
3448.2227 766.44116 4257.5557 3291962
3479.2915 767.4104 4262.9395 3226169
3486.6948 763.18475 4239.4663 3226169
3571.957 775.93622 4310.3003 3028790
3568.1594 769.2951 4273.4092 2699825
3594.9336 769.2951 4273.4092 2765109
3600.8843 764.87201 4248.8389 2765108
3627.5049 764.87201 4248.8389 2962744
3657.8423 765.65009 4253.1611 3094329
3701.3164 769.14673 4272.585 3028280
3752.8743 774.26093 4300.9941 3028280
3788.9937 776.13977 4311.4312 2831158
3803.8914 773.67578 4297.7437 3028536
3823.4756 772.19287 4289.5063 2962744
3884.7476 779.09119 4327.8262 3291708
3909.9604 778.71234 4325.7217 3291708
3937.9138 778.8808 4326.6572 3357501
3972.8445 780.41742 4335.1934 3357501
4009.5828 782.28595 4345.5728 3291708
4042.6035 783.40887 4351.8105 3225915
4081.2234 785.59448 4363.9517 3225915
4121.2568 788.02124 4377.4321 3423294
4172.855 792.61267 4402.9375 3357501
4190.7505 790.78412 4392.7798 3291708
4231.3232 793.23071 4406.3706 3291708
4267.5195 794.83038 4415.2568 3160122
4309.7935 797.53424 4430.2764 3028536
4357.6362 801.22729 4450.7915 3028536
4403.0483 804.42932 4468.5786 3094329
4459.8462 809.65796 4497.6235 3225915
4494.7891 810.87817 4504.4019 3094329
4542.5127 814.37451 4523.8237 3160122
4599.7559 819.5235 4552.4263 3160122
4653.3638 823.96533 4577.1006 3423294
4674.4966 822.6377 4569.7256 3620673
nan nan nan 16777215
nan nan nan 16777215
nan nan nan 16777215
nan nan nan 16777215
nan nan nan 16777215
nan nan nan 16777215
nan nan nan 16777215
-3561.8022 711.90674 3822.293 3686466
-3572.9998 718.97888 3860.2642 3554880
-3537.3396 716.65424 3847.783 3489597
-3517.4866 717.52203 3852.4421 3620927
-3512.2327 721.40057 3873.2664 3620927
-3486.3096 721.05804 3871.4272 3620927
-3466.8582 722.05872 3876.7998 3489341
-3443.4011 722.23328 3877.7371 3423548
-3410.5142 720.41846 3867.9929 3357755
-3388.979 720.99261 3871.0759 3291962
-3350.502 717.94476 3854.7117 3291962
-3323.5852 717.34784 3851.5066 3357755
-3295.5288 716.49438 3846.9243 3292219
-3268.1199 715.77014 3843.0359 3226426
-3252.6362 717.66638 3853.217 3094840
-3244.1082 721.13715 3871.8518 3160633
-3232.7693 724.03058 3887.3872 3358012
-3223.2961 727.3891 3905.4192 3358012
-3188.4814 725.03656 3892.7881 3358012
-3165.2134 725.29352 3894.1677 3489598
-3139.324 724.94916 3892.3188 3489598
-3026.979 704.47833 3782.4092 3358012
-3003.281 704.47833 3782.4092 3358012
-2995.2625 708.18549 3802.3132 3423805
-2953.6025 703.93427 3779.488 3358012
-2787.0015 669.59644 3595.125 3423805
-2796.6687 677.3938 3636.9897 3752770
-2873.7866 701.79095 3767.9802 3818563
-2855.8679 703.19165 3775.501 3555391
-2837.0784 704.39972 3781.9868 3555647
-2826.5173 707.68811 3799.6428 3489598
-2811.3777 709.8764 3811.3918 3423807
-2777.0601 707.21814 3797.1194 3423807
-2752.7112 707.07458 3796.3489 3160636
-2670.4226 691.9162 3714.9619 3292221
-2692.7532 703.83679 3778.9646 3621699
-2679.8052 706.66583 3794.1541 3621699
-2646.499 704.12915 3780.5342 3621699
-2604.6353 699.24902 3754.3328 4213580
-2621.6819 710.2395 3813.3416 4214092
-2569.7 702.55963 3772.1074 4082507
-2524.0266 696.47791 3739.4543 3622214
-2502.4976 697.00714 3742.2957 3491138
-2488.5566 699.67975 3756.6453 3491138
-2491.5825 707.21924 3797.1255 3951689
-2474.2026 709.0564 3806.989 4017482
-2428.8955 702.8479 3773.655 3886152
-2405.2524 702.8479 3773.655 3951946
-2327.0898 686.75842 3687.2693 4017482
-2306.4585 687.49475 3691.2229 3557188
-2329.9915 701.5437 3766.6528 3491395
-2297.5679 698.85956 3752.2415 3425345
-2261.6521 695.04669 3731.7698 3490881
-2238.1819 695.01892 3731.6208 3359295
-2219.9888 696.64648 3740.3594 3293759
-2196.5203 696.63574 3740.3015 3754053
-2184.8757 700.41522 3760.5938 3950405
-2162.4468 700.78217 3762.564 3621440
-2163.2568 708.77124 3805.4583 3556161
-2141.4004 709.42914 3808.9905 3555904
-2118.7068 709.82147 3811.0969 3490111
-2103.1277 712.63342 3826.1946 3424318
-2085.8337 714.92236 3838.4841 3621697
-2064.5327 715.87537 3843.6008 3621697
-2041.6709 716.30322 3845.8979 3819076
-2018.6273 716.67676 3847.9036 3753283
-1992.4014 715.91583 3843.8181 3819076
-1968.8301 716.10187 3844.8169 3819076
-1952.3842 718.91626 3859.9277 3491394
-1918.6121 715.34125 3840.7329 3754053
-1868.4032 705.46924 3787.7295 3622723
-1896.545 725.30743 3894.2424 3491138
-1864.4983 722.34442 3878.3337 3556931
-1840.1993 722.34442 3878.3337 3754053
-1813.1741 721.25995 3872.5112 3754053
-1785.8855 720.03986 3865.9602 3819846
-1776.0521 725.92059 3897.5347 3819846
-1756.7571 728.04425 3908.9368 3688517
-1718.6282 722.31226 3878.1614 3951432
-1694.3302 722.31226 3878.1614 3885639
-1668.1722 721.50781 3873.842 3754310
-1653.5289 725.73328 3896.5288 3688260
-1604.6338 714.82709 3837.9724 3491138
-1565.7728 708.12695 3801.999 3622469
-1541.4651 707.90326 3800.7981 4016971
-1514.4711 706.41962 3792.832 4082764
-1499.8347 710.74469 3816.0537 4082764
-1475.7554 710.66254 3815.6125 4017228
-1435.6218 702.7193 3772.9648 3819335
-1401.4485 697.47644 3744.8154 3753285
-1380.1769 698.58539 3750.7693 3424575
-1353.845 697.12708 3742.9395 3160634
-1313.8569 688.46149 3696.4131 2831670
-1291.4316 688.85291 3698.5149 2239276
-1265.1971 687.1897 3689.585 1975848
-1240.8798 686.52521 3686.0173 1975591
-1217.1204 686.15015 3684.0034 2370863
-1194.0389 686.15015 3684.0034 2436400
-1172.6063 687.11633 3689.1909 2304813
-1149.7273 687.25665 3689.9446 2040615
-1133.3927 691.39514 3712.1646 1777700
-1106.6212 689.20679 3700.4148 1975078
-1078.7914 686.25171 3684.5486 2501422
-1066.5886 693.32544 3722.5281 2764594
-1040.8258 691.70386 3713.8218 2501422
-1007.8055 685.07471 3678.2292 2040871
-983.73846 684.36389 3674.4128 1975078
-962.37933 685.54797 3680.7703 2172201
-918.20178 670.13641 3598.0244 2566959
-909.7475 680.67749 3654.6204 2764594
-885.63342 679.74359 3649.6062 2567215
-865.09082 681.5741 3659.4343 1909285
-839.69037 679.57263 3648.6882 1777442
-814.7395 677.83331 3639.3496 1843235
-783.83197 670.89532 3602.0989 2303786
-770.03491 678.62531 3643.6021 2501163
-747.67365 679.0495 3645.8794 2501163
-722.66473 677.02002 3634.9829 2172198
-698.82837 675.99261 3629.4668 1974819
-672.40576 672.31024 3609.6958 2172198
-653.00909 675.64099 3627.5789 2632749
-626.97321 672.09497 3608.54 2961714
-604.02307 671.71521 3606.501 2764592
-584.96777 675.80554 3628.4622 2698801
-562.23431 675.80554 3628.4622 2567216
-542.76074 679.88892 3650.3865 2698801
-513.95514 672.12769 3608.7156 2830389
-504.04797 689.50403 3702.0105 3027252
-477.95096 685.34161 3679.6624 2501422
-454.8967 685.34161 3679.6624 2106408
-432.7251 686.74231 3687.1829 1975848
-412.57709 691.69366 3713.7671 2370606
-390.56577 693.92627 3725.7542 2896951
-371.8884 702.74274 3773.0906 3357501
-347.21417 700.65491 3761.8809 3292478
-325.26288 704.15778 3780.688 3555906
-304.29437 710.50568 3814.7705 3490370
-279.39011 707.96271 3801.1172 3687492
-256.36218 710.14362 3812.8264 3687492
-233.60214 713.5907 3831.3345 3687492
-210.52094 716.73413 3848.2119 3555906
-186.74629 718.02454 3855.1401 3555906
-163.17012 720.57471 3868.8323 3753542
-137.95639 715.52148 3841.7007 3753285
-113.88694 715.52148 3841.7007 4082250
-90.022942 717.15814 3850.4883 3753283
-66.292801 721.44989 3873.531 3424318
-42.827541 735.24597 3947.6033 3095353
-18.28742 743.08167 3989.6741 3291962
6.7126427 743.47131 3991.7659 3292219
31.637091 741.47437 3981.0444 3489085
56.57053 741.35602 3980.4087 3291963
80.238289 729.79816 3918.3535 3226169
104.78799 729.79816 3918.3535 3489598
131.27927 740.75366 3977.1746 3226170
155.6916 738.35437 3964.293 3292219
181.09883 740.68457 3976.8037 3620928
207.00301 744.23767 3995.8806 3489854
230.86887 740.48639 3975.7397 3687490
255.35307 739.25586 3969.1331 3753283
279.22678 736.63324 3955.0518 3687490
293.54608 711.28699 3818.9653 3687490
315.89304 707.74695 3799.9587 3490111
349.30435 727.755 3907.3838 3490111
373.85858 727.89771 3908.1499 3687490
398.0322 727.32727 3905.0872 4213834
415.41611 715.13452 3839.6233 4081991
437.32437 711.63892 3820.855 3884869
461.26324 711.63892 3820.855 3753283
479.34482 703.04822 3774.7307 3687492
511.15421 714.45294 3835.9639 3621699
535.84631 715.33215 3840.6843 3490113
554.17273 708.00305 3801.3337 3490113
577.98926 708.00305 3801.3337 3556163
602.48236 708.79907 3805.6074 3424320
627.0224 709.58752 3809.8408 3226941
652.54333 711.38757 3819.5054 3226941
683.15985 718.4187 3857.2563 3292734
694.08014 704.96436 3785.0188 3687492
738.92163 725.71387 3896.4248 3687492
763.33392 725.71387 3896.4248 3819078
783.30975 721.62677 3874.4807 4081736
803.27472 717.77563 3853.8037 3884357
828.22943 718.47784 3857.574 3818563
842.9458 710.51038 3814.7957 3884357
876.39716 718.33844 3856.8254 3555392
907.64764 723.99084 3887.1736 3555391
934.26697 725.75031 3896.6204 3423807
958.68054 725.75031 3896.6204 3226428
1001.1768 739.09961 3968.2937 3292221
990.33191 713.37793 3830.1919 3357758
1043.0844 733.60138 3938.7737 2502449
1051.4432 722.38977 3878.5771 3291964
1098.7223 737.82037 3961.4258 3555394
1119.5625 735.20721 3947.3953 3292221
1146.0125 736.31116 3953.3228 3358014
1171.6473 736.8559 3956.2473 3950151
1194.3584 735.57727 3949.3823 3752770
1226.5073 740.04517 3973.3708 3423805
1250.6825 739.61981 3971.0872 3357756
1275.5626 739.61981 3971.0872 3489342
1294.8484 736.43817 3954.0044 3621184
1319.6216 736.43817 3954.0044 3094584
1375.6494 753.55908 4045.9282 3160633
1388.6074 746.89429 4010.1443 3292219
1419.3489 749.86163 4026.0764 3292219
1441.8936 748.47058 4018.6074 3029047
1459.5658 744.6413 3998.0479 3160633
1486.0836 745.37805 4002.0034 3094840
1511.1573 745.37805 4002.0034 3029304
1533.0725 743.84546 3993.7749 2897461
1557.6112 743.61456 3992.5354 2962997
1583.3047 743.93365 3994.2483 3028790
1615.6996 747.34247 4012.5508 2962997
1652.7924 752.78662 4041.7808 3094840
1675.7036 751.70471 4035.9719 3094583
1700.9902 751.70471 4035.9719 3028790
1737.8147 756.72888 4062.9473 3094583
