# .PCD v0.7 - Point Cloud Data file format
VERSION 0.7
FIELDS x y z rgb
SIZE 4 4 4 4
TYPE F F F U
COUNT 1 1 1 1
WIDTH 1278
HEIGHT 1
VIEWPOINT 0 0 0 1 0 0 0
POINTS 1278
DATA ascii
1643.0654 628.75128 1805.2657 3159606
1656.9703 629.7373 1808.0967 3028020
1668.6044 629.85272 1808.4281 3028020
1680.1827 629.94574 1808.6951 3093813
1693.5942 630.72009 1810.9185 3093813
1707.8044 631.77972 1813.9609 2896434
1715.7887 630.53729 1810.3937 3093813
1721.0016 628.29944 1803.9684 3225399
1732.192 628.25885 1803.8518 3290935
1742.9684 628.06958 1803.3082 3027764
1743.6685 624.27509 1792.4137 2830897
1750.5751 622.73712 1787.9978 2633519
1755.0531 620.36029 1781.1736 2699055
1761.0166 618.53522 1775.9333 2699055
1765.9117 616.36017 1769.6884 2699055
1783.0912 618.47314 1775.7551 2830641
1791.6958 617.60413 1773.26 3356985
1806.0339 618.71002 1776.4353 3751743
1814.8387 617.91833 1774.1622 3620157
nan nan nan 16777215
nan nan nan 16777215
nan nan nan 16777215
nan nan nan 16777215
nan nan nan 16777215
nan nan nan 16777215
nan nan nan 16777215
nan nan nan 16777215
nan nan nan 16777215
nan nan nan 16777215
nan nan nan 16777215
nan nan nan 16777215
-1553.3784 611.53687 1724.9735 3489084
-1550.8625 614.82397 1734.2456 3489341
-1536.5018 613.42859 1730.3096 3423548
-1523.6843 612.63391 1728.068 3423548
-1512.6815 612.56262 1727.8669 3357755
-1500.1912 611.88367 1725.9518 3160374
-1491.4801 612.74738 1728.3882 3620925
-1482.2498 613.40894 1730.2542 3687231
-1476.0265 615.33386 1735.6838 3555388
-1465.0856 615.30603 1735.6053 3095094
-1438.5955 608.69861 1716.9675 3160887
-1427.8381 608.69861 1716.9675 3292473
-1412.5115 606.73584 1711.4312 2766129
-1414.2306 612.12103 1726.6212 2832178
-1405.99 613.24512 1729.7921 3226680
-1390.8806 611.36743 1724.4957 3029301
-1383.4784 612.87469 1728.7471 3029301
-1365.799 609.81696 1720.1222 2963251
-1353.2267 609.00909 1717.8434 3029301
-1341.8387 608.72546 1717.0433 3226423
-1330.6661 608.53577 1716.5083 3358009
-1327.7349 612.14264 1726.6823 2634544
-1313.9968 610.7854 1722.8539 2437164
-1308.717 613.36987 1730.1439 3095352
-1311.8774 619.98633 1748.8071 3686462
-1284.0012 611.92297 1726.0626 3489341
-1269.1715 609.99304 1720.6189 3357756
-1259.9893 610.76764 1722.8038 3358012
-1249.4626 610.89838 1723.1726 3489598
-1237.7985 610.47028 1721.965 3489598
-1227.0098 610.47028 1721.965 3621184
-1211.0869 607.89325 1714.6958 3621184
-1200.7318 608.08966 1715.25 3489598
-1190.5807 608.39398 1716.1084 3489598
-1176.0394 606.43994 1710.5967 3489598
-1166.137 606.86401 1711.7928 3489598
-1154.8894 606.58954 1711.0186 3489598
-1142.8312 605.88013 1709.0175 3555391
-1130.6553 605.0943 1706.8009 3621184
-1121.0164 605.66418 1708.4083 3818563
-1107.1128 603.91864 1703.4846 3884356
-1099.6567 605.69049 1708.4825 3621184
-1092.2256 607.51093 1713.6176 3094840
-1082.3219 607.97864 1714.9368 3555900
-1075.2358 610.05438 1720.7919 3620669
-1072.0692 614.41852 1733.1019 3686718
-1076.2749 623.14026 1757.7035 3949890
-1072.2185 627.20935 1769.1813 2897202
-1049.5393 620.35602 1749.85 2436651
-1034.7777 618.08734 1743.4506 2502444
-1019.8612 615.67664 1736.6508 2765616
-1013.7507 618.58734 1744.8611 3226167
-995.11267 613.83398 1731.453 3291960
-984.26453 613.83398 1731.453 3291960
-973.50671 613.89087 1731.6136 3226167
-975.69794 622.20673 1755.0703 3028788
-972.84723 627.46027 1769.8889 3357753
-948.85626 619.04285 1746.1459 3620925
-931.67169 614.92139 1734.5204 3818304
-917.15125 612.48181 1727.6389 3094581
-911.64832 616.07788 1737.7823 2962995
-903.55963 617.99231 1743.1825 2962995
-895.47278 619.95483 1748.7183 2765616
-891.23694 624.66516 1762.0048 3423546
-883.10632 626.72955 1767.8278 3489339
-872.94342 627.38574 1769.6788 3291960
-858.948 625.26904 1763.7081 3226167
-838.9447 618.66669 1745.0847 3028788
-822.3324 614.42365 1733.1163 3028788
-831.31055 629.44336 1775.4827 2962995
-820.18658 629.44336 1775.4827 2962995
-807.34058 628.10358 1771.7036 3423546
-784.6076 618.92731 1745.8199 3423546
-768.89679 615.10925 1735.0502 3358009
-755.45728 613.02466 1729.1702 3621182
-741.05481 610.08667 1720.8829 3686975
-733.06439 612.4187 1727.4609 3226423
-723.69812 613.65399 1730.9453 3226426
-712.68237 613.50696 1730.5305 3292219
-703.80621 615.22559 1735.3784 3160633
-702.75891 623.9491 1759.985 2897461
-695.67535 627.50604 1770.0181 3291963
-685.35681 628.21289 1772.012 3489855
-672.12488 626.22858 1766.4148 3555391
-665.50488 630.44147 1778.2981 3029047
-653.83337 629.93085 1776.8579 3291963
-642.70081 629.93085 1776.8579 3423805
-631.93494 630.29663 1777.8895 3226426
-620.7959 630.29663 1777.8895 3226426
-611.43036 632.13013 1783.0614 3226426
-600.25891 632.13013 1783.0614 2831669
-588.12366 631.09583 1780.1439 2700338
-579.27521 633.61676 1787.2548 3094840
-569.83441 635.57635 1792.7822 3094840
-562.33722 639.82629 1804.77 3029047
-556.36285 646.01874 1822.2372 3094840
-543.81805 644.68158 1818.4655 3226426
-529.24182 640.82751 1807.5942 3094840
-518.64703 641.7312 1810.1433 3423805
-508.53799 643.28973 1814.5394 3489598
-495.15219 640.67975 1807.1774 2700082
-483.39392 640.10272 1805.5498 2963254
-472.71014 640.95502 1807.954 3226426
-467.54794 649.51965 1832.1124 3226426
-452.75021 644.79291 1818.7795 3094840
-437.40695 639.02509 1802.5101 2831668
-425.4306 638.00073 1799.6207 3029047
-414.15546 638.00073 1799.6207 3029047
-399.24219 632.23944 1783.3698 3292219
-382.69556 623.48535 1758.6769 3423805
-373.98517 627.35754 1769.5991 3621184
-362.96436 627.47205 1769.9222 3029047
-347.9696 620.50739 1750.277 2963254
-331.81882 610.961 1723.3492 3621184
-321.02148 610.961 1723.3492 3686977
-310.12848 610.77246 1722.8175 2502703
-299.44543 610.9989 1723.4561 2963254
-288.30319 610.2702 1721.4006 2831925
-276.77655 608.63959 1716.8011 3095097
-265.23956 606.85333 1711.7626 3160633
-253.69112 604.88934 1706.2227 2568753
-243.03371 604.97046 1706.4515 2700082
-233.4903 607.95966 1714.8833 2831668
-223.21866 609.24969 1718.5221 2765618
-212.95621 610.69684 1722.6041 2370860
-204.58244 618.00385 1743.2151 2239274
-193.79268 618.42511 1744.4034 2305067
-184.86397 625.19061 1763.4871 2502446
-174.77368 628.63831 1773.2119 2568239
-163.33212 627.36371 1769.6166 2502446
-152.01035 626.39709 1766.89 2502446
-140.94025 626.39709 1766.89 2568239
-129.69612 625.55786 1764.5228 2568236
-118.64085 625.55786 1764.5228 2502444
-108.00066 627.97144 1771.3308 2634030
-96.59269 625.96228 1765.6636 2700080
-86.169113 630.63776 1778.8519 3094581
-74.493103 626.17468 1766.2627 3358010
-62.983849 621.80054 1753.9244 3489339
-51.868362 620.2865 1749.6538 3554362
-40.190865 609.43878 1719.0555 3027761
-29.667917 614.56506 1733.5154 3028018
-18.842468 615.72717 1736.7933 2501931
-7.9652314 616.06079 1737.7343 2699310
2.9146361 614.4635 1733.2286 3094581
13.823671 616.68597 1739.4977 3094581
24.824041 619.22729 1746.666 2962995
35.858742 620.8078 1751.1243 3094581
47.203976 625.76447 1765.1056 2699824
58.262913 625.76447 1765.1056 2305065
68.326256 616.77734 1739.7554 2765872
80.74791 628.62262 1773.1676 3094581
91.937492 629.17096 1774.7145 3028788
103.02531 628.97974 1774.175 3094838
113.97818 628.08221 1771.6433 2962995
125.21156 628.7525 1773.5341 2962995
136.46611 629.41119 1775.392 3291960
147.30235 628.18671 1771.938 3160374
157.35686 624.03357 1760.2233 3226167
168.97693 626.22656 1766.4089 3226167
180.4297 627.56799 1770.1929 3291960
190.01726 622.64215 1756.2985 3160374
201.02101 622.64215 1756.2985 3028788
212.30679 623.47034 1758.6345 2962995
222.49626 621.15625 1752.1071 2831666
232.50302 618.57355 1744.822 3094581
243.32233 618.2876 1744.0155 3028788
253.92607 617.50201 1741.7996 3357753
265.27039 618.50793 1744.6368 3291960
275.6575 617.29059 1741.2032 3357753
287.37451 619.0307 1746.1117 3423546
297.98151 618.3399 1744.163 3357753
307.68951 615.89838 1737.2761 3357753
318.35684 615.47833 1736.0914 3160374
329.23792 615.48572 1736.1121 3160374
340.09802 615.45465 1736.0244 3555132
350.33539 614.33344 1732.8619 3226167
362.31912 616.24994 1738.2679 3094837
373.8371 617.28564 1741.1892 3621181
383.56192 615.38562 1735.8297 3489852
397.88022 620.7569 1750.9807 4016195
405.5791 615.78973 1736.9696 3818306
419.43668 620.18848 1749.3773 3620926
431.55164 621.85217 1754.0701 3489341
438.17889 615.72211 1736.7788 3028790
449.91937 616.89984 1740.101 2765618
459.12585 614.6297 1733.6975 2831668
473.00815 618.57935 1744.8384 3094326
487.06711 622.57635 1756.1128 2896947
497.35266 621.68005 1753.5846 2962741
507.42017 620.55579 1750.4135 2502189
518.38708 620.55579 1750.4135 2567726
532.9762 624.80212 1762.3912 3093813
548.02777 629.40717 1775.3807 2830384
561.18396 631.6955 1781.8354 2896177
565.22729 623.83679 1759.6682 3290935
573.18481 620.51617 1750.3016 3620414
581.99207 618.22284 1743.8328 3751999
594.85657 620.24438 1749.535 3554364
614.22754 628.85431 1773.8212 2633518
626.24341 629.76166 1776.3805 2830639
637.77301 630.15686 1777.4954 2765103
648.80432 630.05469 1777.2072 2765360
658.32782 628.51642 1772.868 2831153
671.40381 630.3645 1778.0811 2830896
686.30194 633.83508 1787.8706 2831154
695.24908 631.7865 1782.092 3028277
706.33282 631.7135 1781.8862 2962997
718.35626 632.47015 1784.0204 2633774
731.07733 633.80841 1787.7953 2765618
742.27844 633.80841 1787.7953 2568239
754.80127 634.92017 1790.9313 1910309
765.65057 634.6123 1790.0629 2173481
783.74268 640.22992 1805.9086 2436653
796.7995 641.63287 1809.866 2502446
804.03571 638.37512 1800.6768 2502446
806.29297 631.30908 1780.7454 2897204
823.55487 636.02386 1794.0446 3028790
837.97064 638.4433 1800.869 3357755
841.64331 632.72205 1784.7311 3621183
850.69647 631.14276 1780.2762 3291962
860.44702 630.11499 1777.3773 2962997
862.85596 623.80585 1759.5809 2897204
863.89453 616.67767 1739.4744 3160376
868.93115 612.54553 1727.8187 3160376
893.67719 622.2381 1755.1587 2634030
892.67627 613.98621 1731.8823 2502444
915.83923 622.35278 1755.4822 3423546
913.85742 613.63672 1730.8966 3357753
924.0564 613.20825 1729.688 3226167
940.85455 617.11823 1740.717 3160374
952.77899 617.7785 1742.5795 3357753
955.92657 612.79736 1728.5291 3226167
969.43359 614.49438 1733.3159 2699823
982.92456 616.14374 1737.9683 2634030
993.81348 616.14374 1737.9683 2568237
1004.3817 615.94708 1737.4136 2436651
1013.7327 615.01617 1734.7876 2765616
1026.6851 616.26672 1738.3152 2897202
1036.3431 615.53436 1736.2494 2502444
1057.5741 621.61957 1753.4139 2502444
1062.3179 617.98846 1743.1716 2370860
1070.0293 616.13995 1737.9576 2568239
1080.9181 616.13995 1737.9576 3028790
1097.0625 619.10583 1746.3235 3226169
1110.5836 620.54736 1750.3896 2502446
1117.2041 618.14258 1743.6064 2305067
1124.1639 615.9704 1737.4792 2634289
1127.5518 611.90131 1726.0015 3226169
1138.3656 611.90131 1726.0015 3423548
1152.7783 613.8175 1731.4066 2897204
1165.4188 614.76318 1734.0741 2502703
1176.9589 615.11627 1735.0699 2239274
1192.4198 617.49329 1741.7749 2568239
1212.485 622.18988 1755.0227 2502446
1238.6335 629.89563 1776.7584 2239274
1246.2489 628.12323 1771.759 2173481
1257.3495 628.12323 1771.759 2568239
1288.2852 637.94537 1799.4646 2699825
1299.6334 637.98169 1799.567 2962997
1311.4301 638.23566 1800.2833 2962997
1322.7094 638.23566 1800.2833 2765618
1344.8857 643.44928 1814.9894 3160376
1369.6865 649.8205 1832.9609 3884099
1372.1689 645.58539 1821.0148 4213064
1389.0469 648.13708 1828.2125 3686720
1396.8521 646.44836 1823.449 3094583
1400.8451 643.03699 1813.8267 2568496
1399.8052 637.38892 1797.8949 2370860
1396.08 630.61804 1778.7961 2239274
1396.3093 625.72656 1764.9987 2962997
1405.9666 625.10364 1763.2416 3028790
1403.0131 618.92737 1745.8201 2962997
1424.7277 623.64447 1759.1257 3094583
1435.5083 623.53992 1758.8308 2962997
1446.528 623.53992 1758.8308 2634032
1455.2872 622.573 1756.1033 2634289
1463.1705 621.2486 1752.3676 2634032
1479.0406 623.30981 1758.1816 2568239
1486.5958 621.86218 1754.0984 2502703
1494.0074 620.37634 1749.9072 2830642
1503.0527 619.58551 1747.6766 2830641
1509.2225 617.62939 1742.1589 2962227
1538.3517 625.02972 1763.0331 3291449
1555.7191 627.57977 1770.2262 3291192
1567.1401 627.71204 1770.5991 3291192
1580.7384 628.70831 1773.4093 3356985
1591.2648 628.47736 1772.7579 3225399
1598.3856 626.914 1768.3481 3291192
1609.7874 627.03961 1768.7024 3291192
1618.0028 625.93091 1765.5751 3291192
1628.9706 625.89478 1765.4731 3225399
1640.2932 625.99451 1765.7545 3225399
1651.3562 625.99451 1765.7545 3225399
1656.9022 623.91699 1759.8944 3225399
1672.3939 625.58734 1764.6061 3291192
1683.4497 625.58734 1764.6061 3225399
1695.2075 625.84656 1765.3372 3093813
1706.2679 625.84656 1765.3372 2896434
1697.205 618.513 1744.6514 2830898
1706.5491 617.93848 1743.0308 2699055
1710.4604 615.4165 1735.917 2567469
1714.7552 613.0636 1729.2802 2633262
1725.339 612.97455 1729.0288 2633262
1735.9745 612.90485 1728.8323 2962227
1752.7843 615.00244 1734.749 2830641
1764.094 615.15619 1735.1826 2764848
1765.7144 611.94995 1726.1388 2699055
nan nan nan 16777215
nan nan nan 16777215
nan nan nan 16777215
nan nan nan 16777215
nan nan nan 16777215
nan nan nan 16777215
nan nan nan 16777215
nan nan nan 16777215
nan nan nan 16777215
nan nan nan 16777215
nan nan nan 16777215
nan nan nan 16777215
nan nan nan 16777215
-1523.8998 614.75507 1704.0946 3489341
-1504.7284 611.30408 1694.5284 3489598
-1494.7007 611.54504 1695.1964 3094583
-1484.574 611.74872 1695.761 2897462
-1469.9852 610.10339 1691.2002 2963508
-1457.0219 609.11365 1688.4567 3423802
-1448.3181 609.9032 1690.6453 3489596
-1437.7257 609.9032 1690.6453 3226680
-1426.2429 609.52271 1689.5906 3029045
-1405.7645 605.26337 1677.7838 2897458
-1397.8223 606.37805 1680.8735 2962995
-1387.1138 606.30054 1680.6588 2765615
-1381.7289 608.56659 1686.9402 2831409
-1371.8864 608.8891 1687.8342 3095350
-1361.3868 608.92279 1687.9276 3226681
-1347.1171 607.25739 1683.3112 3226426
-1335.0247 606.55499 1681.3641 3160633
-1324.3561 606.49353 1681.1937 3160633
-1314.5652 606.83618 1682.1436 3226427
-1300.6327 605.25708 1677.7662 3291963
-1306.8956 613.12689 1699.5813 2963255
-1298.913 614.38776 1703.0764 2765876
-1296.4915 618.32184 1713.9816 3292219
-1289.3682 620.06042 1718.801 3686977
-1260.4572 611.26227 1694.4127 3489598
-1248.395 610.55511 1692.4523 3292219
-1237.4379 610.38074 1691.969 3358012
-1223.7906 608.86493 1687.7673 3424062
-1211.9214 608.21515 1685.9661 3555134
-1200.5521 607.80701 1684.8346 3489341
-1193.972 609.83783 1690.464 3423548
-1185.0696 610.70813 1692.8765 3555134
-1174.3832 610.6665 1692.7612 3686977
-1151.9452 604.45776 1675.5507 3423548
-1142.0729 604.789 1676.4689 3292219
-1131.3679 604.6814 1676.1704 3423805
-1117.8696 603.06482 1671.6893 3489598
-1101.6517 599.93658 1663.0179 3686977
-1090.0325 599.27692 1661.1893 3818563
-1085.129 602.33228 1669.6588 3621441
-1076.2871 603.23969 1672.1742 3028790
-1067.3502 604.11127 1674.5901 3160376
-1058.9656 605.31573 1677.9288 3423546
-1041.4888 601.29504 1666.7837 3489339
-1044.3792 609.07092 1688.3381 3752511
-1043.6686 614.88434 1704.453 3555132
-1060.5026 631.26141 1749.85 3028788
-1022.6628 615.09613 1705.04 3028788
-1008.6024 613.04309 1699.349 2897202
-991.74054 609.22522 1688.766 2699823
-981.15991 609.22522 1688.766 2699823
-977.48743 613.5614 1700.7859 2765616
-970.70801 616.02155 1707.6052 3357753
-961.53741 617.00214 1710.3234 3357753
-952.65088 618.18909 1713.6136 3160374
-939.40161 616.53973 1709.0417 3028788
-928.4895 616.40405 1708.6656 2831666
-929.22174 624.08582 1729.9594 3226167
-912.13281 619.83844 1718.1857 3160374
-895.60199 615.87347 1707.1948 3028788
-884.90582 615.87347 1707.1948 3028788
-875.04602 616.46259 1708.8279 3094581
-867.65039 618.82385 1715.3733 3423546
-868.99725 627.55786 1739.5839 3357753
-858.11145 627.5675 1739.6106 2765616
-849.97882 629.61682 1745.2913 2568237
-827.87018 621.23206 1722.0487 3160374
-808.46252 614.67932 1703.8846 3489339
-801.36328 617.43463 1711.5225 2831409
-792.32275 618.74872 1715.165 2897715
-778.62311 616.41046 1708.6833 3489852
-767.73267 616.26196 1708.2716 3292473
-749.54486 610.16876 1691.3815 3358266
-740.8783 611.76282 1695.8002 3029557
-729.70758 611.30548 1694.5323 3029301
-718.92285 611.1626 1694.1365 3029301
-708.92328 611.69305 1695.6067 3357755
-699.04089 612.34229 1697.4064 3358012
-693.78131 617.12347 1710.6599 3226426
-685.99713 619.77399 1718.007 2963254
-683.0498 626.94855 1737.8948 3226426
-667.30597 622.41968 1725.3409 3358012
-657.52185 623.39209 1728.0364 3226426
-648.14746 624.79205 1731.9171 2305324
-633.70477 621.27087 1722.1565 2700082
-626.35767 624.70447 1731.6743 2897718
-615.78192 624.98236 1732.4445 2897715
-607.81207 627.96246 1740.7053 2700592
-601.01672 632.28705 1752.693 2700592
-588.99359 631.17041 1749.5978 2634287
-582.65918 636.22314 1763.604 2371372
-571.60962 636.22314 1763.604 2700339
-559.04248 634.50073 1758.8293 3028533
-551.99109 639.09509 1771.5649 3094840
-539.54327 637.50195 1767.1487 2963511
-533.6861 643.7923 1784.5856 2568496
-524.65363 646.43951 1791.9236 3094840
-512.435 645.19098 1788.4625 3358012
-501.22977 645.19098 1788.4625 2766132
-491.19556 646.73285 1792.7368 2897461
-475.93561 641.30542 1777.692 3029047
-462.85669 638.6272 1770.2678 3029047
-448.82852 634.47546 1758.7594 2765875
-441.09103 639.23132 1771.9426 2765875
-435.36627 647.22485 1794.1006 2634289
-420.41483 641.56207 1778.4034 3094840
-407.18661 638.29218 1769.3392 3029047
-390.36786 629.05328 1743.7292 3423805
-377.4971 625.82758 1734.7875 3686977
-366.27353 625.22229 1733.1096 3686977
-352.82993 620.67468 1720.5038 3292219
-340.57846 618.00372 1713.0999 2765875
-328.34586 615.19421 1705.3119 3555648
-316.78357 613.4939 1700.5986 4739665
-305.85422 612.9436 1699.0732 2634289
-295.84238 614.25873 1702.7188 2765875
-282.76819 609.07599 1688.3523 2897461
-271.15833 606.76709 1681.952 2897203
-260.45865 606.39056 1680.9084 3160631
-249.92726 606.39056 1680.9084 2963254
-239.33904 606.2467 1680.5095 2568239
-228.27185 604.8205 1676.5562 3094583
-220.76855 613.15503 1699.6593 2897204
-210.24739 613.52771 1700.6925 2568239
-202.88435 623.64801 1728.7458 3884099
-190.81175 619.61664 1717.5709 3489598
-179.02701 616.09399 1707.8062 2305324
-170.43898 623.82379 1729.233 1976358
-162.22632 634.07013 1757.6357 1844773
-149.64473 627.48907 1739.3932 2502702
-138.43513 626.07922 1735.485 2568239
-126.2942 619.85779 1718.2394 1910306
-115.14915 617.82031 1712.5914 2173479
-104.41924 617.82031 1712.5914 2173735
-93.821022 618.68884 1714.999 2370344
-83.081123 618.72681 1715.1042 2764590
-72.601891 621.00574 1721.4214 2896432
-61.689278 619.72614 1717.8744 2896432
-50.812069 618.33655 1714.0223 3093811
-39.890091 615.51129 1706.1909 2764846
-29.080999 612.99707 1699.2214 3028018
-18.368294 610.78394 1693.0867 3225140
-7.804431 614.23511 1702.6533 3488569
2.8714895 616.00922 1707.571 3160118
13.542136 614.74646 1704.0708 3094325
24.220678 614.79755 1704.2123 3028531
35.227898 620.6076 1720.3179 3291703
45.682655 616.2428 1708.2186 2896946
56.617611 618.78314 1715.2604 2239015
67.684593 621.72571 1723.4171 3159861
79.226357 627.61975 1739.7554 2962739
89.734398 624.88947 1732.187 3028275
99.977936 621.10516 1721.697 2962738
111.54026 625.45294 1733.749 2568237
122.67364 626.83716 1737.5861 2173479
132.33508 621.08759 1721.6483 2502444
143.95682 624.71143 1731.6936 2831409
153.84012 620.81201 1720.8844 2963252
164.65248 620.927 1721.2031 2897202
176.09291 623.25073 1727.6445 3291960
185.77455 619.44092 1717.0837 3291960
196.50447 619.35229 1716.838 2699823
206.09248 615.86047 1707.1587 2239272
217.75237 618.599 1714.75 2634286
227.88861 616.9552 1710.1934 2897202
237.00824 612.83032 1698.7592 2962995
247.26927 611.88446 1696.1373 3028788
256.76901 609.21033 1688.7247 3029045
268.01147 610.71899 1692.9066 3094581
278.74124 610.98907 1693.6553 3094581
289.46191 611.21997 1694.2954 3094838
300.86182 612.81818 1698.7256 3160374
312.28714 614.35712 1702.9916 3357753
323.59171 615.5647 1706.3389 3226167
334.87048 616.64758 1709.3407 3686718
345.29144 616.13263 1707.9132 3818304
359.29413 621.84766 1723.7552 3358266
366.66049 616.07855 1707.7633 3489083
377.71051 616.65051 1709.3489 3555132
387.61026 615.36487 1705.7849 3160374
397.3479 613.89764 1701.7179 3160374
408.09796 614.03052 1702.0861 3291703
419.2963 614.81378 1704.2574 3226679
429.974 614.81378 1704.2574 3226426
440.57965 614.71332 1703.9789 2831411
449.60129 612.45972 1697.7321 2765875
466.58835 620.91034 1721.157 3752513
477.37195 620.91034 1721.157 3620927
486.63834 618.98053 1715.8076 3160376
498.23615 620.03558 1718.7321 2700082
512.03192 623.72333 1728.9545 2765618
525.57886 626.96136 1737.9304 2897461
535.70264 626.0675 1735.4526 3423548
540.5072 619.11639 1716.1841 3357755
550.49445 618.2569 1713.8016 3423548
558.12311 614.83221 1704.3085 3357755
570.70477 616.88995 1710.0125 2962997
586.76703 622.56476 1725.7429 2897461
602.40308 627.59015 1739.6733 3094583
615.29651 629.63043 1745.329 2962741
623.36871 626.75208 1737.3502 2962997
632.15131 624.6745 1731.5912 3028020
641.2691 622.99261 1726.9291 3028020
652.51526 623.40009 1728.0585 2896948
666.03381 625.92969 1735.0706 3028277
685.31219 633.70422 1756.6215 3028276
693.80713 631.41913 1750.2872 2896691
710.15594 636.24164 1763.6552 3028533
722.35706 637.25726 1766.4705 2897204
734.46637 638.16241 1768.9796 3291962
745.58533 638.19305 1769.0645 2568239
753.74219 635.72443 1762.2216 2107688
765.81915 636.58575 1764.609 2239274
776.875 636.58575 1764.609 2436653
787.83008 636.50427 1764.3833 2568239
794.91663 633.34302 1755.6202 2699825
805.02533 632.64301 1753.6797 2700082
816.29431 632.86127 1754.2848 3358012
816.30591 624.46204 1731.0023 4015685
813.19476 613.9256 1701.7954 4278857
828.72577 617.55377 1711.8525 3357755
834.82654 614.15167 1702.422 3686720
842.35999 611.8761 1696.1141 3489341
852.47913 611.51202 1695.1049 3226170
863.09955 611.51202 1695.1049 2765615
871.5614 610.00128 1690.9172 2831409
889.98328 615.41412 1705.9215 3423546
900.67139 615.41412 1705.9215 3357753
904.59576 610.8468 1693.2609 3357753
919.47675 613.69818 1701.1649 3357753
927.77222 612.13916 1696.8434 3489339
936.67749 611.01331 1693.7224 3160374
946.38251 610.42847 1692.1014 2831409
958.86676 611.62939 1695.4303 2634287
969.43195 611.59326 1695.3302 2765616
979.43146 611.20496 1694.2538 2765616
993.05664 613.06329 1699.405 2765616
1004.9551 613.82751 1701.5234 2963252
1019.0964 615.93121 1707.3549 2897202
1029.7935 615.93121 1707.3549 2568237
1041.5614 616.56512 1709.1121 2502445
1053.7268 617.41895 1711.4789 2699825
1064.443 617.41504 1711.468 3028790
1073.5206 616.47028 1708.8491 2897204
1084.2271 616.47028 1708.8491 2765618
1090.6112 614.03674 1702.1034 2634032
1102.9111 614.94873 1704.6313 2765875
1110.9332 613.4809 1700.5626 3028790
1117.1056 611.0293 1693.7668 3291962
1134.2482 614.56775 1703.5753 2699825
1142.3379 613.18091 1699.7311 2699825
1157.6804 615.67682 1706.6497 2634032
1169.71 616.38135 1708.6025 2568495
1186.375 619.49353 1717.2295 2502446
1203.3076 622.68823 1726.0852 2305067
1222.4498 626.95923 1737.9246 2107688
1234.1626 627.3783 1739.0859 2239274
1235.1981 622.40967 1725.3131 2502446
1252.0685 625.43707 1733.7051 2699825
1260.6624 624.31372 1730.5912 2897204
1264.7655 621.00464 1721.4185 2699825
1289.4369 627.76508 1740.1583 2765618
1333.6733 643.85773 1784.767 2699825
1343.3527 643.13831 1782.7726 2897204
1351.8969 641.89166 1779.317 2831411
1363.0448 641.89166 1779.317 2831411
1370.9236 640.36456 1775.084 2962997
1373.754 636.52301 1764.4351 2962997
1378.9718 633.84003 1756.9979 3028790
1367.7531 623.70447 1728.9022 3094583
1376.7019 622.85242 1726.5404 3028790
1383.6654 621.1225 1721.745 2831411
1393.9856 620.91437 1721.1682 2962997
1402.7921 620.04047 1718.7457 2963254
1409.6625 618.33063 1714.0061 2765618
1420.9542 618.57135 1714.6733 2765618
1433.4608 619.33331 1716.7855 2634289
1461.3873 626.69659 1737.1964 2370860
1472.2714 626.69659 1737.1964 2305067
1482.424 626.38757 1736.3397 3028020
1493.3027 626.38757 1736.3397 3225399
1487.6794 619.51569 1717.2909 3028020
1506.2235 622.73413 1726.2125 2765105
1513.2493 621.17859 1721.9005 2896691
1521.1337 619.995 1718.6196 3093813
1548.5381 626.72827 1737.2842 3291192
1550.301 623.06232 1727.1222 3291192
1561.1221 623.06232 1727.1222 3225399
1569.6254 622.14362 1724.5757 3093813
1581.1863 622.44122 1725.4006 3225399
1591.5931 622.28357 1724.9635 3159606
1598.1437 620.63037 1720.381 3093813
1606.5596 619.71899 1717.8546 3225399
1616.9764 619.58643 1717.4871 3225399
1628.6038 619.91626 1718.4015 3225399
1640.1515 620.21179 1719.2206 3291192
1646.9125 618.7052 1715.0443 3356985
1647.9154 615.06891 1704.9646 3028020
1657.5009 614.66223 1703.8373 2830641
1670.9454 615.68268 1706.666 2764848
1682.1053 615.8537 1707.14 2633262
1689.7318 614.73706 1704.0447 2699055
1698.0035 613.8678 1701.635 2633262
1715.6655 616.38281 1708.6068 2830641
1728.8121 617.25464 1711.0233 3093813
1745.9738 619.54034 1717.3594 2896434
1756.7336 619.54034 1717.3594 2567469
nan nan nan 16777215
nan nan nan 16777215
nan nan nan 16777215
nan nan nan 16777215
nan nan nan 16777215
nan nan nan 16777215
nan nan nan 16777215
nan nan nan 16777215
nan nan nan 16777215
nan nan nan 16777215
nan nan nan 16777215
nan nan nan 16777215
nan nan nan 16777215
-1518.9017 623.32422 1698.5056 3357755
-1502.7795 621.0592 1692.3337 3291962
-1493.8667 621.76263 1694.2506 3423548
-1482.5894 621.48505 1693.494 3489342
-1465.3696 618.69446 1685.8899 3489338
-1450.9364 617.04834 1681.4045 3423545
-1445.4658 619.21765 1687.3157 3226167
-1422.1545 613.71997 1672.3348 3028788
-1411.6768 613.71997 1672.3348 2699823
-1403.0717 614.5401 1674.5698 2765616
-1394.6727 615.46362 1677.0863 2962995
-1383.8246 615.31213 1676.6735 2633774
-1375.4818 616.28088 1679.3132 2831409
-1360.9159 614.45483 1674.3373 3028790
-1350.4257 614.45483 1674.3373 3226426
-1343.5188 616.09802 1678.8149 3160633
-1333.0005 616.09802 1678.8149 3160633
-1323.0593 616.36694 1679.5476 3094840
-1312.5365 616.36694 1679.5476 3226426
-1290.3999 610.86896 1664.5663 3226426
-1290.121 615.7132 1677.7662 3292219
-1294.7006 622.97473 1697.5535 3292219
-1283.2106 622.56024 1696.4241 3555391
-1261.2201 617.00195 1681.2781 3555391
-1258.9988 621.10272 1692.4523 3489598
-1244.7512 619.28986 1687.5123 3489598
-1232.9327 618.66479 1685.8091 3094840
-1221.4717 618.20972 1684.5692 2897205
-1210.9172 618.20972 1684.5692 2897203
-1197.2045 616.58307 1680.1366 3028790
-1190.4969 618.56738 1685.5438 3357755
-1180.3539 618.78619 1686.14 3555134
-1171.4532 619.6662 1688.538 3555134
-1149.7377 613.72168 1672.3396 3423548
-1140.1195 614.18475 1673.6014 3357755
-1126.979 612.74127 1669.6681 3423805
-1111.7896 610.1463 1662.597 3752513
-1099.1632 608.92224 1659.2615 3949892
-1085.6135 607.15826 1654.4548 3818306
-1075.6481 607.38434 1655.0708 3423548
-1065.2786 607.38434 1655.0708 3291961
-1066.6454 614.14172 1673.4841 3226169
-1055.168 613.56464 1671.9116 3094581
-1026.4688 602.86127 1642.7458 3094582
-1017.1862 603.46033 1644.3783 3949891
-1033.8011 619.5929 1688.3381 3555132
-1033.3455 625.72223 1705.04 3226167
-1020.0123 624.10046 1700.6208 3423546
-989.72595 611.9621 1667.5449 2831409
-984.31421 615.10907 1676.1201 2502444
-978.20959 617.88635 1683.688 3028788
-976.35254 623.4364 1698.8113 3292217
-965.9126 623.56781 1699.1694 3028788
-954.34851 622.96832 1697.536 2897202
-944.88373 623.74133 1699.6422 2897459
-936.04047 624.94672 1702.9269 2765873
-926.88037 625.966 1705.7043 2765616
-917.51093 626.86603 1708.1569 3028788
-904.82697 625.49603 1704.4237 3226167
-891.73584 623.80847 1699.8252 3028788
-881.16125 623.86182 1699.9706 3028788
-870.60114 623.92688 1700.1478 3357753
-859.94928 623.92688 1700.1478 3226167
-858.74884 630.87036 1719.0684 3094581
-844.47949 628.26733 1711.9752 2897202
-838.65936 631.96411 1722.0487 2634030
-822.03064 627.50635 1709.9017 3094581
-804.88306 622.52972 1696.3407 3752511
-791.43091 620.31628 1690.3092 3555132
-784.93414 623.56824 1699.1707 3424315
-774.28833 623.56824 1699.1707 3555645
-759.78564 620.41882 1690.5889 4016196
-744.92114 616.8808 1680.9479 3753280
-734.42078 616.90704 1681.0195 3029558
-724.75098 617.64191 1683.022 3029557
-718.00146 620.92395 1691.9652 3160887
-708.11737 621.55298 1693.6792 3358012
-698.61078 622.53754 1696.3621 3226426
-688.06372 622.6109 1696.562 2963254
-683.44171 628.13226 1711.6072 3029047
-675.26508 630.51056 1718.0879 3094840
-664.50073 630.51056 1718.0879 2963254
-644.33954 621.44751 1693.392 2700082
-642.50708 630.05457 1716.8455 2502703
-631.64368 629.94806 1716.5552 2634288
-622.2193 631.29791 1720.2333 2634031
-613.69604 633.62555 1726.576 3094582
-604.91785 635.76892 1732.4165 3160375
-596.17969 638.03345 1738.5872 2634030
-586.43726 639.28748 1742.0043 2370861
-578.16144 642.2182 1749.9902 2962997
-564.9494 639.67303 1743.0549 4147528
-555.91345 641.8493 1748.985 3818306
-544.95557 641.8493 1748.985 2502446
-537.49609 646.05444 1760.4436 3029047
-528.30994 648.31671 1766.6082 3226426
-521.47998 653.62915 1781.0841 3029304
-509.64432 652.76251 1778.7227 2765875
-499.82687 654.49994 1783.4569 2831668
-488.4332 654.20557 1782.6548 3094840
-473.948 649.65973 1770.2678 2963254
-459.84772 645.43634 1758.7594 3029047
-444.99619 639.92529 1743.7422 2963511
-434.81766 641.02588 1746.7412 2700082
-431.56128 652.65167 1778.4205 3029047
-418.27209 649.31897 1769.3392 3423805
-403.48999 643.42419 1753.2764 3094840
-388.13815 636.26538 1733.7693 3489598
-373.32608 629.60474 1715.6196 3160633
-364.66913 633.2373 1725.5181 3029047
-351.31158 628.67999 1713.0999 3423805
-339.03015 625.82196 1705.3119 3292219
-327.46829 624.14935 1700.7542 3555648
-316.76572 624.05713 1700.5028 3686977
-301.33884 614.32715 1673.9895 3292219
-290.35062 613.27081 1671.111 2831668
-280.76947 615.21851 1676.4183 2963511
-266.99191 607.76508 1656.1084 3292219
-257.82599 610.6311 1663.918 3555391
-248.93239 614.41077 1674.2174 2766132
-237.20717 611.22662 1665.5408 2371117
-224.79999 605.91125 1651.0569 3029304
-216.94116 612.9339 1670.1929 2831411
-208.87683 620.05817 1689.606 2502446
-200.97966 628.46588 1712.5162 2634032
-188.12955 621.46051 1693.4272 3357498
-177.5197 621.46051 1693.4272 3423291
-169.0918 629.58466 1715.5648 3028276
-158.8472 631.58832 1721.0248 2633262
-147.26283 628.16895 1711.7073 2764848
-136.43706 627.70245 1710.436 3159350
-125.01795 624.19409 1700.876 1909280
-114.2249 623.44885 1698.8453 2370088
-103.58112 623.44885 1698.8453 2764846
-93.083755 624.43121 1701.5221 1844001
-82.715584 626.6463 1707.5582 1975330
-71.999542 626.49268 1707.1395 2633260
-61.144466 624.86444 1702.7028 2896432
-50.449421 624.52924 1701.7893 2896689
-39.727146 623.58685 1699.2214 2501674
-28.976007 621.33551 1693.0867 3159604
-18.283428 618.46478 1685.2642 3555132
-7.7513266 620.5946 1691.0677 3357753
2.8538964 622.81158 1697.1089 3291960
13.433785 620.36298 1690.4365 2502444
23.981071 619.23138 1687.353 2371115
34.90757 625.5882 1704.6749 2831409
45.587887 625.5882 1704.6749 3226167
56.344864 626.44055 1706.9974 2963252
67.039734 626.44055 1706.9974 2962995
77.930702 628.02081 1711.3036 2765616
88.852821 629.43958 1715.1696 2634030
99.646141 629.73822 1715.9833 2634030
110.68003 631.35095 1720.3778 2568493
121.13231 629.65411 1715.7542 2634030
131.20419 626.41791 1706.9357 2634286
142.78072 630.31165 1717.5459 2699823
152.97533 627.98676 1711.2107 2699823
163.34976 626.65619 1707.5851 3226167
175.01648 630.14203 1717.0837 3291960
184.74832 626.66113 1707.5985 2699823
195.01314 625.2702 1703.8083 2568237
205.67168 625.22046 1703.6729 2568237
216.3457 625.22046 1703.6729 2502444
226.267 623.1474 1698.0239 2634030
236.7448 622.7243 1696.871 2765616
245.97218 619.18988 1687.24 2765616
255.9567 617.77411 1683.3822 3160631
266.83365 618.53918 1685.4668 3028788
277.45905 618.68506 1685.8645 2831409
288.05695 618.76117 1686.0719 3357753
298.74454 619.01776 1686.771 3094581
310.98022 622.35504 1695.8647 3160374
322.95688 624.97046 1702.9916 3357753
331.76724 621.48724 1693.5001 3555132
342.99738 622.61237 1696.566 3818304
353.62689 622.61237 1696.566 3160374
364.35507 622.78107 1697.0256 3028788
376.923 625.99554 1705.7849 3028788
385.94733 623.30988 1698.4667 3226167
396.13138 622.59106 1696.5079 3160374
407.90692 624.34576 1701.2893 3094581
418.66446 624.49255 1701.6895 3292473
428.94452 623.93756 1700.177 3292219
438.96448 623.04028 1697.7321 3292219
447.68695 620.38745 1690.5033 3029047
458.93097 621.27081 1692.9103 3292219
473.30051 626.24969 1706.4774 3489598
483.64508 625.80066 1705.2538 3555391
494.5065 626.02533 1705.866 3818563
509.00455 630.74695 1718.7321 3555134
520.36646 631.46722 1720.6946 3226169
528.99817 628.91235 1713.7329 3291962
539.2287 628.32208 1712.1245 3555134
546.25964 624.09943 1700.618 3555134
555.88306 622.94348 1697.4681 3226169
567.74652 624.29407 1701.1486 2699825
580.50165 626.55737 1707.3158 2831411
597.85846 633.61566 1726.549 2831411
612.20563 637.29004 1736.5614 3028790
621.21539 635.37708 1731.3488 3094583
630.05267 633.35638 1725.8425 3029047
640.78284 633.2746 1725.6196 2962997
652.10138 633.76733 1726.9623 2831668
663.5061 634.32642 1728.4857 2962997
677.35156 637.16339 1736.2163 3357755
691.35706 640.0589 1744.1063 3423548
704.77325 642.32721 1750.2872 3160376
719.3858 645.59967 1759.2045 2436910
731.87616 646.89758 1762.7411 1910309
738.12225 642.71967 1751.3567 3226169
749.9823 643.4809 1753.431 3555134
762.55695 644.82452 1757.0922 3620927
775.37213 646.33026 1761.1953 3226169
784.37476 644.66046 1756.6451 3160632
791.01056 641.11841 1746.9934 3226169
795.86664 636.25031 1733.7281 2765618
805.46057 635.25 1731.0023 3094583
803.66992 625.41663 1704.2074 3752513
806.41522 619.32483 1687.6077 4673615
816.98859 619.32483 1687.6077 3818306
830.92542 621.84186 1694.4664 3555134
833.29517 615.74823 1677.8618 3555134
839.80713 612.8291 1669.9073 3160376
852.95093 614.7616 1675.1733 3028787
863.44635 614.7616 1675.1733 2831409
883.17535 621.25677 1692.8721 3357753
891.93787 619.9751 1689.3796 3357753
902.52234 619.9751 1689.3796 3357753
915.20459 621.39941 1693.2609 3423546
925.65521 621.29327 1692.9716 3028788
930.2785 617.32257 1682.1517 2831666
942.25989 618.26886 1684.7302 2962995
956.98413 620.97394 1692.1014 3094581
968.17786 621.35406 1693.1372 3028788
971.49146 616.72339 1680.5189 2897202
989.19232 621.22742 1692.7921 2765616
1002.2458 622.74823 1696.9363 2765616
1017.4884 625.58313 1704.661 2765873
1026.1085 624.32965 1701.2454 2765873
1036.7166 624.29907 1701.162 2831411
1048.9463 625.23572 1703.7144 2765618
1057.4291 623.94257 1700.1907 3291962
1067.406 623.5481 1699.1158 3357755
1076.5082 622.65552 1696.6835 3226169
1082.4082 619.94629 1689.301 2699825
1094.6508 620.88696 1691.8645 2568239
1103.5872 619.95239 1689.3177 3028790
1113.1858 619.40405 1687.8236 3357755
1123.7605 619.40405 1687.8236 3160376
1138.3615 621.60254 1693.8143 2962997
1151.3906 622.9101 1697.3773 2962997
1162.0251 622.9101 1697.3773 3489341
1176.3401 624.86505 1702.7043 3226169
1193.0765 628.05963 1711.4093 2173481
1206.6807 629.56299 1715.5059 1976102
1221.3966 631.61487 1721.097 2962997
1230.0759 630.53644 1718.1584 3094583
1241.9979 631.12445 1719.7607 3094583
1249.91 629.68231 1715.8309 3094583
1260.6603 629.68231 1715.8309 2568239
1275.5508 631.73285 1721.4185 2634032
1310.1643 643.43518 1753.3064 2370860
1332.6643 649.04327 1768.588 2173738
1348.2397 651.21423 1774.5037 2897204
1357.8295 650.48218 1772.5089 2765618
1360.8049 646.61908 1761.9823 2831411
1371.5253 646.46875 1761.5725 3028790
1360.6315 636.21423 1733.6299 3291962
1358.7352 630.29602 1717.5033 3226169
1372.8782 631.85266 1721.745 3094583
1368.7217 625.02863 1703.15 2699825
1390.73 630.16583 1717.1486 2634032
1400.2856 629.625 1715.6748 2897204
1403.8573 626.42224 1706.9476 2634289
1414.8654 626.5611 1707.326 2831668
1427.3594 627.35089 1709.4781 2765618
1437.7889 627.22839 1709.1443 2502446
1439.8964 623.50403 1698.9957 2371117
1449.4438 623.03241 1697.7106 2764848
1474.6799 629.26215 1714.686 2830641
1477.7925 626.02966 1705.8779 2830641
1498.4543 630.22455 1717.3086 2830641
1510.366 630.70569 1718.6196 2764848
1507.537 625.06812 1703.2577 2896434
1528.8882 629.46515 1715.2393 3488571
1547.7677 632.79028 1724.2999 3488571
1558.104 632.60065 1723.7832 3488571
1565.1571 631.08984 1719.6664 3488571
1578.0925 631.95532 1722.0247 3685950
1589.4259 632.17181 1722.6147 3620157
1595.4839 630.30133 1717.5178 3291192
1606.1176 630.25146 1717.3818 3225399
1616.1348 629.96198 1716.593 3356985
1626.8898 629.96198 1716.593 3356985
1637.1002 629.7525 1716.0222 3291192
1640.8983 627.09521 1708.7812 3356985
1640.0955 622.7254 1696.8739 3291192
1646.8326 621.25629 1692.8707 2830641
1667.2261 624.92474 1702.8671 2699055
1676.3894 624.36401 1701.339 3093813
1684.7997 623.53162 1699.0708 2962227
1694.0426 623.01587 1697.6654 2830641
1709.8682 624.91235 1702.8334 2962227
1723.8114 626.10168 1706.0741 3028020
1733.0809 625.58923 1704.6777 3159606
1750.3064 627.93738 1711.0762 2699055
nan nan nan 16777215
nan nan nan 16777215
nan nan nan 16777215
nan nan nan 16777215
nan nan nan 16777215
nan nan nan 16777215
nan nan nan 16777215
nan nan nan 16777215
nan nan nan 16777215
nan nan nan 16777215
nan nan nan 16777215
nan nan nan 16777215
nan nan nan 16777215
-1488.975 621.41968 1665.0402 3160376
-1474.5535 619.74292 1660.5474 3291962
-1464.1497 619.74292 1660.5474 3357498
-1455.8341 620.63318 1662.9327 3489340
-1442.48 619.3728 1659.5557 3489598
-1427.6904 617.47333 1654.4662 3160633
-1420.4249 618.82397 1658.0851 2963254
-1400.9993 614.85779 1647.458 3226426
-1385.5468 612.58936 1641.38 3094840
-1379.8148 614.61688 1646.8126 3029047
-1367.6681 613.79608 1644.6133 3160634
-1359.0964 614.57947 1646.7123 3226427
-1351.1766 615.67181 1649.6392 2963254
-1343.1492 616.73163 1652.4789 2371117
-1329.5433 615.22656 1648.4462 3160633
-1317.7527 614.54443 1646.6185 3489598
-1307.3016 614.48126 1646.4492 3423805
-1299.9719 615.89587 1650.2395 3094840
-1289.9756 616.05957 1650.6782 3094840
-1278.7711 615.64441 1649.5658 3226426
-1273.7078 618.203 1656.4214 3160633
-1254.2653 613.7674 1644.5364 3160633
-1243.9617 613.7674 1644.5364 3160633
-1238.124 615.9892 1650.4896 3226169
-1232.0281 618.11896 1656.196 3555132
-1220.8035 617.68982 1655.0461 3555389
-1206.2518 615.55554 1649.3278 3555131
-1185.129 610.0022 1634.448 3357752
-1176.8616 611.02655 1637.1926 3094580
-1170.501 613.06763 1642.6615 2897202
-1159.4476 612.66522 1641.5833 2831666
-1148.337 612.22504 1640.4039 3160375
-1136.1133 611.1781 1637.5988 3291962
-1126.313 611.42767 1638.2675 3489341
-1116.6495 611.7569 1639.1494 3555134
-1100.2559 608.37073 1630.0765 3357755
-1085.7563 605.97827 1623.6663 3357755
-1081.4062 609.25879 1632.4561 3818306
-1072.155 609.81427 1633.9445 4476493
-1057.5405 607.30054 1627.2091 3423548
-1045.1497 606.02728 1623.7975 3291962
-1045.0483 611.92505 1639.6001 3357755
-1035.1779 612.1629 1640.2373 3357753
-1021.9958 610.42749 1635.5874 3686718
-1008.7799 608.63654 1630.7887 3949889
-1004.202 612.07379 1639.9987 3028787
-1004.8051 618.77277 1657.948 2962995
-993.04498 617.9187 1655.6595 2699823
-985.94598 619.9776 1661.1761 2239272
-965.05206 613.31342 1643.3201 2370858
-965.10681 619.96246 1661.1355 3094581
-945.00708 613.66852 1644.2715 2896946
-937.849 615.73254 1649.8019 2831409
-935.5141 621.04437 1664.0345 2699823
-916.25128 615.11176 1648.1385 2370858
-908.67523 616.979 1653.1417 2699823
-908.44141 623.93207 1671.7719 3094581
-900.04028 625.3725 1675.6313 2962996
-888.30939 624.50598 1673.3096 2897204
-877.82562 624.50598 1673.3096 2897204
-865.05499 622.85944 1668.8978 3160376
-853.99701 622.42078 1667.7224 3686720
-836.51318 617.22992 1653.8141 3752512
-830.52118 620.49463 1662.5614 3357753
-827.08936 625.77911 1676.7209 3357753
-816.91467 626.03241 1677.3995 3292217
-805.83081 625.58649 1676.2047 3357753
-795.32892 625.58649 1676.2047 3489339
-782.44836 623.69055 1671.1246 3555132
-769.30396 621.52997 1665.3356 3555645
-758.11365 620.91034 1663.6754 3621438
-744.82855 618.53394 1657.308 3555645
-729.67169 614.51398 1646.5369 3423290
-719.10199 614.2973 1645.9563 2897459
-708.82471 614.32776 1646.038 3094837
-702.96155 618.24121 1656.5238 3160374
-694.23572 619.71661 1660.4769 3028790
-684.12311 619.98022 1661.1831 2831925
-680.13812 625.89075 1677.0199 2568496
-668.28796 624.63531 1673.6562 2371117
-657.802 624.63531 1673.6562 2634286
-645.37567 622.76306 1668.6395 2700592
-633.69623 621.56158 1665.4203 2371117
-627.67804 625.9657 1677.2208 2700082
-621.4884 630.34589 1688.9572 2634545
-613.48676 633.00818 1696.0906 2437166
-603.66632 633.85468 1698.3585 2634289
-593.59106 634.45905 1699.9779 2305067
-585.03638 636.74054 1706.0909 2371118
-576.65485 639.29883 1712.9458 2371118
-568.88458 642.64471 1721.9108 2239273
-556.94904 641.32373 1718.3712 2436651
-544.35223 639.17407 1712.6116 2370860
-535.97729 641.99512 1720.1702 2107944
-524.47559 641.10974 1717.7979 2502446
-516.81915 644.98615 1728.1843 2897204
-507.5546 646.97845 1733.5227 2897718
-499.3161 650.39459 1742.6758 2766132
-490.05249 652.59827 1748.5804 2831668
-475.87442 648.20856 1736.8186 2436653
-463.46619 646.08057 1731.1167 2568496
-449.40466 641.4906 1718.8184 2831668
-436.27972 638.04504 1709.5863 2831925
-423.71906 635.27197 1702.1561 1845030
-409.28485 629.47424 1686.6217 4147528
-398.71765 629.47424 1686.6217 3884356
-381.61636 618.87781 1658.2294 3686977
-380.6163 634.53076 1700.1702 3489598
-370.37042 635.22748 1702.0369 2765875
-359.92404 635.61139 1703.0656 3094840
-345.55548 628.8808 1685.0315 3358012
-331.17441 621.70245 1665.7977 3555391
-316.46268 613.41602 1643.5948 3555391
-306.16504 613.41602 1643.5948 3423805
-294.85468 611.31622 1637.9689 3621184
-284.59225 611.31622 1637.9689 3226426
-274.28284 611.21143 1637.688 2831668
-263.37674 609.71716 1633.6842 3555391
-255.16655 614.5954 1646.755 3555391
-245.74966 616.85577 1652.8116 3358012
-230.29259 603.48669 1616.9902 2897461
-221.37428 606.81073 1625.8967 2963254
-212.10321 609.44177 1632.9463 3291962
-206.10196 622.21088 1667.16 2831411
-194.83696 619.60406 1660.1753 2107431
-183.82848 617.565 1654.7118 2896947
-174.24754 620.3645 1662.2129 3291705
-161.92821 613.15094 1642.8848 3489084
-152.99989 618.66992 1657.6724 3357499
-143.51476 622.57721 1668.1416 4015685
-133.19142 623.17651 1669.7474 3356729
-123.15717 625.34583 1675.5599 3093810
-112.65927 625.34583 1675.5599 2699310
-101.74678 622.80811 1668.7603 2435624
-92.285049 629.58643 1686.9222 2041124
-81.988853 631.6889 1692.5557 2040867
-70.705765 625.68304 1676.4634 2567467
-60.101963 624.6413 1673.6721 2699309
-49.636642 624.90253 1674.3722 2699053
-39.218765 626.06122 1677.4767 2502187
-28.693689 625.73053 1676.5907 2173479
-18.207005 626.33862 1678.22 3423546
-7.6924362 626.33862 1678.22 3555132
2.7696478 614.69025 1647.0093 3226167
13.157817 617.93756 1655.7101 2305065
23.531353 617.93756 1655.7101 2305065
34.004734 619.75726 1660.5858 2305065
44.828136 625.60919 1676.2655 2897202
55.409695 626.505 1678.6658 3357753
65.914169 626.38257 1678.3378 3028788
76.693016 628.54248 1684.125 2765616
87.942871 633.57318 1697.6044 2634030
98.628464 633.89172 1698.458 2502444
109.21436 633.56995 1697.5957 2305065
119.60987 632.29889 1694.1901 2305065
130.37608 633.03491 1696.1621 2370858
141.26933 634.23035 1699.3651 2699823
151.29651 631.64246 1692.431 2699823
161.3349 629.43719 1686.5225 2568237
171.95822 629.64502 1687.0792 2634030
181.94107 627.61938 1681.6516 2962995
190.83838 622.27576 1667.334 2765616
201.87433 624.09845 1672.2177 2634030
212.72821 625.20624 1675.1858 2634030
221.72644 621.01251 1663.9491 2370858
231.94601 620.46259 1662.4756 2370858
239.10056 612.11322 1640.1042 2173736
248.74786 610.57068 1635.9711 3489339
259.91983 612.74445 1641.7955 3620925
268.99008 609.98669 1634.4064 2897202
281.44211 614.81879 1647.3535 3160374
291.27051 613.7804 1644.5713 2634030
301.22986 613.07941 1642.6931 2897202
312.81113 615.61676 1649.4917 3094581
322.95825 615.2597 1648.5349 3357753
333.2674 615.22375 1648.4386 3291960
345.89441 619.34027 1659.4685 3028788
356.71539 620.07721 1661.443 2962995
367.50125 620.71295 1663.1464 2962995
377.84402 620.58582 1662.8059 2831409
388.19705 620.48199 1662.5277 2962995
397.80145 619.21826 1659.1416 2568237
408.02371 618.95618 1658.4395 2568236
422.11295 624.42743 1673.0991 3291962
430.76581 621.78656 1666.0231 3620927
439.65213 619.59955 1660.1632 3489598
450.25528 619.87726 1660.9072 3292219
466.09949 627.19489 1680.5143 2963254
474.78494 624.76904 1674.0144 3094840
486.00583 625.71234 1676.5419 3950406
496.39255 625.56439 1676.1456 3753026
506.47943 625.05267 1674.7744 3620927
515.23236 622.94885 1669.1375 3291962
530.01202 628.0705 1682.8605 3423548
532.8288 619.09265 1658.8051 3357755
543.51001 619.42114 1659.6853 3226169
560.24054 626.5022 1678.6583 3160376
568.1947 623.68866 1671.1198 3291962
585.01331 630.53113 1689.4535 2897204
595.98962 630.9455 1690.5637 3094583
607.00323 631.38416 1691.7391 3094583
614.43781 628.1488 1683.0702 3028790
625.45984 628.6283 1684.355 3028790
638.59808 631.18353 1691.2015 2897204
650.89166 632.83411 1695.6241 2897204
668.46539 639.48291 1713.439 3357755
672.98175 633.62769 1697.7504 3423548
685.91937 635.76013 1703.4641 3291962
698.81335 637.78741 1708.896 3291962
706.3504 634.93811 1701.2616 3555134
719.98218 637.57074 1708.3154 3620927
735.90302 642.12354 1720.5143 3423291
745.09106 640.75488 1716.847 3686463
756.3717 641.1991 1718.0374 4147015
769.38989 643.08325 1723.0858 4081479
770.95441 635.47424 1702.6981 3555392
776.99133 631.70911 1692.6099 3621185
789.74713 633.43451 1697.2328 3686978
765.28387 605.6582 1622.8086 4081478
780.98767 609.98236 1634.3948 4278857
791.92145 610.51721 1635.8279 4015685
802.92969 611.09509 1637.3762 3291962
812.71075 610.73615 1636.4146 3226169
819.89453 608.45868 1630.3123 3489342
826.75635 606.00128 1623.7278 3226166
837.71991 606.57361 1625.2614 2831409
859.11792 614.5968 1646.7588 3160374
849.98376 600.84662 1609.9163 3357753
880.70807 615.2641 1648.5468 3226167
895.22644 618.1571 1656.2983 3226167
899.89258 614.25879 1645.8531 3357753
898.81104 606.56989 1625.2515 3489339
914.27264 610.09247 1634.6899 3226167
933.1424 615.78613 1649.9454 3094581
936.69501 611.35785 1638.0803 3357753
946.95807 611.35785 1638.0803 3160374
961.34027 613.98859 1645.1293 2831409
978.50214 618.32013 1656.7351 2962995
993.36786 621.12488 1664.2502 2962995
1003.1422 620.72107 1663.1682 3028788
1012.2383 619.91003 1660.9952 3028789
1026.8677 622.46985 1667.854 2831411
1039.0563 623.51337 1670.6499 2173481
1047.9873 622.60077 1668.2048 2831668
1046.8002 615.75446 1649.8606 3291962
1060.2014 617.53937 1654.6431 3029047
1062.6895 612.99457 1642.4657 3094583
1064.8568 608.35382 1630.0312 3291962
1083.2019 612.95575 1642.3617 3555134
1093.4918 612.95575 1642.3617 3489341
1111.6034 617.29932 1653.9999 3555134
1117.7432 614.97577 1647.7743 3357755
1130.835 616.4848 1651.8175 3621184
1152.8986 622.81317 1668.7738 3884099
1167.902 625.24792 1675.2976 4015685
1169.9768 620.7796 1663.3251 4213321
1179.1835 620.14081 1661.6135 3884099
1205.293 628.32477 1683.5417 3423548
1218.842 629.87573 1687.6974 3357755
1214.0382 621.99713 1666.5874 3291962
1219.6813 619.55951 1660.056 2699825
1250.9492 630.06982 1688.2174 2502446
1267.9297 633.26794 1696.7865 2634032
1295.0588 641.43945 1718.6814 2568239
1303.5093 640.30103 1715.6311 2502703
1304.1287 635.36597 1702.408 2699825
1315.2009 635.56219 1702.9337 2831411
1325.1221 635.20355 1701.9728 2897204
1330.0029 632.45386 1694.6051 2962997
1335.2897 629.93903 1687.8671 3094583
1324.4315 619.90717 1660.9874 3094583
1334.988 619.97675 1661.174 3094583
1337.7501 616.45355 1651.7338 2699825
1348.0988 616.45355 1651.7338 2568239
1368.7313 621.1203 1664.2379 2765618
1379.729 621.37732 1664.9266 2962997
1391.1852 621.83545 1666.1542 2962997
1398.2366 620.33258 1662.1273 2765618
1414.7828 623.03308 1669.3632 2699825
1428.2782 624.36041 1672.9196 3159863
1419.9658 616.20477 1651.0673 3620157
1444.0659 622.13098 1666.9459 3356985
1465.5541 626.85486 1679.6033 3225399
1479.0763 628.12848 1683.0157 3093813
1483.6615 625.61548 1676.2825 3093813
1490.9839 624.28406 1672.715 3554364
