# .PCD v0.7 - Point Cloud Data file format
VERSION 0.7
FIELDS x y z rgb
SIZE 4 4 4 4
TYPE F F F U
COUNT 1 1 1 1
WIDTH 1265
HEIGHT 1
VIEWPOINT 0 0 0 1 0 0 0
POINTS 1265
DATA ascii
-643.2702 643.41772 3702.3372 2239020
-627.04279 650.64893 3743.9468 2633264
-601.1615 648.03564 3728.9094 2764850
-577.4718 647.66901 3726.7998 2699314
-554.12225 647.66901 3726.7998 2567728
-528.52148 644.92194 3710.9927 2501680
-511.72562 653.16058 3758.3994 2633265
-492.28769 658.65906 3790.0386 2501679
-468.64487 658.80377 3790.8711 2435888
-448.017 663.42853 3817.4829 2370349
-431.31305 674.71326 3882.417 2370606
-412.22607 683.39612 3932.3801 2568498
-394.18585 695.02863 3999.3152 2897719
-377.29861 710.41125 4087.8296 3029561
-352.22845 711.50482 4094.1223 3095612
-330.75415 720.60431 4146.4824 3226941
-307.20761 726.35559 4179.5762 3292732
-286.29037 739.97461 4257.9424 3096379
-260.55655 742.66388 4273.417 3096123
-232.70346 739.23682 4253.6968 3095869
-204.70949 734.41779 4225.9673 3227708
-180.4507 743.55804 4278.562 3293502
-153.77901 744.21057 4282.3169 3293502
-126.20718 739.862 4257.2944 3292988
-99.524895 739.79498 4256.9087 3227709
-73.12191 742.51501 4272.5601 3425088
-46.978645 752.53711 4330.229 3293503
-19.931877 755.70135 4348.437 3359295
7.3491368 759.49493 4370.2656 3359295
34.755413 760.04614 4373.4375 3293758
62.196297 760.53461 4376.248 3227199
89.10154 756.17828 4351.1812 3227455
115.81291 752.60327 4330.6099 3226941
140.06169 737.42004 4243.2427 3226941
169.63242 750.63092 4319.2607 3687493
198.02234 755.70056 4348.4321 3424320
225.26396 755.69165 4348.3809 3161662
249.90109 747.89001 4303.4893 3490370
276.17999 746.04291 4292.8604 3621956
299.3139 736.78204 4239.5718 3687492
325.10281 735.03357 4229.5107 3292734
351.27768 734.35553 4225.6094 3358527
376.54932 732.01672 4212.1514 3424577
402.93976 732.01672 4212.1514 3490113
428.99832 731.45081 4208.895 3292734
455.41785 731.53046 4209.353 3161148
483.57294 734.23633 4224.9233 3161148
511.40683 736.1991 4236.2173 3095355
531.56317 727.46124 4185.938 3161149
554.74768 723.49432 4163.1118 3358272
584.38239 727.91815 4188.5674 3358272
604.44641 720.55267 4146.1851 3423808
630.42358 720.55267 4146.1851 3556166
654.24139 718.18237 4132.5459 3424580
682.05188 720.2085 4144.2046 3424836
710.10846 722.33636 4156.4487 3490373
737.21503 723.38147 4162.4624 3424067
767.8374 727.68719 4187.2383 3424066
800.10699 733.2179 4219.063 3555652
825.18805 732.01794 4212.1582 3555653
855.71558 735.5741 4232.6211 3357761
882.95667 736.17639 4236.0869 3424065
913.6875 739.5683 4255.6045 3489858
950.65149 747.6701 4302.2236 3160893
966.47717 739.15863 4253.2471 3160637
993.12506 739.15863 4253.2471 3226940
1022.7958 741.34961 4265.8545 3226941
1056.0544 745.9635 4292.4033 3226941
1090.6539 751.27173 4322.9478 3292734
1119.1537 752.22296 4328.4214 3292734
1144.8521 751.29059 4323.0566 3226941
1170.2792 750.22766 4316.9404 3161148
1199.2998 751.46436 4324.0562 3161148
1228.7462 752.90723 4332.3589 3161149
1271.5859 762.3172 4386.5054 2963768
1282.7449 752.73804 4331.3853 2898231
1321.1553 759.21606 4368.6611 3095353
1351.4321 760.85211 4378.0752 2569266
1378.8622 760.85211 4378.0752 2766645
1400.502 757.71936 4360.0488 2963767
1436.4005 762.2735 4386.2539 2832181
1455.1967 757.75092 4360.2305 2963767
1509.6166 771.60333 4439.9395 3292475
1539.4901 772.63519 4445.877 3095097
1576.05 776.92639 4470.5693 3029304
1606.4346 778.07672 4477.1885 3029047
1641.7675 781.54321 4497.1353 3029047
1661.8136 777.7384 4475.2417 2963254
1697.3947 781.20972 4495.2163 2963254
1729.5475 783.01556 4505.6074 3094840
1768.3929 787.74481 4532.8203 3226426
1796.7926 787.74481 4532.8203 3160633
1834.5305 791.77527 4556.0122 3292221
1851.0115 786.64832 4526.5107 3292222
1884.6843 788.87213 4539.3071 3291965
1929.3577 795.56586 4577.8237 3095099
1962.4301 797.34985 4588.0894 3029050
1958.3376 784.20007 4512.4233 3160634
1999.7332 789.38062 4542.2329 3226426
2030.2228 790.17114 4546.7817 3094840
2060.989 791.0459 4551.8154 3029047
2083.1445 788.63696 4537.9541 3029047
2111.0249 788.43115 4536.7695 2963511
2137.249 787.6203 4532.104 3160376
2165.6443 787.6203 4532.104 3094840
2193.8713 787.56006 4531.7573 3160376
2211.8948 783.88513 4510.6113 3160376
2235.3301 782.19678 4500.896 3423291
2249.9397 777.50055 4473.873 3422776
2228.8083 760.72107 4377.3213 3423032
2250.01 758.62268 4365.2466 3685948
2254.4026 750.97546 4321.2432 3751228
2281.4766 750.97546 4321.2432 3487799
2286.6565 743.85327 4280.2607 3355699
2315.041 744.35724 4283.1606 3027761
2347.1145 746.02222 4292.7412 3355442
2409.2673 757.10162 4356.4941 3027504
2442.4578 758.93359 4367.0356 3225398
2477.7527 761.37164 4381.0645 3159350
2524.9514 767.3739 4415.6025 2896434
2550.1292 766.6261 4411.2998 2962227
2562.604 762.11664 4385.3516 3423292
2618.1252 770.3689 4432.8364 3489341
2678.9209 779.98364 4488.1611 3423035
2715.6123 782.45337 4502.3726 3291708
2744.7732 782.72491 4503.9351 2897464
2759.9688 779.04889 4482.7827 3029052
2799.2739 782.1839 4500.8218 3621188
2846.032 787.31793 4530.3643 3884364
2860.9424 783.62744 4509.1284 3161669
2880.8547 781.36578 4496.1143 3030855
2878.2366 773.09613 4448.5293 2900043
2896.2307 770.46851 4433.4097 2572629
2941.7534 775.14453 4460.3164 5666967
2984.5398 779.01837 4482.6069 7311791
3015.3276 779.71722 4486.6284 7508908
3039.0303 778.58813 4480.1313 8100530
2982.1826 757.0318 4356.0923 6782349
3004.7344 755.83929 4349.2305 2109753
3093.9553 771.28815 4438.126 2569530
3093.1802 764.22662 4397.4927 2766908
3075.7415 753.20905 4334.0957 3029562
3112.3125 755.49481 4347.2485 3291705
3168.741 762.51947 4387.6694 3225915
3196.2312 762.51947 4387.6694 3225659
3243.407 767.17584 4414.4629 3160122
3271.8201 767.35297 4415.4819 3159866
3307.1174 769.12805 4425.6963 3094330
3351.9644 773.07623 4448.415 3028537
3388.4985 775.05786 4459.8174 3225916
3423.2139 776.59442 4468.6592 3291452
3461.5312 778.91663 4482.0215 3225915
3494.0515 779.90741 4487.7227 3357245
3519.262 779.26385 4484.0195 3357501
3558.6064 781.73529 4498.2407 3291708
3615.4128 787.97382 4534.1382 3357501
3649.5776 789.21875 4541.3018 3357501
3678.0303 789.21875 4541.3018 3357501
3717.2998 791.52191 4554.5547 3423294
3737.1221 789.68073 4543.96 3489087
3766.1516 789.79828 4544.6362 3554880
3812.5015 793.51898 4566.0459 3554880
3758.4514 776.44305 4467.7881 3686466
3810.7998 781.4375 4496.5269 3489087
3864.8142 786.69775 4526.7954 3357501
3892.2024 786.50104 4525.6636 3423294
3916.7876 785.74493 4521.3125 3423294
3939.2766 784.58203 4514.6211 3357501
3982.0247 787.44202 4531.0781 3357501
4004.8562 786.35083 4524.7993 3357501
4002.2993 780.32507 4490.126 3291708
4024.1594 779.11078 4483.1387 3160122
4072.6873 783.04071 4505.752 3094329
4099.2524 782.72278 4503.9229 3094329
4129.6729 783.14038 4506.3257 3160122
4169.6543 785.35315 4519.0581 3225915
4213.1665 788.19647 4535.4194 3225915
4230.7012 786.17444 4523.7842 3028536
4261.5303 786.63342 4526.4253 3291708
4298.522 788.21625 4535.5332 3291708
4314.731 785.99243 4522.7368 3225915
4343.6362 786.09546 4523.3296 3160122
4377.6489 787.11542 4529.1987 3094329
4415.9434 788.88715 4539.3936 3160122
4464.9902 792.54474 4560.4399 3357501
4506.8828 794.89404 4573.9585 3225915
4530.5249 794.01514 4568.9009 3357501
4560.9497 794.32843 4570.7036 3160122
4585.5991 793.63837 4566.7329 3094329
4609.4204 792.81433 4561.9912 3160122
4637.6787 792.75897 4561.6729 3094329
4663.6777 792.32043 4559.1494 3160122
nan nan nan 16777215
nan nan nan 16777215
nan nan nan 16777215
nan nan nan 16777215
nan nan nan 16777215
nan nan nan 16777215
-3668.1558 703.8988 3910.135 3620929
-3793.6802 732.88086 4071.1292 3555393
-3772.5928 733.74042 4075.9041 3620929
-3752.0259 734.71362 4081.3103 3555393
-3720.4329 733.52625 4074.7141 3489600
-3693.7473 733.29669 4073.4392 3555393
-3656.3115 730.91498 4060.2087 3555393
-3619.6516 728.65607 4047.6606 3621186
-3609.5286 731.74493 4064.8193 3621186
-3581.0198 731.12402 4061.3699 3555393
-3556.02 731.21564 4061.8792 3489600
-3540.8772 733.35022 4073.7363 3489600
-3528.4565 736.08356 4088.9202 3292221
-3470.5854 729.30597 4051.271 3160635
-3466.0999 733.72955 4075.8438 3094842
-3435.3018 732.60748 4069.6106 3029049
-3399.2256 730.33459 4056.9846 3226428
-3373.7234 730.31641 4056.8838 3292221
-3349.9363 730.67212 4058.8596 3423807
-3308.4436 727.14178 4039.2488 3358014
-3298.3921 730.52051 4058.0176 3423807
-3267.1592 729.22418 4050.8164 3358014
-3181.6917 715.70764 3975.7327 3292221
-3156.7825 715.70764 3975.7327 3292221
-3142.9534 718.23975 3989.7983 3358783
-3151.4917 725.96484 4032.7112 3555906
-3106.6978 721.43018 4007.521 3621699
-3076.5503 720.25049 4000.968 3490113
-3054.1216 720.87329 4004.4275 3424577
-3022.426 719.30103 3995.6936 3424320
-2997.3918 719.30103 3995.6936 3424320
-2964.9265 717.50275 3985.7043 3490113
-2945.4858 718.85254 3993.2024 3555906
-2897.6802 713.24371 3962.0454 3555906
-2882.8889 715.73438 3975.8811 3490113
-2849.7283 713.66821 3964.4036 3424320
-2824.1797 713.48871 3963.4065 3293248
-2796.6201 712.79346 3959.5444 3161919
-2764.0647 710.80115 3948.4771 3161663
-2737.8555 710.41949 3946.3572 3227456
-2669.9304 699.10779 3883.521 2898490
-2635.5068 696.44092 3868.7065 2766389
-2611.9966 696.63525 3869.7859 3161149
-2575.4001 693.3103 3851.3159 3292732
-2550.8948 693.20819 3850.7488 3095610
-2546.7783 698.69769 3881.2429 3160891
-2529.009 700.51147 3891.3184 3358270
-2478.1931 693.11774 3850.2463 3489856
-2448.7664 691.61975 3841.925 3555650
-2423.7192 691.34131 3840.3784 3490113
-2402.8486 692.2605 3845.4844 3884612
-2378.7554 692.2605 3845.4844 3688774
-2371.3503 697.16675 3872.7383 3819846
-2314.8916 687.60376 3819.6165 3622724
-2320.1865 696.37555 3868.3433 3754310
-2286.2412 693.43079 3851.9854 3688517
-2275.0493 697.39807 3874.0234 3622724
-2289.532 709.40613 3940.7278 3951432
-2297.0732 719.50171 3996.8086 4149067
-2268.4709 718.37396 3990.5437 4148554
-2266.6941 725.81079 4031.8552 3753283
-2247.4478 727.75848 4042.6743 3425345
-2220.6504 727.27734 4040.0017 3688517
-2208.8894 731.76654 4064.9392 3622724
-2183.4211 731.76654 4064.9392 3491138
-2160.875 732.75739 4070.4434 3490880
-2136.0581 732.99268 4071.7502 3359551
-2110.7981 733.07971 4072.2336 3425088
-2086.366 733.45996 4074.3459 3292992
-2063.689 734.47437 4079.981 3490880
-2046.0084 737.31464 4095.7588 3425088
-2029.3969 740.61725 4114.1045 3556674
-2003.9225 740.72882 4114.7241 3491138
-1966.2106 736.26086 4089.905 3688260
-1940.2158 736.12042 4089.1248 3688260
-1923.3833 739.49878 4107.8916 3688260
-1901.4858 740.99512 4116.2036 3754053
-1886.3658 745.21014 4139.6177 3622724
-1857.8174 744.16364 4133.8047 3754053
-1822.6245 740.38849 4112.834 3688260
-1794.0933 739.24994 4106.5093 3556674
-1765.9532 738.24194 4100.9097 3490881
-1736.2234 736.52966 4091.3979 3293502
-1707.2924 735.10999 4083.5117 3490881
-1669.5624 729.8009 4054.02 3556674
-1637.3726 726.78693 4037.2776 3688260
-1598.4713 720.65265 4003.2017 3819846
-1558.0381 713.62097 3964.1414 3622467
-1534.1096 714.0437 3966.4895 3688260
-1503.9142 711.51532 3952.4443 3490111
-1463.8188 704.1402 3911.4756 3490111
-1435.0138 702.03729 3899.7942 3358525
-1422.2618 707.85107 3932.0896 2898231
-1387.4323 702.68829 3903.4104 2437679
-1334.2806 687.8941 3821.2292 1779493
-1296.7607 680.76575 3781.6313 1648163
-1265.0842 676.49658 3757.9165 1582114
-1232.2054 671.41046 3729.6633 2108201
-1212.5972 673.49847 3741.2617 2634292
-1202.0039 680.77448 3781.6797 2042155
-1162.2104 671.4726 3730.0083 1252895
-1134.057 668.65204 3714.3403 1055516
-1116.3276 671.98822 3732.8726 923931
-1081.4801 664.94208 3693.7314 1910825
-1064.9183 669.0766 3716.6985 2371376
-1047.9591 673.14075 3739.2747 1976618
-1024.5314 673.14075 3739.2747 989466
-995.78528 669.56458 3719.4094 1054490
-969.62488 667.59741 3708.4819 1120795
-938.25848 661.86127 3676.6177 2107434
-931.22803 673.43542 3740.9116 2633522
-904.32739 670.8667 3726.6423 2370606
-882.2757 671.85425 3732.1282 1120539
-858.89276 671.85425 3732.1282 988697
-835.30066 671.68604 3731.1938 1054746
-798.07477 660.22925 3667.5518 1646624
-772.79773 658.27124 3656.675 2370605
-750.61969 658.91388 3660.2451 2238762
-726.51355 657.85132 3654.3423 1514268
-700.83374 655.24817 3639.8821 1382682
-673.85199 651.21167 3617.4595 1448476
-653.24023 653.26453 3628.863 2369834
-632.16125 654.98132 3638.3999 2830642
-614.26996 660.25281 3667.6829 2370348
-591.29077 660.25281 3667.6829 1514784
-568.4032 660.35925 3668.2739 1514783
-547.71362 663.1358 3683.6978 1909542
-521.42664 659.08148 3661.1763 2699058
-507.7674 671.35016 3729.3281 2765105
-489.73663 678.74359 3770.3984 2238760
-461.11389 671.46265 3729.9531 1448735
-439.66281 674.40503 3746.2979 1383968
-423.39285 686.07501 3811.124 1976105
-399.92816 686.78448 3815.0654 2634291
-385.00589 703.1864 3906.1775 3424063
-358.93671 700.07397 3888.8882 3555906
-339.80435 711.02319 3949.7107 3490370
-316.87415 715.12146 3972.4766 3359298
-294.19934 720.54388 4002.5977 3424578
-270.37869 723.90906 4021.291 3359041
-247.32674 730.23529 4056.4333 3622213
-222.34749 731.66858 4064.395 3490627
-198.68347 738.36041 4101.5679 3490627
-172.35466 735.66626 4086.6018 3490627
-146.29749 733.39355 4073.9771 3556163
-120.46087 731.49957 4063.4561 3819079
-95.002045 731.49957 4063.4561 3556677
-69.965225 735.93829 4088.113 3490627
-44.747406 742.50049 4124.5659 3359298
-19.009188 746.56403 4147.1387 3425090
7.0627627 756.07465 4199.9697 3293248
32.412941 734.23895 4078.6733 3227455
58.057819 735.38812 4085.0569 3095869
85.008713 747.31531 4151.312 3424063
110.80584 745.88739 4143.3799 3424063
136.8167 746.16711 4144.9341 3358527
161.18474 738.82739 4104.1621 3621699
184.99602 731.3064 4062.3831 3555906
214.41823 745.10254 4139.02 3293505
239.09325 741.20502 4117.3696 3555906
263.88513 738.39362 4101.7524 3819078
287.80084 733.84723 4076.4973 3621699
312.55203 731.9986 4066.2283 3424320
337.39706 730.63184 4058.636 3555906
362.53851 730.05359 4055.4238 3424320
388.02014 730.19122 4056.1885 3424320
408.0405 720.66638 4003.2783 3621699
435.24286 724.19489 4022.8789 3424319
461.46298 725.79205 4031.7512 3358525
482.86417 720.03766 3999.7856 3490111
503.57727 713.87561 3965.5557 2963768
529.61658 715.48846 3974.5149 2700597
552.47717 712.85504 3959.8862 3292734
581.32129 717.83667 3987.5591 3555651
607.79004 719.59528 3997.3284 3490115
633.24213 720.05878 3999.9028 3424321
658.29419 720.04938 3999.8508 3358528
684.49799 721.25427 4006.5439 3358271
710.17963 721.84326 4009.8157 3424064
741.16455 727.59814 4041.7837 3161148
767.47406 728.53448 4046.9854 3226943
801.4444 736.45062 4090.959 3621445
825.30157 734.87109 4082.1848 3752774
850.87823 734.87152 4082.187 3621700
871.47498 730.69641 4058.9946 3555650
900.44507 733.57983 4075.012 3226686
927.58276 734.85254 4082.0815 3226686
952.20007 734.11383 4077.978 3292735
978.92377 734.99518 4082.874 3161148
1010.1104 739.09711 4105.6602 3161148
1031.218 735.80383 4087.3662 3358527
1055.3744 734.79266 4081.7493 3161149
1086.9393 738.86548 4104.3735 3095356
1112.7732 738.94434 4104.8115 3292735
1137.2739 738.1543 4100.4229 3490114
1162.9644 738.1543 4100.4229 3490115
1191.0386 739.63464 4108.6465 3358527
1228.7627 746.91815 4149.106 2700852
1258.8573 749.35828 4162.6606 2634802
1286.729 750.40295 4168.4639 2897718
1311.6691 749.73041 4164.728 3226170
1334.1161 747.68689 4153.376 3291963
1355.9879 745.4054 4140.7026 3291963
1375.5992 741.99023 4121.7314 3094840
1411.8584 747.5152 4152.4224 3094840
1437.8745 747.5152 4152.4224 2634289
1474.5039 752.93463 4182.5273 2239531
1500.7087 752.93463 4182.5273 2765875
1533.1045 755.98743 4199.4854 2831668
1566.1143 759.23486 4217.5249 2963254
1592.8055 759.36224 4218.2324 2963254
1619.1603 759.32764 4218.04 3029047
1657.0612 764.62195 4247.4497 3029047
1693.6122 769.1358 4272.5244 3029047
1719.3724 768.68494 4270.0195 3029047
1743.5287 767.54181 4263.6694 3226426
1769.7238 767.3172 4262.4219 3160633
1797.0175 767.56842 4263.8174 3029047
1795.1741 755.54919 4197.0513 2831668
1821.47 755.54919 4197.0513 3160633
1869.4471 764.41473 4246.2988 3292219
1908.0945 769.26996 4273.2695 3160633
1949.5309 775.09973 4305.6538 3226426
1963.8741 770.14563 4278.1338 3226426
1978.6929 765.50885 4252.3765 3094840
2021.1334 771.53955 4285.877 3094840
2041.4974 769.09521 4272.2988 3160633
2059.439 765.81329 4254.0679 3094840
2087.1299 766.19434 4256.1846 3160633
2097.4543 760.27087 4223.2798 3489341
2096.9336 750.61285 4169.6299 3423549
2112.7461 746.96722 4149.3784 3423805
2134.0886 745.34155 4140.3477 3555134
2156.8484 744.2439 4134.2505 3488314
2105.0305 717.74396 3987.0442 3027763
2170.9128 731.52673 4063.6069 3949122
2202.085 733.42926 4074.1755 4278343
2219.7979 730.85687 4059.886 3882560
2278.0872 741.5509 4119.291 3685694
2311.0562 743.85565 4132.0938 3488571
2357.0374 750.25104 4167.6201 3554107
2395.7847 754.22906 4189.7178 3554877
2431.3457 757.12866 4205.8247 3818306
2467.5024 760.14948 4222.6055 3818051
2517.46 767.31262 4262.3965 3554880
2575.9548 776.90033 4315.6558 3358014
2625.2244 783.53534 4352.5132 3489600
2622.7163 774.73914 4303.6504 3424064
2710.179 792.42834 4401.9136 3489347
2674.4021 774.09027 4300.0459 3489603
2765.3513 792.43225 4401.9351 3030593
2748.3398 779.78058 4331.6558 2898753
2757.6921 774.7832 4303.8955 2833475
2784.6572 774.7832 4303.8955 2833734
2776.7515 765.17401 4250.5166 3031115
2834.6838 773.71771 4297.9766 3689818
2938.1077 794.40045 4412.8687 3952738
3050.134 817.00189 4538.4185 3820898
3015.1257 800.1651 4444.8911 3755867
3037.2102 798.64948 4436.4717 3031373
2950.3059 768.76196 4270.4478 2767943
2968.5913 766.57471 4258.2974 3030855
2960.3091 757.62701 4208.5933 3096128
2981.5972 756.33832 4201.4346 3226684
3002.9695 755.09338 4194.519 3225914
3040.7168 757.9519 4210.3979 3094330
3076.8423 760.36035 4223.7769 3094329
3115.1809 763.27002 4239.9399 3094328
3140.6663 763.00781 4238.4834 3160376
3168.3948 763.29041 4240.0532 3094583
3192.3647 762.67035 4236.6089 3423547
3225.3557 764.19794 4245.0947 3226424
3272.1135 768.93573 4271.4131 3094838
3308.4248 771.16168 4283.7778 3160632
3340.5408 772.38171 4290.5552 2963253
3367.4226 772.38171 4290.5552 2962996
3397.751 773.16602 4294.9121 3028533
3425.6714 773.39441 4296.1807 3028792
3457.2173 774.43134 4301.9409 3160121
3492.3762 776.25531 4312.0728 3225914
3520.3955 776.47644 4313.3013 3226171
3571.1697 781.67493 4342.1787 3028536
3572.4543 776.04425 4310.9004 2699315
3597.646 775.65247 4308.7241 2699572
3615.936 773.78955 4298.3755 2765365
3634.2371 771.95648 4288.1929 2633779
3667.7505 773.35797 4295.978 2896951
3698.021 774.06018 4299.8789 2896950
3725.0146 774.07135 4299.9409 2765364
3751.9551 774.07135 4299.9409 2765365
3792.2649 776.80988 4315.1533 2699571
3799.0378 772.6886 4292.2598 2896950
3811.5613 769.78662 4276.1396 2831414
3862.6064 774.65082 4303.1597 3094329
3893.0581 775.34607 4307.022 3225915
3921.4106 775.61664 4308.5249 3291708
3957.7231 777.44702 4318.6929 3225915
3985.2651 777.54144 4319.2173 3094329
4008.189 776.73969 4314.7637 2962743
4031.4307 776.00989 4310.7095 3028536
4058.4387 776.00989 4310.7095 3357501
4092.6113 777.37073 4318.269 3291708
4110.4951 775.64008 4308.6553 3291708
4137.916 775.71997 4309.0991 3094329
4164.9141 775.71997 4309.0991 3028536
4197.3926 776.73431 4314.7334 3094329
4266.3984 784.4516 4357.603 3094329
4305.6743 786.63928 4369.7554 3094329
4330.6274 786.1991 4367.3101 3160122
4357.9756 786.19641 4367.2954 3160122
4392.7441 787.52423 4374.6714 3094329
4425.437 788.46564 4379.9009 3094586
4477.958 792.90656 4404.5698 3291708
4483.8315 789.08368 4383.334 3620673
nan nan nan 16777215
nan nan nan 16777215
nan nan nan 16777215
nan nan nan 16777215
nan nan nan 16777215
nan nan nan 16777215
nan nan nan 16777215
-3585.9883 716.74091 3848.2478 3555649
-3587.7739 721.95178 3876.2258 3424064
-3559.1348 721.06989 3871.4907 3555393
-3542.2231 722.56805 3879.5344 3621186
-3514.6216 721.89124 3875.9006 3423807
-3498.4373 723.56641 3884.8948 3489600
-3475.489 723.85626 3886.4509 3358014
-3424.665 718.30347 3856.6377 3292221
-3445.3374 727.77435 3907.4875 3358014
-3394.0151 722.06409 3876.8286 3094842
-3364.9143 721.03308 3871.2932 3160635
-3325.5083 717.76288 3853.7354 3226428
-3299.5344 717.36523 3851.6001 3226428
-3251.6458 712.16205 3823.6638 3226428
-3238.7166 714.59509 3836.7271 3226428
-3231.51 718.33673 3856.8159 3160635
-3207.3459 718.33673 3856.8159 3358014
-3200.5718 722.26099 3877.886 3292221
-3154.46 717.30029 3851.2515 3292221
-3134.814 718.32758 3856.7671 3358014
-3127.9646 722.32599 3878.2346 3423807
-3021.2927 703.15491 3775.3037 3423807
-3000.9817 703.93896 3779.5132 3423807
-2994.0334 707.89484 3800.7529 3292734
-2925.2346 697.17334 3743.188 3358527
-2880.4468 692.04736 3715.666 3490113
-2869.1638 694.95312 3731.2673 3753285
-2867.144 700.16876 3759.2708 3753285
-2846.6804 700.9295 3763.3552 3424577
-2823.1021 700.9295 3763.3552 3490113
-2809.5957 703.45135 3776.8953 3424320
-2791.9534 704.97168 3785.0581 3292734
-2765.2708 704.21588 3781 3358527
-2737.8303 703.25226 3775.8262 3161148
-2679.8843 694.36774 3728.1245 3292477
-2685.5183 701.94574 3768.8113 3359298
-2671.9614 704.59747 3783.0488 3424834
-2625.3921 698.51337 3750.3828 3490627
-2569.8533 689.91144 3704.198 3951178
-2615.1621 708.47327 3803.8584 4214094
-2568.198 702.14899 3769.9028 3951178
-2529.041 697.86169 3746.8835 3622469
-2494.2568 694.71191 3729.9722 3359811
-2491.7551 700.57904 3761.4734 3491397
-2483.7842 705.00586 3785.2415 3820619
-2455.6885 703.75061 3778.502 3951434
-2423.4438 701.27039 3765.1853 4083020
-2421.5449 707.60876 3799.2168 3886155
-2348.0012 692.92975 3720.4036 3820105
-2326.0605 693.33771 3722.594 3425605
-2324.1162 699.77472 3757.1548 3491397
-2299.9265 699.57709 3756.0938 3359809
-2252.2368 692.15326 3716.2346 3425602
-2236.7207 694.56525 3729.1848 3359295
-2228.0383 699.17249 3753.9216 3359551
-2209.1243 700.63312 3761.7639 3688260
-2185.5554 700.63312 3761.7639 3950405
-2171.6865 703.77649 3778.6409 3621440
-2170.2039 711.04736 3817.679 3555904
-2152.0286 712.95026 3827.8958 3490111
-2121.9353 710.90308 3816.9041 3555904
-2101.8887 712.21362 3823.9404 3490111
-2086.1228 715.02142 3839.0161 3621697
-2067.8977 717.04218 3849.8655 3555903
-2045.4478 717.6283 3853.0125 3491395
-2020.5343 717.35382 3851.5388 3622724
-1997.9342 717.90393 3854.4922 3556674
-1977.7524 719.34711 3862.241 3622213
-1959.8479 721.66455 3874.6836 3622723
-1946.9421 725.90393 3897.4453 3754053
-1886.6626 712.36365 3824.7461 3754053
-1910.3385 730.58252 3922.5649 3425088
-1873.0094 725.64178 3896.0376 3490881
-1848.5995 725.64178 3896.0376 3688517
-1818.5244 723.38818 3883.938 3688260
-1794.1904 723.38818 3883.938 3688260
-1795.5314 733.88232 3940.282 3622724
-1769.9076 733.49414 3938.1978 3688260
-1734.1697 728.84412 3913.2314 3819846
-1709.652 728.84412 3913.2314 3819846
-1671.1625 722.80103 3880.7854 3754053
-1659.0939 728.17572 3909.6426 3754053
-1613.0115 718.55908 3858.0103 3556674
-1576.9028 713.16052 3829.0247 3556674
-1550.9373 712.2533 3824.1536 4017225
-1524.9623 711.31317 3819.1062 4083018
-1506.912 714.09845 3834.0603 4017226
-1483.5336 714.40814 3835.7234 3885895
-1446.4352 708.01233 3801.3835 3754053
-1408.2947 700.88373 3763.1094 3622210
-1384.2709 700.65759 3761.8953 3490111
-1360.7014 700.65759 3761.8953 3029560
-1320.0533 691.70831 3713.8459 2700082
-1296.7849 691.70831 3713.8459 2239531
-1266.7592 688.03815 3694.1401 2042152
-1242.0782 687.18829 3689.5774 2042152
-1213.6765 684.20868 3673.5796 2436653
-1190.6604 684.20868 3673.5796 2699825
-1171.4316 686.42804 3685.4954 2370860
-1148.3409 686.42804 3685.4954 1712677
-1124.2889 685.84161 3682.3469 1646628
-1102.1677 686.43323 3685.5232 1844263
-1075.566 684.19995 3673.5327 2304814
-1056.7778 686.94806 3688.2874 2436144
-1034.1312 687.25482 3689.9346 2304557
-1006.918 684.4715 3674.9905 1778726
-979.33368 681.29956 3657.9602 1712675
-958.30725 682.64722 3665.1958 1975078
-918.53638 670.38062 3599.3354 2501422
-904.7522 676.94 3634.5535 2698801
-883.33081 677.97632 3640.1174 2501422
-862.27283 679.35388 3647.5137 1909285
-838.57574 678.67059 3643.845 1711906
-813.97644 677.19843 3635.9409 1777699
-784.62421 671.57343 3605.7397 2106665
-771.51898 679.93323 3650.6243 2501166
-748.98511 680.24054 3652.2742 2435629
-722.98315 677.3183 3636.5845 1975079
-696.7428 673.97516 3618.6348 1843492
-672.12402 672.02856 3608.1833 1975079
-653.95917 676.62408 3632.8569 2435630
-631.19824 676.62408 3632.8569 2764595
-608.17542 676.33289 3631.2937 2699058
-586.0802 677.0907 3635.3625 2436400
-565.4339 679.65137 3649.1111 2436910
-542.57104 679.65137 3649.1111 2633519
-517.88861 677.27179 3636.3347 2699058
-502.51575 687.40802 3690.7571 2896180
-478.07562 685.52039 3680.6221 2632752
-455.99124 686.9906 3688.5159 1910312
-435.76474 691.56628 3713.0833 1975592
-412.50113 691.56628 3713.0833 2239533
-393.69482 699.48572 3755.6035 2897463
-372.72372 704.32123 3781.5654 3358014
-349.18634 704.63458 3783.248 3358527
-325.59061 704.86725 3784.4973 3424577
-303.95047 709.7027 3810.4595 3424834
-278.59253 705.94171 3790.2661 3490627
-256.76181 711.25049 3818.7695 3490627
-233.77379 714.11511 3834.1501 3556420
-210.1489 715.46759 3841.4114 3490627
-186.74419 718.01648 3855.0967 3359041
-162.63031 718.19086 3856.033 3622213
-138.98273 720.84467 3870.2815 3754056
-114.76405 721.03204 3871.2876 3950664
-88.894089 708.16528 3802.2046 3425091
-65.684395 714.82867 3837.9812 3293505
-42.45742 728.89191 3913.4878 3030076
-18.228575 740.69055 3976.8359 3160891
6.6765676 739.47565 3970.313 3292217
31.576632 740.05743 3973.4365 3489596
56.662228 742.55762 3986.8604 3424059
80.201073 729.45959 3916.5359 3358267
104.83904 730.15369 3920.2625 3555649
130.49234 736.31329 3953.3342 3292477
155.19225 735.98633 3951.5784 3226684
180.13559 736.74493 3955.6516 3555649
206.88597 743.81689 3993.6216 3490113
230.60785 739.64923 3971.2449 3687492
255.48894 739.64923 3971.2449 3753285
279.51175 737.38495 3959.0879 3687492
302.42548 732.80249 3934.4841 3555906
321.13062 719.48157 3862.9629 3687492
349.96848 729.13867 3914.813 3490113
374.60623 729.35333 3915.9651 3753028
397.17029 725.75232 3896.6311 4279629
416.83078 717.56982 3852.6987 4082250
436.13162 709.69794 3810.4338 3884871
460.00513 709.69794 3810.4338 3819335
479.59808 703.41968 3776.7251 3819078
503.98056 704.42615 3782.1292 3687749
536.13812 715.72174 3842.7759 3424320
556.43378 710.89178 3816.8438 3555906
578.34375 708.43726 3803.665 3621699
603.36182 709.83362 3811.1624 3424320
630.0752 713.0423 3828.3899 3226941
654.26117 713.26025 3829.5601 3226941
681.52948 716.70416 3848.0508 3292991
689.56476 700.37823 3760.3953 3753285
734.52649 721.39734 3873.2488 3753031
764.82349 727.13007 3904.0283 3753031
778.03424 716.76666 3848.3865 3884616
793.62567 709.15363 3807.5112 3819078
824.7807 715.48615 3841.511 3687492
840.53119 708.4751 3803.8682 3819078
874.68347 716.93378 3849.2837 3490111
906.16827 722.81073 3880.8376 3358781
930.10126 722.51428 3879.2458 3358525
955.02692 722.98444 3881.77 3292731
994.57458 734.22559 3942.125 3292475
985.72534 710.05963 3812.3757 3161146
1039.7816 731.27856 3926.302 2635058
1053.5282 723.82214 3886.2678 3029561
1093.9225 734.59717 3944.1199 3358781
1103.541 724.68597 3890.9058 3292732
1135.7775 729.73529 3918.0159 3358525
1176.0438 739.62091 3971.0928 4148041
1157.6138 712.94714 3827.8789 3884869
1221.5918 737.07928 3957.4468 3292732
1243.2792 735.2417 3947.5806 3424318
1268.012 735.2417 3947.5806 3490111
1289.1681 733.20752 3936.6587 3490111
1313.8325 733.20752 3936.6587 3029560
1353.0143 741.15991 3979.3557 3095097
1372.7194 738.34851 3964.2612 3292219
1406.9353 743.30341 3990.8645 3160633
1434.8051 744.79095 3998.8513 2963254
1466.9827 748.42535 4018.3645 3029047
1493.8495 749.27313 4022.9167 3029047
1521.2429 750.35272 4028.7129 3029047
1541.4681 747.91895 4015.646 2963254
1563.0558 746.21381 4006.491 3029047
1594.8026 749.33606 4023.2544 3095097
1621.5162 750.03296 4026.9963 2897461
1636.885 745.54132 4002.8804 3095097
1681.7134 754.40063 4050.4468 3160633
1698.6182 750.65637 4030.3435 3029047
1714.1791 746.43671 4007.6877 3094840
1740.8677 747.1145 4011.3267 3094840
1775.4407 751.10846 4032.7708 3226426
1779.7399 742.36261 3985.8132 3423805
1803.6997 741.94604 3983.5769 3489598
1840.0096 746.55176 4008.3054 3555391
1863.7074 745.98517 4005.2634 3555391
1887.2791 745.38385 4002.0347 3686977
1900.0646 740.59418 3976.3184 3621184
1937.0481 745.23804 4001.252 3555391
1966.0197 746.72028 4009.2102 3489854
1973.4332 740.08044 3973.5601 3686720
2000.3031 740.81158 3977.4856 3620927
2012.9515 736.32263 3953.384 3752513
2041.2144 737.58502 3960.1621 3555134
2056.6926 734.25293 3942.272 3554877
2070.9348 730.56396 3922.4653 4542029
2096.8708 731.03827 3925.012 5593690
2065.8008 711.85785 3822.0303 4738638
2081.0085 708.88104 3806.0479 3620157
2182.2046 734.93134 3945.9141 3620414
2240.0583 745.96442 4005.1516 3423291
2298.4741 756.93817 4064.0708 3423291
2328.8098 758.52545 4072.593 3226169
2344.5078 755.36218 4055.6094 3818562
2367.095 754.46259 4050.7793 4213578
2403.6521 757.98749 4069.7046 3489601
2506.627 782.16321 4199.5063 3292221
2532.9382 782.16321 4199.5063 3686722
2536.1733 775.11066 4161.6406 3753032
2554.4058 772.73853 4148.9043 3424841
2596.6855 777.61548 4175.0894 3293254
2611.7175 774.31677 4157.3779 3292998
2642.4949 775.70532 4164.8335 3227462
2668.0884 775.55981 4164.0522 3358791
2687.3989 773.60858 4153.5757 3556170
2733.8257 779.42566 4184.8081 3885135
2752.9216 777.41406 4174.0078 4016466
2779.073 777.41406 4174.0078 3950673
2811.0771 779.03607 4182.7163 3555913
2798.2458 768.3175 4125.1675 2569275
2773.1313 754.45337 4050.7297 2963263
2842.7178 766.37134 4114.7183 3095105
2828.2134 755.60858 4056.9321 2963518
2845.4001 753.42908 4045.2302 2963004
2857.8162 750.03601 4027.0125 3029307
2865.5591 745.48645 4002.5857 3160120
2892.0212 745.84357 4004.5029 3028535
2937.8027 751.13416 4032.9084 3160121
2962.9927 751.11444 4032.8027 3160121
2988.6812 751.22052 4033.3721 3094328
3015.8376 751.69061 4035.896 3159866
3060.9368 756.58789 4062.1902 3357502
3090.9148 757.69769 4068.1487 3357245
3130.0281 761.01038 4085.9348 3160122
3156.4592 761.21088 4087.0115 3159866
3176.0095 759.76215 4079.2329 3094329
3197.4534 758.78589 4073.9915 2962743
3237.3589 762.17157 4092.1694 3028537
3258.8352 761.19928 4086.9492 3028537
3287.1743 761.83276 4090.3503 3028537
3318.3267 763.10327 4097.1719 3094330
3333.0259 760.59973 4083.7302 3094330
3358.6118 760.59973 4083.7302 3028537
3404.8972 765.25195 4108.7085 2962744
3428.3245 764.73553 4105.9355 2962486
3448.9021 763.59595 4099.8169 2831413
3448.7795 757.92395 4069.3638 2765620
3462.0435 755.25555 4055.0366 2962742
3506.2 759.31616 4076.8386 3094328
3526.7795 758.24908 4071.1094 2897204
3550.2952 757.8241 4068.8276 2897204
3591.8909 761.23688 4087.1511 2897203
3604.3311 758.46619 4072.2749 2765874
3617.5505 755.89722 4058.4817 2831157
3616.3123 750.36414 4028.7744 3160122
3673.1145 756.86737 4063.6907 3225915
3698.3428 756.82001 4063.4363 3160122
3720.3877 756.12616 4059.7109 3225915
3749.814 756.9317 4064.0361 3225915
3779.9412 757.86694 4069.0576 3094329
3829.9382 762.74695 4095.2585 3160122
3874.6189 766.51007 4115.4634 3291708
3920.3472 770.4295 4136.5068 3225915
3930.1077 767.27527 4119.5718 3357501
3938.0823 763.81592 4100.998 3225915
3974.9202 765.96338 4112.5278 3160122
4014.7739 768.66052 4127.0093 3094329
4048.6846 770.19257 4135.2349 3028536
4081.6494 771.52643 4142.3965 3028536
4106.1729 771.25787 4140.9546 3028536
4128.4277 770.56915 4137.2568 3094329
4154.3491 770.56915 4137.2568 3094329
4197.6353 773.77014 4154.4434 2896950
4259.0864 780.25952 4189.2852 3160379
4307.9385 784.37531 4211.3833 3291708
nan nan nan 16777215
nan nan nan 16777215
nan nan nan 16777215
nan nan nan 16777215
nan nan nan 16777215
nan nan nan 16777215
nan nan nan 16777215
-3394.7815 701.22803 3643.0574 3160122
-3371.8804 701.21216 3642.9749 3094329
-3362.1313 703.94983 3657.1978 3160635
-3347.186 705.62964 3665.9248 3226428
-3323.4211 705.46051 3665.0464 3226428
-3297.8372 704.90021 3662.1353 3226428
-3258.9739 701.47375 3644.334 3226428
-3226.8457 699.45892 3633.8665 3160635
-3196.1206 697.72162 3624.8408 3160635
-3174.4712 697.95508 3626.0535 3292221
-3168.8127 701.73297 3645.6807 3292221
-3148.0408 702.19458 3648.0789 3226428
-3131.9243 703.70892 3655.9463 3292221
-3104.9851 702.79596 3651.2031 3489599
-3073.2075 700.76617 3640.658 3423808
-3044.7698 699.47327 3633.9409 3423807
-3035.749 702.65509 3650.4714 3358014
-3027.8245 706.14099 3668.5815 3226428
-2999.2554 704.82867 3661.7637 3226428
-2975.7104 704.68591 3661.022 3555393
-2947.6116 703.4541 3654.6226 3489601
-2900.468 697.62238 3624.3252 3292221
-2882.4749 698.7652 3630.2625 3226428
-2848.1997 695.94775 3615.6252 3161405
-2788.2239 686.755 3567.8665 3226941
-2747.3452 682.15533 3543.9702 3753285
-2768.1287 692.91589 3599.874 3687492
-2763.2705 697.38202 3623.0767 3621699
-2745.366 698.60229 3629.416 3490113
-2701.5171 693.18573 3601.2756 3490113
-2690.3616 696.13745 3616.6106 3226941
-2655.9707 693.07611 3600.7061 3029562
-2656.1084 699.04968 3631.7402 3095355
-2638.4668 700.4068 3638.791 3358784
-2621.3296 701.92267 3646.6663 3424834
-2606.3486 704.04761 3657.7061 3424577
-2557.7847 697.05817 3621.3938 3425603
-2522.4849 693.59064 3603.3794 3885898
-2533.8938 703.01978 3652.366 3886155
-2511.0107 703.01978 3652.366 3886411
-2503.2551 707.29407 3674.572 3623753
-2473.3357 705.32721 3664.3538 3557448
-2442.3259 703.0097 3652.3135 3425861
-2430.938 706.34967 3669.6658 3557446
-2394.7173 702.46906 3649.5049 3886411
-2374.2769 703.18719 3653.2358 3951948
-2354.0801 703.99219 3657.418 3754056
-2342.4976 707.41443 3675.1975 3753799
-2312.4131 705.26184 3664.0139 3621957
-2289.4568 705.26184 3664.0139 3095869
-2229.0195 693.59888 3603.4221 3358267
-2204.2419 692.90692 3599.8271 3424061
-2203.6025 699.86713 3635.9871 3490111
-2180.8218 699.86713 3635.9871 3424061
-2152.5938 698.1004 3626.8086 3621440
-2125.3582 696.62134 3619.1245 3819076
-2126.6118 704.54895 3660.3105 3687490
-2107.2769 705.75391 3666.5706 3819076
-2089.4082 707.48206 3675.5488 3621954
-2069.6533 708.60284 3681.3716 3621697
-2041.1742 706.72827 3671.6326 3555904
-2019.5399 707.20789 3674.1243 3555904
-1998.4407 707.88806 3677.658 3490111
-1977.4243 708.61377 3681.4285 3358525
-1947.963 706.29474 3669.3804 3687490
-1938.6914 711.32812 3695.5298 3622723
-1914.7493 711.03534 3694.0088 3622467
-1893.792 711.8573 3698.2793 3556421
-1875.0684 713.54974 3707.0718 3491138
-1863.0791 717.87939 3729.5654 3491137
-1831.3248 714.60663 3712.5625 3490881
-1799.3239 711.15198 3694.615 3227966
-1776.176 711.15198 3694.615 3227966
-1770.0057 718.03937 3730.3965 3556931
-1746.6338 718.03937 3730.3965 3556674
-1729.5145 720.64478 3743.9324 3425088
-1709.3804 722.04834 3751.2244 3622467
-1676.9467 718.22314 3731.3516 3688260
-1639.5665 712.14142 3699.7554 3622467
-1616.3865 712.14142 3699.7554 3885639
-1598.1479 714.35028 3711.231 3688260
-1571.9727 713.02429 3704.3423 3754053
-1545.0201 711.30078 3695.3879 3688260
-1517.958 709.47357 3685.8953 3885641
-1501.1154 712.44012 3701.3074 3951178
-1473.261 710.19165 3689.6257 3951178
-1460.2788 715.15491 3715.4111 3951178
-1425.8898 709.62531 3686.6833 4082508
-1403.4772 709.97217 3688.4854 3753798
-1386.277 713.01154 3704.2759 3688261
-1358.0741 710.39899 3690.7029 3753539
-1321.26 703.1134 3652.8525 3621697
-1290.5344 698.86816 3630.7974 3029047
-1268.9097 699.48737 3634.0144 2371117
-1257.2491 705.72235 3666.4067 2371117
-1229.4868 702.98297 3652.1748 2371117
-1201.5272 700.02466 3636.8057 2502959
-1186.5104 704.63843 3660.7751 2568496
-1163.5743 704.63843 3660.7751 2502703
-1133.1202 699.9939 3636.6458 2436909
-1108.947 699.11853 3632.0979 2436653
-1073.2811 690.80933 3588.9297 2502445
-1051.9537 691.5708 3592.8857 2633778
-1036.0127 695.98419 3615.8145 2765364
-1022.7675 702.44641 3649.3872 2633778
-993.56305 697.99255 3626.2483 2436399
-960.48291 690.54376 3587.5498 2436143
-936.74805 689.61786 3582.7395 2633008
-913.34357 688.89563 3578.9875 2567215
-894.13208 691.37921 3591.8904 2567215
-871.62781 691.37921 3591.8904 2501422
-848.52887 690.89502 3589.375 2238250
-824.23901 689.38849 3581.5481 2172457
-802.07581 689.62604 3582.7822 2238250
-781.7934 691.54102 3592.7307 2369836
-760.12769 692.30957 3596.7236 2435629
-736.25275 691.05145 3590.1877 2369836
-712.69806 690.02417 3584.8506 2238251
-685.49536 685.28314 3560.2197 2106918
-670.53674 692.87518 3599.6624 2106918
-644.41888 689.06342 3579.8591 2370090
-622.34576 689.45752 3581.9067 2830384
-603.51917 693.6123 3603.4919 2765105
-583.10431 696.19385 3616.9036 2765618
-561.95862 698.07617 3626.6829 2765618
-536.29413 694.26733 3606.8948 2896434
-512.88477 693.17126 3601.2004 2830642
-492.21832 695.85187 3615.127 2700082
-472.66953 700.44739 3639.0017 2568494
-449.09091 699.23425 3632.6992 2370350
-426.3309 699.23425 3632.6992 2305067
-406.45047 704.22333 3658.6189 2634288
-388.59204 713.52167 3706.926 2963254
-363.09906 709.09253 3683.9158 3029045
-340.92438 710.98248 3693.7341 3029560
-313.79697 702.06671 3647.4146 3424063
-291.65161 703.77222 3656.2751 3555649
-267.2818 699.94336 3636.3833 3490627
-245.58359 703.04901 3652.5181 3688006
-224.48251 708.6781 3681.7625 3556420
-201.86847 710.27313 3690.0493 3622213
-179.7722 714.33832 3711.1687 3490627
-155.88635 711.44379 3696.1309 3359041
-132.56958 710.5896 3691.6931 3556164
-108.97366 707.56183 3675.9631 3424577
-85.718124 705.71362 3666.3611 3161662
-63.819103 717.76886 3728.9912 3095869
-40.604702 720.41028 3742.7144 3359041
-17.155703 720.42163 3742.7729 3030076
6.3077292 722.00104 3750.9785 3293248
29.967146 725.83704 3770.9075 3490627
53.526054 724.92969 3766.1936 3490627
77.414993 727.67975 3780.4807 3556677
99.843918 718.63269 3733.479 3622470
121.52998 708.68817 3681.8149 3688006
147.31493 722.00562 3751.0022 3819592
172.03644 727.16364 3777.7996 3753799
197.82956 735.05573 3818.801 3622213
220.51154 730.93225 3797.3784 3621699
243.3186 727.98621 3782.0728 3819078
267.69427 729.8396 3791.7019 3621699
287.5777 720.1416 3741.3181 3555906
309.65857 716.99341 3724.9624 3621699
334.26849 719.73193 3739.1899 3556677
353.95688 712.20898 3700.1062 3754056
369.4646 697.71588 3624.811 3951178
397.01132 706.31982 3669.5107 4082764
419.70178 705.815 3666.8882 3819592
444.02258 707.96216 3678.043 3753799
464.98145 704.80145 3661.6223 3885128
486.41992 702.63074 3650.345 3950664
509.29047 702.63074 3650.345 3950664
532.90729 703.61615 3655.4644 3884871
555.80994 703.61615 3655.4644 3818823
579.77063 704.90259 3662.1477 3687494
604.69269 707.21545 3674.1636 3555651
627.20496 706.64368 3671.1931 3621444
648.80334 705.11914 3663.2727 3753287
667.82513 700.99414 3641.8425 3950409
688.32983 698.64697 3629.6482 3950408
712.48145 700.03308 3636.8494 3621444
750.71417 714.7395 3713.2532 3358271
775.59894 716.23566 3721.0259 3424320
799.40588 716.6781 3723.3247 3555906
814.60175 709.59448 3686.5234 3884871
837.69897 709.59448 3686.5234 3292733
874.77466 721.11761 3746.3889 3226939
895.67902 719.05603 3735.6785 3160377
924.49652 723.29047 3757.6772 3029047
943.05322 719.48621 3737.9133 2963511
966.47235 719.48621 3737.9133 3029047
990.64764 720.03577 3740.7683 2765875
1017.1678 722.22485 3752.1411 2700851
1028.1459 713.52887 3706.9636 2964023
1067.2919 724.33374 3763.0974 3358525
1090.4792 724.07507 3761.7537 3161146
1115.5369 725.04291 3766.7817 3029560
1139.2758 725.13129 3767.2407 3358525
1166.7358 727.53638 3779.7361 3226939
1189.6976 727.09674 3777.4519 3358525
1213.3645 727.09674 3777.4519 3753283
1217.6477 715.70349 3718.261 3490111
1254.7739 723.67987 3759.7004 3226939
1284.0771 726.93365 3776.6045 3358268
1310.2135 728.30927 3783.7515 3423805
1341.0802 732.21881 3804.0623 3489854
1365.5326 732.55072 3805.7866 3884356
1365.5875 720.00769 3740.6226 3489598
1395.6376 723.43597 3758.4333 2963254
1432.3511 730.14728 3793.3003 2897461
1461.4487 732.82068 3807.1892 2897461
1479.5199 729.9679 3792.3684 2963254
1504.0872 730.35974 3794.4041 3029047
1532.6243 732.63708 3806.2354 2765875
1551.9946 730.52979 3795.2874 2897718
1560.3915 723.39874 3758.24 2765875
1588.8773 725.65454 3769.9592 3226426
1622.0842 729.96881 3792.3733 3029047
1646.6035 730.30548 3794.1221 3029047
1680.1189 734.56561 3816.2546 3094840
1680.86 724.57806 3764.3667 3292219
1723.5573 732.70288 3806.5774 3489598
1743.5448 731.08368 3798.165 3489598
1770.5806 732.42352 3805.126 3423805
1792.063 731.46106 3800.1257 3423805
1822.5858 734.16559 3814.1763 3423805
1847.4792 734.56171 3816.2344 3423805
1882.8271 739.05145 3839.5596 3621184
1870.8308 725.07861 3766.9673 3686977
1893.8011 724.83716 3765.7126 3555391
1921.3289 726.3244 3773.4397 3424062
1948.9159 727.79773 3781.094 3423805
1977.2457 729.50977 3789.988 3423805
2002.7712 730.15869 3793.3596 3423805
2020.5796 728.01196 3782.2068 2963511
2015.9878 717.93781 3729.8689 2897717
1998.437 703.53241 3655.0293 3358011
2104.8545 732.60095 3806.0479 3423805
2147.5388 739.08423 3839.73 3292219
2199.6912 748.64624 3889.407 3357755
2245.7026 755.93158 3927.2563 3028790
2296.8875 764.78149 3973.2339 3160376
2321.8145 764.79254 3973.2913 3292475
2309.1597 752.55542 3909.7166 3160633
2408.9233 776.82782 4035.8176 3292219
2444.1748 780.00824 4052.3406 3555393
2461.7673 777.54565 4039.5471 3621186
2471.7742 772.76166 4014.6929 3489857
2509.1992 776.55957 4034.4238 3292222
2510.8379 769.31683 3996.7961 3160891
2532.1204 768.17657 3990.8721 3160893
2519.6282 756.91241 3932.3521 3094843
2576.3064 766.44458 3981.8738 2963257
2601.2542 766.44458 3981.8738 3292479
2622.6079 765.39569 3976.4248 3423810
2677.7446 774.13318 4021.8181 2963517
2671.2676 765.06134 3974.6877 2634551
2609.8435 740.56543 3847.425 2634809
2648.7751 744.73401 3869.082 2634039
2669.373 743.71906 3863.8088 2634295
2717.2278 750.24805 3897.7288 2765367
2708.5618 741.19397 3850.6907 2634294
2725.615 739.27563 3840.7244 2634548
2724.9111 732.61676 3806.1299 2896947
2782.0735 741.49634 3852.2615 2897204
2823.3196 746.01752 3875.7502 2962997
2836.8914 743.21143 3861.1716 2963254
2850.3269 740.41742 3846.6562 2897204
2863.8413 737.69055 3832.4895 3160375
2887.853 737.69055 3832.4895 3357245
2977.8872 754.41663 3919.3857 3291708
2998.23 753.35797 3913.8857 3160122
3014.2307 751.23425 3902.8525 3225915
3030.8601 749.30023 3892.8047 3094329
3055.25 749.30023 3892.8047 2896950
3103.9158 755.20679 3923.491 2831157
3130.8225 755.76807 3926.4067 3028791
3160.3335 756.94427 3932.5173 3028790
3190.0911 758.16089 3938.8381 3094839
3209.4617 756.90918 3932.3352 3357753
3226.4856 755.12738 3923.0784 3226168
3251.0652 755.12738 3923.0784 3226425
3276.0881 755.22974 3923.6099 3160376
3311.6267 757.73657 3936.6335 3357754
3333.5713 757.1189 3933.4248 3357501
3356.0095 756.62152 3930.8406 3291708
3365.376 753.20581 3913.0955 3225915
3372.9873 749.44952 3893.5806 3225915
3415.634 753.47595 3914.4988 3291708
3437.6655 752.92975 3911.6609 3225916
3451.3213 750.5697 3899.3999 3291708
3439.9626 742.84119 3859.2483 3357501
3440.4612 737.76312 3832.8665 3225915
3516.5718 748.85712 3890.5024 3225915
3554.8076 751.78845 3905.7317 3291708
3571.7915 750.21582 3897.5615 3357501
3594.092 749.7738 3895.2651 3357501
3623.7571 750.86371 3900.9275 3094329
3665.5168 754.42834 3919.4468 2896950
3685.6345 753.52081 3914.7317 2896950
3695.9209 750.62866 3899.7061 2831157
3720.3538 750.62866 3899.7061 3094329
3759.2373 753.52521 3914.7546 3225915
3793.9602 755.55566 3925.3032 3160122
3818.5535 755.55566 3925.3032 3225915
3851.8547 757.26758 3934.1973 3225915
3903.0908 762.46136 3961.1802 3225915
3923.9116 761.68549 3957.1492 3225915
3887.054 749.79346 3895.3669 3160122
3978.4539 762.63562 3962.0854 3160122
3997.9297 761.61682 3956.7925 3160122
4022.72 761.61682 3956.7925 3028536
4080.7852 767.87805 3989.3213 3028793
nan nan nan 16777215
nan nan nan 16777215
nan nan nan 16777215
nan nan nan 16777215
nan nan nan 16777215
nan nan nan 16777215
nan nan nan 16777215
-3153.6201 672.50482 3384.2588 3225915
-3225.6902 692.52991 3485.0312 3160378
-3210.7434 694.01874 3492.5237 3226428
-3188.1394 693.86157 3491.7329 3358014
-3167.5774 694.14972 3493.1829 3358014
-3143.5049 693.66718 3490.7544 3292221
-3108.7676 690.80811 3476.3665 3160636
-3071.4353 687.32788 3458.853 3094838
-3033.8162 683.73358 3440.7654 3226425
-3013.1682 683.94 3441.8042 3160633
-3011.9448 688.59033 3465.2061 3292218
-2999.7112 690.77264 3476.1882 3292220
-2960.6494 686.76373 3456.0142 3358013
-2914.8115 681.11243 3427.575 3423806
-2881.291 678.27673 3413.3049 3489600
-2859.9055 678.27673 3413.3049 3555393
-2835.2686 677.49982 3409.395 3489600
-2815.8806 677.97479 3411.7854 3358014
-2826.9734 685.85205 3451.4263 3358014
-2778.4685 679.28021 3418.3547 3621186
-2758.5779 679.65631 3420.2473 3555393
-2738.1899 679.91479 3421.5481 3292221
-2726.229 682.28638 3433.4827 2963256
-2704.717 682.28638 3433.4827 2831927
-2683.7522 682.42542 3434.1824 3226428
-2668.4724 684.02411 3442.2273 3621699
-2617.1575 676.33636 3403.5403 3687749
-2594.0291 675.86633 3401.1748 3358527
-2570.0205 675.15723 3397.6064 3424320
-2589.1663 685.8678 3451.5056 4213836
-2537.0701 677.72797 3410.5432 4279372
-2534.7961 682.87201 3436.4297 4345679
-2478.1475 673.33002 3388.4114 4411729
-2461.0496 674.46228 3394.1094 4543572
-2459.877 680.01672 3422.061 4674901
-2458.1155 685.5047 3449.6782 4280657
-2417.6733 680.20715 3423.0195 4083277
-2447.4785 694.75574 3496.2327 3885129
-2446.4719 700.7417 3526.3557 3885898
-2425.3428 701.02051 3527.7588 3951691
-2393.5674 698.19891 3513.5596 4083534
-2354.728 693.24536 3488.6316 4017484
-2353.4734 699.36761 3519.4409 4017484
-2343.3428 702.94324 3537.4348 3885898
-2318.949 702.26782 3534.0356 3886155
-2290.2742 700.27026 3523.9832 3885642
-2268.7971 700.45605 3524.9182 3819592
-2258.0784 703.99957 3542.7502 3754056
-2189.0249 689.24603 3468.5059 3490627
-2175.7559 691.93713 3482.0483 3424834
-2152.7747 691.56293 3480.165 3490114
-2109.604 684.62891 3445.271 3424318
-2114.5422 693.32568 3489.0359 3292732
-2068.4465 685.29614 3448.6287 3292732
-2023.3506 677.43176 3409.0527 3555904
-2018.8811 683.14673 3437.8123 3950662
-2024.9181 692.57849 3485.2759 3884869
-2003.0819 692.57849 3485.2759 3884869
-1997.1948 698.15387 3513.333 3555904
-1988.9371 703.01556 3537.7986 3490111
-1962.2512 701.39972 3529.6672 3424318
-1940.1368 701.39972 3529.6672 3424318
-1917.822 701.32648 3529.2983 3358525
-1887.8456 698.41699 3514.6572 3292732
-1857.4714 695.29004 3498.9211 3424061
-1862.2783 705.41467 3549.8716 3753027
-1843.9514 706.91522 3557.4229 3819076
-1819.2852 705.99243 3552.7791 3687489
-1801.6786 707.82037 3561.9778 3687233
-1786.4269 710.6308 3576.1211 3621440
-1754.8594 706.93994 3557.5471 3490111
-1723.8795 703.39386 3539.7021 3424318
-1695.6829 700.90582 3527.1816 3358268
-1692.6071 708.87274 3567.2737 3555904
-1673.3444 710.18311 3573.8677 3621697
-1656.9186 712.74933 3586.782 3425088
-1640.9692 715.59381 3601.0964 3425345
-1614.0381 713.66193 3591.3745 3556931
-1578.1448 707.65674 3561.1543 3819846
-1556.699 708.0506 3563.1362 3754053
-1533.8698 707.8175 3561.9634 3688517
-1509.573 706.89038 3557.2979 3754053
-1489.9668 708.16479 3563.7112 3885639
-1467.2704 707.98694 3562.8162 3951178
-1444.9482 707.98694 3562.8162 3885386
-1425.6299 709.48175 3570.3386 3819592
-1405.1956 710.46008 3575.2617 3819592
-1381.0995 709.58875 3570.877 3819593
-1364.2729 712.48517 3585.4526 3622469
-1345.5656 714.47986 3595.4905 3688260
-1322.9155 714.41339 3595.156 3688517
-1287.0846 707.10321 3558.3687 3226938
-1279.3315 715.23267 3599.2791 2766388
-1257.1476 715.44135 3600.3291 2502959
-1234.5905 715.44135 3600.3291 2371117
-1220.3348 720.34167 3624.989 2305324
-1193.7615 718.01898 3613.3003 2371117
-1163.0282 713.05603 3588.3252 2634289
-1139.6685 712.5072 3585.5635 2831668
-1111.9042 709.12732 3568.5549 2962997
-1085.9305 706.77417 3556.7131 3226169
-1061.1525 705.11682 3548.3728 3160376
-1032.4967 700.75677 3526.4314 2897204
-1009.0527 699.82068 3521.7207 2765619
-990.68512 702.44202 3534.9124 2831156
-966.46655 700.93988 3527.353 2699570
