# .PCD v0.7 - Point Cloud Data file format
VERSION 0.7
FIELDS x y z rgb
SIZE 4 4 4 4
TYPE F F F U
COUNT 1 1 1 1
WIDTH 1268
HEIGHT 1
VIEWPOINT 0 0 0 1 0 0 0
POINTS 1268
DATA ascii
-528.63446 684.35144 3555.3792 2896434
-506.35895 684.35144 3555.3792 2896177
-491.58661 694.9588 3610.4873 2830641
-470.68509 697.50665 3623.7239 2633262
-443.92297 691.18768 3590.8955 2369580
-426.798 700.00031 3636.6792 2239530
-402.94769 698.15436 3627.0891 2699825
-381.75955 700.97601 3641.748 3094583
-363.37344 709.62848 3686.7 3029306
-336.47131 701.69574 3645.4875 3029050
-312.38052 698.89764 3630.9504 3292734
-289.6315 698.89764 3630.9504 3292734
-266.84506 698.79968 3630.4414 3358524
-244.09923 698.79968 3630.4414 3687490
-224.58246 708.99365 3683.4019 3555904
-201.67665 709.59833 3686.5432 3884869
-178.64069 709.84216 3687.8101 3556161
-156.18826 712.82166 3703.2893 3358781
-131.21703 703.33978 3654.0286 3490111
-109.2337 709.25024 3684.7349 3490111
-86.942871 715.79688 3718.7463 3424574
-63.959343 719.34613 3737.1855 3292732
-40.888344 725.44275 3768.8591 3621697
-17.406288 730.94452 3797.4421 3292732
6.3264127 724.13959 3762.0886 3358525
29.940327 725.18738 3767.5325 3555904
53.312466 722.03693 3751.1648 3555904
76.814674 722.03693 3751.1648 3621697
100.6225 724.23657 3762.5925 3753283
125.17738 729.95764 3792.3149 3884869
149.45262 732.48267 3805.4333 3950662
172.6252 729.65228 3790.7285 3753283
196.96208 731.83252 3802.0554 3687490
221.03786 732.67688 3806.4421 3687490
243.49306 728.50806 3784.7842 3753283
266.4928 726.5639 3774.6836 3555904
289.54739 725.07404 3766.9434 3490111
312.16641 722.80011 3755.1299 3687490
334.44141 720.10425 3741.1243 3687490
354.29175 712.88275 3703.6069 3818819
377.29895 712.51068 3701.6738 4083274
397.07779 706.43811 3670.125 4083018
420.49585 707.15045 3673.8259 3820102
444.1116 708.10413 3678.7805 3819589
467.16031 708.10413 3678.7805 3950664
488.62024 705.80908 3666.8572 3950664
511.59418 705.80908 3666.8572 4082250
534.67438 705.94928 3667.5854 3950664
555.89221 703.72021 3656.0051 3884871
580.76294 706.10913 3668.416 3621956
604.45923 706.94238 3672.7449 3555906
630.16846 709.98254 3688.5393 3490113
649.99451 706.4137 3669.9983 3819078
669.78345 703.04974 3652.5217 4016457
687.23615 697.53687 3623.8809 3950664
709.94086 697.53687 3623.8809 3555906
752.82007 716.74457 3723.6699 3424576
776.67078 717.22546 3726.1682 3424576
799.63489 716.88342 3724.3914 3555905
817.7984 712.37909 3700.99 3884613
840.61987 712.06873 3699.3777 3424318
878.04834 723.81622 3760.4089 3226169
900.01843 722.53979 3753.7776 3292219
928.62897 726.52356 3774.4741 3160633
950.07654 724.84454 3765.7512 3029047
977.271 727.52515 3779.6777 2897461
992.7428 721.55853 3748.6797 2700082
1008.7615 716.2561 3721.1321 3029047
1032.0757 716.2561 3721.1321 2963254
1076.9487 730.88751 3797.146 3423805
1101.0542 731.09674 3798.2332 3358012
1127.1978 732.62189 3806.1565 3226169
1139.2053 725.08649 3767.0081 3226938
1168.4357 728.59637 3785.2429 3424318
1192.1514 728.59637 3785.2429 3489855
1212.4719 726.56177 3774.6729 3819076
1220.9675 717.65479 3728.3984 3489854
1249.7766 720.79773 3744.7271 3292219
1282.6661 726.13489 3772.4548 3357756
1309.6183 727.97839 3782.0325 3423805
1335.1842 728.99957 3787.3376 3489598
1361.4856 730.37964 3794.5073 3884356
1362.9891 718.63763 3733.5049 3621184
1385.4795 718.17041 3731.0776 3029047
1420.4532 724.08228 3761.791 2963511
1454.9738 729.57391 3790.3215 2963511
1478.0699 729.2525 3788.6519 2962996
1498.2295 727.51538 3779.6267 2963251
1517.809 725.55493 3769.4419 2897202
1548.1884 728.7381 3785.9795 2896945
1548.9816 718.10913 3730.759 2831409
1576.6002 720.04749 3740.8293 3028789
1620.6393 729.3186 3788.9951 3160886
1642.3446 728.41656 3784.3086 3094840
1667.8905 729.2193 3788.4792 3094840
1674.7185 721.93073 3750.613 3358011
1702.5789 723.78479 3760.2456 3555645
1743.2297 730.95154 3797.4788 3555645
1773.6365 733.68762 3811.6934 3555645
1797.8811 733.83582 3812.4634 3489852
1827.9865 736.34106 3825.4785 3424059
1849.1759 735.23639 3819.7395 3424059
1859.5927 729.93134 3792.1785 3687231
1851.2573 717.49255 3727.5557 3752768
1874.6117 717.49255 3727.5557 3687231
1909.8883 721.99963 3750.9709 3686974
1947.1506 727.13861 3777.6694 3752254
1975.6345 728.91528 3786.8999 3555132
1992.217 726.31091 3773.3694 3357753
1998.6455 720.10913 3741.1494 3160374
1979.5455 704.9599 3662.4456 3029044
2011.4508 708.11383 3678.8308 3685694
2064.8965 718.69342 3733.7947 3621183
2091.5835 719.82703 3739.6838 3489597
2106.7766 717.0235 3725.1189 3357755
2150.3225 723.82538 3760.4565 3160632
2213.3726 736.974 3828.7671 3291962
2212.5322 728.79565 3786.2781 3357755
2215.4399 722.01215 3751.0361 3489341
2292.5952 739.31445 3840.926 3423548
2360.6741 753.36066 3913.8997 3818306
2332.0618 736.57837 3826.7114 3818820
2356.0374 736.57837 3826.7114 3818563
2388.053 739.06665 3839.6387 3686977
2367.8586 725.50824 3769.1992 3555391
2391.4739 725.50824 3769.1992 3292219
2426.1147 728.82043 3786.407 3095097
2449.8376 728.82043 3786.407 3094840
2484.2808 731.979 3802.8167 3489598
2500.6926 729.81525 3791.5754 3818563
2509.5315 725.50293 3769.1716 3358012
2552.8735 731.15289 3798.5247 2897461
2559.7041 726.33789 3773.5095 2897718
2583.3462 726.33789 3773.5095 3028790
2620.1084 729.99329 3792.5002 2699825
2649.5044 731.54913 3800.5833 3028790
2657.8733 727.32306 3778.6279 2962997
2668.5347 723.79364 3760.2915 2897204
2721.5217 731.70551 3801.3958 3028790
2750.4111 733.05743 3808.4192 3028790
2781.0945 734.86023 3817.7852 3029047
2813.6643 737.12634 3829.5583 3094583
2817.7375 731.95178 3802.675 3028790
2834.5105 730.13531 3793.238 3291962
2869.7688 733.07104 3808.49 3555134
2953.5701 748.25616 3887.3806 3357755
2969.9973 746.26404 3877.031 3291962
3000.2224 747.74298 3884.7146 3357755
2977.2495 736.04639 3823.9478 3292218
3001.2078 736.04639 3823.9478 3160375
3064.9233 745.71967 3874.2029 2962742
3106.4141 749.87598 3895.7959 2963000
3130.8225 749.87598 3895.7959 3160122
3164.1775 752.00226 3906.8425 3291961
3230.5718 761.8877 3958.2 3423547
3246.9524 759.91736 3947.9636 3555134
3259.0378 756.97925 3932.6992 3358012
3283.1968 756.86847 3932.1235 3489085
3307.8328 756.86847 3932.1235 3555135
3319.6382 753.95435 3916.9841 3620928
3343.5513 753.81287 3916.2488 3423549
3347.021 749.09784 3891.7534 3357757
3381.1023 751.25275 3902.9485 3489086
3454.2253 761.98907 3958.7266 3423551
3463.6267 758.61584 3941.2017 3554880
3476.2854 755.99878 3927.6052 3291709
3477.8943 751.03229 3901.8032 3225916
3504.7878 751.55713 3904.53 3488832
3535.6836 752.92694 3911.6465 3423294
3571.3369 755.28406 3923.8923 3554367
3599.439 756.02301 3927.7312 3488831
3631.9407 757.66956 3936.2856 3554624
3663.6338 759.12646 3943.8545 3291709
3693.5225 760.19244 3949.3926 3160123
3712.8142 759.0777 3943.6011 3028794
3748.2681 761.26013 3954.9395 3160122
3764.084 759.45172 3945.5444 3160378
3802.0037 762.0976 3959.29 3291452
3832.8652 763.30347 3965.5552 3357244
3871.543 766.04041 3979.7742 3357244
3918.9585 770.46014 4002.7358 3422524
3962.3455 774.03662 4021.3167 3422524
3992.5952 775.01788 4026.4146 3488317
4031.2383 777.6059 4039.8599 3422524
4062.6365 778.77277 4045.9219 3290938
4100.9072 781.23438 4058.7107 3290938
4130.9307 782.10419 4063.2297 3225145
4169.3115 784.53601 4075.8635 3290938
nan nan nan 16777215
nan nan nan 16777215
nan nan nan 16777215
nan nan nan 16777215
nan nan nan 16777215
nan nan nan 16777215
nan nan nan 16777215
-3103.6853 661.85626 3330.6719 3160122
-3211.7866 689.54492 3470.0098 3028791
-3193.2627 690.24023 3473.509 3291962
-3176.6243 691.35541 3479.1211 3357755
-3154.8264 691.35541 3479.1211 3423548
-3132.343 691.2041 3478.3596 3291962
-3092.4631 687.185 3458.134 3291962
-3057.2214 684.14709 3442.8464 3094583
-3029.4753 682.75531 3435.8425 3160376
-3009.5791 683.12531 3437.7046 3291962
-2993.0852 684.27856 3443.5081 3226169
-2977.2151 685.59222 3450.1189 3291962
-2936.7825 681.22748 3428.1541 3423548
-2904.219 678.63721 3415.1189 3489341
-2880.3677 678.05939 3412.2112 3620927
-2859.2075 678.11121 3412.4719 3620927
-2840.3162 678.70593 3415.4648 3752513
-2823.3132 679.76428 3420.7908 3489341
-2820.7493 684.34198 3443.8271 3423548
-2774.759 678.37335 3413.791 3686720
-2762.25 680.56104 3424.8003 3555391
-2748.5708 682.49249 3434.5198 3357755
-2706.2085 677.27594 3408.2683 2963254
-2678.5842 675.69415 3400.3086 2897461
-2657.2805 675.69415 3400.3086 3358012
-2661.4058 682.21259 3433.1113 3752770
-2635.0737 680.96631 3426.8398 3752770
-2618.6589 682.28357 3433.4685 3358012
-2601.9111 683.53503 3439.7664 3621184
-2545.2026 674.22192 3392.8997 4147528
-2523.1453 674.00824 3391.8245 4344907
-2524.3782 680.06537 3422.3059 4476238
-2492.3618 677.1922 3407.8472 4477008
-2471.0107 677.1922 3407.8472 4608593
-2450.0005 677.2865 3408.3215 4674386
-2464.3772 687.25092 3458.4658 4674386
-2452.2251 689.92828 3471.9392 4148041
-2452.9534 696.30994 3504.0535 4082248
-2436.1216 697.77704 3511.4365 4017225
-2419.5127 699.33539 3519.2786 4083018
-2386.1084 696.02307 3502.6101 4148811
-2364.1633 696.02307 3502.6101 3951432
-2356.0115 700.12195 3523.2368 4017225
-2334.5745 700.31299 3524.1985 4017225
-2317.3889 701.79529 3531.6577 3951432
-2279.8169 697.07288 3507.8931 3951432
-2266.0469 699.60699 3520.6453 3819846
-2257.8623 703.93225 3542.4116 3688261
-2182.5278 687.20032 3458.2112 3556674
-2163.7527 688.11987 3462.8386 3425089
-2155.6665 692.49182 3484.8398 3555904
-2120.8586 688.28131 3463.6511 3555905
-2124.8508 696.70575 3506.0454 3358526
-2111.6348 699.6048 3520.6343 3292730
-2024.9688 677.97351 3411.7791 3424573
-2003.5929 677.97351 3411.7791 3884869
-1999.8799 684.01477 3442.1804 4016456
-2007.4995 694.1059 3492.9624 3819076
-1995.413 697.53101 3510.1985 3555648
-1988.5614 702.88275 3537.1301 3489855
-1959.4034 700.38177 3524.5444 3490110
-1935.4418 699.70239 3521.1255 3490111
-1911.6088 699.05432 3517.8643 3490111
-1870.2729 691.91602 3481.9419 3358525
-1848.4575 691.91602 3481.9419 3292732
-1849.1931 700.45807 3524.9285 3819076
-1827.1083 700.45807 3524.9285 3753283
-1798.4279 697.89856 3512.0481 3490367
-1788.2875 702.55939 3535.5029 3490111
-1777.5062 707.08228 3558.2634 3556161
-1734.028 698.5481 3515.3167 3424318
-1712.0034 698.5481 3515.3167 3292732
-1680.0775 694.45538 3494.7209 3226939
-1690.2739 707.89569 3562.3569 3555904
-1672.3203 709.74854 3571.6809 3621697
-1649.9427 709.74854 3571.6809 3621697
-1627.8431 709.86981 3572.2913 3555904
-1602.6134 708.61041 3565.9536 3819076
-1567.2616 702.77667 3536.5962 3753540
-1544.9692 702.71539 3536.2881 3753540
-1537.985 709.71649 3571.5198 3884869
-1508.2438 706.26794 3554.1655 4082248
-1484.8157 705.71655 3551.3906 4016455
-1463.2987 706.0705 3553.1719 3950664
-1443.7046 707.37756 3559.7495 3819846
-1422.385 707.86694 3562.2124 3819590
-1404.1437 709.92822 3572.5854 3819846
-1380.682 709.37421 3569.7974 3950662
-1359.3467 709.91241 3572.5059 3687490
-1343.4091 713.33478 3589.7283 3687490
-1317.1995 711.32654 3579.6221 3687490
-1294.2954 711.06464 3578.3042 3292475
-1274.3115 712.42615 3585.1558 2831668
-1255.0726 714.2605 3594.3865 2502703
-1231.2534 713.50757 3590.5977 2305324
-1218.5242 719.27283 3619.6104 2436910
-1195.8462 719.27283 3619.6104 2568239
-1168.9061 716.65979 3606.4604 2568496
-1139.9011 712.65265 3586.2954 2831411
-1123.8129 716.72223 3606.7749 3093813
-1093.1343 711.46265 3580.3071 3159863
-1067.8926 709.59552 3570.9109 3159863
-1032.348 700.65582 3525.9236 3028277
-1013.598 702.9729 3537.584 2896178
-994.08051 704.84955 3547.0278 2830642
-971.52295 704.60706 3545.8074 2698801
-945.78528 701.99286 3532.6519 2830386
-916.19159 696.32269 3504.1177 2501678
-897.39282 698.77991 3516.4834 2501421
-880.61792 702.97644 3537.6016 2567470
-861.1601 705.19269 3548.7544 2633264
-817.96924 687.57654 3460.1042 2633263
-791.79773 683.69702 3440.5815 2830385
-769.12927 682.7099 3435.6138 2699056
-753.76941 688.34003 3463.9465 2896179
-730.04974 686.44354 3454.4028 2962228
-709.0885 687.10406 3457.7268 2764850
-685.16455 684.84485 3446.3577 2633262
-663.57202 684.84485 3446.3577 2699312
-644.85785 687.91541 3461.8096 2765105
-615.177 679.09351 3417.415 2830385
-589.97723 674.76044 3395.6099 2633262
-568.7027 674.76044 3395.6099 2830641
-564.55927 695.87634 3501.8716 3291192
-543.03381 696.40833 3504.5488 3225143
-519.79071 694.68958 3495.8994 3093813
-491.75027 686.1261 3452.8054 3160375
-470.1174 686.1261 3452.8054 3160376
-453.39368 693.63654 3490.6001 3226168
-433.99109 697.60217 3510.5566 3423294
-403.83032 683.77521 3440.9751 3226683
-382.27155 683.77521 3440.9751 3226426
-364.70593 691.34479 3479.0674 3292219
-347.68277 700.97028 3527.5059 3358013
-324.58633 698.82697 3516.7202 3226941
-296.65195 685.19696 3448.1296 3424320
-277.81287 692.0838 3482.7866 3424320
-255.99213 692.0838 3482.7866 3687489
-234.69095 693.61945 3490.5142 3424574
-213.90057 697.13525 3508.207 3490111
-189.54723 688.51434 3464.8237 3621954
-169.65137 695.94891 3502.2371 3490111
-148.6642 700.45056 3524.8906 3226939
-127.6873 706.5799 3555.7354 3226939
-105.54277 707.47314 3560.2305 3029560
-83.194267 707.11139 3558.4102 3358525
-61.393478 712.84442 3587.2605 3555904
-39.367088 721.06683 3628.6382 3555904
-16.652149 721.91681 3632.9155 3753283
6.1099381 722.00494 3633.3591 3424574
29.205511 730.29297 3675.0671 3687489
50.841782 710.86969 3577.323 3819079
73.710678 715.29333 3599.5842 3951179
97.525276 724.67139 3646.7776 4017228
121.10119 729.05249 3668.8245 3885896
143.61565 726.66492 3656.8096 3754566
167.88353 732.58563 3686.6047 3753796
188.867 724.47559 3645.7922 3753283
211.70901 724.47559 3645.7922 3884869
234.90681 725.57446 3651.3223 3884869
256.43851 721.78888 3632.2717 3753027
277.95932 718.59229 3616.1855 3819076
300.82635 719.0954 3618.7173 3556931
320.97467 713.48474 3590.4829 3951688
341.12634 708.61597 3565.9814 4083018
362.06332 705.87677 3552.197 3885639
377.45914 693.2774 3488.7932 3885896
405.12363 703.35773 3539.5205 3885639
427.16513 703.13605 3538.4048 4016968
448.93182 702.50623 3535.2354 3950663
471.05481 702.46692 3535.0374 3885128
496.9176 707.75763 3561.6624 4213836
514.21631 700.92023 3527.2539 3950662
531.64398 694.8147 3496.5291 3753541
557.67474 699.99097 3522.5779 3885128
576.58545 696.17645 3503.3818 4016457
601.42633 699.53918 3520.3042 3753285
625.71234 702.04144 3532.8965 3884871
635.07477 688.20068 3463.2454 4016457
664.9588 696.77814 3506.4099 3424320
695.82623 705.80438 3551.833 3424063
721.06427 708.7381 3566.5962 3686722
749.26361 714.31854 3594.679 3555391
762.81073 706.01215 3552.8784 3291962
785.07056 706.01215 3552.8784 3292219
816.4751 714.00916 3593.1218 3226426
842.74481 717.20709 3609.2148 3160633
862.88495 715.15771 3598.9016 2963254
885.43311 715.15771 3598.9016 2963254
913.37933 719.4093 3620.2971 2963254
934.96527 718.56671 3616.0569 2963254
953.49884 715.47363 3600.4915 3029047
977.80426 716.75433 3606.9363 3358012
1000.4028 716.75433 3606.9363 3358012
1032.3175 723.28156 3639.7834 3358012
1058.3627 725.50317 3650.9634 3489598
1079.0514 724.03656 3643.5828 3621184
1098.0923 721.54797 3631.0596 3489598
1122.7623 722.78418 3637.2805 3423805
1146.7399 723.5343 3641.0552 3423806
1175.2117 727.03546 3658.6743 3423549
1188.9056 721.43542 3630.4929 3291963
1216.2836 724.19318 3644.3711 3358011
1239.1167 724.19318 3644.3711 3226426
1263.7604 725.2323 3649.6001 3292220
1286.6263 725.2323 3649.6001 3358012
1309.1637 725.05035 3648.6846 3358012
1306.9332 711.39294 3579.9563 3423805
1329.3628 711.39294 3579.9563 3160633
1353.0153 712.03656 3583.1951 2897460
1370.2714 709.3479 3569.665 2634287
1405.3934 715.84576 3602.3643 3094581
1436.0441 719.89667 3622.7495 3160375
1474.9454 727.89331 3662.9912 3489595
1477.285 717.87793 3612.5906 3094839
1489.2051 712.75012 3586.7859 3226426
1526.6639 719.81616 3622.3445 3423805
1542.2205 716.49969 3605.6548 3160634
1575.7496 721.5083 3630.8599 3226426
1591.5295 718.36292 3615.0312 3160633
1595.2365 709.93292 3572.6089 3226682
1622.6482 712.13965 3583.7139 3292473
1647.7286 713.27704 3589.4375 3358266
1674.8361 715.24933 3599.3628 3358266
1695.965 714.65015 3596.3474 3292473
1720.8274 715.61914 3601.2236 3160887
1743.0537 715.48102 3600.5286 3095094
1762.7109 714.3053 3594.6123 3160887
1779.6829 712.0849 3583.4385 3160374
1808.2955 714.51953 3595.6899 3160374
1815.1144 708.38855 3564.8372 2897202
1832.0403 706.30328 3554.3433 3291960
1854.4652 706.36261 3554.6421 3423546
1875.3518 705.84161 3552.02 3292217
1857.2253 690.82135 3476.4331 3226167
1945.0812 715.11401 3598.6816 3291960
1943.0671 706.18756 3553.761 3685693
1973.687 709.18951 3568.8677 3884356
1933.9775 687.13635 3457.8894 3818306
1957.6575 687.84442 3461.4524 3357755
2053.0527 713.45886 3590.3525 3226169
2116.1763 727.4248 3660.6335 3160376
2134.134 725.73224 3652.116 2962997
2135.6558 718.54572 3615.9512 3226169
2158.3108 718.54572 3615.9512 3357755
2245.6699 739.86322 3723.2278 3620927
2261.6414 737.4646 3711.1572 3621184
2280.9041 736.17719 3704.6785 3555391
2296.3667 733.70166 3692.2207 3423805
2331.3035 737.43542 3711.0103 3358012
2363.6782 740.29297 3725.3904 3160633
2387.0188 740.29297 3725.3904 2765875
2383.8601 732.15424 3684.4336 2963254
2421.1108 736.4635 3706.1191 3160633
2443.5911 736.24066 3704.9978 3029047
2443.7532 729.3609 3670.3767 3292219
2471.5952 730.79364 3677.5869 3292219
2508.1475 734.75171 3697.5051 3357498
2535.7256 736.03241 3703.9497 3357755
2564.3982 737.60461 3711.8618 2831411
2579.8701 735.38586 3700.696 2436653
2579.8704 728.83563 3667.7334 2436653
2600.145 728.07831 3663.9221 2634289
2605.1951 723.10828 3638.9116 2962997
2661.6487 732.36859 3685.5125 2962997
2688.9382 733.51404 3691.2764 2897204
2712.0654 733.51404 3691.2764 2831668
2714.6299 727.99963 3663.5264 2831668
2719.5903 723.2149 3639.448 3226169
2742.3926 723.2149 3639.448 3357755
2803.53 733.24115 3689.9033 3160376
2840.9197 736.94318 3708.533 3094583
2874.6831 739.65204 3722.165 3291962
2899.5696 740.05176 3724.1763 3291962
2928.5874 741.49109 3731.4197 2897204
2971.0432 746.28296 3755.5339 2831411
2988.5625 744.78516 3747.9966 2765618
3001.9109 742.27936 3735.3865 2765618
3025.3142 742.27936 3735.3865 2699825
3034.9204 738.9201 3718.4817 2765618
3074.22 742.7865 3737.9385 2831411
3098.9209 743.09381 3739.4851 2963253
3117.8606 742.02539 3734.1084 2962999
3141.1926 742.01044 3734.0332 2962743
3146.2839 737.71875 3712.436 3028536
3174.5671 738.888 3718.3203 3160378
3197.1045 738.71259 3717.4375 3225916
3223.9351 739.5246 3721.5237 3357246
3273.9443 745.60358 3752.115 3489088
3249.573 734.77728 3697.6335 3423295
3276.6958 735.66547 3702.1033 3554880
3303.8132 736.53998 3706.5039 3554879
3331.3555 737.49634 3711.3167 3620672
3367.6018 740.35291 3725.6921 3489086
3395.7073 741.39276 3730.9248 3554367
3433.5825 744.53699 3746.7476 3423550
3462.0098 745.60358 3752.115 3555137
3483.4238 745.15564 3749.8608 3752516
3528.4189 749.72424 3772.8516 3883845
3549.3416 749.15106 3769.9673 3752259
3570.8191 748.70184 3767.7063 3620673
3580.8601 745.8764 3753.4878 3423294
3604.51 745.90393 3753.6265 3553853
3627.9294 745.88367 3753.5247 3488060
3653.7676 746.35779 3755.9106 3553853
3693.5198 749.65002 3772.4778 3422524
3741.8926 754.63879 3797.583 3422524
3778.1438 757.13538 3810.1465 3554110
3802.0154 757.13538 3810.1465 3422524
3830.0051 757.95032 3814.2478 3356731
3876.2891 762.35309 3836.4038 3422524
3912.8938 764.80969 3848.7661 3290938
3956.5151 768.59924 3867.8367 3290938
nan nan nan 16777215
nan nan nan 16777215
nan nan nan 16777215
nan nan nan 16777215
nan nan nan 16777215
nan nan nan 16777215
nan nan nan 16777215
nan nan nan 16777215
-3087.1704 683.57739 3335.3748 3423548
-3057.6003 681.64392 3325.9407 3489341
-3050.7229 684.77759 3341.2307 3555134
-3027.1013 684.1701 3338.2666 3555134
-2999.8843 682.7359 3331.2688 3423548
-2973.9631 681.57861 3325.6221 3291962
-2953.3813 681.63727 3325.9082 3357755
-2921.7258 679.1228 3313.6394 3489341
-2895.9917 677.95856 3307.959 3489341
-2875.0396 677.90515 3307.6982 3818306
-2849.1006 676.6665 3301.6545 3818306
-2812.5879 672.88013 3283.1797 3818306
-2770.4563 667.68378 3257.8252 3752513
-2752.261 668.22186 3260.4504 3752513
-2742.479 670.82581 3273.156 3686720
-2724.0264 671.33221 3275.627 3555134
-2721.291 675.74921 3297.1785 3489341
-2711.7119 678.5213 3310.7046 3489341
-2685.1743 677.06006 3303.5747 3818563
-2643.7791 671.80078 3277.9131 3884099
-2610.6252 668.5697 3262.1477 3818306
-2581.5159 666.33154 3251.2273 3555134
-2569.135 668.4101 3261.3689 3489598
-2567.5076 673.34204 3285.4336 3621184
-2560.3445 676.89026 3302.7461 3686720
-2561.7483 682.77966 3331.4822 3686977
-2527.7427 679.25061 3314.2629 3884356
-2491.3855 675.02594 3293.6497 4213321
-2514.4287 686.95935 3351.8762 4411213
-2480.1023 683.28796 3333.9624 4477005
-2459.2139 683.28796 3333.9624 4542801
-2455.7029 688.15753 3357.7227 4608594
-2427.8523 686.23175 3348.3259 4477008
-2364.8438 674.24835 3289.8555 4148298
-2389.3499 687.22522 3353.1736 3688261
-2377.2683 689.81567 3365.813 4016712
-2375.5859 695.49695 3393.5337 4214090
-2344.5674 692.61456 3379.4697 4083274
-2329.3506 694.39026 3388.1338 4083018
-2305.199 693.51062 3383.842 3951432
-2278.5317 691.85077 3375.7432 4017225
-2254.3979 690.9364 3371.2815 3951432
-2233.5493 691.021 3371.6943 3885639
-2209.5774 690.13171 3367.355 3885639
-2188.3523 690.09149 3367.1589 4017225
-2170.793 691.21765 3372.6538 3622467
-2128.095 684.28284 3338.8167 3293502
-2101.6848 682.49951 3330.1155 3293502
-2107.7385 691.32843 3373.1943 3490624
-2086.6042 691.32843 3373.1943 3753283
-2074.4976 694.34998 3387.9373 3621697
-2061.1133 697.00189 3400.8767 3621697
-2033.603 694.88245 3390.5354 3621697
-2002.3628 691.4303 3373.6912 3753283
-1974.86 689.20874 3362.8518 3884869
-1957.2952 690.44501 3368.8838 3753283
-1936.1881 690.44501 3368.8838 3753283
-1919.484 692.03241 3376.6292 3621439
-1910.6741 696.53302 3398.5889 3621440
-1888.4667 696.19592 3396.9443 3752513
-1862.5582 694.47131 3388.5293 3686977
-1841.0903 694.38165 3388.0918 3489855
-1816.385 693.05463 3381.6169 3292732
-1790.0555 691.06927 3371.9299 3161402
-1757.75 686.70184 3350.6199 3358782
-1732.0299 684.83264 3341.4995 3424061
-1728.5669 691.82568 3375.6206 3358526
-1711.2026 693.35938 3383.1038 3555647
-1695.1895 695.48584 3393.4795 3489854
-1668.2917 693.14398 3382.0527 3160890
-1640.8137 690.49762 3369.1404 3095097
-1598.0143 681.25061 3324.0217 3292476
-1577.1884 681.25061 3324.0217 3424061
-1597.5171 699.26495 3411.9187 3490111
-1576.4696 699.41095 3412.6313 3490368
-1561.3865 702.24353 3426.4524 3687747
-1533.9854 699.53784 3413.2502 3753283
-1513.1224 699.7793 3414.4285 3753283
-1492.991 700.37085 3417.3149 3753283
-1471.6656 700.41138 3417.5127 3819076
-1452.9934 701.7345 3423.9685 3884869
-1435.5192 703.68445 3433.4829 3950918
-1412.4713 702.92004 3429.7532 3950664
-1391.5334 703.19836 3431.1111 3884869
-1372.0275 704.22015 3436.0969 3819333
-1355.9154 707.04443 3449.8774 3819076
-1334.1034 706.93982 3449.3669 3687490
-1312.4921 706.93982 3449.3669 3621697
-1292.6976 707.93488 3454.2222 3687490
-1272.5193 708.75 3458.1992 3621697
-1255.4277 711.34235 3470.8479 3621697
-1248.5062 719.89008 3512.5549 3358781
-1242.7898 729.4519 3559.21 2765875
-1220.4902 729.4519 3559.21 2963254
-1183.3766 720.43317 3515.2048 3358012
-1147.1128 711.59961 3472.1033 3555134
-1120.1893 708.33057 3456.1528 3423805
-1106.0889 713.20099 3479.917 3357755
-1079.3 709.92139 3463.9148 3291962
-1059.7899 711.39307 3471.0955 3226169
-1042.4482 714.41248 3485.8281 3291962
-1017.0872 711.94769 3473.8015 3094583
-967.63287 692.14124 3377.1602 2963254
-944.57098 690.74963 3370.3701 3094583
-925.78601 692.49359 3378.8794 3489598
-907.10132 694.39587 3388.1611 3621184
-876.42664 686.99103 3352.0308 3555134
-862.36005 692.56042 3379.2056 3160376
-843.37317 694.35931 3387.9829 3423805
-821.74438 694.01971 3386.3259 3818306
-799.97168 693.53741 3383.9727 3423548
-780.04877 694.67621 3389.5291 3489341
-756.71381 692.75507 3380.1553 3555134
-724.07452 681.96014 3327.4836 3818306
-714.55383 692.94458 3381.0801 3949892
-692.50494 692.07977 3376.8604 3686977
-671.34784 692.07977 3376.8604 3752513
-650.15814 692.04504 3376.6907 3752770
-626.97443 689.81409 3365.8054 3489341
-605.66412 689.56079 3364.5696 3423548
-580.01886 684.17578 3338.2944 3357755
-561.23505 686.7843 3351.0222 3291962
-542.86047 690.11584 3367.2776 3291962
-521.76349 690.11584 3367.2776 3423548
-502.47748 692.61212 3379.458 3423805
-480.39716 691.30707 3373.0898 3752770
-456.78149 687.57062 3354.8589 4213064
-441.97379 697.37158 3402.6804 4278858
-422.21988 699.96588 3415.3391 4147530
-391.401 683.51428 3335.0667 3556161
-369.50891 681.67529 3326.0938 3490367
-355.16669 694.37695 3388.0691 3621697
-334.43155 695.40027 3393.062 3687490
-311.4429 691.55878 3374.3181 3424318
-292.13046 695.9151 3395.574 3226939
-270.44504 694.85876 3390.4199 3358525
-248.97546 694.22437 3387.3245 3490367
-228.0313 695.07324 3391.4663 3687490
-205.76582 691.65509 3374.7883 3621697
-185.15581 693.65594 3384.5508 3424574
-163.87788 693.34851 3383.0508 3358525
-143.46851 697.17029 3401.6985 3292732
-122.29102 697.94208 3405.4641 3424318
-101.2215 699.78632 3414.4629 3555904
-79.834267 699.83392 3414.6953 3621953
-58.594746 701.68536 3423.7288 3621697
-36.986931 698.71765 3409.2485 3621697
-15.833913 707.97235 3454.4048 3490111
5.8521829 713.23468 3480.0813 3292732
27.848627 718.20312 3504.324 3358781
49.970566 720.60071 3516.0225 3753283
72.047943 721.08521 3518.3865 3819076
94.52729 724.42322 3534.6736 3884869
116.67312 724.42322 3534.6736 3884869
138.84381 724.55304 3535.3069 3819076
160.84933 723.90375 3532.1387 3950662
182.19992 720.82043 3517.0942 3819076
204.368 721.28766 3519.3743 3950662
227.25298 723.94775 3532.3535 3951432
246.45424 715.44208 3490.8518 4017482
265.33078 707.45709 3451.8909 3622980
285.12134 702.9292 3429.7979 3688260
311.04309 713.09222 3479.3862 3622724
324.46762 695.14954 3391.8386 3885639
346.07932 695.875 3395.3782 3819846
370.72644 702.26642 3426.564 3885639
392.42514 702.67871 3428.5754 4083018
409.51022 695.21564 3392.1611 4148811
430.76318 695.21564 3392.1611 3885896
454.0806 698.39087 3407.6541 4016711
474.93066 697.65649 3404.0708 4213577
499.11765 701.67639 3423.6851 3819333
518.32135 698.64789 3408.9082 3358525
537.802 696.21783 3397.051 3687234
557.33099 694.03284 3386.3899 3950149
578.54773 694.03284 3386.3899 3687234
603.56812 698.4342 3407.8655 3555135
620.56323 693.56561 3384.1101 3687234
645.82043 697.94751 3405.4907 3555391
670.39899 701.33923 3422.04 3489855
693.81415 703.34137 3431.8091 3489598
718.47247 706.44556 3446.9551 3226426
739.01758 705.44214 3442.0591 2963254
754.01678 699.35181 3412.3428 3160633
780.20386 703.68799 3433.5002 3423805
800.87982 702.95428 3429.9202 3292476
824.46399 704.74475 3438.6565 3160376
846.01654 704.75171 3438.6904 3292219
864.14349 701.97546 3425.1443 3292219
885.60303 701.97546 3425.1443 3160633
904.14325 699.71619 3414.1206 3094840
925.91638 700.00543 3415.532 3292219
956.72314 706.95691 3449.4502 3292219
980.84271 708.76898 3458.2917 3358012
1005.9064 711.17023 3470.0083 3226427
1027.2792 710.91559 3468.7659 3358012
1050.2032 711.72284 3472.7048 3292219
1071.3584 711.32294 3470.7534 3095094
1087.8612 707.91138 3454.1074 3029044
1109.5022 707.91138 3454.1074 3095094
1136.3638 711.17853 3470.0488 3292474
1160.6213 712.72394 3477.5894 3358266
1177.6265 709.84088 3463.522 3489596
1203.7899 712.4826 3476.4116 3292474
1222.4292 710.65637 3467.5007 3226681
1244.1542 710.65637 3467.5007 3358011
1274.0736 715.25665 3489.947 3423805
1289.2595 711.57001 3471.9587 3489598
1292.8716 701.72382 3423.9163 3292476
1310.4784 699.6709 3413.8997 3226683
1332.0701 699.77728 3414.4187 3423805
1353.4624 699.77728 3414.4187 3489598
1372.6978 698.67932 3409.0615 3818820
1411.5566 707.45007 3451.8567 3884356
1427.4144 704.60236 3437.9617 3621184
1444.3384 702.35767 3427.0093 3292219
1459.3398 699.25763 3411.8831 3358012
1478.1129 698.0282 3405.8843 3226426
1502.3557 699.37994 3412.48 3226170
1518.4657 696.961 3400.6772 3292474
1545.2939 699.46039 3412.8726 3226680
1563.0248 697.83002 3404.9175 3226936
1587.7769 699.336 3412.2656 3292473
1607.1484 698.46368 3408.009 3095094
1605.6505 688.66327 3360.1899 3160887
1631.4628 690.67816 3370.0215 3424058
1652.5769 690.67816 3370.0215 3161144
1677.582 692.28375 3377.8555 3160374
1707.9292 696.02649 3396.1174 3226167
1725.5958 694.57294 3389.0251 3160374
1745.2804 693.95709 3386.0205 3028788
1771.0409 695.74298 3394.7341 2831153
1804.8203 700.5993 3418.4294 2896175
1830.3514 702.17737 3426.1294 3093811
1861.4199 705.8186 3443.896 3028018
1859.3545 696.95648 3400.6553 2830641
1868.6743 692.51447 3378.9814 2568239
1910.6086 700.12323 3416.1067 3028791
1933.4489 700.64404 3418.6479 3226169
1986.266 711.89746 3473.5566 3094583
2013.9202 713.98608 3483.7476 2963254
2040.3258 715.59204 3491.5835 2831411
2061.2803 715.27228 3490.0234 3029047
2115.8938 726.51648 3544.887 3423548
2138.1035 726.51648 3544.887 3489341
2168.2554 729.18732 3557.9189 3226426
2190.5466 729.18732 3557.9189 3226426
2221.2112 731.94647 3571.3816 3226426
2251.6313 734.5708 3584.1865 3358012
2269.8269 733.19458 3577.4717 3621184
2295.0317 734.08734 3581.8274 3358012
2312.2676 732.43842 3573.782 3226426
2336.5056 733.01794 3576.6096 3160633
2361.7837 733.90955 3580.9602 3226426
2378.3425 732.10059 3572.1335 3292219
2391.2053 729.19812 3557.9717 3358012
2404.1172 726.36414 3544.1438 3292219
2432.4827 728.20837 3553.1423 3357755
2445.4102 725.43939 3539.6316 3555134
2480.762 729.31262 3558.5303 3620927
2483.6853 723.66827 3530.9897 3160376
2504.2947 723.23126 3528.8574 2897204
2510.8577 718.78076 3507.1421 2962997
2547.6121 722.9754 3527.6091 3028790
2568.9238 722.75323 3526.5249 3029047
2596.8022 724.36652 3534.3967 2831411
2618.9465 724.36652 3534.3967 2634032
2658.9336 729.26031 3558.2751 2634032
2684.4236 730.12964 3562.5168 3028790
2697.8835 727.73969 3550.8555 3028790
2720.1335 727.74042 3550.8589 3028790
2749.4868 729.62616 3560.0601 3160376
2782.0098 732.3158 3573.1838 3160376
2811.8462 734.26111 3582.6755 3028790
2834.293 734.26111 3582.6755 3028790
2866.9675 736.89001 3595.5027 3094583
2895.3074 738.3725 3602.7361 2897204
2918.6848 738.57623 3603.7302 2634032
2933.9106 736.72986 3594.7212 2502446
2977.5735 741.99811 3620.4265 2502446
2992.6162 740.10852 3611.2065 2568496
2984.0837 732.46069 3573.8906 2765618
2995.4502 729.77466 3560.7847 2765618
3020.7175 730.48993 3564.2747 2831411
3029.5891 727.25891 3548.5098 2962997
3051.8215 727.25891 3548.5098 3094583
3091.5845 731.40625 3568.7456 3226425
3119.0361 732.60236 3574.5818 3226169
3152.6829 735.22614 3587.384 3291963
3141.3894 727.40662 3549.2302 3291964
3126.5771 718.88788 3507.665 3423292
3119.5532 712.26636 3475.3567 3357756
3194.4878 724.32001 3534.1699 3225914
3228.0247 726.88574 3546.689 3290682
3271.8284 731.71246 3570.24 3422268
3308.4663 734.88202 3585.7051 3488060
3318.4629 732.13116 3572.2827 3422524
3329.9915 729.75281 3560.678 3488317
3354.7913 730.29498 3563.3237 3619903
3380.9927 731.13318 3567.4133 3554367
3398.7341 730.14294 3562.5818 3620160
3431.7612 732.42798 3573.7312 3554624
3458.6145 733.37427 3578.3484 3488831
3479.5256 733.05652 3576.7979 3357758
3524.2263 737.7226 3599.5652 3357501
3541.2476 736.57214 3593.9517 3357501
3563.7649 736.57214 3593.9517 3357758
3608.4971 741.13483 3616.2144 3619903
3650.2671 745.03595 3635.249 3554110
3685.4331 747.54919 3647.5117 3619903
3731.6938 752.26788 3670.5359 3554110
3754.6907 752.26788 3670.5359 3488317
nan nan nan 16777215
nan nan nan 16777215
nan nan nan 16777215
nan nan nan 16777215
nan nan nan 16777215
nan nan nan 16777215
nan nan nan 16777215
nan nan nan 16777215
-2958.1365 674.92383 3195.9666 3555134
-2942.4856 675.92834 3200.7234 3555134
-2932.9109 678.35193 3212.2 3555134
-2901.9233 675.82233 3200.2214 3555134
-2873.4097 673.83759 3190.823 3620927
-2852.981 673.73431 3190.3342 3686720
-2801.3923 666.2193 3154.748 3884099
-2760.0266 661.04584 3130.2502 4147271
-2769.0635 667.95654 3162.9746 4213064
-2740.3582 665.79706 3152.7488 4147271
-2705.9231 662.20404 3135.7346 3949892
-2655.1248 654.5246 3099.3701 3884099
-2643.2893 656.40771 3108.2874 3818306
-2628.5276 657.58673 3113.8704 3752513
-2609.1934 657.63086 3114.0791 3752513
-2609.6477 662.70087 3138.0872 3818306
-2589.9868 662.70087 3138.0872 3884099
-2594.8799 669.03162 3168.0654 4015685
-2584.2559 671.42834 3179.4146 3884356
-2556.2529 669.31201 3169.3931 3884356
-2514.3259 663.48816 3141.8154 3884356
-2503.4956 665.84302 3152.9663 3687491
-2517.2024 674.81335 3195.4436 4345420
-2526.637 682.77295 3233.1345 4476749
-2493.8357 679.35553 3216.9524 4345420
-2464.9417 676.95557 3205.5876 4345420
-2444.8574 676.95557 3205.5876 4345420
-2462.0291 687.35669 3254.8401 4279627
-2449.8567 689.67078 3265.7981 4279627
-2413.9331 685.28125 3245.0122 4213834
-2395.8762 685.93231 3248.0952 4148043
-2372.9272 685.18201 3244.5422 4345421
-2348.0427 683.85486 3238.2581 4279627
-2327.7539 683.85486 3238.2581 4016456
-2292.3428 679.37311 3217.0354 3885382
-2293.7478 685.8197 3247.562 3951175
-2276.1465 686.64789 3251.4839 3754053
-2255.9934 686.71448 3251.7991 3688260
-2243.0161 688.98639 3262.5571 3556674
-2209.9204 685.06348 3243.981 3622467
-2196.9131 687.35284 3254.8218 3819846
-2180.4917 688.60687 3260.76 3951432
-2160.062 688.60687 3260.76 3885639
-2128.3774 684.98468 3243.6079 4017225
-2080.9436 676.17517 3201.8921 4083018
-2081.3164 682.87933 3233.6387 3688260
-2050.7285 679.4574 3217.4346 3754053
-2015.0077 674.25 3192.7759 3754053
-1999.876 675.89655 3200.573 3556674
-2011.49 686.70728 3251.7649 3753283
-1990.3085 686.42859 3250.4451 3621697
-1975.5819 688.39325 3259.7485 3687490
-1957.6559 689.27252 3263.9121 3819333
-1935.2051 688.56049 3260.5403 3687490
-1912.6163 687.78351 3256.8613 3753283
-1876.9635 682.24133 3230.6174 3490111
-1856.7227 682.24133 3230.6174 3358525
-1847.0546 686.16901 3249.2161 3556160
-1822.8063 684.70746 3242.2952 3819076
-1814.3425 689.20898 3263.6113 3819332
-1791.222 688.18207 3258.7483 3819076
-1750.5078 680.29401 3221.3962 3819076
-1715.3828 674.41937 3193.5781 3490111
-1708.3259 679.57166 3217.9756 3424318
-1686.9974 679.10187 3215.7512 3819333
-1673.7659 681.91968 3229.0942 3687490
-1660.4163 684.75775 3242.5332 3687746
-1648.8346 688.40411 3259.8 3885125
-1628.4109 688.40411 3259.8 3490368
-1614.6323 691.24902 3273.2712 3292988
-1579.7122 684.99963 3243.6785 3424575
-1555.8066 683.42572 3236.2258 3555904
-1542.2297 686.40729 3250.3445 3556160
-1535.2583 692.44794 3278.9485 3555904
-1514.7842 692.47974 3279.0991 3621697
-1495.7991 693.20239 3282.5212 3753540
-1482.0443 696.40302 3297.677 3753283
-1461.3834 696.40302 3297.677 3687490
-1444.3717 698.16699 3306.03 3950662
-1424.2625 698.4632 3307.4329 4213834
-1412.4111 702.87769 3328.3367 3950662
-1392.7308 703.47003 3331.1416 3621953
-1376.5413 705.87042 3342.5083 3621697
-1355.4127 705.77319 3342.0479 3753283
-1338.6351 707.97406 3352.4695 3687490
-1318.978 708.69788 3355.897 3819076
-1290.3019 704.52069 3336.1167 3424318
-1257.3108 697.8111 3304.3447 3753283
-1260.9397 711.54132 3369.3616 3950919
-1244.7079 714.341 3382.6189 4082248
-1233.7131 720.29529 3410.8142 4016455
-1211.3882 719.72778 3408.127 3885126
-1181.6233 714.64032 3384.0361 3884869
-1166.3142 718.26941 3401.2212 3489855
-1139.9425 715.09399 3386.1846 3358012
-1113.844 711.97272 3371.4045 3292219
-1088.1902 709.02057 3357.425 3160633
-1064.9244 707.5387 3350.408 3095097
-1039.5936 704.59753 3336.4807 3160375
-1014.116 701.4342 3321.5012 3160374
-994.95837 702.6012 3327.0273 3555132
-968.16028 698.30725 3306.6943 3555131
-947.00604 697.98535 3305.1699 3752512
-895.87854 675.06354 3196.6284 3818563
-869.74115 670.35468 3174.3303 3555391
-865.30841 682.54572 3232.0588 3818306
-852.6286 688.65997 3261.0115 4081478
-832.19733 688.65997 3261.0115 4081735
-812.14771 688.9837 3262.5444 3753027
-787.36871 685.20837 3244.6672 3752770
-767.37579 685.50848 3246.0881 3753027
-744.67853 683.34332 3235.8354 3818563
-715.67017 675.10358 3196.8179 3818563
-701.42261 680.71436 3223.3867 3884356
-677.50012 676.99023 3205.752 3818563
-656.81836 676.37573 3202.8418 3621185
-642.31061 682.2807 3230.804 3686720
-626.21051 686.82349 3252.3152 3620927
-606.46765 687.54218 3255.7185 3423548
-587.38208 689.08191 3263.0095 3357755
-567.08636 689.26184 3263.8616 3555134
-543.56354 685.38617 3245.509 3752770
-525.87616 688.85321 3261.9265 3555391
-506.09912 689.75262 3266.1855 3950406
-488.89447 694.38141 3288.1042 3950406
-468.29352 694.38141 3288.1042 3819076
-446.8197 693.02771 3281.6941 3884869
-428.80087 697.16058 3301.2644 3884870
-407.8808 696.75641 3299.3503 3950662
-382.04123 687.45673 3255.3137 3424318
-366.80707 697.26801 3301.7732 3424318
-345.7598 696.5415 3298.333 3555904
-325.0947 696.5415 3298.333 3621697
-304.59946 696.93005 3300.1729 3358781
-281.16101 690.1507 3268.0706 3161146
-260.70575 690.20422 3268.324 3161146
-237.66272 682.83191 3233.4141 3292732
-217.40437 682.83191 3233.4141 3819076
-198.14336 686.28625 3249.7712 3884869
-177.90434 686.75647 3251.998 3950662
-158.23334 689.82458 3266.5264 4082248
-138.14333 691.70624 3275.4365 3884869
-117.42789 690.56647 3270.0393 3687490
-97.568184 695.04089 3291.2271 3687490
-77.860672 703.28809 3330.28 3819076
-56.498867 697.16071 3301.2649 3621697
-35.779972 696.4707 3297.9978 3555904
-15.188447 699.76276 3313.5867 3358781
5.6389737 708.14807 3353.2937 3424318
26.794924 712.04181 3371.7314 3687490
47.878021 711.42004 3368.7874 3753283
68.859138 710.12708 3362.6646 3819076
90.375336 713.66528 3379.4189 3950662
112.17258 717.65839 3398.3276 3950662
134.0607 720.86609 3413.5171 3753283
155.37263 720.51923 3411.8745 3884869
175.92873 717.17493 3396.0383 3621954
196.91423 716.11401 3391.0146 3621440
217.64922 714.43744 3383.0754 3425088
238.33228 712.90302 3375.8096 3359295
259.22604 712.19775 3372.47 3490881
277.18747 704.1496 3334.3594 3885639
294.55548 695.8277 3294.9529 3425088
313.07242 691.13226 3272.7185 3491138
335.94144 696.03113 3295.916 3885639
357.87659 698.53973 3307.7949 3885639
377.983 697.39954 3302.396 3951432
398.22302 696.61145 3298.6641 4083018
415.9072 691.65076 3275.1738 4148811
438.10886 694.31598 3287.7942 4478033
451.71451 683.73041 3237.6687 4149068
468.61343 678.8255 3214.4421 3885126
502.71811 698.22162 3306.2888 3555904
523.66083 698.52551 3307.7278 3556161
541.82196 695.237 3292.1558 3884613
562.29437 695.04669 3291.2544 3555390
582.51514 694.56982 3288.9963 3489598
603.1217 694.56982 3288.9963 3489854
629.8949 701.43677 3321.5134 3423805
652.02356 702.85797 3328.2432 3884613
668.48975 698.27618 3306.5471 3884356
695.15869 704.30695 3335.1045 3555391
716.05414 704.30695 3335.1045 3160633
734.22302 701.70111 3322.7651 3160632
750.93988 697.88959 3304.7163 3423803
760.49658 687.80682 3256.9714 3424315
787.68939 693.78455 3285.2778 2897972
814.5722 699.19177 3310.8826 3226936
828.10699 693.15759 3282.3091 3424061
847.6156 692.2951 3278.2249 3555391
872.09918 695.44049 3293.1191 3358012
897.08014 698.828 3309.1602 3358012
924.62146 704.01196 3333.7078 3094840
938.1936 698.56567 3307.918 3160889
965.10266 703.07062 3329.2502 3226935
986.14935 703.20465 3329.8848 3357497
1006.9061 703.13055 3329.5342 3291704
1028.3191 703.50848 3331.3237 3226167
1050.9463 704.68555 3336.8975 3226167
1075.5166 707.09418 3348.303 3160374
1095.9913 706.76959 3346.7659 3357497
1114.0394 704.92163 3338.0154 3423546
1135.6559 705.35815 3340.0823 3226167
1160.189 707.55762 3350.4973 3226167
1158.3315 693.87018 3285.6833 3160118
1178.9172 693.87018 3285.6833 3358009
1210.5737 700.27411 3316.0078 3555901
1230.9594 700.05225 3314.9573 3884866
1250.7178 699.48688 3312.2803 4081989
1247.7993 686.46454 3250.6155 3950402
1285.1991 695.685 3294.2771 3950147
1305.8387 695.685 3294.2771 4147528
1334.1581 699.71265 3313.3491 4147785
1358.4785 701.55176 3322.0581 4213577
1385.5033 704.71094 3337.0176 4279114
1377.0493 689.99884 3267.3513 4016199
1398.0012 690.23621 3268.4753 3752770
1418.2603 690.12964 3267.9709 3423805
1425.0654 683.57263 3236.9214 3292219
1445.3457 683.57263 3236.9214 3358012
1488.7456 694.35565 3287.9822 3292219
1505.8649 692.75427 3280.3992 3423804
1533.0956 695.7851 3294.751 3489597
1552.8403 695.38293 3292.8467 3489854
1559.8936 689.38245 3264.4329 3621182
1550.5453 676.38269 3202.8748 3621440
1570.6123 676.38269 3202.8748 3160887
1622.3389 689.84485 3266.6221 3160374
1641.9027 689.46582 3264.8274 3094581
1660.1801 688.56262 3260.5505 2962995
1676.6622 686.9458 3252.8943 2962995
1698.4457 687.51367 3255.5835 3160374
1723.3734 689.32587 3264.1646 3160118
1747.4767 690.76959 3271.001 2962738
1764.2925 689.33252 3264.1963 2502444
1782.7174 688.54987 3260.4902 2501420
1814.1133 692.7381 3280.3228 2501933
1784.2252 673.69275 3190.1372 2831154
1866.1339 696.81421 3299.6243 2830898
1911.745 706.02399 3343.2354 2896948
1935.3574 706.99792 3347.8472 2765618
1960.049 708.34088 3354.2065 2765618
1964.6532 702.47314 3326.4209 2962997
2013.8187 712.49432 3373.8743 3357755
2038.5342 713.74683 3379.8052 3291962
2059.7097 713.74683 3379.8052 3160633
2088.0879 716.21729 3391.5037 3226426
2105.249 714.82941 3384.9316 3094840
2126.9788 715.00494 3385.7627 3226426
2158.3828 718.39691 3401.825 3489598
2179.6963 718.39691 3401.825 3686977
2235.5728 729.6781 3455.2446 3292219
2238.198 723.52869 3426.1252 3094840
2260.3872 723.76031 3427.2222 3226426
2289.9333 726.32104 3439.3479 3226426
2303.1372 723.69891 3426.9314 3489598
2290.8433 713.18726 3377.1558 3818563
2325.3796 717.31384 3396.6963 3489854
2352.9575 719.23859 3405.8103 3555391
2374.2961 719.23859 3405.8103 3489855
2389.127 717.28485 3396.5588 3291962
2420.5898 720.31488 3410.907 2897204
2430.7349 717.00372 3395.2275 2962997
2440.467 713.62915 3379.248 3160376
2459.5784 713.03186 3376.4197 3226169
2464.6982 708.4231 3354.5957 3291962
2515.7373 716.97913 3395.1111 3028790
2548.2139 720.14575 3410.1062 2897461
2589.9866 725.86511 3437.189 2897204
2578.7888 716.76715 3394.1074 2897204
2600.0542 716.76715 3394.1074 2962997
2631.2649 719.48669 3406.9851 3160376
2652.6106 719.48669 3406.9851 3094583
2681.0261 721.38898 3415.9929 3029047
2715.2788 724.81915 3432.2361 3028790
2741.3828 726.03754 3438.0054 2962997
2755.563 724.10345 3428.8469 2831411
2774.4897 723.43695 3425.6909 2699825
2808.7976 726.7605 3441.429 2568239
2834.1028 727.72174 3445.9807 2634032
2850.8733 726.49353 3440.1648 2634032
2867.3228 725.20258 3434.0515 2502446
2875.6008 721.87952 3418.3162 2502446
2868.5732 714.79175 3384.7532 2634032
2886.5811 714.00055 3381.0066 2897204
2914.9695 715.76978 3389.3845 3028790
2950.2642 719.19702 3405.6135 3160376
2971.6011 719.19702 3405.6135 3094583
2976.4016 715.22321 3386.7964 2765618
2969.3635 708.48108 3354.8704 2699825
3005.4927 712.06091 3371.822 2765618
3029.9202 712.83777 3375.5007 2897461
3067.2927 716.6283 3393.45 2897204
3094.9478 718.11188 3400.4751 3159095
3117.644 718.4325 3401.9934 3093559
3131.96 716.83069 3394.4082 2962229
3139.2637 713.65637 3379.377 3027766
3162.2676 714.06982 3381.3347 3093558
3186.3984 714.73059 3384.4636 3093559
3206.2515 714.42938 3383.0374 3093559
3243.3831 717.95691 3399.7415 3093560
3264.6836 717.95691 3399.7415 3159352
3267.7917 713.98212 3380.9194 3225145
3288.5007 713.87927 3380.4326 3290939
3331.2173 718.52466 3402.4299 3422524
3333.2327 714.38782 3382.8408 3553854
3353.3474 714.15796 3381.7522 3488317
3405.2712 720.66272 3412.554 3619903
3440.1807 723.50787 3426.0269 3685696
3456.1467 722.35858 3420.5845 3685696
3500.0837 727.03351 3442.7217 3817282
3549.9619 732.87762 3470.3955 3883075
nan nan nan 16777215
nan nan nan 16777215
nan nan nan 16777215
nan nan nan 16777215
nan nan nan 16777215
nan nan nan 16777215
nan nan nan 16777215
nan nan nan 16777215
-2860.1746 671.83118 3090.1287 3686720
-2837.8582 671.13214 3086.9136 3752513
-2812.5986 669.72272 3080.4309 3752513
-2793.2988 669.72272 3080.4309 3752513
-2773.6907 669.64825 3080.0884 3818306
-2748.8425 668.29889 3073.8818 3884099
-2706.0066 662.52637 3047.3308 4213064
-2690.1211 663.31714 3050.968 4213064
-2668.5007 662.69501 3048.1064 4278857
-2642.2034 660.8941 3039.823 4147271
-2626.8308 661.8194 3044.0791 4015685
-2599.2661 659.66406 3034.1655 3620927
-2559.9011 654.46021 3010.23 3489598
-2537.9893 653.67413 3006.6145 3818563
-2530.3484 656.57947 3019.9775 3884099
-2516.0986 657.80072 3025.5947 3818563
-2507.6155 660.55951 3038.2842 3686977
-2507.708 665.6369 3061.6379 3950149
-2491.7832 666.50818 3065.6453 4213321
-2468.3311 665.36389 3060.3823 4344907
-2445.4016 664.34375 3055.6899 4345163
-2440.8821 668.34833 3074.1094 4279627
-2478.9285 684.16455 3146.8569 4740179
-2483.3118 690.86908 3177.6948 4871766
-2432.335 682.15607 3137.6189 4805973
-2408.197 680.88947 3131.793 4674386
-2403.8008 685.22961 3151.7559 4411213
-2382.6772 684.83392 3149.9358 4082248
-2355.8159 682.76862 3140.4363 4082248
-2337.1292 683.05774 3141.7661 4148041
-2320.9272 684.08411 3146.4871 4411216
-2274.918 676.26721 3110.5325 4871766
-2252.4856 675.3844 3106.4722 5069144
-2230.6116 674.65521 3103.1182 4082506
-2241.4443 683.8924 3145.6052 3622468
-2218.7285 682.96667 3141.3472 3622467
-2198.7024 682.85962 3140.855 3556930
-2179.0239 682.85962 3140.8547 3754053
-2154.9314 681.46375 3134.4343 3819846
-2139.481 682.80023 3140.5818 3754053
-2121.8755 683.46735 3143.6501 3819846
-2105.8276 684.6535 3149.1057 3951432
-2088.1929 685.34119 3152.2688 3951432
-2068.7146 685.43121 3152.6829 3951689
-2028.8312 678.69678 3121.7078 3951689
-2007.6091 678.13501 3119.1235 3951432
-1979.2976 675.14368 3105.365 3885895
-1936.6724 667.16217 3068.6536 3819847
-1919.729 667.95642 3072.3069 3424575
-1935.6469 680.31641 3129.1572 3226939
-1921.573 682.28033 3138.1904 3424318
-1909.1942 684.89307 3150.2078 3556161
-1897.0122 687.63159 3162.8037 3819076
-1860.16 681.39105 3134.1001 3753283
-1842.8096 682.23724 3137.9922 3621954
-1815.5037 679.37628 3124.833 3424318
-1799.2604 680.63776 3130.6353 3424318
-1780.1338 680.82434 3131.4934 3424318
-1766.3826 683.09381 3141.9321 3753283
-1752.7534 685.46222 3152.8257 3884869
-1729.8488 684.21582 3147.0928 3819333
-1708.8263 683.69366 3144.6912 3753540
-1681.736 680.70331 3130.9368 3819076
-1657.1005 678.64783 3121.4824 4082248
-1634.5671 677.41437 3115.8088 4279627
-1618.6173 678.91241 3122.6995 4213834
-1585.7413 673.2608 3096.7046 3950662
-1557.7142 669.55341 3079.6521 3621697
-1544.5919 672.23987 3092.0088 3424318
-1529.6544 674.19458 3100.9995 3753283
-1508.9332 673.61761 3098.3457 3753283
-1490.8936 674.23828 3101.2004 3621954
-1477.9604 677.21515 3114.8928 3621697
-1462.3207 679.01495 3123.1711 3621697
-1453.0935 683.88159 3145.5554 3621697
-1436.6207 685.42505 3152.6548 3753283
-1420.5874 687.22418 3160.9299 3687747
-1394.5212 684.15216 3146.7998 3753283
-1379.1256 686.30194 3156.688 4148298
-1364.7489 689.02869 3169.23 4148041
-1357.678 695.57892 3199.3582 4082248
-1355.0458 704.63373 3241.0063 4213834
-1334.7894 704.65991 3241.1265 4148044
-1302.1416 698.04413 3210.697 3950663
-1294.0529 704.59277 3240.8179 3819076
-1281.4838 708.87189 3260.5 4016455
-1264.9843 711.0802 3270.6572 4345420
-1240.316 708.69385 3259.6809 4016455
-1227.1643 712.91797 3279.1101 4148041
-1206.9995 713.1424 3280.1423 4213577
-1192.6439 716.86633 3297.271 4148041
-1172.7076 717.30811 3299.3027 4082248
-1149.4182 715.6778 3291.8042 3950662
-1133.6251 718.74084 3305.8928 3621954
-1101.277 711.22626 3271.3289 3621184
-1084.2217 713.49042 3281.7432 3555391
-1056.0804 708.40582 3258.3562 3292219
-1028.8463 703.74115 3236.9009 3226426
-1007.2357 702.81281 3232.6306 3357498
-978.91974 697.07172 3206.2241 3291962
-958.03247 696.4906 3203.5513 3620926
-929.31683 690.07159 3174.0269 3357754
-905.58545 687.15393 3160.6069 3423546
-877.08563 680.40668 3129.5725 3686719
-851.60083 675.74329 3108.1228 3292217
-828.42542 672.737 3094.2952 2962996
-812.06537 675.25372 3105.8711 3752512
-803.20319 684.2818 3147.3962 3950147
-783.48376 684.2818 3147.3962 3752768
-763.61981 684.15228 3146.8005 3818819
-743.80585 684.06183 3146.3845 3884356
-723.21289 683.23059 3142.5613 3818819
