# .PCD v0.7 - Point Cloud Data file format
VERSION 0.7
FIELDS x y z rgb
SIZE 4 4 4 4
TYPE F F F U
COUNT 1 1 1 1
WIDTH 1267
HEIGHT 1
VIEWPOINT 0 0 0 1 0 0 0
POINTS 1267
DATA ascii
-1582.2054 709.47766 3570.3176 3621697
-1560.576 709.81409 3572.0107 3753283
-1540.3268 710.79712 3576.958 3950662
-1512.8182 708.41003 3564.9453 4016455
-1488.5887 707.50983 3560.415 4016712
-1465.0758 706.92798 3557.4871 4016455
-1446.4895 708.74207 3566.6162 3884871
-1424.4108 708.87506 3567.2854 3885128
-1404.2681 709.99115 3572.9019 3884872
-1380.1637 709.10797 3568.4575 4082761
-1359.0242 709.74402 3571.6582 3753283
-1341.7759 712.46759 3585.3643 3687490
-1307.5078 706.09271 3553.2837 3819075
-1281.8783 704.24292 3543.9749 3226685
-1251.8018 699.84161 3521.8264 2831669
-1247.88 710.16724 3573.7878 2502705
-1223.7358 709.15125 3568.675 2371119
-1214.1936 716.71655 3606.7463 2502445
-1197.2574 720.12164 3623.8818 2502446
-1174.6935 720.20795 3624.3162 2568496
-1151.8931 720.14984 3624.0239 2897460
-1125.1504 717.57513 3611.0671 3159606
-1096.6266 713.7356 3591.7454 3356985
-1069.4711 710.64435 3576.1892 3291193
-1045.7698 709.7652 3571.7649 3028277
-1006.0689 697.75122 3511.3069 2830641
-1005.3882 712.86725 3587.3752 2830642
-982.89526 712.85492 3587.3135 2764594
-955.30255 709.05695 3568.2004 2764593
-922.37445 701.02179 3527.7654 2633007
-906.34448 705.75031 3551.5608 2633006
-891.68268 711.80914 3582.0505 2764337
-867.38733 710.29199 3574.416 2764593
-825.71039 694.08368 3492.8503 2698799
-799.21497 690.10162 3472.8115 2830385
-773.91205 686.95526 3456.9778 2764593
-759.88232 693.9223 3492.0383 2896178
-738.72827 694.6037 3495.4673 3027764
-715.46985 693.28754 3488.844 2895665
-689.26855 688.94696 3467.0007 2764335
-667.58209 688.98346 3467.1846 2830130
-654.6416 698.35236 3514.3318 2961716
-630.57617 696.09265 3502.9602 2698545
-618.26587 707.11438 3558.425 2633008
-580.07153 688.24951 3463.491 2764850
-569.61255 702.10498 3533.2163 3225145
-548.25525 703.10455 3538.2463 3094329
-522.50104 698.31195 3514.1284 2962999
-502.70938 701.41699 3529.7542 3094585
-480.59436 701.41699 3529.7542 3028536
-457.22208 699.49347 3520.0742 3160122
-437.3114 702.93933 3537.4148 3423294
-410.14557 694.46832 3494.7861 3358268
-380.41901 680.46155 3424.2996 3226426
-376.82263 714.31348 3594.6531 3292222
-352.45773 710.59717 3575.9517 3358014
-328.86191 708.03217 3563.0437 3292221
-306.53836 708.03217 3563.0437 3489600
-282.63632 704.09998 3543.2556 3555649
-260.43674 704.09998 3543.2556 3621953
-239.18506 706.90161 3557.3542 3490111
-216.89716 706.90161 3557.3542 3621697
-193.46211 702.7348 3536.3855 3555904
-173.55602 711.96667 3582.8435 3490111
-151.67519 714.63721 3596.2825 3292732
-128.7403 712.40674 3585.0581 3292732
-105.79178 709.14227 3568.6301 3095353
-84.438705 717.68854 3611.6375 3226939
-62.029404 720.22821 3624.418 3490111
-39.506908 723.62793 3641.5264 3490111
-16.74304 725.85712 3652.7446 3621697
6.1746063 729.64673 3671.8152 3358525
29.282202 732.21063 3684.7175 3621440
52.549633 734.7489 3697.4907 3688263
75.555717 733.19775 3689.6851 3951179
98.783508 734.02081 3693.8269 4016972
121.45743 731.19708 3679.6169 4017228
143.45778 725.86615 3652.7898 3819593
167.48082 730.82837 3677.7615 3754055
189.96902 728.70288 3667.0652 3753796
212.48766 727.14014 3659.2009 3950662
234.9355 725.66309 3651.7681 3885126
257.91315 725.93951 3653.1592 3818820
278.53171 720.07196 3623.6318 3950662
299.49728 715.9184 3602.7297 3753283
320.06903 711.47162 3580.3523 4082248
343.50653 713.5603 3590.863 4148041
362.8541 707.41846 3559.9553 4016455
382.73621 702.96985 3537.5684 4016455
404.96555 703.08331 3538.1394 4016455
427.13306 703.08331 3538.1394 4213577
449.84372 703.93317 3542.4163 3950663
471.22699 702.72363 3536.3293 3950664
493.38318 702.72363 3536.3293 4213836
511.69788 697.4873 3509.9785 4016458
534.84875 699.00305 3517.6064 3819078
557.7406 700.07367 3522.9941 3950664
579.6347 699.85803 3521.9089 3819078
602.49677 700.78418 3526.5696 3687492
624.26001 700.41193 3524.6963 3950664
634.41547 687.48627 3459.6501 4016457
666.65887 698.55963 3515.3748 3424320
694.54089 704.50067 3545.272 3424320
722.29895 709.95172 3572.7034 3555394
748.13257 713.2403 3589.2527 3555649
757.79388 701.36896 3529.5122 3226427
779.90741 701.36896 3529.5122 3226426
811.62738 709.76984 3571.7881 3292219
843.66333 717.98883 3613.1487 3160633
866.81897 718.41821 3615.3096 2963511
889.47003 718.41821 3615.3096 3029049
918.04187 723.08173 3638.7778 3029047
939.19312 721.81604 3632.4084 2831668
956.52155 717.74176 3611.9055 3095353
983.97351 721.27655 3629.6938 3358525
1001.1281 717.27393 3609.551 3358525
1026.2708 719.04498 3618.4636 3292732
1059.0482 725.97308 3653.3281 3424318
1080.3752 724.92487 3648.0532 3555904
1102.0176 724.12726 3644.0393 3489598
1125.646 724.6405 3646.6221 3226426
1149.2133 725.09485 3648.9084 3358012
1167.5303 722.28339 3634.7605 3226426
1190.3032 722.28339 3634.7605 3292219
1218.7495 725.66144 3651.7598 3226426
1243.042 726.48737 3655.916 3292219
1267.5286 727.39465 3660.4819 3358012
1288.7888 726.45123 3655.7341 3423805
1310.9766 726.05438 3653.7371 3358012
1316.4316 716.56317 3605.9744 3358012
1341.9838 718.14691 3613.9443 3094840
1356.6039 713.92517 3592.699 2831668
1370.299 709.36212 3569.7366 2634289
1396.0294 711.07617 3578.3621 2963254
1436.4756 720.11304 3623.8384 3226426
1459.5667 720.30377 3624.7983 3555391
1491.9453 725.00201 3648.4412 3160633
1484.4594 710.4787 3575.3555 3160633
1524.2587 718.68213 3616.6375 3358012
1550.5078 720.34985 3625.0303 3160633
1574.5786 720.97211 3628.1616 3226426
1591.2129 718.21997 3614.312 3292219
1603.0276 713.40021 3590.0574 3423805
1627.55 714.29102 3594.54 3292219
1651.022 714.7027 3596.6118 3358012
1678.179 716.67706 3606.5474 3358012
1705.7982 718.79358 3617.1987 3423805
1720.3972 715.44025 3600.3235 3160633
1733.365 711.50409 3580.5154 3160633
1760.464 713.3949 3590.0305 3160633
1782.9567 713.3949 3590.0305 3226169
1804.4637 713.00537 3588.0706 3226169
1821.5099 710.88458 3577.3979 3028790
1831.2246 705.98883 3552.761 3226169
1849.2134 704.36224 3544.5754 3423548
1874.0034 705.33411 3549.4661 3291962
1837.349 683.42804 3439.2278 3226169
1937.4491 712.30798 3584.5608 3356985
1940.8517 705.38245 3549.7092 3619900
1983.0402 712.55029 3585.7803 4015172
1940.511 689.4577 3469.571 3884099
1927.3318 677.18915 3407.8318 3554364
2059.3928 715.66211 3601.4399 3291192
2116.1426 727.41327 3660.5754 3291449
2124.5474 722.47229 3635.7109 3029047
2124.0596 714.64404 3596.3169 3291962
2168.8174 722.04352 3633.5532 3423548
2241.6685 738.54486 3716.5933 3554623
2260.2883 737.0235 3708.9373 3621186
2278.5383 735.41376 3700.8364 3489857
2293.8711 732.90424 3688.2078 3423807
2321.6594 734.38483 3695.6584 3358014
2371.5056 742.74457 3737.7275 3094842
2366.4363 733.90973 3693.2676 2831670
2367.5569 727.14703 3659.2358 3029049
2393.3586 728.02173 3663.6375 3226428
2432.5354 732.90961 3688.2349 3160635
2469.8423 737.1474 3709.5608 3292219
2474.5137 731.65668 3681.9297 3292476
2501.1401 732.69897 3687.1748 3291962
2524.0435 732.64148 3686.8855 3357754
2547.5815 732.76764 3687.5205 2962740
2573.9834 733.70782 3692.252 2502445
2586.1479 730.60913 3676.6582 2371116
2595.8845 726.88531 3657.9187 2699825
2618.8027 726.88531 3657.9187 3094583
2659.4036 731.75085 3682.4036 2962997
2685.1719 732.48657 3686.106 2897204
2716.6318 734.74908 3697.4917 2897204
2725.311 730.86407 3677.9412 2897204
2748.3545 730.86407 3677.9412 3160376
2765.6853 729.35754 3670.3599 3291962
2805.6604 733.79834 3692.7073 3226169
2837.0027 735.92706 3703.4197 3160376
2868.0046 737.93372 3713.5178 3423548
2878.6692 734.71741 3697.3323 3423804
2901.8342 734.71741 3697.3323 2831667
2971.3665 746.3642 3755.9426 2765617
2987.2817 744.46594 3746.3901 2765874
3001.5696 742.19495 3734.9617 2700081
3026.687 742.61615 3737.0813 2699825
3041.9504 740.63171 3727.095 2700082
3073.6274 742.64337 3737.2183 2896948
3090.7935 741.14496 3729.6777 3028790
3120.5388 742.66284 3737.3162 3094584
3141.3408 742.04547 3734.2095 3094329
3150.719 738.75867 3717.6692 3094585
3183.3423 740.93042 3728.5981 3225915
3206.7029 740.93042 3728.5981 3357501
3246.1272 744.61511 3747.1409 3291708
3278.1824 746.56873 3756.9719 3489087
3261.4055 737.45276 3711.0974 3489087
3273.5615 734.96179 3698.562 3554880
3299.0833 735.48547 3701.1975 3554880
3322.2722 735.48547 3701.1975 3554880
3371.8748 741.2923 3730.4192 3489087
3400.1277 742.35791 3735.782 3489087
3439.3533 745.78827 3753.0444 3489087
3488.9929 751.41486 3781.3594 3620673
3627.656 776.00903 3905.1248 3818052
3658.3423 777.33051 3911.7751 3883845
3542.7295 747.75543 3762.9438 3949638
3581.781 751.00031 3779.2729 3752259
3613.686 752.71381 3787.896 3554880
3624.1145 749.96075 3774.0417 3357501
3648.7556 750.16553 3775.072 3357501
3677.6799 751.24243 3780.4915 3357501
3706.3789 752.25989 3785.6118 3357501
3755.9172 757.46716 3811.8164 3423294
3774.4719 756.39954 3806.4436 3357501
3818.9282 760.50336 3827.0955 3225915
3859.366 763.76074 3843.4875 3291708
3930.1453 772.94501 3889.7058 3160122
3956.6177 773.3559 3891.7734 3225915
4023.8003 781.67023 3933.6138 3159866
nan nan nan 16777215
nan nan nan 16777215
nan nan nan 16777215
nan nan nan 16777215
nan nan nan 16777215
nan nan nan 16777215
nan nan nan 16777215
nan nan nan 16777215
-3084.7664 683.04504 3332.7773 3489341
-3025.9829 674.59528 3291.5483 3555134
-3018.9553 677.64685 3306.438 3489341
-3007.2554 679.68457 3316.3806 3555134
-2988.1238 680.05933 3318.2092 3357755
-2958.9734 678.14325 3308.8599 3357755
-2916.7966 673.19354 3284.709 3423548
-2896.217 673.19354 3284.709 3357755
-2882.1328 674.71417 3292.1284 3423548
-2848.2341 671.58466 3276.8586 3620927
-2822.0129 670.23315 3270.2642 3884099
-2801.5237 670.23315 3270.2642 3884099
-2751.7114 663.16626 3235.7827 3818563
-2743.1252 666.00372 3249.6277 3884099
-2723.4646 666.1748 3250.4624 3620927
-2721.1938 670.63409 3272.2205 3620927
-2716.3904 674.53223 3291.2407 3489597
-2719.207 680.39673 3319.8552 3489341
-2689.8572 678.24091 3309.3362 3884099
-2640.0681 670.85779 3273.312 3884099
-2545.4551 651.87988 3180.7134 3686720
-2525.5269 651.87988 3180.7134 3358012
-2580.8074 671.44684 3276.1863 3358012
-2579.3933 676.45911 3300.6426 3555391
-2555.9729 675.7345 3297.1069 3686977
-2567.8311 684.40082 3339.3926 3752772
-2524.4304 678.36053 3309.9202 3819078
-2503.6926 678.36053 3309.9202 4214093
-2517.4331 687.78015 3355.8813 4411471
-2495.3269 687.48248 3354.4287 4477264
-2474.3103 687.48248 3354.4287 4477265
-2452.6523 687.30267 3353.5515 4543058
-2415.8779 682.84717 3331.8118 4411215
-2381.0542 678.87018 3312.4067 4016714
-2371.8701 682.19769 3328.6426 3688006
-2383.4189 691.60034 3374.521 3885639
-2367.6262 693.16663 3382.1633 4148554
-2338.4785 690.81592 3370.6936 3951689
-2329.7178 694.49976 3388.6682 4083274
-2309.075 694.67676 3389.5317 4017481
-2275.4189 690.90564 3371.1313 4083018
-2259.3032 692.43976 3378.6169 3885639
-2238.4214 692.52832 3379.0491 3885639
-2214.0334 691.5235 3374.1462 3951432
-2190.74 690.84442 3370.8325 3885639
-2170.4287 691.10175 3372.0881 3622467
-2129.4421 684.71606 3340.9304 3359295
-2119.5598 688.30426 3358.4385 3293502
-2104.8899 690.3941 3368.6355 3425089
-2086.7783 691.38611 3373.4758 3753283
-2068.2908 692.27252 3377.8008 3555904
-2049.5051 693.07642 3381.7234 3424318
-2002.3217 684.19366 3338.3816 3687490
-1981.4056 684.19366 3338.3816 3819076
-1967.7859 686.73993 3350.8057 3819076
-1953.3003 689.03577 3362.0076 3687490
-1943.7305 693.13458 3382.0071 3621697
-1929.0704 695.48859 3393.4929 3555904
-1908.0328 695.57013 3393.8909 3687490
-1888.8062 696.32117 3397.5552 3687490
-1867.5486 696.33203 3397.6082 3555391
-1846.12 696.27863 3397.3477 3489342
-1817.8308 693.60626 3384.3086 3291962
-1797.6115 693.98627 3386.1628 3160633
-1770.4586 691.66669 3374.8447 3357755
-1769.3207 699.57715 3413.4421 3292732
-1740.5983 696.64105 3399.116 3424318
-1723.9252 698.5144 3408.2566 3489855
-1710.0692 701.59052 3423.2661 3424062
-1687.5023 701.12555 3420.9973 3226683
-1648.835 693.87317 3385.6108 3160889
-1619.8523 690.56042 3369.4468 3292475
-1598.7417 690.56042 3369.4468 3424318
-1604.2483 702.2113 3426.2949 3490111
-1586.5087 703.86487 3434.3633 3555904
-1571.7433 706.90161 3449.1804 3621697
-1546.9647 705.45679 3442.1306 3621954
-1521.6921 703.74255 3433.7664 3753283
-1500.5021 703.89429 3434.5068 3753540
-1479.4941 704.13721 3435.6921 3819333
-1459.9058 705.07288 3440.2573 4016455
-1439.5298 705.65045 3443.0757 4016455
-1410.957 702.16644 3426.0762 3884869
-1393.0134 703.94623 3434.76 3884869
-1371.86 704.13422 3435.6775 3884869
-1355.454 706.80383 3448.7034 3819076
-1331.7726 705.70471 3443.3403 3819333
-1310.5601 705.89923 3444.2896 3819076
-1291.9205 707.50928 3452.1455 3753283
-1270.985 707.89545 3454.0295 3753283
-1260.9777 714.48694 3486.1914 3687749
-1233.9203 711.4798 3471.5188 3489599
-1223.037 717.85803 3502.6401 2831670
-1210.0604 723.21832 3528.7944 2963254
-1184.6764 721.22449 3519.0659 3423548
-1148.1471 712.24115 3475.2336 3620927
-1126.4054 712.26129 3475.3318 3555391
-1105.9708 713.12494 3479.5459 3423548
-1082.5601 712.06567 3474.3774 3291962
-1063.8748 714.13501 3484.4744 3291962
-1049.0808 718.95795 3508.0068 3291962
-1024.9103 717.42365 3500.5205 3160633
-969.35193 693.37091 3383.1602 2963254
-950.26086 694.91058 3390.6726 3160633
-936.48871 700.49921 3417.9414 3489341
-916.37073 701.49176 3422.7842 3752513
-882.12592 691.45837 3373.8284 3686463
-869.68866 698.44604 3407.9231 3357242
-856.73328 705.35889 3441.6528 3620671
-827.18353 698.6134 3408.74 3818306
-804.50903 697.47113 3403.1663 3489341
-783.40759 697.66742 3404.1243 3555390
-762.64343 698.18347 3406.6421 3620927
-730.55627 688.06488 3357.2705 3686977
-719.88519 698.11481 3406.3069 4015685
-697.71649 697.28809 3402.2734 3620927
-674.7121 695.54791 3393.7825 3686977
-651.776 693.76709 3385.0933 3752769
-629.76672 692.88623 3380.7954 3357755
-610.13452 694.65039 3389.4031 3358011
-588.36194 694.01703 3386.3127 3357755
-571.3548 699.16791 3411.4453 3357501
-549.53748 698.604 3408.6938 3291964
-523.78345 692.7876 3380.314 3291964
-506.25293 697.81616 3404.8501 3423294
-489.69327 704.68445 3438.3621 3818821
-467.04916 703.02606 3430.2703 4016201
-445.97281 703.68146 3433.4683 4147530
-426.49054 707.0459 3449.8845 3950408
-393.14896 686.56677 3349.9607 3555392
-372.1604 686.56677 3349.9607 3489600
-359.30997 702.47729 3427.593 3621186
-333.1416 692.71808 3379.9749 3687235
-310.9707 690.51019 3369.2019 3358527
-294.12091 700.65668 3418.7097 3226941
-272.24152 699.47455 3412.9414 3424319
-250.12836 697.43903 3403.0098 3555391
-228.84447 697.55188 3403.5603 3686977
-207.52011 697.55188 3403.5603 3686977
-186.95386 700.39203 3417.4182 3424061
-165.47679 700.11328 3416.0581 3424062
-145.0939 705.06873 3440.2373 3489598
-122.66935 700.10126 3415.9995 3424062
-101.09483 698.91058 3410.1897 3490111
-80.096657 702.13403 3425.918 3555904
-58.757465 703.63397 3433.2366 3687490
-37.219669 703.11438 3430.7014 3621697
-15.906427 711.21466 3470.2251 3490111
5.8496737 712.92889 3478.5894 3424318
27.851883 718.28717 3504.7339 3424318
50.222198 724.22943 3533.728 3621697
72.422501 724.83392 3536.6775 3819076
94.554802 724.63403 3535.7021 3884869
116.7705 725.02795 3537.624 3819076
138.53049 722.91791 3527.3286 3884869
160.27679 721.32703 3519.5662 4016455
182.1239 720.51965 3515.627 3884869
204.20308 720.70563 3516.5342 4016455
226.96208 723.02106 3527.8318 3951689
248.0157 719.97485 3512.9688 4214860
266.45181 710.44617 3466.4753 3754310
287.36249 708.45447 3456.7571 3688517
308.5668 707.41516 3451.6863 3688260
328.25104 703.25537 3431.3892 3819846
349.74979 703.25537 3431.3892 3754053
370.91162 702.61719 3428.2754 3819846
392.10681 702.10858 3425.7939 4017225
409.64459 695.44373 3393.2742 4214604
430.90448 695.44373 3393.2742 3820103
454.51038 699.05188 3410.8792 3820103
475.23502 698.10358 3406.2522 4148297
496.84634 698.48328 3408.105 3950662
519.76776 700.59766 3418.4214 3424320
536.88531 695.03113 3391.2607 3687492
557.58844 694.35345 3387.9543 3950664
578.81506 694.35345 3387.9543 3556163
602.6427 697.3634 3402.6406 3423807
624.04022 697.45154 3403.0708 3621442
643.71954 695.67706 3394.4126 3358271
668.22839 699.06854 3410.9604 3489857
695.93329 705.48956 3442.2908 3555392
710.44122 698.54877 3408.4243 3358012
733.06476 699.75983 3414.3335 2963255
754.45667 699.75983 3414.3335 3094840
780.64014 704.08148 3435.4202 3292219
799.38409 701.64142 3423.5144 3292219
826.14154 706.17871 3445.6533 3029304
849.20239 707.40552 3451.6392 3358012
863.57758 701.51575 3422.9014 3358524
884.34253 700.97632 3420.2693 3161146
899.20996 695.89832 3395.4919 2963510
920.48383 695.89832 3395.4919 3226939
956.80762 707.01929 3449.7546 3226682
979.44073 707.75586 3453.3486 3226939
1007.7101 712.44543 3476.2302 3226939
1031.5358 713.86133 3483.1389 3358012
1052.8903 713.54382 3481.5898 3226426
1074.7035 713.54382 3481.5898 3226426
1100.129 715.89453 3493.0596 3226426
1115.876 711.97815 3473.9502 3160633
1143.1115 715.40155 3490.6541 3358012
1163.9421 714.76331 3487.5398 3423805
1184.7239 714.11902 3484.396 3489598
1207.1549 714.47424 3486.1296 3358012
1221.4915 710.11121 3464.8411 3358012
1244.0884 710.61871 3467.3171 3423805
1272.5144 714.38135 3485.6763 3423805
1301.382 718.26062 3504.6042 3489598
1297.8364 704.41858 3437.0649 3423805
1310.9197 699.90649 3415.0493 3292219
1342.3307 705.16748 3440.719 3621184
1361.1476 703.75067 3433.8062 3423805
1384.5245 704.69897 3438.4331 3818563
1406.0674 704.69897 3438.4331 3950149
1434.6897 708.1936 3455.4844 3621184
1445.6992 703.01947 3430.2383 3226682
1459.6459 699.40424 3412.5984 3292219
1481.6044 699.677 3413.9292 3226426
1500.9181 698.71069 3409.2146 3226426
1519.124 697.26312 3402.1514 3226426
1544.162 698.948 3410.3726 3292219
1566.5669 699.41144 3412.6335 3292219
1589.0717 699.90625 3415.0481 3226426
1596.8123 693.97156 3386.0908 3029047
1610.7064 690.83167 3370.7703 3160633
1634.5858 692.00031 3376.4727 3358012
1658.6621 693.22131 3382.4304 3226426
1686.5958 696.00354 3396.0054 3160376
1711.2266 697.37018 3402.6738 3226169
1728.1658 695.60736 3394.0725 3094583
1747.837 694.97369 3390.9807 3028790
1771.0679 695.7536 3394.7859 2633776
1800.5371 698.93665 3410.3171 2699825
1824.4215 699.90247 3415.0295 2962997
1858.8967 704.86182 3439.2278 2897460
1865.0695 699.09869 3411.1077 2896177
1867.3915 692.039 3376.6616 2634289
1905.7421 698.3399 3407.4053 3029046
1923.1227 696.90204 3400.3894 3226169
1986.0964 711.83673 3473.2603 3094840
2014.5363 714.20447 3484.8132 3029046
2038.2343 714.8584 3488.0039 2897204
2038.7394 707.4505 3451.8586 3094583
2064.3621 708.82251 3458.553 3423547
2135.6099 725.66907 3540.7524 3488831
2164.6748 727.98322 3552.0437 3292221
2189.0454 728.6875 3555.4802 3358014
2217.5439 730.73798 3565.4851 3292221
2239.1162 730.48798 3564.2651 3423807
2261.4475 730.48798 3564.2651 3621186
2253.1807 720.70081 3516.5107 3489600
2278.9231 721.87616 3522.2456 3292221
2319.1274 727.56598 3550.0081 3226428
2312.5896 718.62286 3506.3718 3292221
2346.8245 722.39868 3524.7952 3292219
2390.1038 728.86224 3556.3328 3423805
2391.2517 722.47705 3525.1775 3358012
2421.8743 725.03253 3537.6465 3291962
2433.3652 721.86621 3522.197 3423548
2457.0227 722.33368 3524.4778 3555134
2473.365 720.66125 3516.3176 3226169
2501.9683 722.55927 3525.5789 2962997
2513.8005 719.62323 3511.2527 2897204
2545.8242 722.46802 3525.1335 2962997
2573.6494 724.0827 3533.012 3028790
2602.3079 725.90228 3541.8904 2765618
2628.6714 727.05634 3547.5212 2568239
2660.1592 729.59644 3559.9153 2699825
2693.5198 732.6037 3574.5886 3028790
2707.5676 730.35187 3563.6011 3028790
2725.7222 729.2356 3558.1543 3094583
2734.3086 725.59827 3540.407 3160376
2756.4902 725.59827 3540.407 3291962
2823.21 737.22852 3597.1543 3226426
2851.0283 738.59668 3603.8298 3226169
2875.6157 739.11285 3606.3486 3028790
2898.408 739.16315 3606.594 2962997
2922.0557 739.4292 3607.8921 2634032
2951.8647 741.23834 3616.7192 2502446
2986.0005 744.09808 3630.6729 2568239
3000.5684 742.0752 3620.8027 2634289
2993.0867 734.67047 3584.6729 2765617
3001.6177 731.27722 3568.1162 2634289
3027.1641 732.04889 3571.8813 2831157
3010.47 722.66931 3526.1157 3028536
3051.0339 727.07123 3547.5938 3160123
3088.7339 730.73181 3565.4551 3291708
3127.8389 734.66998 3584.6704 3225915
3139.0676 732.05096 3571.8914 3225915
3140.5081 727.20251 3548.2344 3291708
3130.7251 719.84161 3512.3186 3291709
3113.7539 710.94226 3468.896 3357502
3149.1819 714.04736 3484.0466 3225915
3212.5442 723.3999 3529.6804 3094329
3293.1201 736.4743 3593.4741 3160122
3335.2998 740.84241 3614.7874 3225915
3320.5095 732.58258 3574.4854 3291708
3337.1587 731.32336 3568.3413 3291708
3352.4138 729.77747 3560.7986 3423294
3394.6594 734.08856 3581.8337 3489087
3418.3484 734.35669 3583.1416 3620673
3438.3882 733.84229 3580.6318 3554880
3486.5471 739.29718 3607.2478 3554880
3515.4119 740.61694 3613.6873 3423294
3553.6985 743.89197 3629.6672 3357501
3576.4392 743.89197 3629.6672 3357501
3602.9121 744.66327 3633.4304 3489087
3629.5576 745.46033 3637.3198 3423294
3691.0481 753.35956 3675.8623 3489087
3731.8999 756.97437 3693.5002 3489087
3755.0408 756.97437 3693.5002 3423294
3812.2471 763.79956 3726.802 3291964
nan nan nan 16777215
nan nan nan 16777215
nan nan nan 16777215
nan nan nan 16777215
nan nan nan 16777215
nan nan nan 16777215
nan nan nan 16777215
nan nan nan 16777215
-2949.8267 673.02789 3186.9888 3555134
-2926.8069 672.32678 3183.6687 3620927
-2911.1306 673.31433 3188.3455 3620927
-2882.8772 671.38666 3179.2173 3620927
-2861.4885 671.04193 3177.585 3686720
-2823.2039 666.70245 3157.0361 3752513
-2785.2876 662.38934 3136.6121 3949892
-2739.5613 656.14429 3107.0398 4213064
-2731.9578 659.00592 3120.5906 4147271
-2712.4065 659.00592 3120.5906 4147271
-2699.1479 660.54596 3127.8833 3949892
-2648.2095 652.81989 3091.2981 3818563
-2629.6953 653.03192 3092.302 3818306
-2613.5144 653.83081 3096.085 3818306
-2600.4253 655.4209 3103.6145 3818306
-2600.9695 660.49707 3127.6516 3818306
-2590.1523 662.74323 3138.2878 4015942
-2591.8606 668.25311 3164.3789 3949892
-2583.7361 671.29321 3178.7749 4081478
-2550.6587 667.84717 3162.4568 3818563
-2502.2942 660.31317 3126.781 3818563
-2481.7634 660.06305 3125.5964 3818820
-2488.156 667.02655 3158.5708 4213834
-2521.7302 681.44696 3226.8557 4410956
-2494.5588 679.55255 3217.8853 4411213
-2462.8538 676.38226 3202.8728 4411214
-2450.6123 678.54901 3213.1331 4345421
-2478.9873 692.09119 3277.2593 4345421
-2449.1484 689.47144 3264.854 4213836
-2419.092 686.74579 3251.9473 4213833
-2388.165 683.72467 3237.6414 4148044
-2360.4272 681.57257 3227.4507 4411215
-2357.3657 686.57019 3251.1157 4279886
-2317.7756 680.92346 3224.377 3950664
-2308.9202 684.28607 3240.2998 3754054
-2306.2454 689.5564 3265.2563 3819334
-2281.6726 688.31506 3259.3782 3688006
-2261.678 688.44489 3259.9929 3622469
-2245.1282 689.63513 3265.6292 3556420
-2214.5237 686.49042 3250.738 3556420
-2201.0273 688.64008 3260.9172 3819592
-2187.8838 690.94135 3271.8145 3885639
-2167.3848 690.94135 3271.8145 3951689
-2132.7314 686.38599 3250.2434 4083275
-2093.2666 680.17926 3220.8528 4017225
-2066.71 678.08698 3210.9451 3754053
-2046.5922 678.08698 3210.9451 3622467
-2007.6223 671.77869 3181.0737 3622467
-1987.6919 671.77869 3181.0737 3622467
-2008.2627 685.60553 3246.5479 3622467
-1993.1796 687.4187 3255.1338 3622210
-1978.3132 689.34497 3264.2551 3687490
-1955.9645 688.677 3261.092 3753283
-1931.4888 687.23816 3254.2788 3753283
-1911.0997 687.23816 3254.2788 3687490
-1872.7617 680.71405 3223.3853 3555904
-1858.9249 683.05054 3234.4492 3358525
-1849.0542 686.91187 3252.7336 3490111
-1828.4158 686.81464 3252.2732 3819076
-1809.8615 687.50677 3255.5508 3819333
-1798.0731 690.81421 3271.2124 3819076
-1763.7776 685.45099 3245.8162 3819332
-1729.6989 680.04791 3220.2307 3490368
-1707.5155 679.24933 3216.4492 3358525
-1708.8389 687.89423 3257.3855 3885126
-1688.4304 687.89423 3257.3855 3687747
-1667.4952 687.67706 3256.3572 3621954
-1646.3424 687.36359 3254.8728 4082248
-1633.4274 690.52478 3269.842 3490111
-1632.5537 698.92145 3309.6025 3292732
-1594.9745 691.61768 3275.0171 3424575
-1567.5013 688.56293 3260.552 3490368
-1554.0427 691.66498 3275.241 3555904
-1539.6018 694.40698 3288.2253 3555904
-1522.9823 696.22742 3296.8457 3687490
-1507.2192 698.49487 3307.5828 3819076
-1491.3127 700.75818 3318.3 3753540
-1471.4502 701.2002 3320.3933 3687747
-1450.9708 701.35681 3321.1348 3884869
-1432.2258 702.36847 3325.9253 4016455
-1414.5085 703.92145 3333.2793 3950662
-1393.6245 703.92145 3333.2793 3687490
-1374.6158 704.88306 3337.8328 3687490
-1353.7032 704.88306 3337.8328 3819076
-1338.2723 707.78217 3351.561 3819076
-1315.8413 707.01251 3347.9163 3819076
-1284.1322 701.15198 3320.1648 3490111
-1263.3303 701.15198 3320.1648 3819076
-1258.2966 710.0498 3362.2988 3884869
-1240.7565 712.07324 3371.8804 4016455
-1232.2345 719.43195 3406.7261 4016456
-1215.7924 722.34448 3420.5176 3885125
-1177.6068 712.21118 3372.5334 3885126
-1157.9755 713.13403 3376.9036 3556160
-1139.1375 714.58899 3383.7932 3423805
-1116.1025 713.41638 3378.2407 3292219
-1091.2225 710.99628 3366.7808 3160888
-1069.6967 710.70935 3365.4219 3291961
-1045.2531 708.43329 3354.644 3291959
-1020.2185 705.65509 3341.4885 3160374
-999.56171 705.85181 3342.4202 3423546
-973.06421 701.84436 3323.4436 3555132
-953.56378 702.81866 3328.0571 3752510
-907.62109 683.9118 3238.5276 3818304
-885.15558 682.23529 3230.5889 3620924
-878.19531 692.71075 3280.1931 3818305
-860.23999 694.80756 3290.1223 4147270
-839.92004 695.0506 3291.2729 4147271
-819.20947 694.97449 3290.9126 3818306
-791.21729 688.55762 3260.5269 3818306
-771.22449 688.94653 3262.3687 3818306
-749.22211 687.5127 3255.5786 3884099
-724.75287 683.67145 3237.3894 3884356
-705.09393 684.27728 3240.2583 3818563
-683.11212 682.59802 3232.3064 3752770
-663.61816 683.37799 3235.9998 3555391
-649.25342 689.65564 3265.7261 3620927
-630.93457 692.00482 3276.8506 3489341
-610.91956 692.58923 3279.6177 3291962
-591.50061 693.91357 3285.8889 3423548
-572.70752 696.09412 3296.2144 3489085
-553.66547 698.12378 3305.8254 3686722
-533.53882 698.89062 3309.4568 3555393
-512.80408 698.89062 3309.4568 3884614
-491.9014 698.65216 3308.3276 3950151
-470.77191 698.0564 3305.5066 3884357
-456.36148 707.82721 3351.7739 3884357
-432.35794 702.94379 3328.6497 3950151
-408.53452 697.87305 3304.6382 3950150
-388.19946 698.53802 3307.7871 3358527
-367.43414 698.46008 3307.418 3423804
-347.784 700.61932 3317.6426 3555391
-324.98154 696.29907 3297.1848 3621441
-304.32367 696.29907 3297.1848 3292989
-282.48468 693.3999 3283.4563 3161146
-261.82962 693.17969 3282.4136 3292732
-241.07436 692.63397 3279.8296 3292732
-220.52521 692.63397 3279.8296 3950662
-199.30286 690.30231 3268.7883 3819076
-178.73502 689.96307 3267.1821 3950662
-159.86693 696.94629 3300.2498 3950662
-139.18985 696.94629 3300.2498 3819076
-118.81432 698.71967 3308.6472 3687490
-98.190308 699.47266 3312.2126 3753283
-78.017029 704.70038 3336.9678 3884869
-56.939365 702.59619 3327.0037 3621697
-36.031834 701.37335 3321.2131 3555904
-15.249861 702.59229 3326.9851 3424574
5.6318893 707.25842 3349.0808 3358781
26.774374 711.49579 3369.146 3621697
47.883118 711.49579 3369.146 3687490
68.995491 711.5332 3369.323 3819076
91.218941 720.3269 3410.9639 4082248
112.39817 719.10162 3405.1619 4016455
133.66646 718.74615 3403.4785 3884869
154.94823 718.55103 3402.5547 3819333
175.09714 713.78491 3379.9858 3621697
196.21152 713.55853 3378.9136 3555904
217.22745 713.05298 3376.5195 3556417
238.3824 713.05298 3376.5195 3425088
258.98022 711.52234 3369.2717 3556674
277.41074 704.71674 3337.0452 3754053
296.83261 701.20697 3320.4253 3490881
311.87585 688.49072 3260.2102 3556674
333.08237 690.10742 3267.8655 3819846
357.71448 698.22321 3306.2964 3819846
377.88452 697.21783 3301.5354 4083018
397.85342 695.9649 3295.6025 4017225
416.5376 692.6991 3280.1379 4214604
436.46939 691.71771 3275.4907 4543569
454.00888 687.20331 3254.1138 4279884
466.69711 676.0495 3201.2971 3885126
504.45654 700.63605 3317.7219 3555906
525.65607 701.18701 3320.3308 3556162
542.15485 695.66412 3294.1785 3884358
563.95276 697.09656 3300.9614 3621186
582.28033 694.28986 3287.6707 3424063
604.19623 695.80725 3294.856 3489856
630.77051 702.41187 3326.1309 3489600
652.99683 703.90704 3333.2109 3950408
669.42407 699.25214 3311.1685 3884358
696.42932 705.5943 3341.2004 3621184
712.05371 700.37213 3316.4719 3094840
736.48352 703.86151 3332.9951 3094840
753.6723 700.42896 3316.741 3423805
761.16614 688.41235 3259.8389 3423805
788.96771 694.91046 3290.6094 3094840
812.20892 697.16321 3301.2769 3292219
829.92169 694.67657 3289.5017 3489598
849.09369 693.50232 3283.9414 3621184
871.82477 695.22168 3292.083 3423805
892.76312 695.46509 3293.2356 3292219
922.63562 702.5 3326.5481 3226426
935.75061 696.7467 3299.3044 3226426
963.5957 701.97278 3324.0518 3358012
986.3327 703.33533 3330.5037 3423805
1007.2884 703.39752 3330.7983 3226426
1030.2244 704.81201 3337.4963 3226426
1052.4496 705.69348 3341.6704 3358012
1078.7158 709.19751 3358.2629 2963254
1099.7563 709.19751 3358.2629 3358012
1118.2161 707.56445 3350.53 3423805
1141.8566 709.20935 3358.3191 3292219
1164.3767 710.11151 3362.5911 3160633
1164.9895 697.85846 3304.5691 3160633
1190.5453 700.71393 3318.0908 3423805
1220.7125 706.13904 3343.7803 3621184
1237.8014 703.94336 3333.3828 3884356
1256.8693 702.92725 3328.5713 4015942
1258.9541 692.60126 3279.6748 3884356
1300.8114 704.13599 3334.2952 3884356
1319.9891 703.22363 3329.9746 4213065
1322.6978 693.70221 3284.8879 4081735
1357.4048 700.99725 3319.4324 4147785
1385.2157 704.56464 3336.325 4410699
1379.27 691.11151 3272.6204 4016455
1399.774 691.11151 3272.6204 3752770
1419.6732 690.81726 3271.2268 3489598
1431.1469 686.48975 3250.7349 3358012
1451.5137 686.48975 3250.7349 3292219
1487.7267 693.88043 3285.7319 3292219
1507.282 693.40619 3283.4863 3423805
1527.854 693.40619 3283.4863 3489598
1549.229 693.76575 3285.189 3555391
1558.7251 688.86609 3261.9875 3621184
1560.3472 680.65845 3223.1221 3686977
1580.541 680.65845 3223.1221 3292219
1625.9913 691.39795 3273.9766 3160376
1643.6559 690.20203 3268.3137 3094583
1661.6161 689.15814 3263.3706 2962997
1679.3269 688.03748 3258.064 2962997
1699.8372 688.07703 3258.251 3225912
1722.2646 688.88232 3262.0645 3028790
1751.395 692.31848 3278.3357 2896948
1772.8165 692.66302 3279.967 2699312
1791.3436 691.88165 3276.2671 2501676
1810.7668 691.46021 3274.2715 2568239
1786.0664 674.38788 3193.429 2831154
1869.3593 698.01855 3305.3271 2765618
1916.9681 707.95294 3352.3696 2897204
1934.6884 706.75354 3346.6899 2831411
1958.2151 707.67816 3351.0684 2700082
1963.0477 701.89905 3323.7024 2831411
2020.4708 714.8479 3385.0193 3291962
2041.1992 714.67987 3384.2236 3357245
2064.4004 715.37225 3387.5022 3160636
2094.7898 718.51605 3402.3892 3160635
2110.7805 716.70746 3393.825 3160636
2127.4841 715.17474 3386.5669 3292221
2148.2581 715.02698 3385.8672 3555394
2175.5376 717.02631 3395.3345 3752772
2217.8809 723.9035 3427.9001 3423807
2224.1333 718.98199 3404.5955 3160635
2238.313 716.69226 3393.7529 3358015
2265.7803 718.66022 3403.0715 3292219
2287.1016 718.66022 3403.0715 3555391
2285.0957 711.39795 3368.6826 4015942
2319.6038 715.5321 3388.2593 3555391
2345.179 716.86084 3394.551 3423805
2368.491 717.48004 3397.4832 3423805
2387.2734 716.72833 3393.9236 3226683
2415.748 718.87402 3404.0842 2897461
2429.7141 716.70258 3393.8015 2962997
2437.9104 712.88159 3375.7083 3226169
2459.0603 712.88159 3375.7083 3291962
2492.26 716.34509 3392.1089 3357755
2513.5256 716.34875 3392.1262 3160376
2534.7783 716.34875 3392.1262 2831411
2580.2043 723.12354 3424.2068 2831411
2574.1934 715.48981 3388.0588 2963254
2595.4207 715.48981 3388.0588 3094583
2627.6641 718.50208 3402.3228 3226169
2649.2354 718.57117 3402.6499 3028790
2681.5928 721.54138 3416.7148 2897461
2719.1934 725.86414 3437.1843 2962997
2745.5811 727.14935 3443.2703 3094583
2756.6755 724.39575 3430.2312 2831411
2778.167 724.39575 3430.2312 2634032
2812.8486 727.80859 3446.3921 2568239
2830.2695 726.73749 3441.3198 2634032
2846.2529 725.3161 3434.5891 2568239
2858.4424 722.95654 3423.416 2568238
2875.8604 721.9447 3418.6245 2502192
2886.7009 719.30878 3406.1428 2634035
2876.6211 711.53687 3369.3406 2765364
2897.731 711.53687 3369.3406 3028790
2941.1523 716.97583 3395.0955 3094584
2969.4807 718.68378 3403.1833 3028790
2971.5415 714.05542 3381.2664 2765618
2982.1821 711.53955 3369.3533 2699826
3007.9202 712.63605 3374.5454 2831156
3031.7317 713.26398 3377.5188 2831412
3040.9658 710.47736 3364.3235 2831413
3081.3169 714.94916 3385.4985 2897205
3103.4136 715.15314 3386.4646 3028279
3119.6624 714.01605 3381.0801 2962743
3142.9248 714.48871 3383.3181 2962742
3158.2249 713.15692 3377.0117 2962743
3179.1011 713.09369 3376.7126 3094329
3197.0005 712.36798 3373.2761 2962743
3221.4727 713.10681 3376.7747 2897208
3270.2305 719.17676 3405.5178 2962743
3283.3369 717.37854 3397.0027 3094330
3304.6201 717.37854 3397.0027 3226172
3338.9353 720.18945 3410.313 3357501
3359.7417 720.06946 3409.7446 3357501
3379.3533 719.69635 3407.978 3423294
3413.478 722.39941 3420.7781 3489087
3461.208 727.93011 3446.9675 3554880
3513.6416 734.37537 3477.4875 3686466
3556.5291 738.7583 3498.2419 3818052
3609.467 745.16235 3528.5671 3686466
nan nan nan 16777215
nan nan nan 16777215
nan nan nan 16777215
nan nan nan 16777215
nan nan nan 16777215
nan nan nan 16777215
nan nan nan 16777215
nan nan nan 16777215
-2839.5801 666.99365 3067.8784 3620927
-2820.3586 666.99365 3067.8784 3686720
-2792.4023 664.91364 3058.3113 3752513
-2771.4768 664.49066 3056.3657 3818306
-2750.6853 664.09418 3054.542 3818306
-2724.98 662.49738 3047.1975 3884099
-2693.1123 659.36938 3032.8101 4015685
-2674.1108 659.36938 3032.8101 4279114
-2642.8477 656.32428 3018.804 4213321
-2623.9338 656.32428 3018.804 4147528
-2605.2319 656.37769 3019.0496 3950149
-2588.2202 656.86078 3021.2715 3555391
-2549.145 651.71027 2997.5815 3489341
-2518.4351 648.63794 2983.45 3818306
-2499.7429 648.63794 2983.45 3950149
-2494.0791 652.04401 2999.1165 3884099
-2494.6414 657.14185 3022.5645 3752770
-2487.0085 660.14252 3036.3662 3818820
-2491.9312 666.54773 3065.8274 4147528
-2457.5706 662.46326 3047.0408 4279370
-2438.4797 662.46326 3047.0408 4279370
-2428.2151 664.87994 3058.1562 4345677
-2431.0249 670.94354 3086.0461 4740179
-2448.0498 681.05896 3132.5728 4805973
-2428.4231 681.05896 3132.5728 4740180
-2412.0203 681.97046 3136.7651 4608594
-2395.947 682.99084 3141.4585 4411214
-2380.249 684.13599 3146.7256 4213835
-2356.2219 682.88635 3140.9778 4213835
-2337.6753 683.21735 3142.5002 4345419
-2309.4204 680.6925 3130.887 4542802
-2259.1074 671.56714 3088.9146 4871766
-2237.8379 670.99249 3086.2712 5134938
-2218.5015 670.99249 3086.2712 4148043
-2213.873 675.4801 3106.9124 3556420
-2221.4739 683.81177 3145.2341 3556676
-2200.7373 683.49164 3143.7617 3621956
-2180.4617 683.31012 3142.927 3622469
-2158.5044 682.59357 3139.6311 3688006
-2141.6628 683.49652 3143.7844 3688006
-2126.1914 684.8576 3150.0447 3754055
-2104.127 684.10059 3146.5627 3885639
-2087.5654 685.13525 3151.3218 3819846
-2059.4246 682.35309 3138.5249 4017482
-2025.3212 677.52271 3116.3074 4017225
-2007.6924 678.16302 3119.2527 4016969
-1974.3442 673.45416 3097.5938 4017225
-1903.5375 655.74762 3016.1514 3885382
-1917.2136 667.0813 3068.2812 3490111
-1928.6971 677.87384 3117.9226 3358525
-1912.3929 679.02087 3123.1982 3489855
-1906.7627 684.02075 3146.1956 3621954
-1893.6569 686.41541 3157.2097 3753283
-1854.8872 679.45953 3125.2161 3753283
-1839.954 681.18005 3133.1296 3621697
-1817.6025 680.16168 3128.4456 3490111
-1800.4324 681.08118 3132.6748 3424318
-1790.8022 684.90454 3150.2607 3358781
-1769.489 684.29517 3147.4578 3819076
-1749.433 684.16364 3146.8528 3885126
-1731.0909 684.70715 3149.3525 3884869
-1712.4822 685.15637 3151.4189 3753283
-1688.9583 683.62671 3144.3831 3753283
-1662.2017 680.73694 3131.0916 3884869
-1640.6676 679.9425 3127.4375 4148041
-1627.7577 682.74628 3140.3335 4213834
-1590.5851 675.31732 3106.1636 4016455
-1563.9205 672.22107 3091.9221 3687490
-1548.5021 673.94165 3099.8362 3424318
-1537.916 677.83588 3117.7478 3753283
-1507.9653 673.18555 3096.3582 3753540
-1492.7457 675.07587 3105.053 3621697
-1482.726 679.3988 3124.9365 3555904
-1470.3414 682.73932 3140.3015 3555904
-1459.9047 687.08716 3160.2998 3687490
-1444.0555 688.97235 3168.9707 3687747
-1425.9421 689.81458 3172.8447 3621697
-1398.8009 686.25171 3156.4568 3687490
-1389.0836 691.25732 3179.4807 3950662
-1374.7617 694.08392 3192.4817 4082505
-1357.7866 695.6347 3199.6145 4213834
-1359.0748 706.72888 3250.6428 4148041
-1337.7979 706.24805 3248.4314 4214091
-1306.9471 700.62024 3222.5459 3885126
-1293.8561 704.48566 3240.325 3753027
-1274.7272 705.13434 3243.3088 4082248
-1261.9968 709.40088 3262.9331 4411470
-1238.515 707.66479 3254.9478 4016712
-1226.6317 712.60858 3277.687 4082248
-1212.485 716.38348 3295.05 4148041
-1190.4933 715.57367 3291.3252 4082250
-1171.2235 716.40033 3295.1274 4081991
-1151.0496 716.6936 3296.4763 4016455
-1134.8396 719.51086 3309.4346 3621953
-1104.3892 713.23615 3280.5737 3621184
-1085.5594 714.37079 3285.7922 3489598
-1057.375 709.27417 3262.3501 3358012
-1032.4536 706.20862 3248.25 3292477
-1005.7635 701.78564 3227.9062 3357752
-980.93201 698.50458 3212.8147 3357752
-960.18756 698.05737 3210.7578 3423546
-940.07123 698.05737 3210.7578 3357752
-906.80591 688.08008 3164.8665 3423546
-878.24506 681.30609 3133.7092 3686718
-856.06134 679.28259 3124.4023 3226167
-837.81097 680.35864 3129.3516 3028275
-815.79016 678.35095 3120.1169 3818305
-806.12592 686.77179 3158.8491 4015684
-787.76031 688.01678 3164.5757 3818306
-766.47479 686.71008 3158.5654 3818306
-746.68536 686.71008 3158.5654 3884356
-724.43445 684.38464 3147.8694 3949892
-698.22369 678.08344 3118.8865 3949892
-684.71124 684.10645 3146.5898 3752770
-666.64929 685.8064 3154.4087 3752513
-646.44171 685.33539 3152.2424 3686720
-626.43536 685.05475 3150.9517 3555134
-608.92944 687.57935 3162.5635 3884099
-589.1615 687.63354 3162.813 3686463
-569.12891 687.37207 3161.6101 3686720
-550.05145 688.2868 3165.8174 3555390
-531.61804 690.10596 3174.1851 3686977
-513.66193 692.71033 3186.1636 3686977
-496.59103 696.76721 3204.8235 3555391
-474.23312 693.43518 3189.4978 3752771
-454.24991 693.43518 3189.4978 4015943
-434.6716 694.08167 3192.4714 3950150
-416.32996 696.86053 3205.2529 3950150
-395.70102 695.89856 3200.8281 3818564
-373.1991 691.36395 3179.9712 3752771
-353.7439 692.28046 3184.1868 3621185
-333.90878 692.51855 3185.2817 3752770
-308.33429 680.12695 3128.2856 3753027
-291.68475 687.07611 3160.2488 3621697
-271.90961 687.13879 3160.5371 3621697
-252.10785 687.13879 3160.5371 3621697
-230.69885 682.38464 3138.6702 3424318
-209.43906 677.22705 3114.9475 3226426
-191.77377 683.82672 3145.303 3621440
-171.05434 679.80029 3126.7832 3753026
-151.46407 679.80029 3126.7832 3555391
-132.60051 683.54645 3144.0139 3489854
-112.92139 683.66205 3144.5457 3226683
-93.76358 687.64984 3162.8877 3358269
-74.475845 692.56671 3185.5032 3161146
-54.517681 692.56671 3185.5032 3095353
-34.612988 693.63818 3190.4316 3292732
-14.623942 693.63818 3190.4316 3358525
5.4065018 698.99078 3215.051 3424318
25.687756 702.76514 3232.4114 3555904
45.939816 702.76514 3232.4114 3621954
66.039612 701.14856 3224.9758 3819076
86.949402 706.87439 3251.3123 3819076
108.35211 713.67334 3282.5845 3753283
128.98137 714.02124 3284.1846 3555904
149.5578 714.02124 3284.1846 3621697
169.74948 712.40649 3276.7576 3424318
186.59048 698.59528 3213.2319 3292988
206.7224 698.59528 3213.2319 3490880
229.53433 706.84845 3251.1929 3622467
249.22942 704.94019 3242.4158 3490881
267.09055 698.52325 3212.9006 3754053
285.76791 694.99091 3196.6536 3490881
301.03171 684.16315 3146.8503 3359295
320.76517 684.20032 3147.0215 3951432
343.48706 690.23859 3174.7947 3951432
361.42374 686.52618 3157.7195 3622467
376.45911 677.97406 3118.3835 3819846
397.32114 680.24152 3128.8127 4017482
421.19809 687.21484 3160.887 3490881
440.34836 686.19623 3156.2019 3490881
456.78693 681.22113 3133.3184 3688260
476.47198 681.2981 3133.6726 4082250
493.88632 678.25061 3119.6555 4082250
513.95966 678.94769 3122.8618 4016458
539.24768 686.2298 3156.3562 4279628
564.65796 693.14679 3188.1714 4477264
573.42773 679.86182 3127.0664 4279629
593.01978 679.86182 3127.0664 3819078
619.77393 687.81018 3163.6252 3884870
636.40369 684.37823 3147.8398 4015943
645.05786 672.83368 3094.74 4015942
670.94598 679.41431 3125.0081 3555391
702.39478 691.09296 3178.7246 3489598
711.77997 681.01758 3132.3823 3621184
726.39758 676.35486 3110.9358 3358012
755.6579 685.2135 3151.6816 3029304
781.29584 690.41986 3175.6287 3094840
804.66052 693.40869 3189.376 3621184
824.64294 693.40869 3189.376 3884356
832.72528 683.6391 3144.4402 3555391
858.52527 688.53058 3166.9387 3029047
865.0166 678.06543 3118.8037 2963254
886.48126 679.54065 3125.5889 3358012
926.47595 694.8493 3196.0022 3621184
935.75305 686.95984 3159.7139 3358012
949.67535 682.73663 3140.2893 3029047
969.35016 682.73663 3140.2893 3226426
1006.1576 694.56348 3194.6875 3226426
1029.6136 696.89209 3205.3979 3226426
1046.6475 694.86786 3196.0874 3489598
1070.033 697.05725 3206.158 3358012
1090.9476 697.58618 3208.5906 3226426
1111.0504 697.58618 3208.5906 3226426
1119.4828 690.38892 3175.4863 3358012
1144.6504 693.58356 3190.1804 3423805
1167.0945 695.04651 3196.9092 3752770
1180.599 691.2262 3179.3374 3818563
1199.3221 690.53729 3176.1689 3818563
1217.2034 689.39417 3170.9109 3818819
1248.5352 695.78333 3200.2983 3884613
1260.8315 691.53027 3180.7361 4082249
1281.4478 691.90167 3182.4443 4082250
1294.4517 688.21454 3165.4851 4148043
1313.9147 688.02094 3164.5947 3424576
1289.9384 665.42456 3060.6614 3687748
1358.1417 690.34528 3175.2856 3950663
1380.1975 691.42816 3180.2664 4016199
1400.1228 691.42816 3180.2664 4279114
1409.4836 686.28424 3156.6064 3489598
1435.8469 689.44672 3171.1526 3292219
1447.4382 685.52661 3153.1218 3358012
1468.1241 685.96143 3155.1218 3423805
1488.7898 686.37537 3157.0256 3423805
1508.7285 686.44769 3157.3584 3489598
1528.5869 686.48206 3157.5166 2963254
1557.5333 690.54486 3176.2036 2897718
1582.2756 692.66461 3185.9536 3226169
1585.2035 685.30109 3152.0845 3028790
1600.0688 683.21582 3142.4934 3028790
1618.9767 682.88654 3140.9785 3028790
1637.3676 682.34961 3138.509 3291962
1653.9839 681.09473 3132.7371 3028790
1667.0161 678.41071 3120.3918 2831411
1703.7896 685.33868 3152.2573 2897461
1732.1661 688.76892 3168.0349 2633775
1728.6936 679.60065 3125.865 3160376
1759.9487 684.13727 3146.7314 3291962
1778.3867 683.6463 3144.4731 2699825
1818.9431 691.57556 3180.9443 2634032
1852.448 696.68109 3204.4275 2502446
1877.1897 698.41675 3212.4106 2765618
1897.9664 698.65601 3213.5112 2897204
1924.0055 700.80695 3223.4048 3028790
1957.5497 705.61865 3245.5364 3160377
1978.9199 705.98816 3247.2361 3029048
2008.8582 709.37579 3262.8176 3160634
2016.8906 705.03772 3242.8643 3094841
2048.4031 708.91193 3260.6841 3160376
2047.2081 701.5022 3226.6025 3160633
2000.5879 678.82391 3122.2925 3489342
2061.8555 692.83813 3186.7515 3094841
2105.2854 700.64697 3222.6687 3028791
2158.7297 711.60876 3273.0881 2897464
2167.5681 707.79852 3255.5627 2963510
2179.7659 705.14594 3243.3621 3160376
2197.5527 704.3338 3239.6267 3423805
2234.8303 709.72638 3264.4302 3621184
2255.342 709.74506 3264.5159 3818563
2269.4932 707.77954 3255.4756 3884613
2276.3381 703.59094 3236.2097 3686977
2306.7615 706.69971 3250.5088 3160633
2332.957 708.47021 3258.6523 3357755
2351.1396 707.79767 3255.5591 3226169
2302.7671 687.27307 3161.1548 3423548
2322.5728 687.27307 3161.1548 3818306
2371.6064 695.84875 3200.5994 3620927
2445.5393 711.52515 3272.7036 3686720
2454.5381 708.20538 3257.4343 3752513
2464.2378 705.14099 3243.3394 3423548
2492.2844 707.33368 3253.4248 3094583
2532.2642 712.85004 3278.7979 3226169
2551.9536 712.61188 3277.7021 3160376
2579.4915 714.55151 3286.6238 3094583
2610.9255 717.53125 3300.3291 3029047
2641.7344 720.29358 3313.0347 2962997
2656.9741 718.80096 3306.1692 2897204
2677.6885 718.80096 3306.1692 2831411
2704.918 720.5365 3314.1521 2634032
2745.0981 725.66919 3337.76 2634032
2760.8689 724.32037 3331.5562 2568239
2765.2192 720.01807 3311.7673 2897203
2766.1233 714.8891 3288.1765 2831157
2806.0305 719.84174 3310.9563 2699571
2803.1733 713.8316 3283.3125 2765364
2830.6606 715.58002 3291.3545 2896950
2839.4407 712.60828 3277.6855 3028537
2855.8735 711.58594 3272.9834 2962743
2856.2439 706.60449 3250.071 2830901
2861.938 703.0014 3233.4983 2699828
2878.8477 702.18439 3229.7405 3094329
2891.085 700.24731 3220.8306 3291708
2911.2646 700.24731 3220.8306 3225915
2951.8066 705.11145 3243.2034 3028536
2967.5486 704.02539 3238.2083 3028536
2987.7119 703.99591 3238.0725 3159865
3012.041 704.94177 3242.4231 3159864
3011.6934 700.13843 3220.3296 3028278
3036.23 701.14526 3224.9607 3028278
3056.968 701.26746 3225.5227 3028020
3075.0901 700.79187 3223.3352 3028277
3106.531 703.33801 3235.0464 2962484
3081.979 693.2561 3188.6741 3028277
3127.7283 699.01562 3215.1655 3094070
3154.1389 700.40723 3221.5662 3159863
3193.2661 704.58698 3240.7913 3291193
3213.7576 704.62799 3240.9797 3291192
3258.8313 710.02435 3265.8008 2896435
3280.5249 710.2912 3267.0281 2699569
3300.9937 710.2912 3267.0281 2764850
3322.7791 710.57257 3268.3225 2699827
3343.2561 710.57257 3268.3225 2831413
nan nan nan 16777215
nan nan nan 16777215
nan nan nan 16777215
nan nan nan 16777215
nan nan nan 16777215
nan nan nan 16777215
nan nan nan 16777215
nan nan nan 16777215
-2742.5503 662.66833 2963.0476 3752513
-2726.9141 663.38068 2966.2327 3818306
-2708.3296 663.38068 2966.2327 3884099
-2672.7861 659.198 2947.5303 3949892
-2652.8157 658.82471 2945.8611 3950149
-2635.0217 658.99042 2946.6021 3884099
-2616.5603 658.99042 2946.6021 4015685
-2583.4934 655.28583 2930.0374 4147785
-2560.5442 654.11285 2924.7925 4147528
-2536.7461 652.70459 2918.4956 4081735
-2546.3633 659.93604 2950.8303 4015942
-2529.5754 660.37982 2952.8147 3950150
-2494.3159 655.97241 2933.1072 4015685
-2466.231 653.40027 2921.6062 4015942
-2415.7688 644.81689 2883.2266 4147528
-2416.1187 649.76898 2905.3696 3950149
-2404.9131 651.6651 2913.8477 3950406
-2408.0522 657.50696 2939.969 4542543
-2416.5764 664.92059 2973.1182 4739922
-2420.3223 671.12445 3000.8582 4608595
-2410.2681 673.56897 3011.7883 4477265
-2403.2922 676.91901 3026.7678 4345679
-2394.4006 679.7785 3039.5537 4345936
-2383.1204 682.00024 3049.4878 4345936
-2373.6477 684.77936 3061.9146 4543315
-2354.4639 684.77936 3061.9146 4477779
-2344.8782 687.59387 3074.4993 4214606
-2318.3347 685.44128 3064.874 3951178
-2294.7974 684.1488 3059.095 3753799
-2283.7551 686.59125 3070.0161 3885641
-2270.0481 688.26721 3077.51 4279372
-2245.4385 686.63794 3070.2249 4214350
-2214.0166 682.87933 3053.4187 4148557
-2185.8679 680.07361 3040.8733 3688006
-2176.377 683.07434 3054.2908 3490627
-2154.5981 682.23761 3050.5491 3490626
-2131.689 681.02472 3045.126 3490627
-2106.7371 679.13141 3036.6602 3491137
-2086.8423 678.84863 3035.396 3688261
-2079.5454 682.69647 3052.6011 4148812
-2056.0835 681.2597 3046.1765 3951433
-2036.9982 681.2597 3046.1765 4017225
-2024.7096 683.55426 3056.4365 3950919
-2010.2633 685.15729 3063.6042 3884869
-1978.144 680.70966 3043.717 3950406
-1957.5018 680.16327 3041.2739 3884869
-1923.6029 674.95465 3017.9844 3687233
-1897.7628 672.49835 3007.0015 3555904
-1884.9478 674.65479 3016.6433 3424318
-1897.99 686.20331 3068.2812 3292732
-1852.1101 676.46741 3024.7483 3424574
-1833.5154 676.59882 3025.3359 3490368
-1831.8765 683.05536 3054.2058 3555648
-1816.8164 684.591 3061.0723 3687234
-1788.8875 681.25867 3046.1719 3621441
-1761.9808 678.24792 3032.71 3753026
-1750.7603 681.27551 3046.2473 3292732
-1769.2688 696.0658 3112.3804 3358525
-1751.6311 696.80664 3115.6931 3753540
-1701.0476 684.31049 3059.8179 3884869
-1678.4244 682.90582 3053.5371 3819076
-1659.4563 682.97296 3053.8372 3884869
-1637.9811 681.99786 3049.4773 3687490
-1617.9751 681.61865 3047.7817 3621697
