# .PCD v0.7 - Point Cloud Data file format
VERSION 0.7
FIELDS x y z rgb
SIZE 4 4 4 4
TYPE F F F U
COUNT 1 1 1 1
WIDTH 1283
HEIGHT 1
VIEWPOINT 0 0 0 1 0 0 0
POINTS 1283
DATA ascii
-546.81842 601.37537 1288.5737 2897458
-538.59192 601.20428 1288.2072 2568237
-530.22748 600.87183 1287.4948 2963252
-522.39752 601.1441 1288.0782 3029301
-513.73651 600.45355 1286.5986 3424059
-508.75949 604.11548 1294.4449 3358266
-496.26117 598.82037 1283.0991 2502957
-493.12778 604.83728 1295.9916 2239785
-485.78003 605.80005 1298.0546 2371117
-479.71234 608.41913 1303.6665 2371371
-471.79849 608.74689 1304.3688 2239785
-463.86902 609.06567 1305.0519 2634543
-454.44986 607.40485 1301.4932 3029301
-446.00677 607.01178 1300.6509 2963508
-437.85776 607.01178 1300.6509 2963765
-429.91446 607.30231 1301.2734 2634543
-420.26575 605.14838 1296.6582 2831152
-411.02692 603.51147 1293.1508 2766385
-403.30576 604.08185 1294.3729 3095351
-394.45636 602.95111 1291.9501 3490108
-385.85022 602.15265 1290.2391 3884610
-377.33722 601.46838 1288.7731 2700336
-365.9603 596.08936 1277.2473 2634543
-356.84073 594.22894 1273.261 2897715
-346.37753 589.99475 1264.1884 3884356
-337.66019 588.60577 1261.2122 3950406
-331.3024 591.36194 1267.1178 3423805
-323.57205 591.74329 1267.9351 4016199
-316.14764 592.71747 1270.0223 3358012
-307.71521 591.80322 1268.0635 3160633
-299.24564 590.76727 1265.8436 4213578
-291.06543 590.26172 1264.7604 4016199
-284.62006 593.34436 1271.3656 2700082
-276.65454 593.34436 1271.3656 2897461
-267.24561 590.15686 1264.5356 2436910
-261.37344 594.82343 1274.5348 2963511
-255.22726 599.14081 1283.7858 3423805
-247.08488 598.9007 1283.2712 3094840
-236.89133 593.50543 1271.7107 3423805
-230.61549 597.8916 1281.1091 3292476
-223.14137 599.37549 1284.2886 2962997
-214.91621 598.87756 1283.2217 2963254
-206.96529 599.13483 1283.7728 2897461
-199.61623 601.22559 1288.2528 2568496
-192.34918 603.75 1293.6619 3029047
-186.34082 610.62115 1308.3848 3160633
-178.78842 612.83209 1313.1222 3160633
-171.12866 614.87067 1317.4902 2634546
-161.81274 610.86365 1308.9043 2568496
-153.0177 608.50006 1303.84 2634032
-144.28415 606.12823 1298.7578 2897461
-136.1286 606.0462 1298.582 2963254
-128.07414 606.43237 1299.4094 2568239
-120.60358 609.82349 1306.6757 2502703
-112.88915 612.3855 1312.1653 2371117
-104.98298 614.22821 1316.1136 2568496
-96.956245 615.61957 1319.095 2831669
-89.306068 619.88391 1328.2322 2963254
-80.815231 618.58997 1325.4596 2963254
-72.112473 615.19165 1318.1781 2634290
-63.517872 611.95642 1311.2458 3095097
-55.231506 611.17065 1309.5623 2897462
-47.11211 612.28082 1311.9409 2765875
-38.972797 613.54657 1314.6531 2699824
-30.73588 613.54242 1314.6443 2897202
-22.499674 613.55463 1314.6704 3094581
-14.219662 611.69647 1310.689 2962995
-6.0076075 611.67804 1310.6494 3423546
2.1945238 609.04333 1305.004 3423546
10.317592 605.9198 1298.3112 2765616
18.516811 608.0509 1302.8776 2634030
26.677732 608.00519 1302.7794 2502444
34.815594 607.57831 1301.8649 2502444
42.494007 600.8175 1287.3783 2370858
50.520477 600.34985 1286.3763 2897202
58.790165 602.50342 1290.9908 2962995
67.276062 606.08392 1298.6628 3029045
75.272804 604.96051 1296.2556 2831409
83.394241 604.96051 1296.2556 2897202
91.185036 602.77472 1291.5721 3160374
99.708397 605.39313 1297.1827 2568237
107.51901 603.61554 1293.3738 2436651
115.01064 600.42181 1286.5306 2305065
122.80975 599.14655 1283.798 2897202
130.86922 599.22015 1283.9557 3160374
139.27351 600.77271 1287.2823 2568237
147.98604 603.41205 1292.9377 2897202
155.45343 600.96393 1287.6921 2765616
164.92143 606.10986 1298.7184 2897202
173.22287 606.68622 1299.9534 3226167
181.37357 606.7066 1299.9971 3094581
188.43538 603.23938 1292.5677 3029045
195.95393 601.45978 1288.7546 3094581
204.02489 601.44946 1288.7325 2897202
212.83009 603.52203 1293.1735 3028787
219.92609 600.77368 1287.2844 2831409
227.90993 600.55914 1286.8248 2699822
236.16335 601.04541 1287.8667 2765615
243.89415 600.21338 1286.084 2765616
251.87712 600.03528 1285.7024 2962995
259.806 599.74347 1285.077 3357753
268.37869 600.91064 1287.5779 3160376
276.85916 601.80914 1289.5033 2634032
284.34375 600.55347 1286.8127 2962997
292.46713 600.67902 1287.0817 3160376
300.53113 600.67902 1287.0817 2634032
309.69135 602.81287 1291.6539 2502189
318.68771 604.52722 1295.3273 2831411
326.28946 603.57666 1293.2905 2041895
334.87375 604.44568 1295.1525 2370860
345.12781 608.21606 1303.2314 2568239
351.74796 605.55627 1297.5322 2239274
357.89514 602.22076 1290.3853 1910309
367.04987 603.98157 1294.1581 2041895
378.43896 609.26349 1305.4757 2502446
383.6485 604.58368 1295.4481 2568239
391.6662 604.43134 1295.1217 2831411
401.89404 607.62677 1301.9686 3291962
412.42755 611.14801 1309.5137 2897204
420.41205 610.82831 1308.8287 3028790
426.84418 608.30853 1303.4296 2962997
435.57825 609.10236 1305.1305 2568239
444.215 609.73334 1306.4825 2962997
452.40051 609.73334 1306.4825 2634288
461.53589 610.99078 1309.1769 1976102
468.36316 609.20215 1305.3444 2634032
475.82919 608.29156 1303.3931 2107688
482.98264 607.01874 1300.6658 1976102
491.13168 607.01874 1300.6658 2502446
500.65176 608.68555 1304.2373 2173481
511.61679 612.0274 1311.3979 2107688
520.60077 612.93121 1313.3346 2568496
523.80286 607.10547 1300.8517 2765618
531.95306 607.10547 1300.8517 2568239
539.25183 606.14832 1298.8008 2502446
547.45416 606.22028 1298.955 3028790
549.5791 599.65881 1284.8958 2897204
559.01782 601.15198 1288.0951 2897204
569.2359 603.42877 1292.9735 3094583
576.03668 602.06989 1290.0619 3291962
582.99976 600.91589 1287.5892 3489341
591.06689 600.91589 1287.5892 4081478
599.20453 600.98657 1287.7407 4081478
608.32233 602.02545 1289.9667 3752512
618.45319 604.02649 1294.2544 3752513
624.84735 602.37341 1290.7123 3489341
631.73004 601.22754 1288.257 3620926
639.80139 601.22754 1288.257 3620927
648.28143 601.60681 1289.0697 3226169
654.43542 599.84473 1285.2941 3290679
662.53033 599.88287 1285.3759 2633776
662.49414 592.6463 1269.8699 2173481
669.68176 591.96698 1268.4143 2568239
684.33136 597.82227 1280.9604 2634032
690.97058 596.62518 1278.3955 2897204
699.37439 596.96173 1279.1166 3226169
706.42664 596.15009 1277.3774 2897204
713.79608 595.62128 1276.2444 2962997
721.90045 595.71063 1276.4358 3357755
724.29474 591.1377 1266.6373 3423548
732.09711 591.02997 1266.4065 2700082
739.53265 590.63153 1265.5527 2699825
745.91101 589.40613 1262.9271 2962997
755.53638 590.74536 1265.7966 2699825
763.72461 590.94464 1266.2238 2634032
770.12781 589.77295 1263.713 2436653
775.42682 587.7879 1259.4598 2897204
785.86292 589.69788 1263.5522 3686720
790.74493 587.44348 1258.7218 3423548
797.67175 586.73779 1257.2096 2962997
810.44104 590.30127 1264.8452 3028790
817.11462 589.39893 1262.9116 2963254
826.46039 590.42279 1265.1055 2765618
834.95605 590.82574 1265.9689 2765618
839.86029 588.70355 1261.4218 2831411
850.01239 590.26526 1264.7679 2897204
859.47729 591.32526 1267.0393 2831411
868.02179 591.73846 1267.9247 2699825
876.91864 592.38226 1269.3041 2634032
884.93127 592.42242 1269.3901 2699825
892.07715 591.88684 1268.2426 2897204
900.76508 592.37482 1269.2881 3423548
921.80066 600.90338 1287.5624 3884099
918.03699 593.25812 1271.1808 3752513
918.77417 588.62793 1261.2596 3620927
923.125 586.37207 1256.426 2765618
935.39502 589.14221 1262.3616 3752513
939.45514 586.73828 1257.2107 3818306
948.99957 587.77112 1259.4238 2831668
962.71716 591.35034 1267.093 2962997
983.98499 599.47083 1284.4928 3160376
993.69629 600.47601 1286.6467 3291962
1001.311 600.20837 1286.0732 3423548
1011.4207 601.42859 1288.6877 3291962
1020.1143 601.79407 1289.4709 3489341
1028.1932 601.79407 1289.4709 3423805
1035.2435 601.19678 1288.191 3356985
1043.3145 601.19678 1288.191 3422778
1045.2352 597.68005 1280.6556 2699055
1052.9479 597.50342 1280.2773 2567469
1066.0508 600.3653 1286.4094 2764848
1072.8438 599.65729 1284.8923 2896691
1079.9666 599.1427 1283.7898 2764848
1089.7195 600.08411 1285.807 2699055
1098.4893 600.4743 1286.6431 2699055
1106.1832 600.27502 1286.2161 2699055
1111.9926 599.06335 1283.6198 2699055
1109.9607 593.67499 1272.0741 3291192
1117.613 593.50635 1271.7128 3554364
1128.8793 595.24567 1275.4396 3159606
1139.5629 596.65546 1278.4603 2830641
1147.5728 596.65546 1278.4603 2699055
1148.5001 592.99854 1270.6246 2962227
1156.4434 592.9895 1270.6052 3225399
1168.7288 595.19189 1275.3243 3028277
1176.386 595.02344 1274.9634 2962227
1183.2928 594.48022 1273.7994 2830641
1186.4996 592.0979 1268.6948 3225399
1198.4042 594.05878 1272.8964 3356985
1209.1738 595.43494 1275.8451 2699055
1223.1638 598.36835 1282.1305 2633262
1232.7208 599.10907 1283.7177 2830641
1234.9542 596.30389 1277.707 2896691
1242.9594 596.30389 1277.707 3028277
1255.5928 598.51007 1282.4342 3159606
1266.8188 600.02155 1285.6729 3225399
1275.7692 600.44281 1286.5756 3225399
1285.3185 601.13898 1288.0673 3422778
1295.6259 602.17883 1290.2953 3554364
1303.2979 601.98846 1289.8875 3356985
1311.248 601.92822 1289.7583 3159606
1321.9194 603.11011 1292.2909 3225143
nan nan nan 16777215
nan nan nan 16777215
nan nan nan 16777215
nan nan nan 16777215
nan nan nan 16777215
nan nan nan 16777215
nan nan nan 16777215
nan nan nan 16777215
nan nan nan 16777215
nan nan nan 16777215
nan nan nan 16777215
nan nan nan 16777215
nan nan nan 16777215
nan nan nan 16777215
nan nan nan 16777215
nan nan nan 16777215
-1108.3633 598.74561 1266.0327 2765618
-1114.65 606.48212 1282.3914 2765618
-1107.7087 607.08136 1283.6583 2962997
-1100.7991 607.70667 1284.9806 2963254
-1092.7482 607.70667 1284.9806 3028790
-1079.3496 604.71051 1278.6454 3094583
-1072.2229 605.20972 1279.7009 3029047
-1062.8829 604.45776 1278.111 3226169
-1048.4292 600.7641 1270.3008 3226169
-1036.5999 598.5293 1265.5753 3423548
-1026.9446 597.52496 1263.4517 3357755
-1018.8552 597.42322 1263.2366 3291962
-1010.9405 597.42322 1263.2366 3818563
-1002.7495 597.25854 1262.8883 3620927
-994.22882 596.89343 1262.1162 3357755
-981.3653 593.89417 1255.7744 3226169
-970.41949 592.01642 1251.804 3357755
-956.70551 588.40552 1244.1688 3423548
-949.29559 588.64435 1244.6738 3752513
-941.50061 588.64642 1244.6782 3686720
-936.78015 590.58679 1248.7811 3489341
-936.24799 595.22266 1258.5835 3226169
-932.57251 597.92188 1264.2909 3423548
-926.11334 598.86725 1266.2899 3291962
-920.39343 600.31116 1269.343 3028790
-912.44061 600.31116 1269.343 3160376
-900.88776 597.92181 1264.2908 3357755
-890.17499 596.05261 1260.3384 3291962
-887.90283 599.85223 1268.3726 2962997
-883.86719 602.51831 1274.01 2765875
-878.87207 604.57306 1278.3547 3160633
-866.07983 601.25269 1271.3339 3226426
-853.92145 598.31476 1265.1216 3686977
-845.99512 598.31476 1265.1216 3094840
-846.84985 604.58374 1278.3773 3094840
-838.18677 604.11267 1277.3812 3489598
-827.31195 602.02301 1272.9626 3489598
-812.79303 597.21503 1262.7964 3292219
-807.98047 599.51471 1267.6589 3094840
-799.69098 599.25452 1267.1088 3292219
-789.82703 597.79749 1264.0278 3358012
-777.01752 594.05896 1256.1228 3555391
-778.55042 601.32135 1271.479 3029047
-769.83887 600.73975 1270.2491 3029047
nan nan nan 16777215
-758.60236 604.46918 1278.135 3292219
-756.07263 608.88092 1287.4635 3423805
-748.00629 608.88092 1287.4635 3686977
-739.26782 608.32782 1286.2941 3686977
-731.2088 608.32782 1286.2941 3029047
-723.7807 608.85864 1287.4164 2700082
-714.79645 608.07751 1285.7648 2239531
-709.24231 610.22986 1290.3158 2963254
-698.83252 608.20587 1286.0361 3752770
-687.64874 605.45325 1280.2158 3292219
-679.19824 605.07056 1279.4066 3555391
-671.18237 605.07056 1279.4066 4345160
-663.35901 605.24615 1279.778 3555645
-653.43719 603.4881 1276.0605 2897715
-642.96802 601.17468 1271.1688 2766129
-637.31628 603.36407 1275.7982 3818817
-628.59027 602.6615 1274.3127 3424059
-618.7937 600.90125 1270.5908 3292472
-609.42865 599.51965 1267.6694 3160374
-600.68854 598.72455 1265.9882 3226167
-591.42548 597.37988 1263.1449 2831409
-578.60449 592.35626 1252.5226 3291960
-575.83435 597.62579 1263.6648 3028788
-567.29865 596.97498 1262.2887 2962995
-559.5069 597.09967 1262.5524 2765616
-551.44574 596.93634 1262.207 3160374
-544.16559 597.62598 1263.6653 3226167
-536.24835 597.62598 1263.6653 3160374
-528.59332 597.92267 1264.2926 3029558
-518.90686 595.89545 1260.0061 2766129
-510.70721 595.53943 1259.2533 2634543
-504.68237 597.74811 1263.9235 3226680
-501.81653 603.82831 1276.7799 3161144
-494.79507 605.02417 1279.3085 3424059
-479.74509 596.28058 1260.8204 2832179
-474.85156 600.07928 1268.8527 2305581
-471.63385 606.16101 1281.7124 2437164
-464.2438 606.99817 1283.4825 2305578
-454.81335 605.15002 1279.5746 2634543
-446.96664 605.38062 1280.0621 3029558
-440.35287 607.31995 1284.163 2766129
-432.27405 607.27338 1284.0645 3029558
-424.76993 608.04773 1285.7018 2831922
-412.75378 602.26837 1273.4814 3028532
-406.80386 605.28705 1279.8644 3029301
-396.32901 601.55908 1271.9817 2634543
-386.77332 599.10187 1266.786 2765873
-377.41599 596.85547 1262.036 3555645
-368.56549 595.33154 1258.8137 2832179
-361.41519 596.5473 1261.3844 2831922
-352.26785 594.44739 1256.9442 3292473
-342.31534 590.86176 1249.3624 3753027
-335.66846 592.94751 1253.7727 3753027
-328.25305 593.74316 1255.4551 3226426
-320.38724 593.74316 1255.4551 3555391
-312.76974 594.2149 1256.4526 3621184
-304.58508 593.60577 1255.1646 3094840
-295.93939 592.04193 1251.8579 3621184
-288.09317 592.03589 1251.8451 2963254
-278.40012 588.12799 1243.5819 2831410
-271.38617 589.81769 1247.1548 3094581
-262.21396 586.77795 1240.7273 2502701
-254.59447 587.13324 1241.4785 3226167
-248.01585 589.98688 1247.5126 3094583
-241.2466 592.55804 1252.9492 3028790
-234.97955 596.57715 1261.4476 3357755
-227.27177 597.09106 1262.5342 2963254
-219.77367 598.21265 1264.9058 2831668
-212.17551 599.13574 1266.8575 3094840
-202.87839 595.14648 1258.4225 3160633
-196.062 598.40619 1265.3151 2568496
-188.30431 598.94659 1266.4576 3226683
-184.23647 611.78729 1293.609 3358012
-176.22862 612.12433 1294.3217 3292219
-169.00995 615.36719 1301.1786 3094583
-159.80605 611.34424 1292.6721 2305067
-150.44142 606.24402 1281.8878 2107688
-142.02995 604.62616 1278.4669 2897204
-134.37753 606.23932 1281.8779 3028790
-126.34617 606.23932 1281.8779 2370860
-119.61642 612.90869 1295.9802 2634032
-112.06854 616.05225 1302.6271 2568496
-103.38989 612.98529 1296.1421 2634032
-95.11129 611.96948 1293.9943 2634031
-87.034302 612.18243 1294.4446 2502958
-78.984756 612.65216 1295.4377 2831924
-70.391052 608.52521 1286.7114 2437165
-62.80558 613.17407 1296.5414 2371115
-54.492455 611.04486 1292.0391 2634288
-45.799168 603.16583 1275.3792 2568239
-37.698631 601.41272 1271.6722 2962996
-30.061172 608.08728 1285.7854 3226167
-22.129765 611.52594 1293.0564 3423546
-14.061352 612.96387 1296.0968 2765616
-5.8687844 605.52289 1280.363 2699823
2.1530871 605.52289 1280.363 3028788
10.190921 606.47278 1282.3716 2765616
18.17503 604.79742 1278.8291 2765616
26.246286 606.15997 1281.7101 2765616
34.190025 604.62897 1278.4729 2765616
41.91404 600.53107 1269.808 2568237
49.794189 599.62079 1267.8832 2568237
58.300652 605.46533 1280.2415 2831409
66.276314 605.05054 1279.3643 2765616
74.305351 605.15979 1279.5953 2305065
82.322411 605.15979 1279.5953 2568237
90.271049 604.70142 1278.6261 2699823
97.809326 601.79303 1272.4763 2634286
105.24463 598.73706 1266.0146 2305065
113.22504 598.99335 1266.5565 2041893
121.45459 600.44769 1269.6317 2962995
129.27202 599.8111 1268.2856 3028788
137.22563 599.84351 1268.3541 2041893
145.70403 602.04071 1273.0001 2699823
154.77585 606.33453 1282.0793 2831412
162.85141 606.49451 1282.4175 3094583
170.93265 606.65955 1282.7665 3226167
178.90178 606.42969 1282.2805 3029045
186.50229 605.0238 1279.3077 3028788
192.77457 599.60248 1267.8445 2568493
200.718 599.60248 1267.8445 2239272
209.54311 602.13599 1273.2015 2634031
217.23125 601.33636 1271.5107 2568238
225.24387 601.45978 1271.7717 2436908
233.21193 601.45978 1271.7717 2831665
240.33162 599.34412 1267.2982 2634030
247.03763 596.36511 1260.9993 2107686
256.08978 599.05902 1266.6954 2831409
264.52689 600.1955 1269.0984 3291962
273.59558 602.6568 1274.3027 2962997
281.71259 602.94165 1274.9052 2305067
289.88467 603.3255 1275.7167 2305067
298.38239 604.34827 1277.8793 2107688
306.17606 603.92877 1276.9924 2239274
314.99857 605.50842 1280.3325 2305067
322.50623 604.54492 1278.2952 2041895
328.16629 600.24866 1269.2108 1976102
339.97733 607.1402 1283.7828 2041895
348.29633 607.62115 1284.7998 1778723
354.20682 603.97351 1277.087 2041895
360.09811 600.45508 1269.6473 2502446
368.05286 600.45508 1269.6473 2765618
380.78204 608.07953 1285.769 2699825
387.55133 606.06775 1281.5151 2897204
396.54828 607.5506 1284.6506 3160376
405.90143 609.50928 1288.7922 2831411
415.63773 611.95575 1293.9652 2634032
424.49429 613.03809 1296.2538 2699825
431.14487 610.95386 1291.8467 2699825
440.41904 612.59564 1295.3182 2568239
449.12424 613.40094 1297.021 2305067
457.68738 613.987 1298.2603 2239274
463.93475 611.50031 1293.0022 2107688
472.42529 612.00488 1294.0691 1976102
481.99969 613.87286 1298.0188 1976359
488.71274 612.09503 1294.2596 2239274
496.67331 611.91223 1293.8732 2107688
505.5957 612.90118 1295.9644 2305067
513.46454 612.60205 1295.3318 3357755
515.63483 605.61914 1280.5667 2962997
523.65802 605.61914 1280.5667 2502446
535.66638 610.15863 1290.1652 2897461
541.52881 607.6665 1284.8958 2963254
546.89319 604.69678 1278.6162 2634289
553.39807 603.05554 1275.146 2963254
558.68646 600.1543 1269.0114 3423548
566.34845 599.84845 1268.3646 2897204
574.88922 600.46899 1269.6766 3291962
589.46552 607.29053 1284.1007 3752513
596.01111 605.7663 1280.8778 3884100
602.20667 603.93158 1276.9983 3884357
608.55389 602.29498 1273.5377 3621186
612.7793 598.62793 1265.7839 3489600
620.59558 598.51776 1265.5509 3555133
628.76416 598.74585 1266.0332 3357755
639.4931 601.37604 1271.5946 3028790
642.16162 596.45477 1261.1887 3160376
650.06342 596.45477 1261.1887 2962997
659.42255 597.77594 1263.9823 2699825
666.72504 597.22345 1262.8141 2634032
672.58179 595.40411 1258.9672 2699825
679.45911 594.5199 1257.0975 2634032
683.05389 590.81677 1249.2673 2634032
696.52435 595.64282 1259.4719 2765618
704.37305 595.60706 1259.3962 2699825
714.20642 597.23169 1262.8315 3226169
720.00128 595.48071 1259.1292 3357755
726.88611 594.6593 1257.3923 3094583
732.70459 592.99255 1253.868 2962997
739.7038 592.30658 1252.4175 3226169
749.58569 593.91907 1255.827 2568239
758.35986 594.62946 1257.3292 2699825
764.91315 593.60181 1255.1562 3160376
770.75317 592.04712 1251.8689 3094583
779.09387 592.42535 1252.6686 3291962
784.604 590.66504 1248.9465 3489341
793.51996 591.47827 1250.666 2897204
800.50128 590.84753 1249.3324 2897204
808.10406 590.68329 1248.9851 2897461
813.08911 588.62714 1244.6375 2699825
815.60071 584.83643 1236.6221 2699825
829.03894 588.87848 1245.1688 3094583
837.94922 589.65875 1246.8187 3160376
844.58679 588.84021 1245.0879 2897204
853.6579 589.71759 1246.9432 2831411
863.39526 591.03534 1249.7295 2831411
873.09485 592.30365 1252.4114 2831411
879.47205 591.31561 1250.3221 3291962
887.6181 591.52386 1250.7625 3357755
901.44086 595.47827 1259.124 3423548
909.32971 595.47827 1259.124 3489341
904.72205 587.3653 1241.9694 3357755
910.4693 586.05609 1239.2009 2963253
921.11578 587.89581 1243.0911 3292219
930.84888 589.12659 1245.6935 4080709
934.2674 586.37378 1239.8727 3028533
946.88422 589.39178 1246.2543 2962740
967.85394 597.51721 1263.4353 3094584
977.11652 598.34192 1265.1791 3423805
985.89258 598.85779 1266.2699 3423548
994.40155 599.20453 1267.0031 3357755
1006.1965 601.51013 1271.8782 3489341
1004.8032 595.95746 1260.1372 3818562
1012.6983 595.95746 1260.1372 3948865
1030.4811 601.7312 1272.3456 3620157
1036.4683 600.5813 1269.9142 3356985
1044.7789 600.78497 1270.3448 2830641
1052.9353 600.89752 1270.5829 2830641
1061.6528 601.32623 1271.4894 2896434
1065.0276 598.74493 1266.0312 2896434
1075.4197 600.1178 1268.9341 2699055
1083.37 600.1178 1268.9341 2501676
1091.9695 600.47473 1269.689 2567469
1100.4907 600.78394 1270.3427 2699055
1108.905 601.03058 1270.8643 2830898
1110.62 597.6687 1263.7555 2896434
1121.1864 599.08386 1266.7479 2830641
1124.8242 596.8031 1261.9253 2633262
1131.8854 596.35779 1260.9836 2764848
1139.2227 596.06311 1260.3606 2896434
1144.7727 594.84387 1257.7825 2699055
1150.8911 593.93457 1255.8599 2567469
1159.908 594.52319 1257.1045 2962227
1172.72 597.03613 1262.418 3291192
1179.7446 596.58862 1261.4718 3225399
1185.453 595.48596 1259.1403 3225399
1193.3419 595.48596 1259.1403 3028020
1204.735 597.22308 1262.8134 2699055
1216.1737 598.96008 1266.4861 2830898
1222.6881 598.26495 1265.0164 2896434
1232.2786 599.07428 1266.7277 2370090
1240.6882 599.3028 1267.2109 2830641
1249.7504 599.84174 1268.3503 3225399
1253.4342 597.80865 1264.0515 3291192
1265.9152 599.9704 1268.6224 3422778
1276.0156 600.98407 1270.7659 3422778
1286.3837 602.11035 1273.1473 3488571
1291.6052 600.82874 1270.4374 3094070
1298.0525 600.12952 1268.9589 3291191
nan nan nan 16777215
nan nan nan 16777215
nan nan nan 16777215
nan nan nan 16777215
nan nan nan 16777215
nan nan nan 16777215
nan nan nan 16777215
nan nan nan 16777215
nan nan nan 16777215
nan nan nan 16777215
nan nan nan 16777215
nan nan nan 16777215
nan nan nan 16777215
nan nan nan 16777215
nan nan nan 16777215
nan nan nan 16777215
nan nan nan 16777215
-1103.6998 608.43768 1269.7933 2963254
-1095.386 608.23877 1269.3782 2897204
-1084.8688 606.80457 1266.385 2962997
-1076.2383 606.41223 1265.5663 2897204
-1067.8893 606.17395 1265.069 3028790
-1057.1381 604.55823 1261.697 3094583
-1047.8347 603.75256 1260.0155 3160376
-1037.9634 602.60474 1257.6201 3226169
-1025.8126 600.10602 1252.4054 3423548
-1014.584 598.1123 1248.2445 3489341
-1006.8209 598.14648 1248.3159 3555134
-1000.8508 599.25476 1250.6288 3686720
-990.33868 597.63959 1247.2579 3555134
-977.16711 594.38104 1240.4574 3291962
-963.71735 590.8996 1233.1918 3291962
-958.94421 592.72491 1237.0012 3094583
-947.90509 590.67554 1232.7241 3160376
-937.63995 589.07867 1229.3916 3686720
-933.07465 591.06598 1233.5389 3423548
-929.22852 593.54584 1238.7144 2699825
-921.46753 593.54584 1238.7144 3028790
-918.23438 596.487 1244.8525 3555134
-912.05469 597.54822 1247.0673 3357755
-905.20428 598.18451 1248.3951 2897204
-897.85132 598.49689 1249.0471 3094583
-888.88617 597.73065 1247.448 3423548
-883.67706 599.49896 1251.1384 3489341
-877.96448 600.95428 1254.1757 2831411
-875.05054 604.36877 1261.3016 2370860
-865.10034 602.94165 1258.3232 2896947
-857.21661 602.94165 1258.3232 3358012
-845.31348 600.08832 1252.3684 3292219
-835.92493 598.9834 1250.0624 2897461
-836.06042 604.74652 1262.09 2897461
-830.02057 606.11017 1264.9359 3555391
-814.03571 600.16803 1252.5348 3818820
-806.47766 600.38354 1252.9846 3489598
-798.70081 600.43878 1253.0999 3160633
-790.30286 600.02356 1252.2333 3226426
-777.84973 596.4903 1244.8595 2831668
-769.58453 596.12952 1244.1066 2568496
-760.20618 594.89032 1241.5203 2436910
-745.82794 589.67236 1230.6306 2634289
-735.04858 587.22052 1225.5137 3424062
-735.00653 593.38538 1238.3795 3292219
-740.06696 603.84497 1260.2085 3160633
-737.5802 608.30585 1269.5182 3358012
-726.34351 605.56897 1263.8064 3094840
-715.72137 603.28973 1259.0497 3029047
-707.83307 603.28973 1259.0497 2700082
-701.22693 604.3949 1261.3561 2371117
-696.92499 607.53387 1267.9071 2107945
-688.55151 607.15503 1267.1165 3226426
-681.29309 607.76208 1268.3833 3423805
-667.14508 602.16486 1256.702 4081736
-660.49945 603.28644 1259.0428 4344906
-653.02875 603.67242 1259.8484 3423549
-640.03656 598.90131 1249.8912 2963255
-630.35638 597.14954 1246.2352 2634543
-625.34125 599.82849 1251.8262 3160887
-621.57898 603.79248 1260.099 3358266
-612.94495 603.06531 1258.5813 3687231
-602.81091 600.82416 1253.9041 3555389
-592.91608 598.76526 1249.6072 3160374
-584.25946 597.91846 1247.84 2831409
-576.74872 598.2373 1248.5054 2305065
-569.10754 598.42773 1248.9028 2107686
-560.7851 597.89716 1247.7954 2173479
-550.07458 594.76941 1241.2679 2634030
-546.46136 599.336 1250.7983 3094581
-536.90509 597.42249 1246.8048 3094581
-529.09338 597.42249 1246.8048 3160374
-520.08484 596.05066 1243.9419 3358522
-511.79028 595.4679 1242.7257 3818817
-503.09186 594.38995 1240.4761 3292472
-497.32547 596.79669 1245.4989 2174248
-491.55801 599.27887 1250.6791 2634542
-481.86725 596.98083 1245.8832 2963508
-471.73404 594.04999 1239.7666 2831921
-472.39557 604.84235 1262.2899 2436911
-464.98257 605.48773 1263.6368 2569006
-457.29813 605.7959 1264.28 3095094
-451.3475 608.45227 1269.8237 2700336
-443.47366 608.56482 1270.0587 2700336
-435.31885 608.28882 1269.4827 3029301
-427.11246 607.92914 1268.7321 2766129
-419.1427 607.89905 1268.6692 2831922
-407.36795 602.24255 1256.8643 3752255
-395.62613 596.41278 1244.6976 3818817
-382.63971 588.43451 1228.0472 3160374
-381.23749 598.3089 1248.6548 2436651
-373.0831 597.77826 1247.5474 2634287
-365.70575 598.49652 1249.0464 3029044
-357.9313 598.58221 1249.2252 3621438
-346.86389 593.04156 1237.6621 3818816
-338.89807 592.67175 1236.8903 3555391
-332.03107 594.25122 1240.1865 3489598
-324.26089 594.25122 1240.1865 3226426
-317.42639 596.008 1243.8529 3818563
-308.45929 593.74829 1239.1368 3621184
-299.02789 590.45502 1232.2639 3029304
-288.79486 585.3623 1221.6356 2239531
-280.4317 583.88562 1218.5538 2568496
-274.82977 588.23633 1227.6335 2831668
-268.91064 592.1391 1235.7786 2963255
-260.5769 590.79865 1232.9811 3028791
-253.12465 591.43591 1234.3112 3489084
-245.96109 592.80933 1237.1772 2765875
-239.24637 595.38885 1242.5608 2700082
-231.63882 595.8454 1243.5135 3357755
-224.63628 597.94409 1247.8936 3226426
-216.94348 598.29065 1248.6167 3423548
-209.90489 600.53479 1253.3002 3094840
-200.91003 597.13898 1246.2131 2897461
-194.06166 600.10614 1252.4056 2765875
-186.57166 601.25568 1254.8047 2700082
-178.70992 601.25568 1254.8047 3094840
-173.82124 611.71863 1276.6405 3292219
-164.51106 606.88 1266.5425 3160633
-158.27937 613.48297 1280.3228 3029047
-149.10609 608.78094 1270.5098 2962997
-140.6062 606.45294 1265.6511 2897204
-132.6765 606.45294 1265.6511 2568239
-123.99056 602.77649 1257.9785 2107945
-116.5141 604.87988 1262.3683 2568496
-109.84065 611.76208 1276.7312 2700082
-101.91093 612.17896 1277.6012 2831668
-93.595169 610.15021 1273.3673 3029302
-85.823433 611.62042 1276.4355 2831923
-77.688377 610.53754 1274.1757 2766130
-69.448227 608.28613 1269.4771 2700594
-61.420139 607.54999 1267.9408 2239530
-53.689533 609.97491 1273.0015 2173737
-45.366497 605.34088 1263.3304 2239531
-37.162197 600.66736 1253.5769 2634031
-29.482779 604.2464 1261.0461 3226167
-21.545097 603.21509 1258.8939 3291960
-13.667002 603.62427 1259.7478 2173479
-5.7604542 602.17792 1256.7292 2897459
2.1055927 599.96924 1252.1199 3423546
9.9695721 601.11847 1254.5183 2502444
17.829519 601.11847 1254.5183 2634030
25.884089 605.67261 1264.0226 2831409
33.7318 604.38641 1261.3384 2765616
41.56921 603.4389 1259.3611 2897202
49.222202 600.54382 1253.319 3028788
57.40189 603.98718 1260.5052 2831409
65.476768 605.6283 1263.9302 2502444
73.412819 605.76965 1264.2252 2502444
81.257111 605.20013 1263.0366 2634030
89.107925 604.77594 1262.1514 2436651
96.697281 602.79095 1258.0088 2699823
104.57909 602.79095 1258.0088 2370858
112.33507 602.11646 1256.6011 2436651
120.30788 602.61646 1257.6445 2765616
128.5136 604.14984 1260.8447 2634287
136.42349 604.19556 1260.9401 2436651
143.80034 602.00464 1256.3677 2634030
152.2997 604.49652 1261.5682 2962995
160.23233 604.60413 1261.7928 2831409
168.13786 604.60413 1261.7928 2502444
176.19276 605.11725 1262.8636 2831408
184.03979 604.90295 1262.4164 2831410
191.44431 603.31171 1259.0956 2568237
198.33879 600.3028 1252.816 2107687
206.06412 599.94189 1252.0629 2239275
213.93822 600.02478 1252.2358 2765618
221.83948 600.17523 1252.5498 2699826
229.87433 600.66443 1253.5708 2765875
236.27048 596.9809 1245.8833 2568240
244.14291 597.1438 1246.2233 2305068
253.43918 600.67114 1253.5848 2305067
262.1467 602.63306 1257.6792 2699825
269.38916 601.21082 1254.7111 3291962
277.25034 601.21082 1254.7111 2831411
287.22037 605.65778 1263.9917 2041895
294.96719 605.30389 1263.2532 2502446
304.34183 608.22156 1269.3423 2502446
311.8266 607.31 1267.4398 2765875
318.37192 604.65948 1261.9083 2831411
325.0528 602.38855 1257.1689 2436653
335.65405 607.3186 1267.4578 2305067
343.76334 607.61597 1268.0785 2239274
350.89511 606.21124 1265.1467 2370860
357.75998 604.4176 1261.4034 2370860
365.66306 604.4176 1261.4034 2699825
375.61957 607.73993 1268.3372 2634289
383.06357 606.94373 1266.6755 3028790
390.34164 605.92224 1264.5437 3029047
401.78351 611.27625 1275.7173 3094583
406.7829 606.81091 1266.3983 3094583
413.65463 605.25604 1263.1533 2305067
421.56863 605.25604 1263.1533 1976102
428.30624 603.59808 1259.6932 2173481
441.81058 611.36383 1275.9 2831668
451.29642 613.39148 1280.1318 3423548
456.90924 610.17633 1273.4219 4015685
463.24503 608.02039 1268.9225 3752513
475.20758 613.19788 1279.7277 2699824
483.8699 614.01562 1281.4343 2436652
491.89847 614.01562 1281.4343 2436653
499.31375 613.26233 1279.8622 2370860
503.46313 608.58508 1270.101 2568239
511.3848 608.54236 1270.0117 2765618
520.16406 609.5058 1272.0225 2502446
532.86377 614.96472 1283.415 2897204
540.80402 614.85016 1283.176 2962997
542.39105 607.6217 1268.0905 2699825
550.12793 607.39197 1267.611 2831411
555.82721 604.95099 1262.5167 3225912
561.9906 603.07666 1258.605 3160376
571.45319 604.74554 1262.0879 3357755
578.72473 604.08185 1260.7029 3620927
584.24103 601.62866 1255.583 3423548
593.13977 602.67731 1257.7715 3357755
598.53027 600.1806 1252.561 3489341
605.76221 599.57117 1251.2891 3160376
612.86792 598.85394 1249.7924 3226169
618.52966 596.76166 1245.4258 3226169
624.54089 595.0545 1241.863 3028790
632.11389 594.85907 1241.4552 3291962
636.91156 592.08844 1235.6729 3291962
640.92426 588.66327 1228.5247 3489341
656.41235 595.73413 1243.2814 3357755
660.89301 592.76636 1237.0876 3291962
667.5705 591.81488 1235.1019 3357755
675.98529 592.40771 1236.3392 2765618
687.02417 595.2608 1242.2935 2568239
693.98169 594.55316 1240.8168 2634032
701.75574 594.55316 1240.8168 2699825
713.65027 598.00592 1248.0226 3094583
715.56171 593.10913 1237.803 3094583
723.60785 593.34766 1238.3008 3094583
738.42743 599.07635 1250.2565 3620927
743.49402 596.85541 1245.6213 3357755
751.29828 596.85541 1245.6213 3028790
751.51599 590.89044 1233.1726 3226169
758.61804 590.4046 1232.1588 3226169
765.78595 589.97943 1231.2714 3094583
776.23816 592.06775 1235.6296 3226169
782.69965 591.10095 1233.6121 2963254
789.68195 590.5426 1232.4468 2962997
795.19666 588.90814 1229.0358 3028790
799.72229 586.57965 1224.1761 2634032
806.77271 586.12958 1223.2369 2370860
814.43665 586.12958 1223.2369 3226169
829.87976 591.6759 1234.8119 3357755
830.5033 586.65137 1224.3259 2962997
838.17407 586.65137 1224.3259 2634032
849.19934 588.97803 1229.1815 2699825
862.01923 592.49622 1236.5239 2700082
872.95557 594.6687 1241.0579 2897461
874.76514 590.64044 1232.651 3094583
880.66803 589.4223 1230.1088 2765618
884.49377 586.84717 1224.7345 2568239
890.92346 586.02911 1223.0272 2962997
901.18988 587.72717 1226.571 3225399
908.17737 587.27625 1225.63 3159606
920.77612 590.43097 1232.2137 3159606
925.14343 588.29889 1227.7642 2962227
940.03564 592.8396 1237.2405 3028020
951.23932 594.99872 1241.7466 3159606
963.94409 598.05432 1248.1234 3488571
971.0141 597.59277 1247.1603 3554621
979.46338 597.98065 1247.9698 3423291
992.24908 600.98901 1254.2482 3029047
1000.1074 600.98901 1254.2482 3292219
1009.055 601.63855 1255.6038 3554107
1017.4796 601.96857 1256.2925 3620157
1024.0074 601.17999 1254.6467 3685950
1033.4498 602.1015 1256.5698 3620157
1037.1711 599.70111 1251.5603 3291192
1046.0016 600.26868 1252.7448 3028020
1053.6968 600.18115 1252.5621 2962227
1062.1873 600.54449 1253.3204 3028020
1070.0276 600.53772 1253.3063 3028020
1076.1082 599.5506 1251.2462 2896434
1087.1128 601.30139 1254.9 2501676
1092.6478 600.02332 1252.2328 2172711
1100.2424 599.88641 1251.947 2304297
1107.189 599.40063 1250.9332 2304297
1108.7456 596.02429 1243.8868 2370090
1112.7557 594.00482 1239.6722 2435883
1121.0782 594.29926 1240.2869 2699055
1132.6219 596.28564 1244.4323 2633262
1134.1831 593.02521 1237.6278 2896434
1143.4432 593.80731 1239.2601 3225399
1154.9137 595.71893 1243.2496 3093813
1162.0856 595.40259 1242.5895 3225399
1169.8708 595.40259 1242.5895 3093813
1177.0448 595.09363 1241.9446 3093813
1185.9951 595.68085 1243.17 3028020
1200.2446 598.90466 1249.8981 3093813
1208.0757 598.90466 1249.8981 3093813
1224.9858 603.37659 1259.231 2699055
1236.7498 605.27283 1263.1884 2567469
1238.334 602.19452 1256.764 2764848
1245.4011 601.80463 1255.9503 2830641
1253.7939 602.05621 1256.4753 3225399
1260.0125 601.26715 1254.8285 3356985
1269.2142 601.90253 1256.1545 3422778
1274.0215 600.45886 1253.1417 3028020
1281.8728 600.45886 1253.1417 2501676
nan nan nan 16777215
nan nan nan 16777215
nan nan nan 16777215
nan nan nan 16777215
nan nan nan 16777215
nan nan nan 16777215
nan nan nan 16777215
nan nan nan 16777215
nan nan nan 16777215
nan nan nan 16777215
nan nan nan 16777215
nan nan nan 16777215
nan nan nan 16777215
nan nan nan 16777215
nan nan nan 16777215
nan nan nan 16777215
nan nan nan 16777215
-1090.8735 609.18848 1255.0367 3028790
-1084.4967 610.02454 1256.7592 2765875
-1073.9016 608.48279 1253.5829 2897461
-1063.5906 607.08032 1250.6936 3094583
-1053.0422 605.52075 1247.4806 3094583
-1042.6754 604.04285 1244.4359 3094583
-1034.347 603.73254 1243.7966 3226169
-1022.2835 601.22089 1238.6221 3094583
-1012.0231 599.73932 1235.5698 3160376
-1002.8713 598.89697 1233.8345 3028790
-995.14105 598.89697 1233.8345 2897204
-985.35913 597.65265 1231.2709 2962997
-975.37665 596.26605 1228.4143 2962997
-963.35699 593.60217 1222.9263 2897204
-955.5257 593.49701 1222.7096 2897204
-945.70032 592.1416 1219.9171 2897204
-939.2583 592.89984 1221.4792 2962997
-932.79834 593.65912 1223.0435 3028790
-925.07343 593.61914 1222.9612 2765618
-914.45697 591.70764 1219.0231 2962997
-907.88995 592.40613 1220.4622 3160376
-900.96106 592.87842 1221.4352 3226169
-895.52869 594.35199 1224.4709 3028790
-888.36456 594.69177 1225.171 2897204
-881.54663 595.2713 1226.3649 3028790
-878.82379 598.65045 1233.3265 3357755
-871.09662 598.65045 1233.3265 2634032
-866.18365 600.60181 1237.3467 2568239
-858.43127 600.60181 1237.3467 2239274
-854.07074 602.99652 1242.2802 2831411
-840.23407 598.68341 1233.3944 3555134
-838.77252 603.18951 1242.6777 2831411
-831.35986 603.46033 1243.2357 2831411
-825.34137 604.75781 1245.9088 2962997
-820.48969 606.94324 1250.4111 3160633
-809.85944 604.85492 1246.1089 3555391
-799.58997 602.99811 1242.2834 3226426
-789.53448 601.26776 1238.7186 3226426
-778.55396 598.79156 1233.6172 3160633
-771.19025 599.07532 1234.2018 2700082
-761.53522 597.56683 1231.0941 1976359
-752.46655 596.49231 1228.8804 1844773
-743.30066 595.31775 1226.4606 2239531
-735.04858 594.85809 1225.5137 2963254
-731.68896 598.38995 1232.7899 3094840
-728.65045 602.26263 1240.7682 3029047
-722.23511 603.39752 1243.1063 3095097
-712.65247 601.8822 1239.9845 2897461
-704.88354 601.8822 1239.9845 3226426
-696.46295 601.31946 1238.8252 2831668
-693.81146 605.78131 1248.0173 2963254
-689.86554 609.20166 1255.0638 2634289
-682.93414 610.03418 1256.7791 2897461
-674.39508 609.43323 1255.541 3226426
-657.25482 600.95374 1238.0718 3818563
-657.30365 608.17603 1252.9509 4015943
-648.33148 607.12537 1250.7864 3621438
-631.4892 598.58887 1233.1996 2831922
-620.17639 595.14709 1226.109 2963507
-614.02557 596.63489 1229.1741 2700336
-607.24817 597.54382 1231.0468 2502702
-604.66956 602.66113 1241.5892 3555646
-595.74249 601.50189 1239.201 3686976
-584.23212 597.66937 1231.3053 3423548
-575.22009 596.32422 1228.5341 2831410
-568.84393 597.71228 1231.3937 2305067
-562.13074 598.77936 1233.5922 1910307
-553.78735 598.11572 1232.2249 1910307
-544.74115 596.66333 1229.2328 2568237
-537.03961 596.66333 1229.2328 2699823
-531.52466 599.12805 1234.3105 2699824
-519.26971 593.95605 1223.6553 2700082
-510.99478 593.24982 1222.2002 3621185
-506.71979 597.23651 1230.4136 3423549
-499.13342 597.38318 1230.7157 4278858
-493.80444 600.27856 1236.6808 5726304
-484.77542 598.69678 1233.422 4542287
-477.86362 599.72076 1235.5316 2568240
-469.65225 599.12073 1234.2954 2897970
-461.91901 599.12073 1234.2954 2502703
-456.37619 602.01013 1240.2482 2371370
-452.10474 606.70581 1249.922 2173992
-444.67554 607.2547 1251.0529 2831922
-437.55188 608.24805 1253.0992 3160887
-428.88495 607.0932 1250.7201 3160887
-420.423 606.19092 1248.8612 2634543
-411.97513 605.27496 1246.9742 2766129
-403.33902 604.04181 1244.4337 3225910
-392.35629 599.17645 1234.4102 2963765
-380.00549 591.98419 1219.5929 2897715
-371.58963 590.75256 1217.0554 3424059
-364.53326 591.6759 1218.9576 3292473
-359.2923 595.64832 1227.1416 3292473
-349.28107 591.71332 1219.0348 3555645
-343.18332 594.38031 1224.5293 3621438
-333.25537 590.38385 1216.2959 3423805
-325.78467 590.6554 1216.8553 3029047
-318.03494 590.42194 1216.3744 2897461
-311.11081 591.74731 1219.1049 2700082
-304.02335 592.82098 1221.3168 3226426
-295.59756 591.27307 1218.1278 3292219
-286.4917 588.24677 1211.8931 3094840
-279.17813 588.83588 1213.1067 3094840
-271.94388 589.62994 1214.7427 3292219
-265.39938 592.0083 1219.6426 2963254
-257.37411 591.12677 1217.8264 3029047
-249.74406 591.12677 1217.8264 3555134
-243.19897 593.77576 1223.2838 2700082
-238.19327 600.47791 1237.0913 2962997
-229.60971 598.3078 1232.6206 4147271
-220.39758 594.29175 1224.3468 3226169
-212.72665 594.29175 1224.3468 3423548
-205.55228 595.73071 1227.3114 2765875
-200.32805 603.15326 1242.6031 3094840
-192.53932 603.14246 1242.5809 2765875
-184.55969 602.50763 1241.2729 2305324
-176.45958 601.40625 1239.004 3226426
-170.12633 606.50238 1249.5029 3423548
-162.66788 607.88531 1252.3521 3028790
-155.15857 609.2088 1255.0786 2765618
-147.09077 608.36371 1253.3375 2962997
-138.86497 606.73285 1249.9778 3028790
-131.32819 608.09747 1252.7891 2502702
-123.40609 607.73804 1252.0486 2897204
-114.91593 604.34241 1245.053 3423548
-107.19538 604.79431 1245.9839 2962997
-100.4143 611.03394 1258.8387 2699825
-92.320259 609.66675 1256.0221 2567983
-84.477669 609.86011 1256.4204 2634031
-76.637383 610.11145 1256.9382 2766130
-68.669083 609.28461 1255.2347 2700080
-60.86832 609.92261 1256.5492 2634287
-52.886265 608.6637 1253.9556 2502957
-44.97047 607.86121 1252.3022 2568494
-37.124409 607.86121 1252.3022 2436651
-29.222134 606.69409 1249.8978 2436651
-21.255781 602.85516 1241.989 2568237
-13.482187 603.20642 1242.7126 2568237
-5.6809301 601.58868 1239.3799 2897202
2.0786026 599.98199 1236.0697 3226167
9.8670988 602.6778 1241.6235 2634030
17.737669 605.79987 1248.0555 2041893
25.385277 601.72638 1239.6636 2107686
33.042278 599.73218 1235.5551 2568237
40.868221 600.97931 1238.1244 2831409
48.913433 604.53845 1245.4569 2765616
56.435558 601.54279 1239.2853 2634286
64.200066 601.54279 1239.2853 2568237
72.362122 604.86591 1246.1315 2239272
80.250061 605.47351 1247.3833 2107686
87.50663 601.63251 1239.4701 2502444
95.41082 602.50732 1241.2723 2765616
103.19672 602.55951 1241.3799 3094838
110.54026 600.20251 1236.524 2831409
118.84814 603.04736 1242.385 2765616
127.05857 605.07849 1246.5695 2962995
135.01651 605.74152 1247.9354 2700080
142.83521 605.74152 1247.9354 2831412
150.62752 605.63544 1247.7168 2831411
158.45273 605.66559 1247.7789 2765618
166.18907 605.36914 1247.1682 2502703
173.05656 602.07654 1240.3849 2634289
180.98006 602.58289 1241.4281 2700082
188.60609 602.09802 1240.4292 2634032
196.93898 603.81873 1243.9741 2502446
203.82425 601.13892 1238.4532 2436653
208.77423 593.15729 1222.0096 2765618
216.15048 592.38983 1220.4286 2831411
224.82304 595.1062 1226.0248 2305067
234.53819 600.31158 1236.7488 2370860
242.28679 600.31158 1236.7488 2634032
250.19971 600.70605 1237.5614 2502446
259.18329 603.57007 1243.4618 2305067
267.8356 605.51807 1247.4751 2173481
274.91888 603.909 1244.16 2568239
281.92554 602.22485 1240.6904 2370860
292.77625 608.62213 1253.87 2502446
300.44409 608.24146 1253.0857 2765618
308.26715 608.1864 1252.9723 2568239
315.86212 607.69519 1251.9603 2436653
322.90106 606.18402 1248.847 2370860
330.80267 606.32556 1249.1385 2568239
338.04507 605.28015 1246.9849 2634032
345.85782 605.28015 1246.9849 2634032
353.88422 605.64581 1247.7382 2436653
362.27805 606.61084 1249.7264 2568239
371.67496 609.1792 1255.0176 2699825
378.51306 607.53406 1251.6283 2700082
387.96051 610.05884 1256.8298 2568239
396.28549 610.75317 1258.2604 3094583
401.78098 607.14471 1250.8263 3028790
410.79214 608.88544 1254.4125 2239274
416.38477 605.58881 1247.6208 1976102
424.20154 605.58881 1247.6208 2173481
436.64249 612.07092 1260.9751 2436653
446.44775 614.6936 1266.3783 2633776
453.53244 613.54431 1264.0106 3686721
459.62222 611.11169 1258.9989 3554879
469.24768 613.38281 1263.6779 3620672
479.27835 616.09943 1269.2745 4212553
485.83698 614.33698 1265.6436 2634033
495.30161 616.24683 1269.5781 2305323
499.43277 611.56531 1259.9335 2765618
507.603 611.89844 1260.6198 2699825
519.45801 616.59515 1270.2959 2634032
527.12378 616.25262 1269.5902 2502446
540.80402 622.84717 1283.176 2305067
542.47345 615.61816 1268.2831 1910309
546.78107 611.54852 1259.8989 2041895
553.31696 610.05157 1256.8149 2370860
561.19135 610.05157 1256.8149 2371117
565.41852 606.14178 1248.76 2634032
569.67633 602.37115 1240.9918 2831411
571.44604 596.10645 1228.0854 2765875
577.51172 594.43011 1224.6318 3028790
589.19122 598.50018 1233.017 3423548
595.94672 597.52789 1231.0138 3028790
603.4032 597.27423 1230.4913 3160376
610.30164 596.48169 1228.8585 3226169
617.3017 595.80688 1227.4683 3028790
621.73456 592.70142 1221.0704 2831411
628.72412 592.07904 1219.7883 3291962
633.14246 589.07953 1213.6086 3423548
641.43433 589.71216 1214.9121 3226169
650.07611 590.64801 1216.8401 3160376
660.94415 593.56146 1222.8423 2831668
669.66162 594.49896 1224.7737 2765618
677.78229 594.89136 1225.582 3291962
683.01324 592.76703 1221.2057 3094583
690.66455 592.76703 1221.2057 2831411
698.92767 593.28644 1222.2758 2831411
707.80829 594.31311 1224.3909 2765875
712.36884 591.72925 1219.0676 2502446
727.50122 597.88861 1231.757 3226169
731.72272 595.04572 1225.9001 3555134
734.55164 591.14117 1217.8561 3291962
741.0885 590.27032 1216.062 3423548
746.31683 588.38556 1212.1791 3357755
753.9115 588.38556 1212.1791 3291962
763.14355 589.6507 1214.7854 3291962
770.18024 589.2113 1213.8802 2897204
778.42584 589.69641 1214.8795 2962997
786.83148 590.29205 1216.1067 3160633
790.90027 587.65399 1210.6719 3028790
798.01727 587.30939 1209.9619 3028790
806.20032 587.74847 1210.8665 3226169
815.99487 589.3432 1214.152 2897204
821.36865 587.74518 1210.8597 2700082
825.71509 585.44794 1206.1271 2239274
834.60913 586.38751 1208.0626 2239530
847.32379 589.97034 1215.444 2370860
851.71985 587.74896 1210.8676 2634289
859.30627 587.74896 1210.8676 2699568
871.06226 590.57587 1216.6914 2633775
877.08557 589.50073 1214.4764 2765618
882.67218 588.15308 1211.7001 3029047
890.50684 588.31366 1212.0309 3356728
898.10059 588.31366 1212.0309 3291192
909.12012 590.53894 1216.6154 3159606
915.15936 589.51904 1214.5143 2830641
924.38 590.54852 1216.6351 3554364
935.2981 592.63666 1220.937 3422778
951.05371 597.7312 1231.4327 3291192
956.67255 596.42413 1228.74 3225399
967.57349 598.40479 1232.8204 3291192
976.70691 599.26959 1234.6021 3291193
984.1875 599.11462 1234.2828 3291449
993.61005 600.13501 1236.385 3422779
1003.2733 601.28387 1238.7518 3685950
1007.4062 599.12604 1234.3063 3685950
1011.6887 597.08936 1230.1105 3751743
1019.3957 597.08936 1230.1105 3554364
1029.1803 598.29712 1232.5986 3291192
1044.8978 602.91022 1242.1024 3291192
1049.2719 600.95831 1238.0811 3291192
1049.7139 596.7995 1229.5132 3291192
1062.0238 599.39948 1234.8696 2764848
1074.2114 601.89325 1240.0073 2633262
1083.8654 602.94183 1242.1675 2304553
1087.9309 600.88892 1237.9381 2041125
1093.6034 599.74615 1235.584 2041125
1100.9761 599.54541 1235.1704 2106919
1101.9415 595.88275 1227.6246 2172711
1110.4581 596.32581 1228.5374 2172454
1114.8611 594.56897 1224.918 2304297
1120.0765 593.26648 1222.2346 2567469
1127.8375 593.32086 1222.3467 2764848
1135.496 593.32086 1222.3467 2896434
1146.2192 594.91168 1225.624 2764848
1153.4921 594.70227 1225.1926 2962227
1162.5479 595.40887 1226.6483 2962227
1170.5122 595.55084 1226.9408 3028020
1180.8448 596.88806 1229.6957 2962227
1188.9517 597.09009 1230.1119 2896434
1194.0839 595.8053 1227.4651 2896691
1215.2476 602.48505 1241.2264 2764848
1219.7311 600.86273 1237.8843 2699055
1228.4154 601.31726 1238.8207 2435883
1235.1665 600.82574 1237.8081 2699055
1243.4596 601.08569 1238.3436 3028020
1256.0194 603.39227 1243.0956 2830641
1257.5201 600.39026 1236.9109 2633519
1265.2698 600.39026 1236.9109 2435883
nan nan nan 16777215
nan nan nan 16777215
nan nan nan 16777215
nan nan nan 16777215
nan nan nan 16777215
nan nan nan 16777215
nan nan nan 16777215
nan nan nan 16777215
nan nan nan 16777215
nan nan nan 16777215
nan nan nan 16777215
nan nan nan 16777215
nan nan nan 16777215
nan nan nan 16777215
nan nan nan 16777215
nan nan nan 16777215
nan nan nan 16777215
-1077.6398 609.5249 1239.8115 2831411
-1067.7814 608.33392 1237.3889 2831411
-1058.6799 607.55981 1235.8143 2962997
-1043.7654 603.41364 1227.3809 2962997
-1032.5576 601.36487 1223.2135 2962997
-1024.6846 601.24207 1222.9637 2963254
-1015.5803 600.38959 1221.2297 2962997
-1005.2717 598.80682 1218.0103 2962997
-996.00623 597.82593 1216.015 2897204
-986.53143 596.70331 1213.7314 2962997
-977.44427 595.79944 1211.8929 2699825
-966.28076 593.60596 1207.4313 2568239
-957.29437 592.72577 1205.641 2634032
-948.93347 592.22205 1204.6163 2765618
-942.47876 592.90936 1206.0144 2831411
-933.67749 592.11963 1204.4081 2897204
-927.12952 592.75775 1205.7061 2831411
-923.35876 595.19653 1210.6667 2568496
-913.36334 593.63007 1207.4803 2700082
-905.44635 593.39954 1207.0115 2831411
-897.98016 593.46307 1207.1406 2568239
-890.41705 593.46307 1207.1406 2897204
-883.9718 594.21448 1208.6691 2962997
-876.45935 594.25525 1208.7521 2962997
-870.14093 595.11353 1210.4978 3160376
-861.42572 594.33313 1208.9104 2962997
-854.55109 594.82007 1209.9009 2239274
-852.52985 598.72418 1217.8422 2305067
-848.14856 601.02643 1222.525 2107688
-841.37488 601.65985 1223.8135 2107688
-832.48969 600.78119 1222.0262 2107688
-827.88861 603.00659 1226.5527 2962997
-825.28107 606.73926 1234.1453 3160376
-817.83569 606.95221 1234.5785 3160376
-810.56415 607.29944 1235.2848 3094583
-805.97986 609.68616 1240.1395 3028790
-792.68359 605.46509 1231.5535 2831668
-781.41174 602.72235 1225.9746 2568496
-771.49286 600.97919 1222.429 2897718
-761.14838 598.86621 1218.131 2765875
-753.26123 598.66333 1217.7184 2042152
-745.63184 598.66333 1217.7184 2107945
-735.85413 596.92065 1214.1736 2436910
-726.80029 595.73492 1211.7617 2436910
-718.27319 594.96039 1210.1863 2831925
-712.82635 596.74799 1213.8224 3160633
-708.18359 599.25452 1218.9209 3226426
-700.56207 599.2677 1218.9478 3358012
-692.45288 598.85944 1218.1173 3555391
-683.31274 597.54047 1215.4344 3555391
-678.95502 600.42108 1221.2937 3555391
-672.82751 601.78442 1224.0669 3094840
-667.34827 603.76575 1228.0969 2831668
-657.88239 602.14429 1224.7988 3029047
-647.85645 599.966 1220.368 3226427
-640.21051 599.966 1220.368 4015940
-635.76135 602.99811 1226.5355 3686976
-622.96783 598.09314 1216.5586 3094841
-614.71417 597.47943 1215.3102 3687234
-607.09991 597.47943 1215.3102 3029047
-602.76184 600.74463 1221.9519 3029047
-593.93719 599.56488 1219.5521 3292219
-587.30927 600.60065 1221.6591 3621184
-581.03162 602.02692 1224.5601 3226168
-568.27393 596.68719 1213.6987 2897202
-564.00317 600.23474 1220.9147 2765616
-556.57782 600.47644 1221.4064 2370858
-549.82697 601.46283 1223.4126 2962995
-541.01288 600.18811 1220.8198 2962995
-533.16888 599.96844 1220.373 2831409
-526.07886 600.60321 1221.6642 2699824
-514.93054 596.55518 1213.4302 3292219
-507.2616 596.47699 1213.2711 3358782
-501.05051 598.1369 1216.6475 2371630
