# .PCD v0.7 - Point Cloud Data file format
VERSION 0.7
FIELDS x y z rgb
SIZE 4 4 4 4
TYPE F F F U
COUNT 1 1 1 1
WIDTH 1288
HEIGHT 1
VIEWPOINT 0 0 0 1 0 0 0
POINTS 1288
DATA ascii
405.91202 609.11163 1151.3961 3291962
415.54086 612.6723 1158.1268 2634032
421.07141 610.17194 1153.4004 2501937
427.91705 609.62952 1152.375 2436400
435.31042 609.87238 1152.8341 3620673
450.05182 620.23395 1172.4204 3225915
459.93182 623.67059 1178.9167 2962743
470.45557 627.85779 1186.8318 3225915
475.99622 625.36792 1182.1251 2896950
482.90005 624.71771 1180.8961 2634034
489.22552 623.35028 1178.3113 2699570
496.03033 622.62518 1176.9406 2370606
505.37518 625.06293 1181.5486 2041127
512.77795 625.06293 1181.5486 1975333
518.62952 623.19891 1178.0251 1975075
526.25391 623.48767 1178.5709 2041124
531.46289 620.94635 1173.7671 2172711
535.33392 616.93243 1166.1797 1580574
532.90601 605.86536 1145.2598 1251866
539.33197 605.0246 1143.6704 989207
544.74921 603.08917 1140.012 923414
543.24451 593.63977 1122.1499 1252379
549.07922 592.34961 1119.7111 2502446
552.34918 588.36005 1112.1697 1778723
561.20593 590.3468 1115.9252 1515551
573.65857 596.02069 1126.6505 1516065
584.12384 599.51691 1133.2593 2239531
592.57538 600.88715 1135.8495 2239531
597.98267 599.17456 1132.6122 1844773
605.39355 599.48627 1133.2014 2305324
612.49341 599.48627 1133.2014 2634289
619.75183 599.63971 1133.4915 2831925
628.26953 600.9942 1136.0519 3094840
637.4198 602.91681 1139.686 3489340
643.25293 601.69391 1137.3744 3620925
650.79376 602.07764 1138.0999 3620927
655.56213 599.91595 1134.0137 3489341
663.73248 600.88055 1135.8369 3291960
670.84888 600.88055 1135.8369 3160374
676.51404 599.5943 1133.4056 3160374
682.77203 598.8548 1132.0077 3028788
688.7113 597.85382 1130.1156 3160373
695.20953 597.35345 1129.1698 3094581
701.08246 596.33136 1127.2377 2897459
703.349 592.29266 1119.6034 2830385
706.11578 588.75085 1112.9083 2567469
714.677 590.06232 1115.3875 3291192
727.4682 594.80707 1124.3563 3356985
739.55817 598.89294 1132.0798 2962227
743.55182 596.4071 1127.3809 3028020
752.53986 597.93628 1130.2715 3093813
753.1178 592.81702 1120.5946 3225142
762.72241 594.83203 1124.4036 2896691
769.76715 594.83203 1124.4036 2633519
776.84552 594.85779 1124.4523 3159606
781.97064 593.40088 1121.6982 3159606
791.36365 595.17969 1125.0608 2896434
799.88232 596.27539 1127.132 2764848
807.23462 596.49005 1127.5376 2699055
818.76495 599.76141 1133.7216 2370090
824.40881 598.70166 1131.7183 2172711
833.45935 600.11298 1134.386 2304297
841.53345 600.80322 1135.6908 2764848
841.35028 595.63605 1125.9235 2830641
849.76215 596.58923 1127.7251 2962227
858.86145 598.00525 1130.4019 3159606
866.01105 598.05176 1130.4897 3291192
871.69574 597.09399 1128.6793 3291192
879.33685 597.48102 1129.4109 3554364
877.77051 591.65564 1118.3993 3620157
887.91425 593.75311 1122.3641 3422778
896.74219 594.94464 1124.6165 3291192
908.18323 597.83783 1130.0853 3356985
913.11786 596.43622 1127.4359 3488571
920.0274 596.3363 1127.2471 3554364
933.40326 600.39722 1134.9233 3620157
935.16315 596.98145 1128.4666 3422778
940.65094 595.97888 1126.5714 3356985
948.81232 596.67255 1127.8827 3356985
957.84454 597.89954 1130.202 3028020
963.87018 597.24561 1128.9658 2896434
971.85425 597.80579 1130.0248 3093813
977.73975 597.07635 1128.646 2896434
987.07355 598.44812 1131.239 2699055
994.16119 598.44812 1131.239 2962227
1003.4111 599.7406 1133.6821 2962227
1019.8863 605.30304 1144.1968 2633262
1021.8801 602.25317 1138.4316 2238504
1025.9514 600.46149 1135.0448 1843746
1034.0695 601.04657 1136.1508 1646367
1043.3835 602.31409 1138.5468 1843746
1049.2028 601.56061 1137.1226 2501676
1052.9225 599.6217 1133.4574 2633262
1055.4637 597.04218 1128.5813 2633262
1063.8263 597.76788 1129.9532 2435883
1069.8232 597.1637 1128.811 2304297
1077.1467 597.30292 1129.0742 1909539
1093.2471 602.27557 1138.474 1844003
1091.8336 597.59784 1129.6317 1909539
1097.4673 596.81268 1128.1476 2041125
1104.7615 596.93481 1128.3784 2567469
1113.3722 597.76215 1129.9424 3225399
1117.5645 596.22192 1127.0309 2501676
1132.4277 600.35822 1134.8496 1975332
1136.7823 598.90643 1132.1053 2041125
1142.8702 598.38019 1131.1106 1843746
1149.957 598.38019 1131.1106 2041125
1165.7253 602.87 1139.5977 2501676
nan nan nan 16777215
nan nan nan 16777215
nan nan nan 16777215
nan nan nan 16777215
nan nan nan 16777215
nan nan nan 16777215
nan nan nan 16777215
nan nan nan 16777215
nan nan nan 16777215
nan nan nan 16777215
nan nan nan 16777215
nan nan nan 16777215
nan nan nan 16777215
nan nan nan 16777215
nan nan nan 16777215
nan nan nan 16777215
nan nan nan 16777215
nan nan nan 16777215
nan nan nan 16777215
-958.62213 598.95532 1119.0151 2568496
-951.88397 599.12708 1119.3361 2962997
-944.87103 599.12708 1119.3361 3160376
-937.10431 598.64563 1118.4365 3620927
-930.09692 598.64563 1118.4365 3884098
-917.70532 595.15375 1111.9127 4015942
-904.41864 591.02362 1104.1965 3621184
-898.20306 591.48627 1105.0609 4213321
-890.11572 590.71393 1103.6179 4476493
-882.77356 590.42786 1103.0835 3686977
-878.21594 592.01447 1106.0476 3094840
-863.78174 586.91541 1096.5211 3686977
-862.39343 590.66992 1103.5356 3818563
-857.77069 592.25195 1106.4913 3226426
-853.84821 594.34711 1110.4058 3226426
-846.25378 593.89984 1109.5701 3358011
-840.40295 594.67883 1111.0255 3489598
-835.14343 595.89288 1113.2936 3555392
-830.37317 597.47931 1116.2576 4015943
-822.86951 597.10925 1115.5662 3753027
-816.63788 597.66388 1116.6023 3819333
-810.42865 598.24451 1117.6871 3950919
-803.77582 598.505 1118.1738 4082504
-796.77008 598.505 1118.1738 3621696
-786.7262 596.20258 1113.8722 3686975
-780.67651 596.91296 1115.1995 3555645
-773.38263 596.67627 1114.7572 3687487
-766.29883 596.59882 1114.6124 3950403
-760.75409 597.72913 1116.7242 3555645
-749.6933 594.50623 1110.703 3226680
-744.86285 596.20996 1113.886 3226680
-737.68536 596.04938 1113.5861 3292473
-732.4209 597.44635 1116.1959 3292729
-725.84412 597.78937 1116.8368 3358269
-719.2334 598.1109 1117.4375 3423802
-716.6991 601.862 1124.4456 2897715
-709.47943 601.71387 1124.1688 3226680
-707.30414 605.88373 1131.9594 3226424
-702.93512 608.23999 1136.3615 2962995
-696.96564 609.24542 1138.2399 2897203
-683.01398 603.22192 1126.9863 3028532
-676.63043 603.82642 1128.1157 3226166
-665.04694 599.75433 1120.5078 3094581
-655.60913 597.5509 1116.3912 3029301
-648.61462 597.5509 1116.3912 2766130
-639.6922 595.75543 1113.0369 3095094
-632.39874 595.45416 1112.474 3621438
-628.10797 598.005 1117.2396 2897715
-618.66846 595.65607 1112.8512 2831922
-610.52222 594.51294 1110.7156 3818817
-606.10565 597.01727 1115.3943 4213575
-601.08862 598.98163 1119.0642 3160887
-594.34888 599.25543 1119.5758 3029301
-587.70569 599.63422 1120.2834 2700336
-579.76941 598.68701 1118.5138 2831922
-573.84302 599.81738 1120.6256 2963508
-567.18384 600.20032 1121.3411 3160887
-560.14929 600.19073 1121.3231 3358266
-552.13983 599.12292 1119.3282 3489852
-544.26221 598.17255 1117.5527 3621438
-536.03979 596.81354 1115.0137 2896945
-528.578 596.27673 1114.0107 2897971
-521.59839 596.27673 1114.0107 4410954
-514.52765 596.17114 1113.8135 4016196
-507.11676 595.66315 1112.8644 2700592
-503.69901 599.89673 1120.7739 3423805
-497.50195 600.89307 1122.6354 3424058
-489.81613 600.09412 1121.1427 3621438
-479.78751 596.3598 1114.166 4345161
-475.13171 599.29218 1119.6444 3160887
-468.67245 600.00354 1120.9735 3095094
-466.30334 606.05255 1132.2747 2897715
-459.27463 606.13879 1132.4358 2831922
-451.46362 605.17902 1130.6427 3358266
-441.8302 601.70685 1124.1558 3884610
-432.36295 598.35211 1117.8882 4081989
-424.60065 597.28534 1115.8951 4147782
-418.11038 598.00208 1117.2343 4674129
-407.22833 592.35504 1106.684 3950918
-402.78812 596.04492 1113.5776 3292732
-401.11948 604.03851 1128.512 3292732
-395.82288 606.75769 1133.5922 3687490
-384.62659 600.36737 1121.6532 3753283
-376.24728 598.21802 1117.6377 3884869
-368.55511 597.10046 1115.5498 3490111
-359.77423 594.14172 1110.022 3424319
-353.35736 595.0473 1111.7139 3226937
-346.39212 595.0473 1111.7139 3358523
-337.66248 591.9541 1105.9349 3490366
-330.56149 591.6463 1105.3599 3490109
-323.75128 591.85693 1105.7534 3424059
-317.99597 594.04749 1109.8458 3292473
-309.13824 590.41071 1103.0514 3226680
-301.71289 589.40582 1101.174 3555645
-296.00403 591.78564 1105.6201 3884610
-289.17404 591.98431 1105.9913 3292473
-282.78723 593.12231 1108.1174 3489852
-275.34149 592.04065 1106.0966 3424059
-269.0748 593.50385 1108.8302 3490365
-262.33444 593.97205 1109.705 3424316
-255.18771 593.52069 1108.8617 4213832
-246.99466 590.5423 1103.2972 5266520
-239.76877 589.77142 1101.8571 3753281
-232.49092 588.8233 1100.0857 3292987
-226.64125 591.54486 1105.1703 2700593
-219.15494 590.03156 1102.343 3160887
-212.03285 589.43225 1101.2234 3489852
-205.0128 589.08594 1100.5763 3489852
-199.09885 592.00433 1106.0287 3095094
-192.64204 593.46088 1108.75 3226680
-185.758 593.66095 1109.1238 3160887
-179.96986 597.5152 1116.3246 2634543
-172.97575 597.5152 1116.3246 2239785
-167.12982 601.6485 1124.0468 2831922
-159.33228 598.81085 1118.7452 2963508
-151.95404 597.36047 1116.0355 2634543
-144.91583 597.17145 1115.6823 2437164
-137.87579 596.95514 1115.2782 2963508
-130.33191 594.41785 1110.5378 3160887
-123.49331 594.99249 1111.6115 2568750
-116.52872 594.99249 1111.6115 2963765
-109.53601 594.83984 1111.3262 2897972
-102.57322 594.83984 1111.3262 2963508
-95.2052 592.31879 1106.6162 2766386
-87.929657 590.02222 1102.3256 2108199
-80.247856 584.37573 1091.7764 2437420
-73.191513 582.65601 1088.5635 2896945
-65.885956 578.39508 1080.6029 2502700
-59.115643 578.39508 1080.6029 2568493
-52.917549 584.7179 1092.4156 3160631
-46.546947 590.72992 1103.6477 2502445
-39.234741 584.80487 1092.5781 2370858
-32.159622 580.65613 1084.8271 2634030
-25.397228 581.44336 1086.2979 2831666
-18.588446 581.35608 1086.1348 2962995
-11.906426 587.42212 1097.4679 3752511
-5.0167832 585.82623 1094.4863 3423546
1.8489538 588.513 1099.506 2699827
8.7119598 586.77936 1096.267 3620928
15.633006 588.76007 1099.9675 3094327
22.560118 589.68732 1101.7 2634033
29.654346 593.5249 1108.8695 2962738
36.572807 593.05548 1107.9926 2699566
43.266701 589.67523 1101.6772 2634029
50.197338 590.00763 1102.2983 2568237
57.188568 590.8858 1103.939 2699823
64.105087 590.8858 1103.939 2305065
71.385941 593.91699 1109.6021 2370858
78.677879 596.49414 1114.417 2502444
85.894951 598.12988 1117.473 2765616
92.773628 597.34027 1115.9978 2831409
99.43425 595.35577 1112.2902 2370858
106.51734 595.99506 1113.4845 2634287
113.54843 596.28259 1114.0217 3357753
120.46278 595.95929 1113.4177 3489339
127.26124 595.12952 1111.8674 3357753
134.70187 597.23309 1115.7975 2370858
140.97763 594.21906 1110.1665 2568237
147.8486 593.87939 1109.5319 2502444
155.09561 595.01288 1111.6495 2502444
162.05933 595.00879 1111.6418 2436651
169.04259 595.07385 1111.7634 2305065
176.30504 596.07764 1113.6388 2568237
183.19321 595.78778 1113.0973 2765616
190.28137 596.14581 1113.7661 3029044
196.41228 593.58551 1108.9828 3291960
202.3815 590.72821 1103.6445 3620925
209.82108 592.20966 1106.4124 3555131
217.31833 593.75403 1109.2976 2568493
224.28435 593.7962 1109.3765 2502444
231.1606 593.60529 1109.0198 2831411
238.63637 594.92017 1111.4763 2239274
246.25229 596.49988 1114.4277 2041895
252.97829 595.89636 1113.3002 2502446
259.83798 595.63165 1112.8055 2634032
266.13925 594.13409 1110.0078 2370860
273.43658 594.87994 1111.4011 2634289
280.37173 594.82025 1111.2897 2700082
287.44363 595.04657 1111.7125 2239531
294.08783 594.39771 1110.5002 2239531
301.59622 595.48511 1112.5319 2765875
308.66235 595.66998 1112.8772 2634289
315.62427 595.65002 1112.8398 2502703
322.23276 594.97821 1111.5848 2568496
329.39099 595.32849 1112.2393 2436910
337.25156 596.90741 1115.189 2568496
345.28949 598.72968 1118.5935 2436910
353.66641 601.05554 1122.939 2371117
359.69119 599.37128 1119.7922 2634546
367.68863 600.97565 1122.7897 2568496
375.36075 601.99811 1124.6998 2436910
383.2005 603.2467 1127.0326 2568239
396.362 612.67621 1144.6495 2436653
402.24606 610.72144 1140.9974 2568239
408.63712 609.59113 1138.8857 3159093
416.65717 610.88806 1141.3088 1975332
423.80786 610.88806 1141.3088 1844258
430.81744 610.68817 1140.9354 2962740
438.15707 610.9549 1141.4337 2041641
453.40982 622.06976 1162.1993 2370606
463.94293 626.46039 1170.4022 2831414
469.07794 623.5387 1164.9437 2634035
476.37668 623.5387 1164.9437 3028536
483.45209 623.25079 1164.4058 2633778
489.05209 621.09766 1160.3832 2436397
497.62961 622.7337 1163.4397 2568239
505.10538 622.96368 1163.8694 2634031
513.44861 624.24176 1166.2572 1844771
520.75562 624.24176 1166.2572 1778978
524.44501 619.96533 1158.2677 2042151
531.7019 619.96533 1158.2677 1910565
532.59039 612.63971 1144.5813 1449758
536.216 608.61548 1137.063 1252379
542.76221 607.96814 1135.8536 1055000
543.07196 600.44238 1121.7933 1910309
545.64148 595.5755 1112.7007 1976102
555.26178 598.4303 1118.0343 1252379
559.33325 595.30823 1112.2014 1252636
566.27271 595.27795 1112.1448 1844516
573.70703 595.76221 1113.0496 1976360
583.61346 598.7713 1118.6713 2108199
590.44836 598.59497 1118.3419 1779234
598.76678 599.90912 1120.7971 2042151
606.39587 600.51019 1121.92 2173481
614.74408 601.80145 1124.3324 1647651
622.32776 602.32355 1125.3079 2173739
630.40717 603.30829 1127.1477 2634289
637.59979 603.43201 1127.3788 2897716
645.00146 603.74866 1127.9703 2897202
649.32782 601.21106 1123.2294 2897202
653.61621 598.69299 1118.525 2962995
660.57581 598.64923 1118.4432 3028788
669.19989 600.09894 1121.1517 3028788
674.95435 598.97211 1119.0464 3028788
681.11414 598.22424 1117.6493 3291960
687.8902 598.02747 1117.2816 3291960
694.09351 597.34174 1116.0005 3291959
700.82147 597.1167 1115.5801 3488315
705.40961 595.09088 1111.7953 3488571
711.38385 594.26263 1110.2479 3225399
721.85065 597.16705 1115.6741 2501676
726.67914 595.39594 1112.3652 2633262
731.34241 593.52448 1108.8688 2764848
739.39069 594.40948 1110.5222 2896434
746.72406 594.70862 1111.0811 2896434
753.51025 594.5705 1110.823 3159606
761.53003 595.39935 1112.3716 2764848
768.49939 595.39935 1112.3716 2764848
778.86383 598.00604 1117.2416 2830641
784.83777 597.22534 1115.7831 2633262
790.98602 596.5899 1114.5959 2698799
798.16376 596.73529 1114.8676 2699055
807.70697 598.63129 1118.4098 2567469
817.20856 600.46417 1121.8341 2435883
823.63385 600.02466 1121.0129 2106918
829.96472 599.52435 1120.0782 1909539
829.83618 594.40564 1110.515 2962227
835.64795 593.59155 1108.9941 2962227
848.45807 597.72119 1116.7094 3094070
855.52802 597.77246 1116.8052 3159606
859.85614 595.92273 1113.3494 3356985
868.91052 597.35187 1116.0194 3028277
875.90271 597.35187 1116.0194 2633262
882.04346 596.77582 1114.9432 3159606
889.05444 596.79297 1114.9752 3159606
893.49194 595.09576 1111.8044 2896691
899.69733 594.5932 1110.8655 3159606
911.77905 597.95215 1117.1409 3159606
912.70099 593.99701 1109.7516 3291192
919.67645 594.01154 1109.7787 3356985
926.29272 593.79553 1109.3752 3225399
933.96252 594.25323 1110.2302 3159863
944.68451 596.63171 1114.674 2830898
947.65643 594.11652 1109.975 2764848
956.66742 595.39655 1112.3663 2501676
964.84369 596.14221 1113.7595 2567469
975.6236 598.47443 1118.1167 2501676
983.79083 599.18213 1119.4388 2764848
997.02502 602.94391 1126.4669 3093813
1004.2104 603.02069 1126.6104 3159606
1008.8606 601.58447 1123.9271 2962227
1014.9324 601.01013 1122.8541 3028020
1019.916 599.80371 1120.6002 3159606
1030.073 601.63538 1124.0222 2830641
1037.3171 601.75244 1124.241 2699055
1038.8115 598.55499 1118.2672 2765105
1043.8085 597.40497 1116.1187 3291192
1049.1243 596.45154 1114.3374 3291192
1052.9017 594.64191 1110.9564 3291192
1056.5145 592.76367 1107.4474 2764848
1070.9436 596.93896 1115.2479 2435113
1086.3854 601.62079 1123.995 2106405
1091.3076 600.45441 1121.8158 2040356
1093.058 597.56885 1116.4248 1777697
1101.4922 598.35077 1117.8856 1777697
1108.2155 598.19928 1117.6027 1975332
1114.4967 597.81256 1116.8801 2238504
1122.2976 598.24078 1117.6802 2238504
1130.3885 598.81732 1118.7573 2172711
1138.6853 599.49512 1120.0236 2238504
1150.3346 601.91888 1124.5519 2304297
nan nan nan 16777215
nan nan nan 16777215
nan nan nan 16777215
nan nan nan 16777215
nan nan nan 16777215
nan nan nan 16777215
nan nan nan 16777215
nan nan nan 16777215
nan nan nan 16777215
nan nan nan 16777215
nan nan nan 16777215
nan nan nan 16777215
nan nan nan 16777215
nan nan nan 16777215
nan nan nan 16777215
nan nan nan 16777215
nan nan nan 16777215
nan nan nan 16777215
nan nan nan 16777215
-946.85406 598.49091 1105.2782 3489341
-933.04858 594.10968 1097.1871 3818306
-926.67578 594.43134 1097.7811 3489342
-924.11847 597.22363 1102.9379 3423807
-910.33289 592.74689 1094.6703 4016201
-900.18872 590.59119 1090.6892 3950409
-893.10065 590.42297 1090.3785 3292219
-885.18408 589.70007 1089.0436 3818820
-876.89203 588.71393 1087.2224 4279114
-867.97083 587.28668 1084.5865 4015942
-864.28394 589.40649 1088.5013 3621184
-859.49982 590.80573 1091.0854 3621184
-858.88129 595.11377 1099.0415 3950149
-846.54968 591.31 1092.0167 3621184
-837.47223 589.73566 1089.1093 3226426
-831.30853 590.20422 1089.9746 3160633
-827.93854 592.6803 1094.5474 3423805
-821.48865 592.97467 1095.0911 4081992
-825.6358 600.98767 1109.8893 3950149
-813.34534 597.07007 1102.6543 3555135
-811.61853 600.90649 1109.7393 3950406
-804.66565 600.90649 1109.7393 4279115
-791.11823 595.93884 1100.5652 4213065
-785.74939 597.09888 1102.7075 3884356
-776.21832 595.08856 1098.9949 4015941
-768.73999 594.63 1098.1481 3687231
-762.22705 594.91669 1098.6775 3358522
-756.15424 595.55518 1099.8567 3424059
-753.28241 598.74988 1105.7565 2897715
-746.35455 598.74988 1105.7565 3292473
-737.53192 597.21564 1102.9231 3358266
-730.26422 596.9234 1102.3834 3292473
-725.13745 598.39227 1105.0961 3292473
-718.57513 598.69336 1105.6522 3555135
-710.56219 597.78003 1103.9655 3687231
-703.36218 597.53931 1103.5209 3687231
-698.71515 599.48431 1107.1128 3555645
-699.20166 605.91687 1118.9923 2700336
-698.54028 611.47491 1129.2568 3292473
-689.2287 609.49719 1125.6044 3292473
-677.0163 604.88684 1117.0901 3555645
-668.88171 603.86157 1115.1967 3753280
-660.07745 602.20367 1112.1349 3555132
-651.20874 600.45099 1108.8981 2897715
-645.59454 601.69373 1111.1931 3489852
-638.60248 601.66534 1111.1407 3884610
-629.09784 599.24304 1106.6672 3555901
-620.53113 597.67017 1103.7625 3621438
-613.46289 597.52124 1103.4875 3029301
-608.33447 599.27991 1106.7354 3753024
-600.73181 598.61371 1105.505 3621438
-594.66675 599.48187 1107.1084 2963508
-590.13257 601.93213 1111.6334 3753024
-583.16785 601.93213 1111.6334 3687231
-575.56793 601.26862 1110.4081 3424059
-569.49518 602.20374 1112.135 3358266
-562.52734 602.20374 1112.135 3555645
-555.06812 601.67108 1111.1514 3489852
-548.54413 602.15161 1112.0387 3621438
-541.57684 602.15161 1112.0387 3489852
-533.88116 601.33118 1110.5236 3028532
-523.89069 597.87018 1104.132 3029557
-518.96832 600.1778 1108.3936 4410443
-512.00488 600.15552 1108.3524 4147273
-503.49109 598.29041 1104.908 3423806
-497.96234 599.96979 1108.0094 3423805
-495.39304 605.31274 1117.8766 3160632
-486.13638 602.52057 1112.7201 3489851
-477.95203 600.99548 1109.9037 3687487
-473.03165 603.59033 1114.6957 3029301
-466.64334 604.36169 1116.1202 3095094
-460.78799 605.8573 1118.8823 2634543
-455.01743 607.51227 1121.9387 2897715
-449.07468 608.98572 1124.6598 3489852
-437.08124 602.1701 1112.0729 3753024
-429.58511 601.42999 1110.7061 3819074
-422.76672 601.62994 1111.0753 4740176
-416.314 602.36572 1112.4342 4214090
-407.22833 599.25208 1106.684 3490111
-394.30798 590.28992 1090.1328 3095353
-391.35947 596.20306 1101.0531 3555904
-385.75015 598.20215 1104.745 3621954
-378.71371 598.02081 1104.41 3819076
-371.80048 598.03076 1104.4285 3029560
-364.88086 598.03076 1104.4285 3358525
-355.61777 594.1156 1097.198 4016455
-345.31223 588.27008 1086.4027 3950660
-343.32779 596.65033 1101.8792 3226937
-336.66391 597.07556 1102.6644 3753281
-329.65344 596.89093 1102.3235 3819074
-321.38968 594.38062 1097.6875 3358523
-313.46344 592.39838 1094.0267 3029301
-304.70657 588.72266 1087.2385 3358266
-299.36371 591.62585 1092.6001 3753024
-292.1329 590.84656 1091.1609 3753024
-285.38544 591.03082 1091.5012 3226680
-278.77817 591.52173 1092.4077 3292473
-271.16556 589.8504 1089.3212 3489852
-265.99945 593.55188 1096.157 3095351
-260.04916 595.65338 1100.038 3753280
-250.93935 590.4353 1090.4014 4082245
-242.13628 585.66705 1081.5955 5266776
-234.76462 584.18616 1078.8606 4411210
-229.40085 587.76196 1085.4644 4279625
-222.07654 586.37964 1082.9114 3819074
-216.26747 589.03705 1087.8191 3226680
-210.07698 590.7948 1091.0653 3358265
-203.24112 590.7948 1091.0653 3818817
-196.37581 590.70624 1090.9017 3029301
-190.79446 594.61279 1098.1162 3095094
-184.13934 595.33997 1099.4591 3160887
-178.97989 601.14722 1110.1838 2371628
-171.37993 598.89557 1106.0256 2371371
-164.60373 599.45428 1107.0574 2437164
-157.60295 599.20819 1106.6029 2371371
-151.02771 600.63184 1109.2321 2437420
-143.87605 599.78986 1107.6771 2700336
-136.38712 597.38519 1103.2362 2963508
-129.2262 596.23724 1101.1162 2963508
-122.26144 595.91595 1100.5228 2765873
-115.74317 597.86255 1104.1178 2502957
-108.64225 596.85559 1102.2582 2765873
-102.13209 599.1778 1106.5468 3160631
-94.496597 594.75549 1098.3798 3029301
-86.906067 589.94366 1089.4934 2568493
-79.44075 585.23395 1080.7957 2107943
-72.140083 580.97253 1072.9258 3029044
-65.189705 578.94623 1069.1836 3028788
-58.740299 581.41443 1073.7418 2700080
-52.167397 583.14056 1076.9296 2568237
-45.445312 583.46429 1077.5275 2568237
-38.761837 584.48315 1079.4091 2305065
-31.999004 584.48315 1079.4091 2305065
-25.27232 585.32031 1080.9552 2699823
-18.458317 584.00781 1078.5312 2700080
-11.717611 584.83777 1080.064 3423546
-4.9538283 585.21014 1080.7517 3357753
1.8249588 587.63885 1085.2369 3094581
8.6632729 590.29407 1090.1405 4015683
15.375163 585.79144 1081.8252 2766129
22.309782 589.93372 1089.475 2107686
29.444296 596.1825 1101.0151 2897460
36.129738 592.69226 1094.5695 3226426
42.58313 587.11621 1084.2717 3094327
49.377792 587.13251 1084.3018 3291962
56.245003 587.90302 1085.7249 2962998
63.332325 590.55981 1090.6313 2370858
70.321587 591.87384 1093.058 2568237
77.57457 594.97729 1098.7894 2765616
84.203529 593.17877 1095.468 3094581
90.815247 591.53918 1092.4399 2963252
98.226807 594.97406 1098.7834 3094581
105.74557 598.56592 1105.4167 3028788
113.01533 600.39325 1108.7915 2897459
119.37521 597.4552 1103.3655 2962995
126.22009 597.13336 1102.7711 3620925
132.25914 593.23035 1095.5632 2239272
139.5575 595.08228 1098.9833 2173479
146.44298 595.08228 1098.9833 2568237
153.45676 595.58026 1099.903 2502444
160.29181 595.37158 1099.5176 2502444
167.09741 595.07526 1098.9703 2436651
173.9828 595.07526 1098.9703 2502444
181.67519 597.73035 1103.8737 2502444
187.93387 595.64667 1100.0256 1515549
193.70872 592.2312 1093.718 1449756
200.05142 590.72583 1090.938 1581342
205.54277 586.88916 1083.8524 3291960
211.75493 585.29016 1080.8994 3555132
221.78781 594.02344 1097.0278 2502444
228.66104 594.02344 1097.0278 2897204
235.3773 593.62756 1096.2968 2765618
243.42201 596.50952 1101.6191 2962997
250.76894 597.56982 1103.5773 2962997
256.65692 595.18988 1099.182 2897204
263.56702 595.24274 1099.2795 2897204
272.13052 598.93182 1106.0925 2568496
279.00058 598.8031 1105.8549 2634289
284.67267 596.17181 1100.9955 2371117
290.49863 593.97968 1096.947 2173738
299.01138 597.25562 1102.9969 3489598
305.25613 595.95569 1100.5962 3423805
310.31122 592.44177 1094.1068 2831668
317.45453 592.98047 1095.1017 2897205
324.31567 592.98047 1095.1017 2700082
331.88815 594.25415 1097.4539 2897461
339.68494 595.86951 1100.4371 2700082
347.63281 597.68042 1103.7815 2371117
354.20587 597.10309 1102.7153 2700082
361.66528 598.01343 1104.3965 2568496
370.12427 600.51135 1109.0096 2634289
377.79611 601.6637 1111.1377 2436653
390.46432 610.58734 1127.6177 1844259
398.17203 611.57471 1129.4412 2239273
405.9841 612.68506 1131.4917 2634032
413.33136 613.06793 1132.1987 2173737
420.64499 613.38879 1132.7914 2040615
429.13995 615.39313 1136.4929 2961974
435.14526 613.82007 1133.5878 3225146
442.24753 613.82007 1133.5878 3422525
456.77719 623.96594 1152.325 3027766
464.55664 624.71875 1153.7152 2435628
471.83804 624.78894 1153.8448 2501166
478.5528 624.11804 1152.6058 2502189
485.21527 623.3999 1151.2795 2304813
491.20697 621.85358 1148.4238 2567985
495.09326 617.7251 1140.7994 2567985
504.25125 620.19781 1145.3661 2765621
511.19473 619.91577 1144.8452 3028536
516.50073 617.68329 1140.7223 3818053
524.32782 618.48547 1142.2037 3357501
531.48407 618.48547 1142.2037 2173738
530.43243 609.06091 1124.7987 1647651
537.32147 608.88165 1124.4677 1713187
540.78326 604.8736 1117.0657 1844516
544.76251 601.53943 1110.9082 2239788
550.4455 600.14691 1108.3365 2239274
556.7052 599.41003 1106.9757 1844773
563.91492 599.70166 1107.5142 1778980
569.52014 598.30054 1104.9266 2042152
576.44287 598.30054 1104.9266 2305324
584.65625 599.62421 1107.3712 2042153
593.10217 601.15259 1110.1938 1778981
600.48816 601.58374 1110.99 2107945
608.96509 603.08533 1113.7631 2831668
616.54211 603.67169 1114.8461 2765617
624.27582 604.39667 1116.1849 2699825
631.86871 604.97083 1117.2452 2370858
637.30316 603.48846 1114.5076 2370858
641.56842 600.94312 1109.8069 2699822
647.28052 599.79297 1107.6829 2699823
653.39917 599.03998 1106.2922 2436651
660.93567 599.58899 1107.3062 2041893
668.73175 600.35968 1108.7295 2305065
672.56787 597.59601 1103.6256 2634030
678.70844 596.91534 1102.3685 2831408
686.95038 598.07782 1104.5154 2897204
693.63885 597.87811 1104.1466 3225143
700.5567 597.87811 1104.1466 3356985
701.41956 592.76117 1094.6968 3291192
715.03174 598.41327 1105.1349 2567726
720.54346 597.24268 1102.973 2567469
724.43683 594.76562 1098.3984 2699055
731.63782 595.02515 1098.8778 2830641
739.08783 595.48059 1099.7189 2764848
745.97791 595.48059 1099.7189 2830641
753.75342 596.18091 1101.0122 2896434
760.69336 596.21362 1101.0726 2830641
768.3349 596.79071 1102.1384 2371373
776.20197 597.53119 1103.5059 2502446
783.74835 598.01385 1104.3972 2567726
791.62201 598.7356 1105.7301 2830898
800.43951 600.15247 1108.3468 2567470
807.48511 600.22791 1108.4861 2633005
812.66272 598.92535 1106.0806 2634032
818.63794 598.22766 1104.7921 2764848
824.15723 597.21124 1102.915 2633262
830.07764 596.50012 1101.6017 3225143
836.56244 596.20288 1101.0527 2962227
843.46082 596.20288 1101.0527 2698798
849.66473 595.71594 1100.1534 2764848
854.59949 594.35406 1097.6384 2830641
858.95776 592.61639 1094.4293 2567469
865.88678 592.66565 1094.5204 2435883
876.09528 594.94128 1098.7229 2699055
880.83545 593.49689 1096.0554 2962227
891.37817 595.95428 1100.5938 2764848
901.75854 598.2663 1104.8634 2765105
906.75092 596.99567 1102.5168 2962227
908.78607 593.81189 1096.6372 3159606
915.57758 593.7605 1096.5422 3356985
919.15369 591.64026 1092.6266 3093813
924.72827 590.82806 1091.1267 2764848
935.63574 593.41022 1095.8954 2764848
943.99341 594.3493 1097.6296 2567469
951.4314 594.70001 1098.2772 2501676
961.48871 596.67102 1101.9174 2699055
972.2674 599.05847 1106.3264 2699055
980.86798 600.07965 1108.2123 2896434
986.00952 598.98511 1106.1909 3028277
993.38977 599.25635 1106.6918 3028020
1000.5345 599.38269 1106.9252 2962227
1002.5572 596.46002 1101.5277 3291192
1004.6234 593.60303 1096.2515 3883329
1011.6375 593.6886 1096.4094 3817536
1026.3416 598.25543 1104.8434 2896434
1036.1345 599.9176 1107.9131 2764848
1043.0759 599.9176 1107.9131 2830641
1047.4648 598.45929 1105.2198 2830641
1049.6963 595.79559 1100.3005 2633262
1055.2446 595.03687 1098.8994 2370090
1066.0049 597.20795 1102.9089 2172711
1072.9149 597.20795 1102.9089 2106918
1082.7715 598.83752 1105.9183 2106918
1087.9397 597.86993 1104.1315 2304297
1094.5479 597.70087 1103.8192 2369834
1102.996 598.53235 1105.3549 2304297
1113.0431 600.21576 1108.4637 2304297
1119.9879 600.21576 1108.4637 2304297
1129.9187 601.80615 1111.4008 2238504
1139.7228 603.30994 1114.1779 2304297
nan nan nan 16777215
nan nan nan 16777215
nan nan nan 16777215
nan nan nan 16777215
nan nan nan 16777215
nan nan nan 16777215
nan nan nan 16777215
nan nan nan 16777215
nan nan nan 16777215
nan nan nan 16777215
nan nan nan 16777215
nan nan nan 16777215
nan nan nan 16777215
nan nan nan 16777215
nan nan nan 16777215
nan nan nan 16777215
nan nan nan 16777215
nan nan nan 16777215
nan nan nan 16777215
-939.76257 600.84509 1097.0001 3489340
-920.69458 592.99078 1082.6599 3884099
-915.87152 594.26263 1084.9821 3620670
-911.24792 595.68384 1087.5769 3489340
-903.83459 595.28912 1086.8562 3621183
-892.82452 592.50146 1081.7666 3358012
-883.10712 590.53564 1078.1775 3292219
-874.88416 589.54651 1076.3716 3423805
-868.66437 589.90234 1077.0212 3950149
-860.74463 589.10034 1075.557 4279114
-852.31458 587.93359 1073.4268 3818563
-850.13593 591.09491 1079.1986 3950149
-844.09674 591.6012 1080.1229 4739665
-835.3642 590.21265 1077.5878 4344907
-829.28082 590.68854 1078.4567 3029047
-823.95386 591.71539 1080.3314 3029047
-818.11517 592.38873 1081.5608 3489597
-814.15338 594.44373 1085.3127 3292473
-810.7915 596.97504 1089.9342 3292216
-806.35663 598.75256 1093.1797 3226680
-797.85431 597.51447 1090.9192 3424059
-790.24219 596.92743 1089.8474 3818818
-782.60956 596.31458 1088.7284 3621440
-773.90222 594.86475 1086.0814 3489598
-766.28595 594.23535 1084.9323 3621184
-762.72266 596.76581 1089.5522 3358266
-756.4353 597.19135 1090.3292 3292219
-747.03522 595.14484 1086.5928 3555645
-741.66565 596.30115 1088.704 3753024
-735.0434 596.46252 1088.9985 3555645
-729.52557 597.53149 1090.9502 3424059
-721.76038 596.76251 1089.5463 3555645
-718.18073 599.47253 1094.4941 3753024
-708.08405 596.74255 1089.5099 3555392
-702.34888 597.6709 1091.2048 3358266
-696.92151 598.88208 1093.416 3489852
-690.68207 599.41241 1094.3844 3489852
-686.29456 601.57678 1098.3359 3489852
-680.77844 602.78571 1100.5431 3753024
-671.01819 600.2229 1095.8641 3884610
-665.89764 601.80035 1098.7441 4081989
-659.80481 602.52277 1100.0631 3818817
-656.75311 606.06683 1106.5338 3753024
-650.73584 606.92078 1108.0928 4016452
-641.73376 604.97919 1104.548 4476747
-635.80634 605.92548 1106.2756 3818817
-627.18414 604.29608 1103.3008 3687231
-618.07092 602.1521 1099.3864 3686974
-609.84241 600.83142 1096.9751 3226680
-604.11005 601.9679 1099.05 3160887
-597.22418 601.9679 1099.05 2831922
-592.97406 604.65564 1103.9572 3226680
-586.33813 604.94519 1104.486 4279368
-577.26929 602.7016 1100.3896 3621695
-570.76965 603.11859 1101.151 3358266
-564.05621 603.3172 1101.5135 3358266
-557.08575 603.24231 1101.3768 3489852
-550.08423 603.13153 1101.1746 3226680
-542.42511 602.28766 1099.6339 3160887
-535.37244 602.10425 1099.299 3226680
-528.32666 601.92389 1098.9697 3489596
-520.59741 600.94983 1097.1913 2832179
-511.99249 598.92523 1093.4949 3292472
-505.02286 598.78467 1093.2383 3753023
-501.48718 602.76776 1100.5104 3818563
-496.34335 604.90198 1104.407 3687234
-490.96567 606.80743 1107.886 3160634
-484.3288 607.18903 1108.5826 3752513
-476.09998 605.55701 1105.6029 3555901
-470.21024 606.89569 1108.047 3424061
-463.26801 606.89569 1108.047 3292219
-458.97943 610.42499 1114.4907 2305324
-450.67755 608.64337 1111.2379 2897461
-440.37366 604.05969 1102.8691 3358266
-433.21368 603.711 1102.2325 3292473
-425.67432 602.81384 1100.5946 3686974
-419.17847 603.38922 1101.645 4476492
-413.42291 605.06732 1104.7089 4016198
-402.05618 598.4505 1092.6281 3490111
-392.27179 594.00049 1084.5034 2700852
-385.50876 594.04938 1084.5927 3095353
-380.64487 597.07898 1090.124 3424318
-375.48337 599.74396 1094.9896 3556161
-367.15152 597.35004 1090.6189 3292732
-360.31848 597.35004 1090.6189 3292988
-352.36639 595.45898 1087.1664 3226939
-341.89703 589.15576 1075.6581 4016453
-334.99518 588.87006 1075.1365 4411211
-334.21909 599.56177 1094.657 3753281
-327.36075 599.56177 1094.657 3687488
-318.7829 596.34515 1088.7842 3621695
-309.41272 591.47314 1079.8892 3358523
-302.39496 590.98083 1078.9904 3621438
-296.50363 592.71777 1082.1615 3753024
-289.53369 592.32935 1081.4524 3621438
-282.76865 592.35156 1081.4929 3095094
-276.258 592.92078 1082.5322 3160887
-269.73846 593.49921 1083.5883 3292473
-262.94946 593.49921 1083.5883 3621694
-256.91544 595.24847 1086.782 3621696
-248.95422 592.50629 1081.7754 3884870
-241.37181 590.53741 1078.1807 4082249
-233.73569 588.31989 1074.1321 4345676
-228.54539 592.30969 1081.4165 4411213
-221.65739 592.00897 1080.8674 3950661
-214.77 591.69104 1080.287 3095352
-207.907 591.42169 1079.7952 3226680
-201.1842 591.54651 1080.0231 3358266
-194.24335 591.0166 1079.0555 3160887
-188.14674 593.1098 1082.8773 3292473
-181.48019 593.49573 1083.5819 3358266
-175.77583 597.1806 1090.3096 3292472
-169.80629 600.22614 1095.87 2897715
-162.79501 599.6908 1094.8927 2568750
-155.93518 599.6908 1094.8927 2700336
-148.96577 599.25012 1094.088 2700336
-140.98521 594.50305 1085.421 3095094
-134.14172 594.31256 1085.0732 3029301
-126.98293 592.63025 1082.0017 2897714
-120.20385 592.63025 1082.0017 2700593
-113.83243 594.76013 1085.8904 2502958
-106.91882 594.14795 1084.7727 2371371
-100.65698 597.32043 1090.5648 3292729
-93.725922 596.6944 1089.4219 3160887
-85.541794 587.36591 1072.3903 3029301
-78.269882 583.24469 1064.866 2831922
-71.499489 582.44086 1063.3983 2962995
-64.785622 581.97968 1062.5563 3357753
-58.379536 584.4942 1067.1472 3028788
-51.943672 587.32257 1072.3112 3291960
-45.22562 587.32654 1072.3185 3489339
-38.465996 586.69794 1071.1708 2765616
-31.740805 586.43976 1070.6993 2502701
-24.942511 584.33057 1066.8485 2831409
-18.276997 584.92651 1067.9366 2765616
-11.598221 585.54138 1069.0592 3028788
-4.8782129 582.91003 1064.255 3291960
1.7923452 583.77979 1065.8429 2765616
8.5067034 586.29694 1070.4386 2831409
15.251658 587.77393 1073.1353 2897202
21.997284 588.36505 1074.2145 2502701
28.732979 588.47583 1074.4167 2567980
35.627434 591.17889 1079.3519 3094581
42.224632 588.8739 1075.1436 3357752
48.944134 588.67419 1074.7789 3357753
55.897602 590.9964 1079.0188 3291960
63.356106 597.58112 1091.0409 2765616
70.321587 598.68591 1093.058 2634287
77.069351 597.9057 1091.6334 3160374
83.207207 592.90649 1082.5061 3029045
89.585434 590.24469 1077.6462 3291960
96.195885 589.37866 1076.0652 3555132
104.12081 596.15234 1088.4323 2831409
111.95556 601.6087 1098.3942 2765616
117.65386 595.61731 1087.4554 2831409
124.83671 597.38599 1090.6846 2042150
131.45836 596.42493 1088.9299 2305065
138.1608 595.90717 1087.9846 2041893
145.35571 597.46234 1090.824 2305322
152.20479 597.5202 1090.9296 2305578
159.04028 597.52197 1090.9329 2371371
165.87221 597.51074 1090.9124 2568749
172.05489 595.25433 1086.7926 2700080
179.14034 596.17395 1088.4717 2766129
186.59433 598.20776 1092.1849 3291960
191.97078 593.67279 1083.9052 3226168
198.44496 592.7265 1082.1775 2962995
205.16518 592.55334 1081.8613 3028788
211.70334 591.8822 1080.636 3028788
219.5338 594.75378 1085.8788 2699566
226.43591 595.01324 1086.3525 3555134
232.96227 594.29901 1085.0485 3291962
239.31744 593.20093 1083.0437 3160376
246.07281 593.12811 1082.9108 3028790
253.02531 593.52155 1083.629 2897461
260.77463 595.71472 1087.6332 3028790
269.46875 599.89948 1095.2736 2568239
277.83459 603.1637 1101.2333 2173481
281.97406 597.31683 1090.5583 2502703
287.94702 595.53882 1087.312 2305324
295.58591 597.20874 1090.361 3029047
301.47723 595.35217 1086.9713 3555391
308.06689 594.92627 1086.1937 2239531
314.61719 594.4444 1085.314 2436910
321.86508 595.27307 1086.8269 2568496
328.93256 595.7406 1087.6805 2831668
336.77448 597.56335 1091.0084 2897461
344.14926 598.50122 1092.7207 2436910
351.79974 599.87262 1095.2246 2502703
359.29581 600.93323 1097.161 2634289
366.97067 602.24744 1099.5604 2436910
373.85974 602.24744 1099.5604 2042152
384.7847 608.63116 1111.2156 1910822
395.24036 614.05884 1121.1252 2700084
403.5834 616.07208 1124.8009 2765365
410.47482 615.83832 1124.3741 2831158
417.77283 616.21216 1125.0566 2107435
425.46844 617.15033 1126.7695 3224888
436.41556 622.69727 1136.897 4277833
440.98193 619.10797 1130.3438 2830644
452.10864 624.69672 1140.5475 2830388
459.89951 625.57404 1142.1493 3027509
467.05542 625.57404 1142.1493 3290681
475.87375 627.76703 1146.1532 3554110
482.5928 627.16669 1145.0571 3357758
481.9447 617.15002 1126.769 3094329
488.59207 616.62988 1125.8193 2436399
499.39554 621.29504 1134.3368 2699571
506.99438 621.89838 1135.4384 4344396
513.92432 621.67584 1135.0321 3620928
522.11005 622.95776 1137.3726 3226168
525.65472 618.74225 1129.676 3423805
525.33783 610.15375 1113.9955 2897461
531.49194 609.20764 1112.2681 2634289
537.54858 608.17572 1110.384 2831668
542.37048 605.79108 1106.0303 2568496
548.44916 604.85254 1104.3168 2239531
554.16864 603.54633 1101.9319 2173738
560.04401 602.43994 1099.9119 2239531
566.28198 601.74561 1098.6443 2107945
573.74036 602.3493 1099.7465 2568753
579.22168 600.88782 1097.078 2700082
583.05267 597.76837 1091.3827 2897718
592.14795 600.05597 1095.5593 2897461
601.86133 602.91028 1100.7706 2897461
612.68933 606.80383 1107.8794 2963254
619.28784 606.46826 1107.2666 3094841
626.79065 607.01593 1108.2665 3423288
633.16119 606.46686 1107.2642 3160374
638.65228 605.09668 1104.7625 2962996
641.32324 601.11249 1097.4883 3028789
647.4328 600.40161 1096.1904 2634032
654.55219 600.63232 1096.6116 2568239
664.61243 603.52881 1101.8999 2568239
669.48096 601.69965 1098.5603 2502702
673.09436 598.79108 1093.25 2634031
677.69232 596.80823 1089.6298 2963252
684.27374 596.59424 1089.2391 3159606
689.52301 595.2345 1086.7565 2962227
695.61865 594.62482 1085.6433 3225399
703.67029 595.68274 1087.575 2830641
710.81293 595.95831 1088.078 2435883
714.96198 593.74255 1084.0326 2896434
724.66724 596.13934 1088.4084 3028020
729.1369 594.22449 1084.9125 2764848
735.93427 594.22449 1084.9125 2435883
746.58789 597.30988 1090.5455 2764848
753.42053 597.30988 1090.5455 2962227
762.39996 598.99652 1093.625 2765875
773.51624 602.31708 1099.6876 2634289
777.66956 600.20496 1095.8314 2568239
785.10211 600.63867 1096.6232 2568495
791.97278 600.63867 1096.6232 2765618
798.28796 600.22101 1095.8606 2634289
805.4668 600.45428 1096.2865 2699825
811.57666 599.89343 1095.2626 2568239
817.0423 598.86981 1093.3937 2568239
822.8764 598.1311 1092.0449 2897204
827.49237 596.52637 1089.1151 2831667
834.54016 596.68665 1089.4077 2371117
840.86981 596.33496 1088.7656 2305323
847.69128 596.33496 1088.7656 2370861
855.06805 596.72253 1089.4733 2436396
862.14972 596.89966 1089.7966 2699055
867.11981 595.62347 1087.4667 2896178
872.52698 594.6651 1085.7169 2830641
880.65436 595.56122 1087.3529 2896434
888.51416 596.26392 1088.636 3028020
892.96991 594.68896 1085.7605 3225399
899.64038 594.60168 1085.6011 3225399
903.59485 592.73401 1082.1912 3356985
903.58173 588.31097 1074.1157 3357242
917.18768 592.75488 1082.2292 3159606
926.73547 594.53021 1085.4706 2567469
933.81354 594.70673 1085.793 2699055
941.34198 595.16553 1086.6306 2962227
951.06598 596.99585 1089.9723 2830641
959.30005 597.87158 1091.5712 2764848
966.72748 598.23572 1092.236 2962227
972.22156 597.40668 1090.7224 3817536
974.26581 594.48419 1085.3866 3620156
987.51099 598.38959 1092.5168 3422521
989.20612 595.29041 1086.8586 3356985
996.12897 595.35822 1086.9823 3949122
998.5719 592.76569 1082.249 4541259
998.13715 588.51141 1074.4817 3817536
1017.4968 595.90698 1087.9843 3093813
1024.8335 596.20959 1088.5367 2896434
1034.349 597.76733 1091.3809 2567469
1043.151 598.89502 1093.4397 2567469
1047.9255 597.71069 1091.2775 2435883
1051.8381 596.05347 1088.2517 2238504
1059.3674 596.4538 1088.9827 2172710
1067.6454 597.26782 1090.4689 2172711
1070.8154 595.23218 1086.7523 2238504
1081.0912 597.14722 1090.2487 2304297
1089.0768 597.78113 1091.406 2435883
1099.5359 599.75623 1095.0121 2370090
1106.3088 599.70874 1094.9254 2435883
1115.9785 601.22235 1097.689 2567469
1122.8558 601.22235 1097.689 2699055
nan nan nan 16777215
nan nan nan 16777215
nan nan nan 16777215
nan nan nan 16777215
nan nan nan 16777215
nan nan nan 16777215
nan nan nan 16777215
nan nan nan 16777215
nan nan nan 16777215
nan nan nan 16777215
nan nan nan 16777215
nan nan nan 16777215
nan nan nan 16777215
nan nan nan 16777215
nan nan nan 16777215
nan nan nan 16777215
nan nan nan 16777215
nan nan nan 16777215
nan nan nan 16777215
-931.52472 602.35498 1087.384 2962997
-921.90717 600.52795 1084.0858 2831411
-913.53168 599.48889 1082.2101 2897204
-905.85645 598.89722 1081.1421 2831411
-895.6485 596.60968 1077.0125 2568496
-886.39984 594.93109 1073.9823 2963254
-876.95837 593.09656 1070.6705 3226426
-871.44501 593.91077 1072.1404 3752770
-864.72772 593.91077 1072.1404 4213321
-856.76276 593.04712 1070.5813 4016199
-844.85583 589.41974 1064.0331 4081735
-839.29205 590.19513 1065.4329 3950149
-834.17865 591.30231 1067.4315 4739665
-829.59686 592.80719 1070.1482 4739665
-824.59766 594.03589 1072.3662 3686977
-819.5014 595.21429 1074.4935 3095097
-812.2558 594.8382 1073.8146 3292219
-806.2334 595.35907 1074.7549 3489599
-802.64581 597.70184 1078.9841 3489342
-801.065 601.59155 1086.0059 3094840
-790.19836 598.51447 1080.451 2831667
-781.89032 597.33899 1078.3291 2897460
-774.82123 597.09778 1077.8937 2831922
-771.20471 599.53632 1082.2958 2897715
-764.36475 599.49005 1082.2122 3160888
-757.14948 599.14587 1081.5909 3160886
-750.34009 599.11963 1081.5436 3160886
-745.35443 600.56238 1084.1479 3621438
-737.59827 599.77875 1082.7334 3687231
-730.42584 599.45972 1082.1575 3621438
-723.92358 599.68982 1082.5729 3687231
-714.4397 597.43103 1078.4952 3884610
-707.03534 596.88458 1077.5088 4082246
-702.14093 598.46698 1080.3654 3423549
-696.25116 599.22351 1081.7311 3292216
-691.2276 600.7478 1084.4828 3555645
-684.20135 600.54449 1084.1157 3687231
-678.2334 601.27527 1085.4349 3818817
-674.23633 603.78589 1089.9672 3687231
-667.68817 604.03992 1090.4258 3687231
-660.36005 603.58636 1089.6069 3950403
-654.15771 604.16302 1090.6479 3818817
-648.49603 605.25647 1092.6219 3818817
-647.71405 610.97614 1102.9471 3950149
-638.86334 609.1261 1099.6074 4081735
-631.59894 608.76465 1098.955 4081735
-623.70111 607.77795 1097.1737 3687233
-612.4729 603.48779 1089.429 3555646
-607.81708 605.64978 1093.3319 3226680
-602.63654 607.33234 1096.3693 3095094
-596.71545 608.29871 1098.1138 2897715
-590.25659 608.73309 1098.8979 3489852
-583.01868 608.36475 1098.233 3621438
-574.08099 606.19275 1094.3121 3292473
-566.74359 605.67853 1093.3838 3292473
-559.52411 605.27924 1092.663 3358266
-556.71912 609.70471 1100.652 3621438
-545.8476 605.2962 1092.6936 3818817
-536.07336 602.00781 1086.7573 3160887
-528.46515 601.09863 1085.1161 2831922
-522.36377 601.90198 1086.5663 3291960
-515.55609 601.90198 1086.5663 2831922
-508.98013 602.17609 1087.0612 2963508
-501.92172 601.87921 1086.5251 2766129
-494.04941 600.58466 1084.1882 3687487
-492.96335 607.61871 1096.8862 3818816
-487.05139 608.81921 1099.0533 2897714
-479.84805 608.41669 1098.3268 2831921
-471.2269 606.17859 1094.2865 3358266
-465.90396 608.17993 1097.8993 3489851
-459.02524 608.17993 1097.8993 3818561
-455.90607 613.23669 1107.028 4213320
-447.32028 610.98315 1102.9598 4082246
-437.87561 607.46735 1096.613 3752767
-428.39282 603.78571 1089.9668 3489852
-422.95987 605.78516 1093.5763 3423802
-416.14267 605.83521 1093.6666 3555391
-410.24673 607.25061 1096.2218 3753026
-397.53775 598.45776 1080.3488 3226939
-391.26416 599.21613 1081.7177 2700596
-383.86475 598.24652 1079.9674 3226939
-379.26331 601.68097 1086.1674 3950662
-373.09024 602.70215 1088.0107 3753540
-367.10941 604.07764 1090.4938 3753540
-360.69223 604.77362 1091.7502 4411213
-349.59567 597.4989 1078.6178 4674384
-341.23392 594.70367 1073.5718 5266520
-332.88904 591.82605 1068.377 4608590
-326.35593 592.11737 1068.903 3819074
-323.64099 599.49353 1082.2185 3950660
-314.44049 594.91486 1073.953 3950660
-307.5213 594.54645 1073.288 3687745
-301.54788 596.03101 1075.9679 3621952
-294.96896 596.35925 1076.5604 3687231
-288.224 596.35925 1076.5604 3490108
-281.03549 595.41962 1074.8641 3160887
-274.08676 594.95428 1074.0242 3095094
-267.15512 594.50354 1073.2104 3358266
-260.96933 595.73212 1075.4283 3621438
-254.39778 596.12189 1076.132 3424059
-247.93251 596.78876 1077.3358 3424059
-240.95047 596.21417 1076.2986 2963508
-232.16478 591.01508 1066.913 3424316
-226.85126 594.6087 1073.4003 4082246
-220.62675 595.96118 1075.8418 3950403
-213.26619 594.2334 1072.7228 2963508
-206.92766 595.33356 1074.7089 2766129
-200.44511 596.07947 1076.0554 3489852
-193.09215 594.19885 1072.6604 3555901
-187.0085 596.22937 1076.326 3160887
-181.34483 599.80103 1082.7737 2173735
-174.57138 599.83704 1082.8386 2766129
-167.65195 599.35394 1081.9666 3160374
-160.36102 597.44617 1078.5226 3160631
-153.06638 595.35614 1074.7495 3028788
-146.63406 596.58203 1076.9626 2370858
-140.34103 598.52026 1080.4615 3291960
-133.03717 596.12549 1076.1384 3226167
-125.69009 593.27106 1070.9856 2831409
-119.61388 596.43164 1076.6912 1976357
-112.25903 593.2132 1070.8811 2568237
-105.18842 591.18317 1067.2164 2634030
-97.734779 586.57867 1058.9043 2962995
-91.179123 587.08539 1059.8191 2831409
-84.539024 587.08539 1059.8191 2962995
-77.86483 586.82849 1059.3552 3555132
-71.070717 585.53552 1057.0212 3555132
-64.116219 582.51984 1051.5773 2634030
-57.852386 585.80701 1057.5112 2568237
-51.539036 589.37811 1063.9579 3818561
-44.782318 588.18695 1061.8076 3292473
-37.952915 585.45886 1056.8828 3094581
-31.249222 583.9267 1054.1169 3357753
-24.691771 585.03839 1056.1238 3160374
-18.095379 585.70355 1057.3246 2502444
-11.469838 585.64874 1057.2256 2765618
-4.8442783 585.44165 1056.8517 2568238
1.7769338 585.34552 1056.6782 2765872
8.4024496 585.70093 1057.3198 3423802
15.005753 584.87726 1055.8329 3423803
21.620874 584.87726 1055.8329 3555132
28.525457 590.87317 1066.6569 2502444
35.317177 592.69885 1069.9525 2700079
41.927719 591.38641 1067.5834 3160374
48.628571 591.53375 1067.8494 2897202
55.323845 591.58575 1067.9432 3160374
62.752991 598.62732 1080.6548 3423546
69.505058 598.46747 1080.3662 2502444
76.057991 596.77344 1077.3081 2831409
82.544197 594.87476 1073.8806 2831409
89.129906 593.92523 1072.1665 3094581
95.614967 592.48517 1069.5669 3818304
101.39896 587.17407 1059.9791 2765616
109.19091 593.42871 1071.2701 2568237
116.83342 598.19379 1079.8722 2897458
123.93172 599.80341 1082.7778 3358523
131.17699 601.92017 1086.5991 3226680
136.9687 597.48743 1078.597 3095094
144.14142 599.21252 1081.7113 2502957
150.98198 599.46393 1082.165 2568750
157.56967 598.73285 1080.8452 2371627
164.11865 597.9209 1079.3795 2502958
170.79811 597.62982 1078.8541 2831924
177.66841 598.00323 1079.5282 2569007
184.12958 597.02271 1077.7581 2569006
190.91803 597.13519 1077.9612 2502957
197.76479 597.41608 1078.4683 2766385
204.47966 597.29321 1078.2465 2700336
210.76637 595.96759 1075.8534 3029302
218.10208 597.59827 1078.7971 2766385
225.39067 599.00574 1081.3379 3094327
231.49821 597.28387 1078.2295 3489341
237.67801 595.8407 1075.6244 2897204
244.07568 595.0083 1074.1217 3028790
250.80537 595.0083 1074.1217 2897461
257.16415 594.15137 1072.5747 2436653
264.40466 595.3233 1074.6903 2831411
271.13794 595.3233 1074.6903 3357755
275.26508 589.73975 1064.6108 3226169
282.16388 590.2182 1065.4745 2502703
289.47763 591.52234 1067.8287 2502703
299.45071 598.07892 1079.6648 2765875
305.81006 597.28772 1078.2365 2436910
311.80396 595.83234 1075.6093 2173738
319.20544 597.07153 1077.8462 2107945
327.16428 599.28021 1081.8334 2371117
334.93777 601.06665 1085.0583 2765875
341.8797 601.3194 1085.5146 2239531
348.2449 600.56769 1084.1576 2107945
356.02252 602.23395 1087.1655 2305324
363.72519 603.7132 1089.8359 2173738
371.52402 605.29468 1092.6908 2042152
382.72607 612.26318 1105.2705 2173738
391.64471 615.39594 1110.9259 2700340
400.16074 617.79785 1115.2618 3291963
406.69467 617.10968 1114.0195 2634032
417.77283 623.22363 1125.0566 2107435
424.82166 623.22363 1125.0566 3160379
432.48975 624.11731 1126.6699 2829874
440.14841 624.96893 1128.2072 2830900
447.92328 625.95587 1129.9889 2831413
