# .PCD v0.7 - Point Cloud Data file format
VERSION 0.7
FIELDS x y z rgb
SIZE 4 4 4 4
TYPE F F F U
COUNT 1 1 1 1
WIDTH 1282
HEIGHT 1
VIEWPOINT 0 0 0 1 0 0 0
POINTS 1282
DATA ascii
524.56995 597.65875 1412.6599 3291962
533.54327 597.79608 1412.9845 3160376
546.20435 601.99329 1422.9054 3160376
549.07843 595.44232 1407.4211 3226169
555.93311 593.34698 1402.4684 2700082
566.71484 595.44293 1407.4225 3094583
580.16089 600.2312 1418.7404 3489341
590.06848 601.26929 1421.194 2568239
596.96741 599.25629 1416.4359 2634032
603.01776 596.46289 1409.8334 3028790
614.65161 599.19324 1416.287 3028790
627.39124 602.90851 1425.0686 3160376
636.02704 602.63123 1424.4132 2897204
651.62103 608.86322 1439.1434 3226426
655.70056 604.31293 1428.3882 2963252
662.51276 602.36993 1423.7955 2699823
669.88965 600.98505 1420.5221 2831666
678.26038 600.51642 1419.4144 2634030
685.13269 598.75043 1415.2404 2502700
693.99963 598.75043 1415.2404 2634030
703.63483 599.40491 1416.7874 3028788
704.57776 592.73065 1401.0117 2765616
717.16614 595.89685 1408.4955 2502444
728.45844 597.92242 1413.2831 2831409
736.71826 597.44 1412.1429 2831409
747.71344 599.16101 1416.2107 2502444
756.98096 599.47339 1416.9491 2634030
769.80927 602.56573 1424.2584 2568237
779.79364 603.38672 1426.1989 2765616
782.66071 598.74426 1415.2257 2831666
795.12213 601.46332 1421.6527 2962224
809.25287 605.37097 1430.8889 3159604
811.60291 600.47675 1419.3208 3488569
826.88489 605.15289 1430.3735 2962225
827.13538 598.84595 1415.4661 2962225
839.53864 601.37811 1421.4512 3159604
844.95996 598.90826 1415.6134 3028018
866.53906 607.82343 1436.6858 3028018
873.78882 606.60748 1433.8118 3356983
882.77386 606.60876 1433.8147 3488312
892.01794 606.78607 1434.2339 3226167
901.32666 607.00348 1434.7477 2897202
909.89807 606.72491 1434.0894 2699823
922.62152 609.19342 1439.924 2897458
929.97485 608.1026 1437.3456 3028788
930.50269 602.6123 1424.3684 2765873
946.26495 606.99878 1434.7366 2699823
953.64679 605.97748 1432.3225 2962994
957.80231 602.94427 1425.1531 2765618
963.20135 600.74261 1419.9491 2700082
976.61493 603.53412 1426.5474 2831412
978.55841 599.25098 1416.4235 2963254
982.52301 596.27136 1409.3806 2765875
1002.8735 603.2005 1425.7588 2634289
1003.8634 598.46521 1414.5662 2568496
1012.7261 598.46521 1414.5662 2765875
1029.6718 603.20038 1425.7585 2962997
1044.6606 606.71765 1434.072 3093812
1055.2299 607.62994 1436.2284 2962228
1065.0388 608.09265 1437.3221 3028020
1076.8444 609.6781 1441.0696 3028020
1088.114 610.93634 1444.0436 3093813
1097.5959 611.17834 1444.6156 3028020
1107.2979 611.53778 1445.4652 3093813
1108.8301 607.41614 1435.723 3093813
1118.4917 607.7782 1436.5789 2896691
1113.1569 600.05066 1418.3136 3028020
1134.7844 606.8645 1434.4193 2699055
1148.0212 609.11932 1439.7489 2896434
1157.0457 609.12146 1439.7538 3028020
1160.7771 606.35858 1433.2234 2896434
1165.5516 604.17883 1428.0712 2567469
1169.7336 601.72754 1422.2771 2699055
1183.5186 604.21576 1428.1584 2962227
1192.634 604.30072 1428.3593 2962227
1205.3851 606.21277 1432.8788 2962227
1214.3625 606.21277 1432.8788 2567726
1227.6827 608.36475 1437.9653 2435883
1226.2217 603.21411 1425.7909 2764848
1243.1444 607.11603 1435.0138 3225399
1247.4161 604.82788 1429.6053 3488571
1256.3729 604.82788 1429.6053 3751743
1265.5524 604.9342 1429.8567 3685950
1272.4971 603.97845 1427.5975 3488571
1277.8145 602.26892 1423.5569 3488571
1284.256 601.10931 1420.8159 3159606
1293.1578 601.10931 1420.8159 3159606
1303.8622 601.94141 1422.7827 3291192
1309.8994 600.62231 1419.6648 3554364
1318.7942 600.62231 1419.6648 3356985
1329.4489 601.41852 1421.5469 2896691
1352.1208 607.60443 1436.1681 2764848
1364.3895 609.06445 1439.619 3291192
1370.5466 607.79498 1436.6185 3291192
1379.5312 607.78784 1436.6016 3422778
1389.8486 608.36407 1437.9637 3488571
1403.0037 610.16711 1442.2255 3488571
1413.5752 610.83069 1443.7938 3291192
1424.2827 611.54413 1445.4802 3554364
1434.6912 612.12103 1446.8438 3751743
1439.0039 610.1062 1442.0814 3817536
1445.6205 609.08716 1439.6729 4278087
1454.8383 609.17004 1439.8687 4080708
1474.3007 613.51495 1450.1387 3817536
1482.4216 613.11603 1449.1957 3422778
nan nan nan 16777215
nan nan nan 16777215
nan nan nan 16777215
nan nan nan 16777215
nan nan nan 16777215
nan nan nan 16777215
nan nan nan 16777215
nan nan nan 16777215
nan nan nan 16777215
nan nan nan 16777215
nan nan nan 16777215
nan nan nan 16777215
nan nan nan 16777215
nan nan nan 16777215
nan nan nan 16777215
-1227.4244 597.62262 1392.0685 2831668
-1230.1692 603.24548 1405.166 2766132
-1224.1521 604.62195 1408.3722 2831668
-1216.6962 605.30243 1409.9574 2897461
-1207.8624 605.30243 1409.9574 3094840
-1199.9974 605.79163 1411.0968 3818563
-1196.0806 608.29584 1416.9301 3818820
-1187.203 608.29584 1416.9301 3621184
-1170.9347 604.48041 1408.0425 3292218
-1162.7863 604.83063 1408.8584 3094583
-1149.7141 602.60565 1403.6755 2831925
-1141.2217 602.76514 1404.0471 2765875
-1137.7209 605.58405 1410.6134 2765875
-1128.8829 605.58405 1410.6134 2502703
-1123.6282 607.52136 1415.1261 1910566
-1113.3015 606.72546 1413.2721 1581858
-1111.3052 610.49304 1422.0481 1844773
-1101.5026 609.99841 1420.896 2042152
-1081.0093 603.52728 1405.8224 2305324
-1074.3148 604.71692 1408.5935 2765875
-1061.39 602.3902 1403.1738 3094840
-1052.5988 602.3902 1403.1738 3095097
-1047.755 604.66846 1408.4806 3094840
-1038.9203 604.66254 1408.4668 3226426
-1024.5297 601.3952 1400.8561 3358012
-1015.8708 601.46503 1401.0188 3029304
-1018.3146 608.16699 1416.6299 2700082
-1008.0906 607.35455 1414.7375 3094840
-1009.6198 613.67163 1429.4521 3489598
-997.33929 611.63281 1424.703 3357755
-989.02264 612.01007 1425.5817 3291962
-980.40393 612.20551 1426.037 3226427
-972.24915 612.6969 1427.1816 3423805
-957.47351 608.98627 1418.5383 3292219
-952.92291 611.77063 1425.024 2765875
-950.71912 616.12848 1435.1749 3094840
-945.27747 618.45123 1440.5854 3358012
-936.91632 618.89014 1441.6079 3489598
-926.91766 618.24554 1440.1063 3555648
-921.04608 620.36798 1445.0502 3884356
-914.5849 622.13147 1449.158 3752770
-904.78333 621.63525 1448.0022 3423805
-891.03174 618.38776 1440.4375 3094840
-868.76624 609.10443 1418.8136 2831925
-869.11768 615.65027 1434.061 3818563
-857.8858 614.04193 1430.3147 3292219
-850.06061 614.86377 1432.229 2568753
-836.50635 611.51495 1424.4285 2173995
-831.65424 614.52411 1431.4377 2897462
-824.59998 615.95392 1434.7684 3358522
-814.75525 615.30786 1433.2634 3029301
-805.59882 615.17303 1432.9493 3029558
-793.62579 612.86011 1427.5618 2897715
-779.22058 608.59485 1417.6265 3292473
-765.76556 604.98181 1409.2106 4016196
-758.25122 606.03271 1411.6584 3160887
-753.2464 609.13782 1418.8912 2831922
-749.05548 612.98303 1427.8481 3160374
-742.52667 614.98499 1432.5114 3291960
-728.95538 611.13171 1423.5358 3291960
-722.65692 613.35583 1428.7164 3160374
-712.52417 612.34052 1426.3514 2962995
-697.46509 607.01202 1413.9396 2962995
-686.70605 605.33685 1410.0376 2634030
-681.26721 608.36908 1417.1006 2634030
-670.68268 606.82556 1413.5052 2568237
-651.3988 597.26428 1391.2338 2897203
-651.62573 605.57568 1410.5939 2831152
-639.22137 602.2157 1402.7672 3094325
-626.85095 598.79431 1394.7977 3423803
-620.38708 600.99817 1399.9313 3489339
-612.08557 601.45947 1401.0059 3489595
-602.24359 600.3985 1398.5344 3357753
-595.32745 602.26617 1402.8849 3094581
-582.78278 598.41028 1393.9031 3226167
-574.0495 598.41028 1393.9031 2962995
-566.35675 599.5116 1396.4685 3423546
-560.56549 602.69202 1403.8767 3160630
-554.5575 605.737 1410.9696 3029044
-545.96899 606.01636 1411.6204 3752511
-534.10492 602.60919 1403.6838 3424058
-528.31079 606.05115 1411.7013 2831921
-519.46613 606.05115 1411.7013 3621184
-515.4104 611.73523 1424.9415 4147528
-498.17795 601.70465 1401.5769 4147528
-492.1723 605.11731 1409.5261 3884356
-479.60043 600.43408 1398.6172 2963254
-470.83768 600.43408 1398.6172 3489598
-470.05484 610.80347 1422.7711 4410700
-459.798 609.0249 1418.6283 3358012
-455.78412 615.6084 1433.9635 3292219
-446.16669 614.7359 1431.9312 3423805
-433.20145 609.12036 1418.8507 3489598
-430.61588 618.16998 1439.9304 3752770
-417.57211 612.27246 1426.1929 3686977
-404.32184 605.80756 1411.1339 3686977
-393.39871 602.61841 1403.7053 3686977
-384.75204 602.85022 1404.2454 3357755
-374.48062 600.48767 1398.7421 3686720
-366.56906 601.8866 1402.0007 3226426
-358.85098 603.67963 1406.1774 3292219
-350.70276 604.82123 1408.8364 3358012
-343.77829 608.18665 1416.6757 3095097
-334.90237 608.18665 1416.6757 3686977
-327.31424 610.58899 1422.2715 3226426
-316.24985 606.45941 1412.6525 3029047
-306.00714 603.7132 1406.2555 3095094
-298.94019 607.25525 1414.5061 2897715
-291.19638 609.59674 1419.9603 3489852
-282.60831 610.2627 1421.5116 3884610
-271.10623 604.47485 1408.0297 3489852
-263.36804 606.97205 1413.8464 3621438
-257.43951 613.95886 1430.1212 3358523
-248.2404 613.36841 1428.7458 3357753
-240.08009 615.39667 1433.4702 3161144
-230.14026 612.84369 1427.5236 3358266
-220.46393 610.81433 1422.7965 3555645
-212.94669 614.84796 1432.1923 3818817
-204.53543 616.54169 1436.1375 3950405
-195.99374 617.98004 1439.4878 3818563
-186.54396 616.55566 1436.17 3423805
-177.24715 615.51819 1433.7533 3095096
-168.67934 617.03656 1437.2903 2898230
-159.47266 616.25751 1435.4755 3621954
-151.19199 619.17755 1442.2773 4082248
-141.04132 614.32391 1430.9714 3753283
-132.00546 613.99652 1430.2089 3226938
-123.34406 615.49005 1433.6877 3490110
-114.15033 614.35321 1431.0397 3819075
-103.92609 607.0036 1413.92 3292731
-95.186516 607.76398 1415.691 3950917
-86.24218 607.23865 1414.4675 3424059
-78.225159 613.87018 1429.9147 2634543
-69.247215 613.70117 1429.5209 2897972
-61.010353 621.02521 1446.5812 3292473
-51.374516 614.1803 1430.637 3292217
-42.865528 620.76068 1445.965 2699823
-33.884094 622.19269 1449.3005 2699823
-24.92473 625.22675 1456.3679 2634030
-15.80865 625.56384 1457.1531 2765616
-6.6460824 622.46814 1449.9423 2634030
2.4431088 623.70721 1452.8284 2173479
11.498886 621.1875 1446.9591 2173479
20.456001 617.90906 1439.3225 2502444
28.964825 607.23853 1414.4672 2370858
37.61594 603.85193 1406.5786 2370858
47.082287 612.35394 1426.3827 3094581
56.266266 615.05658 1432.6782 3028788
65.568909 618.1344 1439.8474 2897202
74.187149 614.7959 1432.0708 2831409
83.205208 615.13373 1432.8578 2239272
91.550514 610.91644 1423.0343 2436651
101.2382 615.61041 1433.9681 3028788
110.23438 615.677 1434.1233 2897202
118.76254 613.31659 1428.6251 3028788
127.03361 610.05243 1421.0217 3028788
137.03641 614.98749 1432.5171 2962995
144.20268 607.36859 1414.7701 2963252
152.22961 604.04718 1407.0334 2897202
161.0451 604.04718 1407.0334 2699823
170.002 604.54999 1408.2046 2831409
179.96277 608.39697 1417.1655 2831409
188.85556 608.44141 1417.2692 2962995
197.26413 606.99194 1413.8928 3028788
206.47046 608.0163 1416.2789 3160374
213.8492 603.79614 1406.4486 2831409
222.66403 603.80426 1406.4675 3028788
231.476 603.80426 1406.4675 2634030
241.56703 607.01837 1413.9543 2634030
250.28416 606.67487 1413.1542 2765616
259.59296 607.73993 1415.6351 2634286
268.19711 607.13947 1414.2365 2831409
276.98599 606.98218 1413.8701 2963252
288.40646 612.42291 1426.5433 3094581
296.06726 609.79279 1420.417 2897202
307.18448 614.2276 1430.7471 3357753
317.75223 617.3432 1438.0045 3555132
323.38544 610.96436 1423.146 3555132
328.17804 603.38239 1405.4849 2634030
335.55942 600.83191 1399.5439 2765616
350.57504 611.7326 1424.9354 3291960
359.16962 611.16583 1423.6152 2568240
370.2645 614.77795 1432.0292 2831411
380.09616 616.17139 1435.2749 2634032
391.22717 619.55804 1443.1637 2765618
400.01349 619.16254 1442.2423 2634032
407.44058 616.72705 1436.5692 2568239
413.67575 612.63165 1427.0297 2568239
424.70065 615.65283 1434.067 2239274
435.04694 617.58545 1438.5687 2831411
443.69913 617.08356 1437.3997 2568239
448.10574 610.81445 1422.7968 2634032
458.13205 612.30072 1426.2588 2699055
466.77692 611.91913 1425.3699 2633518
470.86917 605.69568 1410.8733 2567726
480.53339 606.73694 1413.2987 2699311
491.23904 609.03162 1418.6439 2896434
498.65857 607.2431 1414.4778 2634032
501.70294 600.28217 1398.2634 2634032
509.29535 598.90851 1395.0637 2699825
513.17694 593.29108 1381.9788 2634032
522.90265 594.50427 1384.8048 3489341
533.19672 596.31366 1389.0194 3028790
546.0611 600.89331 1399.687 2831411
553.25476 599.18677 1395.7118 3094840
561.69397 598.86115 1394.9534 3160376
570.47314 598.90247 1395.0496 3357755
579.55121 599.25159 1395.8629 3357755
590.06836 601.05627 1400.0665 3226169
595.58038 597.7843 1392.4451 3160376
602.75806 596.25464 1388.8818 3555134
612.16638 596.94348 1390.4866 3555134
624.71948 600.63672 1399.0894 3028790
631.00946 598.28931 1393.6215 2699825
639.74091 598.28931 1393.6215 2831409
649.25507 599.01147 1395.3036 2765616
657.82513 598.85486 1394.9388 2634030
667.41571 599.61938 1396.7196 2634030
677.39838 600.71167 1399.2639 2568237
684.58496 599.32825 1396.0414 2370858
695.52258 601.22223 1400.4531 2370858
700.77106 598.2124 1393.4423 2962995
711.40698 599.81909 1397.1847 3291960
722.22919 601.54181 1401.1976 3291960
731.34875 601.82214 1401.8506 2568237
747.20898 607.57684 1415.2552 2436651
750.16943 602.83032 1404.199 2634030
760.39575 603.96509 1406.8422 2502444
769.21008 603.96509 1406.8422 2436651
775.86383 602.2879 1402.9354 2634030
788.04871 604.89386 1409.0056 2962481
795.45093 603.81171 1406.4849 2896432
806.0097 605.12305 1409.5396 2896432
813.65735 604.24408 1407.4922 2962225
822.44019 604.21802 1407.4314 3093811
825.64081 600.13489 1397.9203 3488569
834.39911 600.13489 1397.9203 3356983
847.83936 603.46722 1405.6825 3291190
854.78882 602.15863 1402.6343 3422776
863.57666 602.15863 1402.6343 3488569
872.40546 602.18683 1402.7 3225911
881.19385 602.18683 1402.7 3028788
890.08765 602.25818 1402.8662 2502444
903.76514 605.5332 1410.4949 2370858
913.14838 605.89557 1411.339 2568237
913.41144 600.25745 1398.2059 2502444
926.39941 603.00946 1404.6162 2831409
933.28845 601.77704 1401.7455 3028788
941.09442 601.15332 1400.2927 3028789
949.86774 601.15332 1400.2927 2502703
962.31287 603.45593 1405.6562 2831411
974.19867 605.36914 1410.1128 2765874
976.19257 601.15643 1400.2999 2830641
983.57098 600.30505 1398.3168 3160119
992.67651 600.51355 1398.8025 3225912
1001.7659 600.70874 1399.2571 3094583
1019.7296 606.17578 1411.9917 3094583
1026.6517 605.04169 1409.35 3094583
1038.657 606.89697 1413.6716 2830641
1047.514 606.89697 1413.6716 2830641
1058.8606 608.32721 1417.0032 3028020
1069.6559 609.41956 1419.5476 2962227
1076.2661 608.12927 1416.542 2830641
1084.0847 607.53717 1415.1628 2699055
1091.1006 606.50854 1412.7667 2962227
1097.6334 605.2301 1409.7888 3028020
1109.6771 606.98639 1413.8799 3356985
1119.0181 607.24823 1414.4899 3356985
1128.9274 607.81201 1415.803 3356986
1135.063 606.35101 1412.3999 2896434
1140.2964 604.43451 1407.9357 2633262
1148.0968 603.89764 1406.6851 2567469
1159.4961 605.24744 1409.8292 2633262
1159.4622 600.65399 1399.1295 2830641
1175.1543 604.21509 1407.4246 2830641
1184.0056 604.23212 1407.4642 2962227
1193.8694 604.76172 1408.6979 3028277
1202.5948 604.71124 1408.5803 3028277
1211.42 604.71124 1408.5803 2962227
1218.0656 603.63104 1406.0642 3093813
1225.4326 602.92145 1404.4111 3422778
1232.5364 602.0932 1402.4821 3620157
1239.6281 601.271 1400.5667 3751743
1248.403 601.271 1400.5667 3554364
1255.3298 600.38702 1398.5077 3225399
1263.6307 600.16797 1397.9974 3225399
1274.8474 601.32727 1400.6979 3225399
1280.9886 600.09308 1397.823 3422778
1292.1206 601.19781 1400.3962 3422778
1299.4895 600.5484 1398.8837 3356985
1312.547 602.51917 1403.4741 3028020
1328.2443 605.66736 1410.8074 2830898
1335.9341 605.14667 1409.5946 3028020
1348.0522 606.62573 1413.0397 3159606
1356.9053 606.62573 1413.0397 3093813
1363.7217 605.72101 1410.9324 3093813
1370.8947 604.98541 1409.2189 3093813
1379.201 604.7561 1408.6848 2962227
1369.4314 596.65417 1389.8125 3356985
1392.0139 602.66125 1403.8051 3883329
1416.3076 609.32898 1419.3365 3817536
1434.8843 613.4693 1428.9808 3817536
1445.417 614.1405 1430.5443 3685950
1463.6442 618.05255 1439.6569 3949122
1470.5638 617.17108 1437.6036 3620157
nan nan nan 16777215
nan nan nan 16777215
nan nan nan 16777215
nan nan nan 16777215
nan nan nan 16777215
nan nan nan 16777215
nan nan nan 16777215
nan nan nan 16777215
nan nan nan 16777215
nan nan nan 16777215
nan nan nan 16777215
nan nan nan 16777215
nan nan nan 16777215
nan nan nan 16777215
nan nan nan 16777215
-1206.481 595.95294 1368.3156 3094583
-1203.4478 598.70898 1374.6434 2765618
-1203.8522 603.22711 1385.0172 3094583
-1198.1841 604.74609 1388.5048 3291962
-1192.623 606.34167 1392.1682 3160119
-1191.1779 610.06879 1400.7257 2765618
-1175.012 606.25586 1391.9712 2831411
-1157.353 601.60986 1381.304 2897204
-1150.3004 602.44873 1383.23 3094326
-1141.9155 602.59723 1383.5709 3028790
-1133.2469 602.59723 1383.5709 2831411
-1125.7618 603.23132 1385.0269 2765618
-1121.2209 605.46521 1390.1559 2962997
-1113.946 606.24615 1391.9489 2700082
-1104.8613 606.04657 1391.4906 2436910
-1098.323 607.25171 1394.2577 2765875
-1090.2314 607.61066 1395.0818 2700339
-1077.984 605.64032 1390.558 2502703
-1065.9863 603.77954 1386.2855 2436910
-1053.1152 601.38928 1380.7975 2502446
-1036.2407 596.65442 1369.9261 3094840
-1033.8353 600.24103 1378.1611 3423805
-1028.1454 601.96515 1382.1198 3160633
-1020.1737 602.37122 1383.052 3292219
-1013.6704 603.65869 1386.0081 3686977
-999.80634 600.54706 1378.8638 3423805
-996.68915 603.89276 1386.5455 2700082
-992.33044 606.53845 1392.62 2897461
-990.11761 610.55426 1401.8403 3292219
-981.33466 610.55426 1401.8403 3226169
-974.17224 611.57153 1404.1761 3423291
-966.42371 612.23621 1405.7021 3292219
-957.66541 612.2674 1405.7738 2897461
-945.04706 609.80847 1400.1281 2700082
-937.41266 610.54956 1401.8296 3555391
-933.99609 614.07782 1409.9305 3884356
-925.16254 614.07782 1409.9305 3752770
-920.73737 617.03217 1416.7137 3621184
-910.83325 616.33661 1415.1167 3752770
-907.28241 619.96869 1423.4559 3621184
-902.31976 622.69861 1429.7239 3292219
-883.39337 615.75006 1413.77 3029047
-868.1709 611.26874 1403.4808 2897461
-856.21112 609.01642 1398.3094 3029047
-852.45819 612.61536 1406.5726 3160633
-848.2348 615.94781 1414.224 3226426
-836.13538 613.57104 1408.767 2963254
-825.20117 612.00775 1405.1776 2502703
-820.0307 614.73157 1411.4315 2634290
-810.8327 614.46252 1410.8138 2897715
-800.23999 613.11902 1407.7291 2831922
-788.3136 610.7124 1402.2035 2634543
-777.12744 608.83148 1397.8848 2700593
-767.64764 608.2597 1396.572 2700336
-760.19775 609.30164 1398.9644 3029558
-753.74927 611.17993 1403.277 3226680
-745.78827 611.86169 1404.8423 3095094
-739.95013 614.3222 1410.4916 3226167
-731.50372 614.65051 1411.2455 3226167
-719.91736 612.31628 1405.886 3357753
-712.28174 613.32605 1408.2045 3226167
-703.33752 613.22015 1407.9613 3094581
-690.39893 609.58484 1399.6146 2502444
-675.22943 603.86084 1386.4723 2239272
-669.21143 606.27863 1392.0234 2173736
-660.1153 605.93469 1391.2338 2304551
-648.3797 603.12634 1384.7858 2699053
-637.16284 600.73083 1379.2856 3159604
-630.10486 602.24445 1382.761 3291190
-620.19214 601.03375 1379.9812 2896945
-608.68018 598.21704 1373.514 3159861
-594.70612 592.86517 1361.226 3291960
-591.52368 598.27222 1373.6406 3423546
-588.07892 603.56964 1385.8036 4015683
-577.48267 601.57611 1381.2264 3028789
-568.39404 601.11627 1380.1707 2963252
-560.38928 601.80609 1381.7545 3160887
-553.04028 603.23297 1385.0306 3095094
-545.71564 604.73236 1388.4731 3160887
-537.9621 605.79724 1390.9182 3358266
-529.24756 605.79724 1390.9182 3621438
-522.93353 608.59094 1397.3325 3424059
-511.36737 605.26331 1389.6923 3752770
-499.23636 601.1402 1380.2256 4213321
-494.64105 606.10559 1391.6261 4015942
-485.18845 605.19049 1389.5251 3292219
-472.93506 600.68463 1379.1796 3160633
-464.2941 600.68463 1379.1796 4542286
-462.3515 609.51508 1399.4545 3884356
-453.52988 609.44305 1399.2891 3358012
-443.92734 608.2981 1396.6603 3489598
-435.17685 608.2981 1396.6603 3358012
-426.02365 607.72375 1395.3414 3358012
-417.2814 607.72375 1395.3414 3358012
-408.3288 607.41077 1394.6229 3358012
-396.21869 602.28455 1382.8529 3555391
-387.55466 602.28455 1382.8529 4410700
-381.63403 606.64539 1392.8655 3555134
-371.79471 604.83545 1388.7098 3160633
-363.05972 604.77826 1388.5786 3489598
-354.4162 604.87445 1388.7996 3686977
-343.71225 601.37048 1380.7543 3358012
-337.63858 605.99603 1391.3746 3358012
-331.00058 609.82703 1400.1707 3423805
-322.31805 609.99731 1400.5616 3358012
-312.74753 608.44952 1397.0079 3358012
-303.02759 606.51361 1392.563 3095095
-294.05786 606.00897 1391.4043 3226680
-284.45493 604.12854 1387.0869 4016196
-277.12479 607.10883 1393.9296 3753024
-268.39136 607.10883 1393.9296 3358522
-260.14719 608.25262 1396.5558 3818817
-249.38618 603.38672 1385.3837 3555645
-242.00996 606.6546 1392.8867 3423546
-235.3665 612.07251 1405.3263 3490108
-226.81306 612.75159 1406.8855 3555645
-218.28056 613.54443 1408.7058 3424059
-208.606 611.05865 1402.9985 3424059
-202.38203 618.90662 1421.0175 3818562
-192.68512 616.36743 1415.1874 3884356
-183.82239 616.38031 1415.217 3686977
-174.9046 616.20062 1414.8044 3555904
-165.55901 614.414 1410.7024 3424318
-157.07687 615.8111 1413.9102 3555648
-148.53728 617.13641 1416.953 3489854
-139.57068 616.74341 1416.0507 3555647
-130.70201 616.75903 1416.0867 3687231
-121.55116 615.34845 1412.8479 3818818
-112.29058 613.11731 1407.7251 3358523
-103.17418 611.35992 1403.6902 3292475
-94.653297 613.13269 1407.7605 2832179
-85.581894 611.33728 1403.6382 2568750
-76.74015 610.95898 1402.7695 3226680
-68.325073 614.31909 1410.4844 3292473
-59.818996 617.73767 1418.3336 2831922
-50.990414 618.43768 1419.9408 2831922
-41.82515 614.48712 1410.8704 2765616
-33.341259 621.11255 1426.0824 2765616
-24.453051 622.29944 1428.8075 2634030
-15.50113 622.29944 1428.8075 2634286
-6.504602 618.0611 1419.0762 2107686
2.3651235 612.56342 1406.4534 2568237
11.187897 613.16113 1407.8258 2436651
19.974108 612.11145 1405.4156 2173479
28.779472 612.11145 1405.4156 2765616
37.61594 612.61792 1406.5786 3292217
46.629257 615.26575 1412.658 2962995
55.48558 615.32764 1412.8 3029045
64.337212 615.32764 1412.8 3028788
73.149475 614.9967 1412.0403 2897202
81.86219 613.99048 1409.73 2765616
90.18615 610.5484 1401.8269 2897202
98.850853 609.8194 1400.1531 2831409
107.62325 609.8194 1400.1531 2831409
116.31432 609.39331 1399.1748 2765616
124.87115 608.37299 1396.8322 3357753
133.48825 607.76062 1395.4261 3028788
142.38376 608.41327 1396.9247 2568237
151.13593 608.41327 1396.9247 3094581
160.26611 609.85181 1400.2274 2897202
169.08739 610.02643 1400.6284 2568237
177.15538 607.60028 1395.058 2699823
186.26102 608.79382 1397.7983 2699823
193.66861 604.57935 1388.1218 2831666
201.27226 601.31287 1380.6219 3094581
211.06856 604.59631 1388.1609 2436651
219.76584 604.59631 1388.1609 2634030
228.72501 605.28949 1389.7524 3029045
237.4828 605.4184 1390.0483 2962995
246.22939 605.51062 1390.26 2831409
255.19302 606.11206 1391.641 2634030
261.09982 599.65326 1376.8116 3094581
269.72598 599.65326 1376.8116 2897202
282.33307 608.22943 1396.5026 2634030
290.53238 607.07971 1393.8628 2962995
293.90189 596.19952 1368.8817 3028789
308.9176 608.89166 1398.0229 3160375
317.67664 608.89166 1398.0229 3489340
326.74582 609.47003 1399.3511 3226168
334.87939 608.31879 1396.7078 2962995
344.328 609.55408 1399.5439 3160373
354.04346 611.18872 1403.2971 2962998
364.98996 614.81775 1411.6294 2568239
375.00974 616.75098 1416.0681 2568239
385.05765 618.64008 1420.4054 2699825
393.89371 618.54077 1420.1775 2765618
402.55975 618.18481 1419.3602 2962997
407.96298 612.94202 1407.3226 3226169
418.12277 614.91632 1411.8557 3752513
425.55563 612.88153 1407.1838 3949892
434.37204 612.88153 1407.1838 3555134
442.97519 612.58655 1406.5066 2765875
449.55685 609.56213 1399.5624 2502446
458.93665 610.37488 1401.4286 2568239
467.52039 610.11823 1400.8392 2765618
476.61075 610.52008 1401.7618 2765875
481.05389 605.06213 1389.2303 2831411
487.81412 602.66077 1383.7168 2963254
496.55322 602.74536 1383.911 2699825
504.51846 601.90375 1381.9788 2634032
511.80432 600.29376 1378.2822 2831411
512.59808 591.24902 1357.5153 3489341
521.10333 591.24902 1357.5153 3291962
538.67792 601.37384 1380.7621 2897204
545.68372 599.56635 1376.6121 3028790
555.10559 600.42841 1378.5913 3028790
563.4054 600.06891 1377.7659 3028790
573.90717 602.03021 1382.269 2963254
581.17133 600.5874 1378.9563 3226169
587.91797 598.65985 1374.5306 3094583
596.52985 598.65985 1374.5306 3094583
605.10382 598.62238 1374.4447 3818306
614.62494 599.50983 1376.4822 3423548
613.61108 590.23895 1355.1962 2897204
619.59387 587.8595 1349.7329 2634032
637.29724 596.51465 1369.6052 2831410
647.71216 598.20837 1373.494 2962995
657.09137 598.9137 1375.1135 2897203
666.18683 599.34546 1376.1049 3291960
673.72333 598.38165 1373.8918 3423545
675.47217 592.36646 1360.0809 3555132
694.72693 601.66211 1381.4238 2897201
706.00427 603.90515 1386.574 2765616
706.14056 596.67969 1369.9841 2371115
718.76849 600.05621 1377.7367 2173479
733.14728 604.79694 1388.6216 2634030
742.04553 604.95844 1388.9923 2962995
750.74799 604.95844 1388.9923 2765616
760.69049 605.94623 1391.2603 2699823
768.88281 605.53326 1390.3121 2699823
774.52124 603.14081 1384.819 3028274
783.19757 603.14081 1384.819 3028018
791.6676 602.9837 1384.4583 3028018
800.63898 603.20764 1384.9725 2699053
804.07123 599.2984 1375.9967 2633260
814.85175 600.89087 1379.6531 3356983
827.61298 603.8952 1386.551 3488569
832.8186 601.3811 1380.7787 3488569
840.40875 600.62299 1379.038 3291190
850.08228 601.354 1380.7164 3225397
859.2077 601.68646 1381.4799 3160117
864.2691 599.19476 1375.7588 3028788
870.49506 597.5517 1371.9863 2699823
873.8139 593.96466 1363.7504 2436651
892.02557 600.47229 1378.692 2436907
901.77423 601.21283 1380.3923 2962995
910.42279 601.21283 1380.3923 2897202
919.45294 601.46246 1380.9655 2634030
926.58258 600.47571 1378.7 2897202
934.71094 600.1485 1377.9486 2699825
943.34424 600.1485 1377.9486 2831411
954.58832 601.79443 1381.7277 2831668
956.57727 597.62854 1372.1628 2502703
959.24774 593.95886 1363.7372 2699825
984.27368 604.0741 1386.9619 3094326
994.06329 604.74323 1388.4982 3356985
1003.8362 605.39062 1389.9846 3028020
1006.6376 601.85876 1381.8754 3225142
1019.2858 604.22418 1387.3064 3093813
1029.3796 605.04822 1389.1985 2764848
1040.1965 606.27985 1392.0262 2830641
1050.1199 606.97455 1393.6213 2764848
1058.8514 606.97455 1393.6213 2699055
1067.9332 607.17371 1394.0786 2633262
1076.021 606.80914 1393.2416 2764848
1084.7057 606.7843 1393.1844 2830640
1091.7151 605.83026 1390.9939 3028021
1102.1199 606.7605 1393.1299 3093814
1111.5697 607.15454 1394.0345 3159605
1117.1641 605.45294 1390.1277 3225398
1123.5151 604.18463 1387.2157 2633261
1134.3051 605.3045 1389.7869 2370090
1141.2667 604.38 1387.6642 2567469
1143.0663 600.75647 1379.3445 2830641
1151.7083 600.75647 1379.3445 3093813
1161.7291 601.47028 1380.9835 2896434
1170.3815 601.47028 1380.9835 2765105
1179.0458 601.4765 1380.9977 2896434
1188.7457 602.0069 1382.2156 2962227
1195.0605 600.82788 1379.5085 3028277
1190.7681 594.37115 1364.6837 3225399
1210.0518 599.69055 1376.8972 3422778
1221.557 601.10706 1380.1495 3488571
1226.6328 599.36206 1376.1429 3422778
1233.5891 598.55389 1374.2874 3225399
1242.1995 598.55389 1374.2874 3159606
1250.4503 598.3819 1373.8925 3356985
1259.0515 598.37872 1373.8851 3554364
1271.2083 600.05383 1377.7313 3291192
1281.4637 600.81512 1379.4791 3291192
1295.8488 603.48926 1385.619 3225399
1304.3163 603.39032 1385.392 3356985
1309.8799 601.95825 1382.1039 3422778
1320.6466 602.92035 1384.3129 3225399
1334.5535 605.29413 1389.7631 3093813
1340.0624 603.85291 1386.454 2764848
1348.749 603.85291 1386.454 2765105
1358.519 604.3349 1387.5607 2830898
1364.1649 602.98785 1384.4678 2896434
1364.764 599.44104 1376.3243 3291192
1386.0095 604.95038 1388.9738 3685950
1390.7134 603.216 1384.9916 3620157
1395.5829 601.57465 1381.223 3225399
1408.1461 603.24933 1385.0682 3225399
1426.2507 607.26312 1394.2838 3356985
nan nan nan 16777215
nan nan nan 16777215
nan nan nan 16777215
nan nan nan 16777215
nan nan nan 16777215
nan nan nan 16777215
nan nan nan 16777215
nan nan nan 16777215
nan nan nan 16777215
nan nan nan 16777215
nan nan nan 16777215
nan nan nan 16777215
nan nan nan 16777215
nan nan nan 16777215
nan nan nan 16777215
nan nan nan 16777215
-1193.0835 602.04602 1362.8048 3226169
-1185.0869 602.32135 1363.4281 3094583
-1179.98 604.08002 1367.4091 2897204
-1166.4587 601.52539 1361.6263 2765618
-1164.2761 604.82324 1369.0914 2634032
-1150.3571 602.02795 1362.7639 2897204
-1140.364 601.26086 1361.0276 2831411
-1122.9561 596.54321 1350.3485 3357755
-1123.0081 601.09955 1360.6624 3291962
-1114.6531 601.19122 1360.8699 3094583
-1105.7303 600.97565 1360.382 2963254
-1093.4928 598.94122 1355.7767 2963254
-1086.9415 600.01385 1358.2048 2765618
-1085.6743 604.04333 1367.3259 2831411
-1073.8838 602.23547 1363.2336 2897461
-1058.7589 598.51361 1354.8088 3094583
-1050.35 598.5589 1354.9113 3094840
-1044.6095 600.13788 1358.4855 2568496
-1041.2003 603.09326 1365.1753 2568496
-1027.3258 599.98547 1358.1405 3292219
-1019.9393 600.64661 1359.6371 3621184
-1014.8297 602.67102 1364.2196 3686977
-1006.3644 602.72009 1364.3307 4015942
-999.32617 603.63208 1366.395 3555648
-988.84644 602.46295 1363.7487 3029047
-978.86267 601.57831 1361.7461 2765875
-971.5589 602.33966 1363.4695 2963254
-959.5672 600.18231 1358.5861 3160633
-967.82495 610.7652 1382.5417 3028790
-961.53204 612.27374 1385.9565 2962997
-952.93988 612.3324 1386.0894 3094840
-947.25732 614.27899 1390.4956 3489598
-931.98553 609.98553 1380.7769 3884613
-919.3631 607.36188 1374.8379 3753027
-917.64441 611.96002 1385.2465 3029047
-908.49249 611.64166 1384.5258 2568496
-899.81799 611.64166 1384.5258 2634289
-882.05835 605.40601 1370.4105 3292219
-883.92023 612.64746 1386.8025 3160633
-877.2644 614.07056 1390.0238 3094840
-859.41437 607.60773 1375.3944 3094840
-861.09406 614.96143 1392.0404 3094840
-854.85468 616.75226 1396.0941 3095097
-846.96771 617.37921 1397.5133 3029047
-834.62762 614.7392 1391.5374 2963254
-820.11011 610.42279 1381.7667 2634289
-811.45288 610.42279 1381.7667 2568496
-806.01599 612.87146 1387.3094 2765875
-798.88666 614.07257 1390.0283 2569006
-790.96735 614.68616 1391.4174 2042406
-779.40015 612.44702 1386.3488 2700336
-768.45312 610.65021 1382.2815 2832179
-757.42676 608.74872 1377.9772 2766129
-757.1745 615.56238 1393.4008 2371371
-757.67621 623.15521 1410.588 3226680
-737.52338 613.7392 1389.2737 3226679
-726.13556 611.47937 1384.1583 3160374
-717.46344 611.47937 1384.1583 3291960
-709.83264 612.37781 1386.192 3357497
-700.61267 611.91046 1385.1343 3291960
-682.74976 603.78815 1366.7483 3423546
-673.28015 602.97626 1364.9105 3028788
-671.22144 608.86591 1378.2426 2634030
-660.15338 606.63025 1373.1818 2436908
-653.72552 608.65582 1377.767 2436651
-645.48273 609.02319 1378.5985 2568237
-630.32294 602.78571 1364.4791 2831409
-618.38361 599.49878 1357.0388 3226167
-604.68146 594.38739 1345.4686 3226424
-591.96655 590.11572 1335.7991 2765616
-582.08282 588.58423 1332.3324 3555132
-582.27026 597.34003 1352.1522 4542027
-573.91644 597.46271 1352.4299 4213062
-564.71399 596.69238 1350.6862 3752511
-564.52985 605.57251 1370.7875 3094581
-556.5788 606.26685 1372.3591 3160374
-547.12024 605.315 1370.2046 3292216
-538.56024 605.34283 1370.2675 2897715
-530.88251 606.37933 1372.6138 3160887
-520.01459 603.74603 1366.653 4081989
-507.55875 599.15009 1356.2495 3687231
-507.33594 609.08411 1378.7363 3686977
-497.29456 607.37036 1374.8571 4213321
-486.72134 604.93512 1369.3447 3818563
-482.30396 610.20087 1381.2643 3489598
-471.59366 607.55182 1375.2678 3621184
-462.9772 607.55182 1375.2678 4147528
-449.8844 601.56628 1361.7189 3950149
-442.21454 602.74084 1364.3776 3752770
-431.81003 600.16077 1358.5374 2568752
-425.30554 603.00665 1364.9792 3555645
-418.04684 604.87793 1369.2152 3226680
-406.36029 600.28674 1358.8225 3029301
-394.79129 595.67639 1348.3864 3029301
-386.13986 595.36279 1347.6765 3358011
-382.16608 602.40863 1363.6256 4081735
-373.33762 601.94922 1362.5857 3621184
-364.52289 601.49097 1361.5485 3226426
-355.99237 601.49097 1361.5485 3555391
-345.83081 598.66748 1355.1571 3818563
-337.71542 599.33313 1356.6639 3226426
-332.57535 605.44977 1370.5096 3160633
-323.30399 604.17017 1367.6132 3423805
-316.87869 608.28436 1376.9261 3423805
-306.56357 604.95288 1369.3849 3358012
-294.76706 598.42212 1354.6017 3095094
-288.87888 603.85461 1366.8987 3555645
-276.50342 595.64398 1348.3131 3687231
-268.05585 595.64398 1348.3131 3358522
-260.90314 598.61511 1355.0385 3358523
-252.68196 599.25195 1356.4801 3753024
-245.6682 602.8963 1364.7295 3424059
-235.93002 599.8764 1357.8936 3423802
-231.89828 611.68256 1384.6183 3358522
-223.32094 611.95026 1385.2242 3029557
-214.93073 612.77325 1387.0872 3226680
-206.403 613.25702 1388.1823 3621439
-197.22383 611.76257 1384.7994 3687233
-188.76413 612.46503 1386.3894 3621185
-179.96112 612.06763 1385.4899 3752770
-171.03816 611.20117 1383.5287 3226427
-163.26207 614.55951 1391.1306 3291963
-155.20828 617.19226 1397.0902 3160633
-146.56197 617.6427 1398.1099 3226426
-137.43457 615.99414 1394.3782 3292220
-128.50797 615.08282 1392.3153 2963254
-119.78468 615.08282 1392.3153 2700082
-110.88103 614.08411 1390.0544 2831922
-102.17215 614.08551 1390.0576 3160887
-93.205986 612.39667 1386.2349 3095094
-84.116173 609.46503 1379.5986 2897972
-75.932709 613.18091 1388.01 3160887
-67.55648 616.09998 1394.6177 3489852
-58.839443 616.31659 1395.1079 2634543
-50.085499 616.15466 1394.7415 2568237
-41.557777 619.29553 1401.8512 2699823
-32.738926 618.61865 1400.3191 2765616
-24.027061 620.20795 1403.9166 2568237
-15.250034 620.97943 1405.663 2568237
-6.4368467 620.37482 1404.2943 3094581
2.3410661 615.00867 1392.1473 3028788
11.066358 615.17859 1392.532 2568237
19.750835 613.92999 1389.7057 2436651
28.412821 612.96033 1387.5106 2897202
37.103901 612.92548 1387.4319 3028788
45.450153 608.28894 1376.9364 2370858
54.583637 613.98694 1389.8345 2897202
63.279438 613.87103 1389.5721 3028788
71.883713 613.00269 1387.6066 2962995
79.455498 604.46692 1368.2849 2962995
87.853264 603.2655 1365.5653 2568494
96.583496 604.35767 1368.0376 2699823
105.92344 608.776 1378.0389 2897202
113.95161 605.55743 1370.7533 2699823
122.93738 607.52209 1375.2006 3094581
131.55344 607.52209 1375.2006 2962995
140.26976 607.9566 1376.1842 2699823
148.55423 606.57751 1373.0624 2568493
157.15663 606.57654 1373.0602 2699823
166.15691 608.03162 1376.3539 2568237
174.65852 607.6084 1375.3959 2370858
183.25093 607.52594 1375.2092 2173479
190.73447 603.9397 1367.0914 2699823
198.45956 601.39374 1361.3284 3028788
206.42714 599.76215 1357.635 3555132
214.24062 597.82971 1353.2606 3160374
225.52303 605.35571 1370.2968 3028788
233.44037 603.62854 1366.387 3028788
241.74393 602.98676 1364.9343 3028788
249.38832 600.80084 1359.9862 2634030
259.01883 603.38611 1365.8383 2962995
268.96017 606.5069 1372.9026 2897202
273.31439 597.22571 1351.8934 2305065
280.9718 595.50342 1347.9948 2962995
291.09561 598.95648 1355.8113 3620925
297.71613 595.20978 1347.3301 3357754
306.93134 596.71405 1350.7352 3226168
323.35245 611.77094 1384.8184 3423547
331.89517 611.52478 1384.2611 3357753
342.1265 614.32318 1390.5957 2963253
350.33658 613.44348 1388.6044 3291963
359.03662 613.44348 1388.6044 3029047
368.7822 615.18756 1392.5524 3028790
376.9726 614.31677 1390.5812 3028790
388.06766 618.11182 1399.1718 2765618
393.79736 613.38208 1388.4655 2962997
402.49655 613.38208 1388.4655 3094583
412.58481 615.45422 1393.156 3291962
421.36789 615.53387 1393.3363 3357755
425.99127 609.65717 1380.0336 3226169
435.59143 610.99506 1383.0621 2765618
441.97083 607.8512 1375.9456 2634032
451.95844 609.69513 1380.1195 2370860
461.34317 610.67181 1382.3304 2700082
468.12286 608.22778 1376.7981 2765618
476.74893 608.22778 1376.7981 2699825
484.24356 606.81006 1373.5887 2831411
488.54019 601.50427 1361.5785 2962997
497.07092 601.50427 1361.5785 2634032
504.60455 600.31805 1358.8933 2897204
511.25552 598.13855 1353.9597 3094583
518.98651 597.27319 1352.0009 3028790
530.79755 601.0556 1360.5629 2568239
538.81458 600.49017 1359.283 2897204
547.55621 600.73737 1359.8425 3028790
555.81732 600.45789 1359.21 2962997
564.2063 600.32288 1358.9043 2897204
572.72028 600.32288 1358.9043 2897204
580.71985 599.79163 1357.7017 3160376
587.06409 597.59064 1352.7195 3094583
594.45367 596.50134 1350.2537 3752513
602.91345 596.50134 1350.2537 4213321
610.80103 595.94305 1348.99 3555134
618.97388 595.67456 1348.3822 2962997
626.39471 594.69934 1346.1747 2765617
634.62421 594.50763 1345.7407 2897202
643.05573 594.50763 1345.7407 3094581
654.98651 597.70087 1352.969 3160375
666.01672 600.00122 1358.1761 3423545
673.74567 599.30695 1356.6046 3423546
682.19757 599.26514 1356.5099 4015684
691.24664 599.74243 1357.5903 3423548
700.40497 600.30176 1358.8564 3028787
708.96539 600.34143 1358.9462 2831666
722.24042 604.32495 1367.9634 2765616
731.47058 604.87024 1369.1978 3160374
737.5423 602.82135 1364.5599 3029045
743.78851 600.96051 1360.3475 3094581
749.21326 598.48553 1354.7452 3094581
759.37238 599.8056 1357.7333 2962739
769.37445 600.97369 1360.3774 3028018
779.42847 602.15637 1363.0546 2830639
786.94769 601.37634 1361.2889 2633260
791.50977 598.37744 1354.5005 2501674
797.26135 596.33191 1349.8701 2896432
800.42896 592.41681 1341.0079 3422776
810.1297 593.36823 1343.1615 3422776
825.45667 598.37854 1354.5029 3028018
834.26703 598.6109 1355.0291 3028018
842.00891 598.07983 1353.8268 3028275
850.0387 597.76166 1353.1067 3028788
857.61835 597.13647 1351.6914 2962995
860.20605 593.0816 1342.5128 3226167
867.08008 592.03204 1340.137 2963252
873.94958 590.99951 1337.7997 2831409
889.21344 595.60925 1348.2344 3094581
901.26636 598.00177 1353.6501 2831409
909.74738 598.00177 1353.6501 2765616
918.68695 598.30035 1354.326 2765618
931.89154 601.3457 1361.2196 2831411
936.97711 599.14417 1356.2362 2897204
937.79987 594.28094 1345.2275 3094583
946.58917 594.50769 1345.7408 2831411
955.96014 595.09247 1347.0646 2962997
975.85809 602.1629 1363.0693 3423548
987.76678 604.22351 1367.7338 3027763
993.21338 602.32977 1363.447 2896177
1001.7557 602.32977 1363.447 2830641
1012.6002 603.70221 1366.5537 2830641
1022.5917 604.54736 1368.4669 2830641
1030.5254 604.17206 1367.6174 2830641
1037.6283 603.31982 1365.6882 3159606
1050.2026 605.6369 1370.9332 3028020
1061.105 606.95996 1373.9281 2896434
1071.8912 608.19592 1376.7258 2896434
1077.4452 606.46686 1372.812 3028276
1085.4541 606.13623 1372.0635 2962226
1092.2712 605.15051 1369.8322 2962225
1098.6702 603.95013 1367.1151 3225398
1108.8057 604.80658 1369.0536 2896432
1115.8536 603.97864 1367.1796 2699053
1119.0065 601.07104 1360.5979 2567467
1126.0554 600.28442 1358.8173 2764848
1130.8423 598.31281 1354.3542 3422778
1136.1516 596.6449 1350.5787 3356985
1147.5652 598.18359 1354.0616 2699312
1153.3787 596.80194 1350.9342 2699055
1162.9194 597.35504 1352.1862 2633262
1171.3914 597.35504 1352.1862 2699055
1171.7344 593.23944 1342.8701 3028020
1180.1479 593.23944 1342.8701 3225399
1198.1901 598.04541 1353.7489 3356985
1205.9658 597.6955 1352.9569 3356985
1214.4425 597.6955 1352.9569 2962227
1220.0881 596.31189 1349.8248 3159606
1233.1486 598.5462 1354.8826 3422778
1235.2134 595.44952 1347.8728 3554364
1243.6583 595.44952 1347.8728 3488571
1257.2666 597.90509 1353.4313 3488571
1267.0708 598.5307 1354.8475 3225399
1278.0176 599.68427 1357.4586 3291192
1287.3365 600.06372 1358.3176 3422778
1291.422 598.01465 1353.6793 3751743
1292.0569 594.40509 1345.5085 3685950
1311.5817 599.47601 1356.9873 3159606
1325.0304 601.72247 1362.0724 3093813
1339.4823 604.39276 1368.1169 2962227
1348.489 604.58777 1368.5585 2896434
1342.7345 598.2041 1354.1082 2830898
1343.2247 594.66522 1346.0974 3751743
1364.4664 600.30005 1358.8527 3685950
1378.2975 602.625 1364.1154 3488571
1386.8829 602.64191 1364.1537 3291192
1402.4177 605.65973 1370.9849 3422778
nan nan nan 16777215
nan nan nan 16777215
nan nan nan 16777215
nan nan nan 16777215
nan nan nan 16777215
nan nan nan 16777215
nan nan nan 16777215
nan nan nan 16777215
nan nan nan 16777215
nan nan nan 16777215
nan nan nan 16777215
nan nan nan 16777215
nan nan nan 16777215
nan nan nan 16777215
nan nan nan 16777215
nan nan nan 16777215
-1177.0687 602.34399 1344.5118 3423548
-1171.1608 603.64062 1347.4061 2831411
-1158.6194 601.51233 1342.6555 2897204
-1145.5519 599.07776 1337.2213 3094583
-1140.1337 600.63708 1340.7019 2699825
-1131.4889 600.50714 1340.4119 2765618
-1123.0908 600.50714 1340.4119 2897461
-1110.3153 598.14893 1335.1479 3752770
-1105.2915 599.96271 1339.1965 3753027
-1098.5057 600.84039 1341.1556 3686977
-1088.1289 599.75232 1338.7269 2963254
-1083.4856 601.83203 1343.3693 2634289
-1075.5548 602.104 1343.9763 3029047
-1062.7007 599.60248 1338.3925 2963254
-1052.1337 598.36182 1335.6232 2502703
-1031.7208 591.45685 1320.2104 3160633
-1020.7991 589.92529 1316.7917 3621184
-1014.3514 590.9754 1319.1357 2897718
-1007.0162 591.52148 1320.3546 3160633
-998.74377 591.52148 1320.3546 3358012
-1000.1441 597.2981 1333.2489 3489598
-997.3988 600.67542 1340.7875 3292219
-990.40125 601.52753 1342.6895 3292219
-985.83746 603.88501 1347.9517 3358012
-978.54559 604.59766 1349.5425 2963254
-965.57501 601.78357 1343.261 3226426
-958.38855 602.55658 1344.9865 3423805
-949.11487 602.01935 1343.7874 3358012
-941.15991 602.31653 1344.4506 2897204
-937.15021 605.16663 1350.8125 3028790
-929.75067 605.85986 1352.3597 2765618
-922.24023 606.4928 1353.7726 2962740
-917.37933 608.89612 1359.1371 2962997
-903.87878 605.55634 1351.6823 2699825
-898.4588 607.6181 1356.2844 2371117
-889.96118 607.6181 1356.2844 2568496
-875.96924 603.83063 1347.8303 2897461
-863.47369 601.01099 1341.5365 3358012
-855.0686 601.01099 1341.5365 3029047
-849.52661 603.04346 1346.0732 3226426
-839.33356 601.78192 1343.2573 3358012
-830.91754 601.78192 1343.2573 3094840
-838.10815 613.20038 1368.7449 3029047
-828.23651 612.24237 1366.6063 3094840
-818.33368 611.24103 1364.3712 2568496
-807.92126 609.83386 1361.2303 2305324
-799.08051 609.5957 1360.6986 2173738
-796.81769 614.42456 1371.4774 2634290
-789.38501 615.3288 1373.4958 2502957
-783.90808 617.79431 1378.9991 2108199
-768.86646 612.69293 1367.6122 2963508
-750.5957 604.87427 1350.1599 3029301
-740.08752 603.20422 1346.4321 2700336
-730.85327 602.54596 1344.9628 2700336
-721.85449 602.06879 1343.8976 2897972
-725.03027 611.85443 1365.7405 3095094
-713.44611 609.26904 1359.9696 3160375
-704.92548 609.26904 1359.9696 3291961
-692.62244 605.95996 1352.5833 2634030
-686.36176 607.92065 1356.9597 2634030
-680.00922 609.84808 1361.2621 2897459
-671.35748 609.73645 1361.0128 2962995
-660.26428 607.37592 1355.7438 2765616
-651.67633 607.28851 1355.5487 2634030
-643.62354 607.70404 1356.4763 2765872
-631.14801 603.89899 1347.9829 2897202
-621.55347 602.78473 1345.4956 2765616
-611.69507 601.38037 1342.361 3291960
-600.0542 598.15997 1335.1726 3884097
-590.83582 597.29755 1333.2476 4213062
-582.08282 596.88751 1332.3324 4147269
-576.89044 600.16998 1339.6592 4015683
-569.92456 601.677 1343.0231 3686462
-558.06818 597.98883 1334.7906 3489596
-552.61017 601.14886 1341.8442 3358266
-545.75073 602.8584 1345.6602 3358266
-537.0423 602.54712 1344.9655 3094581
-530.57458 604.78009 1349.9496 3160374
-521.78333 604.39386 1349.0875 3094581
-510.75366 601.35938 1342.3142 2831667
-501.7373 600.63354 1340.694 3226425
-494.21823 601.70593 1343.0878 3489598
-494.10443 611.98749 1366.0375 3555391
-484.55576 610.73962 1363.2521 3423805
-474.29953 608.53918 1358.3405 3555391
-465.67099 608.38489 1357.996 3094840
-455.23639 605.82135 1352.2738 2897461
-446.31177 605.20813 1350.905 2897718
-431.42392 596.32861 1331.0848 3226426
-422.86691 596.02234 1330.4011 2831669
-414.80734 596.41882 1331.2863 3095097
-410.56281 602.42963 1344.703 2370861
-395.23257 592.08508 1321.6127 2173738
-381.17294 583.242 1301.8738 2634289
-379.44379 593.29193 1324.3065 3621441
-371.14661 593.29193 1324.3065 2963511
-366.53128 599.31213 1337.7444 3226169
-357.90878 598.90863 1336.8438 3094839
-350.31662 600.25128 1339.8407 3424060
-338.1503 593.62982 1325.0607 3621439
-333.02072 599.33905 1337.8044 3160887
-326.34946 602.49689 1344.8533 3292473
-317.50308 601.70013 1343.0747 3489852
-308.12637 599.82751 1338.8948 3489852
-300.30124 600.95514 1341.4117 3095094
-290.43567 597.94678 1334.6968 2766386
-281.10187 595.88733 1330.0999 3423546
-274.96942 600.69574 1340.8328 3489339
-267.37573 602.5144 1344.8922 3554876
-259.224 603.15289 1346.3175 3555132
-249.7552 600.66681 1340.7683 3555388
-239.94153 597.14935 1332.9169 2897459
-231.59038 597.14935 1332.9169 3094580
-222.92517 596.3092 1331.0415 3358009
-215.44426 598.69482 1336.3666 2831665
-207.61327 600.26117 1339.8628 2305578
-201.70815 607.76233 1356.6064 2766129
-193.20859 607.76233 1356.6064 3555645
-184.50446 607.08929 1355.104 3621438
-176.59578 609.09479 1359.5807 4016197
-167.69435 607.70599 1356.4807 3160888
-160.31483 611.97858 1366.0177 3292473
-152.24487 613.94879 1370.4154 3029301
-143.67097 614.00092 1370.5316 3029301
-135.10638 614.10181 1370.757 3358266
-126.07024 611.92767 1365.9039 3160887
-117.54335 612.08862 1366.2633 2963251
-108.91583 611.70984 1365.4177 2766128
-100.36107 611.70984 1365.4177 3292217
-91.653702 610.69305 1363.1482 3554876
-83.348343 612.42114 1367.0055 2897458
-74.814041 612.6701 1367.5613 2305835
-66.57029 615.67084 1374.2592 2239785
-58.028244 616.39429 1375.874 2173992
-49.56551 618.35974 1380.2612 2568494
-41.078007 620.78168 1385.6672 2634030
-32.364708 620.17499 1384.313 2699823
-23.697945 620.3421 1384.6862 2897202
-14.983874 618.7489 1381.1299 2897202
-6.3188319 617.5921 1378.5477 3094838
2.3116064 615.83643 1374.6288 3226167
10.954988 617.57874 1378.5179 3160631
19.398252 611.47675 1364.8973 3094838
28.033878 613.31708 1369.0054 2765616
36.468311 610.92468 1363.6652 2765616
45.13055 612.53241 1367.2539 2962995
53.673714 612.26886 1366.6655 2831409
62.256454 612.46716 1367.1082 3226167
70.159088 606.73596 1354.3153 3357753
78.603935 606.4245 1353.6202 3686718
86.210335 600.33521 1340.0281 3489339
94.78801 601.48999 1342.6057 2962995
104.06879 606.55457 1353.9105 2831409
112.70879 607.40247 1355.8031 2634286
121.20333 607.40247 1355.8031 2436651
129.95094 608.58777 1358.4489 2502444
137.54839 604.5719 1349.4849 2634030
146.23123 605.51556 1351.5913 2436651
154.71574 605.57971 1351.7345 2699823
163.35422 606.20844 1353.1379 2699823
172.17075 607.40338 1355.8052 2502444
180.74945 607.68634 1356.4368 2699823
187.98552 603.63263 1347.3883 2897202
196.42732 603.63263 1347.3883 2765873
204.77118 603.34399 1346.744 3818304
210.46417 595.57678 1329.4066 3752511
218.79332 595.57678 1329.4066 3291960
228.58876 599.42181 1337.9893 3160374
235.68315 596.16248 1330.714 2897202
245.90572 600.76825 1340.9946 2568237
255.7382 604.14825 1348.5392 3028788
264.39453 604.62231 1349.5974 2962995
271.59241 601.83508 1343.376 2436651
278.84579 599.33484 1337.795 2634287
287.16351 599.20129 1337.4971 3620925
295.54333 599.20129 1337.4971 3160374
305.10428 601.52997 1342.6948 2502444
313.51669 601.52997 1342.6948 2897202
324.95187 607.1781 1355.3022 3291960
333.44327 607.1781 1355.3022 3160373
344.50586 611.74377 1365.4935 2963254
353.42023 612.36603 1366.8824 3291962
360.47845 609.81879 1361.1968 3357755
369.50851 610.64801 1363.0476 3423548
373.9841 604.08301 1348.3937 3423548
386.94241 611.20734 1364.296 2962997
395.2894 610.89709 1363.6035 2897204
403.83282 610.89709 1363.6035 3028790
416.15869 616.50043 1376.111 3357755
423.92899 615.26471 1373.3527 3357755
429.17111 610.48181 1362.6766 3226169
437.09113 609.62048 1360.754 2831411
445.61667 609.62048 1360.754 2765618
452.57831 607.52118 1356.0681 2634032
461.3537 607.8891 1356.8893 2765618
469.85504 607.8891 1356.8893 2568239
474.07004 602.44202 1344.7307 2305067
481.82047 601.59961 1342.8503 2239274
488.77716 599.81195 1338.8601 2436653
496.10126 598.52802 1335.9941 2897204
503.9765 597.94049 1334.6827 3094583
