# .PCD v0.7 - Point Cloud Data file format
VERSION 0.7
FIELDS x y z rgb
SIZE 4 4 4 4
TYPE F F F U
COUNT 1 1 1 1
WIDTH 1271
HEIGHT 1
VIEWPOINT 0 0 0 1 0 0 0
POINTS 1271
DATA ascii
-1545.8029 1053.2268 11353.241 3095355
-1472.1652 1051.4369 11333.947 3161148
-1393.0026 1045.3196 11268.007 3226941
-1317.2865 1041.2734 11224.392 3292734
-1245.3395 1039.9185 11209.785 3292734
-1166.795 1032.5631 11130.498 3226941
-1095.0212 1030.6451 11109.823 3161148
-1025.4148 1030.6451 11109.823 3226941
-954.98785 1029.7605 11100.287 3095612
-882.93402 1026.8447 11068.857 3161147
-812.69415 1025.7213 11056.747 3160636
-742.35803 1024.2559 11040.95 3160635
-672.5285 1023.2599 11030.215 3160379
-600.19702 1017.7932 10971.286 3094842
-519.02527 993.98236 10714.618 3094842
-445.23502 979.3335 10556.71 2963256
-379.09396 979.3335 10556.71 3094842
-312.99643 979.46973 10558.179 3226684
-246.84619 979.46973 10558.179 3160891
-180.09525 976.21375 10523.081 3226684
-114.08292 975.51282 10515.525 3095355
-48.088276 973.25403 10491.177 3029562
17.527103 966.9046 10422.733 3095355
80.26606 936.98889 10100.257 3029562
143.5473 936.98889 10100.257 3292223
209.08414 947.2074 10210.407 3424065
270.10605 936.97595 10100.117 3424322
329.05518 924.80304 9968.9004 3358273
385.89838 911.53955 9825.9268 3424065
440.99374 898.3653 9683.9141 3358272
492.98608 882.82062 9516.3516 3489858
542.24994 866.27161 9337.9609 3687237
592.15369 853.86853 9204.2627 3818823
632.81018 831.51593 8963.3125 3752773
674.89795 814.53461 8780.2627 3753030
716.8075 799.91412 8622.6621 3818823
757.46179 786.04028 8473.1094 3819080
790.91003 766.99573 8267.8184 3687237
820.53015 746.80823 8050.2075 3424065
825.13025 707.50543 7626.5439 3555393
846.29919 685.93475 7394.0229 3489601
850.5506 653.60278 7045.501 3489346
nan nan nan 16777215
nan nan nan 16777215
826.3017 549.42584 5922.5269 1515050
825.27057 525.15704 5660.9224 67095
853.07513 520.48175 5610.5254 264989
879.88391 515.59302 5557.8271 593954
907.86633 511.73804 5516.2725 593955
937.80377 509.22736 5489.2085 462116
964.4696 505.18063 5445.5869 593702
995.12848 503.43057 5426.7222 528680
1032.4681 505.06418 5444.3315 594216
1064.9519 504.29391 5436.0283 725803
1093.1599 501.60938 5407.0903 660267
1121.3949 499.09824 5380.022 660523
1151.7448 497.64752 5364.3838 594985
1181.1376 495.8772 5345.3003 529446
1209.4845 493.7775 5322.667 397858
1257.1345 499.45966 5383.918 792871
1251.6683 484.29321 5220.4312 2568765
2110.303 795.72131 8577.4658 3358279
2373.6594 872.79742 9408.3066 3161157
2391.7241 858.12958 9250.1943 3424068
2426.3997 849.97449 9162.2871 3424324
2460.512 842.00385 9076.3672 3424068
2534.521 847.73761 9138.1748 3424068
2625.4805 858.76245 9257.0166 3424066
2743.7124 878.03839 9464.8018 3358272
2944.0061 922.20447 9940.8887 3161406
3028.115 928.89984 10013.062 3095613
3107.0505 933.76862 10065.544 3227199
3196.4424 941.52368 10149.14 3227456
3282.7671 948.09033 10219.925 3161663
3385.8809 959.16187 10339.271 3095870
3522.5884 979.15552 10554.791 3030077
3731.3643 1018.0756 10974.33 2964286
3890.2095 1042.2107 11234.493 3030080
4040.5947 1063.2616 11461.412 3227458
4209.9722 1088.4879 11733.339 3293250
4355.0117 1106.6637 11929.264 3424837
4267.0874 1066.0259 11491.209 3424837
4286.2612 1053.0486 11351.32 3424837
4361.0273 1053.9298 11360.82 3752519
4455.895 1059.5627 11421.54 3358273
4575.8745 1070.8944 11543.689 3424064
4589.0571 1057.2688 11396.812 3292735
nan nan nan 16777215
nan nan nan 16777215
4190.7866 922.45221 9943.5586 3489601
5169.623 1121.24 12086.389 3423808
5714.4634 1221.5175 13167.329 3226686
5991.3164 1262.4716 13608.793 3292221
6169.5415 1281.7853 13816.985 3357758
5916.5615 1212.2169 13067.074 3292479
5768.3823 1165.7268 12565.934 3226686
5851.7598 1166.6533 12575.922 3292223
6030.5645 1186.3278 12788.002 3292222
6272.4927 1217.7411 13126.621 3358015
6676.8462 1279.4664 13791.988 3423551
7057.7393 1335.1761 14392.511 3292222
7245.5103 1353.4066 14589.026 3423808
7347.3896 1355.3389 14609.854 3555394
7447.2544 1356.8566 14626.214 3489601
7543.2954 1357.6489 14634.756 3423808
7693.334 1368.0243 14746.597 3489601
7819.373 1373.9363 14810.325 3358015
7956.0386 1381.5551 14892.451 3358015
8149.4395 1398.7349 15077.641 3358015
8261.2471 1401.6772 15109.357 3094843
8468.9473 1420.6385 15313.751 2963257
8557.0205 1419.3328 15299.676 2963257
8601.6943 1410.9373 15209.176 3029050
8710.2354 1413.0869 15232.349 3226172
8935.5928 1433.9362 15457.093 3226429
9062.3877 1438.6909 15508.347 3226429
9134.5039 1434.7567 15465.938 3358014
9231.4023 1434.7567 15465.938 3292222
9299.2949 1430.2953 15417.846 3292222
9285.6758 1413.5175 15236.989 3292222
9432.5342 1421.2612 15320.464 3292222
9571.667 1427.6969 15389.836 3226429
9669.7598 1427.9435 15392.495 3094843
9797.1299 1432.4661 15441.245 3292222
9826.2588 1422.6765 15335.72 3226429
9810.4824 1406.6381 15162.833 3160636
9789.9375 1390.23 14985.963 3357760
9885.1748 1390.4193 14988.003 3358015
10020.307 1396.1636 15049.924 3358014
10098.291 1393.9125 15025.658 3423552
10193.148 1394.0106 15026.715 3358016
10302.808 1396.1125 15049.374 3358015
10407.402 1397.4963 15064.29 3292479
10523.074 1400.3293 15094.829 3423038
10692.015 1410.1375 15200.555 3423295
10808.907 1412.9684 15231.071 3291710
10994.854 1424.6979 15357.509 3291709
11197.134 1438.3217 15504.366 3291709
11359.24 1446.5951 15593.55 3225916
11528.924 1455.6843 15691.526 3094330
11774.793 1474.1578 15890.661 3028537
11882.856 1475.2136 15902.042 3028537
12062.204 1485.0277 16007.834 3160123
12162.499 1485.0277 16007.834 3160123
12368.381 1497.8146 16145.669 3225916
12390.698 1488.3445 16043.586 3225916
12456.997 1484.2672 15999.636 3225916
12581.714 1487.16 16030.818 3225916
12811.595 1502.339 16194.44 3291708
13054.444 1518.7882 16371.755 3225916
13279.585 1532.9368 16524.268 3160123
13544.941 1551.4729 16724.078 3160123
13671.953 1553.9995 16751.314 3160123
13869.742 1564.4714 16864.195 3225916
14092.4 1577.5688 17005.379 3160123
14302.739 1589.101 17129.689 3094587
14349.518 1582.4242 17057.717 3160123
15065.442 1649.0924 17776.365 3028794
14293.479 1553.1101 16741.727 3094330
14305.825 1543.1273 16634.117 3160123
14410.043 1543.1273 16634.117 3094074
14636.437 1556.1167 16774.137 3027766
14775.571 1559.7101 16812.871 2961974
14602.867 1530.5676 16498.73 2896181
14706.236 1530.5676 16498.73 2830389
14782.816 1527.7988 16468.885 2764851
15000.213 1539.5211 16595.244 2698803
14954.21 1524.2344 16430.461 2698803
14964.748 1514.8804 16329.63 2567218
15067.059 1514.8804 16329.63 2370095
15195.888 1517.5287 16358.177 2238509
15330.283 1520.6935 16392.293 2304046
15398.938 1517.3387 16356.129 2238509
15513.036 1518.4762 16368.392 2436145
15715.443 1528.1863 16473.061 2370352
15898.326 1535.8832 16556.029 2172974
16070.926 1542.4935 16627.285 2238767
16191.865 1544.0922 16644.518 2435376
16414.807 1555.3353 16765.713 2369839
16859.684 1587.3306 17110.605 2238254
17006.543 1591.0404 17150.596 2106667
17349.648 1612.9484 17386.752 2106667
17765.611 1641.3141 17692.52 2106667
18573.846 1705.3439 18382.729 2172460
18944.318 1728.6395 18633.844 2106667
19088.295 1731.109 18660.463 2040875
nan nan nan 16777215
nan nan nan 16777215
nan nan nan 16777215
nan nan nan 16777215
-6991.9019 728.14221 7354.8994 2766139
-6954.5576 729.05798 7364.1499 2831929
-6916.9683 729.96033 7373.2637 2831930
-6925.8232 735.80896 7432.3403 2766137
-6888.2432 736.77008 7442.0488 2700343
-6854.3994 738.14667 7455.9536 2634550
-6864.0059 744.25342 7517.6372 2765879
-6879.8174 751.12195 7587.0156 2700343
-6848.2915 752.88202 7604.7939 2831672
-6814.7339 754.44171 7620.5483 2766135
-6806.1284 758.8053 7664.6245 2831928
-6792.666 762.68561 7703.8188 2831671
-6902.0474 780.51318 7883.8936 2766135
-6857.9185 781.11292 7889.9517 2897464
-7031.8584 806.73969 8148.8052 2700085
-7006.3555 809.69263 8178.6328 2634036
-6944.0068 808.3996 8165.5723 2897464
-6915.958 811.11005 8192.9502 2897464
-6924.2437 818.15436 8264.1035 2897720
-6987.1152 831.80298 8401.9678 2766134
-7133.9082 855.72552 8643.6064 2700085
-7136.9385 862.63739 8713.4229 2634292
-7072.6172 861.45245 8701.4541 2634292
-6961.1606 854.4632 8630.8564 2700085
-6873.6333 850.32495 8589.0566 2634292
-6806.2124 848.62823 8571.918 2700085
-6732.3677 846.09729 8546.3535 2568499
-6694.6885 848.10718 8566.6553 2700342
-6614.0767 844.66693 8531.9053 2766135
-6520.9561 839.56006 8480.3213 2766391
-6376.7012 827.73181 8360.8447 2766135
-6208.4683 812.56934 8207.6904 2897720
-6069.6479 801.03528 8091.1855 2831928
-5920.0005 787.86591 7958.1631 2831928
-5777.3901 775.41742 7832.4219 2766135
-5596.814 757.61633 7652.6152 2634549
-5447.5151 743.77814 7512.8364 2765878
-5341.1802 735.61578 7430.3896 2831671
-5334.147 741.10675 7485.853 2963514
-5275.6426 739.48029 7469.4243 2897721
-5019.188 709.83002 7169.9297 2897978
-4972.9146 709.63708 7167.981 2700342
-4842.3604 697.3042 7043.4077 2634549
-4668.7695 678.49011 6853.3682 2963514
-4559.4712 668.7569 6755.0537 2897720
nan nan nan 16777215
nan nan nan 16777215
nan nan nan 16777215
-2670.5837 406.81036 4109.1553 3424838
-2800.6987 430.78369 4351.3076 4016975
-2797.9065 434.58447 4389.6992 4082767
nan nan nan 16777215
nan nan nan 16777215
-4431.3926 709.22003 7163.7681 2898491
-4360.5762 705.02698 7121.4146 2831929
-4485.4907 732.7207 7401.1465 2831926
-4778.5186 788.74182 7967.0103 2963769
-4852.7764 809.45422 8176.2251 3029562
-4858.6382 819.07825 8273.4365 3029562
-4875.1572 830.72595 8391.0889 3095355
-4849.9736 835.44391 8438.7441 3095355
-4854.6558 845.46716 8539.9883 3095355
-4822.7212 849.26587 8578.3584 3029818
-4850.5356 863.79034 8725.0684 3029562
-4849.332 873.41931 8822.3301 2963256
-4885.0806 890.00256 8989.8369 2897720
-4930.4268 908.7417 9179.1191 2897719
-4979.7612 928.66699 9380.3828 2897720
-5017.6235 946.90326 9564.585 2897719
-5067.6812 967.90955 9776.7676 2963512
-5037.4854 973.91412 9837.4199 3029050
-4986.1113 975.92249 9857.7061 3094585
-4929.9077 977.02399 9868.832 3029047
-4843.7974 972.15125 9819.6123 3094840
-4734.0464 962.34729 9720.584 3094840
-4656.3423 958.88715 9685.6338 3160633
-4522.2773 943.57617 9530.9785 3160633
-4519.8887 955.69733 9653.4131 3161146
-4522.7109 969.26398 9790.4492 3292733
-4484.4839 974.28552 9841.1709 3358526
-4487.0483 988.43274 9984.0713 3358783
-4398.79 982.69031 9926.0664 3358784
-4313.6587 977.49158 9873.5557 3226941
-4287.9741 985.80872 9957.5654 3095355
-4233.2549 987.59753 9975.6348 3029562
-4106.6982 972.4295 9822.4238 2897976
-4138.3096 994.82257 10048.614 3161148
-4166.4556 1017.0617 10273.25 3226941
-4106.271 1018.0983 10283.72 3292734
-4059.2932 1022.4944 10328.125 3292734
-3951.6426 1011.5027 10217.099 3226941
-3803.5283 989.62097 9996.0723 3226941
-3752.4441 992.6748 10026.92 3292991
-3735.5972 1005.0441 10151.86 3425091
-3715.188 1016.8669 10271.281 3556421
-3666.3611 1021.1914 10314.963 3490628
-3585.595 1016.6152 10268.74 3490628
-3468.957 1001.5155 10116.219 3490884
-3431.4912 1009.1368 10193.2 3555908
-3346.4983 1002.8053 10129.246 3226944
-3273.7815 999.97858 10100.694 3160892
-3214.9954 1001.3795 10114.845 3029562
-3156.1948 1002.8323 10129.519 3029562
-3095.6218 1003.7698 10138.989 3161148
-3057.426 1012.1547 10223.684 3292734
-2964.8733 1002.5186 10126.351 3095355
-2901.4287 1002.5186 10126.351 3095355
-2893.6267 1022.1743 10324.892 3095355
-2849.5535 1029.6233 10400.133 2964026
-2803.1018 1036.5414 10470.012 3095355
-2755.1228 1043.2126 10537.397 3161148
-2664.2117 1033.5564 10439.861 3029562
-2600.4412 1034.208 10446.442 3095355
-2545.2861 1038.4082 10488.868 3029562
-2456.9717 1028.9443 10393.274 3095355
-2393.6272 1029.7068 10400.977 3161148
-2368.9548 1047.6139 10581.854 3095355
-2308.408 1050.2307 10608.286 3095355
-2244.6462 1051.4966 10621.073 3161148
-2189.5723 1057.0341 10677.006 3029562
-2132.97 1062.1594 10728.777 3226941
-2042.1348 1050.0166 10606.124 3226941
-1978.135 1051.3192 10619.281 3226941
-1923.7092 1057.9778 10686.539 3226941
-1857.407 1058.3494 10690.293 3358527
-1793.101 1059.9288 10706.247 3358527
-1702.9675 1045.7708 10563.237 3424320
-1632.0635 1042.7538 10532.763 3358527
-1544.2483 1028.2224 10385.982 3358527
-1473.9941 1024.6198 10349.592 3424320
-1404.069 1020.9246 10312.269 3358527
-1332.1213 1015.3315 10255.773 3292734
-1260.7889 1009.6644 10198.529 3424320
-1196.892 1009.6644 10198.529 3424320
-1129.887 1006.8945 10170.552 3292734
-1049.408 991.06885 10010.698 3358527
-989.10382 993.49561 10035.21 3292734
-924.80432 991.96631 10019.763 3358527
-862.83649 992.89734 10029.167 3358527
-794.45447 986.01379 9959.6367 3358527
-730.54791 983.98492 9939.1436 3160635
-663.33362 976.7074 9865.6348 3160635
-597.19495 969.68097 9794.6602 3292221
-526.54529 952.88147 9624.9707 3358014
-430.33609 879.49915 8883.7422 3160635
-364.90225 856.55505 8651.9863 2436912
-291.76401 804.36456 8124.8145 3094842
-257.0527 858.44257 8671.0518 3686979
-211.08366 893.83362 9028.5332 3686979
-154.80194 895.48132 9045.1768 3621444
-98.405983 897.98969 9070.5137 3555652
-42.354931 914.80475 9240.3613 3489858
15.209064 895.39252 9044.2803 3489601
71.470474 890.362 8993.4668 3226687
128.87007 897.69531 9067.54 3292479
184.02303 889.6795 8986.5732 3424065
244.71959 905.94183 9150.8369 3555651
300.98737 902.74738 9118.5703 3555651
353.63007 891.43402 9004.2959 3555651
408.319 887.68225 8966.3994 3555651
463.30359 885.40295 8943.376 3490115
520.53455 887.44537 8964.0059 3555651
572.30078 880.68042 8895.6748 3621701
615.68579 863.36353 8720.7578 3621444
646.70068 832.93701 8413.4229 3621701
686.88873 818.0213 8262.7607 3687237
730.76886 809.28522 8174.5176 3555908
773.07098 800.06024 8081.3369 3555395
775.03864 752.7926 7603.8911 3555395
809.10571 740.37207 7478.4321 3489601
824.83392 713.44891 7206.4834 3489602
852.23724 698.89471 7059.4727 3555395
857.66083 668.64099 6753.8828 3555142
nan nan nan 16777215
784.74097 556.84479 5624.6396 1383722
823.59546 559.29932 5649.4321 67351
847.39923 551.75183 5573.1958 264989
873.5769 546.28619 5517.9883 593956
905.80945 544.87903 5503.7744 593701
935.0517 541.84222 5473.0996 527908
962.19147 537.84503 5432.7241 594216
994.09814 536.69452 5421.1035 528423
1031.4623 538.46906 5439.0278 594473
1060.0077 535.67352 5410.7905 660524
1093.3586 535.4046 5408.0742 660780
1122.3134 533.0636 5384.4282 595243
1151.8855 531.1441 5365.0391 594985
1184.1011 530.51776 5358.7124 660776
1214.0624 528.94366 5342.813 332066
1247.5367 528.94366 5342.813 924455
1251.285 516.66949 5218.8325 2635070
nan nan nan 16777215
2120.3572 832.03485 8404.3096 3160898
1992.0148 762.73169 7704.2847 3226689
nan nan nan 16777215
2074.9246 757.75421 7654.0078 3226688
2238.6497 799.07806 8071.416 3160896
2401.9863 838.44049 8469.0127 3226687
2507.7969 856.45544 8650.9795 3226686
2668.1836 891.95239 9009.5312 3226686
2733.6199 894.89502 9039.2549 3226429
2805.2615 899.70837 9087.874 3226430
2910.7729 914.97699 9242.1006 3226686
3014.415 929.07367 9384.4902 3095870
3122.3369 943.92487 9534.501 3095870
3264.0227 968.23419 9780.0469 3161663
3491.5281 1016.6358 10268.947 3161665
3611.1917 1032.4535 10428.721 3161665
3702.4744 1039.7391 10502.312 3227458
3781.9934 1043.5244 10540.546 3227458
3715.3101 1007.5321 10176.991 3359044
3712.7668 989.85443 9998.4316 3359301
3760.2441 985.87823 9958.2676 3359044
3832.9424 988.53638 9985.1172 3555396
4004.8462 1016.2838 10265.392 3555137
4069.1619 1016.2838 10265.392 3489857
3629.5271 892.37921 9013.8428 3292478
nan nan nan 16777215
nan nan nan 16777215
3928.5835 922.83008 9321.4248 2897721
4496.3276 1040.7229 10512.249 3489601
5083.5991 1159.6664 11713.686 3489601
5227.5132 1175.5253 11873.875 3423808
5301.9067 1175.5253 11873.875 3423808
5118.1191 1119.0741 11303.668 3358015
5178.7075 1116.8673 11281.377 3423808
5251.0864 1117.2284 11285.024 3423808
5421.9194 1138.249 11497.352 3423551
5608.9639 1162.0769 11738.035 3292222
5911.2896 1208.8633 12210.62 3358015
6146.9272 1240.9907 12535.136 3226429
6274.5688 1250.7793 12634.01 3292222
6400.1899 1259.9263 12726.403 3489601
6524.208 1268.5365 12813.374 3489601
6709.9468 1288.7922 13017.975 3423808
6844.2778 1298.806 13119.124 3489601
6934.082 1300.2327 13133.534 3423808
7094.9224 1314.7902 13280.578 3358016
7127.4937 1305.5154 13186.894 3423808
7213.0762 1306.0518 13192.312 3292222
7416.1724 1327.6128 13410.099 3423808
7548.2827 1336.1256 13496.086 3292222
7649.2915 1339.0055 13525.175 3160636
7774.0596 1345.9358 13595.177 3226429
7844.3066 1343.3788 13569.349 3292222
8082.9644 1369.4084 13832.272 3292222
8172.6709 1369.9187 13837.426 3358015
8309.9141 1378.3025 13922.11 3292222
8327.3447 1366.8463 13806.393 3358015
8419.332 1367.7375 13815.395 3358015
8704.8271 1399.7266 14138.513 3292222
8815.2783 1403.2075 14173.673 3358015
8905.7178 1403.4655 14176.279 3292222
8980.4863 1401.2732 14154.135 3358015
9066.1807 1400.8118 14149.475 3358015
9000.5156 1377.1995 13910.969 3358015
9057.416 1372.6141 13864.653 3423808
9152.8164 1373.8951 13877.593 3358015
9356.1006 1391.1938 14052.324 3423808
9439.8906 1390.5675 14045.998 3423295
9504.2158 1387.1118 14011.093 3423551
9585.9551 1386.2377 14002.263 3423039
9616.2344 1378.0052 13919.107 3423038
9665.4365 1372.608 13864.591 3291709
9719.0156 1367.9229 13817.267 3357502
9805.585 1367.9229 13817.267 3357502
9966.4893 1378.2021 13921.098 3423295
10091.977 1383.4481 13974.086 3291709
10173.906 1382.684 13966.366 3291709
10232.767 1378.8245 13927.383 3291710
10683.599 1427.4003 14418.042 3291709
10495.673 1390.5345 14045.665 3291709
10473.29 1376.032 13899.176 3225915
10560.277 1376.0195 13899.05 3225915
10692.274 1381.8241 13957.682 3225915
10857.243 1391.7611 14058.055 3225915
10954.433 1392.9197 14069.757 3160123
11067.027 1396.0031 14100.901 3291708
11250.312 1407.8835 14220.906 3291709
11497.212 1427.4761 14418.809 3357501
11676.812 1438.4722 14529.879 3291709
11905.014 1455.2394 14699.243 3423294
12065.063 1463.4822 14782.503 3291709
12345.668 1486.1112 15011.076 3291709
12557.24 1500.1511 15152.892 3357502
12734.504 1509.9122 15251.489 3357502
12999.043 1529.7993 15452.366 3357502
13024.386 1521.4504 15368.035 3423296
12701.829 1472.8822 14877.451 3423295
12795.041 1472.8822 14877.451 3423295
13197.011 1508.1672 15233.863 3291966
13095.821 1485.8572 15008.511 3423295
13469.173 1517.3229 15326.343 3291709
13780.239 1541.376 15569.302 3291966
13983.163 1553.0801 15687.523 3423295
13224.513 1458.5662 14732.847 3489087
13878.895 1520.1294 15354.69 3488579
14110.749 1534.885 15503.735 3488834
14090.161 1522.1671 15375.273 3357248
14077.782 1510.5028 15257.454 3225662
14235.815 1517.1573 15324.671 3225406
14370.698 1521.2721 15366.233 3159869
14466.973 1521.2721 15366.233 3094077
14674.786 1532.9235 15483.923 3028026
15299.144 1587.6479 16036.69 2830903
14526.668 1497.6499 15127.628 2830904
14650.489 1500.6246 15157.675 2830647
14806.627 1506.8497 15220.555 2962233
14593.178 1475.6235 14905.142 2699318
14588.93 1465.814 14806.056 2764854
16017.515 1599.1816 16153.191 2764854
15747.417 1562.3438 15781.095 3028025
15893.118 1566.9607 15827.73 3093561
16395.969 1606.5148 16227.262 2896695
17539.787 1707.9977 17252.332 2896182
16674.23 1613.766 16300.506 2830389
nan nan nan 16777215
nan nan nan 16777215
nan nan nan 16777215
nan nan nan 16777215
-6636.46 734.63293 6981.0039 2766134
-6587.0723 734.00336 6975.0215 2766135
-6591.9082 739.44794 7026.7598 2831928
-6550.6191 739.75696 7029.6958 2831928
-6544.2227 744.03711 7070.3691 2897207
-6501.7007 744.24042 7072.3013 2831671
-6551.5776 755.09589 7175.4575 2766135
-6534.1094 758.28589 7205.771 2831671
-6494.7729 758.96484 7212.2231 3029050
-6476.4771 762.12927 7242.2935 2963257
-6470.1118 766.7522 7286.2241 2897464
-6443.4912 769.02338 7307.8066 2897464
-6442.8716 774.45251 7359.3979 2831671
-6460.8291 782.20892 7433.105 2897464
-6583.7085 802.87311 7629.4707 2897464
-6577.813 808.02081 7678.3877 2963257
-6463.5522 799.83472 7600.5977 2963257
-6444.2134 803.36035 7634.1006 3029050
-6452.6631 810.42883 7701.2705 3029050
-6563.168 830.51819 7892.1738 2831671
-6687.3828 852.66052 8102.5864 2765878
-6753.4375 867.66937 8245.21 2700085
-6726.0874 870.81659 8275.1182 2700085
-6644.8228 866.97815 8238.6426 2700342
-6557.1196 862.23315 8193.5518 2700085
-6481.8481 859.06079 8163.4058 2700085
-6417.3335 857.2749 8146.4351 2831928
-6333.0396 852.797 8103.8828 2700342
-6251.123 848.56946 8063.709 2766135
-6171.6636 844.60919 8026.0767 2766392
-6018.668 830.43756 7891.4077 2766135
-5905.0298 821.50665 7806.5396 2832185
-5739.9233 805.20648 7651.644 2963514
-5552.7451 785.50934 7464.4678 3029307
-5529.7476 788.90045 7496.6924 2897721
-5374.5786 773.33191 7348.749 2963514
-5243.291 760.96027 7231.1846 3226686
-5145.2388 753.23834 7157.8057 3226686
-5007.6143 739.53668 7027.6025 3226686
-4925.5801 733.87427 6973.7944 3029307
-4727.0996 710.60571 6752.6802 2897721
-4681.5054 710.10718 6747.9429 2831928
-4639.2275 710.10718 6747.9429 2700342
-4601.7939 710.85547 6755.0537 2897721
-3974.8657 619.71118 5888.9355 3029051
-3303.5383 519.87183 4940.1914 3029822
nan nan nan 16777215
nan nan nan 16777215
-2707.8916 438.46021 4166.5601 3424837
-2845.8154 465.27811 4421.4033 4148560
-2807.0493 463.45132 4404.0435 4082767
-2779.4565 463.45132 4404.0435 3490887
nan nan nan 16777215
-3900.8926 663.61743 6306.1641 2766905
-4168.0449 716.32037 6806.9854 2701112
-4255.0796 738.83801 7020.9639 2832440
-4358.9248 764.77563 7267.4414 3029819
-4410.9683 782.07605 7431.8423 3161148
-4366.7104 782.48914 7435.7676 3226941
-4388.25 794.82874 7553.0273 3292734
-4401.4009 805.90149 7658.248 3424320
-4442.9102 822.46777 7815.6729 3358527
-4443.8833 831.8158 7904.5049 3621699
-4502.1558 852.22083 8098.4077 3490113
-4558.3945 872.70172 8293.0312 3490369
-4610.2925 892.81415 8484.1543 3490113
-4696.8252 920.18134 8744.2168 3358527
-4697.0176 931.07947 8847.7783 3358527
-4723.6763 947.54675 9004.2627 3292734
-4688.7847 951.9165 9045.7861 3358527
-4660.3408 957.71796 9100.916 3161148
-4595.3794 956.06573 9085.2158 3161148
-4573.7202 963.4942 9155.8057 3029562
-4521.8193 964.65948 9166.8799 2964026
-4463.1279 964.38782 9164.2979 2963769
-4403.1392 963.82477 9158.9473 2766390
-4355.8037 966.05334 9180.125 2897976
-4292.8672 964.83514 9168.5488 3161148
-4224.9463 962.44836 9145.8682 3226941
-4157.2388 960.04535 9123.0332 3358527
-4105.8237 961.39032 9135.8135 3555906
-4060.3564 964.18555 9162.376 3425091
-3992.3892 961.64148 9138.2002 3490627
-3884.064 949.16101 9019.6016 3425091
-3841.1211 952.52557 9051.5742 3425091
-3795.4324 955.29987 9077.9375 3556420
-3734.1443 954.17242 9067.2236 3359041
-3659.5339 949.55341 9023.3311 3293248
-3618.7703 953.70959 9062.8262 3293248
-3565.4514 954.63672 9071.6357 3425091
-3480.9268 947.10327 9000.0479 3556421
-3449.116 953.90033 9064.6387 3556421
-3390.5642 953.40576 9059.9385 3490628
-3343.1772 956.08722 9085.4199 3424835
-3316.1428 964.78296 9168.0527 3359042
-3268.1736 967.58704 9194.6992 3424578
-3230.8733 973.70721 9252.8574 3293249
-3177.4221 975.09454 9266.041 3359042
-3137.9939 980.91705 9321.3701 3490628
-3046.8276 970.48071 9222.1973 3358016
-2947.8962 957.11975 9095.2314 3292479
-2890.9119 957.11975 9095.2314 3292733
-2849.9148 962.51923 9146.541 3292734
-2798.0325 964.38849 9164.3047 3226941
-2799.6582 985.16504 9361.7383 3226941
-2718.4663 977.06458 9284.7617 3095355
-2660.2944 977.06458 9284.7617 3095355
-2619.7156 983.67047 9347.5361 3226941
-2562.3967 984.14923 9352.085 3029562
-2568.4673 1009.5663 9593.6162 3029562
-2456.2053 988.57501 9394.1416 3095355
-2364.4978 975.02875 9265.416 3029562
-2312.4014 977.54584 9289.335 3029562
-2252.333 976.73584 9281.6377 3095355
-2187.8186 973.90381 9254.7256 3029562
-2129.8894 973.92877 9254.9629 3095355
-2091.687 983.22791 9343.3301 3161148
-2069.2896 1000.7059 9509.418 3161148
-2014.4493 1003.0657 9531.8428 3095355
-1956.6639 1004.0584 9541.2764 3029562
-1912.9406 1012.5569 9622.0352 3029819
-1858.6058 1015.8091 9652.9395 3095355
-1801.8666 1017.9216 9673.0137 3095355
-1709.8047 999.53186 9498.2617 3095355
-1651.597 1000.3204 9505.7549 3226941
-1594.5009 1001.8663 9520.4453 3226941
-1548.646 1010.87 9606.0049 3226941
-1472.401 999.96283 9502.3574 3292734
-1367.8312 968.08929 9199.4727 3490113
-1308.1689 966.59338 9185.2568 3226941
-1257.7509 972.10437 9237.626 3490113
-1212.7791 982.55951 9336.9785 3555906
-1150.6151 979.43982 9307.333 3490370
-1083.2719 971.34277 9230.3896 3424320
-1025.589 971.4834 9231.7256 3292734
-951.68683 955.35895 9078.499 3424577
-886.40961 946.39313 8993.2998 3490113
-829.28613 945.50653 8984.874 3424320
-772.65393 945.09149 8980.9307 3292734
-712.86115 940.44189 8936.7471 3292223
-655.3559 938.27466 8916.1523 3358527
-596.68823 933.88428 8874.4316 3160891
-535.75903 924.68817 8787.0439 3292990
-462.11087 888.91937 8447.1436 3753284
-359.11823 780.15002 7413.5396 3095612
-309.68573 772.70367 7342.7793 2108204
-263.8186 773.10706 7346.6123 3358014
-239.38196 849.75464 8074.9717 3884101
-198.80144 894.81781 8503.1943 3752773
-150.15154 923.25769 8773.4502 3686981
-93.921776 911.02271 8657.1846 3621188
-39.699837 911.43616 8661.1133 3555395
14.683724 918.88312 8731.8799 3555395
70.000618 926.94696 8808.5078 3489859
124.69285 923.27582 8773.6221 3424066
179.17365 920.76453 8749.7588 3358016
233.99359 920.76453 8749.7588 3226943
288.30881 919.1554 8734.4668 3160893
336.76956 902.37274 8574.9863 3160893
392.59229 907.22028 8621.0518 3160893
445.39462 904.75983 8597.6709 3161404
496.95847 900.58594 8558.0078 3160635
549.2832 898.46967 8537.8965 3094841
585.92438 873.35168 8299.208 3160635
623.07318 853.0235 8106.0352 3358013
663.17786 839.50122 7977.5371 3226428
713.15967 839.50122 7977.5371 3358013
712.32843 783.604 7446.3613 3226428
750.57068 774.91962 7363.8364 3423807
780.96027 759.60309 7218.2881 3423808
806.60406 741.6001 7047.2109 3423808
837.00928 729.61633 6933.3325 3423810
849.45172 703.92938 6689.2373 3423556
813.77649 642.65845 6106.9971 3357765
817.00568 616.23444 5855.8975 1383722
827.98444 597.6756 5679.5381 132887
845.78455 585.36737 5562.5767 330783
872.85498 580.19543 5513.4287 659747
900.55316 575.81848 5471.8364 593445
931.85651 573.98334 5454.3975 528420
959.93018 570.35901 5419.9565 594216
992.52789 569.57861 5412.5405 594216
1030.5767 571.87457 5434.3579 660009
1054.2379 566.29517 5381.3389 725546
1086.4338 565.50409 5373.8218 725803
1119.5446 565.22247 5371.145 529193
1151.5526 564.41675 5363.4888 398119
1184.1056 563.9162 5358.7324 463653
1217.6797 563.9162 5358.7324 397345
1244.4969 560.87103 5329.7949 1383725
1250.4833 548.84216 5215.4883 2963265
nan nan nan 16777215
1872.0776 780.85321 7420.2217 3095104
1887.9771 768.40289 7301.9102 3095103
1925.3331 765.06793 7270.2188 2963516
2034.1688 789.6344 7503.667 2831930
2101.4929 797.34082 7576.8989 3095102
2181.7097 809.49048 7692.3535 3160895
2317.5864 841.32037 7994.8232 3292479
2395.3682 851.16016 8088.3281 3292479
2455.1409 854.32562 8118.4087 3226686
2522.9404 860.099 8173.2715 3292222
2661.1821 889.17957 8449.6152 3292479
2742.6658 898.53101 8538.4795 3161406
2847.5601 915.04742 8695.4307 3161663
2978.4795 939.14978 8924.4688 3095870
3085.1028 954.84424 9073.6084 3161665
3155.2195 958.87634 9111.9238 3161666
3212.3086 958.87634 9111.9238 3095872
3363.9949 986.62067 9375.5703 3095872
3380.2866 974.38458 9259.2939 3095872
3418.3975 968.74457 9205.6992 3095872
3450.3804 961.58405 9137.6543 3030079
3539.0305 970.19202 9219.4531 3358018
3648.2866 984.08173 9351.4434 3423807
3557.1765 944.34021 8973.791 3488832
3027.6509 791.25824 7519.0977 3225916
2933.5071 754.90814 7173.6733 2239021
3121.9033 791.26672 7519.1782 2173229
3513.4717 877.27399 8336.4805 2897208
3826.3933 941.41217 8945.9668 3489344
4566.186 1107.2058 10521.456 3423552
4634.7148 1107.8293 10527.382 3292478
4712.9258 1110.7173 10554.824 3292479
4652.2471 1081.2454 10274.762 3292222
4726.7729 1083.5725 10296.876 3292222
4802.4414 1086.0953 10320.85 3423809
4978.4136 1110.9338 10556.883 3423808
5142.3423 1132.4689 10761.523 3358015
5409.1592 1175.8116 11173.397 3292222
5602.3374 1202.2443 11424.579 3094843
5719.1084 1211.8201 11515.575 3160636
5864.0605 1227.0542 11660.341 3292222
5949.4468 1229.6028 11684.559 3358015
6070.6011 1239.3917 11777.58 3292222
6155.9653 1241.7263 11799.766 3358015
6265.7148 1248.8658 11867.61 3358015
6345.439 1249.9236 11877.662 3358015
6396.9941 1245.4724 11835.364 3358015
6472.5107 1245.7351 11837.859 3292222
6679.9297 1271.0908 12078.808 3358015
6597.0342 1241.2548 11795.284 3226429
6670.9355 1241.2548 11795.284 3292222
6885.8062 1267.1974 12041.81 3423808
6736.3833 1226.2633 11652.825 3226429
6826.418 1229.3295 11681.961 3292222
7161.7568 1276.0374 12125.812 3423808
7237.7285 1276.0374 12125.812 3292222
7298.7104 1273.4219 12100.959 3226429
7374.5269 1273.4219 12100.959 3358015
7604.4385 1299.7601 12351.244 3358015
7691.3071 1301.3649 12366.493 3358015
7772.6929 1302.019 12372.71 3358015
7782.6226 1290.809 12266.183 3423808
7782.6626 1278.1937 12146.305 3423808
7858.7632 1278.1937 12146.305 3423808
7949.7554 1280.5925 12169.1 3423809
8082.354 1289.5845 12254.548 3423807
8256.0635 1304.9047 12400.131 3424063
8331.0146 1304.4758 12396.056 3489600
8416.5635 1305.6989 12407.678 3226684
8494.4316 1305.7188 12407.867 3226428
8532.9023 1299.7374 12351.028 3292221
8582.0225 1295.4712 12310.487 3292222
8618.7607 1289.4283 12253.064 3160635
8740.083 1296.035 12315.846 3291965
8760.0547 1287.6285 12235.961 3225659
8857.21 1290.6147 12264.338 3225915
8876.6875 1282.3281 12185.593 3160124
8923.7012 1278.1267 12145.668 3225915
8999.7969 1278.1267 12145.668 3160123
9098.335 1281.2871 12175.7 3160123
9088.3535 1269.2397 12061.217 3160123
9137.8203 1265.6245 12026.863 3225915
9211.9775 1265.4606 12025.305 3160122
9281.3809 1264.6512 12017.614 3225915
9306.9697 1257.9331 11953.773 3225915
9485.6494 1271.8489 12086.011 3225915
9632.6719 1281.3329 12176.136 3225915
9991.5254 1318.6245 12530.507 3225915
10105.235 1323.2341 12574.311 3225915
10267.118 1334.0316 12676.916 3094329
10392.416 1339.9462 12733.12 3160122
10596.126 1355.8038 12883.811 3225915
10803.781 1371.9225 13036.982 3160122
10835.79 1365.6624 12977.494 3291707
12999.043 1626.101 15452.366 3291707
10954.533 1360.2147 12925.727 3160123
10944.576 1349.0056 12819.209 3357502
11164.456 1366.0825 12981.486 3423295
11297.355 1372.3466 13041.012 3291709
11437.389 1379.381 13107.857 3357502
11594.51 1388.3613 13193.195 3357502
11604.541 1379.7261 13111.137 3423295
11510.855 1358.9677 12913.875 3489088
11591.765 1358.9677 12913.875 3489088
11732.496 1365.9323 12980.059 3554625
11881.267 1373.7305 13054.163 3554627
12061.979 1385.09 13162.109 3752007
12440.743 1418.8833 13483.237 3949386
12283.342 1391.4828 13222.858 4278350
12444.421 1400.286 13306.513 4344143
13618.551 1522.2051 14465.074 4344142
14903.399 1654.8059 15725.141 4213070
13177.028 1453.5087 13812.271 4476242
12543.425 1374.5908 13062.339 4410706
13177.615 1434.7286 13633.811 4410449
13703.627 1482.3896 14086.72 4147534
13173.009 1415.8712 13454.614 4147534
13312.607 1421.7775 13510.739 4147277
13559.353 1438.9797 13674.208 3884362
14040.933 1480.7314 14070.962 3620933
14206.695 1488.8643 14148.245 3292225
14333.595 1492.8485 14186.107 3291455
14560.263 1507.1108 14321.638 3291455
14967.907 1539.8163 14632.428 3291455
nan nan nan 16777215
nan nan nan 16777215
nan nan nan 16777215
nan nan nan 16777215
-6413.2231 751.96466 6746.1772 3161150
-6370.9561 751.96466 6746.1772 3161150
-6285.959 746.88751 6700.6279 3292479
-6269.7979 749.97607 6728.3369 3161150
-6232.0161 750.50275 6733.062 3226429
-6274.3672 760.7525 6825.0166 3226429
-6256.0073 763.73138 6851.7412 3095100
-6265.0059 770.11438 6909.0059 3029050
-6227.9644 770.88745 6915.9414 3094843
-6227.2144 776.19489 6963.5566 3094843
-6224.6069 781.34412 7009.7524 3094843
-6210.1621 785.07007 7043.1792 3226429
-6218.7798 791.78571 7103.4282 3094843
-6160.6025 790.03247 7087.6987 3029050
-6197.1826 800.49353 7181.5493 2963514
-6180.563 804.18549 7214.6714 2963257
-6189.1855 811.24048 7277.9648 2963257
-6143.23 811.19342 7277.5425 3029050
-6139.2153 816.72516 7327.1699 2963257
-6168.8345 826.84839 7417.9897 2897464
-6288.1235 849.23572 7618.8345 2897721
-6331.834 861.68005 7730.4785 2897464
-6338.6958 869.26312 7798.5088 2897464
-6310.8262 872.164 7824.5337 3029050
-6177.9116 860.47937 7719.7065 3029050
-6131.8389 860.80139 7722.5952 2897464
-6085.5654 861.09998 7725.2744 2766135
-6010.6846 857.32318 7691.3911 2700342
-5943.2441 854.55505 7666.5571 2831928
-5861.731 849.7019 7623.0176 2897721
-5752.5986 840.7326 7542.5498 2831928
-5661.1543 834.22107 7484.1328 2831928
-5453.3276 810.30762 7269.5957 3226686
-5368.1733 804.37268 7216.3511 3160893
-5261.124 795.02838 7132.519 3292479
-5181.1987 789.65784 7084.3379 3226686
-5040.0894 774.78894 6950.9429 3226686
-4949.8892 767.55505 6886.0449 3160893
-4715.1011 737.57629 6617.0938 3292479
-4554.2925 718.74091 6448.1138 3160893
-4411.6572 702.4621 6302.0698 3160893
-4286.6152 688.71576 6178.7461 3226686
-4052.4277 657.02313 5894.4189 3226686
-3962.6699 648.37946 5816.873 3292222
-3766.4106 621.98755 5580.1006 3161149
-3453.7625 575.70044 5164.8398 2964285
-3126.4724 526.07404 4719.6221 3030336
-2990.3716 507.97757 4557.271 3030079
-2786.3762 477.88763 4287.3223 3556423
-2788.094 482.83694 4331.7241 4148560
-2799.9927 489.66394 4392.9722 4016974
-2852.6238 503.82056 4519.9771 3688009
nan nan nan 16777215
nan nan nan 16777215
-3861.3826 702.91846 6306.1641 2832955
-4045.7771 744.09894 6675.6108 3029563
-4063.9385 755.24689 6775.6235 3226941
-4108.0444 771.50256 6921.46 3292734
-4130.7324 784.03992 7033.937 3358527
-4139.0381 794.0882 7124.085 3490113
-4180.8604 810.85608 7274.5161 3424320
-4161.3662 815.97058 7320.3999 3226941
-4203.1909 833.35645 7476.376 3226941
-4198.8745 841.88293 7552.8701 3095355
-4291.2832 870.21832 7807.0786 3161148
-4265.3638 874.93506 7849.3945 3292734
-4244.9028 880.89459 7902.8599 3424577
-4307.3032 904.39294 8113.6724 3490113
-4276.4502 908.63849 8151.7612 3490113
-4304.5669 925.66779 8304.5381 3490113
-4271.7725 929.85504 8342.1035 3424320
-4287.8521 944.91638 8477.2246 3358527
-4270.3491 952.86212 8548.5088 3226941
-4254.0156 961.27374 8623.9736 3161148
-4213.999 964.48157 8652.752 3161148
-4164.4478 965.56226 8662.4473 3226941
-4105.3936 964.43915 8652.3711 3161148
-4053.0564 964.88483 8656.3701 3161148
-3996.8562 964.41058 8652.1152 3292734
-3926.926 960.56488 8617.6133 3358784
-3864.5005 958.47321 8598.8486 3358527
-3800.7192 955.98138 8576.4932 3292991
-3735.7251 953.10858 8550.7207 3293248
-3654.5212 945.95648 8486.5557 3293505
-3613.4856 949.14392 8515.1523 3293505
-3589.9353 957.08868 8586.4277 3293505
-3504.8525 948.62085 8510.459 3359041
-3465.6995 952.51459 8545.3916 3227712
-3430.0642 957.51263 8590.2314 3227455
-3377.9463 957.99554 8594.5635 3293249
-3293.2996 949.11938 8514.9316 3424835
-3220.3748 943.38464 8463.4834 3555908
-3151.1887 938.57159 8420.3027 3621444
-3107.7781 941.40234 8445.6992 3489858
-3081.6965 949.67145 8519.8848 3424065
-3032.104 950.85913 8530.54 3424321
-2991.6931 955.02039 8567.8721 3358272
-2939.4126 955.4754 8571.9541 3292478
-2898.0171 959.55157 8608.5225 3292479
-2832.0352 955.487 8572.0586 3424321
-2778.3284 955.487 8572.0586 3358272
-2730.3694 957.50256 8590.1406 3358526
-2731.6431 977.21167 8766.959 3226941
-2690.4412 982.22272 8811.915 3226941
-2616.5476 975.25854 8749.4365 3161148
-2528.3579 962.55377 8635.457 3358527
-2477.2866 963.73352 8646.041 3226941
-2429.1296 966.12512 8667.4971 3161148
-2384.699 970.14203 8703.5342 3292734
-2330.7881 970.39996 8705.8486 3095355
-2253.3279 960.6308 8618.2051 3226941
-2180.4878 952.39984 8544.3623 3226941
-2137.6448 957.18652 8587.3057 3292734
-2089.1008 959.60187 8608.9746 3292734
-2036.1111 960.04895 8612.9854 3226941
-1977.3251 957.71289 8592.0273 3161148
-1931.5753 961.73688 8628.1289 3095355
-1899.0985 972.79156 8727.3047 3161148
-1846.3577 973.81403 8736.4775 3095355
-1795.8448 976.10992 8757.0742 3029562
-1747.4258 979.72437 8789.501 2963769
-1692.4434 979.77441 8789.9502 2963769
-1645.9904 984.93176 8836.2188 2963769
-1577.0957 976.552 8761.041 3095355
-1522.8679 976.97723 8764.8555 3161148
-1490.4703 991.96307 8899.2998 3424320
-1410.9739 975.5495 8752.0469 3358527
-1351.7753 972.40997 8723.8809 3490113
-1264.9814 948.31866 8507.748 3424320
-1212.1014 948.65021 8510.7227 3358527
-1178.6296 964.90106 8656.5156 3226941
-1129.6453 969.40759 8696.9453 3490113
-1067.6467 962.63678 8636.2012 3358527
-1007.1567 956.57568 8581.8252 3292734
-950.8465 954.02472 8558.9395 3292734
-880.72784 936.48621 8401.5947 3424320
-822.36121 930.00836 8343.4795 3358527
-770.18433 930.12628 8344.5371 3424577
-716.71045 928.58093 8330.6729 3424320
-660.75153 923.32031 8283.4775 3226941
-603.42413 915.08752 8209.6182 3095355
-545.367 904.11066 8111.1401 3029818
-493.46817 902.13611 8093.4263 3358784
-418.63431 852.9787 7652.415 3489601
-351.01822 807.71375 7246.3252 3095098
-301.19803 796.03296 7141.5317 1976104
-254.70103 790.59137 7092.7134 3160122
-218.43132 821.3045 7368.2529 3423294
-185.47501 884.27563 7933.1924 3292221
-140.43971 914.68225 8205.9824 3226684
-87.096886 894.85498 8028.104 3292990
-37.093586 902.03516 8092.52 3358527
13.891266 920.77399 8260.6338 3292734
65.298813 915.89447 8216.8574 3226941
117.06342 918.11743 8236.8008 3095101
170.73851 929.37964 8337.8379 3357759
225.7773 941.04858 8442.5254 3094843
278.67233 941.04858 8442.5254 3094843
330.87463 939.08252 8424.8867 3094843
378.98492 927.64136 8322.2432 3029307
431.12637 927.64136 8322.2432 3094843
476.77017 915.16901 8210.3496 3094843
527.10541 913.25427 8193.1719 3094842
565.25757 892.44434 8006.4771 3094842
598.93005 868.53076 7791.939 3094842
637.71228 855.07318 7671.2051 3160634
673.133 839.31049 7529.792 3160635
700.95068 816.75342 7327.4233 3160635
730.14624 798.47638 7163.4526 3226428
757.5462 780.46619 7001.876 3358014
776.98169 756.67145 6788.4038 3358015
812.86792 750.53577 6733.3579 3292223
826.84955 725.77838 6511.25 3291971
811.34381 678.68329 6088.7407 3094339
800.60199 639.62396 5738.3237 1317928
816.8432 624.55292 5603.1152 67607
836.09851 612.93353 5498.873 264989
868.01532 611.1485 5482.8589 593955
899.01965 608.88129 5462.5186 461859
929.42157 606.38739 5440.145 790824
959.19501 603.67438 5415.8057 462630
992.20142 603.11194 5410.7598 462887
1025.8387 602.95752 5409.3745 659756
1058.3187 602.15448 5402.1699 791085
1086.4338 598.99463 5373.8218 593962
1119.8694 598.86993 5372.7031 462375
1149.4108 596.7309 5353.5127 528166
1180.875 595.68304 5344.1123 528675
1221.9617 599.41309 5377.5762 265501
1238.1731 591.06836 5302.7119 1581613
1253.1603 582.59052 5226.6538 3094852
1511.7296 684.90131 6144.5249 3095104
1686.8993 745.28412 6686.2437 3029309
1802.2257 776.94202 6970.2593 3029309
1848.4081 777.99915 6979.7432 2963772
1918.5599 788.8631 7077.208 2963515
1972.2129 792.60547 7110.7822 3095099
2078.3875 816.82385 7328.0557 3292479
2167.7966 833.54907 7478.1035 3292479
2262.0815 851.40155 7638.2656 3292480
2310.063 851.44769 7638.6802 3161663
2398.5732 866.12708 7770.3745 3095870
2532.5977 896.33069 8041.3428 3095870
2596.8958 901.15991 8084.668 3030076
2688.0664 914.95111 8208.3945 3029820
2797.0869 934.1861 8380.959 2701111
2857.0266 936.62195 8402.8125 2700855
2912.7107 937.59991 8411.5859 2635319
2991.0251 945.69824 8484.2393 2701112
3103.4705 964.11682 8649.4795 2701112
3165.8811 966.62634 8671.9932 2766648
3223.0115 967.46613 8679.5273 2832697
3223.5105 951.56073 8536.834 2701369
3234.2041 939.13489 8425.3564 2963514
3267.4587 933.55408 8375.2891 2962488
3134.071 881.29041 7906.4111 3291966
3008.9934 832.95361 7472.7617 3093304
2933.5071 799.6156 7173.6733 2172202
2978.4524 799.6156 7173.6733 2106409
2994.9231 792.08472 7106.1108 2896181
3522.408 917.94574 8235.2607 3554110
3882.4424 997.16486 8945.9668 3094587
3994.4312 1011.3279 9073.0293 3029307
4088.9011 1020.7201 9157.291 2897464
4174.4541 1027.6573 9219.5273 2963257
4258.7856 1034.1086 9277.4043 2963514
4320.2612 1034.9109 9284.6025 3094843
4471.6816 1056.952 9482.3418 2897464
4658.8867 1086.7625 9749.7822 2963257
4950.6812 1139.8826 10226.346 3094843
5181.3237 1177.7452 10566.026 3094843
5156.6313 1157.3457 10383.014 3094843
5189.8721 1150.2947 10319.757 3160636
5254.5962 1150.3096 10319.89 3226429
5512.9062 1192.1877 10695.596 3160636
5678.5864 1213.269 10884.725 3094843
5736.6846 1211.1372 10865.599 3160636
5814.3403 1213.1359 10883.529 3094843
5909.3843 1218.6742 10933.216 3226429
5986.1978 1220.3689 10948.421 3292222
6067.4062 1222.9111 10971.228 3292222
6079.0171 1211.5259 10869.086 3226429
6148.0107 1211.7024 10870.67 3292222
6336.9009 1235.2463 11081.892 3423808
6426.9678 1239.2251 11117.587 3160636
6549.0269 1249.2212 11207.266 3226429
6603.6533 1246.2788 11180.869 3226429
6645.4561 1241.0035 11133.542 3226429
6628.8032 1225.0349 10990.28 3094843
6699.9517 1225.4541 10994.041 3160636
6861.3032 1242.1951 11144.232 3094843
6931.7686 1242.3104 11145.267 3160636
7011.3682 1244.0442 11160.82 3160636
6973.8809 1225.1737 10991.526 3226429
7037.0552 1224.1837 10982.645 3160636
7110.3359 1224.954 10989.555 3226429
7182.084 1225.448 10993.986 3225916
7281 1230.524 11039.526 3094330
7394.0137 1237.8647 11105.383 3094074
7488.6724 1242.0244 11142.7 3028537
7540.6807 1239.0988 11116.453 3159867
7601.1689 1237.6074 11103.074 3160123
7645.8164 1233.5874 11067.008 3160123
7692.8125 1230.015 11034.959 3160123
7726.5835 1224.4105 10984.679 3160123
7806.6577 1226.1779 11000.535 3225916
7868.6255 1225.0951 10990.821 3291709
7822.6265 1207.3674 10831.778 3160124
7800.5356 1193.6029 10708.291 3160123
7869.4888 1193.8853 10710.825 3225916
7947.9673 1195.5959 10726.172 3160123
7976.4087 1189.8141 10674.301 3160124
8030.2183 1187.8809 10656.957 3160123
8077.1187 1184.9661 10630.808 3225916
8137.8994 1184.1185 10623.203 3160123
8191.5923 1182.2618 10606.546 3160123
8279.4307 1185.3234 10634.013 3160122
8359.8936 1187.2886 10651.644 3160122
8433.1016 1188.2004 10659.824 3094329
8584.0508 1199.9656 10765.373 3028536
8683.4736 1204.4005 10805.161 3028536
8764.668 1206.2581 10821.826 2962743
8875.417 1212.1233 10874.445 2962743
9119.9521 1236.0312 11088.934 3028536
9042.208 1216.2294 10911.282 3028537
9135.2217 1219.5201 10940.806 3028537
9349.96 1238.8907 11114.587 3028537
9444.0908 1242.1124 11143.49 3028538
9605.7217 1254.0994 11251.029 2962744
9734.4404 1261.646 11318.733 2962744
9866.9209 1269.5675 11389.801 3094330
10011.552 1278.9275 11473.772 3160123
10135.472 1285.5271 11532.98 3160123
10170.791 1280.8751 11491.246 3094330
10277.766 1285.2494 11530.488 3160123
10379.426 1288.9023 11563.262 3094330
10458.446 1289.7129 11570.533 3094329
10691.905 1309.4263 11747.39 3028536
10884.621 1323.9144 11877.369 3094329
10853.415 1311.1548 11762.896 2962743
10858.711 1302.9471 11689.263 2830906
10931.949 1302.9471 11689.263 2896698
13618.551 1612.3539 14465.074 3028284
13951.569 1640.8615 14720.828 3159869
11629.016 1358.7209 12189.632 3028283
12121.11 1406.9766 12622.553 3159870
12330.388 1421.9911 12757.254 3159869
12107.464 1387.2898 12445.935 3225920
12196.791 1388.5819 12457.527 3225919
12190.425 1379.0325 12371.854 3357505
12267.938 1379.0325 12371.854 3291712
12643.486 1412.324 12670.526 3489091
12459.021 1383.0348 12407.761 3357762
12913.891 1424.6393 12781.012 3357761
13007.959 1426.1733 12794.774 3291968
12976.994 1414.064 12686.137 3489347
nan nan nan 16777215
nan nan nan 16777215
nan nan nan 16777215
nan nan nan 16777215
-5669.019 701.86951 5963.3364 2831928
-5930.2246 739.07983 6279.4883 2831928
-5968.6514 748.83691 6362.3882 2831928
-5941.2202 750.40698 6375.7285 2700342
-5948.52 756.41479 6426.7729 2831671
-5935.627 759.91931 6456.5483 2831671
-5959.0039 768.14716 6526.4551 2831671
-5943.8647 771.48956 6554.8535 2897464
-5926.4165 774.57672 6581.0825 2831671
-5922.1367 779.44019 6622.4048 2897464
-5910.9019 783.45056 6656.478 2897464
-5898.8047 787.40271 6690.0571 2897464
-5914.5225 795.15088 6755.8887 2897464
-5899.3574 798.82898 6787.1392 2831671
-5888.7275 803.17908 6824.0991 2634549
-5961.1963 819.0097 6958.6016 2634292
-5931.7607 820.96973 6975.2549 2634292
-5912.959 824.44165 7004.7529 2765878
-5900.0469 828.79272 7041.7217 2765878
-5903.8008 835.56818 7099.2881 2897464
-5917.1211 843.81067 7169.3193 2897464
-5916.856 850.22711 7223.8354 2831671
-5895.4434 853.68018 7253.1748 2765878
-5860.3921 855.19678 7266.0596 2700085
-5803.9175 853.58624 7252.376 2897464
-5757.4204 853.42926 7251.0425 2831671
-5718.103 854.34253 7258.8022 2700342
-5695.7056 857.81885 7288.3379 2634806
-5638.437 856.05701 7273.3682 2569013
-5551.8315 849.77582 7220.002 2305584
-5440.8149 839.62463 7133.7529 2108205
-5447.834 847.67114 7202.1196 2042412
-5378.1323 843.815 7169.356 2239791
-5170.0391 817.99756 6950.0024 2700599
-5019.415 800.91156 6804.833 2897722
-4833.0347 777.77863 6608.2871 2963514
-4715.5693 765.43213 6503.3872 2963514
-4583.7012 750.51221 6376.6221 2897721
-4467.7852 737.96478 6270.0146 3029307
-4373.6636 728.82654 6192.373 3095101
-4228.855 711.00275 6040.9355 3029051
-4042.6699 685.83746 5827.1226 3029307
-3903.0842 668.19116 5677.1929 2963257
-3702.4692 639.67627 5434.9199 2963513
-3528.3547 615.25287 5227.4102 2767162
-3351.7891 589.94049 5012.3467 2701112
-3207.7063 569.92059 4842.2505 2701369
-3015.5583 540.89697 4595.6553 2832699
-2782.5762 503.91873 4281.4751 3556422
-2743.0322 501.59286 4261.7139 4082766
-2762.0789 510.04056 4333.4883 3951179
-2847.1169 530.96277 4511.251 3622214
-2689.0737 506.51749 4303.5552 2964284
nan nan nan 16777215
-3704.4822 712.06067 6049.9238 2964283
-3762.0728 730.60614 6207.4932 3226941
-3839.1768 753.36829 6400.8882 3358527
-3865.1936 766.4801 6512.291 3292734
-3907.5122 783.13898 6653.8311 3292734
-3943.3169 798.83746 6787.2109 3226941
-3933.1155 805.45679 6843.4512 3161148
-3946.7412 817.15533 6942.8462 3029819
-3969.5396 831.03485 7060.7715 3029819
-3967.5073 839.97034 7136.6904 3292734
-4005.3274 857.64294 7286.8433 3292734
-4011.4529 868.85815 7382.1318 3161148
-4008.6628 878.38135 7463.0444 3292734
-4019.1345 891.06964 7570.8491 3490113
-4089.1379 917.4173 7794.7075 3555906
-4069.4302 924.03125 7850.9028 3490113
-4067.8184 934.96655 7943.8125 3424320
-4040.7974 940.26007 7988.7886 3358527
-3962.1348 933.51923 7931.5161 3161148
-3898.7908 930.26227 7903.8433 3161148
-3849.271 930.26227 7903.8433 3226941
-3823.6116 936.10382 7953.4756 3226941
-3802.603 943.25336 8014.2207 3161148
-3744.8613 941.36047 7998.1377 3161148
-3682.0015 938.11224 7970.5396 3292734
-3634.5029 938.74225 7975.8926 3161148
-3584.5312 938.74225 7975.8926 3358527
-3540.4492 940.30646 7989.1826 3424320
-3480.9221 937.75458 7967.5005 3424063
-3426.8379 936.61621 7957.8286 3424577
-3369.3135 934.48987 7939.7627 3424320
-3228.3633 908.81488 7721.6182 3490113
-3202.4124 915.22443 7776.0762 3555906
-3182.1702 923.48865 7846.2925 3555906
-3130.614 922.78229 7840.2905 3424320
-3070.4746 919.48297 7812.2583 3358527
-3034.5347 923.44086 7845.8862 3424320
-2963.3428 916.625 7787.9766 3490113
-2902.1914 912.73859 7754.9561 3358784
-2852.4543 912.37079 7751.8311 3358527
-2786.937 906.85541 7704.9707 3424320
-2739.3806 907.09314 7706.9897 3358527
-2745.5559 925.45074 7862.9629 3358527
-2702.9172 927.72479 7882.2837 3424320
-2654.0095 927.8916 7883.7017 3358527
-2575.1086 917.3797 7794.3887 3424320
-2527.3701 917.77765 7797.7695 3424320
-2478.5149 917.77765 7797.7695 3555906
-2521.4617 952.45496 8092.4009 3358527
-2456.1475 946.8219 8044.5396 3358527
-2394.0093 942.20276 8005.2939 3292734
-2321.0164 933.0224 7927.2944 3226941
-2271.7415 933.18335 7928.6626 3292734
-2234.2249 938.28973 7972.0479 3161148
-2174.512 934.09485 7936.4062 3095355
-2128.0117 935.51196 7948.4468 3029562
-2053.5078 924.39124 7853.9614 3095355
-1960.72 904.29187 7683.1895 3029562
-1913.3656 904.66217 7686.3359 3095355
-1879.9312 911.80298 7747.0068 2963769
-1835.6687 913.93146 7765.0908 3095355
-1790.7306 915.8302 7781.2231 3226941
-1752.3326 921.2735 7827.4722 3226941
-1722.4021 931.61035 7915.2969 3292734
-1688.7615 940.49371 7990.7734 3292734
-1639.53 940.97205 7994.8369 3292734
-1598.5229 946.34918 8040.5239 3358527
