# .PCD v0.7 - Point Cloud Data file format
VERSION 0.7
FIELDS x y z rgb
SIZE 4 4 4 4
TYPE F F F U
COUNT 1 1 1 1
WIDTH 1282
HEIGHT 1
VIEWPOINT 0 0 0 1 0 0 0
POINTS 1282
DATA ascii
-862.3291 1002.8813 10810.544 3818563
-792.1933 999.84668 10777.832 3818563
-720.94366 994.70972 10722.458 3621439
-642.96753 978.28259 10545.382 3686717
-556.18213 943.15424 10166.717 3686974
-465.10202 890.71423 9601.4404 3686718
-401.85208 883.90887 9528.082 3555388
-343.21417 886.64325 9557.5576 3686975
-298.49786 934.09894 10069.104 3884099
-237.34343 941.76343 10151.724 3884356
-173.20081 938.84216 10120.234 3818563
-109.91755 939.8952 10131.586 3621441
-47.164021 954.5481 10289.536 3555647
17.118624 944.37048 10179.827 3490110
80.292755 937.30048 10103.616 3424320
143.31802 935.49231 10084.125 3884872
205.81573 932.40057 10050.797 4148041
266.05038 922.9071 9948.4629 4016455
326.01776 916.26648 9876.8799 4082248
386.81927 913.7149 9849.375 4016711
444.48517 905.47772 9760.583 4082248
494.88153 886.21497 9552.9404 4082248
551.82324 881.56549 9502.8213 4477007
586.86908 846.24823 9122.1201 4411729
632.31793 830.86914 8956.3408 4411728
679.20154 819.72864 8836.252 4346192
724.8891 808.93262 8719.877 4477521
763.63489 792.44635 8542.1631 4609107
783.49225 759.80225 8190.2764 4477007
821.32037 747.52747 8057.9604 4148041
844.58453 724.18646 7806.3569 4082249
860.72144 697.62408 7520.0283 4016457
853.33679 655.74377 7068.5801 4016458
850.60583 621.39575 6698.3257 4081741
nan nan nan 16777215
766.61865 509.74121 5494.7476 1975857
806.46594 513.1908 5531.9326 199448
837.66626 511.08044 5509.1841 528418
874.89728 512.67102 5526.3291 791848
913.3844 514.84839 5549.8003 791593
942.54602 511.80237 5516.9658 791336
965.53754 505.74002 5451.6167 594986
995.42853 503.5824 5428.3584 726572
1028.16 502.95679 5421.6147 726572
1055.9357 500.02441 5390.0054 726317
1086.3971 498.50626 5373.6401 857903
1115.4075 496.43347 5351.2969 858415
1146.6677 495.45386 5340.7368 858670
1178.879 494.92902 5335.0796 923947
1207.25 492.86526 5312.8335 661028
1239.075 492.28455 5306.5737 1187370
1235.3474 477.97839 5152.3604 3029827
nan nan nan 16777215
nan nan nan 16777215
2230.4102 800.25153 8626.2988 3819595
2291.1636 802.60101 8651.625 3950923
2396.9827 820.26361 8842.0195 3950922
2461.7419 823.39484 8875.7715 4016457
2601.9316 851.05994 9173.9873 4016458
2805.7021 897.87634 9678.6436 3950664
2990.8606 936.88159 10099.101 3753799
3199.2651 981.40161 10579.003 3622213
3367.6711 1012.0935 10909.847 3753799
3485.6462 1026.7096 11067.4 3885385
3646.3044 1053.0829 11351.691 3819592
3862.3784 1094.1454 11794.323 3622213
4084.658 1135.391 12238.93 3556420
4414.3696 1204.4286 12983.12 3490627
4611.604 1235.4766 13317.801 3622213
4919.0645 1294.4265 13953.25 3951178
4762.5894 1231.3671 13273.502 4016971
4990.6475 1268.1868 13670.399 4017228
5163.0342 1289.856 13903.982 3951178
5226.5898 1284.0685 13841.596 4148557
5267.7349 1273.054 13722.865 4214350
5367.8696 1276.4202 13759.151 4147787
5451.0874 1275.7209 13751.614 4016454
5495.96 1266.2094 13649.084 4016454
5689.6309 1290.7452 13913.568 4016454
5683.8179 1269.969 13689.61 4016456
5711.4556 1257.1732 13551.68 4016455
5516.6641 1196.5096 12897.758 3884868
5163.3179 1103.7053 11897.374 3819079
5262.2729 1108.8499 11952.83 3950664
5213.7046 1083.2003 11676.342 3950664
5087.5884 1042.3724 11236.238 3950664
5080.8418 1026.7823 11068.185 3884358
5166.9053 1030.1152 11104.112 3818565
5401.8398 1062.6456 11454.771 3884358
5311.7959 1031.2314 11116.144 3884358
5369.1392 1028.8739 11090.73 4015944
5502.0601 1040.8744 11220.089 3884615
5523.8115 1031.8063 11122.34 4213323
nan nan nan 16777215
nan nan nan 16777215
nan nan nan 16777215
nan nan nan 16777215
6097.2993 1071.3521 11548.623 3554880
5849.6357 1015.7811 10949.597 3818053
5893.9478 1011.612 10904.656 3883846
5918.3354 1004.1578 10824.304 3752259
5741.7026 963.1521 10382.283 3555391
5806.751 963.1521 10382.283 3489342
6456.6978 1059.0931 11416.478 3686720
6561.5303 1064.4962 11474.721 3818562
6812.2554 1093.1943 11784.071 3884098
6971.437 1106.7441 11930.131 3818307
7460 1171.7422 12630.777 3884356
8070.9609 1254.3993 13521.777 3818563
8079.7065 1242.7141 13395.818 3883846
8182.0996 1245.5249 13426.116 3949382
8756.1104 1319.34 14221.806 3883846
9031.2891 1347.0947 14520.987 3949639
9152.8955 1351.6177 14569.741 3883846
8905.7422 1302.1337 14036.33 3949893
8657.8359 1253.5085 13512.176 3949638
8741.9014 1253.4237 13511.262 3884101
8815.2295 1251.8157 13493.927 4015944
8915.9648 1254.093 13518.477 4081737
9061.1162 1262.5162 13609.274 4015944
9248.1025 1276.5573 13760.629 4081737
9518.3643 1301.7273 14031.949 4147529
9789.7646 1326.5912 14299.969 4015944
10035.211 1347.5188 14525.559 3950151
10272.315 1366.9603 14735.128 3950151
10510.259 1386.1663 14942.157 3950151
10810.219 1413.1398 15232.919 3818565
10908.32 1413.4849 15236.639 3818821
11175.356 1435.5243 15474.213 3818565
10863.777 1383.4982 14913.397 3686980
11094.482 1400.8301 15100.227 3621443
11071.438 1386.1005 14941.448 3687236
11229.657 1394.1212 15027.907 3818053
10240.046 1260.6943 13589.635 3818052
10304.9 1258.2172 13562.932 3686723
10369.306 1255.7261 13536.079 3752773
11570.45 1389.818 14981.521 3883846
11663.88 1389.7661 14980.963 3949638
11809.824 1395.9226 15047.326 3883846
11904.101 1395.9226 15047.326 3818309
12195.483 1418.8546 15294.521 3818053
12501.23 1443.087 15555.733 3818053
12601.097 1443.3624 15558.703 3752260
12905.649 1466.899 15812.415 3818052
13021.456 1468.7869 15832.765 3818053
13187.914 1476.3163 15913.929 3818053
13300.415 1477.738 15929.255 3883075
13310.997 1467.899 15823.195 3817282
13425.893 1469.624 15841.789 3817282
13268.335 1441.7192 15540.99 3883075
13294.214 1434.0079 15457.866 3817282
13426.897 1437.8455 15499.232 3751489
13485.903 1433.7944 15455.564 3685696
13632.064 1439.0015 15511.694 3488317
13615.1 1427.037 15382.724 3356731
13711.478 1427.037 15382.724 3356731
13938.288 1440.5173 15528.033 3356731
14048.08 1441.8007 15541.867 3356731
13895.035 1416.2762 15266.728 3356731
13986.727 1415.8752 15262.405 3027766
14131.467 1420.8135 15315.638 2830643
14266.643 1424.7301 15357.856 2764594
14223.363 1410.8923 15208.691 2764594
14237.346 1402.8807 15122.332 2698801
14362.174 1405.8254 15154.074 2896180
14692.723 1428.7357 15401.035 2896437
14642.879 1414.5988 15248.645 2830130
14765.056 1417.1555 15276.206 2764850
14961.46 1426.7581 15379.716 2895924
15124.851 1433.1094 15448.181 2829876
15312.467 1441.6609 15540.361 2632497
15658.307 1464.907 15790.941 2566703
16172.921 1503.5514 16207.509 2632240
16718.611 1544.5846 16649.826 2566704
17037.346 1564.2714 16862.039 2632496
17681.721 1613.4294 17391.938 2632496
18225.205 1652.8358 17816.719 2566703
nan nan nan 16777215
nan nan nan 16777215
nan nan nan 16777215
nan nan nan 16777215
-6974.6396 726.34448 7336.7407 3358272
-6937.8442 727.30597 7346.4521 3358016
-6938.1152 732.19189 7395.8052 3358529
-6921.6992 735.37085 7427.915 3423808
-6911.6528 739.27399 7467.3403 3226429
-6863.1499 739.08899 7465.4717 3160379
-6876.5928 745.61823 7531.4229 3094586
-6897.1143 753.01038 7606.0903 3291965
-6887.0303 757.14075 7647.811 3357756
-6901.688 764.06818 7717.7842 3358012
-6908.5811 770.2276 7780.0005 3357755
-6909.1201 775.76117 7835.894 3358269
-6890.5342 779.21106 7870.7417 3489598
-6844.8481 779.62427 7874.915 3357755
-6988.1719 801.72766 8098.1797 3226169
-6866.2417 793.50037 8015.0762 3160123
-6825.6357 794.6192 8026.3774 3489088
-6969.5449 817.39478 8256.4316 3620671
-7077.0156 836.20538 8446.4365 3489341
-7064.2993 840.99164 8494.7812 3423291
-7170.1133 860.06836 8687.4736 3226169
-7121.7358 860.79987 8694.8623 3291961
-7157.6597 871.81061 8806.0811 3094840
-7037.2153 863.79877 8725.1543 3225913
-6984.6431 864.05774 8727.7695 3291961
-7025.8716 876.01636 8848.5625 3291962
-6987.6558 878.18085 8870.4268 3226426
-6905.5073 874.81464 8836.4238 3357755
-6798.5332 868.22345 8769.8477 3358012
-6741.6655 867.97601 8767.3477 3423805
-6641.2061 862.06604 8707.6523 3357755
-6589.1499 862.39325 8710.957 3358524
-6575.2739 867.76459 8765.2129 3226683
-6375.2871 848.45801 8570.1982 3161146
-6119.6494 821.35406 8296.4238 3029562
-5886.3125 796.8045 8048.4512 3161147
-5704.7456 778.89917 7867.5908 3226941
-5481.061 754.88104 7624.9858 3424319
-5282.4341 733.92188 7413.2793 3424320
-5213.0454 730.70612 7380.7974 3424577
-5023.9629 710.50531 7176.7505 3490113
-4932.3223 703.8446 7109.4712 3358527
-4841.5859 697.19281 7042.2817 3161148
-4569.7637 664.10211 6708.0361 3424320
-4413.9766 647.41656 6539.4971 3358527
nan nan nan 16777215
nan nan nan 16777215
nan nan nan 16777215
nan nan nan 16777215
-2733.0479 420.37811 4246.2017 4740694
-2745.0728 426.37808 4306.8071 4872280
-2689.635 421.91455 4261.7212 4148557
nan nan nan 16777215
-4735.9341 757.96014 7656.0879 3490113
-4810.9609 777.84625 7856.9551 3358525
-4971.8408 812.16772 8203.6338 3226939
-4941.7202 815.67987 8239.1094 3424318
-4989.4727 832.25555 8406.5391 3621697
-4946.4927 833.88898 8423.0381 3621954
-4973.6694 847.51251 8560.6475 3621697
-4936.8164 850.40332 8589.8477 3621697
-4935.1206 859.48065 8681.5371 3621697
-4918.6704 866.16211 8749.0264 3686720
-4923.7026 876.81989 8856.6797 3621184
-4933.4985 888.57861 8975.4531 3555648
-4963.9146 904.36517 9134.9121 3555134
-4965.6172 915.22784 9244.6348 3358012
-4963.8838 925.70618 9350.4746 3423805
-4956.2622 935.32343 9447.6182 3423805
-4889.5137 933.88019 9433.04 3621184
-4819.4619 931.763 9411.6553 3686977
-4773.4404 934.29681 9437.248 3687232
-4723.2139 936.06079 9455.0664 3687231
-4697.6802 942.82538 9523.3955 3687231
-4653.8711 946.04907 9555.957 3753024
-4613.7432 950.11481 9597.0244 3687231
-4477.6304 934.26056 9436.8828 3687488
-4498.8872 951.25665 9608.5586 3818817
-4526.8188 970.14435 9799.3418 3950403
-4476.7139 972.59753 9824.1201 4147782
-4487.6025 988.55487 9985.3047 4147525
-4398.6465 982.65826 9925.7432 4147525
-4296.4336 973.58844 9834.1299 3950403
-4270.6602 981.82812 9917.3584 3818817
-4249.4507 991.37598 10013.8 3621438
-4277.4253 1012.8562 10230.77 3621437
-4087.175 982.53021 9924.4502 3884355
-4005.9675 977.8855 9877.5342 3950149
-3944.082 977.8855 9877.5342 3819076
-3988.0415 1004.5469 10146.838 3819076
-3924.468 1004.5469 10146.838 3819076
-3850.385 1001.8123 10119.217 3753541
-3828.5298 1012.8026 10230.229 3819846
-3762.5466 1012.2947 10225.099 4083018
-3657.511 1001.0804 10111.824 4149068
-3586.4824 998.94281 10090.231 4214604
-3515.6194 996.77527 10068.338 4280397
-3395.6521 980.35187 9902.4463 4214604
-3385.2466 995.53711 10055.831 4280397
-3319.2927 994.65283 10046.899 3885639
-3257.8271 995.10535 10051.47 3688260
-3198.5327 996.25189 10063.051 3556674
-3139.2153 997.43726 10075.024 3818819
-3076.092 997.43726 10075.024 3753283
-3022.7168 1000.6642 10107.62 3819333
-2979.1987 1007.3624 10175.277 3819076
-2919.5757 1008.7888 10189.686 3687747
-2935.6353 1037.0139 10474.785 3753283
-2829.6384 1022.4274 10327.448 3621697
-2751.6602 1017.519 10277.869 3555904
-2737.4431 1036.5182 10469.778 3753027
-2692.5618 1044.5546 10550.952 3753027
-2626.4568 1044.5546 10550.952 3753026
-2560.5425 1044.6323 10551.737 3687234
-2499.7363 1046.8535 10574.174 3687233
-2441.3184 1050.223 10608.208 3752771
-2404.4368 1063.3048 10740.348 3753027
-2359.1982 1073.3381 10841.692 3884356
-2292.6206 1073.9701 10848.076 3818563
-2193.8838 1059.1154 10698.03 3884356
-2129.1257 1060.2451 10709.441 3818306
-2073.9055 1066.3524 10771.13 3818563
-2024.9795 1076.2157 10870.758 3753540
-1948.3879 1071.5503 10823.634 3753283
-1885.6287 1074.4302 10852.723 4016455
-1809.5667 1069.662 10804.56 4213577
-1714.5497 1052.8832 10635.079 4082248
-1659.7245 1060.4269 10711.277 3950662
-1573.1494 1047.4659 10580.359 4016455
-1497.6627 1041.0725 10515.78 3950919
-1417.624 1030.7808 10411.824 3950662
-1341.2703 1022.3048 10326.21 3884869
-1248.6416 999.93665 10100.271 4016455
-1179.0887 994.64612 10046.831 4016455
-1107.6418 987.07092 9970.3154 3950919
-1037.6241 979.94019 9898.2881 4082248
-962.02429 966.29584 9760.4678 4082248
-894.33514 959.28424 9689.6445 3950919
-828.81781 953.75079 9633.751 4016455
-767.84528 952.98859 9626.0527 4016199
-705.5733 950.34625 9599.3623 4015942
-639.60651 941.77112 9512.7461 3950401
-544.97754 884.89417 8938.2373 3753025
-485.19769 878.05542 8869.1592 4081988
-415.12506 848.41156 8569.7295 3687230
-335.50754 787.55524 7955.0254 2897202
-259.9202 716.57434 7238.0532 3687231
-245.52382 819.9411 8282.1523 4279371
-209.63385 887.69434 8966.5215 4345420
-154.84186 895.71234 9047.5098 4345420
-98.091171 895.11694 9041.4961 4345420
-41.521439 896.80255 9058.5225 4214091
15.073933 887.43701 8963.9219 3950919
71.022682 884.78357 8937.1191 4016455
127.01651 884.78357 8937.1191 3950665
188.36067 910.65033 9198.3975 4213834
245.05803 907.19476 9163.4932 4279627
305.70895 916.90887 9261.6143 4279627
362.91348 914.83582 9240.6748 4213834
416.63513 905.76147 9149.0156 4213834
470.37451 898.91602 9079.8701 4148041
522.63281 891.02252 9000.1387 4213834
569.03345 875.65253 8844.8877 4279627
610.55548 856.16943 8648.0908 4345420
662.59332 853.40643 8620.1826 4279884
714.06738 850.38873 8589.7002 4477006
751.37726 832.10785 8405.0469 4279884
767.75983 794.56366 8025.8164 4214090
768.69482 746.63092 7541.6519 4082248
788.36041 721.3891 7286.6865 3950919
819.65411 708.96851 7161.2275 4016714
840.1814 689.00793 6959.6079 4081996
850.60583 663.14081 6698.3257 4148046
814.72626 605.30432 6114.1245 4015438
810.50922 575.1297 5809.3335 1975600
805.84698 547.2464 5527.687 198934
837.66626 545.41461 5509.1841 593954
867.16187 542.27466 5477.4678 857384
902.22003 542.71985 5481.9648 857386
939.68738 544.52844 5500.2334 791337
964.00824 538.86053 5442.9819 923951
994.21002 536.75488 5421.7134 726572
1031.1279 538.29449 5437.2646 792366
1056.4524 533.87689 5392.6431 858416
1087.6971 532.63226 5380.0708 792624
1120.1003 532.01257 5373.8115 858416
1148.5134 529.58917 5349.333 792876
1179.2028 528.32312 5336.5444 924459
1211.8245 527.96875 5332.9648 595236
1237.9095 524.86188 5301.583 1384750
1241.2565 512.52863 5177.0059 3293254
nan nan nan 16777215
1980.4703 777.14288 7849.8506 3622214
2094.8721 802.11523 8102.0942 3556422
2145.634 802.11523 8102.0942 3687750
2231.2939 814.85974 8230.8252 3753543
2323.2397 829.27222 8376.4043 3753285
2433.2251 849.34473 8579.1553 3819077
2567.9956 877.01428 8858.6426 3819078
2694.698 900.81598 9099.0615 3753285
2812.3455 920.66724 9299.5771 3688006
3017.394 967.7439 9775.0947 3688006
3118.6313 980.31543 9902.0791 3688263
3300.0286 1017.1027 10273.664 3622470
3455.0879 1044.52 10550.604 3753799
3632.1091 1077.4226 10882.95 3819592
3742.6038 1089.7421 11007.388 3885385
3859.8469 1103.545 11146.81 3753799
3965.3491 1113.5603 11247.974 3885385
4101.1904 1131.5969 11430.16 3951178
4221.6816 1144.8518 11564.046 4016971
4335.9927 1156.0116 11676.77 4017228
4375.5894 1147.2123 11587.888 4082764
4448.1909 1147.2123 11587.888 4082764
4521.7222 1147.4481 11590.271 4082250
4627.4756 1155.7241 11673.866 3950662
4718.4883 1160.1184 11718.252 4082247
4791.9067 1160.1184 11718.252 3950662
4920.6929 1173.3206 11851.605 3819076
4949.5586 1162.6587 11743.912 3884869
4833.3193 1118.7231 11300.123 4016455
4828.9785 1101.5825 11126.986 4016455
4841.6426 1088.7535 10997.401 3950664
4797.9873 1063.7976 10745.324 4016456
4634.7305 1013.3813 10236.074 3950919
4556.2212 982.61865 9925.3428 3950919
4631.8901 985.48737 9954.3203 3950407
4723.7373 991.67627 10016.834 3950407
4821.6118 998.95178 10090.322 3884357
4809.7534 983.59833 9935.2393 3884358
4580.1929 924.68585 9340.1689 3818565
4679.3975 932.79608 9422.0898 3884615
nan nan nan 16777215
nan nan nan 16777215
nan nan nan 16777215
nan nan nan 16777215
nan nan nan 16777215
nan nan nan 16777215
nan nan nan 16777215
nan nan nan 16777215
5079.4888 909.30933 9184.8525 4014914
5290.2021 936.42145 9458.71 3883845
5648.9917 988.8537 9988.3232 3818053
5979.8804 1035.3066 10457.539 3818053
6011.2915 1029.4652 10398.536 3949639
6255.8579 1059.8618 10705.569 4015176
6627.8257 1110.9688 11221.796 4015432
6735.3525 1117.1418 11284.15 4081225
6904.1538 1133.2444 11446.801 4015944
7112.731 1155.4775 11671.375 3884357
7542.3965 1212.8088 12250.474 3950151
7785.5859 1239.302 12518.079 3950151
8150.6201 1284.4685 12974.302 3950408
8289.8809 1293.5143 13065.673 4015943
8371.7422 1293.5143 13065.673 4015943
8553.2363 1308.7596 13219.664 3884357
8839.1719 1339.5402 13530.575 4147529
8767.7119 1316.0886 13293.693 4081735
8853.2598 1316.4246 13297.087 4147529
9144.2246 1347.0135 13606.063 4015942
9318.1602 1359.9574 13736.809 3950150
9461.3184 1368.2137 13820.205 4015942
9504.3945 1361.9785 13757.224 4015942
9385.3994 1332.8394 13462.892 3950149
9310.9326 1310.4866 13237.107 3950406
9162.8232 1278.2549 12911.538 3950149
9250.791 1279.2329 12921.418 3950406
9342.3223 1280.6825 12936.06 3884356
9457.9863 1285.387 12983.578 3884356
9539.332 1285.387 12983.578 3884613
9699.0371 1295.8562 13089.327 3884613
9822.7363 1301.3796 13145.119 3884355
9769.7188 1283.5933 12965.461 3818563
9846.4482 1283.0065 12959.533 3818563
9821.7871 1269.3259 12821.348 3818306
9980.665 1279.3949 12923.054 3818306
10032.386 1275.6761 12885.49 3818306
10113.117 1275.6761 12885.49 3818562
10259.918 1283.9442 12969.005 3884099
10548.038 1309.6281 13228.437 3884099
10631.025 1309.6412 13228.569 4015684
10787.773 1318.6707 13319.774 3950148
11037.059 1338.786 13522.958 3884099
11296.103 1359.7697 13734.911 3884356
11604.927 1386.3829 14003.73 3950148
11776.304 1396.2999 14103.9 3884101
10653.706 1253.7871 12664.392 3949639
10733.053 1253.7871 12664.392 3949639
12490.336 1448.3578 14629.732 4081482
12518.384 1441.0353 14555.768 4015432
12609.58 1441.0353 14555.768 4015175
12641.791 1434.3427 14488.167 4080968
13045.304 1469.5732 14844.028 4080967
13138.306 1469.5732 14844.028 4146504
13004.227 1444.3518 14589.269 4146760
13206.334 1456.5612 14712.595 4146504
13330.085 1460.0192 14747.523 4146504
13623.45 1481.8794 14968.331 4212296
13674.15 1477.2253 14921.32 4015174
13078.183 1403.2489 14174.092 4014917
13021.574 1387.7518 14017.557 4014661
13076.794 1384.3003 13982.693 3883331
13228.613 1391.0526 14050.898 3817282
13384.837 1398.1758 14122.849 3685696
14314.905 1485.51 15005.004 3553854
14573.762 1502.505 15176.669 3422524
14859.021 1521.9841 15373.426 3226173
15149.301 1541.7231 15572.808 3554110
14956.887 1512.4009 15276.626 3422269
15062.766 1513.4222 15286.943 3356475
15491.415 1546.656 15622.635 3488061
15990.646 1586.4752 16024.844 3553853
16553.658 1632.0856 16485.551 3619647
16752.111 1641.4103 16579.738 3619647
17198.074 1674.7222 16916.219 3619389
17275.83 1671.99 16888.621 3422267
nan nan nan 16777215
nan nan nan 16777215
nan nan nan 16777215
nan nan nan 16777215
-6165.7827 682.53058 6485.8901 3358014
-6241.8882 695.53918 6609.5073 3358014
-6486.1045 727.57947 6913.9771 3423807
-6502.1489 734.2832 6977.6807 3423807
-6433.4834 731.44672 6950.7266 3357758
-6389.9346 731.44672 6950.7266 3160379
-6398.2983 737.42987 7007.582 3291708
-6503.5132 754.73523 7172.0303 3554880
-6476.3398 756.81079 7191.7539 3554881
-6469.5342 761.31226 7234.5298 3554624
-6466.6572 766.34283 7282.334 3423295
-6445.4536 769.25757 7310.0322 3489087
-6491.8408 780.33875 7415.333 3489088
-6447.6597 780.61456 7417.9541 3489088
-6452.9868 786.93182 7477.9854 3489087
-6443.6895 791.54504 7521.8232 3555389
-6472.4175 800.9317 7611.022 3620926
-6583.4287 820.71545 7799.0215 3620927
-6487.9473 814.86041 7743.3823 3555134
-6590.4922 833.97583 7925.0308 3555134
-6889.3984 878.41809 8347.3525 3357755
-6853.5415 880.53046 8367.4258 3291962
-6870.8413 889.55768 8453.209 3291962
-6727.1489 877.71967 8340.7158 3357755
-6647.4644 874.1131 8306.4434 3291962
-6599.0293 874.59113 8310.9863 3423548
-6630.8994 885.80463 8417.5449 3292219
-6575.3584 885.42731 8413.959 3292218
-6520.7432 885.16943 8411.5088 3226426
-6448.6963 882.52185 8386.3496 3292218
-6346.064 875.61066 8320.6748 3358012
-6248.2334 869.25299 8260.2598 3358781
-6125.2979 859.26752 8165.3701 3555904
-6001.9966 849.06195 8068.3896 3490113
-5795.8525 826.8642 7857.4512 3555906
-5648.5249 812.74921 7723.3203 3555906
-5514.2251 800.28094 7604.8379 3687492
-5125.7983 750.39233 7130.7612 3819078
-4987.8101 736.61188 6999.8091 3753285
-4871.7769 725.85803 6897.6187 3490113
-4753.2705 714.53979 6790.0649 3490113
-4666.6802 707.85846 6726.5737 3292734
-4545.8457 695.8136 6612.1152 3292734
-4288.6182 662.47815 6295.3379 3424320
-4029.9998 628.30695 5970.6191 3555906
nan nan nan 16777215
nan nan nan 16777215
nan nan nan 16777215
nan nan nan 16777215
-2794.0171 456.80933 4340.9268 4938074
-2747.2058 453.57101 4310.1538 4938073
-2720.4668 453.61526 4310.5742 4280143
nan nan nan 16777215
nan nan nan 16777215
-4466.9297 767.68671 7295.1045 3292733
-4559.1914 791.64301 7522.7544 3292732
-4574.5933 802.61462 7627.0146 3555904
-4496.7461 797.28479 7576.3662 3753283
-4460.1587 799.2345 7594.894 3819333
-4519.2466 818.55573 7778.4976 3884869
-4557.3091 834.4483 7929.521 4082248
-4537.7256 840.01996 7982.4663 4082248
-4544.3257 850.61688 8083.166 4213834
-4638.8975 878.10492 8344.377 4213834
-4689.9302 897.88403 8532.332 4279627
-4724.6152 914.95355 8694.5381 4214090
-4719.5244 924.62848 8786.4766 4082248
-4678.8613 927.48035 8813.5771 4016455
-4641.0127 930.96503 8846.6904 4016198
-4610.7837 936.08075 8895.3037 3884613
-4598.4282 944.99469 8980.0107 3818820
-4555.0835 947.68213 9005.5488 3818818
-4531.9292 954.69055 9072.1475 3818817
-4485.686 956.95111 9093.6289 3687231
-4427.3037 956.64685 9090.7383 3687488
-4357.2021 953.76947 9063.3945 3424059
-4318.7109 957.82678 9101.9502 3555645
-4266.6694 958.94714 9112.5967 3687488
-4211.4932 959.38385 9116.7471 3819074
-4171.5117 963.34149 9154.3555 4016454
-4104.1953 961.00891 9132.1895 4279627
-4051.5688 962.09888 9142.5469 4411213
-3969.9463 956.23578 9086.8311 4411213
-3909.1152 955.2829 9077.7764 4279628
-3872.2192 960.2373 9124.8564 4345421
-3830.0459 964.01184 9160.7256 4345420
-3751.6106 958.63544 9109.6348 4279627
-3571.5166 926.71515 8806.3057 4082248
-3655.4685 963.38123 9154.7324 4081991
-3607.0012 965.76154 9177.3516 4213834
-3536.7217 962.28406 9144.3066 4345420
-3466.5056 958.70972 9110.3408 4345677
-3406.554 957.90198 9102.665 4083018
-3366.489 962.75403 9148.7725 4083018
-3344.415 973.00824 9246.2158 4083018
-3275.0608 969.62616 9214.0762 4083018
-3225.7253 972.1557 9238.1143 4083018
-3180.0935 975.91431 9273.8311 4214604
-3121.99 975.91431 9273.8311 4017225
-3050.0786 971.51624 9232.0371 3885639
-2967.8223 963.58923 9156.709 3885639
-2912.0793 964.12781 9161.8271 3688260
-2854.9326 964.21387 9162.6455 3950662
-2808.2224 967.9007 9197.6797 3950662
-2798.3152 984.6925 9357.2471 3884869
-2741.4541 985.32672 9363.2744 3753283
-2695.0112 989.81531 9405.9277 3819076
-2669.6401 1002.4166 9525.6738 3819333
-2629.2258 1009.8165 9595.9941 3687490
-2552.5825 1003.3226 9534.2842 3621953
-2493.0391 1003.3998 9535.0176 3621697
-2404.1667 991.38672 9420.8604 3621440
-2346.1006 991.79187 9424.7109 3687490
-2297.2 996.19257 9466.5293 3753026
-2232.0068 993.5741 9441.6465 3752770
-2174.8274 994.47736 9450.2305 3752770
-2150.5872 1010.9147 9606.4297 3818563
-2117.1897 1023.8703 9729.543 3818563
-2052.7849 1022.1544 9713.2373 3818563
-2009.0486 1030.9395 9796.7197 3621184
-1952.8536 1033.6838 9822.7979 3686977
-1870.3934 1022.2516 9714.1602 3818307
-1817.0109 1026.4769 9754.3125 3818562
-1758.1079 1027.7694 9766.5947 3621954
-1679.8165 1017.4121 9668.1729 3819076
-1524.1565 957.66718 9100.4336 3687234
-1551.0779 1012.4575 9621.0898 3753283
-1475.8002 1002.2714 9524.2939 3950919
-1406.9052 995.74426 9462.2686 4082248
-1336.3074 987.38458 9382.8291 4082505
-1280.1517 989.41791 9402.1514 4148041
-1194.3922 967.66302 9195.4209 4148041
-1150.7605 979.5636 9308.5088 4082248
-1106.7369 992.38342 9430.332 4148041
-1015.5748 961.99768 9141.585 3950662
-951.88239 955.5553 9080.3652 4082248
-883.38849 943.16748 8962.6475 4148041
-827.23474 943.16748 8962.6475 4148041
-768.93768 940.5459 8937.7354 4148041
-710.27179 937.02588 8904.2852 4015942
-649.76086 930.26422 8840.0312 4015942
-586.41815 917.8103 8721.6855 4016712
-520.08893 897.64246 8530.0361 4213066
-421.30215 810.41956 7701.1821 4476494
-342.13589 743.25751 7062.9609 3686978
-305.26886 761.68304 7238.0532 2829872
-260.15839 762.38098 7244.6855 3950150
-225.86147 801.75977 7618.8906 4476750
-193.63356 871.55682 8282.1523 4411469
-146.15971 898.71259 8540.2061 4280396
-93.068359 902.74475 8578.5215 4345676
-39.459824 905.92578 8608.75 4148041
14.590601 913.05566 8676.5029 4148041
69.553101 921.02094 8752.1953 4213834
124.42484 921.29132 8754.7646 4082505
179.27615 921.29132 8754.7646 3950918
235.89742 928.2561 8820.9482 3884613
289.22144 922.065 8762.1162 3884356
340.42062 912.1557 8667.9512 3818563
395.81586 914.66949 8691.8389 3949893
451.15329 916.45782 8708.833 3884356
504.88004 914.94135 8694.4229 3686720
558.98096 914.33234 8688.6357 3686721
606.0379 903.33203 8584.1025 3818563
657.19733 899.74152 8549.9824 3950149
691.02124 874.74744 8312.4717 3884356
717.8335 845.00317 8029.8203 3818563
738.81134 812.73682 7723.2021 3818563
759.19629 783.82501 7448.4619 4015942
783.88928 762.45197 7245.3604 4015942
811.15295 745.78241 7086.9541 3950919
840.1814 732.38135 6959.6079 4081738
832.33148 689.74207 6554.4194 4147276
809.41034 639.21039 6074.231 3752779
807.6499 609.1778 5788.8398 1844271
804.71112 580.87598 5519.896 133398
837.95007 579.94513 5511.0508 593954
865.49927 575.30591 5466.9658 988970
901.47992 576.41113 5477.4678 857643
936.07629 576.58252 5479.0967 857129
963.13086 572.2608 5438.0283 660779
992.89368 569.78845 5414.5347 792365
1028.826 570.90314 5425.127 923952
1053.7388 566.02704 5378.791 923952
1085.6207 565.08087 5369.7998 923952
1116.4166 563.64325 5356.1387 858158
1146.6008 561.98969 5340.4248 858156
1180.0602 561.98969 5340.4248 792617
1221.2902 565.58826 5374.6211 463905
1237.5287 557.73053 5299.9517 1713714
1267.2727 556.21118 5285.5137 3424841
1435.8815 614.16528 5836.2349 3490379
1759.2281 733.78314 6972.9287 3490373
1960.3549 797.86053 7581.8374 3556166
2007.8574 797.86053 7581.8374 3424322
2189.5627 849.95612 8076.8867 3292993
2241.9744 850.64185 8083.4028 3621956
2317.3052 859.80115 8170.4409 3753542
2400.4963 871.41791 8280.832 3884871
2517.1724 894.44153 8499.6191 3753542
2610.2332 908.2937 8631.252 3688263
2750.4153 937.64777 8910.1953 3688006
2879.5437 962.14062 9142.9434 3688263
3047.5708 998.42151 9487.7109 3688006
3181.2363 1022.2724 9714.3584 3753799
3348.7322 1055.8949 10033.863 3753799
3476.885 1076.1014 10225.88 3819592
3597.9358 1093.4186 10390.439 3819592
3687.0171 1100.5773 10458.467 3688006
3787.7766 1110.9109 10556.664 3688006
3966.1836 1143.2722 10864.185 3688006
4043.1296 1145.7883 10888.094 3688006
4109.3838 1145.2411 10882.895 3688006
4224.043 1157.9818 11003.966 3819592
4292.9863 1157.9818 11003.966 4016457
4381.1152 1163.0751 11052.365 3884869
4389.6045 1147.1964 10901.476 3950662
4449.5659 1145.0503 10881.082 3753283
4381.4082 1110.4965 10552.726 3753286
4212.1631 1051.7295 9994.2803 3753283
4193.0537 1031.6221 9803.2061 3753283
4244.9365 1029.3096 9781.2305 3753283
4219.8877 1008.6738 9585.1348 3819332
4228.4819 996.54614 9469.8896 3819333
4193.4443 974.6134 9261.4688 3885125
4245.6201 973.27234 9248.7246 3950918
4327.5835 978.70398 9300.3398 4082248
4533.6294 1011.6802 9613.7041 4016711
4486.3608 988.00574 9388.7324 3885125
4316.5283 938.30194 8916.4111 3752770
nan nan nan 16777215
nan nan nan 16777215
nan nan nan 16777215
nan nan nan 16777215
nan nan nan 16777215
nan nan nan 16777215
nan nan nan 16777215
nan nan nan 16777215
nan nan nan 16777215
nan nan nan 16777215
4243.2485 807.42676 7672.7427 3818306
4780.5356 899.4743 8547.4434 3884356
4996.6807 929.72772 8834.9336 3949638
5270.7324 969.97485 9217.3896 4081225
5475.749 996.78265 9472.1367 4015175
5619.4062 1011.9658 9616.418 3949638
5762.3115 1026.6927 9756.3643 4015175
5933.228 1046.0492 9940.3018 4015431
6207.666 1083.0649 10292.053 3884358
6370.3228 1100.0175 10453.147 3884613
6693.873 1144.1251 10872.289 3884356
6861.8335 1161.0183 11032.82 3950149
7065.8286 1183.611 11247.512 3950149
7143.4902 1184.8038 11258.848 4147528
7206.417 1183.5535 11246.965 4081734
7341.1938 1194.0133 11346.362 4147527
7539.8174 1214.5575 11541.588 4081735
7661.5093 1222.4363 11616.458 3950406
7758.0518 1226.1919 11652.146 4147527
8004.333 1253.3237 11909.973 4081735
8118.8833 1259.5184 11968.839 4081734
8155.1782 1253.5706 11912.318 4015942
8177.3149 1245.5742 11836.331 3950406
8220.1562 1240.8468 11791.407 3950149
8220.4922 1229.8446 11686.856 3884356
8252.5 1223.733 11628.78 3950149
8290.0791 1218.5475 11579.504 3752770
8439.373 1229.7301 11685.77 3752770
8358.9775 1207.5397 11474.899 3752770
8417.3965 1205.6097 11456.56 3818563
8475.7842 1203.7079 11438.487 3818563
8493.6143 1196.1265 11366.442 3752770
8564.9043 1196.137 11366.543 3687234
8610.3447 1192.5671 11332.62 3818563
8653.5449 1188.7479 11296.327 3752770
8737.0303 1190.4797 11312.784 3818306
8822.6738 1192.4753 11331.748 3818306
8896.0742 1192.7977 11334.812 3884099
8990.3672 1195.8939 11364.233 3752513
9149.4521 1207.4926 11474.451 3818306
9236.5752 1209.4871 11493.405 3818306
9323.8262 1211.4674 11512.224 3818306
9469.7988 1220.9886 11602.701 3884099
9595.999 1227.8348 11667.759 3752513
9670.2637 1227.9824 11669.161 3752513
9719.665 1224.9943 11640.766 3883585
9360.3232 1170.9193 11126.907 4080708
9457.8799 1174.3766 11159.76 4146501
9601.8623 1183.5054 11246.509 4080707
9943.2598 1216.657 11561.539 4080454
10454.692 1269.984 12068.29 4080454
10565.459 1274.2238 12108.579 4015173
10621.208 1271.8152 12085.691 4015175
10696.929 1271.8152 12085.691 4080711
10359.391 1223.0261 11622.062 4081224
11000.133 1289.6072 12254.764 4147017
11058.616 1287.4771 12234.521 4212810
11183.27 1293.027 12287.261 4278603
11603.323 1332.422 12661.62 4607568
11780.926 1343.6302 12768.129 4805203
11604.747 1314.6102 12492.36 5133913
11899.544 1338.9747 12723.889 5133912
12254.564 1369.7463 13016.303 5133914
12541.81 1392.5857 13233.339 5397342
13366.444 1474.4023 14010.818 5594464
13979.534 1531.9691 14557.859 5462878
14824.203 1614.0028 15337.401 5397085
15054.925 1628.5662 15475.793 4936534
14067.49 1512.0125 14368.216 5002583
14313.167 1528.6365 14526.189 5068120
14417.489 1530.0491 14539.613 4804947
14293.028 1507.317 14323.597 4344397
15081.933 1580.5894 15019.883 4081481
15061.113 1568.6199 14906.141 3818566
15154.504 1568.6199 14906.141 3818053
14732.68 1515.6173 14402.472 3686724
nan nan nan 16777215
nan nan nan 16777215
nan nan nan 16777215
nan nan nan 16777215
nan nan nan 16777215
-5944.5498 701.6358 6294.6572 4015944
-6071.5693 721.414 6472.0952 4015944
-6191.7759 740.64325 6644.6084 4081737
-6181.9028 744.46771 6678.9194 4081224
-6170.3232 748.13745 6711.8418 3949638
-6196.1064 756.4187 6786.1362 3686466
-6223.5781 765.02191 6863.3193 3686723
-6203.0757 767.80676 6888.3032 3752259
-6206.8262 773.65363 6940.7578 3620673
-6199.6333 778.20929 6981.6284 3686466
-6185.6938 781.97687 7015.4287 3686467
-6189.1133 788.00854 7069.5415 3752259
-6132.0894 786.37585 7054.894 3752260
-6160.1724 795.71289 7138.6602 3620673
-6179.8525 804.09308 7213.8423 3621183
-6215.3442 814.66925 7308.7256 3620927
-6169.3882 814.64752 7308.5308 3555134
-6201.7266 825.04126 7401.7773 3555134
-6221.3335 833.88519 7481.1196 3489341
-6366.2095 859.78137 7713.4448 3489341
-6425.9233 874.48444 7845.3511 3620927
-6459.791 885.86957 7947.4922 3489341
-6351.5898 877.79761 7875.0752 3620927
-6226.3252 867.2226 7780.2026 3686720
-6189.4507 868.88898 7795.1523 3423548
-6196.8457 876.84613 7866.5391 3226683
-6149.168 877.0755 7868.5972 3292220
-6089.6948 875.61261 7855.4727 3358014
-6011.8755 871.46649 7818.2764 3489601
-5916.3291 864.66156 7757.2261 3423808
-5875.8804 865.86292 7768.0039 3358783
-5698.6816 846.76465 7596.6665 3819335
-5567.9971 834.31451 7484.9712 3819335
-5418.4277 818.79907 7345.7759 3884871
-5265.7856 802.54956 7199.9946 3819078
-5025.3369 772.52112 6930.5977 3884871
-4947.9893 767.2605 6883.4023 3884871
-4803.9316 751.47198 6741.7573 3884871
-4713.2754 743.83093 6673.2065 3621699
-4525.2568 720.55035 6464.3467 3687492
-4378.7334 703.51611 6311.5259 3621956
-4298.2197 696.8736 6251.9331 3884871
-4026.5398 658.82996 5910.6284 3819078
-3619.6604 597.75305 5362.6831 3819078
-3346.5481 557.82904 5004.5088 3622213
-3145.9778 529.35614 4749.0669 3556420
-2975.6001 505.46829 4534.7593 3622213
-2703.0647 463.599 4159.1328 4411730
-2690.9207 466.00861 4180.7505 4938073
-2665.9731 466.22656 4182.7061 4872025
-2760.5435 487.55765 4374.0757 4280144
nan nan nan 16777215
nan nan nan 16777215
-4033.6133 734.271 6587.4404 3358785
-4154.1064 764.02289 6854.3569 3621698
-4165.4639 774.11444 6944.8921 3753283
-4121.9521 774.11444 6944.8921 3884869
-4153.6309 788.38611 7072.9287 4082248
-4215.6963 808.79541 7256.0288 3884869
-4242.0435 822.72223 7380.9722 3884869
-4254.3862 834.21002 7484.0342 3753283
-4306.9712 853.9328 7660.9741 3950662
-4349.1313 872.00964 7823.1494 3819076
-4386.1558 889.45728 7979.6792 3885126
-4362.4268 894.84528 8028.0166 3819076
-4312.1289 894.84528 8028.0166 4082248
-4319.0669 906.86304 8135.8325 4213834
-4291.6133 911.86035 8180.6655 4213834
-4314.6758 927.84174 8324.041 4148041
-4282.0601 932.09442 8362.1934 4016455
-4272.5796 941.55072 8447.0303 3950660
-4234.6084 944.88708 8476.9619 3819074
-4193.7686 947.65991 8501.8379 3819074
-4182.8701 957.35693 8588.834 3819074
-4142.3804 960.44574 8616.5449 3818817
-4118.3223 967.47626 8679.6182 3884610
-4060.2146 966.58893 8671.6582 3884610
-3994.5977 963.86566 8647.2266 3950403
-3910.1902 956.47113 8580.8867 4016453
-3840.7588 952.58478 8546.0215 3950917
-3787.2156 952.58478 8546.0215 4016456
-3763.6211 960.22589 8614.5723 4148042
-3725.1709 964.24377 8650.6191 4279627
-3691.9097 969.74335 8699.958 4213834
-3634.4155 968.94733 8692.8164 4345420
-3578.0676 968.43713 8688.2393 4148041
-3498.4094 961.50464 8626.0449 4016712
-3439.8076 960.2326 8614.6328 3820103
-3389.0112 961.13354 8622.7158 3885896
-3302.4351 951.7522 8538.5518 4148812
-3218.7112 942.89734 8459.1113 4214604
-3167.8552 943.53558 8464.8369 4148811
-3149.7144 954.10559 8559.665 3951432
-3128.0491 963.95563 8648.0342 3885639
-3077.0088 964.9411 8656.875 3951432
-3021.9578 964.68158 8654.5469 3885382
-2970.5984 965.61255 8662.8984 3819589
-2931.4541 970.62268 8707.8467 3819845
-2873.0491 969.32452 8696.2002 3885639
-2824.325 971.30548 8713.9727 3951432
-2773.8274 972.74268 8726.8662 3950919
-2710.0732 969.49536 8697.7324 3819076
-2668.1772 974.0946 8738.9941 3884869
-2616.8711 975.37909 8750.5186 3884869
-2534.1709 964.76691 8655.3115 3753540
-2487.1941 967.58795 8680.6201 3819076
-2464.1975 980.07257 8792.625 3884869
-2423.603 985.96899 8845.5244 3884869
-2365.5537 984.87427 8835.7031 3753283
-2310.1953 984.87427 8835.7031 3753540
-2232.1755 974.97614 8746.9033 3819076
-2171.6738 972.42401 8724.0068 3884869
-2122.8416 975.10028 8748.0166 3885126
-2051.3628 967.2403 8677.502 3884612
-1999.0648 968.24249 8686.4932 3818307
-1976.274 983.99255 8827.793 3884099
-1910.3258 978.5426 8778.8994 3884356
-1857.0591 979.45813 8787.1133 3818563
-1807.5253 982.45874 8814.0322 3752770
-1777.0924 996.35754 8938.7236 3752770
-1717.9514 994.54126 8922.4297 3621441
-1662.4723 994.79425 8924.6992 3621184
-1616.8489 1001.1676 8981.877 3818306
-1571.2502 1008.0164 9043.3203 4015942
-1499.037 997.66461 8950.4502 3950149
-1424.6046 984.97388 8836.5967 4016455
-1356.8356 976.05023 8756.5391 4016455
-1293.1599 969.44318 8697.2646 3884869
-1243.2516 973.02985 8729.4424 4082248
-1197.1012 980.02313 8792.1816 3950662
-1145.2393 982.78961 8817.001 3884869
-1078.8573 972.74463 8726.8838 3884869
-1019.7972 968.5813 8689.5322 3884869
-960.44128 963.65161 8645.3066 3884869
-889.80237 946.13525 8488.1602 4016455
-828.11053 936.51025 8401.8105 4016455
-772.69946 933.1637 8371.7871 3950919
-719.46918 932.15515 8362.7393 4082248
-657.96265 919.42316 8248.5146 3884356
-600.4339 910.55273 8168.9351 3621697
-531.77618 881.57971 7909.0059 3818050
-479.55365 876.6983 7865.2129 3950916
-409.90195 835.18628 7492.792 4016453
-347.08731 798.66858 7165.1768 3949634
-297.84253 787.16473 7061.9712 3222318
-252.6127 784.10925 7034.5596 3949376
-211.21104 794.15613 7124.6943 3950145
-175.74059 837.8656 7516.8291 3753025
-134.94368 878.88678 7884.8462 3687490
-86.141701 885.0412 7940.0605 3818563
-36.062901 876.97113 7867.6611 4015685
13.494459 894.47192 8024.667 4015686
65.639397 920.67151 8259.7148 4015942
117.38908 920.67151 8259.7148 3752770
173.27513 943.18713 8461.7109 3818563
224.18576 934.41498 8383.0127 3621184
276.6207 934.12042 8380.3701 3555648
333.16992 945.59686 8483.3301 3555391
382.78201 936.93555 8405.625 3555391
436.87057 940.00098 8433.127 3621184
480.86716 923.0332 8280.9023 3752770
525.4707 910.42206 8167.7622 3752770
561.12476 885.91937 7947.939 3621184
593.90723 861.24701 7726.5933 3621184
627.99438 842.04297 7554.3062 3686977
675.33258 842.0531 7554.397 3622210
704.15576 820.4881 7360.9282 3687746
735.36212 804.18036 7214.6255 3687746
763.80774 786.91718 7059.75 3819076
793.01996 772.29041 6928.5278 3819078
820.32239 757.41864 6795.1069 3753029
820.64709 720.33423 6462.4077 3752520
809.41034 677.06598 6074.231 3620937
801.58502 640.4093 5745.3696 1647148
803.54944 614.38861 5511.9272 133655
834.56317 611.80798 5488.7754 593955
865.49927 609.37695 5466.9658 922920
898.87512 608.78345 5461.6411 987946
931.27246 607.59503 5450.979 725800
958.96991 603.53271 5414.5347 857388
991.27771 602.55048 5405.7227 857388
1024.203 601.99603 5400.7485 857388
1056.7175 601.24335 5393.9961 923182
1086.2584 598.89795 5372.9541 857390
1116.0415 596.82294 5354.3384 791594
1146.3751 595.15491 5339.374 725801
1178.7837 594.62811 5334.6479 594468
1221.322 599.09943 5374.7617 463136
1241.0587 592.44586 5315.0703 1976371
1252.6702 582.36267 5224.6094 3752781
1470.6476 666.28876 5977.5444 3752778
1745.5751 771.20746 6918.8125 3621445
1792.1023 772.57782 6931.1064 3555652
1871.2161 787.59906 7065.8682 3424321
1984.2089 815.85626 7319.3745 3490370
2032.5673 816.86102 7328.3887 3687749
2146.4043 843.55505 7567.8721 3819335
2304.3245 886.04596 7949.0742 3819591
2433.3152 915.85046 8216.4629 3885128
2505.4116 923.44971 8284.6387 3753799
2634.2671 951.23639 8533.9238 3753541
2734.584 967.81714 8682.6768 3753541
2848.1721 988.35638 8866.9424 3753798
2964.9028 1009.1793 9053.7539 3490625
3036.8647 1014.2684 9099.4092 3227454
3142.3528 1030.1608 9241.9863 3095612
3235.0642 1041.3654 9342.5068 3161662
3321.2756 1050.1165 9421.0166 3227454
3386.5317 1052.0519 9438.3809 3293248
3512.8779 1072.5735 9622.4883 3293505
3583.4448 1075.6591 9650.1699 3359041
3716.8047 1097.1782 9843.2266 3161663
3774.5173 1096.0288 9832.915 3293505
3844.2732 1098.3573 9853.8047 3424321
3962.2671 1114.1765 9995.7256 3490368
3938.5513 1090.2751 9781.2969 3621697
3719.168 1013.7711 9094.9482 3490113
3736.0964 1003.0179 8998.4766 3687750
3737.3357 988.435 8867.6475 3819335
3744.7053 975.87677 8754.9834 3621956
3798.5159 975.60913 8752.582 3490369
3817.7671 966.59924 8671.751 3490113
3832.3003 956.66443 8582.6211 3490111
3816.054 939.42725 8427.9795 3358781
3840.3398 932.5025 8365.8555 3489598
3898.1907 933.80475 8377.5381 3489598
3973.5864 939.21942 8426.1152 3489598
3282.5415 765.70709 6869.4663 3423805
3269.4194 752.77612 6753.457 3686977
3307.8291 751.88898 6745.4985 3555906
3323.1038 745.83185 6691.1572 3555394
3304.2227 732.35529 6570.2534 3620930
3098.0396 678.20715 6084.4688 3883845
2703.3777 584.61609 5244.8262 3949125
2522.2556 538.89728 4834.6641 2895923
2662.395 562.08868 5042.7236 2830131
2717.0347 566.89697 5085.8608 3290682
nan nan nan 16777215
nan nan nan 16777215
3604.6184 726.52594 6517.9565 4015684
4311.1348 859.19342 7708.1699 3884359
4059.1804 800.01788 7177.2822 4015176
4460.7319 869.52643 7800.8716 4081225
4365.7153 841.7818 7551.9629 4015432
4928.646 940.13495 8434.3291 4015431
5067.8677 956.43665 8580.5781 3883846
5271.5864 984.44067 8831.8135 3883588
5401.1689 998.16211 8954.9141 3752772
5496.6792 1005.3695 9019.5742 3818564
5653.0952 1023.4568 9181.8428 3686979
5942.5996 1065.0317 9554.8281 3818563
6102.8955 1082.8517 9714.6973 3818820
6289.5415 1104.9487 9912.9395 3884356
6378.417 1109.6053 9954.7158 3950149
6513.3438 1122.1053 10066.858 3753027
6744.2524 1150.7426 10323.774 3818563
6876.9297 1162.2343 10426.871 3686977
6967.9043 1166.5278 10465.391 3620927
7106.6777 1178.6692 10574.315 3620927
7247.5015 1190.9231 10684.25 3686463
7288.5005 1186.6993 10646.356 3752256
7395.4062 1193.1857 10704.549 3621441
7406.147 1184.1797 10623.752 3753027
7433.3149 1177.9371 10567.747 3686977
7607.9707 1194.9705 10720.561 3752770
7704.0815 1199.4768 10760.988 3752770
7356.0747 1135.3584 10185.757 3686977
7419.8916 1135.3584 10185.757 3752770
7420.6865 1125.7971 10099.979 3752770
7279.0288 1094.969 9823.4072 3686977
7345.3359 1095.6791 9829.7773 3686977
7453.4619 1102.5635 9891.54 3687234
7669.4341 1125.156 10094.228 3752770
7731.8335 1125.0332 10093.126 3818563
7823.5459 1129.1432 10129.997 3818306
7912.0425 1132.7263 10162.144 3818563
7950.7168 1129.1765 10130.297 3818306
8014.6123 1129.2366 10130.835 3620927
7955.3252 1112.076 9976.8809 3555134
8023.8911 1112.916 9984.418 3489341
8031.0757 1105.2957 9916.0518 3555134
8214.6992 1121.8885 10064.913 3555134
8294.5 1124.1573 10085.268 3555390
8442.7656 1135.6008 10187.932 3620927
8806.0303 1175.5743 10546.55 3817536
8566.8555 1135.1277 10183.687 3751743
8652.5488 1138.0066 10209.516 3685950
9145.6211 1194.0298 10712.121 3817536
9212.7363 1194.0298 10712.121 3620157
9039.5293 1163.1078 10434.708 3751743
9096.0078 1161.9711 10424.51 3817535
9255.6094 1173.9302 10531.8 3686206
9475.0986 1193.2621 10705.233 3817535
9694.3613 1212.2937 10875.975 3685950
9736.7998 1209.1021 10847.341 3817282
9839.3027 1213.3615 10885.554 3620930
9889.5713 1211.1653 10865.851 3423551
9659.291 1174.8755 10540.28 3423294
9725.3291 1174.8755 10540.28 3291964
10445.191 1253.3284 11244.113 3160378
10730.583 1278.947 11473.948 3423550
10901.03 1290.6158 11578.634 3489344
10973.574 1290.6158 11578.634 3620930
11110.239 1298.1077 11645.846 3555137
11210.882 1301.3204 11674.669 3686466
11935.825 1376.4884 12349.031 3686723
11500.629 1317.7578 11822.136 3884104
11579.846 1318.344 11827.394 3883848
11419.626 1291.8363 11589.583 4015434
11506.147 1293.3998 11603.61 4015435
12294.79 1373.3733 12321.084 4080971
13529.306 1501.8436 13473.643 4080972
13613.722 1501.8436 13473.643 4080972
15873.259 1740.3206 15613.115 3949643
13593.107 1481.2001 13288.441 4212558
nan nan nan 16777215
nan nan nan 16777215
nan nan nan 16777215
nan nan nan 16777215
nan nan nan 16777215
-5771.9077 719.34894 6111.8477 3358014
-5800.1982 727.70251 6182.8228 3358014
-5832.9019 736.72589 6259.4888 3292477
-5682.8379 722.63068 6139.7305 3291708
-5861.2363 750.39532 6375.6289 3357501
-5877.4038 757.62854 6437.085 3291708
-5864.5552 761.19556 6467.3916 3291708
-5843.8652 763.78729 6489.4121 3357501
-5874.3809 773.15491 6569.0024 3489087
-5853.5518 775.84918 6591.894 3489087
-5851.6992 781.11481 6636.6328 3423294
-5876.46 790.03375 6712.4116 3554880
-5876.3818 795.71796 6760.7061 3423294
-5923.8574 807.97052 6864.8086 3028536
-5905.2666 811.3255 6893.314 3094584
-5898.0127 816.29889 6935.5698 3160376
-5942.3359 828.5376 7039.5542 3291962
-5936.3984 833.89911 7085.1074 3291962
-5902.8989 835.44049 7098.2036 3291962
-5932.8438 846.0528 7188.3691 3555134
-5939.6489 853.50238 7251.6636 3620927
-5911.5615 856.01416 7273.0049 3489341
-5906.1177 861.86945 7322.7529 3357755
-5854.3501 861.00336 7315.3945 3489597
-5794.8604 858.97906 7298.1958 3423292
-5774.7251 862.80249 7330.6807 3226685
-5735.7617 863.85156 7339.5942 3226429
-5672.624 861.24731 7317.4673 3226428
-5510.8887 843.50903 7166.7568 2831670
-5532.1226 853.71515 7253.4712 2634034
-5534.0542 861.08679 7316.104 2437681
-5559.8267 872.32233 7411.5649 2634804
-5141.3037 813.45111 6911.3735 3292734
-5098.002 813.45111 6911.3735 3424320
-5116.1763 823.34448 6995.4312 3424577
-4714.5415 765.26532 6501.9697 3424577
-4670.6206 764.74402 6497.5405 3358527
-4583.3467 757.05267 6432.1924 3358528
-4462.689 743.66187 6318.4189 3555906
-4288.8286 721.08624 6126.6084 3489857
-4141.0327 702.52472 5968.9033 3424321
-3926.825 672.25549 5711.7246 3358270
-3707.2756 640.50659 5441.9751 3358783
-3471.8577 605.40131 5143.7075 3424320
-3320.7659 584.48016 4965.9541 3489856
-3145.9778 558.95306 4749.0669 3358784
-3065.5977 549.87238 4671.9141 3556420
-2715.7087 491.80914 4178.5879 4149070
-2692.0896 492.2775 4182.5669 4807000
-2736.1018 505.24368 4292.7324 4675157
-2773.3965 517.21454 4394.4414 4149070
-2581.1555 486.18988 4130.8442 3622213
nan nan nan 16777215
nan nan nan 16777215
-3907.7522 758.89752 6447.8672 3819332
-3913.1606 767.88629 6524.2383 3950662
-3878.978 769.21362 6535.5161 3819076
-3969.4807 795.55859 6759.3525 3819076
-3982.5149 806.77826 6854.6787 3884869
-4007.3198 820.65295 6972.5635 3687490
-4016.6699 831.63373 7065.8599 3687490
-4002.1348 837.85876 7118.75 3753283
-3999.9299 846.83453 7195.0117 3819076
-4106.9707 879.40735 7471.7612 3819333
-4089.7244 885.81128 7526.1714 3819076
-4070.74 891.9837 7578.6152 4082248
-4023.2576 891.9837 7578.6152 4279627
-4027.5803 903.60651 7677.3662 4213834
-3996.4851 907.4679 7710.1748 4148041
-4014.9763 922.82117 7840.6206 4148039
-4014.9622 934.2486 7937.7124 3884867
-3986.6121 939.28632 7980.5151 3753538
-3936.6113 939.28632 7980.5151 3753281
-3898.7178 942.2121 8005.3735 3753281
-3848.5615 942.2121 8005.3735 3819331
-3811.9353 945.56836 8033.8892 3687745
-3740.0654 940.15491 7987.895 3753538
-3692.7722 940.85651 7993.856 3819074
-3625.7659 936.48566 7956.7197 3884867
-3539.0715 926.83698 7874.7407 3950660
-3487.4216 926.2229 7869.5234 4082246
-3442.5989 927.43042 7879.7827 4148038
-3405.9514 930.90759 7909.3257 3950916
-3361.7786 932.40009 7922.0068 4082245
-3336.0447 939.12805 7979.1704 4016452
-3287.0757 939.42053 7981.6548 4148039
-3225.3625 936.0235 7952.7925 4148554
-3179.0881 937.0705 7961.6885 3820102
-3118.9958 934.01312 7935.7119 3754053
-3054.4111 929.48944 7897.2773 4082761
-2976.512 920.69849 7822.5859 4213834
-2917.8306 917.6571 7796.7456 4016455
-2882.3127 921.9212 7832.9746 4082248
-2858.4458 930.12408 7902.6689 4082248
-2811.865 931.09491 7910.918 4082248
-2787.4783 939.58154 7983.0239 4082248
-2749.3286 943.6546 8017.6289 4082248
-2722.0376 951.67548 8085.7778 4082248
-2644.3601 942.05048 8004 4082505
-2569.1462 932.948 7926.6621 4148041
-2519.4832 932.948 7926.6621 4148041
-2468.0281 932.27094 7920.9102 4016455
-2419.2859 932.61218 7923.8086 3884869
-2373.4907 934.12738 7936.6826 3884869
-2283.668 918.00873 7799.7334 3950662
-2235.1152 918.13818 7800.8325 3884869
-2264.0393 950.81067 8078.4302 3819076
-2218.5249 953.00128 8097.042 3687490
-2164.9126 951.73438 8086.2778 3687490
-2114.2495 951.73438 8086.2778 3687490
-2021.5127 932.32965 7921.4092 3687490
-1971.8826 932.32965 7921.4092 3687490
-1935.9215 938.95941 7977.7378 3555904
-1875.7201 933.87195 7934.5127 3753283
-1811.9979 926.70679 7873.6353 3885126
-1794.9637 943.68652 8017.9004 3950919
-1745.9268 944.33429 8023.4043 4081735
-1710.3879 952.53772 8093.104 4081735
-1663.3727 954.65588 8111.1001 4016199
-1621.1243 959.72955 8154.208 4147528
-1580.1332 965.90204 8206.6514 4081992
-1522.7136 962.10944 8174.4287 4147528
-1450.3878 948.30676 8057.1562 4278858
-1426.838 966.54987 8212.1562 4214091
-1380.1083 969.86823 8240.3496 4279627
-1319.3602 963.21033 8183.7822 4213834
-1224.8445 930.36487 7904.7148 4082248
-1182.1177 935.74652 7950.4399 4016455
-1120.2606 925.79242 7865.8662 3884869
-1071.1771 925.96411 7867.3242 3753283
-1037.02 939.67767 7983.8398 3753283
-988.45508 941.06415 7995.6196 3687490
-933.54572 936.2359 7954.5972 3884869
-882.92072 935.4021 7947.5137 3819076
-819.72064 920.34991 7819.624 3819076
-768.19061 917.31952 7793.8774 3819076
-714.48096 911.09845 7741.0205 3819076
-661.77368 905.34259 7692.1162 4016455
-610.77429 901.20245 7656.9404 3818563
-538.90417 862.93658 7331.8203 3884869
