# .PCD v0.7 - Point Cloud Data file format
VERSION 0.7
FIELDS x y z rgb
SIZE 4 4 4 4
TYPE F F F U
COUNT 1 1 1 1
WIDTH 1266
HEIGHT 1
VIEWPOINT 0 0 0 1 0 0 0
POINTS 1266
DATA ascii
3499.1694 765.91522 4254.6338 3226169
3552.1631 771.63641 4286.415 2962997
3550.6609 765.52246 4252.4521 2831411
3569.5132 763.85535 4243.1914 2831411
3598.3042 764.32397 4245.7944 2962997
3620.9578 763.49152 4241.1704 3028790
3674.7402 769.18707 4272.8091 3094583
3701.5107 769.18707 4272.8091 2897204
3743.6431 772.35638 4290.4146 2831411
3782.3286 774.77454 4303.8472 2897204
3789.1465 770.67682 4281.0845 3028790
3802.6897 767.99487 4266.1865 3028790
3839.272 769.97107 4277.1641 3357755
3885.8284 773.90613 4299.0234 3291962
3912.7625 773.90613 4299.0229 3291962
3944.333 774.81671 4304.0815 3357755
3992.332 778.92029 4326.8765 3291961
4027.0483 780.39441 4335.0654 3160376
4058.4705 781.21478 4339.6226 3226169
4109.4272 785.75928 4364.8672 3292218
4158.9141 789.9646 4388.2275 3423292
4148.415 782.79547 4348.4033 3291708
4175.6587 782.79547 4348.4033 3291708
4202.2891 782.68115 4347.7681 3028536
4260.4731 788.40735 4379.5771 3094330
4327.6167 795.7077 4420.1304 3356475
4403.9956 804.60242 4469.54 3290939
4431.2305 804.46289 4468.7651 3356476
4473.0361 806.95386 4482.6021 3225146
4508.9673 808.36053 4490.4165 3290938
4558.3848 812.15259 4511.481 3225146
4584.8354 811.83124 4509.6958 3553854
4599.9258 809.5144 4496.8262 3817282
nan nan nan 16777215
nan nan nan 16777215
nan nan nan 16777215
nan nan nan 16777215
nan nan nan 16777215
nan nan nan 16777215
nan nan nan 16777215
-3509.7629 701.50549 3766.4478 3620927
-3529.1685 710.15894 3812.9089 3423548
-3499.7136 709.03137 3806.8547 3489341
-3475.8625 709.03137 3806.8547 3555134
-3454.9141 709.62756 3810.0557 3555134
-3456.6851 714.93103 3838.5305 3489341
-3431.6636 714.72852 3837.4434 3423548
-3401.2576 713.39392 3830.2778 3357755
-3387.6133 715.58093 3842.02 3291962
-3351.356 712.98846 3828.1006 3160376
-3323.8342 712.23047 3824.0312 3160376
-3300.6299 712.39325 3824.905 3357755
-3276.6655 712.39325 3824.905 3291962
-3254.561 712.8006 3827.092 3226169
-3238.3333 714.51056 3836.2729 3226169
-3234.4114 718.98157 3860.2786 3094583
-3229.6091 723.32294 3883.5874 3291962
-3207.7937 723.89075 3886.6362 3226169
-3169.8293 720.79517 3870.0159 3291962
-3149.1326 721.6087 3874.3835 3423548
-3126.1018 721.89581 3875.925 3423548
-3020.4038 702.94806 3774.1929 3423548
-2996.7573 702.94806 3774.1929 3423548
-2984.7183 705.69244 3788.9277 3358012
-2896.644 690.35931 3706.6028 3358012
-2865.4021 688.43274 3696.259 3621184
-2890.1519 700.0368 3758.562 3621184
-2871.416 701.21198 3764.8718 3621440
-2851.0725 702.01093 3769.1614 3555391
-2831.7375 703.07361 3774.8669 3358012
-2819.2976 705.88043 3789.9373 3358012
-2801.127 707.28802 3797.4946 3226426
-2768.4119 705.01575 3785.2947 3358012
-2749.0132 706.12476 3791.2488 2963254
-2686.7634 696.15015 3737.6943 3226426
-2704.7961 706.98456 3795.8655 3555904
-2699.0383 711.73761 3821.385 3490111
-2661.3521 708.08087 3801.7515 3360065
-2630.4814 706.18781 3791.5876 3885896
-2631.8926 713.00574 3828.1934 4017481
-2586.5415 707.16412 3796.8296 3754567
-2526.6606 697.20483 3743.3572 3622213
-2493.9673 694.63129 3729.5393 3359808
-2488.6399 699.70319 3756.7708 3425858
-2505.906 711.28491 3818.9543 3819846
-2463.0481 705.85968 3789.8257 3754053
-2438.5415 705.6391 3788.6416 3754311
-2413.5181 705.26331 3786.6235 3820360
-2337.5447 689.84381 3703.835 3754568
-2363.0691 704.36896 3781.822 3425859
-2336.7148 703.56812 3777.522 3294015
-2275.906 692.27057 3716.8647 3227967
-2251.1421 691.81683 3714.4285 3359292
-2233.21 693.47498 3723.3311 3228220
-2220.3833 696.77026 3741.0239 3490109
-2204.4297 699.14429 3753.77 3819075
-2183.3816 699.93622 3758.0222 3819076
-2159.8364 699.93622 3758.0222 3555904
-2167.2688 710.08575 3812.5159 3490111
-2142.5796 709.81982 3811.0881 3555904
-2111.5776 707.43304 3798.2732 3490111
-2099.0911 711.26562 3818.8508 3555904
-2083.304 714.0553 3833.8289 3555904
-2063.2766 715.43976 3841.2622 3555904
-2038.9214 715.33856 3840.7188 3687490
-2014.9006 715.3537 3840.8 3687490
-1991.8695 715.72473 3842.7922 3753283
-1972.2498 717.3457 3851.4951 3753283
-1955.2361 719.96637 3865.5659 3753540
-1933.1921 720.77734 3869.9199 3884869
-1884.4673 711.53467 3820.2954 3819076
-1903.1426 727.83057 3907.7896 3555904
-1871.8202 725.18109 3893.564 3621954
-1853.0841 727.40216 3905.4893 3753283
-1817.2385 722.87671 3881.1917 3819076
-1792.7338 722.8009 3880.7847 3753283
-1784.2749 729.28149 3915.5796 3687490
-1764.5242 731.26306 3926.219 3687490
-1729.9281 727.06152 3903.6604 4016455
-1702.6344 725.85242 3897.1687 3884869
-1668.6187 721.70093 3874.8787 4082248
-1663.3539 730.04547 3919.6814 3884869
-1613.2679 718.67334 3858.6235 3753283
-1573.3312 711.54523 3820.3521 3753540
-1549.3955 711.54523 3820.3521 4016455
-1527.7537 712.61523 3826.0969 4082505
-1504.5463 712.97742 3828.0415 4082248
-1476.5641 711.05206 3817.7039 4016455
-1440.74 705.22461 3786.416 3884869
-1414.3424 703.89355 3779.2695 3687747
-1386.4517 701.76141 3767.8218 3489342
-1347.6525 693.93835 3725.8191 3160634
-1312.5729 687.78857 3692.8003 2831156
-1287.804 686.91791 3688.1255 2239019
-1259.27 683.9704 3672.3 1975848
-1238.08 684.9762 3677.7004 2106664
-1214.0201 684.4024 3674.6196 2633008
-1190.8636 684.32544 3674.2065 2764594
-1163.0802 681.53424 3659.2202 2501423
-1141.542 682.36389 3663.6746 1777699
-1123.7343 685.50323 3680.5303 1711907
-1100.6874 685.51129 3680.5732 1909286
-1068.1677 679.49365 3648.2639 2304044
-1058.2854 687.92798 3693.5488 2698801
-1026.2938 682.04633 3661.9697 2501166
-1003.3505 682.04633 3661.9697 2040871
-978.62579 680.80713 3655.3162 1843493
-957.89288 682.35205 3663.6111 2040872
-922.8656 673.54034 3616.3 2435629
-909.8916 680.78528 3655.1992 2633009
-887.46765 681.15137 3657.1648 2501420
-864.66986 681.24237 3657.6533 1909283
-838.71094 678.78003 3644.4326 1711647
-812.50146 675.97137 3629.3525 1711647
-784.9729 671.87183 3607.342 2106405
-768.39069 677.17627 3635.822 2435370
-745.84729 677.39075 3636.9734 2501163
-721.75775 676.17029 3630.4207 2106405
-693.46796 670.80737 3601.6267 1777697
-672.10968 672.01422 3608.1062 2040612
-655.82471 678.55426 3643.2202 2566956
-629.89423 675.2262 3625.3518 2895921
-606.23792 674.17822 3619.7251 2764591
-587.0993 678.26807 3641.6838 2633262
-564.82617 678.9209 3645.189 2501422
-543.15515 680.38306 3653.0393 2501423
-517.98468 677.39746 3637.0093 2764595
-502.2951 687.10614 3689.1362 2830131
-479.18149 687.10614 3689.1362 2435629
-455.61578 686.42499 3685.479 2106407
-433.27649 687.61743 3691.8813 1910312
-412.74649 691.97766 3715.292 2239020
-392.02078 696.51135 3739.6338 2896950
-373.71085 706.18652 3791.5806 3226428
-349.95203 706.17969 3791.5439 3292735
-326.19684 706.17969 3791.5439 3292734
-304.90637 711.93469 3822.4429 3555906
-277.70645 703.69647 3778.2112 3621697
-256.40186 710.25348 3813.4165 3621697
-233.41068 713.00592 3828.1946 3621697
-209.58684 713.55396 3831.137 3621697
-186.21448 715.9798 3844.1614 3490111
-162.67116 718.37122 3857.0015 3621697
-138.6373 719.05304 3860.6621 3687490
-114.44906 719.05304 3860.6621 3950662
-89.024673 709.20551 3807.7898 3555904
-66.608513 724.88568 3891.978 3226939
-42.875843 736.0752 3952.0554 3358525
-18.301573 743.65668 3992.7615 3160377
6.7162242 743.86798 3993.8958 3357755
31.634022 741.40247 3980.6582 3291962
56.718666 743.29724 3990.8313 3291706
81.145111 738.04602 3962.637 3226426
105.97226 738.04602 3962.637 3620927
131.93272 744.44086 3996.9714 3226427
155.57668 737.80939 3961.3667 3161146
181.63788 742.88916 3988.6406 3424318
207.10765 744.61389 3997.9006 3358525
231.21361 741.5921 3981.6765 3555391
255.80434 740.56232 3976.1475 3490111
279.68768 737.84912 3961.5798 3621697
301.2742 730.01288 3919.5063 3555904
325.01364 728.18134 3909.6726 3490111
348.50482 726.08929 3898.4402 3424318
374.18469 728.53259 3911.5588 3555904
398.07785 727.41071 3905.5352 4279884
415.54782 715.36121 3840.8406 3950662
438.58273 713.68652 3831.8489 3884869
462.26257 713.18073 3829.1331 3687490
474.56436 696.03674 3737.0854 3621955
507.11118 708.80188 3805.6228 3490113
537.34558 717.33362 3851.4304 3358527
555.38843 709.55621 3809.6729 3424577
578.19122 708.25049 3802.6621 3621186
602.51685 708.8396 3805.8252 3423807
624.30994 706.51782 3793.3594 3292221
653.1731 712.07404 3823.1912 3292221
680.0202 715.117 3839.5293 3423807
699.27179 710.23743 3813.3303 3818565
733.28162 720.17468 3866.6843 3752772
760.81909 723.323 3883.5879 3818565
779.27161 717.90662 3854.5068 4015943
798.17694 713.22046 3829.3467 3818563
823.45331 714.33459 3835.3284 3752770
838.39276 706.67273 3794.1909 3884356
875.40491 717.52509 3852.4585 3621184
910.26929 726.08197 3898.4011 3555391
934.05243 725.58368 3895.7256 3489598
958.60156 725.69049 3896.2993 3292219
997.32861 736.25873 3953.041 3489341
1019.2946 734.24103 3942.2078 3292219
1046.8079 736.22015 3952.8337 2502447
1062.6943 730.11975 3920.0803 3226170
1098.7526 737.84076 3961.5352 3620928
1121.5581 736.5177 3954.4316 3292989
1149.347 738.45367 3964.8259 3424574
1165.8188 733.19031 3936.5664 3950662
1171.8424 721.71027 3874.929 3621697
1229.0095 741.55493 3981.4768 3227196
1249.1384 738.70673 3966.1846 3358525
1272.1736 737.65472 3960.5364 3227196
1289.4424 733.36353 3937.4963 3621697
1314.1121 733.36353 3937.4963 3160890
1368.4048 749.59058 4024.6211 3094840
1392.0243 748.73212 4020.0117 3292219
1422.5583 751.55725 4035.1802 3226426
1448.4177 751.85712 4036.7903 3029047
1467.8507 748.8681 4020.7419 3160633
1497.272 750.98981 4032.1335 3226426
1525.1573 752.28351 4039.0796 3094840
1549.6418 751.88489 4036.9392 3029304
1571.7679 750.37311 4028.8225 3029045
1597.1844 750.4552 4029.2632 3094580
1623.9143 751.14221 4032.9519 2962994
1647.7147 750.47394 4029.3635 3094324
1682.0061 754.53192 4051.1516 3357496
1707.3878 754.53192 4051.1516 3161143
1732.1644 754.26849 4049.7371 3160886
1754.4258 752.93317 4042.5676 3095094
1780.7339 753.34778 4044.7937 3160632
1780.2096 742.55853 3986.8652 3424060
1805.1886 742.55853 3986.8652 3621438
1850.8715 750.9588 4031.967 3621438
1882.1559 753.36957 4044.9106 3621181
1901.4564 750.98322 4032.0984 3752767
1907.8435 743.62616 3992.5974 3818561
1925.6685 740.85999 3977.7456 3818817
1950.067 740.66125 3976.6787 3818560
1957.2841 734.02405 3941.043 3818304
1986.4293 735.6734 3949.8984 3620926
2009.1614 734.93628 3945.9404 3884096
2032.057 734.27606 3942.396 3817276
2062.6462 736.37848 3953.6838 3948862
2075.2556 732.0882 3930.6492 4936015
2055.749 716.7019 3848.0386 5198930
2031.2944 699.96722 3758.1885 4212293
2099.6772 715.24048 3840.1921 3751486
2171.0303 731.16797 3925.7083 3685692
2180.5442 726.14557 3898.7427 3554364
2204.9712 726.14557 3898.7427 3489084
2238.874 729.23212 3915.3145 3423548
2256.3284 726.95221 3903.0735 4015685
2247.9255 716.4798 3846.8462 4607822
2316.4529 730.48944 3922.0649 3489343
2397.0645 747.97546 4015.9495 3555649
2421.0149 747.60168 4013.9424 3753027
2443.1055 746.66705 4008.9243 4015942
2468.8608 746.86017 4009.9612 3884356
2515.1711 753.20477 4044.0259 3818563
2540.7317 753.27106 4044.3816 3621184
2567.1362 753.58368 4046.0605 3621184
2586.8562 751.9472 4037.2739 3818563
2575.9487 741.52594 3981.321 3884356
2591.2341 738.77209 3966.5356 4081735
2650.5344 748.50037 4018.7673 4081735
2689.0081 752.21936 4038.7351 4147528
2714.3118 752.21936 4038.7351 3950149
2603.4958 714.84467 3838.0671 3621184
2627.5425 714.84467 3838.0671 3358012
2720.6443 733.46143 3938.022 3423805
2751.7168 735.17114 3947.2017 3291962
2779.7727 736.0517 3951.9294 3094840
2804.5327 736.0517 3951.9294 3423548
2831.6814 736.6731 3955.2656 3291962
2870.0842 740.1861 3974.1274 3226169
2907.8069 743.46478 3991.731 3357755
2944.3262 746.38257 4007.397 3357755
2972.5435 747.16418 4011.5935 3226169
2977.0342 742.01892 3983.968 3226169
3034.0623 749.94519 4026.5249 3555134
3064.6001 751.24695 4033.5142 3555134
3068.4568 746.04034 4005.5596 3291962
3122.8699 753.11047 4043.5195 3357755
3146.304 752.65607 4041.0796 3291962
3148.4312 747.1524 4011.5303 3291962
3185.4707 749.95544 4026.5801 3291962
3241.5774 757.16815 4065.3057 3291962
3268.9451 757.60791 4067.6667 3160376
3299.9282 758.87225 4074.4551 3291962
3330.7014 760.06927 4080.8821 3357755
3372.271 763.69305 4100.3384 3489341
3399.7366 764.0921 4102.481 3226169
3408.1101 760.22644 4081.7261 3094583
3430.5212 759.52643 4077.9673 2962997
3450.5439 758.31177 4071.4458 2897461
3451.6592 752.99011 4042.8735 3094583
3496.6438 757.24664 4065.7273 3094583
3531.6602 759.29852 4076.7437 2962997
3557.2454 759.30768 4076.793 3028790
3595.8538 762.07678 4091.6604 3028790
3625.3345 762.88593 4096.0049 2831411
3635.8984 759.73102 4079.0659 2765618
3630.4785 753.30359 4044.5564 3226169
3671.3113 756.49585 4061.696 3423548
3712.8005 759.7785 4079.3208 3357755
3750.908 762.32904 4093.0149 3357755
3778.7371 762.77008 4095.3831 3357755
3804.0378 762.69836 4094.9978 3226169
3839.0405 764.55963 4104.9912 3226169
3883.635 768.29376 4125.04 3291962
3918.4021 770.04724 4134.4546 3291962
3921.3044 765.55664 4110.3442 3357755
3958.3801 767.75281 4122.1357 3357755
3984.2065 767.75281 4122.1357 3357754
4057.7864 776.89557 4171.2241 3291962
4092.719 778.5694 4180.2109 3290935
4145.3447 783.56635 4207.04 3225398
4165.3516 782.37329 4200.6343 3225399
4194.0469 782.81689 4203.0161 3225399
4251.2397 788.54089 4233.749 3225398
4275.8872 788.1947 4231.8901 3159862
4305.2188 788.71088 4234.6616 3488570
4400.9136 801.30389 4302.2744 3554363
nan nan nan 16777215
nan nan nan 16777215
nan nan nan 16777215
nan nan nan 16777215
nan nan nan 16777215
nan nan nan 16777215
nan nan nan 16777215
-3373.342 696.7995 3620.05 3160376
-3343.3284 695.27454 3612.1277 3028790
-3320.6973 695.27454 3612.1277 3094583
-3301.1833 695.93164 3615.5415 3160376
-3285.9648 697.50964 3623.7395 3291962
-3270.9851 699.16064 3632.3169 3291962
-3254.1858 700.44312 3638.9797 3226169
-3211.0366 696.0321 3616.0632 3357755
-3193.386 697.12469 3621.7395 3291962
-3177.0837 698.52942 3629.0376 3226169
-3161.6177 700.13959 3637.4026 3291962
-3139.9861 700.39783 3638.7444 3291962
-3121.0994 701.27667 3643.3103 3291962
-3090.1467 699.43732 3633.7544 3423548
-3065.3894 698.9834 3631.396 3423548
-3034.2222 697.05011 3621.3523 3489341
-3029.9951 701.32336 3643.5527 3489341
-2943.3118 686.43115 3566.1838 3226169
-2925.7627 687.5578 3572.0371 3291962
-2970.1479 703.36865 3654.1785 3620927
-2962.4023 706.98395 3672.9609 3555134
-2894.2634 696.13007 3616.5723 3423548
-2871.6045 696.13007 3616.5723 3160633
-2836.5237 693.09485 3600.8035 3160633
-2788.8525 686.90979 3568.6707 3226426
-2763.4324 686.14966 3564.7217 3752770
-2757.3362 690.21442 3585.8389 3621184
-2750.7012 694.20984 3606.5962 3555391
-2737.9048 696.70367 3619.5522 3555391
-2713.6311 696.29407 3617.4243 3489598
-2691.5652 696.44885 3618.2285 3358012
-2669.323 696.56036 3618.8079 3094840
-2655.3567 698.85181 3630.7124 3160633
-2653.6514 704.43768 3659.7324 3424318
-2614.7432 700.15894 3637.5034 3490112
-2622.6865 708.46094 3680.6345 3556931
-2576.0371 702.03235 3647.2361 3491137
-2531.6172 696.10168 3616.425 3754309
-2546.6416 706.55658 3670.7405 3885639
-2528.4221 707.89447 3677.6914 3885639
-2516.2183 710.95679 3693.6008 3754311
-2493.6343 711.11584 3694.427 3622982
-2440.0833 702.36414 3648.96 3425345
-2417.2217 702.36414 3648.96 3491138
-2419.3113 709.68347 3686.9858 3951432
-2388.083 707.27618 3674.479 3819846
-2369.4368 708.58466 3681.2769 3819589
-2346.708 708.68604 3681.8037 3819846
-2310.5718 704.70026 3661.0964 3425088
-2253.2131 694.09698 3606.01 3227966
-2221.1934 691.16357 3590.7703 3292472
-2198.696 691.16357 3590.7703 3292474
-2202.2332 699.43219 3633.7275 3424315
-2182.0222 700.25226 3637.988 3424059
-2132.1389 691.4668 3592.3452 3490109
-2109.6318 691.4668 3592.3452 3753281
-2123.7576 703.60327 3655.3975 3753282
-2102.9246 704.29626 3658.9978 3687746
-2091.1294 708.06482 3678.5764 3621440
-2066.9653 707.6825 3676.5901 3621184
-2036.8575 705.2337 3663.8679 3621184
-2014.1212 705.3103 3664.2659 3621185
-1993.5511 706.15613 3668.6602 3490368
-1972.3643 706.80054 3672.0081 3424317
-1955.6482 709.0813 3683.8572 3687490
-1930.1204 708.18335 3679.1921 3753540
-1907.0692 708.18335 3679.1921 3753540
-1889.9622 710.41772 3690.8003 3753283
-1870.8191 711.93268 3698.6707 3687490
-1857.1685 715.60193 3717.7336 3687490
-1830.139 714.14386 3710.1584 3621697
-1803.8037 712.92261 3703.8137 3358525
-1781.6345 713.33746 3705.969 3490111
-1771.2435 718.54144 3733.0049 3621954
-1745.5682 717.60132 3728.1208 3621697
-1727.7646 719.91565 3740.1443 3490111
-1708.1578 721.53192 3748.5415 3556161
-1675.9529 717.79755 3729.1401 3819076
-1634.307 709.85699 3687.887 3884869
-1614.572 711.3421 3695.6025 3819076
-1580.1047 706.28522 3669.3308 3753283
-1565.318 710.00592 3688.6606 3753283
-1542.2074 710.00592 3688.6606 3819076
-1511.538 706.47296 3670.3062 3950662
-1495.0012 709.53833 3686.2317 4016712
-1478.4369 712.68671 3702.5881 3885383
-1456.3593 713.23529 3705.4382 3951175
-1424.4868 708.92712 3683.0562 4016969
-1401.4312 708.93713 3683.1082 3884869
-1383.2482 711.45374 3696.1826 3819076
-1365.8026 714.44165 3711.7056 3687746
-1315.5825 700.0921 3637.156 3555393
-1283.6171 695.12213 3611.3359 2831670
-1263.5353 696.52472 3618.6226 2370607
-1246.637 699.76556 3635.4595 2239021
-1221.9227 698.65808 3629.7058 2304813
-1198.1909 698.08093 3626.7075 2436656
-1180.4415 701.0343 3642.0508 2698801
-1155.4131 699.69604 3635.0984 2566960
-1132.6381 699.69604 3635.0984 2435886
-1102.0037 694.74121 3609.3567 2435629
-1082.5559 696.77899 3619.9436 2633008
-1050.2336 690.44006 3587.0112 2633008
-1037.6852 697.10779 3621.6516 2633265
-1019.9437 700.50696 3639.3115 2699057
-993.22833 697.75732 3625.0264 2633007
-959.17944 689.60657 3582.6812 2567215
-935.85596 688.961 3579.3271 2633008
-913.24512 688.82135 3578.6016 2567215
-897.71588 694.15039 3606.2871 2633008
-877.70581 696.20038 3616.9375 2369836
-853.73828 695.13672 3611.4114 2172457
-826.16486 690.99921 3589.9163 2106663
-802.62402 690.09735 3585.231 2172712
-780.34106 690.25635 3586.0566 2303784
-759.95734 692.15442 3595.9177 2435370
-733.52954 688.49548 3576.9084 2435370
-707.44598 684.93921 3558.4329 2303784
-680.31067 680.10004 3533.2922 2040612
-671.21228 693.57318 3603.2888 2172198
-641.53357 685.97809 3563.8303 2435370
-619.20508 685.97809 3563.8303 2764335
-601.93103 691.78717 3594.0098 2830384
-578.71185 690.94952 3589.658 2896434
-558.0119 693.17358 3601.2124 2830641
-534.31805 691.70917 3593.6045 2896177
-511.0914 690.74744 3588.6082 3027763
-488.16595 690.12292 3585.3638 2830640
-469.75949 696.13501 3616.5979 2633004
-447.1004 696.13501 3616.5979 2501166
-428.76215 703.22174 3653.415 2173480
-404.7384 701.25702 3643.208 2765618
-386.96512 710.5343 3691.406 3094583
-366.02557 714.80774 3713.6074 3094582
-339.21063 707.40851 3675.1665 3094839
-314.76462 704.23157 3658.6616 3357757
-292.77463 706.48218 3670.3542 3358784
-270.32379 707.90955 3677.7695 3621697
-247.84258 709.51599 3686.1155 3490111
-225.1098 710.65851 3692.051 3424318
-202.06929 710.9798 3693.7202 3687490
-179.76717 714.3183 3711.0649 3621697
-157.01791 716.60803 3722.9607 3424318
-133.27708 714.38184 3711.395 3424318
-110.02403 714.38184 3711.395 3226939
-86.908745 715.51599 3717.2869 3161146
-63.858036 718.20673 3731.2659 3226939
-41.086742 728.96271 3787.1462 3489599
-17.385689 730.07941 3792.9478 3226170
6.3783059 730.07941 3792.9478 3423549
30.045324 727.73059 3780.7451 3424574
53.732864 727.73059 3780.7451 3621697
77.685585 730.22321 3793.6948 3687490
101.45426 730.22321 3793.6948 3753283
124.77589 727.61633 3780.1514 3753540
149.40266 732.23785 3804.1614 3819076
171.69783 725.73242 3770.364 3687747
197.75339 734.77271 3817.3306 3687490
220.87485 732.13654 3803.635 3752770
242.67058 726.04736 3772 3753283
266.72147 727.18732 3777.9226 3687490
288.75897 723.09961 3756.686 3490111
308.43472 714.15967 3710.2407 3687490
326.39642 702.78217 3651.1316 3884869
346.95865 698.12762 3626.95 3819076
369.58051 697.93481 3625.9482 4016455
392.33887 698.00708 3626.324 4279884
416.23099 699.97815 3636.5642 4016455
444.08783 708.06616 3678.5833 3950662
466.77765 707.52405 3675.7668 3950663
491.27167 709.6391 3686.7551 3885128
511.69977 705.95471 3667.6138 3950664
534.04944 705.12421 3663.2988 3884871
556.60773 704.62616 3660.7114 3884358
579.04425 704.01941 3657.5596 3752772
603.23627 705.51208 3665.3142 3555650
626.20056 705.51208 3665.3142 3555393
644.9931 700.97815 3641.7593 3752772
668.87891 702.10034 3647.5894 3950151
682.58813 692.81921 3599.3716 3884358
705.13934 692.81921 3599.3716 3555393
749.45013 713.53607 3707.001 3489600
773.86896 714.63812 3712.7263 3621184
797.62897 715.08514 3715.0486 3686977
818.38062 712.88623 3703.6248 3752770
841.58496 712.88623 3703.6248 3489598
874.59723 720.97137 3745.6289 3226426
898.06476 720.97137 3745.6289 3160633
929.62811 727.30524 3778.5352 3094840
950.53192 725.19202 3767.5564 2963254
971.28302 723.06744 3756.5188 3094840
992.13489 721.1167 3746.384 2765875
1017.126 722.19519 3751.9871 2831668
1023.0154 709.96838 3688.4658 3029047
1075.5867 729.96307 3792.3435 3292219
1081.3318 718.00116 3730.1982 3358012
1107.4031 719.75635 3739.3167 3094840
1139.9231 725.54327 3769.3813 3358012
1171.1475 730.28735 3794.0281 3292219
1196.6443 731.34222 3799.5083 3423805
1220.4493 731.34222 3799.5083 3950149
1214.3213 713.74823 3708.103 3489855
1265.9658 730.13464 3793.2349 3292219
1289.7316 730.13464 3793.2349 3358268
1316.9047 732.02869 3803.0747 3423805
1346.9843 735.44238 3820.8096 3621184
1370.7305 735.33911 3820.2732 3818563
1368.8618 721.73395 3749.5911 3423805
1403.1061 727.30737 3778.5461 3029047
1440.6226 734.36365 3815.2056 3029047
1470.6924 737.45569 3831.2695 3029301
1493.3795 736.80603 3827.894 2963252
1505.0464 730.8255 3796.824 2963252
1545.4932 738.78876 3838.1948 2831409
1574.0142 740.89447 3849.1345 2831409
1574.9799 730.16187 3793.3762 2962739
1585.7621 724.23181 3762.5679 3028788
1640.3201 738.17529 3835.0081 3094581
1653.6217 733.41821 3810.2935 3095093
1675.5272 732.55811 3805.8252 3095095
1691.7697 729.28094 3788.7996 3358011
1723.309 732.59741 3806.0293 3555645
1757.7147 737.02527 3829.033 3489852
1790.6865 740.7406 3848.3352 3489852
1814.8832 740.77557 3848.5171 3489852
1837.4116 740.13763 3845.2026 3489852
1859.0114 739.14691 3840.0557 3358266
1877.1371 736.81793 3827.9561 3555644
1869.1298 724.41931 3763.542 3818304
1885.5942 721.69598 3749.3936 3818303
1921.1144 726.24335 3773.0186 3949889
1946.0814 726.73932 3775.595 3686717
1980.6504 730.76587 3796.5139 3620925
1977.7603 721.04028 3745.9873 3555388
2001.0494 720.97522 3745.6492 3094838
1953.1656 695.56543 3613.6389 3094837
1992.3328 701.38354 3643.8652 3751484
2071.8652 721.11896 3746.396 3555389
2095.074 721.02814 3745.9243 3357753
2105.7913 716.68817 3723.377 3357753
2154.6523 725.28284 3768.0283 3226423
2203.6455 733.73523 3811.9407 3094837
2250.3411 741.24963 3850.9797 3489339
2234.5581 728.2428 3783.4058 3423546
2272.9431 732.97699 3808.0015 3423546
2340.1614 746.81439 3879.8904 3818306
2339.3821 738.89044 3838.7231 3949892
2360.092 737.84595 3833.2969 3884099
2390.4324 739.80304 3843.4644 3621184
2428.605 744.12079 3865.8962 3489597
2452.8259 744.12079 3865.8962 3358012
2421.7412 727.50665 3779.5815 3094840
2445.4216 727.50665 3779.5815 2831668
2459.7952 724.76447 3765.3352 3423805
2520.2126 735.51208 3821.1719 3818306
2558.1953 739.57159 3842.2622 3423291
2541.1924 727.80731 3781.1436 2897204
2541.2483 721.10095 3746.3022 2831411
2562.4119 720.45197 3742.9304 2831411
2592.4072 722.27545 3752.4041 2699825
2646.8242 730.80908 3796.7383 2765875
2654.3804 726.36731 3773.6626 2962997
2667.0215 723.38318 3758.1592 2897204
2700.7996 726.13416 3772.4512 3028790
2724.8694 726.24988 3773.0522 3094583
2756.864 728.45764 3784.5222 3028790
2780.2021 728.35999 3784.0146 3094583
2812.6487 730.62988 3795.8076 3028790
2812.4612 724.45569 3763.731 3291962
2842.7373 726.16595 3772.6162 3489341
2910.6797 737.39032 3830.9297 3357755
2936.5337 737.85565 3833.3474 3291962
2978.551 742.3418 3856.6541 3357755
2932.5229 724.98895 3766.5015 3357755
2956.1213 724.98895 3766.5015 3094583
3033.0676 737.96893 3833.9358 3028790
3071.627 741.47852 3852.1689 3028790
3107.5732 744.30743 3866.866 3094840
3138.1282 745.81134 3874.679 3160376
3181.5315 750.32227 3898.1143 3226169
3212.6294 751.88446 3906.2305 3423548
3226.7881 749.48859 3893.7834 3291962
3251.1841 749.48859 3893.7834 3357755
3272.7363 748.83801 3890.4033 3357755
3297.5322 748.93372 3890.9004 3423548
3307.6948 745.72888 3874.2507 3423548
3328.7593 745.01062 3870.5193 3423548
3360.4971 746.67432 3879.1626 3357755
3421.679 754.80945 3921.4265 3489341
3433.542 752.02655 3906.9688 3357755
3461.7776 752.84369 3911.2139 3357755
3458.1042 746.75873 3879.6008 3291962
3425.9902 734.65997 3816.7449 3357755
3483.3901 741.79108 3853.7927 3489085
3539.1731 748.48193 3888.5535 3489086
3566.2944 749.06128 3891.5632 3489342
3580.6248 746.96442 3880.6697 3489086
3594.5432 744.81042 3869.479 3357499
3629.7515 747.0672 3881.2036 3226426
3659.9844 748.27673 3887.4873 3160375
3689.1846 749.2605 3892.5981 3094326
3712.2832 749.00024 3891.2463 3094583
3731.7969 748.02484 3886.179 3226425
3774.9446 751.76874 3905.6292 3291962
3808.9241 753.65033 3915.4045 3226425
3853.3875 757.56891 3935.7627 3357755
3909.4404 763.70184 3967.6245 3357243
3934.7717 763.79364 3968.1016 3422522
3974.5581 766.67255 3983.0583 3356728
4012.8462 769.22833 3996.3362 3291192
4023.4756 766.4834 3982.0757 3356985
4048.4246 766.4834 3982.0757 3225399
4113.9316 774.11517 4021.7246 3225656
nan nan nan 16777215
nan nan nan 16777215
nan nan nan 16777215
nan nan nan 16777215
nan nan nan 16777215
nan nan nan 16777215
nan nan nan 16777215
-3224.5122 687.62244 3460.3354 3028790
-3202.8523 687.62677 3460.3572 3094583
-3184.3301 688.30939 3463.7922 3226169
-3162.6282 688.30939 3463.7922 3423548
-3143.2278 688.81366 3466.3301 3357755
-3125.3862 689.66901 3470.6343 3357755
-3108.1987 690.6817 3475.7305 3226169
-3065.3403 685.96393 3451.9893 3226169
-3026.8499 682.16357 3432.8647 3226169
-3006.7261 682.47778 3434.4458 3160376
-2998.0203 685.40686 3449.1858 3291962
-2976.4099 685.40686 3449.1858 3291962
-2941.7175 682.37225 3433.9148 3423548
-2914.592 681.0611 3427.3169 3489341
-2886.4109 679.48206 3419.3704 3555134
-2864.9878 679.48206 3419.3704 3620927
-2854.9653 682.20636 3433.0801 3686720
-2814.2017 677.57056 3409.7512 3555134
-2838.0393 688.53674 3464.9365 3423548
-2788.1494 681.64697 3430.2651 3620927
-2783.9683 685.91199 3451.7278 3489341
-2760.377 685.42401 3449.2722 3423548
-2706.813 677.42719 3409.0298 3028790
-2698.5076 680.71997 3425.5999 2831925
-2685.4871 682.86658 3436.4023 3292219
-2672.3589 685.02026 3447.2405 3752770
-2639.6775 682.15607 3432.8269 3752770
-2629.4668 685.09949 3447.6392 3423805
-2606.2827 684.68347 3445.5457 3621184
-2546.3396 674.52307 3394.415 4081479
-2529.2705 675.64453 3400.0586 4213578
-2552.4353 687.6239 3460.3428 4476493
-2518.012 684.1615 3442.9189 4542542
-2474.0464 678.02417 3412.0339 4542543
-2449.3164 677.09735 3407.3699 4740178
-2477.6953 690.96497 3477.156 4148811
-2461.5891 692.56274 3485.1968 4017225
-2468.4656 700.71326 3526.2126 3820103
-2461.0369 704.91351 3547.3496 3885639
-2448.4744 707.70636 3561.4043 4083275
-2421.7078 706.40741 3554.8674 4083018
-2392.9014 704.4837 3545.1868 3951689
-2375.3689 705.87421 3552.1843 4017481
-2353.4502 705.97528 3552.6926 4017225
-2328.4565 705.14703 3548.5247 3885896
-2298.7251 702.85419 3536.9863 3885639
-2276.5647 702.85419 3536.9863 3885639
-2255.9973 703.35077 3539.4854 3819846
-2203.3599 693.75952 3491.2192 3359552
-2181.4863 693.75952 3491.2192 3359295
-2150.7671 690.91797 3476.9197 3555904
-2107.5063 683.94812 3441.8452 3555904
-2113.4744 692.97552 3487.2737 3292732
-2082.886 690.08008 3472.7031 3161146
-2035.2871 681.42816 3429.1641 3358525
-2013.8025 681.42816 3429.1641 3884869
-2017.6913 690.10669 3472.8369 3819076
-2004.0079 692.89874 3486.8875 3687491
-2000.5413 699.32367 3519.2197 3489854
-1989.0642 703.06049 3538.0244 3489855
-1953.9084 698.4176 3514.6602 3489598
-1934.4714 699.35156 3519.3601 3423805
-1915.9368 700.63702 3525.8289 3423805
-1878.395 694.92072 3497.0627 3227196
-1849.2488 692.2121 3483.4321 3226939
-1861.0455 704.94775 3547.5217 3621697
-1834.9058 703.44733 3539.9714 3687490
-1813.6013 703.7868 3541.6797 3490111
-1791.4117 703.7868 3541.6797 3424318
-1782.0424 708.88666 3567.3438 3621954
-1750.2069 705.06567 3548.1155 3490111
-1719.0081 701.40619 3529.6997 3226939
-1685.994 696.90094 3507.0278 3424318
-1692.4443 708.80463 3566.9309 3555904
-1678.0784 712.1922 3583.9783 3556160
-1655.6234 712.1922 3583.9783 3555904
-1637.3431 714.01257 3593.1389 3621954
-1610.6367 712.15802 3583.8062 3753283
-1575.3535 706.40509 3554.8557 3687490
-1553.0812 706.40509 3554.8557 3753283
-1531.1241 706.55054 3555.5876 3819076
-1506.9579 705.66577 3551.1353 3819076
-1487.5975 707.0387 3558.0444 3950919
-1464.9498 706.86719 3557.1812 3950919
-1442.4459 706.76086 3556.646 3950662
-1420.1625 706.76086 3556.646 3884612
-1402.8475 709.27301 3569.2878 3884613
-1380.4849 709.27301 3569.2878 3884869
-1357.5538 708.9762 3567.7942 3753283
-1342.1401 712.66107 3586.3376 3687490
-1321.8208 713.82214 3592.1807 3687490
-1297.3279 712.73065 3586.688 3292221
-1274.8562 712.73065 3586.688 2831670
-1252.7102 712.91602 3587.6208 2502448
-1225.6021 710.23267 3574.1172 2436399
-1212.1696 715.52179 3600.7339 2436399
-1190.6294 716.13507 3603.8201 2568239
-1160.4349 711.46606 3580.3242 2634032
-1136.7939 710.71008 3576.5198 2700082
-1115.621 711.4978 3580.4836 3093813
-1093.5502 711.7334 3581.6694 3356985
-1066.6826 708.79156 3566.8652 3291193
-1037.6357 704.24469 3543.9839 3028020
-1014.9922 703.93994 3542.4502 2830641
-992.83484 703.96625 3542.5828 2896434
-973.27032 705.87433 3552.1848 2699311
-944.88904 701.32764 3529.3042 2830640
-913.34436 694.15881 3493.2285 2633261
-898.70081 699.79834 3521.6086 2567213
-883.4989 705.27618 3549.1748 2699056
-861.27179 705.28412 3549.2146 2764850
-820.44275 689.6557 3470.5676 2698799
-795.72882 687.09149 3457.6633 2764593
-769.68713 683.20502 3438.1057 2699057
-755.78278 690.17865 3473.199 2896178
-732.24689 688.5094 3464.7988 2961970
-710.84247 688.80359 3466.2795 2764848
-689.30743 688.98584 3467.1965 2961713
-667.97998 689.39417 3469.2512 2830384
-650.06305 693.46814 3489.7529 2961714
-625.85187 690.87744 3476.7158 2895921
-592.33044 677.4519 3409.1538 2699055
-582.93646 691.64874 3480.5969 2830641
-573.48969 706.88397 3557.2656 3225399
-542.74969 696.04395 3502.7153 3094326
-519.77783 694.67242 3495.8132 2962997
-498.41559 695.42603 3499.6055 3094583
-477.543 696.96362 3507.3433 3094840
-460.06314 703.83997 3541.9473 3226425
-434.4501 698.33997 3514.2695 3423295
-408.85254 692.27899 3483.7688 3358012
-379.89041 679.51605 3419.5415 3160636
-368.80649 699.11792 3518.1843 3292221
-346.76398 699.11792 3518.1843 3358271
-318.13388 684.93494 3446.811 3161404
-298.10516 688.55347 3465.0208 3292734
-276.5224 688.86908 3466.6089 3555905
-253.72908 685.96558 3451.9976 3687490
-236.10138 697.78784 3511.491 3490111
-214.82567 700.15021 3523.3794 3490111
-191.04599 693.95844 3492.2202 3556161
-169.27853 694.41949 3494.5403 3424318
-148.28264 698.65283 3515.8438 3226939
-128.84615 712.99255 3588.0059 3226939
-106.91106 716.64502 3606.3862 3029560
-84.589607 718.97107 3618.0918 3292732
-62.154263 721.67798 3631.7136 3424574
-39.567551 724.73859 3647.1157 3358525
-16.782681 727.57562 3661.3926 3490111
6.1764512 729.86475 3672.9121 3358525
29.266371 731.81482 3682.7256 3621697
52.308064 731.37122 3680.4932 3819076
75.281624 730.5379 3676.2998 4082248
98.763939 733.87543 3693.0952 4148041
121.42375 730.99438 3678.5967 4082248
144.1062 729.14709 3669.3005 3885126
167.67944 731.69513 3682.1233 3884869
190.0518 729.02039 3668.6631 3819076
212.38786 726.79858 3657.4824 4015942
234.58234 724.57227 3646.2788 3884869
256.69495 722.51062 3635.9041 3687490
278.32419 719.53552 3620.9321 3819076
299.9649 717.03619 3608.355 3753283
317.39972 705.53809 3550.4927 3950662
338.93558 704.06512 3543.0803 4148041
352.67078 687.56519 3460.0471 4016455
378.25235 694.73431 3496.1248 4016455
403.27142 700.14203 3523.3379 4082505
425.44269 700.30084 3524.1372 4016712
446.89929 699.32556 3519.2295 3819078
468.86227 699.19727 3518.5835 3884871
492.09186 700.88434 3527.0737 4082251
510.25381 695.51892 3500.073 3950920
531.76654 694.97479 3497.335 3819078
555.71777 697.53461 3510.2168 3884871
573.17383 692.05713 3482.6523 3950151
600.21967 698.13562 3513.2412 3752773
622.26605 698.17468 3513.4377 3884358
634.18689 687.23859 3458.4036 3950152
663.33972 695.08154 3497.8721 3555393
691.99408 701.91736 3532.272 3489600
717.99707 705.72333 3551.425 3555393
743.82788 709.13641 3568.6006 3489598
767.24585 710.11707 3573.5356 3292219
782.47632 703.67914 3541.1379 3226426
817.68561 715.06781 3598.4492 3292219
842.58856 717.07416 3608.5459 3094840
864.93958 716.8606 3607.4712 2963254
887.5415 716.8606 3607.4712 3160633
911.84106 718.19775 3614.2002 2963254
933.28491 717.27527 3609.5581 2897461
956.62347 717.81824 3612.2903 3094840
979.17627 717.76007 3611.9976 3292219
987.02557 707.17004 3558.7051 3358012
1018.8279 713.83026 3592.2214 3423805
1042.2635 714.46729 3595.427 3555391
1078.745 723.83093 3642.5481 3555391
1102.0048 724.11877 3643.9966 3423805
1125.7766 724.72461 3647.0454 3160633
1149.7966 725.46295 3650.7607 3358012
1178.6929 729.18909 3669.512 3358012
1196.2417 725.88696 3652.8948 3226170
1217.0282 724.63647 3646.6021 3292219
1242.1085 725.94171 3653.1704 3358012
1268.3633 727.87372 3662.8926 3358013
1294.2275 729.51691 3671.1616 3489598
1318.1078 730.00385 3673.6121 3423805
1331.7756 724.91522 3648.0046 3489598
1354.6315 724.91522 3648.0046 3029047
1365.0872 718.38947 3615.165 2897204
1376.468 712.55573 3585.8076 2765618
1398.9342 712.55573 3585.8076 3028789
1440.5286 722.14478 3634.0627 3160374
1458.4463 719.75085 3622.0159 3357497
1481.1393 719.75085 3622.0159 3029044
1500.1249 717.97638 3613.0862 2963765
1522.7618 717.97638 3613.0862 3358009
1550.4191 720.30865 3624.8228 3226682
1582.3909 724.54919 3646.1626 3226426
1604.0581 724.01782 3643.4888 3226426
1614.7466 718.6156 3616.3027 3292475
1637.4038 718.6156 3616.3027 3292473
1663.1367 719.94696 3623.0029 3358266
1684.6489 719.44006 3620.4517 3358266
1699.3135 716.0611 3603.4478 3292473
1721.8901 716.0611 3603.4478 3160887
1748.204 717.59509 3611.1672 3160887
1770.6017 717.50293 3610.7036 3226680
1794.1356 717.86774 3612.5393 3291960
1814.3992 716.93127 3607.8267 3226167
1819.3352 710.03583 3573.1267 2831409
1818.0669 700.91614 3527.2336 3291960
1847.515 703.71539 3541.3201 3489339
1876.2867 706.19354 3553.791 3291960
1905.0825 708.6225 3566.0144 3291960
1947.6842 716.07092 3603.4973 3291960
1932.6888 702.41565 3534.7795 3620154
1966.1765 706.49078 3555.2869 3950147
1933.9103 687.11249 3457.7693 4015683
1989.3666 698.98572 3517.5193 3357753
2056.2129 714.55707 3595.8789 3094581
2096.3035 720.59363 3626.2568 3094581
2150.48 731.29089 3680.0889 2962995
2168.6809 729.65704 3671.8669 3291960
2141.7212 713.02264 3588.1575 3357755
2235.4238 736.48755 3706.2402 3620927
2264.073 738.25763 3715.1477 3620927
2281.4121 736.34119 3705.5037 3620927
2307.4819 737.25299 3710.0923 3489341
2335.1807 738.66187 3717.1821 3423548
2380.0447 745.41895 3751.1858 3226169
2378.054 737.5127 3711.3992 2897204
2385.0693 732.52563 3686.3025 3094583
2403.5874 731.13312 3679.2952 3160376
2413.2051 727.08551 3658.9263 3094583
2452.0806 731.84625 3682.8838 3423548
2475.155 731.84625 3682.8838 3357755
2485.3813 728.08246 3663.9434 3291962
2508.2188 728.04816 3663.7705 3291962
2532.0505 728.30035 3665.0398 2962997
2564.0229 730.86865 3677.9641 2568239
2542.0278 718.14478 3613.9336 2436653
2560.396 716.948 3607.9109 2568239
2590.1851 718.94208 3617.946 3028790
2641.0288 726.69501 3656.9609 2962997
2666.4348 727.37524 3660.3843 2897204
2688.7634 727.21173 3659.5613 2897204
2709.4077 726.59918 3656.4788 2897204
2733.1243 726.81396 3657.5596 3226169
2749.5012 725.08954 3648.8818 3226169
2781.2307 727.40894 3660.5537 3160376
2819.9453 731.50232 3681.1531 3226169
2848.8254 732.9989 3688.6843 3357755
2869.6624 732.41858 3685.7639 3160376
2892.7549 732.41858 3685.7639 2897204
2938.616 738.13776 3714.5447 2831411
2959.8242 737.62323 3711.9553 2897204
2980.0757 736.88019 3708.2163 2699825
3005.6335 737.45056 3711.0864 2699825
3019.6924 735.21246 3699.8237 2700082
3050.9744 737.16992 3709.6743 2897204
3075.9565 737.58716 3711.7739 3028790
3098.9309 737.52026 3711.4373 3094583
3121.0369 737.24927 3710.0735 3094583
3115.5032 730.50146 3676.1165 3094583
3147.417 732.56879 3686.5198 3226169
3185.0898 735.93658 3703.4675 3160376
3270.157 750.1272 3774.8794 3291962
3315.145 754.98657 3799.3333 3357755
3234.7988 731.43658 3680.8223 3423548
3258.9797 731.68793 3682.0872 3555134
3288.3931 733.10217 3689.2041 3489341
3291.2747 728.62317 3666.6643 3489341
3314.2476 728.62317 3666.6643 3423549
3357.3325 733.01434 3688.762 3489085
3400.4458 737.35162 3710.5884 3489341
3430.1489 738.74176 3717.5842 3620927
3450.3779 738.08655 3714.2871 3949891
3467.3098 736.73969 3707.509 3884099
3493.304 737.3233 3710.446 3818306
3515.3821 737.07825 3709.2126 3686721
3537.49 736.84253 3708.0266 3489085
3554.7083 735.59808 3701.7642 3357757
3585.3943 737.13867 3709.5171 3357500
3608.917 737.19617 3709.8064 3226171
3637.4978 738.27954 3715.2581 3553597
3665.531 739.23871 3720.085 3422268
3686.6589 738.80194 3717.887 3553854
3721.5989 741.12115 3729.5579 3422524
3789.0645 749.84827 3773.4756 3356731
3812.7463 749.85602 3773.5146 3290938
3840.5117 750.66193 3777.5703 3290938
3875.7397 752.90765 3788.8716 3225144
nan nan nan 16777215
nan nan nan 16777215
nan nan nan 16777215
nan nan nan 16777215
nan nan nan 16777215
nan nan nan 16777215
nan nan nan 16777215
-2975.7236 654.47015 3193.3521 3291962
-3078.7993 681.72388 3326.3308 3357755
-3050.8523 680.13953 3318.6003 3423548
-3032.3232 680.64758 3321.0791 3555134
-3018.9668 682.3316 3329.2961 3489341
-3002.2549 683.27545 3333.9014 3357755
-2977.7283 682.44153 3329.8323 3291962
-2950.1985 680.90271 3322.324 3291962
-2925.5959 680.0224 3318.0288 3357755
-2898.3342 678.50702 3310.6348 3423548
-2873.7412 677.59906 3306.2046 3620927
-2841.7268 674.91522 3293.1094 3884099
-2809.7639 672.20447 3279.8831 3884099
-2772.9602 668.28723 3260.7695 3752513
-2758.7869 669.80621 3268.1812 3752513
-2749.4255 672.52496 3281.4468 3686720
-2742.1331 675.79456 3297.3999 3489341
-2724.0444 676.43292 3300.5146 3423548
-2718.47 680.21228 3318.9553 3423548
-2697.7493 680.23083 3319.0459 3818306
-2666.3447 677.53479 3305.8911 3752770
-2586.6167 662.42114 3232.1472 3752513
-2566.3298 662.41174 3232.1013 3423548
-2591.7004 674.28088 3290.0142 3423805
-2586.1616 678.23413 3309.3035 3555391
-2563.302 677.67212 3306.5613 3686977
-2568.4565 684.56763 3340.2063 3686977
-2502.8774 672.56891 3281.6609 3753283
-2482.3169 672.56891 3281.6609 4213834
-2478.9919 677.27777 3304.637 4411213
-2496.1611 687.71228 3355.55 4345420
-2474.6001 687.56299 3354.8215 4411213
-2458.1636 688.84711 3361.0872 4346190
-2434.676 688.16046 3357.7368 4280397
-2395.4229 682.96686 3332.3958 4016968
-2387.3315 686.64478 3350.3413 3688260
-2393.6978 694.58295 3389.0742 3885639
-2384.2166 698.02368 3405.8625 4083018
-2352.1255 694.84741 3390.3643 4017225
-2340.7034 697.7746 3404.6472 4017225
-2322.1497 698.61023 3408.7241 3951432
-2290.7896 695.57281 3393.9038 4016971
-2273.2869 696.72552 3399.5283 3885639
-2250.0969 696.14056 3396.6741 3754053
-2224.6799 694.84875 3390.3711 3951432
-2200.1116 693.79968 3385.2524 3885639
-2182.8535 695.05792 3391.3916 3490881
-2143.3044 689.1734 3362.6792 3490881
-2119.1155 688.15997 3357.7344 3227709
-2109.6726 691.96283 3376.2898 3359038
-2090.7019 692.68597 3379.8184 3621697
-2073.7583 694.10254 3386.73 3555904
-2056.2524 695.35822 3392.8567 3555904
-2018.5602 689.74231 3365.4553 3687490
-1992.1875 687.91669 3356.5474 3753283
-1973.168 688.61823 3359.9705 3753283
-1955.6284 689.85706 3366.0149 3753283
-1940.0472 691.82117 3375.5984 3621696
-1921.2787 692.6795 3379.7864 3621440
-1911.3867 696.79285 3399.8567 3686976
-1885.7056 695.17816 3391.978 3752769
-1861.8557 694.20935 3387.2512 3687233
-1837.6333 693.07782 3381.73 3490111
-1814.0782 692.17444 3377.3223 3292732
-1792.9181 692.17444 3377.3223 3226938
-1771.4283 692.04553 3376.6934 3226939
-1761.4598 696.46899 3398.2769 3292989
-1734.0383 694.01556 3386.3054 3424061
-1712.822 694.01556 3386.3054 3424060
-1702.5698 698.51373 3408.2534 3292732
-1673.5743 695.33868 3392.7617 3291962
-1643.1882 691.49683 3374.0159 3029047
-1606.8918 685.03522 3342.4878 3357756
-1585.9501 685.03522 3342.4878 3489598
-1600.9838 700.78235 3419.3228 3489598
-1583.4165 702.49298 3427.6694 3555391
-1564.8646 703.80792 3434.0854 3687746
-1541.8403 703.11993 3430.7283 3687490
-1520.2815 703.09015 3430.5833 3687490
-1499.5005 703.42444 3432.2144 3753283
-1478.59 703.70691 3433.5925 3687490
-1458.9055 704.58984 3437.9004 3884869
-1438.6697 705.22882 3441.0183 3950662
-1410.8011 702.08887 3425.6978 3819333
-1392.8563 703.86682 3434.3726 3819076
-1373.8638 705.16272 3440.6958 3884869
-1354.3177 706.21136 3445.8125 3753283
-1332.5972 706.14172 3445.4727 3687747
-1311.3278 706.31274 3446.3071 3687490
-1290.4652 706.71228 3448.2568 3621697
-1271.8568 708.38098 3456.3987 3556160
-1261.4388 714.74829 3487.4666 3752515
-1239.5887 714.74829 3487.4666 3489600
-1221.1027 716.72272 3497.1006 2831667
-1206.0808 720.83978 3517.189 2897461
-1167.2415 710.61023 3467.2759 3292219
-1144.0095 709.67456 3462.7102 3489598
-1122.3146 709.67456 3462.7102 3620928
-1104.2223 711.9975 3474.0447 3423549
-1077.047 708.43951 3456.6841 3226168
-1058.6696 710.64099 3467.426 3160376
-1041.1316 713.51007 3481.425 3226168
-1020.79 714.53955 3486.4482 3094582
-969.51465 693.48724 3383.7278 2897460
-943.54236 689.99744 3366.7 3029046
-931.04297 696.4259 3398.0662 3357754
-909.75305 696.4259 3398.0662 3621183
-881.6701 691.10114 3372.0852 3489598
-867.98981 697.08167 3401.2661 3291962
-850.17145 699.95636 3415.2925 3489341
-823.93256 695.86774 3395.343 3752513
-801.16931 694.57568 3389.0388 3489597
-780.26508 694.86884 3390.469 3423805
-757.54584 693.51678 3383.8718 3489598
-731.67358 689.11719 3362.405 3752770
-715.53815 693.89917 3385.7378 3949892
-696.50946 696.08179 3396.3875 3555391
-673.64191 694.4447 3388.3994 3686977
-652.41254 694.4447 3388.3994 3753026
-630.21002 693.37396 3383.175 3292219
-609.01337 693.37396 3383.175 3357755
-581.86505 686.35352 3348.9202 3291962
-569.57849 696.9942 3400.8394 3226426
-541.70746 688.65002 3360.1255 3358012
-521.46661 689.72321 3365.3618 3358012
-497.55774 685.83081 3346.3699 3358012
-481.68488 693.16003 3382.1313 3884356
-462.59781 696.32562 3397.5771 4213320
-442.9794 698.95831 3410.4226 4147784
-423.64594 702.33008 3426.8745 4082507
-395.11478 689.99982 3366.7114 3490367
-374.0213 689.99982 3366.7114 3358525
-355.48935 695.00775 3391.1467 3424575
-334.01505 694.53424 3388.8364 3687490
-311.74265 692.22437 3377.5657 3424318
-292.3804 696.51044 3398.479 3226939
-271.05569 696.42786 3398.0757 3358525
-249.58472 695.92322 3395.6135 3555904
-228.48189 696.44666 3398.1677 3687490
-206.67342 694.70587 3389.6738 3753282
-186.55238 698.888 3410.0796 3423805
-164.94675 697.87073 3405.116 3358012
-144.25763 701.005 3420.4092 3423805
-122.82771 701.005 3420.4092 3424062
-101.54108 701.99573 3425.2432 3490368
-80.033218 701.57794 3423.2046 3555904
-58.806465 704.2207 3436.0996 3753283
-37.278236 704.2207 3436.0996 3621697
-15.873999 709.76465 3463.1501 3490111
5.8663011 714.95538 3488.4771 3358525
27.979797 721.58606 3520.8301 3358781
50.356281 726.1629 3543.1621 3621697
72.548531 726.09528 3542.832 3819076
94.458351 723.8949 3532.0957 3819333
116.64931 724.27545 3533.9526 3884869
138.24649 721.43591 3520.0977 3819333
159.73021 718.867 3507.5632 3950662
181.30154 717.26624 3499.7524 3819076
203.3188 717.58472 3501.3064 3950662
225.41438 718.09064 3503.7749 4148041
246.4821 715.52289 3491.2461 4345420
263.50827 702.59772 3428.1804 3885126
284.98688 702.59772 3428.1804 3819076
309.07349 708.57672 3457.3538 3884869
323.48471 693.04376 3381.564 4016455
344.67126 693.04376 3381.564 3884869
369.96756 700.82892 3419.5498 3950662
391.28647 700.63971 3418.6267 4082248
408.43869 693.39655 3383.2852 4279627
429.63602 693.39655 3383.2852 4016455
450.9415 693.56287 3384.0967 3885126
472.14389 693.56287 3384.0967 4082248
493.58337 693.89618 3385.7229 3885125
515.39465 694.70306 3389.6602 3489854
534.81525 692.3512 3378.1848 3752770
555.211 691.39288 3373.5088 4015942
576.34711 691.39288 3373.5088 3752769
601.19452 695.68756 3394.4639 3686977
617.32257 689.94366 3366.4375 3686977
643.26697 695.18799 3392.0261 3489599
664.51904 695.18799 3392.0261 3555391
692.61609 702.12683 3425.8831 3489598
714.73926 702.77478 3429.0444 3292217
731.99652 698.74005 3409.3579 3029302
753.16339 698.5603 3408.4807 3094838
780.51593 703.96948 3434.8738 3358267
802.17444 704.09058 3435.4646 3357756
825.26294 705.42767 3441.9885 3160633
846.96417 705.54114 3442.5422 3292219
866.37366 703.78711 3433.9839 3292219
885.23987 701.68756 3423.7395 3160633
901.82245 697.92017 3405.3572 2963254
910.39154 688.26843 3358.2637 3292219
948.31989 700.74744 3419.1523 3292219
978.92444 707.38281 3451.5283 3226426
1007.6465 712.40045 3476.0107 3291963
1029.8818 712.71667 3477.554 3358011
1052.4999 713.2793 3480.2991 3291962
1074.6188 713.48755 3481.3152 3292219
1096.0292 713.22656 3480.0417 2963508
1117.8326 713.22656 3480.0417 3029301
1140.8655 713.99585 3483.7954 3424059
1167.3192 716.8371 3497.6584 3423803
1178.925 710.6236 3467.3411 3424059
1211.0824 716.79883 3497.4717 3358009
1231.733 716.06506 3493.8916 3226680
1254.8057 716.74042 3497.1868 3358267
1277.2708 717.05151 3498.7048 3423805
1303.3138 719.3269 3509.8069 3423805
1297.8544 704.42828 3437.1123 3292220
1321.1661 705.37714 3441.7419 3160633
1348.4613 708.38812 3456.4336 3358012
1352.1211 699.08368 3411.0347 3423805
1373.4922 699.08368 3411.0347 3752770
1413.0374 708.19226 3455.4778 3752770
1437.3068 709.48541 3461.7876 3555391
1449.2932 704.76715 3438.7656 3292219
1463.9442 701.46387 3422.6479 3358012
1485.3882 701.46387 3422.6479 3094840
1509.7213 702.80884 3429.2104 3226426
1530.8894 702.66333 3428.5005 3292474
1552.37 702.66333 3428.5005 3292473
1566.0513 699.18115 3411.5103 3292473
1589.9301 700.2843 3416.8928 3358266
1602.7273 696.54218 3398.6338 3160887
1615.8085 693.01996 3381.4478 3160887
1623.8848 687.47003 3354.3679 3358266
1654.3661 691.4259 3373.6699 3160887
1689.8507 697.34668 3402.5591 3226167
1719.2283 700.6311 3418.585 3291960
1732.1758 697.22144 3401.948 3160374
1753.49 697.22144 3401.948 3094581
1781.0212 699.66376 3413.8647 2962995
1808.1895 701.90717 3424.811 2962997
1834.8844 703.91638 3434.6145 3028789
1861.4004 705.81116 3443.8599 3028789
1871.5077 701.5119 3422.8826 2896433
1873.4409 694.28082 3387.6001 2436909
1902.2838 697.07269 3401.2222 3160118
1934.6993 701.09717 3420.8589 3226425
1994.1097 714.70874 3487.2737 3029045
2017.2631 715.17114 3489.53 2962995
2043.6682 716.76422 3497.3032 2897202
2065.8933 716.87305 3497.834 3028788
2091.5547 718.15936 3504.1104 3357753
2141.1299 727.54474 3549.9043 3423549
2170.0024 729.7749 3560.7859 3423548
2196.7771 731.26129 3568.0383 3423548
2224.3108 732.9679 3576.3652 3423548
2254.9114 735.64087 3589.4077 3423548
2271.0354 733.58496 3579.3762 3686720
2247.1313 718.76593 3507.0701 3489341
2306.7471 730.6897 3565.2495 3423548
2334.1841 732.28961 3573.0557 3226169
2353.1741 731.23425 3567.9065 3291962
2376.3967 731.50159 3569.2109 3357755
2395.5347 730.51831 3564.4133 3423548
2402.2988 725.81476 3541.4631 3423548
2429.4846 727.31079 3548.7629 3489341
2436.9751 722.93701 3527.4219 3423548
2455.4639 721.87531 3522.2415 3489341
2487.5491 724.79407 3536.4829 3160376
2499.1853 721.75562 3521.6575 2699825
2496.7449 714.74066 3487.4294 2897204
2531.4644 718.39288 3505.2498 3028790
2554.2825 718.63391 3506.4258 3028790
