# .PCD v0.7 - Point Cloud Data file format
VERSION 0.7
FIELDS x y z rgb
SIZE 4 4 4 4
TYPE F F F U
COUNT 1 1 1 1
WIDTH 1268
HEIGHT 1
VIEWPOINT 0 0 0 1 0 0 0
POINTS 1268
DATA ascii
1339.5941 690.32422 3086.7075 4213834
1387.4088 704.78949 3151.3875 3884613
1394.4277 698.41577 3122.8882 3489598
1396.4763 689.76349 3084.2002 3555391
1405.9688 684.97388 3062.7842 3489598
1420.4562 682.71399 3052.6792 3358012
1438.6598 682.27655 3050.7234 3489598
1450.7693 678.99835 3036.0654 3292219
1492.48 689.47992 3082.9324 3029047
1511.7954 689.47992 3082.9324 2897718
1519.3497 684.18365 3059.2507 3094583
1538.5168 684.18365 3059.2507 3094840
1556.6006 683.70782 3057.123 3357755
1590.0085 689.89252 3084.7773 3357755
1589.6104 681.43658 3046.9678 3226169
1601.9457 678.57532 3034.1738 3226169
1622.3571 679.16199 3036.7969 3226169
1664.9602 688.91736 3080.417 3226169
1676.8333 685.87964 3066.8342 3423548
1684.8582 681.35455 3046.6006 3489341
1703.946 681.35455 3046.6006 3291962
1739.3546 687.80835 3075.4583 2897204
1763.0482 689.53888 3083.1963 2962997
1788.1273 691.76807 3093.1636 3028790
1801.2014 689.3548 3082.3728 3029047
1838.0347 695.98932 3112.0386 3028790
1850.1835 693.23578 3099.7263 3028790
1868.1232 692.68658 3097.2708 3094583
1897.5757 696.37372 3113.7573 2897461
1917.0845 696.37372 3113.7573 3029047
1933.1528 695.13672 3108.2261 3094840
1956.306 696.44641 3114.0825 2963254
1970.1698 694.45605 3105.1826 2963254
1989.4243 694.38605 3104.8696 3226426
1997.1221 690.32281 3086.7012 3094840
2038.7859 697.96552 3120.8748 2963254
2071.1487 702.30908 3140.2966 2831668
2082.3284 699.45557 3127.5374 2634289
2087.4526 694.6402 3106.0059 2700082
2132.1594 702.96387 3143.2244 3094840
2151.8528 702.96387 3143.2244 3226426
2175.1052 704.11603 3148.3762 3357755
2199.7485 705.69366 3155.4304 3423805
2214.1985 704.00232 3147.8677 3555134
2214.2446 697.80145 3120.1411 3029304
2238.2271 699.18646 3126.3342 3094840
2260.6509 700.06482 3130.2617 3160633
2278.9592 699.66455 3128.4719 3160633
2292.8704 697.93268 3120.728 3160633
2345.6226 707.95306 3165.533 3489598
2398.6118 717.87622 3209.9036 3818563
2395.8152 711.07733 3179.5027 4279371
2387.9321 702.89319 3142.9084 3752770
2382.7776 695.63959 3110.4749 3029304
2415.2595 699.40234 3127.2996 3029304
2438.7854 700.53192 3132.3501 3160633
2466.9824 702.97449 3143.2717 3094583
2486.501 702.92499 3143.0505 3094840
2507.3572 703.25153 3144.5105 2963254
2528.3647 703.61499 3146.1357 3029047
2550.033 704.15533 3148.5518 3094840
2574.854 705.55127 3154.7937 3160376
2595.0908 705.67938 3155.3665 3226426
2621.752 707.53925 3163.6826 3160633
2641.5735 707.53925 3163.6826 2897718
2637.2795 701.12817 3135.0161 2765618
2675.071 705.9176 3156.4316 2831411
2682.8049 702.76318 3142.3269 2897204
2689.4561 699.37311 3127.1687 2765618
2696.6038 696.16028 3112.803 2634032
2722.2771 697.74182 3119.8748 2568496
2741.824 697.74182 3119.8748 2765618
2750.0938 694.89233 3107.1335 2962997
2760.9253 692.72565 3097.4453 3094583
2786.5002 694.26251 3104.3171 3160376
2803.176 693.57623 3101.2485 3226169
2814.0818 691.48157 3091.8826 3225915
2828.8401 690.35571 3086.8484 3225915
2840.9568 688.60486 3079.0198 3160122
2857.3188 687.89972 3075.8667 3094329
2874.8748 687.48956 3074.0327 3094329
2890.6064 686.65149 3070.2854 3028536
2897.0168 683.62488 3056.7522 3028536
2917.073 683.83691 3057.7004 3028537
2936.3394 683.86237 3057.814 3028793
2955.0188 683.75153 3057.3186 3028793
2948.3342 677.8111 3030.7566 3028793
2952.2324 674.36401 3015.3435 2962743
2961.5784 672.19739 3005.6555 2831158
2989.532 674.25476 3014.855 2831414
3008.519 674.27673 3014.9531 2896950
3018.334 672.25568 3005.916 2831157
3036.3757 672.08044 3005.1326 2896693
3062.5786 673.70282 3012.3867 2897205
3074.9893 672.28973 3006.0686 2897206
nan nan nan 16777215
nan nan nan 16777215
nan nan nan 16777215
nan nan nan 16777215
nan nan nan 16777215
nan nan nan 16777215
nan nan nan 16777215
nan nan nan 16777215
-2641.2725 655.98138 2853.6272 4081735
-2633.4224 658.48914 2864.5361 4015942
-2615.4031 658.47095 2864.4573 3950149
-2590.2573 656.64594 2856.5181 3950149
-2572.2129 656.60828 2856.3542 3950149
-2553.4883 656.39532 2855.4277 3884356
-2527.8215 654.38214 2846.6702 3950149
-2510.0962 654.41083 2846.7949 4147528
-2492.2603 654.41083 2846.7949 4081735
-2467.3276 652.53406 2838.6306 4081735
-2446.033 651.599 2834.5632 4081991
-2420.658 649.55548 2825.6733 4016712
-2408.3923 651.02545 2832.0681 4279627
-2381.094 648.42358 2820.7495 4477006
-2362.4426 648.15515 2819.5815 4213834
-2366.905 654.27185 2846.1904 3621697
-2349.073 654.27185 2846.1904 3885126
-2370.6997 665.34625 2894.3657 4872021
-2354.0081 665.75415 2896.1404 4872021
-2330.2571 664.15649 2889.1902 4674641
-2325.6948 668.04559 2906.1084 4411984
-2318.1106 671.12128 2919.488 4214605
-2310.9507 674.36957 2933.6187 4083021
-2292.2102 674.26361 2933.1577 4148813
-2279.459 675.93182 2940.4148 4345936
-2271.5876 679.08612 2954.1365 4280143
-2263.7168 682.29236 2968.0842 4148043
-2214.2795 672.91968 2927.3115 4082248
-2199.8164 674.10785 2932.4802 4016455
-2178.804 673.29218 2928.9321 4082248
-2180.0854 679.4104 2955.5471 3950408
-2173.231 683.07623 2971.4941 3688007
-2138.7817 678.05701 2949.6599 3753541
-2114.1201 676.08038 2941.061 3687747
-2090.124 674.28369 2933.2451 3687746
-2070.2261 673.78882 2931.0925 3687746
-2052.1423 673.88092 2931.4932 3687490
-2033.7308 673.86615 2931.4287 3753283
-2016.2639 674.16687 2932.7368 3753283
-1989.6737 671.39453 2920.677 3819076
-1971.3748 671.39453 2920.677 3950662
-1957.4529 672.89917 2927.2224 3950662
-1958.8428 679.74573 2957.0061 3884869
-1958.84 686.23511 2985.2358 3490111
-1889.9136 668.47107 2907.9592 3424318
-1879.4873 671.25433 2920.0669 3556161
-1861.1923 671.25433 2920.0669 3687490
-1844.6903 671.90747 2922.9082 3555904
-1826.3774 671.90747 2922.9082 3555647
-1804.7867 670.68945 2917.6096 3686977
-1776.1584 666.80432 2900.7087 3621441
-1770.9976 671.74017 2922.1804 3555391
-1767.3622 677.36377 2946.644 3621184
-1750.585 678.01617 2949.4822 3555391
-1731.4769 677.77014 2948.4119 3358012
-1717.3409 679.48602 2955.876 3160633
-1691.5583 676.58093 2943.2385 3292219
-1678.1692 678.62354 2952.1243 3423805
-1666.5486 681.43475 2964.3535 3292476
-1650.2727 682.38446 2968.4849 3424061
-1618.4789 676.86603 2944.4788 3687234
-1595.8351 675.09113 2936.7576 3621697
-1578.1469 675.39557 2938.082 3555904
-1561.6436 676.22034 2941.6699 3687490
-1552.1011 680.11499 2958.6123 3753283
-1537.8224 682.00336 2966.8269 3555904
-1519.2786 682.02319 2966.9133 3621697
-1500.416 681.89868 2966.3716 3687490
-1473.7195 678.16608 2950.1343 3490111
-1453.598 677.40277 2946.8137 3621697
-1437.2072 678.38074 2951.0679 3555904
-1418.7178 678.38074 2951.0679 3292732
-1378.6484 667.92566 2905.5867 3621697
-1398.2456 686.4848 2986.322 4148041
-1361.4778 677.49896 2947.2322 4082248
-1343.0125 677.49896 2947.2322 4082248
-1328.9532 679.75269 2957.0361 4081992
-1313.8406 681.52362 2964.74 4082505
-1297.4708 682.68396 2969.7878 4345677
-1288.6418 687.90344 2992.4934 4214091
-1283.7367 695.40271 3025.1162 3820103
-1272.698 699.75427 3044.0464 3820103
-1259.5045 703.03546 3058.3203 4280397
-1232.5331 698.60864 3039.0627 4214861
-1217.3654 700.83838 3048.7625 4346190
-1207.0946 706.00323 3071.2305 4214604
-1189.8929 707.216 3076.5061 4083019
-1175.7992 710.34637 3090.1238 4148812
-1156.0958 710.1358 3089.2078 4083019
-1154.7714 721.3996 3138.2073 4214606
-1135.1095 721.3996 3138.2073 4411728
-1109.2465 717.38904 3120.7605 4148811
-1083.5654 713.35437 3103.2092 4280397
-1061.326 711.47955 3095.0535 4148812
-1041.7144 711.32916 3094.3992 3688260
-1017.4707 707.9502 3079.7 3753283
-991.94434 703.53082 3060.4751 3753283
-967.4613 699.69177 3043.7747 3950662
-943.54669 696.1178 3028.2271 4016198
-911.18127 686.0343 2984.3623 4016455
-886.64923 681.5498 2964.854 4016455
-865.95776 679.88867 2957.6279 4213834
-840.91516 674.66394 2934.8994 4213321
-829.63062 680.49054 2960.2461 4081735
-811.44446 680.79309 2961.5623 4081735
-792.69366 680.62506 2960.8313 3950149
-783.65802 688.9906 2997.2227 4015942
-763.40955 687.66644 2991.4624 3949892
-743.7887 686.85535 2987.9338 3357755
-717.94226 680.1048 2958.5679 3423548
-701.51782 682.15839 2967.5015 3423548
-683.09888 682.3316 2968.2549 3160376
-661.9259 679.68652 2956.7483 3094583
-642.61871 678.86017 2953.1536 3357755
-623.51965 678.21118 2950.3303 3291962
-606.03986 679.33771 2955.231 3226169
-590.19965 682.43097 2968.6873 3357755
-574.95984 686.44238 2986.1375 3555133
-555.07916 684.99652 2979.8479 3818562
-530.79108 677.82178 2948.6365 3357755
-514.72998 681.0144 2962.5249 3357755
-502.18985 689.2785 2998.4751 3094840
-480.67661 685.39026 2981.5605 3226426
-459.49304 681.67676 2965.4062 3292219
-441.67554 682.85437 2970.5291 3226426
-423.34912 683.31409 2972.5291 3160633
-404.65234 683.19104 2971.9934 3292219
-386.14023 683.38269 2972.8274 3358012
-370.18848 688.35486 2994.457 3752770
-349.70554 684.98236 2979.7861 3423805
-331.03625 684.98236 2979.7861 3226426
-312.01706 684.21503 2976.4482 3489598
-294.48398 686.81622 2987.7639 3160376
-275.96448 687.31378 2989.9282 3029047
-257.23166 687.31378 2989.9282 3423805
-234.69154 676.3418 2942.1982 3094840
-215.74904 674.75079 2935.2773 3029047
-197.30341 674.56207 2934.4561 3292219
-178.5201 673.06134 2927.928 3423805
-160.27538 673.48016 2929.7495 3555391
-142.95308 678.38464 2951.085 3752770
-124.46363 678.38464 2951.085 3489598
-105.06802 672.58398 2925.8511 3160633
-86.736649 672.58398 2925.8511 3423548
-68.522713 673.73859 2930.8738 3160890
-50.690811 680.86993 2961.8965 3029560
-32.267704 683.71124 2974.2566 3160890
-13.695279 686.83148 2987.8301 2963767
5.0282001 687.35065 2990.0886 3029560
23.863089 690.2738 3002.8049 3161146
42.881149 693.58246 3017.198 3424318
61.806252 693.82288 3018.2439 3424318
80.754753 694.15186 3019.6748 3226939
99.778358 694.87897 3022.8379 3621697
119.41016 698.93396 3040.4778 3885125
139.35275 703.44196 3060.0886 3556161
158.46109 703.15771 3058.8521 3621697
176.83698 700.03534 3045.269 3490368
195.67929 699.18762 3041.5813 3424318
214.65253 698.91663 3040.4026 3490110
234.1239 700.17957 3045.8967 3424318
251.95166 696.70721 3030.7913 3161403
270.94049 696.70721 3030.7913 3292989
289.34995 695.31494 3024.7346 3292988
307.45572 693.40887 3016.4429 3753540
320.37119 680.69568 2961.1384 3424318
346.55722 696.02704 3027.8323 3490111
365.87186 696.68274 3030.6846 3226939
382.63663 692.65784 3013.1758 3555904
401.74292 693.05084 3014.8853 3687747
417.12668 687.27515 2989.7603 3621697
438.28644 691.10364 3006.4148 3555904
457.12256 691.10364 3006.4148 4148041
476.36005 691.6864 3008.95 4345420
499.80405 698.10028 3036.8513 3621697
518.83087 698.10028 3036.8513 3753283
534.55035 693.80762 3018.1775 3753283
556.27136 697.33173 3033.5081 3490111
569.23962 690.01312 3001.6709 3556161
588.97357 691.1015 3006.4053 3490112
602.32916 684.87 2979.2974 3752770
632.31378 697.3526 3033.5989 3358012
651.88654 697.95892 3036.2363 3423805
654.65668 681.05084 2962.6833 3555391
673.06848 680.89874 2962.0217 3489598
694.19031 683.42285 2973.002 3555391
717.46826 687.8822 2992.4011 3621441
736.21661 687.8822 2992.4011 3555391
759.20837 691.74866 3009.2207 3489598
779.21326 692.77209 3013.6729 3160633
797.88989 692.59424 3012.8989 3160633
816.7666 692.59424 3012.8989 3489598
826.45392 684.97778 2979.7664 3555391
845.12311 684.97778 2979.7664 3621184
865.72833 686.51312 2986.4451 3620927
884.43927 686.51312 2986.4451 3423805
906.68091 689.1969 2998.1199 3818563
924.05774 688.14886 2993.5608 3752770
945.83002 690.35065 3003.1392 3686977
964.21783 690.04443 3001.8071 3686977
982.59241 689.74078 3000.4861 3686977
1001.3435 689.70776 3000.3425 3621441
1017.827 688.14288 2993.5349 3621184
1037.8051 688.95453 2997.0659 3686977
1058.9285 690.48425 3003.7202 3358012
1082.0233 693.22345 3015.6362 3226426
1094.1748 688.97797 2997.1677 3094840
1115.0383 690.26892 3002.7834 3160633
1128.3931 686.9458 2988.3274 3358012
1144.8203 685.57111 2982.3474 3226426
1185.4182 698.4826 3038.5144 3489598
1207.5726 700.29028 3046.3782 3489855
1195.4725 682.48615 2968.9272 3753027
1218.7987 685.14215 2980.4814 4147528
1225.4312 678.47546 2951.48 3884356
1251.2365 682.46436 2968.8325 3818820
1269.837 682.46436 2968.8325 3884869
1269.8551 672.62146 2926.0142 4148041
1329.946 694.42554 3020.8655 4016199
1346.881 693.40015 3016.4048 3358012
1348.6635 684.71033 2978.6028 3752770
1357.0809 679.58026 2956.2861 3555391
1371.871 677.73651 2948.2656 3555391
1390.3428 677.73651 2948.2656 3621184
1391.1127 669.22076 2911.2205 3292219
1411.8491 670.40631 2916.3779 2700339
1441.8083 675.88495 2940.2109 2765618
1453.3601 672.70532 2926.3789 2962994
1470.0292 671.94403 2923.0671 2699823
1489.8645 672.6308 2926.0549 2568494
1507.3638 672.25909 2924.438 2831667
1522.4093 670.81519 2918.1567 2962997
1539.9591 670.49597 2916.7678 3226168
1566.8441 674.20105 2932.8855 3094583
1598.0051 679.63873 2956.5405 3160376
1616.3905 679.58063 2956.2876 3160376
1628.7145 677.00421 2945.0801 3160376
1643.208 675.37732 2938.0027 3028790
1671.6443 679.45367 2955.7354 3291962
1691.5764 680.02185 2958.2073 3160376
1709.8306 679.91058 2957.7229 3226169
1733.5952 681.96942 2966.6794 3291962
1761.3557 685.53973 2982.2109 3357755
1780.149 685.58167 2982.3933 3291962
1805.8971 688.27332 2994.1025 3291962
1823.7277 687.92316 2992.5791 3226426
1829.3679 683.02856 2971.2869 3029047
1855.8229 685.92584 2983.8906 3226683
1867.9635 683.52753 2973.4573 2963254
1885.85 683.25818 2972.2859 3292219
1878.5011 673.94073 2931.7532 3226426
1935.0537 687.50726 2990.77 2765875
1968.0706 692.53174 3012.6272 2634289
1970.9938 686.97186 2988.4407 2634289
1990.2124 687.14276 2989.1843 2699825
2011.5271 688.02747 2993.033 2634289
2026.2798 686.67206 2987.1367 2634289
2045.6245 686.88342 2988.0562 2634289
2072.6262 689.63873 3000.042 2634032
2091.4224 689.63873 3000.042 2765618
2146.2727 701.42157 3051.2993 2962740
2150.8308 696.70538 3030.7834 3028790
2157.8953 692.87665 3014.1274 2897204
2182.5024 694.69824 3022.0518 2962997
2201.4365 694.69824 3022.0518 2963254
2235.8403 699.53833 3043.1069 2897204
2254.9065 699.53833 3043.1069 3029047
2273.2427 699.31378 3042.1304 3621184
2309.21 704.47174 3064.5681 3423805
2328.8611 704.60815 3065.1614 3226426
2290.9646 687.47327 2990.6221 3094840
2320.7488 690.76141 3004.926 3160890
2345.9116 692.63214 3013.064 3160376
2372.7031 694.95001 3023.1472 3160376
2392.6042 695.229 3024.3608 3028790
2416.5579 696.67194 3030.6379 3160376
2435.6799 696.71033 3030.8047 3226169
2449.8076 695.33051 3024.8025 3094583
2469.7456 695.6084 3026.0112 3160376
2488.4226 695.52966 3025.6687 3094583
2509.9043 696.23004 3028.7156 3291962
2542.7026 700.03558 3045.27 3226169
2558.675 699.18652 3041.5767 3028790
2569.3586 696.91547 3031.697 3028790
2581.5493 695.0835 3023.7278 3160376
2597.7817 694.35858 3020.5742 3028790
2616.7065 694.35858 3020.5742 2568496
2626.8999 692.05823 3010.5674 2699825
2641.7305 691.00372 3005.98 2634032
2635.3787 684.46265 2977.5251 2897204
2656.4387 685.08282 2980.2231 3028790
2679.3457 686.16736 2984.9412 3160376
2706.0498 688.20258 2993.7947 3291962
2724.9639 688.24225 2993.967 3160379
2719.2488 682.10333 2967.2617 3094586
2732.4312 680.75586 2961.4001 3028537
2746.3357 679.60522 2956.3948 3028537
2764.8582 679.60522 2956.3948 3028793
2783.3853 679.60626 2956.3992 3028537
2779.2056 674.09973 2932.4451 2963000
2802.959 675.3963 2938.0852 2963000
2833.5361 678.30945 2950.7578 3094329
2840.2791 675.51617 2938.6067 3357501
2835.0591 669.93201 2914.3147 3489087
2868.8284 673.57367 2930.1565 3423294
2900.0984 676.58588 2943.2603 3291708
2918.5386 676.58588 2943.2603 3225915
2936.604 676.49951 2942.8845 3028536
2940.7046 673.21716 2928.6057 2962743
2945.6492 670.16772 2915.3398 3028536
2956.3237 668.45129 2907.8733 3094329
2973.5413 668.22626 2906.8943 2831157
nan nan nan 16777215
nan nan nan 16777215
nan nan nan 16777215
nan nan nan 16777215
nan nan nan 16777215
nan nan nan 16777215
nan nan nan 16777215
nan nan nan 16777215
-2551.2986 650.81409 2756.4194 4015942
-2541.9719 652.85419 2765.0598 3884613
-2524.3423 652.77502 2764.7249 3818563
-2499.2249 650.74524 2756.1279 3884356
-2481.5798 650.64648 2755.7095 4015942
-2460.2673 649.57788 2751.1838 4081735
-2445.0286 650.10919 2753.4341 4147528
-2427.7776 650.10919 2753.4341 4081735
-2413.7026 650.96588 2757.0623 3884356
-2378.3052 646.04279 2736.2114 3686977
-2383.3127 652.10352 2761.8806 3884356
-2363.2046 651.33063 2758.6072 3885126
-2345.9211 651.33063 2758.6072 3884869
-2327.498 651.01196 2757.2573 3884869
-2328.968 656.29425 2779.6296 3490368
-2310.113 655.88538 2777.8982 2700595
-2301.4104 658.37476 2788.4414 2503216
-2337.5081 673.81641 2853.8423 3490368
-2323.4236 674.91907 2858.5122 4082505
-2299.9187 673.28107 2851.5747 4477005
-2297.1179 677.72583 2870.3997 4279627
-2249.583 668.93848 2833.1824 4213834
-2237.2629 670.56622 2840.0764 4279370
-2235.8538 675.51654 2861.0427 4345420
-2212.301 673.80255 2853.7834 4279370
-2198.1887 674.95941 2858.6831 4147784
-2174.717 673.23779 2851.3914 3950661
-2160.6221 674.41455 2856.3755 3884869
-2145.4521 675.27258 2860.0095 3950662
-2116.1763 671.66791 2844.7424 3687490
-2098.353 671.66791 2844.7424 3358527
-2064.6748 666.54932 2823.0635 3358782
-2063.8203 672.03052 2846.2783 3490111
-2041.5265 670.56525 2840.0723 3424318
-2025.9111 671.28711 2843.1296 3424318
-1999.5815 668.44012 2831.0718 3292732
-1992.0653 671.88763 2845.6731 3555904
-1965.3475 668.86249 2832.8606 3753283
-1941.2466 666.68097 2823.6213 3753283
-1924.7401 667.09143 2825.3596 3819076
-1912.1171 668.86798 2832.884 3753283
-1896.3678 669.57404 2835.8743 3687490
-1878.882 669.6745 2836.2998 3555904
-1851.0972 666.07104 2821.0381 3424318
-1833.4226 666.07104 2821.0381 3358525
-1823.8535 669.04443 2833.6313 3555904
-1806.1 669.04443 2833.6313 3621697
-1786.1818 668.23468 2830.2014 3424575
-1774.4745 670.51117 2839.8435 3555647
-1757.2563 670.73047 2840.772 3621184
-1735.8016 669.3205 2834.8005 3686977
-1721.2195 670.55896 2840.0457 3358012
-1708.1626 672.42358 2847.9431 3292219
-1690.5475 672.5144 2848.3276 3423805
-1673.125 672.68457 2849.0483 3292219
-1654.3317 672.30127 2847.4248 3292219
-1636.6643 672.37219 2847.7253 3423805
-1620.0579 672.88525 2849.8984 3292732
-1604.5878 673.88715 2854.1416 3424318
-1582.2067 671.97632 2846.0488 3358525
-1565.486 672.45343 2848.0696 3358525
-1547.642 672.45343 2848.0696 3490111
-1531.6967 673.28809 2851.6045 3490111
-1518.9193 675.55133 2861.1902 3621697
-1505.3795 677.52557 2869.5518 3687747
-1479.4546 673.90594 2854.2214 3884869
-1470.7721 678.14801 2872.1877 3621697
-1466.2251 684.42548 2898.7751 3621697
-1424.4951 673.28595 2851.5955 3621697
-1408.5735 674.21667 2855.5376 3490111
-1392.2374 674.97046 2858.73 3555904
-1377.2113 676.38727 2864.7305 3555904
-1359.2628 676.38727 2864.7305 3753283
-1356.7617 684.17688 2897.7222 4148041
-1328.3699 678.94476 2875.5625 4016455
-1301.5448 674.38062 2856.2317 3556931
-1286.2761 675.76044 2862.0757 3556674
-1271.3737 677.37445 2868.9116 3885896
-1254.3599 677.8938 2871.1111 4017225
-1236.3716 677.8938 2871.1111 3819846
-1229.4537 684.05328 2897.1987 3688260
-1217.5813 687.59937 2912.2178 3885639
-1218.6912 698.69641 2959.2175 4280397
-1202.584 700.11304 2965.2173 4411983
-1188.8938 703.00323 2977.4583 4477776
-1152.2291 692.18402 2931.6353 4214604
-1150.0928 702.09265 2973.6018 3556674
-1140.588 707.75531 2997.585 3951177
-1136.5365 717.04816 3036.9434 4017226
-1121.2273 719.4339 3047.0479 4016970
-1097.3112 716.28406 3033.707 3951178
-1068.6139 709.84717 3006.4448 4016971
-1049.4342 709.61505 3005.4614 3951432
-1027.5104 707.48486 2996.4395 3819846
-1008.7368 707.48486 2996.4395 3754053
-987.81482 705.94952 2989.937 4148041
-961.5166 700.43842 2966.5955 4148041
-941.30457 699.23102 2961.4817 4213834
-920.47516 697.50726 2954.1809 3950918
-885.6228 684.86853 2900.6516 3490367
-867.30933 684.758 2900.1833 3621441
-846.7699 682.84772 2892.0928 4016455
-828.65009 682.84772 2892.0928 4411470
-810.26904 682.62769 2891.1609 4477006
-786.99396 678.18024 2872.3245 4081992
-766.70477 676.1579 2863.759 3818820
-758.75116 685.17798 2901.9624 3950149
-742.50684 686.97046 2909.5542 3752513
-712.474 675.7749 2862.137 3489597
-697.35522 678.51227 2873.7307 3357755
-683.9444 683.10059 2893.1638 3160376
-660.7616 677.91309 2871.1931 2962997
-643.84863 679.04791 2875.9993 3489341
-621.99054 674.88239 2858.3569 3555134
-610.83386 682.42554 2890.3047 3291962
-593.5116 683.33093 2894.1394 3291962
-577.94116 686.3739 2907.0273 2831411
-553.23438 678.41132 2873.303 2897204
-540.90131 685.59692 2903.7366 2962997
-519.80701 681.79126 2887.6184 3226169
-500.41159 680.01978 2880.1155 3423291
-484.62375 683.20154 2893.5913 3555134
-463.77951 679.22528 2876.7505 3555391
-445.75571 679.22528 2876.7505 3423805
-428.31332 680.14844 2880.6604 3226426
-409.96524 679.65125 2878.5547 3358012
-392.63718 680.87726 2883.7471 3292219
-374.70853 681.12976 2884.8167 3423805
-362.12192 691.6106 2929.2065 3555391
-339.78821 683.60077 2895.2822 3423805
-321.86343 684.0578 2897.218 3292219
-302.64746 681.66144 2887.0684 3423805
-288.74976 691.70013 2929.5859 3226426
-270.39499 691.70013 2929.5859 3094840
-248.88934 683.0528 2892.9614 3160633
-228.35536 675.92322 2862.7651 3029047
-209.59743 673.28333 2851.5845 2963254
-191.12364 671.14923 2842.5457 3094840
-173.31421 671.14923 2842.5457 3029047
-155.68079 671.90887 2845.7629 2897461
-137.50227 670.20813 2838.5598 3226426
-119.70044 670.11084 2838.1477 3424061
-101.85719 669.70728 2836.4385 3423805
-83.986595 668.91547 2833.085 3029303
-66.72538 673.85327 2853.998 3029047
-48.821354 673.53802 2852.6631 3029047
-30.929089 673.11481 2850.8706 3226426
-13.144094 677.06018 2867.5806 3160633
4.8221879 677.06018 2867.5806 3160633
22.869934 679.48059 2877.8318 3094840
41.000683 681.14587 2884.8848 3160376
59.096455 681.38885 2885.9141 3095096
77.177605 681.38885 2885.9141 3160633
95.028366 679.74091 2878.9346 3160633
112.62604 677.09717 2867.7373 2963254
132.65567 687.79016 2913.0256 3489598
153.72461 700.63342 2967.4214 3621184
169.74341 690.17163 2923.1121 3358012
188.21655 690.75488 2925.5825 3489598
206.54623 690.75488 2925.5825 3358012
224.20456 688.69275 2916.8484 3292732
242.99295 690.151 2923.0247 3555904
258.32199 682.26819 2889.6382 3490111
278.07648 686.34064 2906.8865 3292989
298.23434 690.84692 2925.9722 3358525
315.00061 687.42969 2911.499 3226939
331.48517 683.80554 2896.1494 2963767
350.31357 685.1416 2901.8081 3029817
370.30966 688.51691 2916.1038 3292989
389.30493 689.80145 2921.5442 2963767
405.46841 686.17834 2906.1992 3161146
421.09628 681.99933 2888.4995 3095353
441.55817 685.67096 2904.0503 2766645
456.49985 680.8194 2883.5022 2766388
472.71432 678.16315 2872.252 3555904
495.12857 684.26978 2898.1157 3819076
511.67999 682.12854 2889.0469 3687490
527.19678 678.80145 2874.9556 3621697
545.07947 678.63995 2874.2715 3555904
562.25311 677.63409 2870.0115 3555904
583.04547 680.91675 2883.9146 3752770
598.87897 678.38495 2873.1914 3621440
616.91608 678.42413 2873.3574 3489598
634.70984 678.20111 2872.4128 3489598
649.75208 675.13141 2859.4116 3752770
672.42572 679.94318 2879.791 3884356
686.81152 676.34192 2864.5386 3818563
706.10272 677.63171 2870.0012 3555391
727.60052 680.92249 2883.9387 3423805
745.91089 681.14307 2884.873 3423805
762.91876 680.19202 2880.845 3423805
781.31714 680.49597 2882.1323 3489854
799.37457 680.49597 2882.1323 3621184
818.15472 681.0976 2884.6804 3489598
837.74939 682.33661 2889.9282 3752770
854.81128 681.50403 2886.4016 3752770
873.27399 681.79944 2887.6531 3752770
892.56531 682.7168 2891.5383 3752770
912.09161 683.7738 2896.0151 3686977
930.42706 683.91418 2896.6096 3686977
948.85065 684.11273 2897.4507 3621441
967.0224 684.12579 2897.5059 3752770
979.35223 680.08148 2880.377 3686977
1008.3126 687.52319 2911.895 3555391
1034.2542 692.67859 2933.73 3686977
1052.6349 692.67859 2933.73 3621184
1079.3374 698.06073 2956.5249 3752770
1087.1356 691.24109 2927.6416 3358012
1101.0809 688.49164 2915.9966 3358012
1119.7206 688.71918 2916.9604 3884356
1137.9962 688.71918 2916.9604 3884356
1151.8396 686.0791 2905.7788 3950149
1162.3938 681.59259 2886.7769 4015942
1181.8336 682.3739 2890.0862 4081735
1201.0334 682.99524 2892.7175 3884356
1211.251 678.56598 2873.9583 3489598
1221.9738 674.54541 2856.9297 3686977
1234.3892 671.56183 2844.2932 4279114
1261.0363 676.29559 2864.3423 4279115
1287.9579 681.04169 2884.4436 4015942
1297.3491 676.51508 2865.272 3818563
1315.301 676.51508 2865.272 3884356
1329.9791 674.854 2858.2366 3818563
1343.3446 672.57983 2848.6047 3818563
1364.8231 674.37396 2856.2036 3358012
1389.9773 677.91431 2871.1982 2502960
1398.3264 673.27295 2851.5405 2437167
1415.089 672.74847 2849.3191 2568495
1420.6117 666.96008 2824.8032 2634032
1447.4822 671.21338 2842.8174 2831411
1467.3173 672.14044 2846.7439 2699825
1474.5544 667.34381 2826.4285 2699825
1479.4796 661.62714 2802.2163 3357755
1518.3289 671.03754 2842.0725 3489341
1536.1353 671.03754 2842.0725 3226169
1560.5651 673.89758 2854.186 3160376
1576.6439 673.12769 2850.925 3094583
1593.5768 672.73547 2849.2639 3160376
1615.9937 674.6413 2857.3359 3357755
1630.2167 673.12225 2850.9021 3423548
1648.0785 673.12225 2850.9021 3357755
1662.5746 671.76233 2845.1426 3291962
1695.2694 677.70648 2870.3179 3226169
1717.9733 679.57379 2878.2266 3291962
1730.0082 677.22571 2868.2817 3291962
1742.1045 674.94983 2858.6426 3094840
1762.0198 675.71875 2861.8992 3029047
1778.671 675.23303 2859.842 2831668
1790.3619 672.8927 2849.9299 2897461
1813.2454 674.76361 2857.854 3029047
1830.7006 674.59772 2857.1514 2831925
1856.4482 677.46118 2869.2791 2831668
1887.3864 682.14569 2889.1194 2765875
1904.6151 681.83337 2887.7966 2634289
1916.201 679.52588 2878.0237 2502703
1935.3954 679.93433 2879.7537 2568496
1955.8452 680.77222 2883.3022 2568239
1971.4095 679.90985 2879.6499 2305067
1979.2385 676.41956 2864.8672 2042409
1985.6338 672.50629 2848.2935 2436910
2033.2607 682.50305 2890.6331 2897461
2054.5347 683.55548 2895.0906 2765875
2072.5237 683.5061 2894.8813 2765875
2091.2319 683.69275 2895.6719 2765618
2109.6978 683.79761 2896.116 2831411
2120.6743 681.49402 2886.3594 2765618
2130.6592 678.91339 2875.4294 2897461
2148.1848 678.75861 2874.7739 2897204
2166.1963 678.75861 2874.7739 2897204
2194.6506 682.00378 2888.5186 2896947
2220.022 684.24579 2898.0139 3028790
2275.2795 695.58795 2946.052 3292219
2284.957 692.92523 2934.7747 3291962
2297.5503 691.18225 2927.3923 3226169
2318.0752 691.83398 2930.1528 3357755
2342.5569 693.64709 2937.832 3291962
2351.1479 690.76337 2925.6184 3160376
2369.4778 690.76337 2925.6184 2962997
2389.4873 691.24927 2927.6763 3094583
2407.6094 691.18591 2927.408 3226169
2433.2952 693.2785 2936.2708 3358012
2453.1338 693.68628 2937.9978 3292219
2478.0769 695.52069 2945.7671 3292219
2493.6792 694.72559 2942.3997 3423548
2514.6379 695.42352 2945.3557 3357755
2531.3486 694.94495 2943.3289 3291962
2563.4988 698.68152 2959.1543 3226169
2571.6726 695.8764 2947.2739 2962997
2571.6287 690.90363 2926.2124 2897204
2566.0012 684.51172 2899.1404 2831411
2564.5513 679.31628 2877.136 2963254
2583.5549 679.57336 2878.2246 3094583
2610.3997 681.87512 2887.9734 3291962
2628.4937 681.87512 2887.9734 3423290
2636.9934 679.4032 2877.5042 3225655
2650.8569 678.3374 2872.99 3159606
2665.3555 677.44739 2869.2207 3225142
2679.8188 676.56042 2865.4641 3290935
2695.8784 676.08557 2863.4529 3027764
2698.72 672.3241 2847.5217 3159606
2716.1318 672.21796 2847.0723 3290938
2737.5579 673.10028 2850.8091 3356731
2766.3145 675.76178 2862.0815 3356988
2784.3621 675.78986 2862.2004 3423551
2800.7202 675.41016 2860.5923 3489087
2812.3625 673.90533 2854.2188 3423550
2822.9636 672.17151 2846.8755 3291708
2834.0159 670.56628 2840.0769 3094585
2844.4475 668.83508 2832.7446 3028536
2873.1675 671.39905 2843.6038 3094329
2878.1814 668.4259 2831.0115 3094329
2865.1309 661.31958 2800.9138 3225915
nan nan nan 16777215
nan nan nan 16777215
nan nan nan 16777215
nan nan nan 16777215
nan nan nan 16777215
nan nan nan 16777215
nan nan nan 16777215
nan nan nan 16777215
nan nan nan 16777215
-2470.4846 651.24176 2687.2986 3686977
-2457.1265 652.16504 2691.1084 3752770
-2438.6104 651.7226 2689.2827 3686977
-2403.5342 646.81757 2669.0425 3686977
-2386.8118 646.81757 2669.0425 3950406
-2376.9055 648.67767 2676.7183 4015942
-2355.126 647.30096 2671.0374 4015942
-2335.1392 646.40076 2667.3228 3621184
-2327.0303 648.79926 2677.22 3292219
-2319.9253 651.51459 2688.4246 3292219
-2286.0312 646.69128 2668.5215 3752514
-2279.5806 649.61755 2680.5964 3884356
-2276.502 653.5553 2696.8452 3884612
-2280.6489 659.64178 2721.9607 3686977
-2260.2461 658.66583 2717.9336 3029303
-2240.2126 657.78357 2714.293 2897718
-2226.0088 658.61261 2717.7141 3292219
-2241.054 668.17505 2757.1726 3161146
-2208.9514 663.71973 2738.7881 3161403
-2207.3757 668.43878 2758.261 3490112
-2179.6702 665.2572 2745.1323 3753027
-2167.0225 666.65741 2750.9102 3950662
-2158.71 669.42444 2762.3281 4082248
-2149.0818 671.82483 2772.2332 3555904
-2133.324 672.33258 2774.3284 3226939
-2122.4641 674.40497 2782.8799 3621697
-2085.4143 668.12103 2756.9497 3621697
-2064.5132 666.94904 2752.1135 3819076
-2025.9573 660.0058 2723.4626 3621697
-1994.963 655.42889 2704.5764 3292732
-1987.2761 658.49658 2717.2351 3095610
-1978.8499 661.37024 2729.093 3556161
-1961.7512 661.37024 2729.093 3753283
-1933.3885 657.53937 2713.2852 3687490
-1928.7526 661.78149 2730.79 3226939
-1905.6246 659.69788 2722.1921 3029816
-1883.0526 657.77087 2714.2405 3556160
-1871.2461 659.60352 2721.8027 3556161
-1854.6134 659.75305 2722.4197 3555905
-1845.952 662.76727 2734.8577 3555648
-1836.8691 665.68524 2746.8984 3424061
-1797.5858 657.61023 2713.5776 3292731
-1782.1088 658.17316 2715.9006 3292475
-1766.4834 658.69177 2718.0405 3292219
-1757.4434 661.69983 2730.4531 3621184
-1738.4592 660.98615 2727.5083 3489597
-1721.6036 661.07568 2727.8777 3424062
-1704.9813 661.25745 2728.6277 3423805
-1691.7253 662.76172 2734.835 3423805
-1677.0078 663.71832 2738.7822 3292219
-1659.5312 663.59143 2738.2588 3292219
-1649.6425 666.52777 2750.3752 3292219
-1633.4012 666.93231 2752.0444 3489598
-1607.9995 663.56525 2738.1506 3818562
-1586.3112 661.67444 2730.3484 3620928
-1576.5641 664.77759 2743.1533 3292732
-1564.2236 666.84369 2751.6787 3292732
-1555.421 670.48071 2766.6868 3424574
-1530.3175 667.09393 2752.7114 3424318
-1511.114 666.23114 2749.1511 3358525
-1496.3453 667.32629 2753.6702 3424318
-1483.1786 669.16968 2761.2769 3687233
-1464.4933 668.53748 2758.668 3621697
-1448.8186 669.28076 2761.7354 3556161
-1431.4884 669.26813 2761.6831 3490368
-1403.366 664.14771 2740.5542 3292989
-1384.4403 663.30676 2737.084 3095353
-1384.7173 671.76038 2771.967 3358782
-1357.3228 666.83411 2751.6392 3753283
-1337.1688 665.38409 2745.6558 3753539
-1320.842 665.82544 2747.4771 3753283
-1317.2633 672.78955 2776.2139 3555904
-1304.6753 675.27692 2786.4778 3687490
-1286.6678 674.98877 2785.2888 3424318
-1268.2552 674.47723 2783.178 3096379
-1246.4537 672.12396 2773.4675 3359552
-1240.9574 678.62079 2800.2761 3556931
-1230.6384 682.62878 2816.8147 3490881
-1212.9902 682.62878 2816.8147 3688260
-1197.9524 684.11945 2822.9661 3754053
-1198.1285 694.47339 2865.6907 3819846
-1181.8776 695.47577 2869.8269 3885639
-1168.8494 698.43494 2882.0376 3688260
-1149.818 697.84351 2879.5972 3754053
-1127.2324 695.04175 2868.0359 3688260
-1109.2633 695.04175 2868.0359 3556674
-1096.8689 698.59222 2882.6868 3622467
-1078.808 698.59222 2882.6868 3622467
-1064.5145 701.07349 2892.9253 3688260
-1045.7657 700.65552 2891.2007 3688260
-1025.0585 698.88763 2883.9058 3951432
-1000.6565 694.49194 2865.7673 3819846
-984.53711 695.78925 2871.1204 3754309
-969.6806 698.04376 2880.4236 3753026
-949.93475 696.79749 2875.2808 3819076
-930.46924 695.71252 2870.804 4082505
-895.56805 682.8161 2817.5879 4082505
-873.72638 679.55841 2804.145 3357755
-855.7428 679.22913 2802.7864 3292219
-838.18237 679.22913 2802.7864 3094840
-815.45911 674.95575 2785.1526 3620927
-798.28076 675.18536 2786.1001 3686977
-788.40247 681.73767 2813.1377 4213321
-770.77728 681.73767 2813.1377 4081735
-749.33411 678.28174 2798.877 3950149
-737.05365 683.15277 2818.9768 3555134
-719.00513 682.78546 2817.4614 3423548
-702.18555 683.59613 2820.8064 3884099
-682.09155 681.17859 2810.8306 3884099
-658.70837 675.26105 2786.4126 4278857
-643.74908 677.89209 2797.269 4081478
-626.74249 678.4541 2799.5881 4081478
-610.30933 679.68701 2804.6758 3686720
-594.96277 682.23907 2815.2068 3094583
-576.89142 681.72717 2813.0945 3423548
-556.29437 678.10425 2798.1448 3423548
-538.16931 677.35681 2795.0605 3489341
-520.10223 676.63464 2792.0803 3620670
-502.51129 676.50305 2791.5376 3489341
-485.73068 677.49231 2795.6196 3292219
-468.2153 677.49231 2795.6196 3555391
-448.50784 674.19733 2782.0229 3621184
-421.75912 659.62341 2721.885 3884356
-416.87357 679.45563 2803.7209 3226426
-400.56787 681.60046 2812.5715 3423805
-382.5658 680.92334 2809.7773 3358012
-364.15158 679.41187 2803.5405 3489598
-346.61569 679.46906 2803.7764 3423805
-327.09692 675.43774 2787.1416 3423805
-314.9899 687.11981 2835.3467 3555391
-294.93216 681.81793 2813.469 3555391
-271.5162 667.58508 2754.7383 3423805
-258.72299 679.31146 2803.126 3292219
-237.89655 670.11719 2765.1868 3029047
-219.52724 666.94379 2752.0918 3094840
-202.51337 667.69824 2755.2051 3029047
-185.09723 667.14349 2752.916 3029047
-167.90338 667.35822 2753.802 3292219
-150.31859 665.89032 2747.7449 3489598
-133.10312 665.89032 2747.7449 3621184
-115.2514 662.2345 2732.6594 3555391
-98.130447 662.2345 2732.6594 3292219
-81.465561 665.96277 2748.0439 3094840
-63.828194 661.60907 2730.0786 3029047
-46.863991 663.59973 2738.293 2963254
-29.785709 665.34155 2745.4802 3358012
-12.596381 665.97369 2748.0889 3226426
4.6496816 670.07129 2764.9973 3160633
22.122557 674.62445 2783.7856 3029816
39.689777 676.77197 2792.6472 3292732
57.279545 677.87213 2797.187 3226938
75.121811 680.745 2809.0415 3029560
92.374016 678.19513 2798.5195 2963768
109.28096 674.32831 2782.5635 2832181
129.62587 689.82111 2846.4934 3621184
147.85002 691.64545 2854.0215 3621184
165.06609 688.86914 2842.5652 3358269
182.27432 686.60406 2833.2185 2897718
198.57115 681.61249 2812.6211 3424318
217.88467 686.94574 2834.6284 3621697
234.28391 682.97931 2818.2612 3687747
251.27039 681.16089 2810.7576 3819076
270.36691 684.92609 2826.2944 3424318
288.87363 686.82605 2834.1343 3424318
307.99506 689.88287 2846.748 3424318
323.53882 685.02997 2826.7231 3424318
340.27115 683.06677 2818.6221 3358525
358.0542 683.30249 2819.5947 3227196
372.52118 677.48523 2795.5903 2963767
394.46259 685.1734 2827.3149 2832181
409.93127 681.44092 2811.9133 2634802
428.62131 683.15039 2818.9673 2503216
448.67023 686.80463 2834.0459 2831925
461.64801 679.76855 2805.0122 2897717
482.56702 684.51294 2824.5896 2963767
494.42734 676.52667 2791.635 3490111
513.22687 678.25671 2798.7737 3621697
529.00677 676.01361 2789.5178 3358525
545.5036 674.8009 2784.5137 3358268
564.24701 676.35626 2790.9319 2963254
581.60718 676.2099 2790.3279 3555391
596.05273 672.78229 2776.1841 3423805
614.32251 673.74316 2780.1489 3686977
625.65192 667.24927 2753.3523 3686977
650.95801 675.60974 2787.8513 3555391
668.42474 675.60974 2787.8513 3489598
685.94977 675.66711 2788.0881 3621184
705.57037 677.73462 2796.6194 3555391
734.21704 688.16174 2839.6462 3884356
751.64923 687.83313 2838.2903 3884356
753.21503 673.336 2778.469 3686977
776.56274 678.52594 2799.8848 3555391
798.60419 682.3703 2815.7483 3489598
816.24567 682.3703 2815.7483 3752770
835.35675 683.57288 2820.7104 3950149
850.64966 681.66589 2812.8416 3950149
868.27301 681.66589 2812.8416 3818563
885.46082 681.33081 2811.4587 3752771
911.14954 687.4223 2836.595 3686979
924.84113 684.40259 2824.1343 3950664
936.28265 679.86243 2805.3997 4213836
961.39117 685.23071 2827.5515 3753284
979.10663 685.23071 2827.5515 3950406
994.12274 683.37512 2819.8945 4871252
1011.7903 683.37512 2819.8945 5002837
1039.8079 690.24567 2848.2454 4673873
1046.5374 682.99139 2818.311 4344907
1054.7112 676.90479 2793.1953 4213321
1077.1016 679.99207 2805.9346 4147527
1096.9366 681.39282 2811.7148 4015942
1114.553 681.39282 2811.7148 4081735
1132.9243 681.84729 2813.5901 4015942
1148.6769 680.73584 2809.0037 3950149
1169.5278 682.63379 2816.8354 4015942
1182.7947 680.11444 2806.4395 4015942
1189.365 673.87469 2780.6917 4081735
1207.5022 674.27411 2782.3398 4344907
1202.532 661.9425 2731.4546 4410699
1234.9398 670.24335 2765.7073 4081735
1258.8612 673.77228 2780.269 4015942
1275.2157 673.21008 2777.9495 4081735
1293.0793 673.44916 2778.9358 3752770
1315.4305 675.98798 2789.4119 3686977
1332.5856 675.82489 2788.739 3423805
1341.8604 671.72131 2771.8059 2897461
1360.3673 672.28503 2774.1321 3094583
1377.748 672.28503 2774.1321 3291962
1395.3202 672.3772 2774.5125 3291962
1400.5144 666.57587 2750.5737 2962997
1415.845 665.68134 2746.8823 2962997
1431.3551 664.89166 2743.624 3028790
1442.4659 662.10144 2732.1104 3752513
1485.7242 673.95953 2781.0417 4015685
1459.6218 654.44379 2700.5115 3357755
1498.1986 664.04285 2740.1213 3226169
1520.38 666.23987 2749.1873 3094583
1533.2568 664.35608 2741.4138 3226169
1548.86 663.68219 2738.6331 3226169
1568.395 664.68939 2742.7893 3226169
1582.9294 663.57843 2738.2051 3160376
1600.0851 663.57843 2738.2051 3357755
1617.0857 663.51477 2737.9424 3291962
1645.8932 668.24622 2757.4663 3357755
1661.5857 667.60986 2754.8403 3291962
1673.7961 665.60187 2746.5544 3029047
1701.3265 669.66486 2763.3201 2963254
1718.6395 669.66486 2763.3201 2962997
1733.0433 668.54254 2758.6892 2897204
1748.5326 667.85706 2755.8604 2897204
1766.2765 668.03766 2756.6057 2897204
1790.5276 670.65204 2767.3938 2962997
1804.9348 669.5647 2762.9067 3029047
1813.5941 666.38593 2749.7898 2963254
1835.535 668.1012 2756.8679 2634289
1863.7117 672.03308 2773.0923 2634546
1881.0859 672.03308 2773.0923 2634289
1897.5165 671.69904 2771.7139 2831668
1917.1295 672.4873 2774.9668 2436910
1951.7627 678.48285 2799.707 2634289
1960.2305 675.35687 2786.8079 2831668
1982.9834 677.16425 2794.2659 2831411
1997.3335 676.0957 2789.8564 2765875
2023.6462 679.05988 2802.0879 2634032
2043.0272 679.66699 2804.5933 2568496
2052.2112 676.90039 2793.177 2568239
2067.2148 676.08392 2789.8079 3094326
2073.7546 672.53625 2775.1687 3160376
2098.248 674.82166 2784.5994 3028790
2127.3157 678.52838 2799.8948 2633775
2149.1377 679.88232 2805.4817 2765618
2176.7366 683.02692 2818.4578 3160376
2189.2197 681.41608 2811.8105 3226169
2210.9766 682.6944 2817.0854 3291962
2229.8606 683.07245 2818.6455 3291962
2261.4219 687.29749 2836.0798 3489341
2279.1909 687.29749 2836.0798 2897204
2297.8445 687.56219 2837.1721 2897204
2318.05 688.28369 2840.1492 2962997
2337.2688 688.70337 2841.8811 3226426
2365.7622 691.82892 2854.7786 3160376
2385.54 692.37799 2857.0442 3094840
2392.0579 689.09894 2843.5134 3226426
2393.2043 684.33246 2823.845 3423548
2410.8967 684.33246 2823.845 3489341
2446.6489 689.42145 2844.8442 3489341
2482.6099 694.49518 2865.7805 3620927
2493.2117 692.453 2857.3535 3555134
2497.2673 688.63477 2841.5979 3489341
2502.7683 685.2663 2827.6982 3291962
2518.647 684.7666 2825.6365 3291962
2520.4651 680.47791 2807.9392 3357755
2537.0691 680.21283 2806.8455 3291962
2556.7422 680.76855 2809.1387 3225916
2579.5183 682.13739 2814.7871 3160379
2597.1538 682.13739 2814.7871 3225913
2600.6768 678.45575 2799.595 2963254
2604.0989 674.79724 2784.4985 3094584
2604.4839 670.40576 2766.3774 3160633
2620.7864 670.14246 2765.2908 3357754
2643.8376 671.59698 2771.293 3422521
2656.2712 670.35291 2766.1594 3422521
2673.4382 670.31189 2765.99 3356216
2697.6978 672.03815 2773.1133 3159352
2726.2207 674.79767 2784.5002 3159351
2730.6934 671.60693 2771.334 3225145
2768.1355 676.5141 2791.583 3290938
2754.8508 669.04016 2760.7424 3225145
2732.0491 659.36267 2720.8088 2896180
2765.907 663.39478 2737.447 2830643
2788.1631 664.61163 2742.4685 2699058
2784.5884 659.69409 2722.1768 2765108
nan nan nan 16777215
nan nan nan 16777215
nan nan nan 16777215
nan nan nan 16777215
nan nan nan 16777215
nan nan nan 16777215
nan nan nan 16777215
nan nan nan 16777215
nan nan nan 16777215
-2413.6741 652.62854 2625.5024 3555391
-2388.8647 650.35266 2616.3467 3226426
-2370.9851 649.94495 2614.7063 3292219
-2331.3652 643.53046 2588.9011 3621184
-2323.4429 645.83704 2598.1804 3686977
-2310.1521 646.6734 2601.5449 3884356
-2307.0103 650.38269 2616.4673 3752770
-2302.9912 653.89606 2630.6016 3752770
-2276.7805 651.11377 2619.4084 3423805
-2267.3469 653.12378 2627.4946 3357755
-2268.2063 658.14978 2647.7141 3753539
-2233.8042 652.94293 2626.7671 4016455
-2240.6917 659.81732 2654.4226 4082248
-2220.2371 658.68292 2649.8589 3884869
-2207.8643 659.94708 2654.9446 3424318
-2202.6082 663.37384 2668.7305 3490111
-2190.6292 664.81281 2674.5193 3424318
-2178.0896 666.10248 2679.7075 3292732
-2157.0867 664.80383 2674.4829 3358269
-2142.3564 665.43323 2677.0151 3687490
-2125.5842 665.43323 2677.0151 3687746
-2132.8608 673.02191 2707.5442 3292732
-2099.7561 667.8877 2686.8894 2832181
-2079.8667 666.90802 2682.9482 2832181
-2071.0654 669.49683 2693.3628 3226939
-2063.594 672.56152 2705.6921 3358525
-2018.6206 663.35327 2668.6475 3621697
-1989.422 659.2182 2652.0125 3753283
-1955.957 653.58801 2629.3623 3819076
-1962.0782 661.20233 2659.9944 3160376
-1945.1836 661.12451 2659.6812 3226426
-1928.641 661.16602 2659.8484 3686721
-1907.123 659.48779 2653.0967 3621184
-1886.7343 658.17395 2647.8113 3489598
-1876.2874 660.33569 2656.5078 3423805
-1853.6421 658.20465 2647.9348 3423805
-1832.4082 656.54077 2641.2412 3686977
-1820.9924 658.39655 2648.7068 3686977
-1804.1311 658.29932 2648.3157 3358012
-1778.6947 655.04242 2635.2131 3358012
-1770.3737 658.08655 2647.4597 3357755
-1753.4214 657.94958 2646.9087 3423805
-1737.7676 658.30182 2648.3257 3423805
-1721.175 658.30182 2648.3257 3489598
-1698.2216 655.84528 2638.4431 3555391
-1683.1487 656.41388 2640.7305 3489598
-1669.8386 657.68787 2645.856 3423805
-1656.1504 658.83716 2650.4792 3555391
-1646.2625 661.5368 2661.3398 3292219
-1629.5884 661.5368 2661.3398 3358012
-1611.3788 660.90704 2658.8064 3292219
-1601.6049 663.76013 2670.2842 3292219
-1589.7749 665.81232 2678.5403 3358012
-1559.4421 660.0766 2655.4656 3226426
-1543.4165 660.33832 2656.5186 3357755
-1530.9701 662.15375 2663.8218 3423548
-1519.1304 664.27448 2672.3535 3423805
-1504.4075 665.16772 2675.947 3489342
-1482.6731 662.94604 2667.0093 3489342
-1469.5201 664.55444 2673.48 3489342
-1458.9631 667.38745 2684.877 3555134
-1440.4409 666.60046 2681.7109 3621183
-1426.1692 667.78516 2686.4768 3489853
-1410.8872 668.51941 2689.4307 3423803
-1384.3309 663.86469 2670.7051 3358011
-1373.4028 666.68243 2682.0408 3226680
-1351.7192 664.28436 2672.3933 3160630
-1313.6858 653.69043 2629.7744 3424314
-1313.8787 662.09045 2663.5671 3357756
-1301.7469 664.41595 2672.9226 3489598
-1283.0325 663.39844 2668.8293 3489598
-1273.603 667.21844 2684.197 3424062
-1254.8591 666.19562 2680.0823 3424062
-1242.1318 668.38263 2688.8804 3424061
-1236.0208 674.23877 2712.4395 3753540
-1218.571 673.98688 2711.4263 3819076
-1201.5833 673.98688 2711.4263 3556161
-1187.193 675.46497 2717.3723 3621953
-1178.3269 680.17462 2736.3193 3491138
-1163.4318 681.49182 2741.6184 3622467
-1146.2546 681.49182 2741.6184 3490881
-1128.2275 680.97882 2739.5544 3227709
-1118.4946 685.53351 2757.8777 3688517
-1101.0265 685.41577 2757.4041 3754053
-1085.012 686.2135 2760.6135 3819846
-1070.6093 688.07306 2768.0945 3754053
-1053.3806 688.14777 2768.395 3622467
-1039.8429 690.67651 2778.5681 3951432
-1022.4344 690.67651 2778.5681 3951432
-1007.0705 692.08167 2784.2209 3819846
-984.45026 688.46179 2769.6582 3556674
-967.51111 688.75623 2770.8428 3425088
-954.18146 691.67798 2782.5967 3688260
-934.5412 690.04871 2776.0425 3621697
-915.71893 688.97327 2771.7158 3884869
-900.04614 690.27155 2776.9387 4016455
-874.16443 683.63721 2750.249 3687747
-864.42737 689.61578 2774.3008 3094840
-831.47321 676.93774 2723.2974 2963254
-810.01862 673.2868 2708.6099 3094840
-797.19049 676.80347 2722.7571 3818563
-782.2193 678.61469 2730.0437 3489598
-764.91205 678.43488 2729.3203 3029047
-738.50842 669.99445 2695.3647 3160633
-721.59363 669.96887 2695.262 3226169
-713.52856 678.35565 2729.0015 3226170
-705.04694 686.74841 2762.7654 3423548
-687.73737 686.74841 2762.7654 3818306
-662.31989 678.44312 2729.3535 4147271
-640.66321 673.6521 2710.0793 4081478
-627.24237 677.49591 2725.5427 3752513
-610.98218 678.4021 2729.1885 3620927
-589.9668 673.92865 2711.1919 2502446
-583.43677 686.22729 2760.6689 3489341
-566.00958 686.06879 2760.0312 3423805
-541.50623 677.05292 2723.7607 3489341
-521.19189 672.85828 2706.886 3555391
-504.0863 672.66327 2706.1013 3555391
-486.81479 672.22565 2704.3408 3424062
-470.91998 673.72601 2710.3767 3423805
-453.34341 672.84259 2706.8228 3489598
-433.78769 668.83899 2690.7163 3686977
-415.16452 666.00751 2679.3254 3752770
-400.83813 670.12085 2695.8733 3292219
-385.29578 672.47382 2705.3391 3358012
-369.45679 674.50177 2713.4976 3423805
-353.02121 675.58362 2717.8499 3226426
-334.54904 672.68011 2706.1692 3094840
-317.37903 672.22473 2704.3372 3160633
-300.31104 671.94623 2703.2168 3226426
-281.32898 667.0957 2683.7034 3555391
-262.9115 663.05237 2667.437 3489598
-245.98885 662.4859 2665.1582 3292219
-228.51854 660.25464 2656.1819 3292219
-211.94386 660.46381 2657.0234 3358012
-195.20996 660.17017 2655.842 3095097
-180.16974 666.08331 2679.6304 3160633
-163.38103 666.08331 2679.6304 3423805
-145.03966 659.02832 2651.2485 3292219
-128.57765 659.79242 2654.3223 3358012
-112.4164 662.55597 2665.4402 3621184
-95.766838 662.90381 2666.8394 3489598
-78.938538 661.8999 2662.8008 3292219
-61.710972 656.11304 2639.5203 3489598
-44.928143 652.54846 2625.1802 3621184
-28.546297 654.05432 2631.2383 3423805
-12.143935 658.56415 2649.3811 3292219
4.4835291 662.74304 2666.1926 3358012
21.236553 664.26007 2672.2957 3358525
38.027637 665.10529 2675.6958 3358525
54.927883 666.7583 2682.3459 3687490
71.733612 666.7583 2682.3459 3555904
88.890358 669.40173 2692.9802 3358525
106.3728 673.26312 2708.5146 3292732
123.76683 675.57947 2717.833 3358525
143.52129 688.6615 2770.4617 3490111
159.74553 683.8092 2750.9412 3490367
176.87857 683.41333 2749.3484 3621697
194.80945 685.89679 2759.3394 3555904
212.09756 685.89679 2759.3394 3753283
228.82193 684.21112 2752.5579 3687490
247.65138 688.61511 2770.2749 3950662
264.44455 687.15088 2764.3845 3884869
279.97116 682.77795 2746.7922 3687490
299.45029 687.99249 2767.7703 3621697
314.72678 683.50897 2749.7332 3490367
332.03067 683.66541 2750.3625 3555904
343.4194 672.22772 2704.3491 3687490
364.80228 680.50885 2737.6638 3226939
377.06985 671.80591 2702.6523 2897974
397.59216 677.92609 2727.2734 2569266
414.67938 677.92609 2727.2734 2503473
430.64478 676.16467 2720.1873 2569266
446.27774 674.03534 2711.6211 2634802
467.0452 679.53259 2733.7363 2569265
481.41934 675.66797 2718.1892 3161146
494.81476 670.74078 2698.3672 3161403
511.72086 670.74078 2698.3672 3160890
526.63953 668.21906 2688.2224 3160632
546.02612 671.34705 2700.8062 3160633
562.94757 671.34705 2700.8062 3160633
576.43274 667.36871 2684.8015 2963254
600.18384 675.16449 2716.1636 3094840
617.17505 675.13568 2716.0476 3489598
628.41351 668.98413 2691.3003 3423805
644.76318 668.45319 2689.1643 3226426
668.16113 675.07043 2715.7852 3489598
685.17639 675.07043 2715.7852 3358012
712.51361 684.99371 2755.7063 3358012
708.88586 665.38281 2676.8123 3555391
722.83002 662.79065 2666.3843 3686977
749.09467 671.35767 2700.8489 3686977
774.96716 679.20245 2732.4082 3752770
784.30872 672.53302 2705.5774 3555648
803.3175 674.26001 2712.5249 4015942
834.94354 686.28613 2760.9058 4081735
851.60925 685.7771 2758.8579 3884356
860.64795 679.26862 2732.6743 3752770
876.80389 678.52179 2729.6699 3555391
913.89594 693.69501 2790.7114 3818819
927.94159 691.13373 2780.4072 4279371
930.62372 680.35907 2737.0613 4410701
950.54065 682.34631 2745.0559 4542544
963.34467 679.24774 2732.5906 4476751
