# .PCD v0.7 - Point Cloud Data file format
VERSION 0.7
FIELDS x y z rgb
SIZE 4 4 4 4
TYPE F F F U
COUNT 1 1 1 1
WIDTH 1270
HEIGHT 1
VIEWPOINT 0 0 0 1 0 0 0
POINTS 1270
DATA ascii
-1685.6472 1020.9436 9701.7314 3753283
-1674.4493 1052.1 9997.8018 3753283
-1586.5349 1035.6018 9841.0244 3819333
-1514.1741 1028.3326 9771.9463 4016455
-1401.1215 991.65076 9423.3701 4148041
-1326.0747 979.82379 9310.9814 4213834
-1287.0181 994.72467 9452.5811 3950662
-1225.8629 993.15973 9437.709 4213834
-1149.4746 978.46899 9298.1074 4148041
-1094.1339 981.0827 9322.9443 3885126
-1017.0141 963.36096 9154.54 3950919
-951.63391 955.30591 9077.9951 4148298
-892.578 952.97894 9055.8828 4082248
-827.55249 943.52985 8966.0908 4148041
-768.1629 939.59821 8928.7295 4082248
-708.55005 934.75446 8882.7012 3885125
-648.5849 928.58057 8824.0322 4015942
-591.25116 925.37457 8793.5664 4016711
-535.21179 923.74359 8778.0674 4147272
-452.8504 871.1059 8277.8672 4410700
-345.8717 751.37323 7140.082 3621185
-303.71036 757.79437 7201.1001 2895664
-259.9931 761.89667 7240.0835 3950149
-241.67749 857.90326 8152.4058 4345163
-199.5088 898.00177 8533.4502 4411470
-147.49127 906.90021 8618.0098 4214607
-94.267036 914.37158 8689.0088 4279886
-40.00507 918.44366 8727.7041 4016458
14.820781 927.45984 8813.3818 4082251
70.436859 932.72363 8863.4023 4213837
126.76727 938.63556 8919.582 4016714
182.8692 939.75586 8930.2275 3950664
240.47655 946.27502 8992.1768 3753543
297.5647 948.66406 9014.8799 3950408
343.55927 920.56561 8747.8682 3950151
409.66141 946.66443 8995.8779 3949895
456.17078 926.65015 8805.6875 3752516
504.20377 913.71588 8682.7773 3686979
558.62219 913.74548 8683.0586 3555648
609.414 908.3642 8631.9219 3818563
649.66003 889.42242 8451.9238 3950406
670.33093 848.55621 8063.5835 3818563
720.85181 848.55621 8063.5835 3818563
748.86322 823.79443 7828.2798 3950149
764.50531 789.30627 7500.5488 4016199
796.01672 774.2478 7357.4526 4081735
815.07159 749.38519 7121.1904 4016456
849.38934 740.4079 7035.8818 3950665
859.40936 712.18121 6767.6519 4081742
829.49298 655.07013 6224.9419 3818316
808.9978 610.1944 5798.5005 1778221
820.75861 592.45972 5629.9731 133397
837.30933 579.50171 5506.8369 593954
872.32343 579.84204 5510.0708 857385
901.41132 576.36719 5477.0508 923179
937.5553 577.49359 5487.7539 791593
965.46558 573.64801 5451.2109 923181
994.87573 570.92596 5425.3438 726572
1029.1626 571.08978 5426.9009 923951
1057.0431 567.802 5395.6582 858159
1089.2256 566.95728 5387.6309 857903
1116.993 563.93427 5358.9038 923952
1147.3301 562.34711 5343.8213 792364
1178.0828 561.04791 5331.4761 726824
1215.4539 562.88544 5348.937 463649
1239.2874 558.52319 5307.4839 1713715
nan nan nan 16777215
nan nan nan 16777215
1789.053 746.22321 7091.1431 3490630
1981.4272 806.43695 7663.3369 3556423
2037.1783 809.51178 7692.5557 3359041
2156.6575 837.1828 7955.5054 3293249
2210.3728 838.65173 7969.4644 3556421
2313.4561 858.37299 8156.8701 3688007
2415.0457 876.69952 8331.0215 3688006
2534.7883 900.70105 8559.1016 3622213
2630.6816 915.40924 8698.8691 3622213
2760.8574 941.2077 8944.0234 3622213
2908.6843 971.87732 9235.4688 3622213
3060.5964 1002.689 9528.2627 3622213
3206.9436 1030.5333 9792.8594 3622470
3379.583 1065.6226 10126.302 3622469
3476.511 1075.9856 10224.78 3819592
3605.9221 1095.8456 10413.503 3819593
3733.5566 1114.4692 10590.479 3688007
3872.6372 1135.7994 10793.174 3688007
3970.8362 1144.6133 10876.929 3622214
4066.1902 1152.3235 10950.196 3819593
4166.8877 1161.267 11035.184 3753800
4249.6206 1164.9938 11070.598 3885386
4253.8218 1147.4176 10903.577 3753800
4198.8525 1114.689 10592.566 3819591
4280.3066 1118.6322 10630.038 3819592
4432.9443 1140.7731 10840.436 3622213
4281.0342 1085.056 10310.973 3687492
4128.1641 1030.7556 9794.9727 3687749
4152.7241 1021.6996 9708.916 3884871
4248.0562 1030.0659 9788.418 3819335
4282.6689 1023.6804 9727.7383 3884871
4273.4707 1007.1488 9570.6436 3687492
4215.5342 979.74744 9310.2559 3819078
4260.4648 976.67529 9281.0625 3885128
4342.5205 982.08197 9332.4404 4016714
4550.5278 1015.451 9649.5371 4016714
4429.1582 975.40833 9269.0225 3950921
3995.2209 868.45801 8252.7051 3687748
3613.2478 775.39178 7368.3237 3621443
3699.6848 783.92505 7449.4131 3752259
3349.1653 700.81262 6659.6191 3884102
nan nan nan 16777215
nan nan nan 16777215
2511.2932 506.55557 4813.6509 2961972
2672.5674 532.68909 5061.9902 2961973
2675.4106 527.00201 5007.9473 3422780
nan nan nan 16777215
nan nan nan 16777215
4654.5317 885.68781 8416.4346 4014148
4833.3911 909.41919 8641.9473 4080967
5179.4434 963.73419 9158.0869 3949638
5313.019 977.75684 9291.3398 4015431
5797.3369 1055.3232 10028.431 4015431
5831.5762 1050.1743 9979.502 3949638
5902.8833 1051.739 9994.3711 3949895
6168.9644 1087.6102 10335.245 3949895
6349.6187 1107.8318 10527.404 3950151
6500.2422 1122.4518 10666.334 3884358
6699.4814 1145.0836 10881.398 3950151
6858.2456 1160.4114 11027.053 3950151
7052.2349 1181.3337 11225.872 4015944
7148.4219 1185.6217 11266.62 4015944
7215.1484 1184.9874 11260.592 4015944
7320.0288 1190.5709 11313.65 4015944
7518.3989 1211.1072 11508.801 4015944
7673.1792 1224.2983 11634.152 4015944
7820.7236 1236.0975 11746.276 4081737
8065.7002 1262.9326 12001.283 4015944
8183.9023 1269.6051 12064.689 3884358
8229.8359 1265.0466 12021.371 3884358
8318.2842 1267.0468 12040.378 3884358
8260.1514 1246.884 11848.778 3818565
8334.3877 1246.884 11848.778 3884358
8545.7705 1267.2211 12042.034 3884359
8555.2598 1257.526 11949.905 3818051
8478.6201 1235.449 11740.114 3818562
8484.8965 1225.7299 11647.756 3752514
8457.1416 1211.3022 11510.654 3818307
8426.6533 1196.7305 11372.183 3752514
8496.5117 1196.5343 11370.319 3818051
8580.5576 1198.323 11387.316 3818051
8651.3975 1198.2532 11386.652 3884100
8706.8389 1196.069 11365.896 3818306
8776.1074 1195.8043 11363.382 3818306
8717.6328 1178.2781 11196.835 3884099
8881.1719 1190.7996 11315.823 3818306
8990.8955 1195.9642 11364.902 3818306
9199.4375 1214.0892 11537.139 3752513
9301.7217 1218.0177 11574.47 3818306
9389.5547 1220.0077 11593.379 3818306
9499.2227 1224.7823 11638.752 3818306
9633.8545 1232.6785 11713.786 3752513
9563.918 1214.478 11540.833 3686720
9271.79 1168.5475 11104.368 3883585
9391.1533 1174.776 11163.556 3949122
9605.6621 1192.7266 11334.135 4212294
9676.999 1192.7665 11334.515 4080708
9629.5166 1178.2673 11196.733 4080708
10172.709 1235.7301 11742.785 4080452
10307.382 1243.099 11812.81 4211783
9597.3779 1149.2188 10920.692 3949896
10271.236 1221.2024 11604.732 4081225
10397.631 1227.5406 11664.963 4081481
10707.525 1255.3031 11928.782 4147274
10673.922 1242.6898 11808.921 4212810
10690.469 1236.0486 11745.812 4475982
10033.023 1152.1028 10948.1 4475982
10840.913 1236.4207 11749.347 4870739
11119.432 1259.6326 11969.924 5002328
11362.891 1278.5887 12150.059 5199706
11774.476 1316.0848 12506.372 5331292
11607.426 1288.8359 12247.435 5397085
11649.398 1285.0015 12210.997 5528672
11798.944 1293.0059 12287.06 5528671
11875.927 1293.0059 12287.06 5265499
12110.713 1310.0762 12449.274 5002329
12387.048 1331.3939 12651.851 5133658
12441.812 1328.777 12626.982 5068376
13129.463 1393.3578 13240.676 4805204
13212.419 1393.3578 13240.676 4278861
13147.091 1377.8175 13093.001 4147274
13205.193 1375.3253 13069.318 3949896
13752.936 1423.5455 13527.541 3818053
15415.906 1585.9039 15070.386 3948869
nan nan nan 16777215
nan nan nan 16777215
nan nan nan 16777215
nan nan nan 16777215
-5755.8257 674.88336 6054.6499 3884358
-6075.5352 717.09601 6433.3569 3884358
-6249.0903 742.50684 6661.3271 3884358
-6258.6362 748.64093 6716.3589 3950151
-6282.9209 756.63306 6788.0591 3884358
-6264.2256 759.52289 6813.9849 3752772
-6218.3501 759.13416 6810.498 3621443
-6175.6802 759.13416 6810.498 3752772
-6261.5586 775.04559 6953.2461 3621186
-6229.1128 776.43152 6965.6797 3555650
-6233.6606 782.48059 7019.9478 3621186
-6213.7124 785.51892 7047.2061 3686979
-6217.897 791.67334 7102.4194 3752260
-6144.9819 788.02917 7069.7271 3686465
-6207.7241 801.85516 7193.7651 3620671
-6184.8179 804.73914 7219.6382 3489341
-6176.0698 809.52136 7262.542 3489341
-6182.9043 816.43231 7324.5425 3555134
-6137.6953 816.52295 7325.356 3489341
-6260.1089 839.08252 7527.7471 3489341
-6396.2964 863.84485 7749.8994 3489341
-6457.1792 878.73798 7883.5117 3489341
-6471.7622 887.51129 7962.2207 3489341
-6375.0059 881.03375 7904.1079 3489341
-6254.5161 871.14905 7815.4287 3489341
-6218.9468 873.02966 7832.3008 3358269
-6244.583 883.60077 7927.1382 3292219
-6204.0957 884.90991 7938.8833 3226426
-6135.6484 882.22009 7914.751 3358012
-6035.7432 874.92633 7849.3159 3489598
-5938.7734 867.94171 7786.6538 3423551
-5830.7227 859.2085 7708.3047 3292991
-5752.0034 854.68768 7667.7471 3884871
-5619.9126 842.09363 7554.7603 3819078
-5422.959 819.48376 7351.9185 3819078
-5165.8223 787.31427 7063.313 3753542
-4957.6323 762.11316 6837.2236 3950664
-4870.8447 755.29803 6776.0825 3753285
-4746.4243 742.47614 6661.0522 3819078
-4603.7495 726.54596 6518.1362 3753285
-4507.6519 717.74707 6439.1978 3621699
-4330.7305 695.80359 6242.334 3687492
-4099.9805 664.73291 5963.5864 3884871
-3835.1233 627.51001 5629.6445 3819078
-3400.1367 561.50085 5037.4497 3753542
-3311.6934 552.01917 4952.3862 3556163
-3113.1663 523.83514 4699.5356 3556420
-3021.4246 513.25256 4604.5952 3622213
-2706.0166 464.10526 4163.6748 4411729
-2679.9299 464.10526 4163.6748 4872280
-2663.6362 465.81787 4179.0396 4740694
-2791.5989 493.04254 4423.2827 4345936
nan nan nan 16777215
nan nan nan 16777215
-3931.9355 715.76178 6421.3867 3490111
-4115.1929 756.86584 6790.1479 3555904
-4176.6333 776.19012 6963.5137 3753283
-4182.5015 785.48578 7046.9092 3950662
-4164.2949 790.41022 7091.0879 3950663
-4239.8096 813.42163 7297.5327 4016458
-4241.6426 822.64453 7380.2744 4016457
-4264.709 836.23425 7502.1934 3753286
-4342.3809 860.95331 7723.9585 3687493
-4338.1626 869.81049 7803.4194 3687489
-4346.2041 881.35559 7906.9956 3687490
-4371.1318 896.6308 8044.0356 3687491
-4259.27 883.8761 7929.6079 4016455
-4216.4946 885.32605 7942.6162 4082505
-4223.1431 897.31213 8050.1479 4148041
-4242.5493 912.33136 8184.8911 4082248
-4214.4673 917.38116 8230.1953 3950662
-4215.2944 928.9267 8333.7754 3950660
-4187.8643 934.45679 8383.3877 3819074
-4163.3198 940.77942 8440.1104 3753024
-4129.6533 945.177 8479.5625 3818817
-4112.125 953.43079 8553.6113 3818817
-4056.4128 952.9325 8549.1406 3818817
-4015.8054 956.01672 8576.8105 3819074
-3959.595 955.4198 8571.4551 3884867
-3882.5405 949.70776 8520.21 3884869
-3806.8452 944.17352 8470.5605 4082248
-3753.7749 944.17352 8470.5605 4016455
-3733.6235 952.57239 8545.9102 4148042
-3693.1089 955.94476 8576.165 4148041
-3627.7566 952.89258 8548.7822 4213834
-3566.8235 950.927 8531.1484 4082249
-3513.3728 950.927 8531.1484 4213834
-3473.9844 954.79175 8565.8203 4016968
-3420.3169 954.79175 8565.8203 3819846
-3365.7183 954.52765 8563.4512 3819846
-3272.1035 943.01074 8460.1279 4017225
-3212.5369 941.08868 8442.8848 4148811
-3164.1978 942.44623 8455.0645 4083018
-3132.1382 948.78149 8511.9004 3951175
-3110.7874 958.63629 8600.3115 4016970
-3058.7231 959.20673 8605.4297 4016713
-3011.9861 961.49841 8625.9893 3819846
-2972.1663 966.12219 8667.4707 3753542
-2921.5547 967.34497 8678.4404 3753542
-2865.1479 966.65887 8672.2852 3950664
-2814.3484 967.87451 8683.1914 3885127
-2766.3003 970.10309 8703.1846 3753540
-2705.1521 967.73486 8681.9385 3688517
-2661.6016 971.69397 8717.457 3754310
-2603.4358 970.37146 8705.5928 3622724
-2523.3364 960.64209 8618.3066 3950405
-2474.7256 962.73724 8637.1035 3818819
-2461.3796 978.95166 8782.5693 3884869
-2407.5916 979.4552 8787.0869 3819076
-2353.417 979.82135 8790.3711 3687490
-2298.3474 979.8233 8790.3887 3621697
-2218.3865 968.95337 8692.8701 3819076
-2163.2349 968.64526 8690.1064 3885125
-2116.5332 972.20264 8722.0205 3884869
-2047.0192 965.19226 8659.1279 4015686
-2003.4463 970.36475 8705.5322 3818819
-1959.7723 975.77631 8754.082 3686977
-1903.4695 975.0307 8747.3926 3818564
-1848.6646 975.0307 8747.3926 3752770
-1801.11 978.97174 8782.749 3686977
-1765.6697 989.95312 8881.2676 3686721
-1706.4668 987.89276 8862.7832 3621185
-1651.4551 988.20178 8865.5557 3490111
-1606.0095 994.45575 8921.6621 3621697
-1563.6881 1003.1649 8999.7959 3819076
-1536.7184 1022.7429 9175.4375 3884869
-1471.0383 1017.0782 9124.6172 4082248
-1387.0951 997.81763 8951.8232 4148041
-1295.2795 971.03229 8711.5205 4016455
-1239.1184 969.79498 8700.4209 3884869
-1208.2039 989.11243 8873.7256 4016455
-1144.0636 981.7807 8807.9492 3950662
-1076.9342 971.01062 8711.3271 3819076
-1018.976 967.80139 8682.5352 3819076
-956.23846 959.43469 8607.4746 3819076
-885.99207 942.0838 8451.8125 3950662
-828.98499 937.49927 8410.6826 4148041
-771.89362 932.19061 8363.0566 4148041
-719.49652 932.19061 8363.0566 4082248
-682.21143 953.3078 8552.5078 3884356
-604.69049 917.00787 8226.8467 3556160
-547.77246 908.09845 8146.9165 3753284
-496.72955 908.09845 8146.9165 3884100
-411.75827 838.96857 7526.7246 3885380
-347.9617 800.68054 7183.2271 3621694
-300.5354 794.28174 7125.8208 2828846
-254.23669 789.15009 7079.7832 3883586
-214.62569 806.99518 7239.8784 4015685
-177.51981 846.34827 7592.9302 3687490
-135.05565 879.61591 7891.3882 3687490
-87.611755 900.14496 8075.562 3687490
-37.054092 901.07483 8083.9043 3819076
13.651797 904.90094 8118.23 3819076
65.212357 914.68182 8205.9785 3753283
117.72453 923.30255 8283.3184 3819076
173.52098 944.52533 8473.7168 3819076
225.52989 940.01746 8433.2744 3556161
278.55042 940.63684 8438.8311 3556160
332.16544 942.74603 8457.7539 3490366
385.15591 942.74603 8457.7539 3358524
437.89685 942.20923 8452.9375 3490368
487.36456 935.50513 8392.793 3621183
541.23199 937.72974 8412.751 3686976
584.01904 922.06549 8272.2207 3621184
609.82385 884.32831 7933.665 3621184
625.36359 838.51538 7522.6592 3753027
677.22772 844.41608 7575.5962 3818563
709.9314 827.21783 7421.3042 3818307
736.6698 805.61035 7227.4546 3884356
761.69421 784.73969 7040.2153 4015942
789.46851 768.83179 6897.4995 3818566
827.242 763.80762 6852.4253 3818566
831.64099 729.98419 6548.9819 3884107
814.19196 681.06573 6110.1147 3686730
803.05511 641.5838 5755.9062 1646636
802.61792 613.67633 5505.5371 133655
835.87909 612.77264 5497.4302 659748
855.6084 602.41302 5404.4893 857127
898.02393 608.20691 5456.4688 988459
932.11688 608.146 5455.9219 922153
959.65033 603.96094 5418.3765 791852
991.00433 602.38434 5404.2319 725802
1024.4949 602.1676 5402.2881 856878
1057.0431 601.42865 5395.6582 988721
1087.8658 599.78418 5380.9048 857389
1113.1586 595.28125 5340.5078 725801
1144.8356 594.35559 5332.2031 660263
1176.0897 593.26923 5322.4565 792103
1222.2563 599.55774 5378.8735 463390
1248.788 596.13556 5348.1719 2042163
1247.0483 579.74908 5201.1621 3752781
1546.8131 700.7962 6287.1245 3621704
1758.4902 776.91351 6970.0034 3556165
1805.4043 778.31238 6982.5532 3490371
1878.5176 790.6723 7093.4395 3424834
2011.004 826.87372 7418.2168 3490370
2066.9287 830.67047 7452.2788 3556677
2177.8232 855.90314 7678.6509 3622725
2340.0852 899.79645 8072.4355 3753798
2450.0762 922.15887 8273.0586 3688262
2519.762 928.73907 8332.0918 3688262
2646.4167 955.62354 8573.2832 3622212
2745.5928 971.71332 8717.6309 3687748
2856.9607 991.40607 8894.3027 3622212
2980.5081 1014.491 9101.4062 3490626
3057.5769 1021.186 9161.4697 3292991
3136.4451 1028.224 9224.6113 3161662
3181.5447 1024.1373 9187.9482 3095868
3308.7231 1046.1475 9385.4102 3161662
3418.0637 1061.8477 9526.2617 3227455
3500.3047 1068.7345 9588.0469 3293249
3606.5149 1082.584 9712.2969 3358785
3489.7827 1030.1627 9242.0039 3359298
3547.6868 1030.1627 9242.0039 3425093
3697.7307 1056.4883 9478.1807 3293250
3781.417 1063.322 9539.4893 3227712
3956.1765 1095.1542 9825.0684 3424834
3732.082 1017.2911 9126.5283 3293505
3704.1411 994.43896 8921.5117 3687492
3720.1492 983.88959 8826.8691 3687492
3740.5161 974.7851 8745.1895 3555906
3802.5632 976.64868 8761.9082 3555906
3841.5957 972.63226 8725.875 3555906
3806.551 950.23651 8524.9541 3490369
3813.3171 938.75354 8421.9355 3424577
3844.4656 933.50433 8374.8428 3489857
3909.2864 936.46277 8401.3838 3423807
3726.2292 880.75269 7901.5869 3292221
3539.9673 825.7558 7408.188 3358015
3443.4231 792.84003 7112.8867 3620930
3342.1396 759.68793 6815.4658 3621699
3379.1946 758.42072 6804.0972 3752260
3330.6384 738.21014 6622.7798 3686723
2596.2334 568.35425 5098.9346 3949125
2657.3413 574.66058 5155.5112 3751489
2679.9497 572.58972 5136.9326 2896178
2660.7878 561.74933 5039.6792 2764848
2692.363 561.74933 5039.6792 3159864
2706.7869 558.21234 5007.9473 3686466
nan nan nan 16777215
3934.24 792.96252 7113.9858 3949638
nan nan nan 16777215
nan nan nan 16777215
4372.0859 852.2467 7645.8477 4015688
4995.2778 963.17175 8641.001 3818052
5129.876 978.51935 8778.6904 3818309
5273.0884 995.16718 8928.0449 3949638
5362.6021 1001.4373 8984.2969 3883845
5542.5806 1024.2957 9189.3682 3818308
5631.1758 1029.9696 9240.2715 3687236
5713.3467 1034.3649 9279.7031 3686979
5931.9561 1063.1243 9537.7148 3686979
6161.5054 1093.2509 9807.9932 3686979
6308.0093 1108.1931 9942.0469 3818565
6406.416 1114.4761 9998.4131 3686979
6572.6689 1132.3257 10158.55 3686979
6729.6445 1148.2501 10301.414 3686979
6831.3188 1154.5258 10357.715 3621186
7104.167 1189.3403 10670.05 3555393
7182.2773 1191.2076 10686.803 3489600
7292.3105 1198.2861 10750.307 3621186
7333.4932 1194.025 10712.078 3621186
7381.3428 1190.9167 10684.192 3555393
7450.7695 1191.3145 10687.761 3686979
7519.2729 1191.5585 10689.951 3621186
7620.7041 1196.9703 10738.503 3686723
7668.7002 1193.968 10711.567 3818052
7385.4536 1139.8927 10226.437 3752516
7405.0962 1133.0944 10165.445 3752259
7451.6323 1130.4921 10142.099 3818564
7306.2515 1099.064 9860.1455 3752258
7390.9614 1102.4849 9890.835 3752258
7454.3979 1102.7019 9892.7822 3752514
7709.8101 1131.0795 10147.369 3752258
7775.3154 1131.3602 10149.888 3818051
7840.0122 1131.5197 10151.317 3621185
7835.8198 1121.814 10064.244 3686721
7817.5679 1110.2665 9960.6475 3818306
7879.9746 1110.2665 9960.6475 3620927
7942.2056 1110.2419 9960.4268 3620927
7908.8633 1096.9618 9841.2852 3489341
7970.0508 1096.8969 9840.7031 3555134
7930.1353 1083.0254 9716.2559 3620927
7992.2686 1083.1958 9717.7852 3620927
7969.0352 1071.8813 9616.2793 3686977
8029.2837 1071.8813 9616.2793 3685951
8420.7539 1115.7689 10010.012 3751743
8469.2051 1113.8928 9993.1797 3685950
8492.8477 1108.8053 9947.5381 3751743
8555.1709 1108.8052 9947.5371 3685950
8936.8242 1149.8928 10316.151 3817536
9173.9082 1171.9226 10513.788 3817537
9242.9951 1172.3303 10517.446 3883072
9337.4863 1175.9316 10549.755 3948611
9567.5361 1196.4341 10733.691 3883075
9623.8193 1195.0723 10721.474 3751232
9365.4922 1154.9323 10361.361 3489344
9441.4385 1156.283 10373.479 3423551
8930.0283 1086.1742 9744.5049 3489344
9380.8213 1133.2568 10166.903 3291965
10019.363 1202.2329 10785.715 3291964
10256.734 1222.4703 10967.273 3555136
10409.229 1232.3896 11056.263 3620929
9546.8027 1122.8115 10073.193 3423551
9573.6055 1118.5691 10035.134 3423551
9741.1895 1130.7236 10144.177 3555137
9934.7041 1145.7109 10278.634 3620930
10384.06 1189.8198 10674.353 3818054
10620.094 1209.0779 10847.124 3818055
10693.313 1209.6729 10852.461 3883849
11489.515 1291.5302 11586.837 3883849
11471.388 1281.3962 11495.921 4015435
11223.31 1245.8625 11177.134 3949385
12253.219 1351.7551 12127.139 4080716
12299.618 1348.5118 12098.042 4080972
12162.887 1325.3531 11890.276 4278095
nan nan nan 16777215
nan nan nan 16777215
nan nan nan 16777215
nan nan nan 16777215
nan nan nan 16777215
-5864.0273 730.82971 6209.3926 3358014
-5899.5068 740.16199 6288.6826 3358014
-5911.4863 746.65149 6343.8203 3357758
-5892.2969 749.2655 6366.0298 3357501
-5882.7769 753.15308 6399.0596 3357502
-5857.394 755.04919 6415.1699 3423294
-5903.1426 766.20404 6509.9453 3489087
-5832.6382 762.31995 6476.9448 3291708
-5856.3779 770.7854 6548.8706 3423037
-5887.5566 780.35626 6630.188 3489087
-5872.2153 783.85345 6659.9014 3423294
-5874.8984 789.82379 6710.6279 3423294
-5904.5942 799.53815 6793.1641 3423294
-5904.1226 805.27881 6841.939 3094329
-5906.5488 811.50171 6894.811 3094583
-5911.0776 818.10724 6950.9336 3094583
-5892.895 821.64404 6980.9844 3291962
-5883.6865 826.49463 7022.1958 3423548
-5921.4536 838.06647 7120.5151 3357755
-5960.3877 849.98071 7221.7422 3555134
-5962.7432 856.82092 7279.8594 3292219
-5950.6255 861.67078 7321.0654 3292219
-5930.1362 865.37433 7352.5322 3292476
-5861.1123 861.99786 7323.8447 3358012
-5792.415 858.61658 7295.1157 3423805
-5817.1538 869.14178 7384.542 3292219
-5773.2822 869.5025 7387.6064 3226426
-5718.5605 868.22168 7376.7241 3160633
-5573.4805 853.08948 7248.1558 2897460
-5531.5391 853.62506 7252.7065 2568498
-5563.8638 865.7251 7355.5127 2437169
-5407.9336 848.49072 7209.083 2568755
-5178.3208 819.30786 6961.1353 3226941
-5049.7803 805.75671 6845.9995 3490370
-4910.98 790.32227 6714.8628 3490114
-4735.3843 768.64856 6530.7148 3490114
-4652.1206 761.71484 6471.8037 3490113
-4588.3105 757.87256 6439.1582 3556163
-4466.603 744.31403 6323.96 3556163
-4277.9512 719.25745 6111.0703 3621699
-4008.5151 680.04315 5777.8916 3424577
-3846.8835 658.56982 5595.4468 3490113
-3603.959 622.65656 5290.3145 3489856
-3480.4126 606.89301 5156.3818 3424320
-3308.7717 582.36908 4948.0176 3292991
-3085.782 548.258 4658.1973 3359297
-2984.9546 535.40753 4549.0156 3425089
-2564.9836 464.51315 3946.6714 4214348
-2664.4893 487.23047 4139.6855 4806485
-2734.3567 504.92148 4289.9946 4740438
-2771.9854 516.95142 4392.2056 4148301
-2619.3518 493.38458 4191.9731 3622468
nan nan nan 16777215
nan nan nan 16777215
-3700.9836 718.74249 6106.6948 3688260
-3932.7764 771.73547 6556.9424 3622724
-3941.0798 781.52856 6640.1484 3622724
-3918.3022 785.30145 6672.2041 3754309
-3994.0847 809.12207 6874.5923 3622724
-3961.3381 811.23651 6892.5576 3622980
-4007.938 829.82581 7050.4995 3557187
-3999.5977 837.3277 7114.2373 3753283
-3977.1445 842.01056 7154.0254 3819072
-4039.0645 864.86682 7348.2202 3687488
-4054.6455 878.21338 7461.6172 3753281
-4011.8276 879.07489 7468.9365 3950659
-3975.8276 881.4682 7489.2715 4213831
-3990.4141 895.26801 7606.5195 4213831
-3944.4333 895.64874 7609.7544 4148039
-3959.6501 910.10461 7732.5767 4082246
-3965.3774 922.71051 7839.6812 3950660
-3934.3513 926.97314 7875.8979 3819074
-3885.0061 926.97314 7875.8979 3819074
-3863.3865 933.67346 7932.8267 3753281
-3798.4644 929.9472 7901.167 3819331
-3752.9839 930.94507 7909.645 3819331
-3704.1836 931.13525 7911.2603 3819074
-3661.6555 932.92847 7926.4961 3819074
-3605.1279 931.15521 7911.4302 3819074
-3513.7109 920.19525 7818.3105 4082246
-3460.7109 919.12878 7809.2495 4148039
-3411.9829 919.18243 7809.7056 4148039
-3370.7659 921.29065 7827.6172 4082246
-3327.2439 922.82172 7840.626 4016453
-3287.8101 925.54956 7863.8027 4214089
-3238.5408 925.54956 7863.8027 4279626
-3196.4766 927.64056 7881.5684 4279884
-3093.9404 911.97223 7748.4448 3820103
-3047.0537 912.46936 7752.668 3819846
-3030.929 922.34363 7836.5635 3885896
-2952.6289 913.31097 7759.8193 4017482
-2890.4912 909.0589 7723.6919 3820103
-2858.7742 914.39227 7769.0059 3819846
-2849 927.05042 7876.5547 3885639
-2800.7537 927.41553 7879.6567 3951176
-2775.5293 935.55396 7948.8032 3951175
-2730.4417 937.17194 7962.5508 3885640
-2703.2529 945.10803 8029.9785 3885639
-2634.1313 938.40649 7973.0396 3819846
-2557.7771 928.81952 7891.585 3885896
-2508.334 928.81952 7891.585 3885639
-2453.8569 926.91803 7875.4297 3885639
-2406.5828 927.71515 7882.2021 3688260
-2352.7952 925.9823 7867.479 3688260
-2267.8796 911.66205 7745.8091 3688260
-2237.7944 919.23871 7810.1836 3622724
-2233.4043 937.94513 7969.1201 3753283
-2195.0122 942.901 8011.2266 3753027
-2153.439 946.69031 8043.4224 3687490
-2096.6553 943.81427 8018.9858 3556161
-2002.4718 923.54797 7846.7964 3752770
-1953.9656 923.8584 7849.4336 3752769
-1920.1415 931.30597 7912.7104 3686977
-1881.1813 936.591 7957.6143 3752770
-1821.5087 931.57092 7914.9624 3818563
-1782.9956 937.39447 7964.4409 3819076
-1743.4635 943.00208 8012.085 3950662
-1692.7223 942.69958 8009.5151 3884869
-1642.7069 942.79523 8010.3281 3885126
-1611.0298 953.75348 8103.4336 3950662
-1571.9457 960.89709 8164.1279 4016712
-1508.7097 953.26123 8099.251 4148041
-1454.0635 950.71008 8077.5752 4082505
-1416.2458 959.37469 8151.1934 4213834
-1374.8862 966.19843 8209.1699 4279627
-1325.504 967.69562 8221.8906 4279627
-1240.9109 942.56842 8008.4014 4213834
-1172.0912 927.80969 7883.0059 4148041
-1117.3192 923.36157 7845.2129 3950662
-1068.3307 923.50354 7846.4189 3884869
-1032.1248 935.24182 7946.1519 3950662
-982.82361 935.70264 7950.0669 3753283
-933.34058 936.03021 7952.8496 3819076
-882.67175 935.13831 7945.2725 3753540
-816.8739 917.15369 7792.4678 3753283
-763.93829 912.24176 7750.7349 3753283
-711.13861 906.83636 7704.8081 3753283
-660.81207 904.02692 7680.9385 3819076
-601.78375 887.93683 7544.231 3818563
-545.18738 872.99774 7417.3032 3819333
-494.98236 866.46252 7361.7783 3884099
-443.93967 856.96747 7281.104 3949890
-393.51437 846.62561 7193.2358 3686975
-345.25485 838.87073 7127.3481 3289650
-294.92117 823.02362 6992.7051 2434854
-252.40147 827.25751 7028.6772 3027249
-212.63786 844.22321 7172.8247 3159348
-170.24483 857.04486 7281.7622 2896433
-125.61375 863.86304 7339.6919 3028790
-80.890785 877.55939 7456.061 3160376
-34.332767 881.57825 7490.2065 2963254
12.577388 880.29669 7479.3179 3226169
59.20668 876.87622 7450.2559 3226426
106.34452 880.68298 7482.6001 3095353
153.22534 880.68298 7482.6001 3555904
211.603 931.28149 7912.5034 3621954
264.74588 944.0061 8020.6157 3621954
317.0455 950.14362 8072.7622 3621954
369.34933 954.60315 8110.6523 3687490
421.76706 958.2428 8141.5762 3819076
471.90677 956.47986 8126.5977 3884871
522.43494 955.77106 8120.5752 4016455
553.25378 922.33044 7836.4517 3950662
590.13849 903.62958 7677.5625 3753540
628.88348 890.38141 7565.001 3753540
670.60382 882.90735 7501.4995 3753539
691.38751 850.65302 7227.4546 3556417
717.48578 828.50079 7039.2412 3621953
740.53467 805.5968 6844.6406 3818563
769.04016 790.81146 6719.019 3818564
798.7334 778.71881 6616.2754 3687236
793.47943 735.42889 6248.4688 3752518
815.09851 719.94574 6116.9185 3357764
800.58838 675.37463 5738.2261 1580842
790.27069 638.01929 5420.8418 265497
824.23395 638.01929 5420.8418 725540
858.0108 637.88074 5419.6646 1054762
894.73187 639.85828 5436.4663 922667
929.00983 640.00757 5437.7349 988458
959.51288 637.63782 5417.6006 922668
989.67615 635.21185 5396.9888 725802
1022.8821 634.83453 5393.7832 857388
1056.9457 634.99677 5395.1611 725804
1082.571 630.23633 5354.7148 594218
1113.5244 628.77069 5342.2627 594472
1142.1337 626.10565 5319.6191 594213
1176.0897 626.43958 5322.4565 528673
1246.1031 645.4314 5483.8174 397341
1280.4609 645.4314 5483.8174 2174006
1235.2205 606.35736 5151.8306 3752781
1514.7426 724.63635 6156.7715 3621445
1676.6354 782.16559 6645.561 3489858
1724.3419 784.92883 6669.0381 3424320
1816.5936 807.35858 6859.6094 3687492
1871.4685 812.52393 6903.4961 3753285
1940.0107 823.25586 6994.6782 3753284
2014.7675 836.09235 7103.7422 3687490
2107.8977 855.83411 7271.4746 3687490
2213.3926 879.65436 7473.8604 3819076
2291.3892 891.78558 7576.9316 3621697
2429.0232 926.16351 7869.019 3358525
2522.1006 942.52277 8008.0127 3424318
2649.5964 970.85516 8248.7354 3358525
2723.6033 978.87933 8316.9111 3358525
2799.2568 987.1828 8387.4609 3424318
2879.4998 996.76892 8468.9082 3490111
2956.355 1004.8568 8537.626 3490111
3036.6013 1013.7894 8613.5195 3555904
3111.7805 1020.7477 8672.6396 3490111
3189.7412 1028.364 8737.3506 3424318
3254.4023 1031.5079 8764.0625 3292732
3297.6445 1027.8711 8733.1631 3095353
3317.2786 1017.1146 8641.7725 3424318
3337.822 1006.9779 8555.6475 3555907
3380.0627 1003.6041 8526.9814 3621699
3387.446 990.1463 8412.6396 3555906
3401.5715 979.04156 8318.29 3555906
3395.1392 962.44427 8177.2729 3621699
3405.2747 950.96722 8079.7603 3621956
3429.0825 943.58862 8017.0688 3621697
3454.6665 936.90479 7960.2808 3687746
3481.6541 930.78632 7908.2964 3686720
3473.9763 915.70233 7780.1372 3818307
3469.6218 901.8996 7662.8638 3950149
3317.2197 850.51514 7226.2827 3818563
3227.5918 816.39252 6936.3652 3752770
3212.0513 801.66748 6811.2559 3818563
3203.1467 788.96307 6703.3145 3752770
3256.8821 791.81659 6727.5591 3686976
3249.4797 779.92328 6626.5093 3752512
3108.4819 736.66956 6259.0103 3686976
2975.4604 696.36041 5916.5288 3685950
2917.7034 674.44098 5730.2935 3817022
2691.2476 614.53284 5221.2925 3751230
2626.2107 592.48022 5033.9253 2698542
2638.7278 588.23969 4997.8965 2632749
2670.0413 588.23969 4997.8965 3093300
2709.3745 589.98615 5012.7349 3685180
2896.3787 623.48047 5297.3145 4013888
3464.3372 737.29175 6264.2964 4014657
3583.5291 754.11517 6407.2344 3949891
nan nan nan 16777215
4258.0479 876.42468 7446.4194 3752512
4364.5894 888.61761 7550.0151 3686977
4772.0581 961.15991 8166.3613 3686720
4857.8594 968.06226 8225.0059 3555136
4936.1631 973.34119 8269.8574 3752260
4951.3452 966.19318 8209.125 3686979
4918.7852 949.97156 8071.3008 3686979
4972.1577 950.50751 8075.854 3686979
5344.1143 1011.3214 8592.5508 3686979
5457.4888 1022.4763 8687.3271 3686979
5569.7915 1033.212 8778.542 3621186
5651.8843 1038.1887 8820.8252 3687236
5726.7065 1041.7462 8851.0518 3752772
5819.0249 1048.3879 8907.4814 3752772
5932.6646 1058.7081 8995.166 3621186
5917.7432 1046.1079 8888.1094 3621186
5973.4302 1046.1079 8888.1094 3555393
6146.8218 1066.5308 9061.6299 3555393
6224.1084 1070.0573 9091.5928 3555393
6243.4897 1063.6552 9037.1973 3555393
6300.5698 1063.7327 9037.8555 3621186
6384.0576 1068.2275 9076.0459 3489857
6505.9189 1079.0073 9167.6348 3686979
6565.6885 1079.3906 9170.8916 3884102
6502.0415 1059.6538 9003.2002 3818308
6579.812 1063.1055 9032.5264 3818052
6563.1157 1051.3651 8932.7764 3818052
6526.1479 1036.6035 8807.3574 3883845
6583.7666 1036.9875 8810.6191 3883846
6661.2612 1040.4696 8840.2051 3752259
6766.5225 1048.1958 8905.8486 3686466
6876.022 1056.4465 8975.9502 3686720
6977.3335 1063.3158 9034.3135 3686719
7043.2871 1064.7292 9046.3232 3752512
7058.4199 1058.499 8993.3896 3752513
6963.7769 1036.0356 8802.5322 3620927
6860.5547 1012.6588 8603.9141 3686720
6914.4604 1012.6588 8603.9141 3489341
6983.769 1014.897 8622.9307 3555134
7107.1367 1024.8967 8707.8916 3555134
7171.71 1026.3301 8720.0693 3555134
7094.1157 1007.5501 8560.5088 3555134
7272.1401 1025.0842 8709.4844 3686206
7326.707 1025.0842 8709.4844 3685950
7424.2666 1031.0547 8760.2119 3817536
7496.1172 1033.3934 8780.083 3751743
7578.0752 1037.0814 8811.417 3751743
7657.144 1040.3235 8838.9629 3817536
7729.9009 1042.6675 8858.8789 3817536
7857.6631 1052.3448 8941.1006 3817536
8048.2324 1070.2372 9093.1201 3751486
8221.1406 1085.5459 9223.1885 3883073
8317.5547 1090.6107 9266.2217 3948870
8379.6318 1091.1344 9270.6709 3817282
8279.1543 1070.6298 9096.4561 3751489
8017.6694 1029.7272 8748.9326 3883075
8048.6177 1026.6827 8723.0664 3948868
8024.6562 1016.7223 8638.4385 3883075
8510.7188 1071.0824 9100.3018 3817282
8738.1729 1092.3894 9281.334 3751489
8886.8857 1103.6361 9376.8896 3817282
9158.1943 1129.8599 9599.6963 3817026
9288.8037 1138.4965 9673.0762 3817025
9372.3115 1141.2854 9696.7715 3751233
9245.8105 1118.6299 9504.2822 3751233
9387.1172 1128.4584 9587.7891 3619903
9714.3799 1160.3743 9858.958 3751232
9213.0215 1093.5343 9291.0605 3751232
9335.9434 1101.1667 9355.9092 3817025
9436.8115 1106.1191 9397.9863 3948610
10007.043 1165.6844 9904.0752 3948611
9499.4834 1099.7413 9343.7988 3817025
10507.704 1209.0109 10272.192 3948611
nan nan nan 16777215
nan nan nan 16777215
nan nan nan 16777215
nan nan nan 16777215
nan nan nan 16777215
-5552.9429 728.70441 5879.9863 3358014
-5542.4482 732.18488 5908.0698 3423550
-5568.7188 740.60156 5975.9849 3160635
-5553.0991 743.52325 5999.5605 3291452
-5569.4209 750.79077 6058.2031 3291452
-5550.3442 753.35333 6078.8809 3291965
-5563.1147 760.30383 6134.9648 3291709
-5543.0469 762.83191 6155.3638 3225916
-5548.3257 768.90796 6204.3921 3225916
-5532.9268 772.18396 6230.8267 3357501
-5502.5093 773.39563 6240.6035 3423550
-5492.7559 777.54974 6274.124 3423293
-5486.9048 782.32025 6312.6172 3357758
-5525.4067 793.52979 6403.0679 3225914
-5612.0322 811.86499 6551.0166 3225914
-5596.627 815.60138 6581.1655 3160376
-5618.2539 824.82996 6655.6323 3160376
-5631.1787 832.90955 6720.8271 3291962
-5643.4155 841.00824 6786.1763 3423548
-5661.7368 850.14355 6859.8896 3555134
-5656.7363 855.88989 6906.2578 3555134
-5666.5142 863.97815 6971.5225 3423548
-5665.3174 870.50574 7024.1943 3357755
-5648.7251 874.75134 7058.4526 3226169
-5544.7246 865.42126 6983.168 3028790
-5500.9727 865.42126 6983.168 2962997
-5470.2334 867.48492 6999.8193 3094840
-5408.1582 864.57227 6976.3169 2831411
-5331.8135 859.31244 6933.8745 2634289
-5257.5786 854.30896 6893.5015 2831411
-5157.7783 845.03412 6818.6616 2963254
-5031.8887 831.29425 6707.7935 3292219
-4995.7871 832.28137 6715.7583 3292219
-4819.1685 809.67664 6533.3584 3357755
-4677.8706 792.6698 6396.1289 3358012
-4552.5649 778.10242 6278.583 3489598
-4464.1807 769.64642 6210.3511 3489598
-4304.0073 748.55621 6040.1719 3358012
-4176.8545 732.88562 5913.7246 3423805
-4045.4661 716.18481 5778.9639 3555391
-3860.8604 689.67584 5565.061 3555391
-3712.2166 669.16644 5399.5684 3555391
-3573.137 650.01953 5245.0703 3555134
-3443.9729 632.33783 5102.3945 3490111
-3317.7412 614.86823 4961.4307 3161916
-3102.9006 580.49121 4684.0391 3293759
-2893.6633 546.51587 4409.8892 3819847
-2604.5142 496.64746 4007.4961 4346449
-2655.1948 511.24005 4125.2451 4872792
-2685.0654 522.07336 4212.6602 4807513
-2716.957 533.51862 4305.0132 4478548
-2619.3518 519.50964 4191.9731 4016968
nan nan nan 16777215
nan nan nan 16777215
-3354.8687 686.0246 5535.5986 3622467
-3621.3215 748.24579 6037.6675 3753540
-3662.5374 764.75043 6170.8447 3819076
-3639.3167 768.00909 6197.1392 3753283
-3704.6096 790.21863 6376.3501 3621698
-3687.8413 795.21729 6416.6846 3819076
-3715.1589 809.93726 6535.4614 3753540
-3736.5359 823.67572 6646.3188 3687491
-3742.6797 834.32819 6732.2744 3753280
-3807.384 858.42664 6926.7271 3687488
-3828.6492 873.17401 7045.7246 3687488
-3861.1521 890.85803 7188.4194 3819074
-3830.5613 894.23059 7215.6328 3819074
-3817.2412 901.76373 7276.4185 3753281
-3770.1953 901.41541 7273.6074 3621695
-3715.1472 899.12189 7255.1011 3687488
-3696.4629 905.68115 7308.0283 3753281
-3647.5601 904.90826 7301.7915 3753281
-3609.2439 906.77539 7316.8574 3621695
-3571.7632 908.9032 7334.0269 3687488
-3521.5491 907.80396 7325.1572 3819331
-3475.655 907.80396 7325.1572 3621695
-3432.7351 908.59125 7331.5103 3819074
-3386.8008 908.59125 7331.5103 3950660
-3331.3706 906.00873 7310.6714 4016710
-3273.9751 902.81213 7284.8779 4148039
-3224.7537 901.81116 7276.8013 4082246
-3181.8057 902.56097 7282.8516 3950660
-3108.7776 894.6759 7219.2261 4016453
-3063.3303 894.61273 7218.7158 3950660
-3012.313 892.89642 7204.8672 3687488
-2964.7996 892.1825 7199.106 3358524
-2921.7673 892.81573 7204.2158 3358782
-2878.7734 893.48071 7209.582 3556674
-2827.6809 891.6134 7194.5142 3688004
-2775.7192 889.40704 7176.7109 3688260
-2753.3003 896.75006 7235.9624 3885382
-2682.2061 888.21997 7167.1328 4016711
-2641.6665 889.69012 7178.9946 3951175
-2586.7471 886.28406 7151.5112 3950919
-2550.3918 889.23065 7175.2876 3884869
-2521.8735 895.06458 7222.3618 3950662
-2474.9436 894.45752 7217.4634 3950405
-2437.4521 897.30249 7240.4204 3950662
-2383.6702 894.14453 7214.9385 3950919
-2328.696 890.40887 7184.7944 4017225
-2283.6812 890.40887 7184.7944 3754053
-2221.2554 883.48395 7128.9165 3951432
-2179.3179 884.59082 7137.8486 3885639
-2116.7805 877.20764 7078.2729 3819846
-2055.1536 869.89362 7019.2554 3885639
-2011.1755 869.89362 7019.2554 3885639
-1989.0551 879.55896 7097.2456 3819846
-1946.4275 880.39062 7103.9565 3688516
-1910.6406 884.4278 7136.5332 3557187
-1862.1261 882.62573 7121.9922 3884613
-1796.1577 872.25922 7038.3433 3819076
-1750.985 871.72388 7034.0239 3950662
-1717.7892 877.27747 7078.8364 3950662
-1673.6177 877.37158 7079.5957 4082248
-1640.9796 883.68182 7130.5132 4082505
-1622.8195 898.3598 7248.9517 4148041
-1573.3538 896.05402 7230.3457 4148041
-1528.0535 896.05402 7230.3457 3950662
-1509.4651 912.19647 7360.6011 4082248
-1475.1473 919.55133 7419.9482 4148041
-1416.2288 911.55066 7355.3896 4213834
-1356.5619 902.51392 7282.4717 4148041
-1310.5735 902.26501 7280.4634 4082248
-1285.3217 916.78918 7397.6602 4016712
-1228.9545 909.37585 7337.8413 4148041
-1171.6399 900.65814 7267.4966 4082248
-1111.3213 888.8327 7172.0762 4082248
-1061.1678 884.4834 7136.9814 4082248
-1004.5581 874.13318 7053.4648 3884869
-960.84808 874.57202 7057.0059 3884869
-916.64392 874.58179 7057.0845 3884869
-870.10815 872.25513 7038.3105 3819076
-826.01093 872.25513 7038.3105 3753283
-782.30377 872.69012 7041.8208 3753283
-732.83008 866.35999 6990.7422 3687490
-689.03088 866.35999 6990.7422 3687490
-645.92517 867.29114 6998.2554 3687747
-601.38824 866.2962 6990.2275 3687490
-555.84717 863.58484 6968.3491 3687234
-509.02478 858.25092 6925.3091 3753027
-463.81656 854.89819 6898.2554 3753280
-420.02222 853.73022 6888.8311 3882814
-385.73093 873.82263 7050.9585 3620155
-330.1727 844.70386 6815.9961 2829099
-282.94272 831.40546 6708.6909 2236962
-240.91069 831.40546 6708.6909 2894892
-203.96648 852.67499 6880.3159 3684407
-161.75453 857.42114 6918.6133 3619641
-117.98145 854.33746 6893.7314 3226168
-74.790077 854.33746 6893.7314 3160376
-31.440063 850.0481 6859.1196 3358012
11.601027 854.95465 6898.7114 3555647
56.024445 873.68152 7049.8203 3489597
100.63881 877.56232 7081.1348 3424318
145.38872 879.88879 7099.9067 3292732
191.49498 887.41058 7160.6016 3621697
239.37158 898.72369 7251.8882 3621954
283.49533 894.5849 7218.4917 3621697
328.81699 894.84509 7220.5908 3490111
375.45468 898.19055 7247.5859 3555904
416.60446 889.10193 7174.249 3753028
461.55331 889.10193 7174.249 3752770
504.16962 885.00732 7141.209 3752514
542.62537 874.87225 7059.4282 3621184
578.97113 863.11926 6964.5928 3555135
620.61951 860.36475 6942.3662 3555135
648.5575 840.20917 6779.7285 3621441
676.80115 822.90314 6640.085 3884355
702.70697 804.92352 6495.0054 3818820
730.25598 790.69159 6380.1665 3753284
754.33087 774.37036 6248.4688 3818823
776.77417 758.06738 6116.9185 4015691
810.73242 754.00671 6084.1528 3357765
803.22742 713.48029 5757.1411 1317926
783.48169 666.03162 5374.2729 264987
817.1532 666.03162 5374.2729 857127
858.0108 671.65692 5419.6646 1054762
891.11194 671.01331 5414.4707 922666
925.19293 671.12769 5415.394 856616
954.44287 667.85352 5388.9741 856875
983.13739 664.42767 5361.3311 726059
1017.2404 664.76263 5364.0337 790826
1055.1676 667.49548 5386.085 725289
1080.0535 662.06458 5342.2627 527910
1108.3452 658.98517 5317.4146 264991
1137.8085 656.76172 5299.4736 331039
1170.6239 656.54443 5297.7202 397087
1228.4623 669.98633 5406.1841 1186854
1245.9233 661.27649 5335.9038 2897471
1228.8359 635.16431 5125.2021 3687240
1298.6401 654.15125 5278.4092 3490116
1574.8044 773.56134 6241.9409 3555650
1633.4369 782.91974 6317.4546 3490113
1711.9365 801.13257 6464.4155 3621699
1814.2251 829.37866 6692.3359 3621699
1881.5143 840.71002 6783.77 3621699
1957.5981 855.38361 6902.1724 3753283
2018.1151 862.76794 6961.7573 3687490
2094.03 876.28339 7070.8145 3490111
2172.9756 890.48059 7185.3735 3621697
2236.0574 897.7326 7243.8906 3555904
2345.6155 922.98425 7447.6484 3687490
2404.3821 927.65448 7485.333 3490368
2476.0066 937.01196 7560.8394 3555904
2552.3459 947.7688 7647.6377 3621697
2648.9243 965.50616 7790.7622 3687747
2722.3506 974.31573 7861.8472 3688003
2779.4958 977.08868 7884.2222 3753796
2838.3635 980.35986 7910.6177 3556161
2912.5464 988.71765 7978.0581 3621697
2997.415 1000.3597 8071.999 3621697
3049.6873 1000.9172 8076.4976 3424575
3038.0071 980.80975 7914.248 3556160
3077.8357 977.71051 7889.2397 3621699
3106.1135 971.0979 7835.8823 3490113
3124.1816 961.54877 7758.8291 3555906
3139.4358 951.43939 7677.2563 3424577
3128.5549 933.83423 7535.1987 3424320
3142.8892 924.16711 7457.1929 3424319
3165.7998 917.26801 7401.5234 3358527
3190.7195 911.14178 7352.0908 3358527
3206.335 902.57092 7282.9316 3620927
3204.5378 889.40778 7176.7168 3489598
3189.6118 873.01538 7044.4453 3423805
3065.4812 827.58856 6677.8916 3489598
2996.063 797.95685 6438.7905 3555648
2914.8206 766.00507 6180.9688 3686977
2912.0127 755.2334 6094.0508 3752770
3031.6064 776.07452 6262.2197 3686977
3040.9324 768.51581 6201.228 3621184
2957.5642 738.01746 5955.1338 3686977
2884.4126 710.79657 5735.4858 3620670
2842.9448 691.95721 5583.4692 3686207
2665.3225 640.83942 5170.9951 3290422
2582.177 613.39233 4949.5215 2829102
2613.1875 613.39233 4949.5215 2697515
2665.7671 618.39594 4989.896 2960431
2697.0303 618.39594 4989.896 3552825
2819.834 639.14447 5157.3184 3619644
3218.8831 721.32751 5820.4609 3751743
3374.249 747.67334 6033.0479 3882816
3645.9519 798.9281 6446.6279 3752513
3860.293 836.62793 6750.8311 3555390
4118.2749 882.86609 7123.9316 3620927
4304.7617 912.95026 7366.6836 3555134
4358.4941 914.54028 7379.5132 3489341
4467.9224 927.66089 7485.3853 3423550
4412.5654 906.65051 7315.8506 3555136
4420.9316 899.03076 7254.3657 3489600
4475.9287 900.95227 7269.8706 3489600
4872.7593 970.9491 7834.6816 3489600
4975.6113 981.55554 7920.2661 3489600
5065.7061 989.46075 7984.0537 3555393
5132.7783 992.75842 8010.6636 3686979
5195.2505 995.11108 8029.647 3752772
5353.2183 1015.5347 8194.4473 3753029
5404.6543 1015.5527 8194.5918 3621186
5367.9795 999.16968 8062.396 3489857
5424.4131 1000.2613 8071.2046 3621186
5592.6836 1021.7651 8244.7207 3752772
5624.3823 1018.1523 8215.5693 3621187
5625.9604 1009.2021 8143.3486 3621439
5672.0522 1008.3259 8136.2783 3621182
5723.0283 1008.3259 8136.2783 3621183
5814.5645 1015.4089 8193.4316 3620927
5914.7969 1023.8733 8261.7324 3621183
5864.2217 1006.312 8120.0283 3949892
5932.6836 1009.3041 8144.1714 3818306
5869.8735 990.10278 7989.2344 3884099
5882.1851 983.79016 7938.2979 3818562
5900.2139 978.53168 7895.8662 3818306
5934.4736 976.03009 7875.6802 3752768
5996.1992 978.04968 7891.9771 3818305
6101.4058 987.07062 7964.7676 3686719
6220.959 998.24725 8054.9531 3752769
6326.9136 1007.0795 8126.2212 3818306
6307.0801 995.9082 8036.0796 3752770
6244.3286 978.19086 7893.1162 3620927
6203.2222 964.11591 7779.5444 3620927
6263.0928 965.83228 7793.3936 3620927
6364.3159 973.84967 7858.0864 3555134
6473.0361 982.8822 7930.9712 3489341
6538.4946 985.25836 7950.144 3555134
6580.8271 984.14008 7941.1211 3555134
6657.7842 988.17773 7973.7012 3620413
6640.6333 978.29138 7893.9272 3685950
6693.9458 978.8551 7898.4756 3685950
6829.0586 991.28424 7998.7681 3817279
6905.1465 995.02698 8028.9683 3751743
6960.9888 995.81921 8035.3613 3685950
7012.4932 995.98407 8036.6914 3817536
7164.895 1010.3748 8152.8115 3751743
7324.0254 1025.5039 8274.8896 3948867
7416.9922 1031.2214 8321.0244 3883075
6998.3818 966.22821 7796.5889 3883075
7470.0107 1024.1947 8264.3262 3817026
7498.4272 1021.0136 8238.6572 3882818
7560.0303 1022.364 8249.5537 3883075
7750.5396 1041.01 8400.0098 3883075
7814.1074 1042.4692 8411.7852 3817282
7928.8057 1050.6847 8478.0762 3817282
8080.0103 1063.5962 8582.2598 3817282
8148.6577 1065.5415 8597.957 3817282
8246.5645 1071.2622 8644.1182 3751489
8352.5928 1077.9564 8698.1338 3685696
8407.0889 1077.9564 8698.1338 3685696
8597.8447 1095.3152 8838.2031 3817284
8503.0859 1076.3115 8684.8604 3883076
8557.5 1076.3115 8684.8604 3751490
8662.7256 1082.662 8736.1035 3685697
8654.0059 1074.7812 8672.5137 3883333
8801.167 1086.2378 8764.957 3948869
9080.6172 1113.778 8987.1816 3948869
8485.3164 1034.3478 8346.252 3883076
9290.1084 1125.5148 9081.8867 3817283
nan nan nan 16777215
nan nan nan 16777215
nan nan nan 16777215
nan nan nan 16777215
nan nan nan 16777215
-5308.0317 731.59399 5620.6514 3686466
-5317.5161 737.79596 5668.2993 3620930
-5304.0605 740.87701 5691.9707 3620930
-5307.6572 746.39783 5734.3857 3620929
-5298.6489 750.20917 5763.6675 3620929
-5305.4092 756.32086 5810.6216 3686466
-5293.5654 759.84644 5837.708 3686722
-5278.5781 762.96674 5861.6802 3818305
-5281.1626 768.68835 5905.6382 3818306
-5291.0005 775.55396 5958.3848 3620927
-5253.6694 775.55396 5958.3848 3489341
-5249.3037 780.4552 5996.0396 3358011
-5267.7417 788.84192 6060.4727 3357755
-5233.98 789.47675 6065.3501 3291962
-5289.6035 803.70215 6174.6401 3291962
-5252.5034 803.94495 6176.5054 3160376
-5234.2476 807.09698 6200.7217 3094583
-5284.7363 820.97546 6307.3467 3423548
-5312.7046 831.53827 6388.498 3620927
-5387.2739 849.61072 6527.3442 3620927
-5381.6152 855.21039 6570.3647 3686720
-5368.562 859.71222 6604.9517 3555134
-5374.5093 867.35034 6663.6333 3489341
-5411.7119 880.19159 6762.2896 3489341
-5156.583 845.3139 6494.3325 3555134
-5179.5586 855.83331 6575.1509 3423548
-5320.6353 886.1922 6808.3901 3423805
-5277.9785 886.1922 6808.3901 3423805
-5212.0708 882.25641 6778.1528 3423805
-5154.4854 879.67627 6758.3306 3423805
-5116.6836 880.45776 6764.334 3292219
-5055.9194 877.26807 6739.8281 3226426
-4773.0552 835.1626 6416.3428 3094840
-4667.0225 823.54578 6327.0938 3029047
-4556.8745 810.9975 6230.6885 3029047
-4448.8394 798.61169 6135.5317 2963254
-4315.417 781.41302 6003.3984 2897461
-4185.7803 764.60333 5874.2539 2897461
-4086.2764 753.04858 5785.4814 3160633
-3969.2109 738.02161 5670.0332 3094840
-3798.3806 712.63611 5475.0029 3358012
-3651.635 691.34772 5311.4497 3489341
-3498.3848 668.42505 5135.3403 3621953
-3372.6924 650.39099 4996.7896 4016455
-3185.7354 620.09412 4764.0259 3688260
-2921.2925 573.99902 4409.8892 3820103
-2739.1348 543.34613 4174.3906 4872534
-2673.6821 535.47552 4113.9229 5004634
-2655.1948 536.94922 4125.2451 5135963
-2626.1968 536.30554 4120.2998 5201756
-2595.0845 535.21301 4111.9062 5399392
-2572.0173 535.77448 4116.2197 4214861
nan nan nan 16777215
nan nan nan 16777215
-3198.0657 686.84686 5276.8706 3359295
-3320.1863 720.52338 5535.5986 3556160
-3451.8425 757.00195 5815.8545 3621697
-3473.4512 769.86768 5914.6982 3621697
-3496.5298 783.34015 6018.2041 3687490
-3505.1587 793.83386 6098.8247 3687490
-3519.845 805.94586 6191.8784 3621697
-3540.7722 819.77277 6298.1069 3621698
-3554.9045 832.32031 6394.5068 3555902
-3616.1143 856.30206 6578.752 3621695
-3636.2349 870.99457 6691.6313 3753281
-3647.8198 883.96149 6791.2524 3753281
-3681.8596 902.74017 6935.5239 3753281
-3645.1104 904.40344 6948.3027 3753281
-3601.5771 904.40344 6948.3027 3687488
-3597.0327 914.31384 7024.4419 3687488
-3588.8296 923.52832 7095.2339 3884867
-3558.0442 927.08966 7122.5957 3950660
-3516.3708 927.86859 7128.5801 4016453
-3469.0173 927.1496 7123.0552 4016453
-3408.4666 922.83838 7089.9341 4016710
-3359.8892 921.69818 7081.1738 4082246
-3290.4238 914.72058 7027.5669 4016453
-3235.4211 911.62885 7003.814 4082246
-3171.6926 905.95966 6960.2588 4016453
-3111.3347 901.10858 6922.9893 4016453
-3068.6797 901.32001 6924.6133 4016453
-2994.5122 892.14899 6854.1548 4148039
-2933.2119 886.6004 6811.5264 4082246
-2886.3923 885.32953 6801.7627 4016453
-2857.6353 889.64386 6834.9087 3687489
-2803.2659 885.99445 6806.8711 3424318
-2734.2815 877.54175 6741.9312 3424832
-2649.3491 863.62518 6635.0132 3622723
-2593.1428 858.77808 6597.7749 3688773
-2566.5408 863.73712 6635.8735 3754053
-2543.5813 870.10522 6684.7983 3688260
-2515.606 874.94226 6721.96 3819846
-2497.5667 883.4585 6787.3882 3819846
-2438.8904 877.64642 6742.7358 3753796
-2389.7651 875.12701 6723.3794 3687747
-2340.7759 872.56793 6703.7183 3753796
-2289.564 869.07166 6676.8574 3885383
-2247.6316 869.03302 6676.561 3950919
-2197.8738 865.90985 6652.5664 3951432
-2145.0886 861.45032 6618.3052 4017225
-2103.6228 861.45032 6618.3052 3951432
-2011.526 840.29956 6455.8091 3885639
-1985.5242 846.45807 6503.123 3819846
-1894.954 824.77142 6336.5103 3622724
-1858.9138 826.39844 6349.0103 3622724
-1808.0137 821.34607 6310.1943 3556674
-1634.2471 759.00427 5831.2378 3556674
-1782.8014 846.93195 6506.7637 3490881
-1734.4883 843.26312 6478.5771 3490881
-1690.6189 841.6308 6466.0361 3753283
-1635.906 834.38757 6410.3882 3884869
-1568.2064 819.98914 6299.769 4016455
-1538.757 825.36395 6341.0625 4082248
