# .PCD v0.7 - Point Cloud Data file format
VERSION 0.7
FIELDS x y z rgb
SIZE 4 4 4 4
TYPE F F F U
COUNT 1 1 1 1
WIDTH 1272
HEIGHT 1
VIEWPOINT 0 0 0 1 0 0 0
POINTS 1272
DATA ascii
-1131.9033 652.45312 2385.5562 3424059
-1118.48 653.34271 2388.8088 3489852
-1102.3702 652.66595 2386.3342 3424059
-1090.0303 654.23315 2392.0645 3292473
-1082.9047 659.01727 2409.5566 3292473
-1076.9377 664.65186 2430.1582 4147782
-1061.712 664.65186 2430.1582 4016196
-1034.3174 656.92297 2401.8992 3687487
-1030.8739 664.40265 2429.2471 3818817
-1016.7638 665.1286 2431.9014 3884610
-999.88672 664.03918 2427.9182 3423805
-984.67511 664.03918 2427.9182 3358012
-974.9325 667.78522 2441.6147 3490112
-960.69678 668.52411 2444.3164 2634802
-944.95538 668.22217 2443.2124 3095097
-943.43597 678.13293 2479.449 3753540
-930.05267 679.70508 2485.1973 3753540
-912.83661 678.48199 2480.7251 3819076
-890.44885 673.30609 2461.8005 3819332
-880.45288 677.48267 2477.0713 3884867
-863.98853 676.74268 2474.3657 3950660
-851.63007 679.25055 2483.5352 3884868
-835.14508 678.49908 2480.7876 4542800
-812.98218 673.0188 2460.7502 4740435
-797.56482 673.0188 2460.7502 4937557
-781.92206 672.82483 2460.041 4740178
-769.27362 675.25146 2468.9133 4871763
-754.48059 675.85657 2471.1257 4674128
-738.99823 675.85657 2471.1257 4082248
-720.99146 673.49841 2462.5037 4279627
-697.22284 665.53723 2433.3953 4477006
-679.67578 663.2915 2425.1846 4871764
-670.90698 669.70581 2448.637 4871764
-656.61407 670.77698 2452.5535 3621698
-646.10651 675.85919 2471.1355 3950919
-633.45093 678.88885 2482.2126 3819076
-616.26697 677.09558 2475.656 3752514
-597.91296 673.89093 2463.939 3686978
-583.68793 675.29358 2469.0674 3884356
-568.21844 675.29358 2469.0674 3884357
-550.96448 673.1134 2461.0962 4081991
-536.30194 674.06488 2464.575 3752770
-517.35486 669.52795 2447.9866 3752770
-502.01746 669.52795 2447.9866 3884099
-485.70862 668.19153 2443.1003 3555391
-471.78284 670.1532 2450.2727 3950149
-456.64209 670.46295 2451.4053 3818306
-438.25943 665.86865 2434.6072 3686720
-418.36835 658.5686 2407.916 3555391
-401.87015 656.26294 2399.4861 3489341
-386.29358 655.3418 2396.1179 3226426
-376.08939 663.82867 2427.1484 3358269
-356.31058 655.4187 2396.3992 3226426
-341.29639 655.4187 2396.3992 3029047
-326.26733 655.38885 2396.29 3818563
-310.78839 654.40875 2392.7065 3950149
-298.91586 661.30804 2417.9324 4015685
-284.05078 661.96991 2420.3523 3884613
-266.12537 655.17224 2395.498 3752770
-256.14627 668.29425 2443.4758 3950149
-240.83713 668.29425 2443.4758 4345164
-222.4444 659.1568 2410.0667 3884356
-206.36575 656.04504 2398.6892 3752770
-190.15794 652.00159 2383.9053 3029047
-175.22203 652.00159 2383.9053 3095095
-159.7265 649.72516 2375.5818 3292474
-142.36359 638.60431 2334.9209 3621182
-127.15693 635.71637 2324.3618 3555645
-112.77023 636.711 2327.9983 2897715
-98.15416 636.51349 2327.2764 3029300
-83.901405 639.01434 2336.4202 3292472
-69.263008 639.01434 2336.4202 3292216
-54.951469 642.83801 2350.4006 3358010
-40.225483 642.83801 2350.4006 3358009
-25.6362 646.28442 2363.0017 3292216
-10.85555 647.73364 2368.3005 3094582
3.9743967 646.40155 2363.4299 2765617
18.895399 650.30371 2377.6973 2502702
33.804153 650.52966 2378.5234 2502445
48.649677 649.77283 2375.7563 2371116
63.50148 649.43494 2374.5208 2634031
78.823296 653.11969 2387.9934 3029046
94.306099 656.74994 2401.2666 2963510
109.71116 658.91431 2409.1802 2766130
125.31051 661.58093 2418.9302 3029047
140.40468 661.29285 2417.8767 3094840
156.57051 665.61664 2433.6858 3160633
171.8183 665.61664 2433.6858 3226426
186.01129 661.86346 2419.9631 2897461
201.04384 661.43817 2418.408 3029304
217.15733 664.37952 2429.1626 2963254
232.37679 664.37952 2429.1626 2634032
248.57596 667.00848 2438.7747 2831411
264.28214 668.08661 2442.7166 3028534
277.98508 664.25989 2428.7251 2897461
292.41574 662.479 2422.2136 3094840
307.3494 661.95721 2420.3059 2963253
322.80826 662.5625 2422.519 2897204
337.05093 660.72931 2415.8162 3160376
350.53201 657.62488 2404.4656 2634289
365.35046 657.18195 2402.8459 2437167
382.32587 660.50024 2414.9788 2568496
397.26318 660.17908 2413.8044 3028790
408.5697 654.06903 2391.4644 2502447
422.79037 652.89136 2387.1584 2568752
437.07358 651.88739 2383.4878 2502702
451.31647 650.89178 2379.8474 2371117
466.30554 651.00146 2380.2485 2963511
482.4494 652.66656 2386.3367 2831924
496.66498 651.70148 2382.8079 2700082
512.56921 652.94379 2387.3501 2569007
527.37445 652.75531 2386.6609 2568751
546.17908 657.39099 2403.6104 2766130
560.91003 657.00629 2402.2039 3094840
571.20715 651.58405 2382.3784 3226426
588.52625 654.2439 2392.1038 3226425
603.6485 654.39026 2392.6389 3226425
620.16931 656.00891 2398.5571 3160888
637.46307 658.34924 2407.114 3358011
650.03687 655.81934 2397.864 3358012
670.23181 660.91901 2416.51 3094840
688.26758 663.71136 2426.7195 3029304
705.58441 665.70459 2434.0073 3160633
720.74994 665.62677 2433.7229 3160633
732.78821 662.72394 2423.1091 3292219
748.42749 663.12952 2424.592 3358012
765.99609 665.1944 2432.1418 3489598
783.80798 667.38586 2440.1545 3489598
799.41907 667.6554 2441.1401 3423805
814.71356 667.6554 2441.1401 3489598
831.97339 669.23633 2446.9204 3621184
847.64117 669.5025 2447.8936 4147528
853.97498 662.51794 2422.3562 4147528
873.63287 665.93378 2434.8452 3686977
886.76166 664.34076 2429.0208 3621184
906.60895 667.74994 2441.4858 3686977
920.44525 666.69214 2437.6182 3160633
934.93561 666.13501 2435.5811 3029047
945.42651 662.79181 2423.3574 3358012
958.67096 661.45422 2418.4668 3621184
969.70593 658.65753 2408.2412 3884612
982.1969 656.92029 2401.8894 3489598
1001.8177 659.93213 2412.9016 3423805
1030.4641 668.71155 2445.0017 3686977
1029.4276 658.25348 2406.7639 3884356
1040.582 655.78015 2397.7207 3950149
1039.616 645.84747 2361.4041 3818563
1071.865 656.53851 2400.4934 3884356
1086.8228 656.48889 2400.312 3423805
1094.0729 651.84851 2383.3455 3555391
1104.5889 649.25256 2373.854 3423805
1119.4618 649.25256 2373.854 3423805
1134.1071 649.12225 2373.3777 3489598
1143.9626 646.28931 2363.0195 3292219
1154.2744 643.78326 2353.8567 3160633
1171.038 644.89343 2357.9158 3160376
1183.7306 643.76202 2353.7791 3094583
1196.8932 642.91089 2350.667 3028789
1209.4847 641.7774 2346.5227 3028788
1222.6885 640.99207 2343.6514 3226167
1246.3954 645.66632 2360.7417 3291960
1262.9631 646.57611 2364.0681 3752511
1270.4598 642.87463 2350.5344 3620925
1275.1825 637.87036 2332.2373 3423546
1296.0389 640.95844 2343.5283 2962995
1309.1198 640.17499 2340.6638 2962995
1322.8478 639.72186 2339.0071 3160374
1340.462 641.13745 2344.1829 3094581
1355.1489 641.13745 2344.1829 3028788
1372.0984 642.19635 2348.0544 2962995
1386.8097 642.19635 2348.0544 3291960
1412.135 647.05981 2365.8367 3423546
1446.6927 656.00879 2398.5566 3291961
1461.7205 656.00879 2398.5566 2831411
1456.7635 647.13116 2366.0974 3028790
1466.8486 645.047 2358.4773 3094583
1478.0807 643.50385 2352.835 3226169
1497.3678 645.46344 2359.9998 3160376
1514.9056 646.63794 2364.2942 2765875
1540.3409 651.12817 2380.7119 3094840
1551.8213 649.68982 2375.4529 3555133
1549.6267 642.60803 2349.5598 3160374
1576.8875 647.75922 2368.394 3357754
1595.2316 649.18579 2373.6099 3291961
1613.4731 650.54468 2378.5784 3226166
1629.8763 651.14417 2380.7703 3226166
1645.1562 651.28815 2381.2966 3226166
1661.4985 651.84637 2383.3376 2962994
1673.9109 650.86646 2379.7549 2831409
1693.2118 652.55878 2385.9424 2897202
1712.6068 654.25739 2392.1531 2831410
1730.7882 655.46692 2396.5754 2831410
1753.7546 658.45221 2407.4905 2962739
1770.245 658.97577 2409.4048 2765105
1779.6465 656.87402 2401.7202 2765616
1797.0901 657.75098 2404.9268 2765618
1814.4167 658.57098 2407.9248 2634032
1828.8621 658.34021 2407.0811 2897204
1846.8816 659.38934 2410.917 2962997
1872.142 662.98566 2424.0662 2963254
1892.9362 664.95514 2431.2671 3094583
1905.6914 664.09186 2428.1106 2962997
1928.8695 666.84552 2438.179 2962997
1946.6134 667.69208 2441.2742 3029047
1970.0596 670.466 2451.4165 3028790
1992.1407 672.73608 2459.7166 3423548
2001.8324 670.81958 2452.7092 3357755
2016.24 670.50055 2451.5427 3160376
2033.1337 671.00677 2453.3938 2962997
2054.6963 673.03485 2460.8088 2831411
2068.3044 672.44653 2458.6577 2897461
2083.7085 672.44653 2458.6577 3094583
2095.9885 671.44562 2454.9983 3028790
2114.6021 672.47351 2458.7563 3028790
2130.0068 672.47351 2458.7563 3160633
2174.4919 681.58856 2492.0837 3291962
2169.731 675.24768 2468.8997 3226169
2157.2273 666.60406 2437.2961 3028790
2164.4934 664.14813 2428.3164 2765619
2181.7324 664.76508 2430.572 2962227
2198.5166 665.23584 2432.2935 3028020
2211.4871 664.55408 2429.8008 3093813
2224.7827 663.9787 2427.697 3159606
2225.2192 659.59955 2411.6855 3028020
2242.8806 660.35071 2414.4319 2896434
2247.9871 657.42017 2403.717 2830898
2265.8284 658.22815 2406.6714 3093813
2278.0688 657.40918 2403.6768 3028020
2293.1287 657.40918 2403.6768 2962227
2308.0591 657.37231 2403.542 2962227
2314.3838 654.90076 2394.5054 3028020
2334.4451 656.32306 2399.7058 2830641
2351.2341 656.81311 2401.4976 2896434
2365.3455 656.55365 2400.5488 2962227
2385.6594 658.00824 2405.8672 2896434
2405.3975 659.28674 2410.5417 2764848
2421.4849 659.55487 2411.5222 2633262
2434.2712 658.92621 2409.2236 2830641
2454.2905 660.25104 2414.0676 2764848
2464.5059 658.93842 2409.2683 2896691
nan nan nan 16777215
nan nan nan 16777215
nan nan nan 16777215
nan nan nan 16777215
nan nan nan 16777215
nan nan nan 16777215
nan nan nan 16777215
nan nan nan 16777215
nan nan nan 16777215
nan nan nan 16777215
-2121.7957 650.05774 2323.8455 3489598
-2101.7834 648.37573 2317.8325 3555391
-2104.856 653.84119 2337.3706 3752770
-2090.8779 654.0495 2338.1155 3686977
-2078.9089 654.89386 2341.1338 3226426
-2061.252 653.94556 2337.7437 3094840
-2044.8584 653.38739 2335.7483 3226426
-2025.4015 651.83521 2330.1997 3489598
-2007.9745 650.91864 2326.9231 3687233
-1995.551 651.6225 2329.4392 3621954
-1979.3542 651.09546 2327.5552 3556161
-1964.7712 651.09546 2327.5552 3490367
-1949.0073 650.70117 2326.1455 3556161
-1936.25 651.31226 2328.3301 3687490
-1918.9659 650.39844 2325.0632 3753283
-1903.2418 650.00323 2323.6506 3753283
-1889.5836 650.31311 2324.7583 3819076
-1877.1174 651.04108 2327.3608 3687234
-1863.6835 651.44226 2328.7949 3884356
-1849.8311 651.70233 2329.7246 3884869
-1829.9258 649.81714 2322.9854 4081735
-1823.0459 652.56415 2332.8054 4016198
-1817.6195 655.88007 2344.6594 3884356
-1784.135 649.04297 2320.2178 3555391
-1763.5431 646.82208 2312.2786 3291963
-1779.1527 657.95227 2352.0671 3686977
-1752.4111 653.47552 2336.0635 3818307
-1722.9039 647.88336 2316.0725 3621439
-1693.5768 642.26459 2295.9863 3489852
-1677.6586 641.67816 2293.8899 3424059
-1662.2542 641.27991 2292.4661 3555645
-1646.0801 640.57507 2289.9465 3621438
-1629.9248 639.8653 2287.4092 3424059
-1619.3077 641.33636 2292.668 2963508
-1588.8967 634.92407 2269.7451 3029301
-1570.7745 633.35089 2264.1213 3226423
-1555.4305 632.87952 2262.4363 3291960
-1538.5367 631.763 2258.4451 3160374
-1529.0939 633.71381 2265.4187 3357753
-1514.6517 633.6098 2265.0469 3555132
-1500.4176 633.59167 2264.9822 3621181
-1486.6089 633.75458 2265.5645 3686718
-1475.9281 635.26697 2270.9709 3620925
-1463.5576 636.0744 2273.8574 3555132
-1453.7339 638.01538 2280.7961 3686718
-1437.5161 637.16089 2277.7415 3555132
-1423.8643 637.43793 2278.7319 3357753
-1412.8748 638.92462 2284.0464 3291960
-1401.1248 640.09424 2288.2275 3094838
-1384.3861 638.98553 2284.2642 2831409
-1370.0746 638.98553 2284.2642 2962995
-1356.9178 639.52979 2286.21 3094581
-1337.3854 637.04871 2277.3406 3094581
-1328.714 639.74353 2286.9739 3028788
-1314.1154 639.61212 2286.5042 3160374
-1299.6333 639.5351 2286.2288 3028788
-1291.4866 642.60876 2297.2166 2831409
-1268.2128 638.13995 2281.2415 3291960
-1262.7753 642.64648 2297.3516 3489339
-1246.1031 641.47357 2293.1584 3423546
-1251.5393 651.78699 2330.0271 3686718
-1251.8698 659.6535 2358.1487 3620925
-1239.1447 660.74634 2362.0554 3028788
-1210.2645 653.14709 2334.8894 3423546
-1193.2427 651.8399 2330.2163 3357753
-1183.8846 654.73865 2340.5789 3357753
-1163.2166 651.37671 2328.5605 3357753
-1150.1895 652.26257 2331.7273 3291960
-1146.5275 658.55029 2354.2051 3226167
-1128.3127 656.53424 2346.9978 3686975
-1107.6057 652.99548 2334.3474 3555901
-1090.8063 651.69659 2329.7041 3621438
-1077.5914 652.5332 2332.6948 3555645
-1062.9109 652.49292 2332.551 3358266
-1048.9449 652.89642 2333.9934 4016196
-1038.5275 655.55127 2343.4839 4147782
-1026.9136 657.51605 2350.5078 3884610
-1009.9629 656.07135 2345.3433 3687231
-1000.3455 659.41803 2357.3069 3753024
-988.15521 661.14355 2363.4753 3818817
-977.88501 664.22571 2374.4937 3818564
-963.008 664.22571 2374.4937 3753026
-946.44086 663.04169 2370.2607 3818563
-934.98761 665.45947 2378.9041 3753540
-920.08301 665.45947 2378.9041 4082248
-905.91125 665.99823 2380.8301 4213834
-892.33173 666.99768 2384.4028 4345420
-877.50507 667.08313 2384.7083 4345420
-864.1748 668.32874 2389.1611 4279884
-851.45807 670.1012 2395.4973 4214348
-832.79315 667.172 2385.0259 4149068
-824.28748 672.42328 2403.7983 4280396
-807.07983 670.63904 2397.4202 4872278
-783.35773 663.27148 2371.0823 4872023
-770.05328 664.61023 2375.8682 4609107
-755.91223 665.26538 2378.2102 4543058
-738.17395 662.71747 2369.1018 4543058
-729.64331 668.50104 2389.7771 4411472
-717.23047 670.89551 2398.3369 4543058
-693.06848 662.16718 2367.1345 4346191
-677.42761 661.37628 2364.3074 4345933
-658.94379 657.71246 2351.21 4806484
-648.65924 662.2522 2367.4385 4411726
-639.17786 667.84351 2387.4265 3950662
-626.04401 669.7951 2394.4031 3950662
-609.59094 668.20416 2388.7158 3950919
-589.28009 662.19794 2367.2446 3819333
-578.56775 666.94641 2384.2195 3687490
-564.38 667.83398 2387.3926 3884869
-544.27716 661.58008 2365.0359 3753026
-529.45947 661.58008 2365.0359 3095353
-511.32724 657.31915 2349.8037 3555391
-501.01306 663.15381 2370.6616 3686977
-488.09949 665.79913 2380.1184 3686977
-473.18729 665.79913 2380.1184 3818563
-455.61285 661.93134 2366.2915 3686977
-440.21317 661.06915 2363.2095 3489854
-426.88074 663.35938 2371.3967 3358012
-410.74664 661.30408 2364.0493 3358012
-392.85532 656.1601 2345.6604 3291962
-377.52042 655.052 2341.6992 3423548
-364.32309 657.71332 2351.2129 3818563
-346.33615 651.58777 2329.3152 4213321
-331.30396 650.72699 2326.2378 4081735
-316.26407 649.77094 2322.8203 4015942
-302.81274 652.14398 2331.3035 3555648
-288.66547 653.18274 2335.0168 3225912
-272.96912 650.64008 2325.9272 3686977
-259.00604 652.17499 2331.4143 3555391
-244.5175 652.49121 2332.5447 3292219
-227.83223 646.61298 2311.531 3686977
-215.5197 653.18951 2335.041 4015942
-200.88992 653.18951 2335.041 3950149
-185.09857 649.11597 2320.4788 3884356
-168.91438 642.85284 2298.0891 3884353
-152.63219 635.01483 2270.0696 3489852
-139.5238 640.1272 2288.3455 3753280
-125.08474 639.60626 2286.4832 3753281
-110.67847 639.14001 2284.8164 3029301
-96.147751 637.70978 2279.7036 3095094
-81.938042 638.28113 2281.7461 3358266
-68.074844 642.36365 2296.3403 3358266
-53.824997 644.00812 2302.219 3358523
-39.071602 638.62598 2282.9788 3490108
-25.034622 645.49976 2307.5515 3160887
-10.611153 647.57819 2314.9814 2634799
3.8590481 641.94293 2294.8364 2502957
18.357639 646.19263 2310.0283 2437420
33.077412 651.04889 2327.3887 2700083
47.729473 652.00848 2330.8191 2568496
62.284328 651.50177 2329.0076 2700082
77.399498 655.93585 2344.8586 2897461
93.033218 662.64862 2368.8557 3160634
106.97567 657.12531 2349.1108 2963254
121.99991 658.77942 2355.0239 3029047
136.90129 659.48474 2357.5454 2831668
151.80757 660.07404 2359.6521 2831925
166.3893 659.27283 2356.7878 2831668
180.72231 657.69702 2351.1545 2963254
195.61987 658.25842 2353.1616 3029047
209.97296 657.03748 2348.7969 3160888
225.29301 658.80402 2355.1121 3226425
240.25656 659.375 2357.1531 3160632
254.20938 657.26654 2349.6157 3160375
269.8916 659.6156 2358.0132 3094581
284.33011 658.83893 2355.2368 3291961
297.07602 654.4104 2339.4055 3029046
313.06601 657.2085 2349.4082 3160375
327.78577 657.2085 2349.4082 3094840
342.06009 656.3537 2346.3525 3028791
356.51801 655.90723 2344.7563 3029047
371.46164 656.35425 2346.3545 2963253
384.13815 652.91388 2334.0557 2502703
397.92935 651.55096 2329.1836 2765875
412.22 651.0733 2327.4761 2831411
426.64252 650.82947 2326.6042 2699825
441.21939 650.82947 2326.6042 2700081
455.3324 650.16711 2324.2363 3029301
469.7522 649.97021 2323.5327 2700336
485.28943 651.28491 2328.2324 2634287
500.69452 652.35065 2332.0422 2699823
515.30548 652.35065 2332.0422 2634030
529.31775 651.61365 2329.4075 2765616
544.23877 652.00482 2330.8059 2634029
557.52509 650.46838 2325.3135 2765616
572.09387 650.46838 2325.3135 3028788
585.76459 649.4726 2321.7537 3160374
603.04327 652.42847 2332.3206 3094581
619.68774 654.57465 2339.9927 3094581
635.37189 655.63068 2343.7678 2897202
650.0564 655.63068 2343.7678 2962994
666.12677 656.99768 2348.6545 2962994
680.8056 656.96277 2348.5298 2897202
697.02777 658.38708 2353.6213 3028788
712.54852 659.10352 2356.1826 3028788
727.31073 659.10352 2356.1826 2963254
742.41901 659.41083 2357.2812 3160633
759.65051 661.5553 2364.9473 3358012
772.40216 659.79095 2358.6401 3489598
790.15686 662.28632 2367.5605 3621184
798.08911 656.60846 2347.2632 3489598
815.58777 658.8642 2355.3271 3621184
832.00555 660.18219 2360.0386 3621441
855.89874 667.28204 2385.4194 3884356
859.68256 658.72955 2354.8457 4213321
870.87567 656.04712 2345.2566 3489598
884.40894 655.18744 2342.1833 3424062
893.70917 651.27106 2328.1829 3357755
919.75818 659.48975 2357.5632 3292219
928.61981 655.31964 2342.6558 3358012
945.11139 656.57996 2347.1611 3292475
946.50537 647.47382 2314.6084 3226169
955.01062 643.43372 2300.1658 3094840
974.53345 646.82648 2312.2942 3423805
993.21497 649.56946 2322.1001 3752770
1004.3383 647.36169 2314.2075 3752770
1018.973 647.44775 2314.5151 3489598
1033.1104 647.21979 2313.7004 3226426
1047.6064 647.21979 2313.7004 3226426
1063.9014 648.31604 2317.6191 3423805
1078.422 648.31604 2317.6191 3358012
1089.6547 646.36578 2310.6472 3226426
1107.2471 648.18958 2317.167 3621441
1105.3972 638.73187 2283.3574 3292220
1119.8597 638.82117 2283.6765 3095097
1142.1432 643.31342 2299.7356 3291959
1147.9917 638.552 2282.7144 3291959
1164.4553 639.73962 2286.96 2962995
1177.6902 639.14606 2284.8381 2962995
1191.0377 638.6272 2282.9832 3094581
1221.1573 647.00702 2312.9397 3686718
1239.7131 649.13525 2320.5476 4015683
1246.7848 645.27057 2306.7322 3489339
1256.8188 643.01007 2298.6514 3291960
1263.5703 639.14038 2284.8179 3226167
1277.0365 638.71582 2283.3 3226167
1296.224 641.13049 2291.9321 3357753
1304.9968 638.3974 2282.1619 3226167
1320.304 638.8855 2283.9067 3226167
1348.0098 645.29846 2306.8318 3423546
1352.7081 640.67841 2290.3159 3423546
1379.8304 646.66437 2311.7148 3357753
1393.9872 646.51276 2311.1729 3291961
1407.1207 645.89465 2308.9631 3226169
1420.5525 645.42456 2307.2827 3555134
1430.8201 643.54077 2300.5486 3094583
1448.657 645.06512 2305.9978 3094583
1460.1665 643.76965 2301.3667 3028790
1490.1886 650.58179 2325.7188 2700082
1505.7883 651.02637 2327.3081 2699825
1512.1113 647.49011 2314.6667 2831411
1517.6543 643.69025 2301.0828 3291962
1531.6494 643.51306 2300.4492 3620927
1546.1895 643.56586 2300.6382 3226169
1572.5383 648.48755 2318.2322 3028790
1590.379 649.84253 2323.0762 3291962
1604.9337 649.84253 2323.0762 3226170
1635.2927 656.1842 2345.7466 2897204
1640.0488 652.23083 2331.614 2765618
1652.4818 651.37341 2328.5488 2699825
1672.5505 653.51453 2336.2029 2831412
1691.4257 655.15601 2342.071 2897203
1733.4237 665.6488 2379.5808 2830897
1748.3324 665.6488 2379.5808 2634032
1736.0737 655.39264 2342.9167 2765362
1750.8309 655.42181 2343.0212 2765617
1769.2507 656.8103 2347.9849 2765361
1786.8314 657.86694 2351.762 2831153
1806.9183 659.82141 2358.749 2962739
1825.2444 661.10638 2363.3425 2765617
1832.1838 658.27972 2353.2375 2831410
1851.2787 659.83057 2358.7815 3160376
1875.2087 663.06647 2370.3494 2962997
1890.3354 663.16321 2370.6953 2897204
1910.6396 665.06061 2377.478 3094583
1934.9999 668.32959 2389.1643 3291962
1950.1863 668.40411 2389.4307 3291962
1957.1246 665.67224 2379.6646 3291962
1974.5728 666.52917 2382.728 2897204
1991.0583 667.05078 2384.5928 2897204
2011.704 668.948 2391.375 3160376
2025.5021 668.55701 2389.9773 3357755
2039.5065 668.23932 2388.8416 3357755
2040.0999 663.56421 2372.1289 3160376
2059.6548 665.07953 2377.5459 3094583
2089.1936 669.77393 2394.3274 3094583
2095.9585 667.15222 2384.9553 3160376
2085.0967 658.9967 2355.8008 3291962
2102.7212 659.89581 2359.0149 3028790
2123.8228 661.86591 2366.0576 2765875
2134.6282 660.62213 2361.6113 2962484
2148.7485 660.41443 2360.8689 2962227
2162.5532 660.11316 2359.792 3028020
2167.2871 657.06592 2348.8987 3159606
2175.6584 655.15527 2342.0684 3225399
2200.8081 658.2887 2353.2698 3291192
2218.0549 659.03235 2355.9282 3093813
2221.3577 655.65051 2343.8386 2962227
2231.5552 654.33478 2339.135 2896434
2247.4685 654.70111 2340.4448 3028020
2262.1321 654.70111 2340.4448 2962227
2272.1174 653.35583 2335.6357 2699312
2294.4365 655.55182 2343.4858 2699055
2310.8372 656.03949 2345.2292 2699055
2328.2324 656.80164 2347.9536 2633262
2344.4316 657.21893 2349.4456 2633262
2357.3088 656.70557 2347.6104 2501676
2378.8298 658.59161 2354.3525 2567469
2396.5129 659.3985 2357.2371 2764848
2412.0942 659.62067 2358.0312 2830641
nan nan nan 16777215
nan nan nan 16777215
nan nan nan 16777215
nan nan nan 16777215
nan nan nan 16777215
nan nan nan 16777215
nan nan nan 16777215
nan nan nan 16777215
nan nan nan 16777215
nan nan nan 16777215
-2053.3501 643.10339 2248.8821 3884613
-2052.5327 647.289 2263.519 4344907
-2049.7979 650.92401 2276.2302 4213321
-2044.8601 653.90558 2286.6565 3818563
-2038.1011 656.34253 2295.1785 3950149
-1998.7606 648.24725 2266.8699 3950149
-1982.302 647.51031 2264.293 3687233
-1975.3472 649.88953 2272.6128 3686977
-1960.1422 649.56934 2271.4932 3555904
-1944.8558 649.21729 2270.262 3687490
-1927.7065 648.23352 2266.8218 3490111
-1926.3774 652.59454 2282.072 3687490
-1907.5929 651.06323 2276.7173 3950662
-1897.0033 652.3269 2281.1362 3819076
-1869.8274 647.86285 2265.5256 3819076
-1852.3634 646.72131 2261.5337 3819076
-1829.4954 643.66083 2250.8315 3884612
-1821.9207 645.97516 2258.9246 3687234
-1807.417 645.84985 2258.4863 3687490
-1787.6508 643.82715 2251.4131 3752770
-1779.7192 646.06854 2259.251 3818563
-1757.6781 643.18274 2249.1597 3752770
-1741.3049 642.34113 2246.2166 3424061
-1721.5686 640.23511 2238.8521 3423805
-1706.7057 639.92169 2237.7561 3555391
-1694.1918 640.49115 2239.7473 3489598
-1709.5222 651.68463 2278.8901 2963254
-1658.6423 637.61414 2229.6868 3095094
-1641.9462 636.55713 2225.9905 3226680
-1624.7135 635.27222 2221.4973 3292473
-1618.1732 638.18201 2231.6726 3490108
-1610.201 640.57294 2240.0334 3687487
-1576.5775 632.71149 2212.5425 3424059
-1565.188 633.71265 2216.0435 3095094
-1552.9474 634.38403 2218.3914 3423802
-1537.1124 633.586 2215.6006 3555389
-1518.3215 631.54395 2208.4597 3424059
-1504.7001 631.63428 2208.7756 3357753
-1493.0706 632.57025 2212.0486 3423802
-1479.2114 632.57025 2212.0486 3686974
-1463.9651 631.97144 2209.9546 3621181
-1452.4568 632.99023 2213.5173 3686974
-1438.5884 632.99023 2213.5173 3555645
-1425.3949 633.2901 2214.5659 3489852
-1412.778 633.85449 2216.5396 3686974
-1396.5415 632.7901 2212.8174 3424060
-1386.7578 634.65741 2219.3472 3160374
-1378.5294 637.28162 2228.5239 3226167
-1372.4504 640.96338 2241.3987 3291960
-1357.0852 640.33948 2239.217 3094581
-1350.3745 643.82886 2251.4192 2897202
-1332.6917 642.10541 2245.3923 2897202
-1318.6237 642.10541 2245.3923 3094581
-1307.3248 643.46851 2250.1589 3226167
-1282.903 638.3316 2232.1958 3226167
-1264.667 636.19342 2224.7185 3160374
-1255.9386 638.84357 2233.9858 3028788
-1225.6173 630.44629 2204.6213 3357753
-1213.6454 631.40393 2207.9702 3818304
-1211.5518 637.58209 2229.5747 3555132
-1204.3505 641.18524 2242.1746 3489339
-1196.9144 644.74689 2254.6294 3489339
-1205.1409 656.93127 2297.2373 3357753
-1176.5621 649.1051 2269.8696 3555132
-1160.3444 647.99017 2265.9709 3620925
-1139.1366 644.02661 2252.1106 3423546
-1129.311 646.47931 2260.6875 3357753
-1116.7968 647.43567 2264.0317 3226167
-1115.5654 655.04169 2290.6296 3358009
-1117.1165 664.50116 2323.7085 4081989
-1087.0248 655.13953 2290.9717 3818817
-1066.3036 651.25055 2277.3723 3621438
-1047.0597 648.17059 2266.6018 3555645
-1037.9838 651.38678 2277.8486 3489852
-1027.4657 653.77509 2286.2002 4147782
-1014.7158 654.79065 2289.7517 3818817
-1000.3698 654.79065 2289.7517 3753024
-982.23822 652.27673 2280.9607 3687231
-970.01501 653.6701 2285.8333 3621438
-970.65277 663.90186 2321.6128 3753025
-958.16766 665.33264 2326.6162 4213321
-940.41083 663.09052 2318.7756 4345164
-922.35406 660.56317 2309.9377 4213578
-910.24121 662.28003 2315.9414 3819076
-896.10547 662.55682 2316.9094 4279627
-881.58936 662.55682 2316.9094 4542799
-866.7464 662.30719 2316.0364 4213834
-854.92035 664.39349 2323.332 4279627
-835.78601 660.77411 2310.6753 4345420
-824.95184 663.70496 2320.9243 4148298
-811.8432 664.87836 2325.0276 4148041
-801.0484 668.02411 2336.0281 4345163
-784.18005 666.12781 2329.3967 4411213
-767.84583 664.62183 2324.1306 3884868
-750.67938 662.32343 2316.0933 4016454
-732.56232 659.0791 2304.748 4608592
-718.4325 659.36377 2305.7434 4082248
-704.89539 660.21521 2308.7209 4148041
-693.04596 662.71619 2317.4666 4016712
-674.77222 659.04956 2304.6448 4279627
-660.93323 659.64874 2306.74 4016455
-646.32648 659.49127 2306.1895 4148041
-629.09595 656.5882 2296.0376 4082248
-615.6604 657.60266 2299.5852 3819076
-601.81519 658.2179 2301.7363 3884869
-589.73572 660.8418 2310.9121 3753540
-574.45959 659.92554 2307.708 3555905
-559.69073 659.55988 2306.4292 3489855
-546.09375 660.59229 2310.0396 3686721
-532.97839 662.27948 2315.9395 3621184
-515.37415 658.32703 2302.1182 3029047
-496.72504 652.77399 2282.6995 3226426
-487.88928 660.17017 2308.5635 3752770
-474.61652 661.83112 2314.3716 3226426
-457.02377 657.38287 2298.8164 3950149
-442.24158 656.8194 2296.8459 3292219
-430.9693 661.6062 2313.5852 3358012
-413.61819 657.06958 2297.7209 3555648
-398.30325 655.55701 2292.4316 3950149
-382.18985 652.56793 2281.979 3884099
-370.88571 657.87726 2300.5452 3950406
-357.76944 660.27155 2308.918 4147785
-338.25842 650.56866 2274.9878 4081735
-322.67151 647.89136 2265.6252 4081735
-308.36575 647.65839 2264.8108 4015942
-296.34262 652.42847 2281.4912 3621184
-281.14008 650.32733 2274.1438 3423805
-264.09708 643.5174 2250.3301 3358269
-250.0112 643.55121 2250.4482 3555391
-236.27617 644.54614 2253.9275 3621184
-223.50894 648.47552 2267.6682 4015942
-209.37837 648.71429 2268.5032 4279114
-195.1655 648.71429 2268.5032 4081735
-180.03987 645.44208 2257.0605 4081735
-164.04276 638.2215 2231.8105 3753024
-150.10976 638.43408 2232.554 3621438
-135.78122 636.83521 2226.9629 3621438
-122.79546 641.88916 2244.6362 3687231
-108.73211 641.88916 2244.6362 3621438
-94.658127 641.81708 2244.384 3424059
-79.899368 636.26666 2224.9746 3555645
-66.766708 644.05597 2252.2134 3621438
-52.78875 645.68109 2257.8962 3621438
-38.615944 645.24023 2256.3545 3424059
-24.237526 638.8703 2234.0796 2963765
-10.457618 652.42682 2281.4856 2897715
3.8342605 652.02942 2280.0959 2502957
17.7577 639.00061 2234.5352 2305578
32.268112 649.26953 2270.4448 2831669
46.802631 653.59137 2285.5579 2568753
61.261478 655.07898 2290.76 2502703
75.868271 657.28357 2298.4692 2897718
90.26889 657.28357 2298.4692 3029047
104.19312 654.29205 2288.0081 3094840
118.63528 654.88306 2290.075 2897461
133.21912 656.04437 2294.1357 2897461
147.63516 656.23358 2294.7974 2831925
161.55066 654.36176 2288.252 2568496
175.63371 653.4184 2284.9531 2634289
190.54323 655.46033 2292.0935 2765875
204.9039 655.46033 2292.0935 3094580
219.75612 656.92969 2297.2317 2962995
233.4865 655.07104 2290.7322 3160374
248.8132 657.64691 2299.7397 3094581
263.02136 657.14618 2297.9888 3160374
277.10257 656.39673 2295.3679 3094580
289.24042 651.34485 2277.7019 3028788
303.75113 651.86029 2279.5044 3094581
317.83261 651.44977 2278.0688 3160632
331.44748 650.15918 2273.5557 3357755
344.69229 648.27893 2266.9807 3358009
357.58768 645.91638 2258.719 2963765
372.70804 647.59961 2264.6052 3094581
386.63669 647.16479 2263.0847 2765616
400.81561 647.16479 2263.0847 2962995
413.85382 645.38593 2256.864 3028788
430.87619 649.73236 2272.0632 2897202
446.35629 651.54962 2278.418 3094581
461.50821 652.78998 2282.7556 3226423
471.03601 646.23975 2259.8499 2897202
486.19315 647.5697 2264.5005 2568493
500.83603 648.15857 2266.5598 2568494
515.33636 648.53564 2267.8784 2634543
530.1319 649.25409 2270.3906 2503213
544.17358 649.03577 2269.6272 2437420
556.3006 646.60315 2261.1206 2897971
570.1601 646.25507 2259.9033 3029301
589.7688 652.28235 2280.9805 3094581
604.05981 652.28235 2280.9805 3094325
617.44849 651.33044 2277.6516 2962995
634.27899 653.97028 2286.8828 3028788
648.05176 653.4104 2284.925 2897459
662.10175 653.14825 2284.0083 2831409
679.40704 656.04053 2294.1223 2962995
694.2099 656.44659 2295.5425 2897461
708.72632 656.5708 2295.9768 2700082
722.78766 656.27698 2294.9492 2700082
726.59308 646.86401 2262.0327 3292219
743.99341 649.6828 2271.8899 3292219
766.06793 656.40082 2295.3823 3423805
775.1203 651.91888 2279.7095 3621441
789.40338 651.91888 2279.7095 3357755
806.98572 654.59521 2289.0681 3291962
814.8338 649.41974 2270.97 3226169
838.91388 657.13672 2297.9558 3160376
854.80768 658.28912 2301.9856 3094583
855.21063 647.67169 2264.8572 3028790
869.4007 647.67169 2264.8572 2765618
872.31372 639.4057 2235.9517 3094583
886.32269 639.4057 2235.9517 3489341
901.93689 640.54578 2239.9385 3029047
908.70044 635.46155 2222.1592 2699825
930.284 640.7381 2240.6111 3226169
957.76105 649.85663 2272.4978 3423548
969.73804 648.34503 2267.2119 3357755
977.15881 643.87488 2251.5801 3094583
989.32684 642.61554 2247.1763 2962997
995.38556 637.47888 2229.2139 3291962
1009.175 637.367 2228.8225 3357495
1043.0956 649.79877 2272.2954 3160374
1057.3322 649.79877 2272.2954 3094581
1055.791 640.23114 2238.8381 3094581
1074.2911 642.90808 2248.1992 3291961
1083.705 640.14838 2238.5488 3357754
1090.6685 636.03033 2224.1482 3095094
1099.582 633.13904 2214.0376 2897202
1130.752 642.97522 2248.4341 3094581
1154.5664 648.43835 2267.5381 3160374
1144.7399 635.10461 2220.9111 3160373
1149.1632 629.90198 2202.718 3160374
1168.551 632.92816 2213.3003 3555132
1183.1173 633.30249 2214.6091 3555132
1196.9924 633.30249 2214.6091 2897202
1204.3602 629.89893 2202.7073 2568237
1235.6659 638.95062 2234.3604 3357753
1249.6648 638.95062 2234.3604 3291960
1260.1436 637.17072 2228.136 3291960
1274.1035 637.17072 2228.136 3226167
1284.3425 635.33008 2221.6995 3160374
1316.2919 644.15314 2252.5532 3094581
1320.1718 639.19861 2235.2275 3160374
1332.5618 638.42511 2232.5227 3094581
1345.0873 637.73199 2230.0989 3160375
1359.8409 638.09863 2231.3811 3226169
1381.8625 641.83362 2244.4419 3423548
1401.5198 644.40619 2253.438 3094583
1430.566 651.20142 2277.2004 2765875
1443.051 650.39807 2274.3911 2765618
1448.7472 646.58051 2261.0415 2962997
1458.8677 644.79248 2254.7888 3028790
1480.4128 648.03973 2266.1443 3094583
1494.611 648.03973 2266.1443 3226169
1494.7834 642.01569 2245.0786 3423548
1508.8496 642.01569 2245.0786 3029047
1531.4337 645.60663 2257.636 2897204
1549.3939 647.20032 2263.209 3094583
1565.0682 647.81909 2265.3726 3226169
1583.7791 649.67218 2271.8528 3357755
1593.2354 647.7298 2265.0605 3226169
1610.1941 648.84497 2268.9602 3226169
1625.9065 649.44287 2271.0508 3423548
1654.3571 655.07416 2290.7432 3489341
1662.5671 652.66302 2282.3115 3226426
1676.2383 652.41846 2281.4563 3226168
1688.365 651.58209 2278.5315 2831667
1712.4741 655.34521 2291.6909 2831410
1722.7128 653.78186 2286.2239 2831410
1742.817 655.95746 2293.8318 2830897
1764.1956 658.57318 2302.9788 2831154
1803.3761 667.73792 2335.0273 2568237
1799.4344 660.91687 2311.1746 2568494
1817.6027 662.26062 2315.8735 3160376
1831.5841 662.0697 2315.2058 3160376
1858.2058 666.41492 2330.4009 2699825
1866.3319 664.11108 2322.3445 2699825
1877.7448 663.0033 2318.4707 2831411
1903.3599 666.88873 2332.0576 3028790
1918.6991 667.14185 2332.9429 3160376
1924.4994 664.09955 2322.3042 2962997
1935.21 662.78461 2317.7061 2897204
1947.5769 662.05237 2315.1453 2765618
1969.2238 664.4621 2323.572 3094583
1981.2007 663.59766 2320.5491 3226426
1988.7065 661.25903 2312.3711 3226169
1999.351 659.99036 2307.9346 3094583
2028.5696 664.82727 2324.8489 3160376
2043.0004 664.78333 2324.6953 3226169
2026.5232 654.75385 2289.623 3291962
2044.4751 655.91095 2293.6692 3094583
2068.7764 659.07471 2304.7327 3094069
2079.7417 657.97546 2300.8887 3093814
2092.4482 657.43835 2299.0105 3225142
2106.8521 657.43835 2299.0105 2962227
2116.5129 655.96832 2293.8699 3159606
2127.979 655.07385 2290.7419 3159606
2140.5356 654.52472 2288.8218 3159606
2156.0356 654.87701 2290.0537 3159606
2166.3838 653.67017 2285.8335 3093813
2178.3638 652.96832 2283.3792 2764848
2183.4089 650.21045 2273.7351 2699055
2193.3762 648.94464 2269.3086 2764848
2214.8 651.06293 2276.7161 2830641
2229.6855 651.24438 2277.3506 2830641
2243.917 651.23364 2277.313 2764848
2255.8223 650.55225 2274.9304 2699055
2278.7666 653.04291 2283.6399 2764848
2291.7573 652.66785 2282.3284 2567469
2318.3389 656.14398 2294.4841 2304297
2353.22 661.91174 2314.6536 2567469
2385.5051 666.88312 2332.0381 2962227
nan nan nan 16777215
nan nan nan 16777215
nan nan nan 16777215
nan nan nan 16777215
nan nan nan 16777215
nan nan nan 16777215
nan nan nan 16777215
nan nan nan 16777215
nan nan nan 16777215
nan nan nan 16777215
-2011.1925 643.62738 2202.7102 4081735
-2014.9482 649.28461 2222.071 4081735
-2012.9429 653.15131 2235.3042 4081735
-2001.1355 653.86932 2237.7615 3950149
-1975.4279 650.0235 2224.5999 3884356
-1953.1635 647.26422 2215.1565 3818563
-1940.7119 647.74054 2216.7866 3687234
-1926.8231 647.74054 2216.7866 3752771
-1911.3302 647.19739 2214.9277 3621698
-1897.0343 647.0545 2214.439 3490111
-1886.7747 648.29651 2218.6895 3424318
-1877.5616 649.91919 2224.2427 3424318
-1857.739 647.86615 2217.2166 3358525
-1854.7032 651.68048 2230.2705 3555904
-1837.6035 650.57361 2226.4824 3753283
-1811.8121 646.34918 2212.0249 3687490
-1788.6813 643.01599 2200.6177 3424318
-1772.3074 642.07904 2197.4111 3686721
-1749.9878 638.95648 2186.7246 3686721
-1742.3822 641.1994 2194.4006 3555391
-1727.8159 640.89612 2193.3628 3555391
-1717.3313 642.11407 2197.531 3621184
-1695.8938 639.22333 2187.6379 3358012
-1683.9401 639.88934 2189.9172 3358012
-1673.3925 641.10486 2194.0771 3555135
-1652.3085 638.27051 2184.3772 3489599
-1624.7496 632.86676 2165.8835 3423806
-1619.3979 636.09485 2176.9312 3292473
-1602.6244 634.85321 2172.6819 3292473
-1586.2681 633.75696 2168.9302 3358266
-1575.345 634.8313 2172.6069 3424059
-1561.733 634.8313 2172.6069 3555645
-1540.1514 631.56323 2161.4226 3489852
-1527.3391 631.86517 2162.4558 3424059
-1517.6285 633.46716 2167.9382 3226680
-1504.9738 633.85797 2169.2759 3358009
-1483.9091 630.68158 2158.4053 3423802
-1472.8376 631.73315 2162.0042 3358009
-1464.9498 634.1825 2170.3865 3423802
-1445.0579 631.43231 2160.9746 3357753
-1424.8676 628.4986 2150.9343 3291960
-1411.3914 628.4986 2150.9343 3160373
-1400.0718 629.46826 2154.2527 3291960
-1387.999 630.11493 2156.4658 3554876
-1371.5846 628.78375 2151.9102 3423290
-1360.2672 629.78619 2155.3408 3160374
-1355.6671 633.94983 2169.5903 3160374
-1342.7875 634.28687 2170.7437 3094581
-1336.6223 637.83496 2182.8865 3226167
-1325.9828 639.29919 2187.8975 3489339
-1309.083 637.74414 2182.5757 3620925
-1283.9832 632.11932 2163.3257 3686718
-1264.9424 629.38928 2153.9824 3423546
-1257.9655 632.66754 2165.2019 3489339
-1242.6111 631.75818 2162.0896 3489339
-1229.5145 631.98926 2162.8806 3489339
-1215.9635 631.98926 2162.8806 3489339
-1206.2111 633.98584 2169.7136 3555132
-1194.3202 634.89124 2172.812 3752511
-1181.0303 635.06512 2173.4072 3621181
-1173.438 638.34259 2184.6238 3555132
-1159.7506 638.34259 2184.6238 3489339
-1149.2433 640.11383 2190.6855 3752511
-1138.6019 641.85229 2196.6353 4015683
-1122.9515 640.77509 2192.9485 4081732
-1113.2684 643.11841 2200.9683 3357753
-1115.1705 652.297 2232.3806 3489339
-1102.6445 653.16223 2235.3416 3620925
-1094.9948 656.97528 2248.3911 3620668
-1086.2828 660.24225 2259.5718 3423802
-1066.0991 656.5307 2246.8696 3423802
-1046.0527 652.80566 2234.1213 3686975
-1046.1254 661.70544 2264.5793 2963764
-1025.9055 657.83783 2251.343 2634543
-1006.9625 654.69257 2240.5789 2831922
-996.27997 656.90491 2248.1504 3818817
-981.69385 656.57001 2247.0042 3884610
-957.97913 650.03125 2224.6262 3753024
-950.24921 654.30585 2239.2554 3489852
-929.14728 649.36316 2222.3398 3555645
-935.21442 663.54688 2270.8813 4081736
-917.20715 660.82391 2261.5623 4015942
-901.65485 659.81189 2258.0989 3818820
-878.55994 653.1601 2235.3342 3687234
-869.84198 657.15442 2249.0042 3621184
-855.75122 657.15442 2249.0042 3621441
-844.29437 659.21088 2256.042 3489598
-830.15955 659.21088 2256.042 3687747
-813.04358 656.80261 2247.8 4016455
-802.31665 659.56165 2257.2424 3753283
-774.3139 647.96295 2217.5479 3621697
-761.85254 649.18341 2221.7246 3884869
-747.88147 649.13885 2221.5723 3621697
-735.12573 650.1676 2225.0928 3358525
-731.33234 659.3158 2256.4011 3884869
-716.50226 658.67865 2254.2207 4213834
-687.6864 644.90039 2207.0667 3819076
-674.18146 645.20947 2208.1245 3819076
-664.63135 649.39575 2222.4514 3687747
-657.17261 655.84839 2244.5344 3884869
-642.98932 655.7254 2244.1135 4082505
-623.02362 649.56812 2223.0413 4082248
-612.96741 653.69714 2237.1724 3819076
-598.95081 653.69714 2237.1724 3490112
-580.05328 648.24243 2218.5044 3818562
-566.88788 649.08307 2221.3813 3753027
-552.85956 648.95319 2220.9368 3555391
-542.79596 653.59058 2236.8076 3489598
-536.30029 662.88379 2268.6121 3555391
-523.51996 664.70361 2274.8401 3094840
-509.36859 664.83563 2275.292 3160633
-494.6636 664.23199 2273.2261 3423805
-476.14099 658.31427 2252.9736 3621184
-460.55368 656.21722 2245.7969 3423805
-445.99106 655.49414 2243.322 4213321
-427.36777 648.56165 2219.5967 3752770
-413.69016 648.92053 2220.8252 3686977
-400.28647 649.74915 2223.6609 3752770
-386.86801 650.61267 2226.6162 3884356
-370.75177 646.83411 2213.6846 3884356
-356.54602 646.22449 2211.5984 3950149
-342.68808 646.22156 2211.5881 3818306
-328.25067 645.07953 2207.6797 3686977
-313.64337 643.48846 2202.2346 4213321
-299.8457 643.48846 2202.2346 3752770
-286.48575 644.47321 2205.6047 3950406
-272.66696 644.47321 2205.6047 4081735
-256.72543 639.18805 2187.5173 3752770
-242.37721 637.49756 2181.7317 3752770
-228.03235 635.61432 2175.2866 3818563
-216.19655 640.92987 2193.4783 4213321
-202.45372 640.92987 2193.4783 4213321
-187.13353 635.57257 2175.1438 4081735
-173.97023 637.2746 2180.9688 3489598
-160.86467 639.4964 2188.5725 3753280
-147.45903 640.82812 2193.1301 3950403
-133.55708 640.05505 2190.4844 3818817
-119.15413 636.42902 2178.075 3753024
-105.5821 636.87708 2179.6084 3687231
-91.992836 637.33899 2181.189 3555902
-78.212051 636.4035 2177.9875 3555645
-64.568588 636.42621 2178.0652 3489851
-51.430157 642.77295 2199.7859 3358010
-37.450184 639.39874 2188.2383 3226680
-23.870228 642.901 2200.2241 3029301
-10.101583 643.94916 2203.8113 3424059
3.7414417 650.11127 2224.9001 2831922
17.542198 645.00287 2207.4175 3029301
31.113466 639.68024 2189.2017 2963255
45.466606 648.7713 2220.3145 2634289
59.496399 650.06976 2224.7581 2700082
73.44561 650.16193 2225.0735 2831668
87.218597 648.91357 2220.8013 2897461
101.42068 650.7619 2227.127 2897718
115.58986 651.97766 2231.2876 2963511
129.47035 651.47845 2229.5791 3029047
143.34624 651.05554 2228.1318 2831925
157.26044 650.86627 2227.4839 2700082
170.62318 648.61151 2219.7673 2502703
185.15282 650.7981 2227.2507 2831669
198.29967 648.15851 2218.2173 2634802
212.07582 647.78693 2216.9456 2568750
226.93056 650.55298 2226.4119 2831665
241.30817 651.71014 2230.3721 3094581
255.51106 652.29456 2232.3721 2962995
268.56018 650.02563 2224.6072 3028788
281.82895 648.48615 2219.3384 3094581
294.69803 646.2149 2211.5654 3291962
308.55417 646.2149 2211.5654 3489340
321.84607 645.08398 2207.6951 3555132
334.47635 642.77478 2199.7922 3489339
351.21423 648.22968 2218.4607 2963252
362.41565 643.4397 2202.0679 3028788
376.21228 643.4397 2202.0679 2699823
388.9805 641.74304 2196.2612 3752511
403.22284 642.51123 2198.8901 3357753
420.21954 647.47253 2215.8694 3028788
434.35172 647.84399 2217.1409 3094581
449.57608 649.77106 2223.7358 3160374
467.23285 654.99207 2241.6038 2963251
484.88797 659.90613 2258.4214 2634542
489.55093 647.36121 2215.4885 2568750
502.97421 646.77307 2213.4756 2371371
517.47028 647.55884 2216.1648 2437164
531.35522 647.55884 2216.1648 2437164
544.96173 647.22809 2215.033 2437164
557.81134 646.03723 2210.9573 2437164
572.48505 646.96552 2214.1343 2568750
586.56067 647.18988 2214.9021 2831922
600.87531 647.66156 2216.5164 2831666
617.02283 650.04285 2224.666 2962995
630.74902 649.8244 2223.9185 2962995
643.17206 648.30188 2218.7078 2765616
661.52997 652.6994 2233.7576 2765618
672.47089 649.74829 2223.658 2700082
687.1803 650.48431 2226.1768 2700082
702.44733 651.70837 2230.366 3226426
718.07385 653.21167 2235.5107 3686977
724.34296 646.30811 2211.8845 3358012
738.20111 646.30811 2211.8845 3226426
750.9519 645.35651 2208.6277 3423805
759.81714 641.16052 2194.2676 3160119
778.84509 645.53699 2209.2454 3160376
792.77441 645.60834 2209.4897 3094583
810.02734 648.33759 2218.8298 3094583
826.7467 650.55481 2226.418 3291962
833.81036 645.2265 2208.1829 3291962
845.79193 643.81567 2203.3545 3226169
858.45349 642.95953 2200.4246 3620927
870.2052 641.45972 2195.2917 3818306
881.5069 639.67999 2189.2009 2765618
893.32056 638.32068 2184.5488 1318172
902.44727 635.11145 2173.5657 1844516
916.06537 635.11145 2173.5657 3094583
931.57092 636.40094 2177.9788 3291962
946.26978 637.10999 2180.4053 3226169
962.01849 638.49561 2185.1475 3226169
977.98004 639.98175 2190.2334 3226169
992.03149 640.19403 2190.96 3291959
1009.5184 642.58722 2199.1504 3291960
1023.9007 642.96643 2200.4482 3226167
1034.9373 641.26263 2194.6172 3226167
1046.7651 640.08728 2190.5947 3160374
1059.9851 639.78259 2189.552 3291960
1073.6174 639.73151 2189.377 3160121
1087.3346 639.73151 2189.377 2765619
1102.5942 640.62769 2192.4441 3226170
1120.7762 643.17896 2201.1753 3620928
1126.4495 638.57703 2185.426 3686720
1130.5667 633.21399 2167.072 3555134
1140.2523 631.06018 2159.7009 3423547
1165.5709 637.50739 2181.7654 3028788
1179.2404 637.50739 2181.7654 2699823
1185.1091 633.33856 2167.4983 2436651
1170.176 618.27332 2115.9399 2765616
1216.6877 635.64697 2175.3984 3094581
1233.7964 637.44446 2181.55 3291960
1246.8008 637.10529 2180.3892 3291960
1258.2522 635.98853 2176.5674 3160374
1271.541 635.81458 2175.9719 3094581
1287.0159 636.72571 2179.0901 3291960
1306.0054 639.33826 2188.0312 3291960
1319.7141 639.33826 2188.0312 3291961
1325.016 635.30743 2174.2363 3357755
1340.6384 636.25671 2177.4851 3291962
1358.5829 638.27771 2184.4019 3357756
1380.4587 642.0871 2197.4387 3094584
1404.8676 646.98773 2214.2102 2765875
1412.2126 644.01093 2204.0227 3160376
1423.6628 642.94574 2200.3772 3160376
1437.449 642.94574 2200.3772 3094583
1448.2153 641.60797 2195.7988 3226169
1466.1317 643.43317 2202.0454 3160376
1477.5557 642.40161 2198.5151 3094583
1495.6962 644.28235 2204.9517 3028790
1510.2288 644.58875 2206.0002 3028790
1521.2322 643.39703 2201.9216 3226169
1534.4515 643.1554 2201.0947 3423548
1552.5511 644.94543 2207.2209 3291962
1580.504 650.76086 2227.1233 3291962
1600.2147 653.1106 2235.1648 3752513
1620.5514 655.67273 2243.9333 3884355
1616.6761 648.479 2219.314 3489341
1624.7041 646.14185 2211.3154 3291962
1645.069 648.70905 2220.1013 3028789
1665.8639 651.40149 2229.3157 3028790
1682.7985 652.55206 2233.2534 2765873
1701.1478 654.22778 2238.9883 2304810
1708.7333 651.77045 2230.5784 2633518
1747.4498 661.13104 2262.6135 2962483
1760.0399 660.53589 2260.5767 3028275
1770.6322 659.20642 2256.0269 3094840
1791.5479 661.71094 2264.5981 3226169
1810.2666 663.37109 2270.2798 2897204
1827.3627 664.41534 2273.8535 2831411
1830.5715 660.43323 2260.2253 2831411
1843.4019 659.95685 2258.595 3028790
1857.5607 659.95966 2258.6047 3028790
1871.2003 659.77942 2257.9878 3028790
1884.9597 659.6438 2257.5237 2897204
1901.0181 660.30865 2259.7991 2831411
1909.4429 658.33191 2253.0339 3028020
1931.4054 661.01746 2262.2246 2699568
1933.4894 656.90997 2248.1675 2699312
1939.9569 654.34045 2239.3738 2699825
1962.4589 657.17731 2249.0825 3488314
1971.2745 655.42328 2243.0796 3356985
1968.4316 649.84515 2223.9895 3291192
1991.8494 652.9541 2234.6292 2897460
2007.7607 653.57605 2236.7578 2897461
2019.1097 652.7146 2233.8096 3029046
2029.0448 651.41101 2229.3481 3029046
2043.4241 651.54218 2229.7974 3028021
2060.2322 652.44098 2232.873 2830641
2072.4207 651.87439 2230.9341 2633262
2085.0696 651.45923 2229.5134 2567469
2094.812 650.14764 2225.0247 2567726
2116.1619 652.43207 2232.8425 2896434
2121.2996 649.72089 2223.564 3093813
2133.8628 649.30457 2222.1394 3159606
2134.0701 645.1582 2207.9492 2896434
2156.1277 647.62848 2216.4033 2764848
2170.1309 647.66339 2216.5227 2830641
2179.8271 646.42053 2212.2693 2896434
2195.8008 647.04327 2214.4004 2896691
2213.9583 648.29761 2218.6931 2962227
2231.116 649.24536 2221.9368 2830641
2245.0371 649.24536 2221.9368 2567469
2294.7937 659.5448 2257.1848 2633262
2308.9358 659.5448 2257.1848 2830898
nan nan nan 16777215
nan nan nan 16777215
nan nan nan 16777215
nan nan nan 16777215
nan nan nan 16777215
nan nan nan 16777215
nan nan nan 16777215
nan nan nan 16777215
nan nan nan 16777215
nan nan nan 16777215
-1944.5731 635.58057 2129.7468 3950149
-1963.8507 646.31647 2165.7212 3818563
-1956.3724 648.33484 2172.4846 3752770
-1940.9489 647.73004 2170.458 3555648
-1925.2605 647.02771 2168.1047 3555391
-1910.6069 646.66565 2166.8914 3555391
-1903.8402 648.98694 2174.6697 3424061
-1883.1727 646.56897 2166.5674 3423805
-1861.3506 643.71649 2157.0093 3095610
-1853.6476 645.74097 2163.793 3095353
-1839.35 645.48102 2162.9219 3095353
-1826.0614 645.57391 2163.2332 3095610
-1815.908 646.78491 2167.291 3095353
-1802.3292 646.78491 2167.291 3358525
-1779.9529 643.60382 2156.6316 3358525
-1756.4276 639.95551 2144.4065 3358525
-1745.2219 640.77411 2147.1497 3424574
-1725.4351 638.43036 2139.2961 3687233
-1706.4524 636.34973 2132.3242 3752770
-1692.0625 635.96259 2131.0269 3686977
-1675.2155 634.63837 2126.5896 3621184
-1659.6771 633.7926 2123.7556 3489599
-1639.5173 631.15417 2114.9146 3489598
-1625.4758 630.84723 2113.886 3226681
-1609.7507 629.87646 2110.6331 3226424
-1592.965 628.47119 2105.9241 3160887
-1580.4166 628.72809 2106.7852 3226423
-1569.8621 629.78925 2110.3408 3226423
-1556.6401 629.78925 2110.3408 3423546
-1536.7562 627.07092 2101.2319 3226424
-1525.0836 627.685 2103.2898 3094581
-1514.0444 628.57288 2106.2649 3160374
-1501.6898 628.92548 2107.4463 3291960
-1494.6694 631.53809 2116.2009 3226167
-1476.9922 629.65436 2109.8889 3160374
-1466.3193 630.74969 2113.5591 3160374
-1453.6667 631.00562 2114.4167 2897202
-1434.4043 628.37061 2105.5872 2897202
-1434.0405 634.04254 2124.593 2568237
-1403.8417 626.50598 2099.3389 2699823
-1404.1727 632.58057 2119.6941 2962995
-1391.0377 632.64667 2119.9158 2897202
-1373.7267 630.79663 2113.7163 3160374
-1362.4301 631.6991 2116.7405 3160374
-1346.3149 630.36322 2112.2642 3029045
-1333.4082 630.51801 2112.7827 3094838
-1323.1328 631.93256 2117.5227 3291960
-1312.2133 633.06506 2121.3176 3160374
-1314.0073 640.41699 2145.9531 3555132
-1300.5623 640.41699 2145.9531 3489339
-1273.4554 633.61945 2123.1753 3489339
-1255.0911 631.07428 2114.6467 3620925
-1238.9325 629.59558 2109.6919 3620925
-1232.2705 632.96307 2120.9758 3489339
-1224.1384 635.64062 2129.948 3620925
-1211.8524 636.19647 2131.8105 3949890
-1185.8966 629.50842 2109.3997 3949890
-1172.443 629.38086 2108.9724 3884097
-1158.3732 628.91583 2107.4141 3884097
-1148.8025 630.91095 2114.0996 3950147
-1143.8728 635.53125 2129.5815 3752511
-1129.6918 635.05981 2128.002 3555132
