# .PCD v0.7 - Point Cloud Data file format
VERSION 0.7
FIELDS x y z rgb
SIZE 4 4 4 4
TYPE F F F U
COUNT 1 1 1 1
WIDTH 1279
HEIGHT 1
VIEWPOINT 0 0 0 1 0 0 0
POINTS 1279
DATA ascii
1623.611 629.76605 1606.9047 2765366
1628.4895 627.76569 1601.8005 2502193
1633.7126 625.92181 1597.0957 2107435
nan nan nan 16777215
nan nan nan 16777215
nan nan nan 16777215
nan nan nan 16777215
nan nan nan 16777215
nan nan nan 16777215
nan nan nan 16777215
nan nan nan 16777215
nan nan nan 16777215
nan nan nan 16777215
nan nan nan 16777215
nan nan nan 16777215
nan nan nan 16777215
nan nan nan 16777215
-1369.0052 613.81403 1541.6858 2700341
-1357.3159 612.89722 1539.3832 2765877
-1347.6711 612.89722 1539.3832 2831670
-1338.8097 613.25598 1540.2843 2963256
-1328.42 612.91486 1539.4275 3160635
-1318.4807 612.77814 1539.0841 2963513
-1311.2073 613.88739 1541.8701 2831927
-1302.8091 614.48273 1543.3654 2897463
-1296.2981 615.98364 1547.1351 2568498
-1271.3967 608.70251 1528.8475 2436912
-1263.9225 609.71771 1531.3975 2502705
-1256.3356 610.69373 1533.8486 2502705
-1246.7256 610.69373 1533.8486 2502705
-1238.6835 611.46771 1535.7927 2502705
-1230.1459 612.00732 1537.1481 2502705
-1218.4806 610.98712 1534.5856 2568498
-1211.9838 612.56293 1538.5435 2502705
-1192.3632 607.47778 1525.7715 2502962
-1178.7194 605.38013 1520.5029 2436912
-1170.5077 606.06085 1522.2126 2700084
-1164.9508 608.13867 1527.4313 2700341
-1160.3621 610.76044 1534.0164 2502705
-1150.751 610.76044 1534.0164 2700084
-1143.6804 612.12024 1537.4316 2765877
-1135.6694 612.99548 1539.6299 2700084
-1124.6456 612.24548 1537.7462 2700084
-1114.9355 612.20398 1537.642 2765877
-1106.0061 612.59418 1538.6219 2765877
-1092.9948 610.71033 1533.8905 2568498
-1083.3844 610.71033 1533.8905 2371376
-1072.2383 609.83679 1531.6964 2502705
-1064.6407 610.98401 1534.5779 2371119
-1056.2346 611.68384 1536.3356 2239531
-1046.6152 611.68756 1536.3448 2173740
-1034.3231 610.11469 1532.3944 2502704
-1025.7115 610.70374 1533.8739 2700083
-1016.1013 610.70374 1533.8739 2634291
-1004.6292 609.57397 1531.0363 2437169
-1001.2916 613.40582 1540.6605 1844262
-989.06055 611.81085 1536.6547 1712676
-978.02075 610.92877 1534.4391 1975848
-968.40704 610.92877 1534.4391 2041641
-959.83923 611.59521 1536.113 1976105
-955.81439 615.19922 1545.1649 1844262
-946.24011 615.26855 1545.3391 1712676
-947.09216 622.1889 1562.7206 2896950
-939.41992 623.59528 1566.2529 2962743
-931.43475 624.82141 1569.3326 1581090
-922.40845 625.36792 1570.7052 1317919
-909.76691 623.44867 1565.8848 1581090
-896.43677 621.01068 1559.7612 2239019
-879.0968 615.71045 1546.449 2568496
-867.76385 614.5462 1543.5248 2634289
-866.26331 620.3974 1558.2209 2305324
-858.86279 622.10846 1562.5186 2239531
-845.11865 619.211 1555.2412 2239531
-839.21344 622.05652 1562.3881 2107945
-830.78033 623.07336 1564.942 2042152
-822.04059 623.88171 1566.9723 2239530
-810.74316 622.745 1564.1173 1778979
-800.94348 622.745 1564.1173 2239530
-793.68298 624.74365 1569.1373 2568752
-776.22491 618.66486 1553.8695 2436910
-766.97046 619.0531 1554.8446 2502703
-755.85242 617.92786 1552.0183 2634289
-739.43207 612.38196 1538.089 2437167
-729.69537 612.29797 1537.8781 2963254
-719.73572 612.02216 1537.1853 2897718
-703.21112 606.08063 1522.2623 2831668
-691.30841 604.01404 1517.0718 2568496
-685.17896 607.00439 1524.5825 2305324
-677.2843 608.49347 1528.3224 2831668
-669.75146 610.35486 1532.9977 2634289
-659.8584 610.08826 1532.328 2305324
-648.66864 608.59723 1528.583 2239531
-640.61438 610.0473 1532.2252 2239021
-632.53497 611.51721 1535.9171 1844262
-620.59998 609.24756 1530.2164 1844262
-609.5202 607.7594 1526.4786 2107178
-593.61029 601.33075 1510.3323 1975848
-585.66833 602.8963 1514.2643 2831157
-572.6106 599.16028 1504.8807 2831157
-567.12714 603.35742 1515.4225 2304813
-559.03162 604.87115 1519.2245 2370606
-559.45367 615.81311 1546.7068 2370606
-554.38782 620.99341 1559.718 2699571
-545.43903 621.93225 1562.0759 3488830
-533.76849 619.74512 1556.5828 3752259
-524.47552 620.28857 1557.9478 3686466
-514.4162 619.92914 1557.0448 2765364
-506.76453 622.51331 1563.5355 1646883
-500.24481 626.61731 1573.8433 1581090
-492.92688 629.86639 1582.0038 2830900
-484.03369 631.19458 1585.3397 3686466
-474.46649 631.68121 1586.5619 2897463
-464.52618 631.68121 1586.5619 2897463
-446.53976 620.50049 1558.4799 2897720
-441.63583 627.4054 1575.8226 2042154
-430.45572 625.50598 1571.052 2107947
-418.12796 621.81097 1561.7715 2568755
-405.65683 617.72064 1551.4979 2700084
-394.41266 615.34369 1545.5278 2700084
-386.01108 617.39355 1550.6764 2634291
-374.69061 614.76019 1544.0623 2634291
-363.8692 612.82776 1539.2087 2634291
-354.24704 612.86493 1539.302 2700084
-347.69574 618.36554 1553.1177 2765877
-332.6705 608.67841 1528.787 3094842
-321.63095 605.92554 1521.8727 2371119
-314.86823 611.30786 1535.3912 2436912
-306.36673 613.54724 1541.0159 2502705
-295.20624 610.43402 1533.1965 2436912
-286.19241 611.69965 1536.3752 2568498
-275.63788 609.64569 1531.2164 3029049
-265.72192 608.9068 1529.3606 2831670
-257.25302 611.55273 1536.0062 2700084
-246.68936 609.23102 1530.1749 2634291
-238.06952 611.71619 1536.4169 2502705
-228.34277 611.44678 1535.7401 2568498
-219.10233 612.51312 1538.4183 2437169
-208.09142 608.50037 1528.3398 3094842
-199.59682 611.81366 1536.6617 2765877
-192.00375 618.36633 1553.1196 2436912
-182.42061 618.86719 1554.3776 2502705
-173.03191 620.12128 1557.5276 2568498
-163.27351 620.12128 1557.5276 3029049
-153.62503 620.56537 1558.6428 2765877
-143.85966 620.56537 1558.6428 2568498
-134.39667 621.96478 1562.1576 2502705
-124.77098 622.77191 1564.1849 2634548
-115.25507 624.31134 1568.0514 3358014
-105.16315 622.72675 1564.0714 2700084
-94.360504 616.17554 1547.6171 2634291
-86.024345 626.07446 1572.4799 2502705
-76.082191 625.33411 1570.6202 2436912
-66.436485 627.17224 1575.2371 2700084
-56.5215 626.66632 1573.9662 3621186
-46.451794 623.86847 1566.939 3423807
-36.875114 627.9671 1577.2334 2897463
-26.994896 628.00519 1577.3291 2831670
-17.052467 625.80426 1571.8011 2700084
-7.1857457 624.1626 1567.6777 2107947
2.6453123 626.31006 1573.0715 2436912
12.501093 626.31006 1573.0715 2436912
22.444216 628.7569 1579.217 1910568
32.121853 624.54462 1568.6373 2305326
41.949852 624.54462 1568.6373 2042154
52.108303 628.53052 1578.6486 1778982
62.18639 630.42999 1583.4193 1910568
71.193291 622.44141 1563.3549 2239533
80.965149 622.26434 1562.91 2634291
91.884499 629.99298 1582.3218 2371119
102.20327 632.49963 1588.6176 2305326
111.86 630.82776 1584.4185 2371119
121.39035 628.77386 1579.2598 2042154
131.07251 627.75665 1576.7048 1778982
140.62149 626.28888 1573.0183 1713189
150.03755 624.46021 1568.4253 1713189
160.21237 625.82013 1571.8409 2107947
170.06046 625.82013 1571.8409 2502705
180.31027 627.21765 1575.3511 2173740
189.03557 623.4422 1565.8684 2436912
198.37782 621.97357 1562.1798 3029048
207.60979 620.3136 1558.0105 2897463
214.53401 612.2171 1537.6749 2371119
224.16803 612.2171 1537.6749 2305327
233.67691 611.88947 1536.8519 2239534
245.05989 616.3009 1547.932 1844776
253.67551 613.68176 1541.3536 2107948
264.23734 615.79034 1546.6497 2963254
273.92758 615.79034 1546.6497 3160633
284.1796 617.01007 1549.7131 2436910
294.13776 617.53223 1551.0247 1647394
303.76685 617.35223 1550.5726 2042152
315.1969 620.7301 1559.0566 1844775
324.87027 620.5495 1558.6029 1450017
333.15329 617.80103 1551.6997 1450274
342.87515 617.80103 1551.6997 2173483
352.85074 618.24554 1552.8162 2765620
362.30106 617.77051 1551.6232 1515810
374.11093 621.23859 1560.3337 1581090
386.99918 626.27515 1572.9838 1778469
397.61105 627.46918 1575.9828 1647140
407.61276 627.66583 1576.4767 1581090
412.89334 620.75525 1559.1198 1646883
422.18494 620.05505 1557.3611 1975848
431.43298 619.32391 1555.5248 2239020
441.65982 619.99908 1557.2206 2042154
450.12793 618.22961 1552.7762 2107947
459.46078 617.69757 1551.4399 2371119
465.6489 613.04736 1539.7603 2436912
478.16876 616.75269 1549.0668 2107947
487.9613 616.86285 1549.3435 1976361
496.02005 614.81976 1544.2119 2239533
505.95233 615.13257 1544.9976 2436912
515.6322 615.13257 1544.9976 2436912
526.50171 616.52557 1548.4963 2371119
536.18402 616.50317 1548.4401 2305069
548.79944 619.79413 1556.7057 2239020
555.9928 616.95355 1549.5713 2371119
561.99011 612.90607 1539.4054 2371376
575.88202 617.45972 1550.8425 2502705
586.51093 618.42181 1553.259 2700084
592.29065 614.32288 1542.9639 2568498
596.58795 608.84277 1529.1997 2239533
610.76959 613.46375 1540.806 2173740
617.69409 610.7652 1534.0283 2042154
610.99042 594.88055 1494.1316 2371376
625.24396 599.57196 1505.9148 2700084
645.08093 609.39856 1530.5958 2831670
653.21307 608.04181 1527.1881 2634291
663.61188 608.80377 1529.1018 2502705
672.63086 608.29614 1527.8269 2436912
679.59265 605.96838 1521.9805 2371119
689.1283 605.96838 1521.9805 2305326
701.9884 608.85175 1529.2224 2173740
714.1759 611.08197 1534.8239 2634291
714.56964 603.29572 1515.2675 2897463
720.74158 600.52802 1508.316 2634291
730.74792 600.98553 1509.4652 2436912
742.98529 603.24274 1515.1345 2371119
752.45203 603.2218 1515.0819 2239533
760.50281 602.08051 1512.2153 2042154
769.97729 602.08051 1512.2153 2305326
778.79248 601.57117 1510.9362 2305326
789.38611 602.4314 1513.0967 2305069
800.01312 603.29639 1515.2692 2436656
810.69873 604.18469 1517.5004 2436656
821.60675 605.21625 1520.0913 2173484
828.896 603.58911 1516.0044 1910055
837.67639 603.07227 1514.7063 2238763
852.14227 606.61444 1523.6029 2502705
862.12244 606.9201 1524.3707 2371119
872.17169 607.26733 1525.2428 2173740
882.65466 607.90558 1526.8459 2239533
893.41962 608.72241 1528.8976 2371119
901.08746 607.43414 1525.6617 2173740
915.26117 610.51239 1533.3933 2502705
925.69263 611.05652 1534.76 2371119
933.91003 610.14301 1532.4655 2042154
944.57275 610.82935 1534.1893 2107947
958.5564 613.62781 1541.218 2173740
969.22235 614.2677 1542.8253 2239533
979.22772 614.48047 1543.3597 2305326
991.73053 616.24097 1547.7815 2371119
1004.2547 617.98053 1552.1506 2305326
1010.5056 615.86334 1546.833 2436912
1013.2719 611.6828 1536.333 2765877
1019.6298 609.72876 1531.4252 2502962
1039.4583 615.79138 1546.6522 2436142
1050.9274 616.83539 1549.2745 2633778
1054.6488 613.35461 1540.532 2633778
1064.9033 613.7019 1541.4042 2896950
1075.4038 614.18335 1542.6135 2962743
1085.0687 614.18335 1542.6135 2831157
1092.347 612.84436 1539.2505 3028536
1100.4773 612.00256 1537.1361 3357501
1113.4089 613.82245 1541.707 3423294
1127.8999 616.46326 1548.3398 3094329
1137.6913 616.51233 1548.4631 3028536
1144.9691 615.20996 1545.192 2962743
1153.0305 614.34698 1543.0245 2699571
1161.4637 613.69482 1541.3865 3028536
1163.8168 609.86725 1531.7729 3225915
1173.4138 609.86725 1531.7729 2962743
1178.1459 607.35919 1525.4736 2699571
1196.5568 611.8866 1536.8448 2699572
1207.3059 612.4549 1538.2722 2567986
1219.0653 613.52264 1540.9541 2765364
1220.2201 609.27863 1530.2944 2831157
1231.2809 610.00842 1532.1274 2633778
1252.4098 615.67627 1546.3632 2633778
1261.6002 615.43329 1545.7529 2765364
1274.0079 616.75159 1549.064 2896950
1283.0869 616.45068 1548.3081 2699571
1297.0111 618.4646 1553.3665 2633778
1307.7334 618.93317 1554.5433 2502192
1313.2424 616.94556 1549.5513 2633778
1321.9833 616.49445 1548.4181 2699571
1330.4902 615.94153 1547.0294 2699571
1343.8818 617.64154 1551.2992 3028536
1350.443 616.20044 1547.6797 3160122
1354.0906 613.46002 1540.7966 3423294
1364.7715 613.92212 1541.9573 3554880
1372.5365 613.07526 1539.8303 3160122
1391.9357 617.4007 1550.6942 2699571
1401.6512 617.4007 1550.6942 2831157
1418.6573 620.5899 1558.7045 3094329
1425.6271 619.37512 1555.6534 2962743
1427.5154 615.98425 1547.1366 2699571
1421.3829 609.20129 1530.1003 2567985
1433.7125 610.36908 1533.0334 2567985
1459.0776 617.034 1549.7733 2831157
1471.3026 618.09058 1552.4271 2896950
1496.1644 624.40717 1568.2921 2896950
1501.8966 622.70984 1564.0291 2896950
1511.6957 622.70984 1564.0291 2831157
1526.9851 624.95685 1569.6729 2765364
1537.6097 625.2782 1570.4799 2699571
1546.9321 625.06927 1569.9551 2567985
1556.7684 625.06927 1569.9551 2633778
1574.2814 628.13226 1577.6482 2370606
1580.8975 626.8363 1574.3933 2173228
1600.6396 630.72876 1584.1697 2436401
1597.8086 625.73309 1571.6224 2633779
1606.5123 625.28827 1570.5051 2107435
nan nan nan 16777215
nan nan nan 16777215
nan nan nan 16777215
nan nan nan 16777215
nan nan nan 16777215
nan nan nan 16777215
nan nan nan 16777215
nan nan nan 16777215
nan nan nan 16777215
nan nan nan 16777215
nan nan nan 16777215
nan nan nan 16777215
nan nan nan 16777215
nan nan nan 16777215
-1326.6212 604.12103 1493.9556 2700084
-1338.2645 613.7536 1517.7764 2700084
-1328.6661 613.71246 1517.6746 2700084
-1313.6422 611.14661 1511.3293 2765877
-1296.1121 607.36908 1501.9878 3226428
-1286.3116 607.18494 1501.5325 2963256
-1285.0973 611.08093 1511.167 2502705
-1275.4304 610.98572 1510.9314 2305326
-1264.1985 610.13361 1508.8243 2173740
-1254.7489 610.13531 1508.8286 2305326
-1248.9799 611.94049 1513.2926 2371119
-1240.5942 612.48138 1514.6302 2305327
-1230.6874 612.27386 1514.1169 2436912
-1220.1366 611.74017 1512.7972 2502705
-1210.8958 611.86011 1513.0938 2502706
-1199.384 610.82538 1510.535 2568498
-1190.7302 611.24121 1511.5634 2502962
-1177.8281 609.46558 1507.1722 2502962
-1164.8009 607.59583 1502.5486 2568498
-1155.3986 607.60193 1502.5636 2700084
-1146.8729 608.07294 1503.7284 2568498
-1135.4781 607.01801 1501.1195 2436912
-1126.0732 607.01801 1501.1195 2831670
-1125.0332 611.56519 1512.3645 2700084
-1115.5579 611.56519 1512.3645 2700084
-1104.6145 610.7536 1510.3574 2634291
-1095.4897 610.94214 1510.8237 2502705
-1087.0165 611.50049 1512.2045 2502705
-1076.3319 610.81372 1510.5062 2371119
-1067.5273 611.19116 1511.4396 2436912
-1059.376 611.95264 1513.3226 2371120
-1048.9557 611.40546 1511.9695 2305327
-1039.5465 611.44299 1512.0623 2305326
-1031.1501 612.08234 1513.6433 2502705
-1019.6589 610.87952 1510.6688 2831670
-1010.1942 610.87952 1510.6688 2963256
-999.71832 610.26233 1509.1426 2897463
-991.1994 610.83936 1510.5695 2371119
-989.35504 615.58044 1522.2939 1976361
-982.93542 617.53937 1527.1383 2108204
-968.38971 614.38129 1519.3286 1910312
-956.65851 612.96393 1515.8235 1975591
-947.47198 613.16498 1516.3207 1975848
-939.4248 614.11481 1518.6696 2173227
-935.25934 617.64764 1527.406 2173227
-930.96771 621.16931 1536.1149 2502192
-926.11493 624.38617 1544.0701 2107434
-923.99365 629.53204 1556.7954 1449504
-914.23981 629.53204 1556.7954 1910055
-901.72455 627.61005 1552.0425 2370350
-878.85492 618.36084 1529.1697 2897461
-865.88202 615.94769 1523.2023 2568496
-857.06555 616.47052 1524.4951 2634289
-853.8299 621.06458 1535.856 2305581
-847.32642 623.35925 1541.5305 2305581
-835.22626 621.54199 1537.0366 2239531
-823.6496 620.07654 1533.4125 2371117
-815.83606 621.44287 1536.7914 2436910
-807.71289 622.60321 1539.6609 2568753
-788.82996 615.3974 1521.8414 2765875
-786.24353 620.88446 1535.4105 2568496
-771.79773 617.02625 1525.8694 2305324
-759.59351 614.88586 1520.5763 2371117
-751.81146 616.31622 1524.1135 2305324
-745.79968 619.2533 1531.3767 2305324
-728.54913 612.81354 1515.4515 2568496
-716.97754 611.04352 1511.0745 2700082
-704.27972 608.25354 1504.1749 2831668
-692.5683 606.25128 1499.2235 2634289
-682.35406 605.52264 1497.4216 2239531
-672.97229 605.52264 1497.4216 2042152
-665.36987 607.1463 1501.4369 2436910
-655.99243 607.17365 1501.5045 2436910
-646.57678 607.16589 1501.4854 2568496
-637.77319 607.74109 1502.9078 2700082
-630.16675 609.49152 1507.2365 2371119
-624.33502 613.03778 1516.0061 1910568
-615.41187 613.61121 1517.4241 2107690
-603.073 610.74341 1510.3323 2502449
-576.07513 592.70215 1465.7173 2305070
-570.96875 596.9646 1476.2581 3094842
-563.86475 599.24432 1481.8958 2634291
-562.26678 607.54999 1502.4352 2173740
-554.29913 609.13861 1506.3636 2437169
-546.78632 611.29065 1511.6857 2371376
-536.09143 609.8985 1508.2428 2108203
-530.63757 614.52588 1519.6862 3358271
-521.11621 614.52588 1519.6862 3488830
-515.05835 618.6861 1529.9741 3554880
-506.65405 620.1322 1533.5503 3028536
-502.914 627.45343 1551.6553 1449504
-489.97177 623.35614 1541.5228 1581090
-483.06274 626.92389 1550.3457 2042154
-474.76126 628.79395 1554.9702 2568499
-467.43265 632.0578 1563.0415 2831670
-452.29861 624.68103 1544.7992 2897463
-441.12231 622.56744 1539.5724 2305326
-426.99411 616.09991 1523.5786 2239533
-417.31839 615.90808 1523.1042 2502705
-408.77646 617.41968 1526.8423 2502705
-398.51111 616.33826 1524.168 2502962
-388.45389 615.53357 1522.1781 2700084
-377.55054 613.31384 1516.6888 2897463
-366.45453 610.65851 1510.1223 2436912
-355.56909 608.22253 1504.0984 2568499
-344.96652 606.15106 1498.9756 2634291
-338.28891 611.05322 1511.0984 2634291
-329.6088 612.51642 1514.7168 2634291
-319.40359 611.14825 1511.3335 1779239
-309.93997 611.15881 1511.3596 2107947
-301.25015 612.74396 1515.2795 2239533
-292.25317 613.78717 1517.8594 2042154
-282.92545 614.18256 1518.837 2963256
-271.24786 609.32678 1506.829 3029049
-261.8071 609.32678 1506.829 2239533
-253.15625 611.23383 1511.5452 2700084
-242.40619 608.02393 1503.6072 2897463
-232.98564 608.02393 1503.6072 2634291
-225.34242 612.85773 1515.5609 2436912
-213.53426 606.2912 1499.3223 2239533
-205.6004 610.62708 1510.0446 2831927
-196.50223 611.75623 1512.8369 2634291
-188.01295 614.99158 1520.8379 2371119
-179.42226 618.22302 1528.829 2568498
-169.70267 617.70978 1527.5598 2700084
-161.44757 622.78455 1540.1093 2371119
-151.56989 621.84735 1537.7916 2305583
-141.57463 620.26788 1533.8857 2568498
-132.2477 621.59967 1537.1791 2568498
-122.71123 622.07837 1538.3629 2634291
-113.26888 623.15649 1541.0292 2371119
-103.58535 622.98511 1540.6052 2502962
-94.047638 623.74554 1542.4858 2502705
-84.17527 622.20642 1538.6797 2568498
-74.350098 620.66321 1534.8634 2634291
-64.481834 618.24829 1528.8915 2568498
-55.724003 627.49506 1551.7582 2963256
-45.921413 626.39911 1549.0479 2700084
-36.216148 626.39911 1549.0479 2963256
-26.254284 620.33612 1534.0546 2963256
-16.720455 623.22485 1541.1982 1713189
-7.0594368 622.78955 1540.1217 1844775
2.5966475 624.41138 1544.1323 2042154
12.27494 624.60596 1544.6136 2042154
21.864969 622.11768 1538.4602 1910568
31.633045 624.66797 1544.7668 1778982
41.310894 624.65894 1544.7446 1581603
51.173096 626.91187 1550.3159 1515810
60.894321 626.99438 1550.52 1713189
69.886391 620.57941 1534.6561 2042154
79.501488 620.57941 1534.6561 2634291
89.23597 621.41077 1536.712 2897463
99.66925 626.47253 1549.2295 2765877
109.87446 629.32959 1556.2948 2305326
119.45956 628.45856 1554.1409 2436912
128.74828 626.2771 1548.7462 2436912
137.72536 622.9917 1540.6216 2831670
146.20261 618.0238 1528.3363 3423807
156.18709 619.64642 1532.3489 2765877
166.62122 622.76166 1540.0527 2371632
176.73079 624.38922 1544.0775 2437423
185.76996 622.26227 1538.8179 2502703
195.49414 622.52661 1539.4716 2502703
203.45564 617.41699 1526.8357 2502703
211.13902 611.96021 1513.3413 2305324
221.78172 615.18103 1521.3062 2239533
229.74001 610.99713 1510.9597 2371120
239.20665 610.99713 1510.9597 2173741
248.22606 609.89825 1508.2423 2173741
261.03717 617.85474 1527.9182 2831671
269.44168 615.18701 1521.3212 2765878
277.45267 611.83398 1513.0293 2568498
287.60587 613.27032 1516.5812 2305326
299.57278 618.35858 1529.1642 2502703
309.15347 618.35858 1529.1642 1910568
320.12589 621.05859 1535.8411 1516067
329.74841 621.05859 1535.8411 1646883
341.27036 624.53461 1544.4371 1515297
351.01572 624.65735 1544.7406 1778469
358.97174 621.67474 1537.3647 1515297
371.06152 625.81982 1547.6154 1317918
381.20441 626.55383 1549.4305 1778469
391.02795 626.73956 1549.8899 1844262
400.793 626.82477 1550.1006 1844262
407.42017 622.11462 1538.4526 2107434
418.4935 624.25433 1543.744 1845032
428.58441 624.86505 1545.2543 1515810
438.21967 624.79907 1545.0912 1713188
441.28778 615.5752 1522.281 2042154
453.28549 618.93445 1530.5881 2305326
462.87515 618.93445 1530.5881 2239533
472.1156 618.47705 1529.4572 2173740
481.69815 618.47705 1529.4572 2305326
489.32477 616.01477 1523.3682 2568498
497.39694 614.19684 1518.8724 2831670
506.44431 613.62878 1517.4677 2634291
515.15442 612.68054 1515.1227 2568498
523.9715 611.8916 1513.1716 2699828
533.83118 612.32648 1514.2472 2633778
542.77692 611.71619 1512.738 2371119
552.12286 611.57019 1512.377 2502705
561.22186 611.16022 1511.363 2436912
570.3988 610.84729 1510.5891 2634291
579.74664 610.72455 1510.2858 2568498
586.05798 607.45844 1502.2087 2042154
594.76782 606.74237 1500.438 2107947
604.21899 606.79297 1500.5631 2436912
611.89618 605.08795 1496.3466 2897463
624.09021 607.83337 1503.136 2700084
634.41284 608.70172 1505.2833 2831670
639.52515 604.61877 1495.1864 2173740
646.01617 601.93823 1488.5576 2042154
656.06781 602.60449 1490.2053 2305326
667.05994 604.10376 1493.9128 2107947
674.3338 602.24084 1489.3059 2173740
686.3457 604.60242 1495.1461 2502705
695.71326 604.60242 1495.1461 2568498
703.9339 603.61902 1492.7141 2700084
709.00354 599.99481 1483.7516 2502705
719.41925 600.92993 1486.0642 2305326
731.34924 603.0899 1491.4056 2371119
740.03265 602.55194 1490.0753 2107947
746.8042 600.49011 1484.9764 2634291
756.87335 601.0979 1486.4795 2765877
760.65295 596.75653 1475.7437 2436912
775.63074 601.19934 1486.7303 2239533
786.16248 602.13141 1489.0353 2371119
792.23608 599.66705 1482.9412 2305326
804.89935 602.18994 1489.1802 2305326
819.62476 606.18024 1499.0477 2305326
833.26697 609.28802 1506.7332 2107947
840.50269 607.69415 1502.7916 1976618
847.29382 605.81775 1498.1514 1976361
856.68011 605.81775 1498.1514 1976361
867.40027 606.75067 1500.4585 1778982
877.51288 607.24323 1501.6765 2305326
886.92133 607.24323 1501.6765 2831670
898.47937 608.69946 1505.2777 2568498
907.9104 608.69946 1505.2777 2502962
921.66675 611.56952 1512.3752 2502705
931.11749 611.55328 1512.3351 2436912
939.8056 611.0415 1511.0695 2173740
945.17188 608.40161 1504.5413 2107947
958.76178 611.05524 1511.1034 2042154
973.40259 614.32007 1519.1772 2107947
983.03625 614.39227 1519.3558 2239533
984.94806 609.68335 1507.7108 2042154
994.39441 609.68335 1507.7108 2107947
1008.9055 612.75952 1515.318 2371119
1022.0936 614.98224 1520.8147 2502192
1032.1855 615.31824 1521.6455 2567985
1038.5198 613.42841 1516.9722 2304813
1054.6323 617.29626 1526.5372 2304813
1062.0767 616.06671 1523.4965 2567985
1071.9974 616.28259 1524.0304 2633778
1083.7126 617.51721 1527.0835 2633778
1089.189 615.20636 1521.3689 3028536
1093.6187 612.34949 1514.3041 3357501
1099.9829 610.61566 1510.0164 3291708
1107.0078 609.27509 1506.7012 2963000
1121.0692 611.79706 1512.938 2567985
1132.2275 612.70581 1515.1852 2633778
1143.3792 613.59583 1517.3862 2765364
1148.2239 611.11456 1511.2501 3357501
1157.6924 611.11456 1511.2501 2962743
1165.3268 610.15436 1508.8755 2633778
1176.5591 611.07812 1511.16 2633778
1187.1194 611.64093 1512.5519 2436399
1197.228 611.96405 1513.3508 2239020
1206.7096 611.96405 1513.3508 2436399
1212.7869 610.25104 1509.1146 2699571
1227.0403 612.64673 1515.0392 2699571
1238.4081 613.57605 1517.3372 2633778
1250.3134 614.75549 1520.2539 2502192
1254.4214 612.11218 1513.7173 2699571
1262.5905 611.47546 1512.1426 2633778
1280.2903 615.4295 1521.9208 2567985
1292.3336 616.62622 1524.8801 2633778
1301.811 616.59003 1524.7906 2699571
1312.0084 616.89282 1525.5396 2633778
1315.8628 614.23053 1518.9557 2304814
1322.8097 613.03955 1516.0105 2041641
1336.2272 614.8429 1520.4701 1910055
1344.7281 614.37445 1519.3118 2041641
1354.2472 614.37445 1519.3118 2436399
1364.54 614.72314 1520.174 2567986
1369.6168 612.73346 1515.2535 2633778
1382.9854 614.45508 1519.511 2831157
1394.0436 615.13373 1521.1893 2831157
1394.9618 611.35919 1511.8551 2765364
1404.4341 611.35919 1511.8551 2370606
1414.6268 611.67078 1512.6256 2239020
1440.3071 618.63025 1529.8361 2370606
1451.325 619.24164 1531.3479 2502192
1461.7303 619.58539 1532.198 2633778
1476.5593 621.78748 1537.6437 2633778
1487.33 622.26312 1538.8198 2831157
1498.8519 623.04492 1540.7532 2831157
1505.1646 621.6651 1537.3411 2765364
1514.3632 621.4873 1536.9014 2699571
1525.7194 622.19159 1538.6429 2633778
1544.0814 625.72614 1547.3837 2502191
1559.6017 628.07214 1553.1852 2831158
1569.5577 628.16205 1553.4076 2765365
1581.7313 629.133 1555.8087 2567986
1591.2426 629.03955 1555.5775 2239021
nan nan nan 16777215
nan nan nan 16777215
nan nan nan 16777215
nan nan nan 16777215
nan nan nan 16777215
nan nan nan 16777215
nan nan nan 16777215
nan nan nan 16777215
nan nan nan 16777215
nan nan nan 16777215
nan nan nan 16777215
nan nan nan 16777215
nan nan nan 16777215
nan nan nan 16777215
-1302.432 602.24652 1466.7152 2568755
-1316.8997 613.26331 1493.5457 2568498
-1304.2631 611.72534 1489.8 2371119
-1287.2286 608.08771 1480.9409 2765877
-1280.8588 609.47174 1484.3116 3094842
-1276.327 611.75702 1489.8772 2831670
-1266.2018 611.37524 1488.9475 2371119
-1243.3102 604.77789 1472.8802 2042154
-1242.6266 608.96527 1483.0781 2107947
-1228.4199 606.53857 1477.1683 2305326
-1225.3503 609.61584 1484.6626 2502705
-1218.1051 610.64679 1487.1735 2568498
-1209.4364 610.97461 1487.9718 2568498
-1197.6989 609.74518 1484.9775 2568498
-1186.4556 608.75012 1482.5542 2700341
-1176.1483 608.22333 1481.2712 2634291
-1165.436 607.47705 1479.4539 2765877
-1157.043 607.93744 1480.575 2568498
-1143.6469 605.75525 1475.2605 2765877
-1136.9614 607.12097 1478.5865 2765877
-1130.6823 608.72784 1482.5 2634291
-1120.5986 608.29614 1481.4486 2765877
-1110.4309 607.81116 1480.2675 2897463
-1101.1565 607.81116 1480.2675 2371119
-1096.2562 610.24597 1486.1973 2568498
-1087.1356 610.35315 1486.4583 2502705
-1077.8225 610.35315 1486.4583 2371119
-1070.4177 611.44324 1489.1132 2502705
-1061.3287 611.58203 1489.451 2502705
-1051.7938 611.46393 1489.1635 2436912
-1042.344 611.39368 1488.9924 2634291
-1033.576 611.72577 1489.8011 2831670
-1025.4144 612.42603 1491.5065 2700084
-1016.2222 612.51794 1491.7303 2568498
-1007.9759 613.18701 1493.3599 2897463
-1004.1082 616.55725 1501.5677 2831927
-991.2085 614.39276 1496.2964 2831670
-982.85968 615.03479 1497.86 2502705
-977.28864 617.44415 1503.7278 2371119
-967.86737 617.44415 1503.7278 2502705
-953.81232 614.45905 1496.4578 2305070
-947.23871 616.28217 1500.8978 1449760
-937.94012 616.3512 1501.0659 1778725
-929.50983 616.99799 1502.6411 2700084
-922.28546 618.46661 1506.2179 3160122
-920.54413 623.68048 1518.9156 2634548
-918.79346 628.99689 1531.8633 2107947
-911.06909 630.29279 1535.0194 2239533
-896.75482 627.00873 1527.0214 2371119
-870.32922 615.0943 1498.0049 2831670
-860.94366 615.0943 1498.0049 2963255
-854.28876 617.06653 1502.8081 2634289
-852.52917 622.65826 1516.4261 2831668
-842.97601 622.61969 1516.3323 2568496
-833.78436 622.85016 1516.8936 2502703
-822.0553 621.1687 1512.7986 2963253
-811.53595 620.3728 1510.8601 2765875
-800.51123 619.16718 1507.9241 2436910
-791.61597 619.59949 1508.9769 2436910
-781.73761 619.26355 1508.1587 2239531
-772.28857 619.26355 1508.1587 2173738
-762.10034 618.66351 1506.6974 2239531
-751.49939 617.70917 1504.3732 2173739
-741.03131 616.84125 1502.2594 2042154
-731.30615 616.57727 1501.6166 2173739
-723.39679 617.8573 1504.734 2502704
-703.84393 609.09521 1483.3947 2568497
-690.94525 605.93396 1475.6957 2436910
-676.91803 601.68378 1465.3448 2568496
-666.23877 600.33362 1462.0566 2436910
-664.02246 606.67792 1477.5076 1976359
-654.76544 606.67792 1477.5076 2700082
-643.97131 605.23334 1473.9894 2568496
-633.51703 604.07068 1471.1578 2502959
-622.1106 601.95245 1465.9991 2634289
-612.92572 601.95245 1465.9991 2568499
-610.49194 608.68365 1482.3925 2173740
-599.39874 606.85565 1477.9404 2173740
-588.72253 605.39911 1474.3931 2568498
-574.54388 600.237 1461.8214 2436912
-565.2345 600.07709 1461.4319 2963256
-561.42102 605.84265 1475.4734 2634291
-554.5802 608.47974 1481.8958 2568498
-545.4353 608.63556 1482.2753 2634291
-538.43182 611.22772 1488.5883 2305326
-527.94263 609.88452 1485.317 2239533
-518.78149 610.05481 1485.7317 3094843
-512.68695 613.90338 1495.1046 3028792
-509.00208 620.83423 1511.984 2897207
-497.97614 618.90436 1507.2838 2831670
-495.83289 628.15283 1529.8077 2962999
-484.38708 625.7486 1523.9525 2963257
-473.82797 624.4162 1520.7075 2239533
-463.59439 623.46692 1518.3956 1976361
-454.08118 623.46692 1518.3956 2436912
-443.53409 622.01703 1514.8645 2568498
-431.97229 619.04956 1507.6376 2963256
-423.41275 620.34802 1510.7998 3489600
-413.94708 620.34802 1510.7998 2700084
-403.73123 619.19739 1507.9976 2436912
-393.91882 618.62518 1506.6041 2568498
-382.71481 615.78589 1499.6891 2766134
-372.3656 614.21356 1495.86 3358014
-359.82309 608.84888 1482.7948 2436912
-349.45145 606.9704 1478.22 1910568
-338.75586 604.41174 1471.9885 1910568
-334.22766 613.02173 1492.9573 2502705
-327.02576 617.08234 1502.8466 2371119
-317.33569 616.54938 1501.5487 2107947
-307.73636 616.16571 1500.6141 2568498
-298.95251 617.44202 1503.7225 2634291
-287.31534 612.71643 1492.2139 2568498
-277.96613 612.71643 1492.2139 2568498
-266.97867 608.97949 1483.1129 2371119
-257.50876 608.55945 1482.0898 2305326
-246.4682 604.2572 1471.6122 2239533
-238.73586 608.04651 1480.8406 2963256
-228.31923 605.02905 1473.4919 3489600
-222.07872 613.28998 1493.6106 3094842
-213.07309 614.30573 1496.0844 2700084
-203.8976 614.90259 1497.5381 2568498
-195.47025 617.92218 1504.892 2371119
-185.82529 617.20361 1503.1418 2173997
-175.81003 615.11273 1498.0498 2700084
-166.00508 613.56329 1494.2764 3292221
-156.81282 614.22858 1495.8966 3292477
-147.99904 616.55518 1501.5627 3160892
-139.30646 619.73682 1509.3113 3555392
-129.71721 619.10236 1507.7661 3423807
-120.67466 621.18225 1512.8315 2436911
-111.48582 622.79968 1516.7706 2766133
-101.66872 620.88171 1512.0996 3094842
-92.537979 623.19183 1517.7257 2897463
-83.02388 623.15375 1517.6329 2963000
-73.436401 622.4837 1516.0012 2765876
-63.568687 618.88647 1507.2404 2568498
-54.420876 622.26544 1515.4696 2371376
-45.099747 624.67218 1521.3309 2568498
-35.801598 628.7724 1531.3167 2634291
-25.923941 621.97101 1514.7524 2568498
-16.433546 621.97101 1514.7524 2371119
-6.9442835 622.07239 1514.9993 2239533
2.546479 621.78479 1514.299 1910568
12.039375 622.06091 1514.9714 1186845
21.429071 619.11206 1507.7897 1647653
31.066807 622.94116 1517.1152 2436912
40.572002 622.94116 1517.1152 2436912
50.106846 623.30994 1518.0133 2371119
59.347069 620.48071 1511.123 1910568
68.3284 616.09576 1500.4438 1910568
78.078552 618.86523 1507.1886 2502705
87.813545 620.92987 1512.2169 2568498
97.507835 622.33258 1515.6331 2568498
107.61646 625.89618 1524.3119 2568498
117.18189 625.97705 1524.5088 2371120
126.78369 626.2254 1525.1136 2502705
136.22224 625.68909 1523.8076 2766134
144.74783 621.30432 1513.1288 3292221
153.62048 618.85675 1507.168 3160635
163.03751 618.75861 1506.929 2502705
172.60103 619.19678 1507.9962 2568498
182.0491 619.19678 1507.9962 2700084
191.01556 617.63959 1504.2037 2568496
199.92783 616.06183 1500.3612 2305324
207.72864 611.35461 1488.8972 2042152
218.20592 614.59058 1496.7781 2042152
227.03256 613.10217 1493.1533 2042152
235.4529 610.67786 1487.249 2107945
244.77098 610.67786 1487.249 2107945
256.67795 616.89996 1502.4025 2305324
265.51065 615.55463 1499.126 2107945
274.28058 614.16058 1495.731 1976359
283.65179 614.16058 1495.731 2173738
293.68381 615.54559 1499.104 2568495
302.67239 614.72552 1497.1068 2239533
313.56766 617.71082 1504.3772 1844775
326.00983 623.48029 1518.4282 1581347
336.04636 624.45233 1520.7955 1383711
345.5354 624.38153 1520.623 1317918
355.13647 624.51141 1520.9395 1317918
362.61838 621.00537 1512.4009 1317662
374.36093 624.7887 1521.6147 1975592
383.98682 624.93927 1521.9813 1909798
390.18649 619.64148 1509.0791 1845032
399.73608 619.78839 1509.4369 2239789
410.56522 621.86658 1514.498 2239533
420.47382 622.48804 1516.0116 2042154
429.33856 621.5708 1513.7778 2700084
434.97504 616.12054 1500.5043 2107947
447.46194 620.39899 1510.924 2239533
456.21405 619.42914 1508.562 2371119
465.4935 619.20013 1508.0043 1910568
473.86646 617.7984 1504.5905 1778982
484.0773 618.80078 1507.0316 2371119
489.92264 614.29102 1496.0486 2700084
498.81531 613.69977 1494.6088 2173740
506.8952 612.14886 1490.8315 2173740
515.2569 610.98822 1488.0049 2371119
521.13489 606.97595 1478.2334 2436399
534.43683 611.59961 1489.4939 2305326
543.96051 611.81506 1490.0186 2305326
552.38641 610.80933 1487.5692 2436912
559.61719 608.53735 1482.0361 2568755
563.8103 603.09033 1468.7703 2568498
570.62274 600.57495 1462.6444 2173740
575.66364 596.3042 1452.2433 2042154
593.77106 605.4906 1474.6161 2502705
599.73572 602.20294 1466.6091 2502705
611.34052 604.59222 1472.4281 2700084
620.8186 604.83862 1473.0282 2634291
630.04761 604.83862 1473.0282 2371119
635.06671 600.85553 1463.3278 1910568
644.23492 600.85553 1463.3278 2239533
653.83356 601.2514 1464.2917 2568498
663.24762 601.46881 1464.8214 2502705
671.17645 600.35187 1462.1011 2568498
683.76807 603.3797 1469.475 2437169
692.97479 603.3797 1469.475 2239533
699.96271 601.47302 1464.8315 2239533
709.72699 601.97058 1466.0433 2239533
716.3739 599.84515 1460.8671 1976361
726.44971 600.60834 1462.7256 2436912
741.64758 605.53442 1474.7228 2568498
738.30951 595.39148 1450.0206 2502705
747.39435 595.39148 1450.0206 2305326
759.78735 597.99524 1456.3617 2042154
770.05573 598.88483 1458.5282 2634291
777.38965 597.49811 1455.151 2568755
792.01581 601.68335 1465.3438 2371119
803.77539 603.61993 1470.0602 2305326
813.07776 603.68829 1470.2266 2239533
820.68958 602.51392 1467.3665 2042154
829.88312 602.51392 1467.3665 1976361
840.94177 603.85321 1470.6283 2042154
844.73602 600.00366 1461.2531 1976361
848.29932 596.0744 1451.6837 2239533
857.39459 596.0744 1451.6837 2700084
871.05145 599.21246 1459.3262 2502705
892.72455 607.74255 1480.1003 2436912
903.18616 608.54315 1482.0502 2765877
912.21722 608.37347 1481.637 2831670
920.73657 607.86938 1480.4093 2831670
924.56268 604.30774 1471.7352 2436912
932.15845 603.25604 1469.174 1845032
935.84418 599.71924 1460.5603 1778982
958.05341 608.00641 1480.743 2305326
970.37445 609.91956 1485.4022 1976361
978.68066 609.29681 1483.8856 1713189
987.53986 609.02679 1483.228 1778982
993.73938 607.13684 1478.6252 2041385
996.98206 603.492 1469.7485 2370606
1019.5203 611.487 1489.2196 2567985
1021.1802 606.92804 1478.1167 2239020
1030.441 606.92804 1478.1167 2370606
1041.4191 607.93042 1480.558 2436399
1057.1698 611.67664 1489.6815 2370606
1063.9315 610.20166 1486.0894 2304813
1075.0591 611.23468 1488.6051 2239020
1080.9862 609.31842 1483.9384 2239020
1082.4946 604.96558 1473.3373 2831157
1099.0585 609.02899 1483.2334 2896950
1113.6198 611.92395 1490.2838 2699571
1120.876 610.78998 1487.5221 2633778
1128.3577 609.79663 1485.1029 2699571
1139.0752 610.55389 1486.9473 2765364
1149.7976 611.30157 1488.7681 2896950
1159.1251 611.30157 1488.7681 2765364
1165.3208 609.66302 1484.7775 2436399
1174.6234 609.66302 1484.7775 2239020
1187.5214 611.51453 1489.2866 2173227
1197.4408 611.81519 1490.0189 2370606
1208.5433 612.71112 1492.2009 2502192
1218.9792 613.25787 1493.5323 2502192
1229.1854 613.68158 1494.5643 2436399
1237.2526 613.03906 1492.9996 2567985
1244.7424 612.12225 1490.7668 2436399
1259.0524 614.54803 1496.6746 2304813
1272.7893 616.6604 1501.819 2436399
1282.1986 616.6604 1501.819 2567985
1290.3589 616.06403 1500.3666 2567986
1292.9036 612.81458 1492.4529 2502193
1299.5221 611.52887 1489.3217 2567985
1309.7249 611.93616 1490.3135 2567985
1325.0056 614.69348 1497.0287 2502192
1328.5643 612.01215 1490.4985 2370606
1334.6752 610.53571 1486.9028 2173227
1343.1266 610.14301 1485.9465 2107434
1354.1669 610.92365 1487.8477 2041641
1364.2993 611.2868 1488.7322 2304813
1365.9087 607.85217 1480.3674 2567985
1380.9918 610.41949 1486.6199 2436399
1391.4166 610.90717 1487.8075 2173227
1397.4543 609.47491 1484.3195 2173227
1414.469 612.81738 1492.4597 2502192
1428.2434 614.72144 1497.0968 2765364
1436.4425 614.21655 1495.8672 2765364
1449.6042 615.82648 1499.7881 2765621
1465.984 618.77399 1506.9664 2962743
1475.3762 618.7533 1506.916 3028536
1481.8878 617.53235 1503.9426 3028536
1496.0781 619.50665 1508.7507 2962743
1514.0314 623.00439 1517.2693 2962742
1519.8131 621.48145 1513.5602 2831158
1526.8385 620.48279 1511.1281 2831158
1540.8868 622.33282 1515.6335 2831158
1555.4985 624.38629 1520.6346 2633779
nan nan nan 16777215
nan nan nan 16777215
nan nan nan 16777215
nan nan nan 16777215
nan nan nan 16777215
nan nan nan 16777215
nan nan nan 16777215
nan nan nan 16777215
nan nan nan 16777215
nan nan nan 16777215
nan nan nan 16777215
nan nan nan 16777215
nan nan nan 16777215
nan nan nan 16777215
nan nan nan 16777215
-1293.2426 611.38727 1466.7152 2700341
-1282.8835 610.83044 1465.3793 2765877
-1273.7025 610.83044 1465.3793 2831670
-1260.7817 609.02393 1461.0455 3029049
-1245.5029 606.04364 1453.8959 2634291
-1239.0391 607.34027 1457.0065 2173740
-1230.1261 607.44678 1457.2618 2042154
-1224.577 609.22839 1461.536 2568498
-1213.309 608.17017 1458.9973 2765877
-1203.7523 607.96033 1458.4939 2568498
-1197.3256 609.34003 1461.8038 2568498
-1188.2975 609.40698 1461.9646 2700341
-1177.1361 608.37244 1459.4827 2963256
-1166.2321 607.45581 1457.2836 2765877
-1151.7814 604.66272 1450.583 2831670
-1137.2039 601.75812 1443.6149 2502705
-1140.5522 608.36847 1459.4731 1778982
-1125.9296 605.42261 1452.406 1910568
-1114.5391 604.18085 1449.427 2107947
-1105.6321 604.27594 1449.6552 2371119
-1099.6483 605.98364 1453.752 2305326
-1092.0403 606.81726 1455.7517 2634291
-1086.0487 608.57068 1459.9583 2634291
-1077.1627 608.71826 1460.3123 2436912
-1069.1898 609.38873 1461.9208 2436912
-1060.5924 609.71179 1462.6957 2371119
-1053.6578 611.00476 1465.7976 2436912
-1045.3442 611.51379 1467.0187 2502705
-1037.7777 612.47272 1469.3191 2568498
-1026.6106 611.30475 1466.5172 2765877
-1017.4224 611.30475 1466.5172 2831670
-1008.84 611.67194 1467.3982 2634548
-1000.178 611.99738 1468.1788 2436912
-990.97937 611.99738 1468.1788 2436912
-986.48962 614.93262 1475.2205 2568498
-977.31848 614.97766 1475.3285 2634291
-966.20569 613.7901 1472.4796 2502705
-958.02435 614.4599 1474.0863 2371119
-954.55463 618.19403 1483.0446 2765877
-944.75226 617.86005 1482.2434 2831670
-938.90247 620.13007 1487.6891 2897463
-929.5816 620.13007 1487.6891 2963513
-906.53448 610.88037 1465.4991 2963513
-897.35156 610.87964 1465.4974 3094842
-897.99054 617.63434 1481.7019 3160635
-896.9892 623.39014 1495.51 2502705
-889.91052 624.99927 1499.3704 2634291
-872.27026 619.146 1485.3284 3029049
-857.33203 615.1051 1475.6343 3094842
-854.96863 620.0965 1487.6085 2963256
-846.95551 621.05493 1489.908 3226428
-831.77911 616.72369 1479.5173 3226428
-821.3623 615.86353 1477.4537 3029048
-810.17291 614.39789 1473.9376 3029049
-798.3653 612.42419 1469.2028 3094842
-790.24188 613.26361 1471.2164 2700085
-787.32843 618.21362 1483.0916 2634292
-778.15851 618.31067 1483.3243 2239534
-767.26752 617.02594 1480.2423 2042154
-757.79407 616.86371 1479.8531 2239533
-747.22656 615.7959 1477.2915 2107947
-736.06659 614.20685 1473.4794 1976361
-724.33954 612.09827 1468.4209 2042154
-710.75659 608.34692 1459.4215 2042154
-704.36426 610.7326 1465.1447 2305327
-692.84253 608.67499 1460.2084 2371118
-682.10272 607.25848 1456.8102 2371117
-668.32819 603.06506 1446.7502 2371117
-659.26385 603.06506 1446.7502 2568496
-652.68341 605.36884 1452.2771 2700082
-641.77686 603.66864 1448.1982 2897461
-632.70349 603.66864 1448.1982 3029047
-623.26923 603.31934 1447.3604 2502703
-612.49408 601.64264 1443.3379 2305324
-602.75824 600.95184 1441.6807 3094842
-590.16284 597.34564 1433.0294 2765877
-588.09271 604.44598 1450.0631 2502705
-579.72754 605.19757 1451.8661 2502705
-572.40179 607.07544 1456.3711 2371119
-563.0437 606.82385 1455.7675 2700084
-554.88684 607.87982 1458.3009 2963256
-543.3999 605.26202 1452.0208 3160634
-534.30884 605.26917 1452.038 2700084
-528.68237 609.26929 1461.6342 2502705
-523.9375 614.44427 1474.0488 2700084
-512.01459 611.23596 1466.3522 2897463
-505.09659 613.99426 1472.9694 2963256
-499.15607 618.06573 1482.7367 2963256
-493.37231 622.48926 1493.3489 3029049
-481.47632 619.22296 1485.5129 2963256
-474.43097 622.18927 1492.6292 2831670
-461.35315 617.20453 1480.6708 2831670
-448.5871 612.44086 1469.2427 2831670
-444.58728 619.69659 1486.6492 2502705
-429.32068 611.22235 1466.3196 2502705
-419.37119 610.11292 1463.6581 3029049
-409.42935 608.96533 1460.905 2568498
-403.48898 613.85297 1472.6304 2305326
-392.26102 610.73676 1465.1545 2305326
-384.48691 612.97754 1470.5303 2765877
-372.79327 608.92615 1460.811 3029049
-361.99823 606.1756 1454.2124 3292221
-352.88712 606.1756 1454.2124 2239533
-345.4455 609.11932 1461.2744 1778982
-335.59601 607.86194 1458.2581 2437169
-326.75995 608.42133 1459.5999 2634291
-317.30014 607.81793 1458.1525 2634291
-312.94522 617.24762 1480.7742 2765877
-303.46616 616.83795 1479.7913 2765877
-291.66046 611.52417 1467.0437 2502705
-283.2572 613.23059 1471.1373 2502705
-274.60254 614.48932 1474.157 2436912
-265.57022 614.96106 1475.2887 2502705
-254.13182 609.69434 1462.6539 2371119
-243.48373 606.00061 1453.7926 2305326
-234.21597 605.58868 1452.8044 2831670
-227.04654 610.78833 1465.2783 2831927
-218.32643 612.07886 1468.3743 2634291
-210.0107 614.66644 1474.5819 2502705
-201.03056 615.45807 1476.481 2502705
-193.05305 619.5437 1486.2825 2963256
-182.35014 614.85382 1475.0314 3029049
-172.78732 613.71259 1472.2937 2897720
-164.03804 615.4953 1476.5703 3292477
-154.19266 613.13245 1470.9019 3884615
-144.84245 612.56348 1469.5369 3358270
-135.63892 612.57959 1469.5756 3358270
-126.36445 612.25433 1468.7953 3292477
-117.21719 612.54279 1469.4872 2502962
-108.75858 616.78577 1479.6663 2831926
-98.966064 613.54993 1471.9034 3029305
-90.000725 615.30426 1476.1119 2831670
-82.105583 625.61475 1500.8469 2897720
-72.571182 624.48639 1498.1399 2832183
-62.578571 618.49402 1483.7643 2502705
-53.335789 619.11456 1485.2529 2371119
-44.228001 621.89563 1491.9247 2502705
-35.024651 624.46344 1498.0848 2634291
-25.618649 623.9754 1496.9141 2436912
-16.266836 625.00586 1499.3861 2371119
-6.8637023 624.18597 1497.4193 2436912
2.5041542 620.73065 1489.1299 2305326
11.805587 619.23956 1485.5527 2239533
21.188082 621.44061 1490.8331 2107947
30.601974 622.9339 1494.4155 1778982
40.020435 623.79877 1496.4904 2042154
49.275337 622.26978 1492.8223 2305326
58.62833 622.26978 1492.8223 2107947
68.146912 623.78546 1496.4584 2173740
77.522682 623.78546 1496.4584 2305326
87.197403 625.9314 1501.6064 2107947
96.627762 626.07605 1501.9535 2305326
105.91345 625.34088 1500.1898 2371119
115.30145 625.2804 1500.0447 2305326
124.22916 622.92096 1494.3844 2568498
133.58624 622.89435 1494.3207 2436912
142.64796 621.58429 1491.1779 2568498
151.99066 621.58429 1491.1779 3029049
160.50032 618.37482 1483.4783 2963257
169.43326 617.05823 1480.3197 2371116
178.96515 617.94635 1482.4504 2436910
186.22646 611.29364 1466.4906 2700082
195.41447 611.29364 1466.4906 2700082
204.41467 610.73248 1465.1444 2371117
213.59425 610.73248 1465.1444 2371117
221.84633 608.18976 1459.0444 2436910
230.29214 606.35834 1454.6509 2305324
238.34027 603.65918 1448.1755 1713187
247.24179 603.24011 1447.1702 1713187
258.78638 609.07135 1461.1593 1976359
267.60095 608.29834 1459.3049 1976359
278.168 611.42859 1466.8142 2042152
288.88754 614.68292 1474.6215 2173738
300.48849 619.55292 1486.3046 1910567
309.48425 618.92023 1484.7866 2107947
318.7869 618.92023 1484.7866 2042154
327.27908 617.3913 1481.1188 1779239
340.38095 624.40283 1497.9395 1910568
348.29855 621.78308 1491.6548 1778982
356.13339 619.15643 1485.3534 1647396
364.35449 617.31793 1480.9429 2042154
376.63605 622.27954 1492.8457 2370350
385.38412 621.30408 1490.5055 2239789
394.11057 620.3407 1488.1945 2239533
402.97556 619.63489 1486.5012 2371119
412.38644 619.78143 1486.8528 2239533
419.66946 616.79413 1479.6862 2173740
426.01245 612.58429 1469.5868 2042154
436.26758 614.0589 1473.1245 1910568
444.92511 613.27045 1471.2329 2107947
458.39896 619.01782 1485.0209 1910825
462.73602 612.44385 1469.2499 1713445
469.92969 609.83325 1462.9872 1844775
483.01379 614.8205 1474.9515 2042154
491.39664 613.74866 1472.3801 1976361
496.55225 608.75977 1460.4119 1647396
505.73413 608.79822 1460.504 1844775
512.7962 606.32886 1454.5801 2238764
518.25903 602.08783 1444.4059 2371119
532.11139 607.57166 1457.5615 2436912
540.85803 607.13898 1456.5236 2436912
547.74146 604.66382 1450.5856 2502705
555.20807 602.90271 1446.3608 2437169
561.77643 600.23846 1439.9692 2502705
568.07648 597.37628 1433.1029 1976361
574.81787 595.06006 1427.5463 2173740
590.70422 602.13678 1444.5232 2305326
600.64441 603.03009 1446.6664 1976361
610.68658 603.99774 1448.9877 2042154
613.10376 597.50604 1433.4141 2042154
622.08453 597.50604 1433.4141 2305326
633.74597 600.04407 1439.5029 2371119
645.06372 602.19012 1444.6512 2568498
654.11493 602.19012 1444.6512 2963256
659.03143 598.43561 1435.6443 2568498
670.49756 600.64954 1440.9554 2371119
679.96429 601.03729 1441.8856 2502705
689.02051 601.05682 1441.9325 2239533
697.66528 600.72156 1441.1282 2042154
706.29376 600.38098 1440.3112 1910568
712.56201 598.06799 1434.7623 2107947
723.56293 599.73547 1438.7626 2436912
735.49872 602.12714 1444.5002 2436912
736.00824 595.22015 1427.9304 2502705
739.1001 590.54236 1416.7084 2305326
751.88531 593.62866 1424.1124 2436912
763.00629 595.34412 1428.2277 2568498
772.18719 595.52344 1428.658 2371119
790.91705 602.9787 1446.543 2371119
799.66309 602.73969 1445.9697 2305326
808.64758 602.68384 1445.8357 2305326
818.15637 603.01562 1446.6317 2239533
827.67358 603.34631 1447.425 2173740
834.80438 601.9491 1444.0731 2042154
838.51288 598.1405 1434.9363 2173740
850.85986 600.50958 1440.6196 2765877
861.81854 601.85931 1443.8577 2765877
876.42645 605.703 1453.0786 2502705
886.15369 606.12933 1454.1014 2634291
893.4494 604.9007 1451.1539 2765877
898.00818 601.86255 1443.8654 2634291
905.88281 601.08508 1442.0002 2502705
915.6889 601.59192 1443.2162 2239533
930.21167 605.15741 1451.7698 2042154
939.96576 605.58154 1452.7872 2305326
949.58557 605.9118 1453.5796 2173740
963.09357 608.6933 1460.2523 1778982
972.24261 608.6933 1460.2523 1778982
980.32581 608.03235 1458.6667 1712676
981.99005 603.43896 1447.6473 2173484
994.0224 605.24274 1451.9745 2436399
1005.048 606.40643 1454.7661 2633778
1013.5854 606.06128 1453.9381 2173227
1019.0101 603.87769 1448.6997 1975848
1020.5227 599.43475 1438.0411 1975848
1032.1244 600.94385 1441.6615 2436399
1043.6301 602.37146 1445.0862 2502192
1058.0032 605.4151 1452.3881 2436399
1064.7982 604.1076 1449.2513 2304813
1076.2701 605.45319 1452.4794 2436399
1091.2513 608.73383 1460.3496 2173227
1098.5931 607.73376 1457.9504 2304813
1110.8661 609.45563 1462.0812 2436399
1123.7909 611.50403 1466.9952 2633778
1132.6652 611.33301 1466.585 2765364
1137.1996 608.84119 1460.6072 2765364
1137.0095 603.87988 1448.7051 2567985
1153.6178 607.84839 1458.2255 2304813
1170.6808 611.99225 1468.1665 2370606
1178.4441 611.24786 1466.3807 2370606
1187.6315 611.24786 1466.3807 2173227
1194.6223 610.1261 1463.6896 2173227
1203.3252 609.8891 1463.121 2304813
1214.191 610.74365 1465.1711 2436399
1223.955 611.03528 1465.8707 2370606
1239.2841 614.0802 1473.1755 2173227
1244.9802 612.3421 1469.0059 2041641
1255.286 612.88019 1470.2966 2173227
1258.1403 609.79877 1462.9043 2370606
1266.8776 609.59271 1462.41 2633778
1275.0304 609.11035 1461.2528 2699571
1283.6306 608.84711 1460.6213 2633778
1298.8933 611.72534 1467.5261 2502192
1303.1138 609.39929 1461.9459 2567985
1311.7324 609.14807 1461.3434 2370606
1320.0067 608.74152 1460.368 2107434
1326.8185 607.67084 1457.7994 1844262
1334.3035 606.92096 1456.0005 1975848
1339.0977 604.96564 1451.3097 2370606
1353.1124 607.17419 1456.608 2436399
1369.0754 610.2215 1463.9186 2699571
1377.543 609.90967 1463.1704 2831157
1390.6095 611.62463 1467.2847 2633778
1403.9386 613.43188 1471.6202 2699571
1411.0828 612.5307 1469.4584 2831157
1419.8751 612.35211 1469.0298 2896950
1430.486 612.95496 1470.4761 2963000
1444.7417 615.10181 1475.6265 3028536
1453.6432 614.95648 1475.2777 3028536
1468.2242 617.20044 1480.6609 2897207
1477.8099 617.32947 1480.9705 3094329
