# .PCD v0.7 - Point Cloud Data file format
VERSION 0.7
FIELDS x y z rgb
SIZE 4 4 4 4
TYPE F F F U
COUNT 1 1 1 1
WIDTH 1276
HEIGHT 1
VIEWPOINT 0 0 0 1 0 0 0
POINTS 1276
DATA ascii
476.48154 910.58691 9197.7568 4214093
529.39581 902.55261 9116.6035 4214093
576.52734 887.18451 8961.3711 4214091
620.66479 870.3454 8791.2812 4213834
673.40436 867.33093 8760.832 4214090
719.45728 856.8075 8654.5361 4279883
749.4884 830.01611 8383.918 4279883
782.82935 810.1593 8183.3467 4279113
783.57172 761.08081 7687.6094 4213321
800.32202 732.33453 7397.2456 4081735
831.30054 719.04218 7262.981 4082505
848.67804 695.97583 7029.9897 4147787
861.80878 671.87476 6786.5464 4344912
813.70819 604.54791 6106.4844 4015693
807.40588 572.92761 5787.0908 1844527
814.42963 553.07483 5586.5596 133911
848.29858 552.33746 5579.1113 659488
872.50104 545.61346 5511.1929 792103
909.85193 547.31073 5528.3369 725798
945.21143 547.72949 5532.5669 725543
971.57477 543.09003 5485.7041 726570
1001.0798 540.46381 5459.1763 726572
1033.8889 539.7359 5451.8237 792622
1059.038 535.18359 5405.8413 923697
1088.9536 533.2475 5386.2852 858416
1122.8829 533.33417 5387.1611 923951
1154.9523 532.55817 5379.3228 792364
1178.3729 527.95123 5332.7886 858410
1209.3937 526.90973 5322.2676 661028
1235.1716 523.70105 5289.8574 1384749
1258.2942 519.56372 5248.0664 3293000
nan nan nan 16777215
1945.1088 763.26691 7709.6904 3556168
2242.8618 858.77966 8674.457 3621703
2250.9939 841.50244 8499.9414 3687494
2288.5977 835.78668 8442.207 3687750
2346.2595 837.48895 8459.4014 3687749
2470.9917 862.52765 8712.3145 3818823
2598.2454 887.34503 8962.9932 3819077
2720.7568 909.52716 9187.0527 3753542
2840.1306 929.76306 9391.4541 3622213
3036.001 973.71149 9835.373 3688006
3130.8696 984.16254 9940.9375 3753799
3312.2205 1020.8604 10311.619 3688006
3455.5867 1044.6709 10552.127 3622213
3633.6367 1077.8759 10887.527 3622470
3769.0347 1097.4381 11085.124 3819848
3881.0498 1109.6071 11208.042 3819592
3954.0618 1110.3906 11215.956 3819592
4081.6301 1126.2 11375.645 3885641
4191.166 1136.5764 11480.457 4017227
4317.6948 1151.1333 11627.495 4082764
4384.4146 1149.5261 11611.261 4016971
4457.1626 1149.5261 11611.261 3951178
4461.4756 1132.1598 11435.845 4016971
4446.8467 1110.6116 11218.188 3951178
4556.4844 1120.2871 11315.919 3885385
4640.854 1123.5485 11348.863 3754056
4693.7104 1119.1974 11304.913 3885128
4939.1362 1160.2104 11719.183 3687492
4683.2568 1083.9896 10949.282 3950664
4735.1445 1080.1771 10910.773 3950664
4742.4277 1066.4427 10772.043 4016201
4715.5518 1045.5201 10560.705 4016200
4601.5356 1006.1233 10162.762 3950407
4589.4648 989.78815 9997.7617 4015944
4665.7612 992.69379 10027.111 3950151
4726.7959 992.31842 10023.319 3950151
4860.7397 1007.0583 10172.206 3884358
4831.0088 987.94507 9979.1445 3884359
4773.4429 963.70062 9734.2539 3818565
4657.4082 928.41278 9377.8145 3950150
3627.5483 714.11066 7213.168 4081735
nan nan nan 16777215
nan nan nan 16777215
nan nan nan 16777215
nan nan nan 16777215
nan nan nan 16777215
4855.0176 889.27472 8982.4844 4015429
4911.2954 889.27472 8982.4844 4146244
5371.4023 961.56647 9712.6973 4080194
5527.5708 978.43829 9883.1182 3883846
5890.0029 1031.0427 10414.471 3752260
6097.873 1055.7349 10663.883 3883845
6311.6753 1080.9075 10918.15 4015175
6518.8306 1104.4143 11155.591 3949639
6652.373 1115.0835 11263.358 4081224
6892.7847 1143.2539 11547.906 4015688
6976.9897 1145.1996 11567.56 4015943
7162.7017 1163.5953 11753.372 3884615
7473.3979 1201.714 12138.406 3884359
7762.8071 1235.6761 12481.454 3818822
8147.9238 1284.0436 12970.01 4015945
8335.1191 1300.5731 13136.973 4015944
8421.4268 1301.1912 13143.216 4015944
8546.0039 1307.6531 13208.486 3950150
8960.0439 1357.8579 13715.602 4015943
8959.5596 1344.8862 13584.575 4081736
9047.5039 1345.3074 13588.83 4147528
9253.5566 1363.1191 13768.744 4081735
9406.5615 1372.8594 13867.13 4016199
9604.0811 1388.859 14028.74 4015942
9642.5986 1381.7832 13957.269 4016199
9551.0098 1356.3579 13700.45 4015942
9563.835 1346.0818 13596.651 4015942
9419.4424 1314.0543 13273.146 4015685
9357.4238 1293.9784 13070.36 3950148
9713.8125 1331.6078 13450.452 3884099
9708.4336 1319.424 13327.384 3950148
9254.0117 1246.9412 12595.24 4015685
8852.8076 1182.7943 11947.299 4081478
9299.7217 1232.0873 12445.203 3949892
9788.4072 1286.0486 12990.262 3884099
9890.5039 1288.7471 13017.519 3884099
9880.8887 1276.9641 12898.5 3884099
9964.5391 1277.3278 12902.174 3818306
10105.353 1284.9542 12979.207 3884099
10282.842 1297.0853 13101.742 3884099
10449.844 1307.7117 13209.079 3884099
10668.669 1324.6055 13379.722 3884356
10856.558 1337.4248 13509.208 3884100
11042.161 1349.7664 13633.869 4015941
11293.689 1369.9152 13837.391 3884099
11561.854 1391.7594 14058.037 3950149
11830.561 1413.3383 14276.003 3949636
12086.956 1433.1335 14475.954 3949892
12253.804 1442.0955 14566.478 3949893
12296.53 1436.4255 14509.206 4015432
12163.175 1410.4208 14246.533 4015688
12226.76 1407.4653 14216.682 3818309
11721.071 1339.4956 13530.125 3949895
11805.842 1339.4956 13530.125 4081481
10641.317 1198.7606 12108.573 4080711
10775.583 1205.2931 12174.558 4080967
13026.277 1446.8009 14614.007 4212554
13117.839 1446.8009 14614.007 4212297
12852.115 1407.6681 14218.73 4146504
12941.2 1407.6681 14218.73 4014918
13111.24 1416.4138 14307.069 4146247
13217.362 1418.1825 14324.935 4080711
13274.336 1414.6893 14289.65 3883075
13370.703 1415.4132 14296.963 3949124
13539.028 1423.6942 14380.608 3817538
13801.909 1441.743 14562.918 3685696
13921.365 1444.6709 14592.492 3554110
14152.09 1459.0321 14737.554 3619646
14263.3 1460.9653 14757.081 3553853
14244.541 1449.647 14642.755 3488061
14627.852 1479.1298 14940.558 3422525
14890.654 1496.1295 15112.271 3356475
15189.896 1516.5527 15318.563 3488061
15405.643 1528.4353 15438.589 3488061
15535.549 1531.7067 15471.632 3619646
16002.343 1567.9463 15837.686 3619646
16641.219 1620.4963 16368.488 3488061
16775.635 1623.5802 16399.639 3356476
nan nan nan 16777215
nan nan nan 16777215
nan nan nan 16777215
nan nan nan 16777215
-6650.0996 736.14276 6995.3516 3292220
-6605.1885 736.02203 6994.2046 3226429
-6593.918 739.6734 7028.9023 3358014
-6556.8262 740.45789 7036.3569 3358014
-6480.7256 736.81793 7001.7671 3488831
-6514.1182 745.66187 7085.8086 3357755
-6502.6226 749.45361 7121.8403 3489341
-6489.4248 753.10028 7156.4937 3489341
-6497.0693 759.23315 7214.7729 3555134
-6507.4136 765.76978 7276.8882 3555134
-6492.5156 769.40729 7311.4541 3555134
-6469.373 772.11243 7337.1606 3489341
-6463.1641 776.89172 7382.5767 3423548
-6441.6318 779.88477 7411.019 3489341
-6432.1748 784.39386 7453.8677 3555134
-6465.9175 794.27557 7547.7705 3555134
-6470.5908 800.70569 7608.8745 3555134
-6518.8306 812.66248 7722.4956 3686720
-6512.0581 817.88861 7772.1587 3555134
-6516.752 824.64453 7836.3584 3357755
-6792.4741 866.06 8229.917 3291962
-6936.6318 891.20587 8468.8711 3291962
-6895.1797 892.70868 8483.1523 3291962
-6787.6694 885.61591 8415.752 3226169
-6681.9023 878.64148 8349.4756 3357755
-6629.5903 878.64148 8349.4756 3291962
-6674.6001 891.64252 8473.0205 3292219
-6605.7451 889.51898 8452.8418 3292219
-6565.0288 891.18103 8468.6357 3358012
-6478.6899 886.62659 8425.3555 3423805
-6362.3706 877.86066 8342.0557 3423805
-6246.7607 869.04822 8258.3135 3358012
-6148.9028 862.57886 8196.8369 3555647
-6052.7158 856.23682 8136.5703 3490111
-6021.0308 858.9892 8162.7261 3555904
-6054.4331 871.15411 8278.3252 3490114
-5667.353 822.50452 7816.022 3687749
-5102.9355 747.04535 7098.9556 3753285
-5056.5454 746.76288 7096.271 3555906
-4873.6582 726.13837 6900.2822 3555906
-4735.4219 711.85681 6764.5688 3424320
-4711.522 714.66016 6791.2085 3358527
-4592.0269 702.88239 6679.2876 3292734
-4550.1792 702.88239 6679.2876 3424320
-4080.8621 636.23676 6045.9736 3556163
nan nan nan 16777215
nan nan nan 16777215
nan nan nan 16777215
nan nan nan 16777215
-2807.6069 459.03119 4362.0405 4806487
-2780.2773 459.03119 4362.0405 4806487
-2777.5671 463.13626 4401.0498 4280143
nan nan nan 16777215
nan nan nan 16777215
-4235.7935 727.96368 6917.6279 3227453
-4515.4487 784.04767 7450.5781 3358525
-4461.729 782.81256 7438.8413 3621697
-4449.3867 788.88776 7496.5718 3687747
-4474.4067 801.78772 7619.1562 3884869
-4506.1509 816.18365 7755.957 3753283
-4544.6177 832.12451 7907.438 3884869
-4524.231 837.52185 7958.7275 4016455
-4600.4009 861.1131 8182.9087 4148041
-4635.376 877.43823 8338.042 4148041
-4731.063 905.75897 8607.165 4279627
-4691.6445 908.56848 8633.8633 4213834
-4658.8867 912.7486 8673.5859 4082505
-4658.8628 923.51605 8775.9053 4082248
-4613.4214 925.4303 8794.0957 4081735
-4569.0273 927.60333 8814.7461 3950405
-4544.7178 933.95697 8875.1221 3884612
-4495.312 935.24683 8887.3799 3950404
-4471.1475 941.88623 8950.4717 3752769
-4431.7363 945.44183 8984.2598 3621439
-4375.4473 945.44183 8984.2598 3555390
-4318.1592 945.22314 8982.1816 3423805
-4261.8828 945.22314 8982.1816 3555647
-4214.7427 947.27643 9001.6934 3687233
-4168.3984 949.56677 9023.458 3753284
-4129.6772 953.68054 9062.5498 4016455
-4071.2209 953.28796 9058.8193 4213835
-3961.9578 940.81952 8940.335 4279627
-3905.9436 940.81952 8940.335 4279628
-3829.4915 935.82495 8892.873 4148041
-3774.9539 936.11725 8895.6514 4279627
-3704.2412 932.34717 8859.8252 4279626
-3550.8806 907.34369 8622.2236 4082246
-3558.4177 923.31628 8774.0078 4016452
-3578.8159 943.17987 8962.7646 4081989
-3522.6616 943.17987 8962.7646 4279624
-3475.1145 945.52179 8985.0195 4279626
-3432.8328 949.39703 9021.8447 4345676
-3379.5933 950.32074 9030.623 4148811
-3353.8562 959.14117 9114.4414 4017225
-3319.709 965.82031 9177.9111 4148554
-3257.1438 964.32147 9163.668 4083018
-3200.6672 964.60376 9166.3506 4017225
-3144.0986 964.86816 9168.8623 4148297
-3082.4355 963.54987 9156.335 4148041
-3018.1165 961.33551 9135.293 3950919
-2935.1982 952.99677 9056.0527 4016455
-2878.459 952.99677 9056.0527 3819076
-2827.4402 954.92877 9074.4111 3884869
-2772.4148 955.55896 9080.4004 3950662
-2757.9548 970.49005 9222.2861 3884869
-2657.2991 955.07996 9075.8486 3753283
-2616.4502 960.96155 9131.7393 3687490
-2614.7715 981.81409 9329.8945 3753283
-2582.1758 991.74585 9424.2734 3753283
-2520.6682 990.77826 9415.0791 3621954
-2462.5591 991.13226 9418.4424 3752514
-2368.7539 976.78387 9282.0938 3752770
-2313.3149 977.93207 9293.0049 3686977
-2256.6409 978.60394 9299.3896 3686977
-2197.0391 978.0083 9293.7295 3818563
-2139.708 978.41846 9297.627 3753027
-2112.2378 992.88818 9435.1289 3818563
-2092.3701 1011.8676 9615.4844 3752770
-2017.239 1004.4547 9545.042 3687234
-1952.309 1001.8237 9520.04 3621184
-1915.876 1014.1108 9636.8008 3621185
-1854.7009 1013.6749 9632.6592 3752770
-1809.7352 1022.3668 9715.2549 3686977
-1718.9623 1004.8853 9549.1338 3752770
-1670.0656 1011.5062 9612.0508 3818563
-1610.0011 1011.6055 9612.9941 3818563
-1611.8236 1052.1089 9997.8857 3752770
-1495.802 1015.8553 9653.3789 4015942
-1391.8888 985.11627 9361.2744 4147528
-1324.8713 978.93457 9302.5312 4213321
-1270.0554 981.6145 9327.998 3884356
-1217.6083 986.47192 9374.1572 4147785
-1148.5095 977.64752 9290.3008 4147785
-1095.7017 982.48846 9336.3027 3950149
-1020.7106 966.86255 9187.8145 4016199
-950.75122 954.41974 9069.5742 4081735
-906.97522 968.3504 9201.9531 4147528
-831.85577 948.43622 9012.7148 4147528
-771.95654 944.23853 8972.8252 4147528
-713.17871 940.8609 8940.7285 4147528
-653.04974 934.9729 8884.7764 4081735
-604.99683 946.88812 8998.0029 4016968
-541.78906 935.09558 8885.9424 3950403
-462.50601 889.67957 8454.3672 4345161
-335.07019 727.90796 6917.0986 3884610
-304.62286 760.07117 7222.7363 2960941
-259.37018 760.07117 7222.7363 3818818
-247.78531 879.58466 8358.4385 4608336
-200.47438 902.34784 8574.75 4476493
-148.4937 913.0639 8676.582 4411470
-94.343277 915.11121 8696.0361 4214093
-40.052864 919.54089 8738.1309 4148297
14.826989 927.84833 8817.0742 4082505
70.499443 933.55237 8871.2773 4147528
125.2806 927.62769 8814.9775 4147528
186.32953 957.53827 9099.209 4081735
238.94347 940.24225 8934.8496 3884356
285.70129 910.84247 8655.4717 3884356
339.93051 910.84247 8655.4717 3884356
393.33221 908.93018 8637.2998 3884613
441.20709 896.25342 8516.8369 3818563
493.96072 895.15344 8506.3838 3686976
546.97583 894.69537 8502.0312 3752770
600.67078 895.33197 8508.0801 3752770
653.27045 894.3653 8498.8945 3884356
682.78552 864.32208 8213.4023 3884356
717.78809 844.94971 8029.312 3884356
749.50983 824.5058 7835.0396 3818563
768.80487 793.74536 7542.7319 3950406
795.02448 773.28271 7348.2812 4016199
823.03296 756.70502 7190.7485 4213322
840.13239 732.33862 6959.2017 4081994
841.97546 697.73395 6630.3638 4147277
813.26941 642.258 6103.1914 3884363
804.43457 606.75256 5765.7935 1778478
812.95496 586.82672 5576.4443 199447
842.4563 583.0639 5540.6875 659492
866.98566 576.29401 5476.3545 857895
906.64233 579.71204 5508.8354 660005
940.90546 579.55707 5507.3633 791593
968.3902 575.38568 5467.7236 791592
999.67938 573.68256 5451.5391 792365
1033.835 573.68256 5451.5391 858159
1059.3499 569.04108 5407.4326 857904
1090.5762 567.66022 5394.311 792110
1122.9114 566.92218 5387.2974 792365
1153.5259 565.38397 5372.6797 792364
1182.3739 563.09155 5350.8955 792616
1215.8989 563.09155 5350.8955 529443
1236.0464 557.06256 5293.604 1647922
1264.1014 554.81934 5272.2871 3424839
1313.8054 561.95013 5340.0493 3752779
1769.0691 737.88776 7011.9336 3621445
2011.1381 818.52917 7778.2456 3555908
2069.7959 822.47296 7815.7222 3424065
2118.7639 822.47296 7815.7222 3424065
2229.2827 845.82642 8037.6431 3687236
2282.4087 846.85333 8047.4019 3753286
2423.1096 879.62689 8358.8398 3819078
2545.7043 904.58002 8595.9619 3753542
2631.3564 915.6441 8701.1006 3688006
2784.4956 949.26617 9020.6016 3622213
2907.3442 971.42957 9231.2139 3688006
3060.3059 1002.5937 9527.3574 3688006
3186.3738 1023.9233 9730.0469 3688006
3378.2031 1065.1875 10122.168 3688006
3477.3105 1076.2333 10227.133 3819592
3573.604 1086.024 10320.172 3753799
3657.7229 1091.8329 10375.371 3688006
3796.1531 1113.3676 10580.01 3819592
3918.0713 1129.4036 10732.395 3754056
3827.7705 1084.7573 10308.135 3556420
3988.6445 1111.5924 10563.141 3819592
4014.2869 1100.479 10457.533 3951178
3985.032 1074.9148 10214.604 3753799
4042.9595 1073.3033 10199.29 3819592
4231.1616 1105.7885 10507.987 3753799
4376.7319 1126.3073 10702.972 3819592
4241.8418 1075.1224 10216.576 3687236
4173.2822 1042.0212 9902.0264 3884868
4134.6787 1017.26 9666.7266 3819077
4210.1294 1020.8694 9701.0264 3950663
4241.3794 1013.811 9633.9521 3884870
4241.0371 999.50507 9498.0068 3885126
4201.4395 976.4715 9279.126 3819333
4270.5625 978.99017 9303.0596 3885128
4342.4067 982.05627 9332.1963 4081994
4387.6431 979.10339 9304.1357 4082250
4412.9312 971.83478 9235.0645 3884613
4261.2725 926.29071 8802.2725 3818307
4171.2544 895.13837 8506.2402 3621955
3767.7603 798.34955 7586.4844 3752769
3447.6545 721.42145 6855.459 3753027
nan nan nan 16777215
nan nan nan 16777215
nan nan nan 16777215
nan nan nan 16777215
nan nan nan 16777215
nan nan nan 16777215
4028.876 775.41962 7368.5884 4015685
4615.3169 878.22583 8345.5254 4081477
4969.6172 935.0506 8885.5146 3884359
5200.0493 967.56836 9194.5215 3949895
5389.3335 991.80103 9424.7979 4015431
5626.9214 1024.3015 9733.6406 4147017
5892.4121 1061.1299 10083.609 4015688
5982.5854 1065.9398 10129.317 4015431
6112.7173 1077.6937 10241.012 3949895
6357.2026 1109.1549 10539.979 3950150
6552.7607 1131.5206 10752.513 3884614
6767.0293 1156.629 10991.11 3950149
6918.5962 1170.6227 11124.088 3884357
7070.9194 1184.4637 11255.615 4015943
7178.3623 1190.5876 11313.81 4147529
7285.9399 1196.614 11371.076 4081993
7484.7124 1217.3561 11568.182 3950149
7579.5522 1220.958 11602.411 4081735
7705.2905 1229.4219 11682.84 4081735
7874.7515 1244.6367 11827.423 4081735
8111.8096 1270.1525 12069.892 4081735
8216.1904 1274.6141 12112.289 3950406
8270.2402 1271.2572 12080.39 3950149
8314.7061 1266.5016 12035.197 3884356
8342.9766 1259.3868 11967.588 4015942
8019.5239 1199.7783 11401.146 3950149
8252.6162 1223.7502 11628.944 3884099
8524.1162 1252.9484 11906.405 3752770
8512.4873 1240.384 11787.01 3686977
8534.8818 1232.9508 11716.374 3818306
8415.0762 1205.2773 11453.401 3752513
8395.3076 1192.2789 11329.881 3686720
8466.293 1192.2789 11329.881 3818306
8617.0674 1203.422 11435.77 3818306
8644.8887 1197.3514 11378.084 3818306
8718.2393 1197.635 11380.778 3818306
8804.1006 1199.6185 11399.628 3884099
8861.5928 1197.7357 11381.736 3818306
8946.4629 1199.5538 11399.013 3818306
9029.0391 1201.0381 11413.116 3752513
9205.1084 1214.8376 11544.25 3752513
9327.043 1221.3333 11605.977 3884099
9403.8154 1221.8606 11610.987 3752513
8968.3525 1156.3346 10988.313 3620927
9639.7979 1233.439 11721.013 3752770
9797.3252 1244.1174 11822.487 3752513
9803.6113 1235.5742 11741.304 3883329
9553.4912 1195.0835 11356.532 3949122
9624.6445 1195.0835 11356.532 4080708
9873.7979 1217.0237 11565.022 4212037
10042.885 1228.847 11677.378 4147271
10161.453 1234.3627 11729.791 4015686
10442.086 1259.3447 11967.188 3949894
10407.76 1246.2562 11842.812 4081478
10655.999 1266.9489 12039.448 4081224
10745.215 1268.5762 12054.912 4081224
11022.999 1292.288 12280.238 4212810
11084.418 1290.4811 12263.067 4278603
11238.231 1299.3817 12347.648 4278603
11358.978 1304.3635 12394.989 4541775
11726.983 1337.478 12709.666 4870740
11924.085 1350.7855 12836.123 5002583
10542.906 1186.3214 11273.27 4870740
10670.927 1192.7362 11334.227 4936533
10852.185 1204.9773 11450.551 5002583
12531.043 1382.2524 13135.145 5397084
11055.58 1211.543 11512.942 5331291
11230.333 1222.7159 11619.115 5331292
11142.023 1205.2883 11453.506 5068120
11288.596 1213.3293 11529.917 4936534
12410.846 1325.4698 12595.556 4870998
13807.773 1465.3433 13924.732 4870741
13958.847 1472.0747 13988.699 4344653
14276.761 1496.207 14218.022 4081482
14386.222 1498.3297 14238.193 3949639
14621.948 1513.4957 14382.312 3883846
14884.713 1531.2577 14551.098 3752773
nan nan nan 16777215
nan nan nan 16777215
nan nan nan 16777215
nan nan nan 16777215
-6133.1855 719.12964 6451.6011 3752772
-6380.2861 753.06586 6756.0566 3950151
-6210.0718 737.87073 6619.7349 3884358
-6193.3257 740.82867 6646.272 3884357
-6177.8218 743.97626 6674.5103 3883845
-6207.8901 752.69232 6752.7056 3884355
-6235.5991 761.23999 6829.3896 3752513
-6208.2183 763.13385 6846.3809 3686720
-6212.5908 768.98456 6898.8696 3686720
-6226.1396 776.06097 6962.355 3621183
-6221.4263 780.94482 7006.1704 3620927
-6210.6157 785.12738 7043.6938 3686720
-6197.6152 789.091 7079.2529 3620927
-6141.7935 787.6203 7066.0586 3620927
-6145.0386 793.758 7121.1226 3555134
-6193.3901 805.85455 7229.645 3423548
-6159.3076 807.32428 7242.8311 3555134
-6129.144 809.33337 7260.8555 3489341
-6152.3433 818.47162 7342.8379 3357755
-6184.0913 828.89343 7436.3359 3423548
-6384.998 862.31885 7736.2095 3489341
-6470.4604 880.54529 7899.7261 3423548
-6503.9614 891.92706 8001.8359 3423548
-6410.8877 885.99268 7948.5962 3489341
-6262.8315 872.30725 7825.8193 3423548
-6213.8003 872.30725 7825.8193 3555134
-6292.1118 890.32605 7987.4736 3226426
-6256.0283 892.31732 8005.3379 3292219
-6179.3394 888.50232 7971.1113 3358012
-6059.7979 878.41321 7880.5981 3423805
-5975.2437 873.27179 7834.4722 3489598
-5910.1455 870.91211 7813.3032 3424831
-5785.8652 859.71924 7712.8872 3753539
-5576.4707 835.58423 7496.3618 3687746
-5529.5034 835.58423 7496.3618 3621696
-5295.3384 807.05359 7240.4023 3687492
-5028.4995 773.00726 6934.959 3753285
-4916.312 762.34845 6839.3345 3884871
-4873.4619 762.34845 6839.3345 4082250
-4656.2549 734.83228 6592.4756 3819078
-4510.4619 718.19458 6443.2124 3621956
-4400.918 707.08044 6343.5029 3621956
-4361.1738 707.08044 6343.5029 3753285
-4076.0498 666.93085 5983.3052 3753285
-3641.7095 601.39429 5395.3501 3753285
-3424.1008 570.75623 5120.4834 3556420
nan nan nan 16777215
nan nan nan 16777215
nan nan nan 16777215
-2697.6733 467.17804 4191.2422 4872280
-2726.3169 476.77951 4277.3809 4806487
-2789.8308 492.73029 4420.4814 4214607
nan nan nan 16777215
nan nan nan 16777215
-3901.7822 710.27271 6372.1421 3425345
-4120.9331 757.92163 6799.6196 3490368
-4087.7671 759.67523 6815.3516 3884869
-4194.3008 787.70172 7066.7891 3950662
-4167.2041 790.9624 7096.042 3950662
-4165.7642 799.2157 7170.0854 3884869
-4239.4204 822.21362 7376.4087 3819076
-4222.4634 827.95074 7427.8784 3687490
-4293.8032 851.3219 7637.5513 3753283
-4358.7231 873.93286 7840.4033 3753283
-4309.6006 873.93286 7840.4033 3819333
-4238.2231 869.3678 7799.4482 3884869
-4189.3569 869.3678 7799.4482 4148041
-4249.8774 892.33539 8005.4995 4148041
-4217.4692 896.10651 8039.332 4213834
-4237.8145 911.31317 8175.7573 4082248
-4201.8931 914.64404 8205.6396 4016455
-4209.396 927.62689 8322.1143 4016198
-4188.7422 934.65259 8385.1445 3884100
-4153.1987 938.49237 8419.5928 3884100
-4126.4482 944.44342 8472.9814 3818562
-4095.8291 949.65247 8519.7139 3752770
-4063.884 954.68762 8564.8867 3687489
-4020.6238 957.16388 8587.1016 3753283
-3958.636 955.18835 8569.3789 3819076
-3871.9966 947.1286 8497.0713 3950662
-3802.7585 943.15991 8461.4668 4082248
-3749.7446 943.15991 8461.4668 3950662
-3737.5117 953.56439 8554.8096 4082248
-3702.4121 958.35284 8597.7686 4148041
-3664.8762 962.6427 8636.2549 4148041
-3588.5293 956.71381 8583.0645 4213834
-3491.9009 945.11536 8479.0098 4148298
-3461.0281 951.23083 8533.874 3951175
-3431.0671 957.7926 8592.7432 3820103
-3375.0857 957.18433 8587.2852 3754053
-3279.4663 945.13269 8479.165 3951432
-3193.8296 935.60846 8393.7197 4148811
-3148.5266 937.77863 8413.1895 4083275
-3123.2568 946.09119 8487.7646 4017225
-3101.4592 955.76172 8574.5225 3820359
-3047.7373 955.76172 8574.5225 3951175
-2995.4976 956.23486 8578.7676 4081991
-2945.9661 957.60565 8591.0654 3753283
-2903.0002 961.20154 8623.3252 3819076
-2850.8804 961.84515 8629.0996 3950919
-2798.2539 962.33954 8633.5352 4016455
-2744.1621 962.33954 8633.5352 3884869
-2691.0513 962.69049 8636.6836 3884869
-2643.635 965.13477 8658.6123 3884869
-2581.7954 962.30548 8633.2295 3753540
-2487.6284 947.04797 8496.3486 3884869
-2438.0994 948.48871 8509.2734 3884869
-2416.4744 961.0918 8622.3408 3819076
-2385.625 970.5188 8706.9141 3753283
-2336.7646 972.88831 8728.1719 3753540
-2283.1682 973.35217 8732.334 3753027
-2195.8904 959.12738 8604.7178 3818563
-2145.9604 960.9101 8620.7109 3950149
-2097.5205 963.46936 8643.6709 3884356
-2023.7682 954.22919 8560.7734 4015942
-1970.1322 954.22919 8560.7734 3884356
-1939.8865 965.87506 8665.2539 3621184
-1890.8738 968.57855 8689.5078 3818563
-1837.3121 969.04321 8693.6768 3752770
-1792.9475 974.53516 8742.9463 3687234
-1760.6899 987.16119 8856.2197 3687233
-1700.9037 984.67224 8833.8906 3621441
-1645.6664 984.73785 8834.4795 3555135
-1606.7397 994.90784 8925.7188 3818563
-1552.4863 995.97852 8935.3242 3950406
-1493.135 993.73651 8915.21 4015942
-1423.2635 984.04669 8828.2783 4147528
-1365.1165 982.00708 8809.9805 4147528
-1291.0681 967.87506 8683.1963 4081735
-1233.9382 965.74078 8664.0488 4147528
-1196.1863 979.27411 8785.4619 4081735
-1141.1426 979.27411 8785.4619 4015942
-1077.9395 971.91705 8719.459 3950149
-1018.5057 967.35468 8678.5283 3884356
-961.56854 964.78265 8655.4531 3884356
-894.63177 951.27039 8534.2295 4147528
-831.91559 940.81348 8440.416 4213321
-778.74677 940.46692 8437.3066 4213321
-721.81 935.18799 8389.9473 4147528
-658.90424 920.73889 8260.3193 3818563
-604.8219 917.20721 8228.6348 3818307
-553.26697 917.20721 8228.6348 3752513
-502.15045 918.00867 8235.8252 4016196
-402.10663 819.3031 7350.2979 4147525
-343.22296 789.77649 7085.4023 3753281
-298.83072 789.77649 7085.4023 3090988
-254.17677 788.96411 7078.1143 3817277
-213.43829 802.53064 7199.8247 4015169
-175.20349 835.30487 7493.856 3818561
-137.42137 895.02393 8029.6196 3818307
-87.794174 902.01917 8092.3765 3950149
-37.345833 908.16925 8147.5513 3950406
13.763963 912.33563 8184.9302 4015942
65.879723 924.04248 8289.9561 3818563
120.00883 941.21808 8444.0459 3950149
172.91339 941.21808 8444.0459 3884613
228.17097 951.02545 8532.0322 3686977
272.13165 918.96136 8244.3721 3621184
336.27078 954.39764 8562.2852 3686977
375.22299 918.43323 8239.6338 3489598
426.33551 917.33307 8229.7637 3621184
467.36407 897.11389 8048.3691 3621184
518.9895 899.19281 8067.02 3752770
574.51654 907.06274 8137.6245 3621184
604.71149 876.91467 7867.1538 3752770
643.84393 863.29468 7744.9639 3686977
690.02246 860.36945 7718.7207 3818563
708.72467 825.81171 7408.6895 3818563
743.15515 812.70264 7291.0825 3950149
769.6665 792.95319 7113.9019 3884357
795.06927 774.28619 6946.4326 3884357
823.72272 760.55817 6823.2734 3884359
835.58984 733.45044 6580.0786 3752518
813.26941 680.29401 6103.1914 3752523
799.12897 638.44708 5727.7656 1646892
808.48077 618.15912 5545.7539 133397
840.5036 616.16284 5527.8447 593951
864.86194 608.92822 5462.9399 857126
902.50537 611.24207 5483.6987 725799
936.32562 610.89185 5480.5562 857386
964.36859 606.93042 5445.0166 725800
996.29138 605.59808 5433.064 923181
1029.3638 605.02942 5427.9619 857388
1059.7433 602.96497 5409.4414 922926
1089.9525 600.93463 5391.2261 857135
1122.2808 600.15942 5384.272 725804
1149.7441 596.90399 5355.0654 660265
1185.0298 597.77893 5362.915 726054
1223.9025 600.36523 5386.1177 462880
1240.3661 592.11517 5312.1035 2041910
1242.0382 577.41992 5180.2661 3819083
1448.0842 656.06622 5885.834 3753032
1753.4784 774.69922 6950.1382 3621445
1813.0009 781.58722 7011.9336 3555907
1877.1758 790.10754 7088.3726 3490114
2010.751 826.76965 7417.2832 3556163
2079.7493 835.82294 7498.5034 3687491
2148.8882 844.53131 7576.6299 3884615
2340.6348 900.00775 8074.3315 3950663
2451.9036 922.84668 8279.2285 3884871
2512.3057 925.99078 8307.4355 3819334
2638.6885 952.83289 8548.2471 3688005
2747.8147 972.49963 8724.6855 3688005
2847.7278 988.20215 8865.5586 3688005
2964.4177 1009.0143 9052.2725 3424833
3036.2942 1014.0779 9097.7002 3227454
3122.3486 1023.6028 9183.1523 3095868
3237.0613 1042.0082 9348.2744 3161405
3323.8542 1050.9316 9428.3311 3227455
3391.3457 1053.5475 9451.7979 3227456
3386.8347 1034.0892 9277.2305 3293248
3446.1589 1034.4493 9280.4609 3425091
3504.3042 1034.4493 9280.4609 3359297
3603.8491 1046.4708 9388.3105 3293505
3672.1318 1049.1743 9412.5645 3161920
3731.1045 1049.1743 9412.5645 3293249
3837.6638 1062.3473 9530.7451 3227713
3725.8162 1015.5833 9111.2061 3227713
3681.4829 988.3559 8866.9385 3621444
3690.9631 976.17047 8757.6182 3753283
3718.5344 969.05664 8693.7969 3621696
3759.907 965.69287 8663.6191 3621699
3817.1814 966.45093 8670.4199 3490370
3799.5903 948.4989 8509.3652 3292222
3800.7305 935.65491 8394.1367 3358015
3849.011 934.60809 8384.7451 3555393
3855.605 923.60339 8286.0176 3423806
3800.8398 898.38806 8059.8008 3226427
3779.6357 881.6626 7909.7495 3358270
3566.1624 821.1004 7366.4224 3555392
3448.6484 783.89801 7032.6641 3686978
3404.4282 764.08411 6854.9058 3752513
3447.376 764.08411 6854.9058 3883329
3095.9756 677.75525 6080.415 4014658
nan nan nan 16777215
nan nan nan 16777215
2648.6455 559.18585 5016.6812 2764336
nan nan nan 16777215
nan nan nan 16777215
3294.6594 671.6618 6025.748 4080452
3722.832 750.35236 6731.7129 4277829
3973.7686 791.95758 7104.9702 3884103
4436.9927 874.48035 7845.3149 4015432
4653.4712 907.0968 8137.9307 4015432
4791.4971 923.87946 8288.4941 4080968
5115.0269 975.68701 8753.2803 3949382
5265.6147 993.75665 8915.3906 3818053
5415.814 1011.3744 9073.4463 3883846
5519.2021 1019.9753 9150.6084 3752773
5619.4912 1027.8325 9221.0986 3686978
5729.1606 1037.2279 9305.3887 3621184
5988.1567 1073.1964 9628.0771 3752772
6178.0757 1096.191 9834.3701 3752771
6330.7285 1112.1844 9977.8545 3818819
6420.0537 1116.8485 10019.697 3752769
6635.2744 1143.1113 10255.312 3686977
6773.415 1155.7185 10368.415 3686977
6923.0308 1170.0255 10496.77 3686977
7063.7183 1182.5686 10609.298 3555391
7217.8354 1197.1051 10739.711 3621184
7350.9312 1207.9187 10836.725 3686977
7394.4521 1203.9502 10801.121 3621441
7387.5259 1191.9143 10693.143 3686977
7295.3442 1166.4631 10464.811 3621184
7345.9517 1164.0928 10443.545 3752770
7491.1934 1176.6284 10556.007 3686977
7548.606 1175.2701 10543.821 3818563
7444.2598 1148.9691 10307.864 3752513
7447.2881 1139.5504 10223.365 3686720
7448.5181 1130.0197 10137.86 3686977
7400.3613 1113.2207 9987.1514 3752513
7483.6348 1116.3086 10014.854 3752513
7546.3804 1116.3086 10014.854 3620927
7725.999 1133.4546 10168.677 3752513
7828.7446 1139.1345 10219.634 3686977
7897.2715 1139.7836 10225.457 3752513
7940.957 1136.8658 10199.281 3752513
7972.1489 1132.2203 10157.604 3752513
8055.5879 1135.01 10182.631 3620927
8035.7969 1123.3251 10077.801 3555134
7984.5786 1107.4634 9935.5 3555134
8074.7451 1111.3058 9969.9707 3489341
8162.9551 1114.8217 10001.514 3555134
8347.2197 1131.3026 10149.37 3555134
8412.3193 1131.5056 10151.192 3620927
8509.7178 1136.0176 10191.671 3686206
8662.1309 1147.752 10296.944 3685950
8726.6445 1147.752 10296.944 3751743
8711.4248 1137.3422 10203.554 3620157
9004.9727 1167.1023 10470.544 3685950
9211.3105 1185.2107 10633.002 3685950
9276.9863 1185.0903 10631.922 3751743
9351.9473 1186.1492 10641.421 3751486
9531.7705 1200.399 10769.263 3817279
9662.3604 1208.292 10840.073 3751486
9746.8916 1210.355 10858.582 3751232
9095.6455 1121.6552 10062.82 3554880
10056.642 1231.6261 11049.413 3489087
10125.869 1231.6261 11049.413 3357759
9902.0986 1196.2302 10731.862 3357758
9404.8418 1128.496 10124.191 3423551
9468.2734 1128.496 10124.191 3423552
9810.8359 1161.5433 10420.673 3489345
10095.892 1187.3905 10652.558 3423552
10331.78 1207.1534 10829.859 3489345
10673.965 1238.9969 11115.54 3620930
10749.134 1239.6343 11121.258 3686723
10818.812 1239.6343 11121.258 3883846
10608.782 1207.7902 10835.571 3949896
11746.697 1328.8359 11921.522 3949896
12489.795 1403.9711 12595.59 4015432
12415.422 1386.8483 12441.974 4147018
12567.081 1395.0302 12515.377 4015689
12738.316 1405.2703 12607.244 4081481
12817.305 1405.2703 12607.244 4147018
13124.85 1430.1754 12830.679 4147018
nan nan nan 16777215
nan nan nan 16777215
nan nan nan 16777215
nan nan nan 16777215
-5722.2134 708.45544 6019.2925 3292221
-5835.3027 727.24976 6178.9761 3423807
-5801.7139 727.8927 6184.4385 3358014
-5894.7212 744.534 6325.8291 3292478
-5857.2139 744.80432 6328.126 3357501
-5862.0938 750.50507 6376.5615 3291962
-5887.1953 758.89075 6447.8091 3489341
-5889.6758 764.45605 6495.0942 3423548
-5889.4556 769.74591 6540.0386 3357755
-5905.9531 777.31024 6604.3076 3489341
-5892.2192 780.97424 6635.4385 3423548
-5873.8413 784.07043 6661.7451 3489341
-5909.0298 794.41248 6749.6147 3489341
-5902.4229 799.24414 6790.666 3423548
-5908.1855 805.83295 6846.6475 3094583
-5918.5352 813.14844 6908.8022 3028790
-5908.0732 817.69128 6947.4004 3094583
-5884.9507 820.5365 6971.5732 3160376
-5892.083 827.67407 7032.2173 3357755
-5918.3052 837.62097 7116.7295 3489341
-5954.8921 849.19696 7215.0835 3489341
-5959.5425 856.36102 7275.9512 3555134
-5925.7246 858.06512 7290.4302 3423548
-5919.3262 863.79681 7339.1294 3291962
-5802.3579 853.35681 7250.4272 3423548
-5788.7461 858.07269 7290.4946 3357755
-5808.1675 867.79913 7373.1343 3226426
-5777.2744 870.10376 7392.7148 3160633
-5729.4673 869.87756 7390.793 3029047
-5584.3359 854.75104 7262.2729 2831668
-5533.688 853.95673 7255.5239 2437167
-5565.5962 865.99475 7357.8032 2371117
-5452.3169 855.45428 7268.248 2502960
-5188.811 820.96765 6975.2373 3226426
-5116.6885 816.43274 6936.707 3489598
-4939.9839 794.98993 6754.521 3490370
-4765.5547 773.54578 6572.3232 3358784
-4717.7314 772.45764 6563.0786 3161406
-4674.7861 772.15607 6560.5161 3358784
-4488.0352 747.8855 6354.3042 3292992
-4282.2915 719.98712 6117.27 3424321
-4176.6167 708.56152 6020.1938 3424577
-3908.3882 669.09918 5684.9077 3358783
-3675.4756 635.01245 5395.2949 3424321
-3484.5442 607.61346 5162.5029 3358527
-3400.2527 598.47046 5084.8203 3358527
-3286.2625 583.87781 4960.8359 3293247
nan nan nan 16777215
nan nan nan 16777215
-2673.1848 488.82053 4153.1953 4872279
-2739.5386 505.8783 4298.1245 4740949
-2781.3989 518.70697 4407.1211 4214604
-2606.1228 490.89267 4170.8013 3556675
nan nan nan 16777215
nan nan nan 16777215
-3861.8589 749.98492 6372.1421 3753539
-3941.5857 773.46411 6571.6299 3819076
-3918.5837 777.06757 6602.2461 3687490
-3926.7366 786.99188 6686.5664 3884869
-3968.2031 803.87897 6830.0454 3884869
-3982.835 815.63873 6929.9604 3621697
-4019.9209 832.30682 7071.5786 3555904
-3988.772 835.06122 7094.981 3687747
-4026.824 852.52838 7243.3887 3819076
-4042.2129 865.54095 7353.9482 3884869
-4076.3208 882.90814 7501.5059 3884869
-4033.6909 883.86548 7509.6396 4016455
-3985.7607 883.67041 7507.9824 4148298
-3979.6372 892.85028 7585.9775 4082248
-3941.1655 894.90674 7603.4502 4082248
-3952.7163 908.51093 7719.0366 4082248
-3959.9167 921.43982 7828.8853 3950662
-3926.623 925.15234 7860.4277 3753283
-3877.3752 925.15234 7860.4277 3753539
-3856.1545 931.92584 7917.978 3753540
-3803.7207 931.23407 7912.1006 3819076
-3756.7461 931.8783 7917.5742 3819076
-3685.9724 926.55731 7872.3652 3753540
-3640.8303 927.62262 7881.416 3819332
-3588.2761 926.80261 7874.4487 3884869
-3510.4563 919.34302 7811.0698 4016455
-3460.613 919.10278 7809.0288 4148041
-3411.6873 919.10278 7809.0288 4148041
-3372.9517 921.88806 7832.6934 4082248
-3302.9019 916.07043 7783.2646 3885126
-3254.1375 916.07043 7783.2646 4016712
-3249.1108 928.5705 7889.4692 4148041
-3187.406 925.00812 7859.2026 4279627
-3138.1655 925.00812 7859.2026 4213578
-3102.2773 929.00659 7893.1743 3950919
-3026.0881 920.87061 7824.0479 3951689
-2946.4653 911.40442 7743.6201 4213834
-2886.0701 907.66852 7711.8784 4148041
-2847.7029 910.85101 7738.9185 4016712
-2835.073 922.51868 7838.0513 4016711
-2786.7781 922.78784 7840.3379 3951175
-2753.1001 927.99371 7884.5688 3951175
-2713.5356 931.36932 7913.249 3950919
-2685.8198 939.01306 7978.1934 3950919
-2608.0449 929.11328 7894.0811 3951175
-2537.916 921.60712 7830.3066 3951176
-2488.8567 921.60712 7830.3066 3951176
-2427.7588 917.05969 7791.6699 3950662
-2379.8979 917.42847 7794.8027 3884869
-2334.2683 918.69067 7805.5273 3884869
-2236.2349 898.94128 7637.7285 3950662
-2196.575 902.3067 7666.3228 3884869
-2208.9941 927.69385 7882.021 3753283
-2175.9875 934.72858 7941.791 3753284
-2137.2793 939.58624 7983.0635 3752514
-2087.5869 939.73212 7984.3027 3686977
-1965.3485 906.42657 7701.3267 3818563
-1936.1802 915.44916 7777.9863 3752770
-1904.4967 923.71777 7848.2393 3621184
-1834.9392 913.56824 7762.0049 3752770
-1795.9843 918.51703 7804.0518 3752770
-1772.6759 931.96887 7918.3438 3818563
-1720.6826 930.6803 7907.395 3950406
-1680.7025 936.00555 7952.6406 4015942
-1630.8767 936.00555 7952.6406 4015942
-1599.1389 946.71387 8043.6221 3950149
-1561.6542 954.60614 8110.6777 3884356
-1535.6234 970.26642 8243.7324 4015942
-1472.9155 963.03601 8182.3013 4213322
-1411.9415 956.45892 8126.4194 4280140
-1369.6622 962.5274 8177.9795 4148554
-1315.5142 960.40247 8159.9253 4082504
-1238.4734 940.7171 7992.6714 4016712
-1167.1122 923.86835 7849.5186 3819589
-1112.532 919.40546 7811.5996 4147528
-1063.7758 919.5661 7812.9648 3950149
-1026.9755 930.57593 7906.5078 3950149
-986.11182 938.83313 7976.6646 3884356
-937.19806 939.89874 7985.7183 3950149
-887.19592 939.93134 7985.9956 3818820
-826.76141 928.255 7886.7891 3753027
-771.90045 921.74957 7831.5166 3818563
-713.42157 909.74756 7729.5425 3950149
-660.31555 903.34778 7675.168 3950406
-611.54205 902.33527 7666.5654 3950149
-546.2085 874.63281 7431.1958 3819076
-499.17532 873.80237 7424.1396 3884357
-446.27448 861.47449 7319.3975 3883839
-396.9903 854.10388 7256.7739 3686718
-343.22296 833.9339 7085.4023 3158577
-292.01544 814.91467 6923.8086 2566696
-251.2413 823.45502 6996.3701 3092527
-211.0621 837.96698 7119.6694 3289907
-171.39029 862.8114 7330.7563 3027761
-126.74656 871.65356 7405.8828 2962227
-81.20562 880.97491 7485.0801 3028790
-34.594749 888.3053 7547.3618 3160376
12.819263 897.22565 7623.1523 3291962
60.050716 889.37677 7556.4648 3292219
105.8476 876.56769 7447.6353 3226426
154.77293 889.578 7558.1753 3686977
211.85191 932.37708 7921.8115 3621184
266.13998 948.97705 8062.8506 3687234
319.13757 956.41327 8126.0317 3752770
373.026 964.10571 8191.3896 3752770
426.25739 968.44464 8228.2549 3818563
470.18704 952.99432 8096.9829 4081735
516.73981 945.35199 8032.0513 3950149
563.5321 939.46552 7982.0371 4147528
596.10016 912.75824 7755.1226 3884613
635.37848 899.57703 7643.1309 3818563
676.05414 890.08331 7562.4683 3884356
697.18158 857.7818 7288.0234 3884356
722.30859 834.06982 7086.5576 3752770
747.95618 813.67041 6913.2368 3884356
775.27429 797.22205 6773.4858 3818563
801.65704 781.56915 6640.4932 3686979
789.09119 731.36169 6213.9121 3686981
796.21399 703.26575 5975.1992 3423556
797.38849 672.67523 5715.291 1515563
805.62793 650.41791 5526.1846 133654
830.03113 642.50677 5458.9692 791590
861.98364 640.83429 5444.7588 922919
898.67767 642.68005 5460.4409 922920
931.34375 641.61542 5451.396 857387
961.24512 638.78894 5427.3813 725800
991.93964 636.66467 5409.3325 923182
1025.8309 636.66467 5409.3325 857388
1059.9224 636.7851 5410.3555 791597
1088.2112 633.5199 5382.6133 659754
1112.4124 628.14276 5336.9272 528424
1142.6571 626.39252 5322.0566 594214
1182.3989 629.80017 5351.0088 594211
1240.9924 642.78424 5461.3267 396831
1275.2094 642.78424 5461.3267 2239799
1235.2595 606.37659 5151.9937 3752780
1488.7714 712.21198 6051.2095 3555656
1654.8103 771.98413 6559.0552 3424065
1719.4883 782.71936 6650.2656 3358273
1805.8685 802.59198 6819.1108 3621442
1872.943 813.16412 6908.9355 3753029
1940.2391 823.35266 6995.501 3687492
2016.1008 836.64575 7108.4434 3687491
2109.3445 856.42139 7276.4648 3621697
2218.3823 881.63739 7490.709 3687747
2278.627 886.81866 7534.7305 3753283
2409.9463 918.88971 7807.2183 3358525
2510.5012 938.18799 7971.1831 3424318
2626.4482 962.37335 8176.6709 3358781
2695.1624 968.65741 8230.0625 3424318
2777.7405 979.59485 8322.9912 3424574
2856.2197 988.71039 8400.4395 3490111
2927.064 994.90088 8453.0361 3555904
3004.0874 1002.9343 8521.291 3555904
3082.2485 1011.0604 8590.333 3490368
3156.5786 1017.6725 8646.5117 3555904
3209.0603 1017.1364 8641.957 3292732
3263.2048 1017.1364 8641.957 3226939
3288.8887 1008.4099 8567.8145 3424318
3249.7058 980.39441 8329.7842 3555904
3301.8943 980.39441 8329.7842 3621697
3357.4846 981.38867 8338.2314 3621697
3371.9663 970.52057 8245.8926 3555904
3367.9731 954.74323 8111.8428 3621697
3362.521 939.02771 7978.3174 3621697
3382.408 930.74512 7907.9458 3753283
3420.2207 927.56305 7880.9102 3621697
3443.9236 920.69946 7822.5947 3620928
3445.0261 908.07147 7715.3022 3752769
3458.1426 898.91565 7637.5112 3884612
3341.4351 856.72382 7279.0342 3752770
3235.5703 818.41064 6953.5117 3752770
3245.8979 810.11499 6883.0288 3686977
3210.2344 790.70886 6718.1475 3686977
3243.9443 788.67114 6700.8345 3686977
3237.4949 777.04669 6602.0688 3686977
3113.6069 737.88416 6269.3296 3686720
3099.4099 725.3689 6162.9951 3620157
2988.0452 690.70081 5868.4429 3685693
2821.957 644.37964 5474.8818 3685435
2596.6248 585.80554 4977.2148 2632748
2606.2424 580.99792 4936.3677 2698540
2637.1704 580.99792 4936.3677 3027761
2645.8276 576.14832 4895.1636 3488825
3147.3855 677.5127 5756.3921 3882813
3523.3508 749.85126 6371.0063 4014658
3675.7686 773.52606 6572.1558 3818819
3927.1191 817.26489 6943.7769 4014659
4138.748 851.86945 7237.7896 4080708
4481.7217 912.46533 7752.6343 3752513
4698.5063 946.3457 8040.4937 3686720
4767.8628 950.12805 8072.6299 3555134
4930.1396 972.15356 8259.7666 3555390
4928.1733 961.67145 8170.707 3686720
4911.4434 948.55353 8059.2529 3686720
4963.3867 948.83069 8061.6074 3686720
5333.8071 1009.3708 8575.9785 3686977
5468.4858 1024.5367 8704.833 3621186
5591.9033 1037.314 8813.3926 3621186
5653.5532 1038.4952 8823.4297 3686979
5717.3823 1040.0502 8836.6406 3752771
5802.9888 1045.4988 8882.9346 3686980
5913.7993 1055.3416 8966.5625 3752772
5901.853 1043.2988 8864.2432 3621442
5963.9355 1044.4452 8873.9824 3621184
6147.6128 1066.6681 9062.7959 3621184
6232 1071.4141 9103.1201 3752770
6238.6533 1062.8311 9030.1963 3621184
6302.6855 1064.0898 9040.8906 3686977
6362.0854 1064.551 9044.8086 3621184
6532.4263 1083.4036 9204.9873 3621184
6564.8857 1079.2587 9169.7705 3818306
6506.0518 1060.3073 9008.7529 3752770
6570.7261 1061.6372 9020.0527 3818563
6572.2124 1052.8224 8945.1582 3884099
6540.5698 1038.8943 8826.8203 3818306
6602.8779 1039.9977 8836.1953 3752513
6690.1606 1044.9838 8878.5586 3884099
6866.209 1063.6379 9037.0518 3621184
6932.4189 1065.1115 9049.5713 3620927
7046.2949 1073.8251 9123.6055 3686720
7089.8906 1071.7743 9106.1807 3752513
7118.1851 1067.4615 9069.5381 3752770
7087.2451 1054.4047 8958.6016 3686977
6906.2451 1019.403 8661.2148 3621184
6960.5103 1019.403 8661.2148 3555134
7040.4438 1023.1332 8692.9082 3555134
7202.3101 1038.6213 8824.501 3555134
7272.4814 1040.7512 8842.5977 3555134
7333.8711 1041.6017 8849.8232 3555134
7434.7515 1048.006 8904.2363 3620414
7458.3984 1043.509 8866.0293 3685950
7519.9907 1044.3485 8873.1611 3817536
7599.999 1047.7142 8901.7578 3817279
7690.9165 1052.524 8942.623 3949122
7746.9448 1052.524 8942.623 3817536
7827.9248 1055.8898 8971.2197 3751743
8104.4707 1085.3987 9221.9385 3751743
8315.1787 1105.735 9394.7227 3751743
8415.5273 1111.2133 9441.2676 3883329
8499.4922 1114.4666 9468.9102 4014658
8692.7393 1131.905 9617.0723 3752517
8478.8281 1096.4509 9315.8418 3752517
8565.3105 1100.0619 9346.5225 3752516
8811.6914 1124.0204 9550.082 3883845
8933.1592 1131.8295 9616.4307 3883845
9063.4072 1140.6387 9691.2773 3686465
9178.9609 1147.4938 9749.5205 3752258
9306.0361 1155.6891 9819.1514 3817795
9452.5791 1166.1785 9908.2725 3817537
9561.3867 1171.906 9956.9355 3751488
9644.9287 1174.4825 9978.8262 3751233
9850.876 1191.8353 10126.263 3751232
9980.1426 1199.748 10193.492 3619903
10173.898 1215.2633 10325.315 3685696
10338.946 1227.1752 10426.522 3817025
10466.315 1234.4933 10488.699 3751232
10818.323 1268.0507 10773.814 3882818
10917.618 1271.754 10805.28 3882819
11084.517 1283.2384 10902.855 3882819
11590.298 1333.5734 11330.521 3948868
nan nan nan 16777215
nan nan nan 16777215
nan nan nan 16777215
nan nan nan 16777215
nan nan nan 16777215
-5587.6904 733.2644 5916.7808 3292221
-5553.731 733.67529 5920.0967 3292221
-5575.7832 741.54102 5983.5659 3226427
-5570.0693 745.79553 6017.8955 3357245
-5570.8359 750.98157 6059.7422 3489341
-5570.0933 756.03394 6100.5103 3291962
-5560.4688 759.94226 6132.0474 3291962
-5565.5527 765.92914 6180.356 3357755
-5551.1909 769.30499 6207.5962 3357755
-5538.6753 772.98621 6237.3003 3226169
-5514.9512 775.14435 6254.7144 3555134
-5512.1787 780.29926 6296.3101 3423548
-5509.6807 785.56757 6338.8203 3357755
-5531.3794 794.38751 6409.9893 3226169
-5633.1729 814.92328 6575.6943 3226169
-5609.1089 817.42029 6595.8433 3226169
-5647.7007 829.15314 6690.5166 3094583
-5649.8423 835.67004 6743.1021 3226169
-5649.1816 841.86749 6793.1099 3423548
-5670.814 851.50653 6870.8882 3555134
-5661.2534 856.57336 6911.7729 3489341
-5658.0532 862.68799 6961.1128 3423548
-5647.8545 867.82245 7002.5425 3226169
-5571.4551 862.78546 6961.8989 3094840
-5522.0449 861.88153 6954.605 3028790
-5505.1997 866.08636 6988.5342 2962740
-5467.6558 867.07611 6996.5205 3028790
-5408.3486 864.60272 6976.5625 2831411
-5318.4092 857.1521 6916.4429 2765618
-5261.7793 854.99158 6899.0093 2897204
-5125.6641 839.77264 6776.2065 2897718
-5034.6987 831.75848 6711.5391 3160890
-5041.8423 839.95398 6777.6694 3226426
-4807.9951 807.79938 6518.2109 3160633
-4618.3276 782.5802 6314.7148 3292219
-4536.5098 775.35834 6256.4409 3423804
-4408.4058 760.03058 6132.7598 3358012
-4294.689 746.93549 6027.0942 3358012
-4179.8115 733.40448 5917.9116 3555391
-4047.3542 716.51904 5781.6611 3555391
-3883.7971 693.77319 5598.1226 3423805
-3710.7031 668.89362 5397.3667 3489598
-3562.6506 648.11188 5229.6772 3489598
-3432.1106 630.15985 5084.8203 3358525
-3326.4521 616.48254 4974.457 3161916
-3293.0044 616.05573 4971.0132 3359040
-2952.9561 557.71429 4500.2505 3885384
-2626.5305 500.8457 4041.3718 4477521
-2716.2556 522.99689 4220.1123 4938328
-2698.9866 524.78015 4234.5015 4806742
-2712.6299 532.66888 4298.1567 4674900
-2614.8625 518.6192 4184.7886 3754053
nan nan nan 16777215
nan nan nan 16777215
-3550.5469 726.03815 5858.4717 3687746
-3620.0425 747.98157 6035.5352 3753540
-3660.3293 764.28937 6167.1245 3819076
-3633.6887 766.82147 6187.5562 3753283
-3652.1267 779.02362 6286.0166 3687490
-3691.8281 796.07697 6423.6216 3753283
-3728.4802 812.84143 6558.8955 3687490
-3733.1365 822.92645 6640.2725 3687490
-3764.239 839.13422 6771.0547 3753283
-3823.1538 861.98212 6955.4165 3687490
-3854.3059 879.02533 7092.9399 3753283
-3830.0366 883.67908 7130.4912 3819076
-3845.3247 897.67712 7243.4429 3819076
-3809.7378 899.99109 7262.1147 3753540
-3757.436 898.36481 7248.9922 3687490
-3718.8645 900.02155 7262.3604 3621697
-3697.4607 905.92566 7310.001 3687490
-3638.6543 902.69885 7283.9639 3621697
-3604.3574 905.54767 7306.9512 3555648
-3560.9165 906.14288 7311.7544 3621441
-3521.0178 907.66687 7324.0513 3818819
-3479.2241 908.73615 7332.6797 3687490
-3427.2112 907.12927 7319.7129 3687490
-3380.1943 906.81879 7317.2085 3884869
-3326.6113 904.71436 7300.2271 4016455
-3279.7756 904.41174 7297.7852 4082248
-3228.1714 902.76691 7284.5132 4016455
-3183.9048 903.15643 7287.6562 4082248
-3115.4858 896.60645 7234.8037 4016455
-3065.7612 895.32263 7224.4443 3819332
-3012.5808 892.97583 7205.5078 3555905
-2972.7026 894.56073 7218.2964 3490111
-2918.1238 891.70233 7195.2319 3490110
-2880.0967 893.89148 7212.8965 3555901
-2822.7612 890.06219 7181.9971 3687488
-2773.8054 888.79376 7171.7622 3819074
-2747.7715 894.94928 7221.4316 4016452
-2684.2529 888.89783 7172.6021 4082246
-2639.3145 888.89783 7172.6021 4081989
-2584.1917 885.40851 7144.4463 4016452
-2541.647 886.1817 7150.6851 3884611
-2511.6396 891.43237 7193.0532 3884868
-2462.9202 890.11224 7182.4009 4016198
-2425.3782 892.85779 7204.5552 3950406
-2371.9844 889.76111 7179.5679 4016198
-2318.4209 886.47998 7153.0918 4147784
-2273.9924 886.63129 7154.313 3885382
-2209.1919 878.68579 7090.1997 4082248
-2166.2263 879.27692 7094.9702 4016455
-2111.2268 874.90613 7059.7017 3884869
-2031.0702 859.69977 6937.0005 3950662
-1993.7848 862.37152 6958.5591 3884869
-1972.9871 872.45361 7039.9121 3950662
-1936.7485 876.01276 7068.6309 3819076
-1899.0554 879.06506 7093.2607 3753540
-1854.9923 879.24445 7094.708 3818563
-1781.3846 865.08502 6980.4541 3950149
-1737.6698 865.09497 6980.5342 3950149
-1713.7699 875.22479 7062.2729 3950149
-1644.7775 862.2525 6957.5986 4213321
-1618.7754 871.72461 7034.0298 4213578
-1601.6052 886.61597 7154.1899 4082248
-1559.4584 888.14026 7166.4893 4016712
-1514.5581 888.14026 7166.4893 3950919
-1509.3197 912.10864 7359.8921 4016712
-1468.5208 915.42053 7386.6167 4082248
-1416.3529 911.63049 7356.0347 4148298
-1368.0769 910.17474 7344.2876 4082248
-1308.13 900.58276 7266.8892 4081992
-1272.4154 907.58344 7323.3779 4213065
-1227.1588 908.04706 7327.1191 4081992
-1168.4714 898.22241 7247.8428 4147528
-1102.217 881.55109 7113.3203 4147785
-1057.149 881.13373 7109.9526 4015942
-1000.1751 870.31927 7022.6899 4015942
-957.36707 871.40356 7031.4395 3818563
-918.04413 875.91772 7067.8643 3950149
-872.87311 875.02692 7060.6763 3818820
-829.19037 875.61255 7065.4019 3752770
-784.58643 875.23657 7062.3682 3818563
-736.41724 870.60083 7024.9619 3687234
-692.40369 870.60083 7024.9619 3752770
-648.80249 871.15448 7029.4292 3752770
-603.11255 868.78003 7010.2695 3884356
-558.20538 867.24866 6997.9131 3752770
-511.13306 861.80566 6953.9927 3686977
-465.25903 857.55701 6919.7095 3883842
-421.90491 857.55701 6919.7095 3948862
-385.52441 873.35474 7047.1836 3751741
-335.32108 857.87524 6922.2773 2960171
-283.51163 833.07715 6722.1797 2237218
-240.62239 830.41058 6700.6626 2960684
-204.34975 854.27722 6893.2446 3750200
-162.4032 860.85956 6946.3584 3750714
-118.78577 860.16193 6940.7295 3422263
-75.328087 860.48328 6943.3223 3160118
-31.981054 864.67499 6977.1455 3620927
11.836156 872.28278 7038.5337 3555391
56.324989 878.36841 7087.6392 3555391
101.82406 887.89758 7164.5312 3621184
146.71207 887.89758 7164.5312 3423805
