# .PCD v0.7 - Point Cloud Data file format
VERSION 0.7
FIELDS x y z rgb
SIZE 4 4 4 4
TYPE F F F U
COUNT 1 1 1 1
WIDTH 1264
HEIGHT 1
VIEWPOINT 0 0 0 1 0 0 0
POINTS 1264
DATA ascii
9606.2529 1105.2903 9390.9453 3817025
nan nan nan 16777215
nan nan nan 16777215
nan nan nan 16777215
nan nan nan 16777215
nan nan nan 16777215
-5556.7974 729.21039 5884.0684 3358013
-5519.9321 729.21039 5884.0684 3292478
-5548.8638 737.96088 5954.6772 3226428
-5547.0811 742.71747 5993.0591 3291451
-5549.8325 748.15015 6036.8955 3357501
-5544.9561 752.62201 6072.9795 3291708
-5545.1992 757.85535 6115.208 3291708
-5542.2075 762.71637 6154.4316 3291708
-5547.2051 768.75262 6203.1392 3226171
-5550.0776 774.57751 6250.1406 3226171
-5517.6001 775.51666 6257.7188 3357757
-5496.0059 778.00989 6277.8364 3423550
-5502.5688 784.55365 6330.6387 3423293
-5588.2637 802.55695 6475.9092 3226170
-5632.1631 814.77722 6574.5161 3226170
-5610.1333 817.56958 6597.0479 3029048
-5627.1616 826.13776 6666.1851 3094327
-5661.5991 837.409 6757.1338 3226169
-5686.3413 847.40527 6837.7944 3555134
-5693.6602 854.93707 6898.5688 3489341
-5674.3843 858.56018 6927.8042 3555134
-5660.3086 863.03204 6963.8882 3489341
-5650.0195 868.15509 7005.2271 3291704
-5610.7046 868.86359 7010.9438 3094583
-5528.5854 862.9024 6962.8423 3094326
-5474.2275 861.21381 6949.2168 2897203
-5439.4692 862.6062 6960.4526 2831667
-5395.8599 862.6062 6960.4526 2765874
-5336.5928 860.08264 6940.0898 2699825
-5277.3057 857.5144 6919.3667 2897461
-5186.873 849.80084 6857.125 2765875
-5053.8257 834.91846 6737.0371 3160633
-4941.2402 823.19403 6642.4316 3226426
-4791.6421 805.05188 6496.041 3291962
-4688.2876 794.43494 6410.3721 3292219
-4559.3403 779.26038 6287.9268 3489598
-4452.687 767.66486 6194.3613 3423805
-4357.5679 757.87146 6115.3374 3358012
-4241.4014 744.21124 6005.1118 3226426
-4107.8721 727.23279 5868.1113 3489598
-3928.1406 701.6944 5662.0396 3489598
-3765.6946 678.8064 5477.354 3358012
-3635.115 661.29449 5336.0488 3489598
-3495.4475 641.78894 5178.6567 3358528
-3299.7693 611.53754 4934.5552 3227199
-3167.8325 592.63867 4782.0581 3424835
-2925.3188 552.49457 4458.1318 3688007
-2671.9053 509.49808 4111.189 4411985
-2697.1765 519.32336 4190.4702 5003866
-2689.8276 522.99933 4220.1318 4807257
-2700.6021 530.30707 4279.0986 4543829
-2608.6003 517.3772 4174.7666 3688519
nan nan nan 16777215
nan nan nan 16777215
-3690.4141 754.6391 6089.2554 3622467
-3649.4365 754.05505 6084.543 3688260
-3694.3691 771.39703 6224.4766 3754054
-3703.8276 781.62292 6306.9907 3622724
-3687.7705 786.62671 6347.3667 3556931
-3708.3889 799.64801 6452.4365 3557187
-3736.8115 814.65771 6573.5513 3491394
-3751.5862 826.99341 6673.0894 3753026
-3765.9099 839.50671 6774.0605 3687490
-3832.9236 864.18488 6973.1909 3753283
-3848.7781 877.76459 7082.7671 3819076
-3830.4775 883.78076 7131.3115 3819076
-3842.1982 896.94727 7237.5537 3819076
-3813.9417 900.98425 7270.1284 3753283
-3752.3315 897.14423 7239.1436 3819076
-3723.2278 901.07751 7270.8813 3753283
-3704.8591 907.73834 7324.6279 3687747
-3645.6719 904.43976 7298.0112 3753283
-3612.325 907.54932 7323.103 3621697
-3569.6394 908.36261 7329.6655 3687490
-3526.1431 908.98816 7334.7134 3621697
-3481.5613 909.34656 7337.605 3555904
-3426.9097 907.04938 7319.0688 3753283
-3377.2693 906.03412 7310.8765 3819333
-3326.0618 904.56482 7299.0205 4148041
-3278.7034 904.11597 7295.3989 4148041
-3230.0554 903.29382 7288.7646 4016455
-3182.8806 902.86597 7285.3125 4016455
-3110.76 895.24646 7223.8296 3950662
-3051.4563 891.1449 7190.7344 3884869
-3012.0728 892.82526 7204.293 3687490
-2951.3372 888.13129 7166.417 3556161
-2918.5703 891.83881 7196.3335 3556161
-2876.4033 892.74512 7203.6465 3621954
-2824.9578 890.75476 7187.5854 3819076
-2775.2605 889.26007 7175.5249 3950662
-2746.5403 894.54828 7218.1963 4082248
-2678.0879 886.85632 7156.1289 4082248
-2635.5479 887.62927 7162.3662 4016455
-2584.4553 885.4989 7145.1753 3950662
-2541.2493 886.04291 7149.5659 4016455
-2513.0103 891.91876 7196.978 4016455
-2473.9719 894.10638 7214.6299 3950919
-2431.3477 895.0553 7222.2871 3885382
-2382.0667 893.54315 7210.0854 3951432
-2327.3594 889.89771 7180.6699 3885639
-2282.6541 890.00842 7181.5635 3819846
-2213.2649 880.30573 7103.2715 4147784
-2171.3628 881.36188 7111.7939 3885126
-2115.3853 876.62946 7073.6069 4016455
-2050.146 867.77411 7002.1528 3950662
-2013.1503 870.74774 7026.147 3950662
-1981.1659 876.07031 7069.0957 3884869
-1951.6492 882.75244 7123.0146 3753283
-1903.9739 881.34186 7111.6318 3819076
-1859.6163 881.43622 7112.3931 3753283
-1784.5651 866.62958 6992.9175 3753283
-1741.7296 867.11615 6996.8433 3884869
-1714.7721 875.73669 7066.4033 4016455
-1673.0369 877.06726 7077.1396 4148041
-1637.1835 881.63757 7114.0181 4213834
-1607.4484 889.85071 7180.2905 4148041
-1570.8221 894.61212 7218.7114 4082248
-1529.0709 896.65063 7235.1602 4016455
-1508.8156 911.80396 7357.4341 4082248
-1475.8038 919.96057 7423.2505 4082505
-1425.4727 917.50043 7403.3994 4213834
-1364.313 907.67065 7324.082 4082505
-1310.2278 902.02704 7278.543 3950919
-1272.6278 907.73492 7324.6006 4016455
-1224.5764 906.13629 7311.7007 4082248
-1170.0332 899.42297 7257.5303 4148041
-1103.2446 882.37299 7119.9521 4213834
-1057.413 881.35364 7111.7271 3950919
-1003.27 873.01233 7044.4209 3819076
-960.09729 873.88867 7051.4917 3753283
-921.05402 878.78949 7091.0371 3753283
-876.07001 878.23169 7086.5356 3949893
-832.00793 878.58783 7089.4092 3752770
-786.54077 877.41675 7079.96 3752770
-737.95953 872.42419 7039.6743 3686977
-692.36957 870.55798 7024.6157 3752770
-649.27783 871.79279 7034.5796 3818563
-603.91663 869.93835 7019.6157 3818563
-558.02515 866.96863 6995.6533 3686977
-510.69028 861.05908 6947.9683 3621697
-465.55423 858.10101 6924.1001 3621441
-422.17261 858.10101 6924.1001 3883072
-386.35965 875.24689 7062.4512 3555133
-331.77234 848.7962 6849.0186 2960428
-281.31851 826.63293 6670.1802 2171682
-239.52776 826.63293 6670.1802 2829355
-203.41315 850.36176 6861.6509 3553079
-162.30595 860.34406 6942.1987 3685178
-118.6842 859.42633 6934.7939 3291705
-74.420128 850.11157 6859.6318 3160376
-31.44241 850.11157 6859.6318 3424062
11.582147 853.56323 6887.4839 3621184
56.246887 877.15039 7077.811 3423805
100.92984 880.1001 7101.6123 3686977
145.32973 879.5318 7097.0264 3423805
193.66206 897.45312 7241.6357 3555391
240.26845 902.091 7279.0596 3752770
284.4447 897.58081 7242.666 3752770
329.90356 897.80206 7244.4507 3686977
377.19019 902.34235 7281.0874 3686977
418.8533 893.90137 7212.9761 3818563
464.13193 894.06909 7214.3296 3752770
506.40088 888.92413 7172.814 3752770
545.87848 880.11713 7101.75 3686977
582.72504 868.71558 7009.7495 3489598
624.18573 865.30865 6982.2583 3555391
652.8855 845.81616 6824.9717 3686977
679.87531 826.64099 6670.2456 3950149
705.55579 808.18677 6521.3369 3884356
732.00311 792.58325 6395.4307 3818565
751.828 771.80096 6227.7363 3752773
780.95874 762.15118 6149.8711 3949899
808.22595 751.67572 6065.3433 3291972
804.69409 714.78314 5767.6538 1383976
798.66113 678.93555 5478.396 265240
830.60638 676.99677 5462.752 857126
854.80554 669.14783 5399.418 922919
888.01117 668.67841 5395.6304 857642
923.00214 669.53851 5402.5708 725800
952.2171 666.29614 5376.4072 725803
982.51056 664.00415 5357.9131 857388
1015.7392 663.78168 5356.1182 725802
1054.9967 667.38733 5385.2124 528167
1077.8326 660.70325 5331.2778 527652
1109.2872 659.54529 5321.9341 330784
1137.7113 656.70563 5299.021 199709
1171.3516 656.95258 5301.0132 462880
1227.243 669.32141 5400.8188 1121320
1243.2273 659.84552 5324.3569 2963265
1310.0311 677.13275 5463.8491 3686987
1496.5841 753.85956 6082.9648 3424067
1587.333 779.71558 6291.5996 3489857
1628.7432 780.66998 6299.3013 3489858
1709.757 800.11255 6456.1851 3621699
1800.0886 822.91608 6640.1895 3556162
1873.2452 837.0152 6753.9561 3687492
1945.1443 849.94177 6858.2622 3687492
2007.9547 858.42426 6926.7075 3687490
2088.8159 874.10132 7053.208 3687490
2162.2112 886.06934 7149.7788 3621697
2235.3877 897.46375 7241.7212 3555904
2338.3511 920.12573 7424.583 3687490
2400.8401 926.28796 7474.3066 3687490
2472.6768 935.75183 7550.6714 3490111
2548.3445 946.28302 7635.6484 3621954
2636.6311 961.02545 7754.6064 3819076
2708.4124 969.32727 7821.5947 3687490
2772.2102 974.52753 7863.5562 3621697
2833.3425 978.62555 7896.624 3621697
2902.4775 985.29962 7950.4771 3621697
2983.1147 995.5871 8033.4878 3555904
3034.7917 996.0285 8037.0493 3424318
3033.7251 979.42737 7903.0933 3753283
3065.0325 973.64337 7856.4219 3621697
3093.1702 967.05127 7803.2295 3555904
3102.4563 954.86224 7704.875 3555904
3109.7903 942.45508 7604.7607 3621697
3102.8367 926.15778 7473.2559 3424318
3116.2302 916.328 7393.9385 3358525
3138.8613 909.46283 7338.543 3358525
3166.5205 904.23157 7296.3315 3358524
3184.6062 896.45441 7233.5767 3489598
3191.197 885.70502 7146.8394 3358012
3153.7988 863.21313 6965.3501 3358012
3091.3159 834.56311 6734.1704 3423805
3032.8459 807.75342 6517.8398 3555391
2995.9917 787.33667 6353.0952 3621184
2998.4363 777.6474 6274.9116 3621184
3048.3711 780.36621 6296.8501 3621184
3056.948 772.56335 6233.8882 3686720
2978.3445 743.20282 5996.9751 3751744
2897.1877 713.9447 5760.8882 3685950
2857.4629 695.49084 5611.9824 3685950
2741.9832 659.27142 5319.7246 3356214
2584.1477 613.86041 4953.2988 2895148
2614.0452 613.59369 4951.1465 2566440
2645.6868 613.73779 4952.3091 2895148
2632.9922 603.71283 4871.4165 3553335
2743.7144 621.89124 5018.1001 3750457
2993.0457 670.71899 5412.0962 3816768
3458.9978 766.45227 6184.5767 3817536
3689.0315 808.3681 6522.7998 3751743
3801.6924 823.92755 6648.3511 3555134
4000.614 857.64227 6920.3979 3555134
4241.0879 899.44635 7257.7192 3555134
4340.6865 910.80377 7349.3633 3489341
4427.3027 919.22723 7417.333 3554880
4368.4595 897.5882 7242.7251 3489344
4397.7012 894.30658 7216.2461 3489600
4457.2075 897.1839 7239.4634 3424064
4889.9609 974.37671 7862.3394 3621186
4958.1504 978.1109 7892.4712 3489857
5052.564 986.89368 7963.3403 3621186
5119.3271 990.15674 7989.6694 3621186
5193.2622 994.73022 8026.5742 3686980
5347.6382 1014.4761 8185.9053 3752772
5367.4111 1008.5544 8138.123 3621186
5358.2388 997.35663 8047.7661 3555391
5416.5151 998.80499 8059.4536 3686977
5538.2271 1011.816 8164.4409 3686977
5594.6841 1012.7761 8172.1885 3555391
5594.2178 1003.5079 8097.4023 3489855
5644.9502 1003.5079 8097.4023 3621184
5714.2729 1006.7833 8123.8306 3489598
5822.9561 1016.8744 8205.2568 3489598
5881.1191 1018.0436 8214.6914 3686720
5859.9287 1005.5753 8114.0835 3752513
5944.5322 1011.3198 8160.4365 3752770
5863.1514 988.96893 7980.085 3752513
5869.0991 981.60162 7920.6377 3752513
5907.0776 979.67004 7905.0518 3752513
5963.5854 980.81812 7914.3154 3686720
6023.7598 982.54523 7928.2515 3686720
6128.5986 991.46979 8000.2651 3752513
6323.2666 1014.664 8187.4214 3686720
6411.6289 1020.5639 8235.0283 3620927
6450.3799 1018.5358 8218.6631 3686720
6369.7837 997.84381 8051.6973 3686720
6248.0483 971.08301 7835.7617 3555134
6300.3652 971.58014 7839.7729 3489341
6406.6699 980.33044 7910.3809 3555134
6517.2314 989.59302 7985.1211 3555134
6583.2148 991.99713 8004.52 3555134
6646.4165 993.94867 8020.2676 3489341
6744.9087 1001.1091 8078.0454 3555134
6704.3018 987.67084 7969.6113 3555134
6756.9185 988.06348 7972.7793 3620927
6878.6362 998.48083 8056.8379 3620927
6929.9077 998.59509 8057.7598 3620926
6989.4814 999.89532 8068.2515 3555133
7064.1841 1003.3257 8095.9321 3555389
7227.5576 1019.2114 8224.1143 3620674
7399.2944 1036.0431 8359.9316 3752003
7505.8594 1043.577 8420.7236 3686466
7542.2666 1041.3195 8402.5068 3752259
7557.1421 1036.141 8360.7217 3752259
7546.7471 1027.593 8291.7471 3818052
7605.0361 1028.4502 8298.6641 3818052
7773.2026 1044.054 8424.5723 3752259
7825.9854 1044.054 8424.5723 3686723
7991.7349 1059.0238 8545.3652 3686466
8113.7378 1068.0359 8618.084 3686466
8180.7056 1069.7323 8631.7725 3818052
8283.0576 1076.0028 8682.3701 3620673
8388.3252 1082.568 8735.3447 3554880
8447.4443 1083.1309 8739.8867 3620930
8672.8018 1104.8641 8915.2549 3817540
8802.5703 1114.2198 8990.7471 3883076
8883.0635 1117.2589 9015.2695 3817283
8883.8975 1110.3038 8959.1484 3817283
8861.0527 1100.4955 8880.0039 3817284
9048.0566 1116.7089 9010.8311 3883076
8646.4062 1060.52 8557.4385 3883076
8700.0215 1060.52 8557.4385 3751490
8820.6855 1068.6433 8622.9854 3686209
nan nan nan 16777215
nan nan nan 16777215
nan nan nan 16777215
nan nan nan 16777215
-5041.9521 690.34088 5303.7144 3752259
-5326.0737 734.08063 5639.7559 3752002
-5316.4897 737.65356 5667.2056 3620673
-5306.1602 741.17029 5694.2236 3686209
-5308.0103 746.44751 5734.7671 3554881
-5308.5293 751.60822 5774.4155 3686466
-5314.2437 757.5802 5820.2969 3620673
-5299.0063 760.62744 5843.708 3752259
-5304.0732 766.65179 5889.9917 3752259
-5302.7153 771.82538 5929.7393 3686466
-5319.582 779.74341 5990.5713 3752002
-5292.6895 781.31421 6002.6392 3555134
-5274.4316 784.19116 6024.7422 3291962
-5292.1924 792.50342 6088.603 3291961
-5329.3433 803.86108 6175.8613 3291962
-5315.9863 807.71082 6205.4375 3291962
-5277.1074 807.71082 6205.4375 3226169
-5278.8149 813.96893 6253.5176 3160376
-5326.665 827.48907 6357.3887 3357755
-5349.9897 837.37415 6433.3335 3620927
-5382.793 848.90399 6521.915 3620927
-5380.5161 855.03571 6569.0229 3555134
-5387.7295 862.78168 6628.5332 3423805
-5400.1602 871.48993 6695.4365 3292476
-5414.2432 880.60333 6765.4526 3423805
-5369.6294 880.23834 6762.6484 3358012
-5327.2593 880.23834 6762.6484 3226426
-5312.1694 884.7821 6797.5571 3358012
-5268.4985 884.6004 6796.1611 3423805
-5241.4771 887.23407 6816.3945 3489598
-5164.1929 881.33295 6771.0581 3292219
-5121.77 881.33295 6771.0581 3160633
-5053.8257 876.90472 6737.0371 3226426
-4812.7964 842.11621 6469.7661 2963254
-4645.7783 819.79712 6298.2935 2963254
-4562.543 812.00635 6238.4395 3029047
-4478.3926 803.91681 6176.2896 3029047
-4338.8853 785.66254 6036.0464 2897461
-4225.0767 771.78156 5929.4023 3029047
-4109.2051 757.27399 5817.9443 3094840
-4000.439 743.82806 5714.6426 3094840
-3854.7922 723.21985 5556.3149 3226426
-3712.9368 702.95374 5400.6157 3358012
-3579.1121 683.84937 5253.8413 3687489
-3381.3738 652.06512 5009.6514 3819075
-3214.2239 625.63928 4806.6284 3622467
-2887.885 567.43488 4359.4585 3754309
-2814.3223 558.26062 4288.9751 4806997
-2676.0325 535.94617 4117.5391 5004634
-2700.0903 546.02826 4194.9971 5135963
-2636.488 538.40717 4136.4458 5135963
-2621.052 540.5686 4153.0518 5399135
-2608.6003 543.39502 4174.7666 4215117
-2560.2786 538.73096 4138.9336 3227452
nan nan nan 16777215
-3251.3525 698.29126 5364.7949 3359295
-3398.8171 737.58722 5666.6958 3556161
-3559.8027 780.6781 5997.752 3687490
-3528.0913 781.97827 6007.7412 3687489
-3532.8086 791.4679 6080.6475 3621441
-3531.4631 799.7912 6144.5933 3621441
-3535.2573 809.47491 6218.9907 3621440
-3551.0889 822.16132 6316.4575 3555904
-3668.1096 858.82544 6598.1387 3621954
-3693.2747 874.57379 6719.1294 3621697
-3661.6255 877.07648 6738.3569 3753283
-3671.4333 889.68365 6835.2144 3621954
-3691.8462 905.18872 6954.3354 3819076
-3651.9456 906.09937 6961.332 3819076
-3608.3308 906.09937 6961.332 3687490
-3618.8538 919.86047 7067.0552 3753283
-3589.5132 923.70416 7096.5854 3884869
-3557.6292 926.98163 7121.7651 3950662
-3514.6777 927.42181 7125.1475 3950662
-3473.9316 928.46301 7133.146 4016712
-3417.3508 925.2439 7108.4146 4082505
-3353.3611 919.90741 7067.4155 4148041
-3290.3381 914.69684 7027.3843 4082248
-3229.1201 909.85345 6990.1738 4016455
-3163.0217 903.48297 6941.2305 4082248
-3106.2512 899.63635 6911.6782 4016455
-3061.3735 899.17401 6908.1265 4082248
-2983.7563 888.94446 6829.5352 4082248
-2911.6653 880.08759 6761.4902 4082505
-2832.6528 868.84625 6675.126 3950919
-2793.605 869.7099 6681.7607 3687490
-2774.3442 876.85352 6736.6436 3490111
-2730.2336 876.24255 6731.9502 3621954
-2645.3887 862.33411 6625.0952 3753283
-2582.8196 855.35938 6571.5093 3950662
-2552.6465 859.0611 6599.9492 3950662
-2539.1282 868.58197 6673.0957 3884869
-2501.2974 869.9657 6683.7261 3950919
-2490.6497 881.01184 6768.5908 4016455
-2428.5593 873.92877 6714.1738 3819076
-2372.2202 868.70215 6674.0186 3753283
-2331.061 868.94653 6675.8965 3819076
-2278.0344 864.69525 6643.2344 3819589
-2236.5879 864.763 6643.7554 3754310
-2189.6074 862.65314 6627.5459 3951689
-2137.3613 858.34711 6594.4639 4017225
-2096.0449 858.34711 6594.4639 3951432
-2000.4326 835.66534 6420.2056 4147784
-1975.5502 842.20593 6470.4551 4016455
-1916.6981 834.23547 6409.2197 3885126
-1846.7556 820.99347 6307.4849 3884869
-1838.624 835.25189 6417.0288 3753283
-1804.3038 837.9848 6438.0249 3884869
-1780.2704 845.72961 6497.5264 3753283
-1738.099 845.01868 6492.0645 3490111
-1684.7961 838.73206 6443.7661 3753283
-1624.9192 828.78375 6367.3359 3884869
-1571.0826 821.49304 6311.3232 3819076
-1546.4584 829.49493 6372.7993 4016455
-1527.1724 840.86017 6460.1157 4082248
-1489.2393 842.29755 6471.1592 4148041
-1449.5114 842.77203 6474.8042 4148298
-1425.7755 852.83942 6552.1499 4148041
-1390.9259 856.659 6581.4941 4082248
-1369.8463 869.45184 6679.7788 4016455
-1333.021 872.74213 6705.0571 4016455
-1285.7977 869.21735 6677.9771 4148041
-1242.0454 867.88092 6667.7095 4082505
-1196.239 864.96606 6645.3154 3753283
-1158.554 867.92517 6668.0493 3687490
-1123.7743 873.36359 6709.8315 3753283
-1078.2295 870.53333 6688.0869 3819076
-1010.2203 848.60364 6519.6064 3950662
-965.33667 845.07007 6492.4595 3885126
-907.86212 829.71863 6374.5181 3753283
-867.94019 829.73425 6374.6382 3687490
-837.22028 838.97278 6445.6157 3687746
-797.29089 839.45117 6449.291 3884356
-757.32007 839.93469 6453.0059 3884356
-721.93488 845.84546 6498.417 3884613
-680.98163 845.54919 6496.1406 4015942
-640.28131 845.54919 6496.1406 3818563
-600.12848 846.32129 6502.0723 3752770
-553.12231 836.83728 6429.209 3753027
-513.61292 838.09631 6438.8818 3621184
-471.80188 835.49408 6418.8896 3884099
-429.6106 831.6709 6389.5171 3950149
-390.2536 833.11249 6400.5928 3686720
-355.33228 845.43817 6495.2876 3686206
-320.41049 860.95087 6614.4678 3357242
-270.27972 834.1347 6408.4458 3357755
-233.09769 844.89575 6491.1201 3686463
-192.42879 844.89575 6491.1201 3883842
-150.66873 838.8208 6444.4478 3884356
-110.29227 838.8208 6444.4478 3686977
-69.697937 836.20697 6424.3662 3818563
-29.680695 842.83496 6475.2876 3818563
11.149105 862.96857 6629.9692 3818563
53.437031 875.23822 6724.2334 3818563
96.105881 880.17859 6762.1895 3621184
140.41148 892.49963 6856.8491 3950149
183.51828 893.21271 6862.3271 3884356
225.8829 890.72852 6843.2417 3752770
267.67596 887.14264 6815.6924 3424061
310.48996 887.46155 6818.1426 3489598
353.82999 889.0249 6830.1538 3686977
396.93893 889.73315 6835.5942 3687235
432.5433 875.12 6723.3257 3818563
475.02362 875.77747 6728.3765 4015943
519.35895 879.46899 6756.7378 3884356
564.25488 883.48181 6787.5669 3753027
585.09552 851.90735 6544.9883 3884356
620.87854 844.80005 6490.3853 3818563
646.09247 825.06982 6338.8022 3753283
672.5838 809.16138 6216.582 3753540
698.11554 793.90338 6099.3589 3818822
731.45868 788.65125 6059.0078 3884360
756.24481 775.14648 5955.2544 4015692
782.64709 764.49036 5873.3862 3226179
789.3244 736.38916 5657.4917 1186340
784.56677 700.49371 5381.7158 396572
825.51471 706.6828 5429.2651 922663
852.89911 701.23047 5387.3765 922920
885.33411 700.18768 5379.3647 726057
915.89124 697.79065 5360.9487 791337
946.35229 695.49249 5343.293 857644
976.52032 693.14355 5325.2466 594215
1014.1653 696.08154 5347.8184 528423
1047.671 696.08154 5347.8184 593702
1065.4586 685.96198 5270.0723 330530
1103.4352 689.05798 5293.8584 330528
1136.0168 688.7027 5291.1289 462368
1169.8949 689.13129 5294.4214 331291
1209.8685 693.02777 5324.3569 1581612
1216.7379 678.26154 5210.9116 3555402
1327.0881 720.44421 5534.9902 3621449
1429.8866 756.48315 5811.8687 3424324
1519.5498 783.95557 6022.9321 3489857
1560.0444 785.34448 6033.603 3358272
1616.8533 794.68622 6105.373 3358783
1706.3325 819.28253 6294.3403 3358784
1750.2371 821.3797 6310.4521 3424320
1807.4609 829.4967 6372.813 3490113
1899.8075 853.03333 6553.6392 3555904
1982.7161 871.42596 6694.9453 3687490
2041.3707 878.61761 6750.1963 3687490
2122.7317 895.09161 6876.7627 3687490
2205.5942 911.53113 7003.0625 3753283
2244.707 909.60059 6988.2314 3753283
2308.9089 917.71631 7050.5825 3753283
2384.6213 930.01648 7145.0811 3621954
2445.8762 936.3288 7193.5767 3753796
2490.9463 936.3288 7193.5767 3885382
2546.0828 940.04547 7222.1313 3885126
2624.3892 952.0376 7314.2637 3622210
2675.4988 953.92139 7328.7363 3622211
2737.6848 959.62408 7372.5488 3753284
2771.3069 955.29138 7339.2617 3622210
2794.0437 947.40918 7278.7046 3819076
2823.907 942.15771 7238.3589 3819076
2861.554 939.62799 7218.9243 3687747
2881.9185 931.59058 7157.1748 3621954
2898.8069 922.69299 7088.8164 3556161
2918.9868 915.09583 7030.4492 3490110
2937.7688 907.29266 6970.5 3358782
2960.1377 900.80975 6920.6929 3424318
2983.4211 894.78833 6874.4321 3424318
2995.3401 885.57831 6803.6743 3489598
2992.7839 872.40723 6702.4839 3489598
2987.0671 858.69202 6597.1133 3423805
2958.823 838.96375 6445.5459 3489598
2911.4624 814.41919 6256.9766 3489598
2888.3481 797.21918 6124.833 3621184
2894.5129 788.44562 6057.4282 3555391
2922.0566 785.64728 6035.9292 3555647
2933.2534 778.58142 5981.644 3818563
2870.4404 752.297 5779.7075 3949635
2779.1189 719.289 5526.1152 3949635
2700.0237 690.21875 5302.7759 3948609
2592.9456 654.78882 5030.5767 3224372
2469.2637 616.06726 4733.0889 2500904
2537.2815 625.52515 4805.7515 2632233
2618.5833 637.99774 4901.5752 2895405
2624.6929 632.07361 4856.0615 3224626
2594.7375 617.69965 4745.6299 3750456
2888.5557 679.8551 5223.1548 3817023
3036.4617 706.66071 5429.0952 3554364
3267.531 752.01215 5777.519 3619900
3393.4197 772.42804 5934.3691 3423805
3486.8718 785.09802 6031.7095 3555134
3751.385 835.59924 6419.6973 3555134
3950.7915 870.68054 6689.2183 3489341
4010.4431 874.54944 6718.9419 3489341
3996.2134 862.3941 6625.5557 3489341
4037.7241 862.3941 6625.5557 3489598
4131.8921 873.52631 6711.0815 3423805
4384.7134 917.63733 7049.9756 3358012
4573.8379 947.67102 7280.7163 3358013
4619.373 947.65436 7280.5889 3292221
4710.8179 956.96423 7352.1143 3292221
4756.8809 956.96423 7352.1143 3358013
4790.3706 954.45911 7332.8677 3358013
4836.3135 954.45911 7332.8677 3423806
4886.3398 955.25739 7339.001 3292219
4945.7056 957.84967 7358.9165 3160633
4946.7656 949.20605 7292.5098 3094840
5054.4019 960.98389 7382.9956 3292219
5100.2393 960.90479 7382.3887 3489598
5146.1641 960.84357 7381.918 3555391
5169.6855 956.6377 7349.6055 3489598
5228.1753 958.91974 7367.1377 3489598
5292.6968 962.25854 7392.7886 3686720
5311.9546 957.38141 7355.3188 3752513
5329.0371 952.19946 7315.5073 3818306
5309.5981 940.63586 7226.6675 3686720
5363.1665 942.09235 7237.8569 3686720
5396.0654 939.92395 7221.1978 3621184
5419.1201 936.09119 7191.7515 3620927
5465.4189 936.30353 7193.3833 3686720
5537.2715 940.85449 7228.3472 3686720
5639.5967 950.46729 7302.1997 3686977
5814.6011 972.07574 7468.2124 3620927
5698.5444 945.0686 7260.7227 3686720
5729.1709 942.62299 7241.9336 3620927
5724.4834 934.45111 7179.1519 3686720
5769.4629 934.45111 7179.1519 3620927
5859.5669 941.70312 7234.8667 3620927
5928.2808 945.43262 7263.5195 3620927
5968.8081 944.64435 7257.4634 3489341
6038.3223 948.42084 7286.4771 3423548
6055.2632 943.94507 7252.0913 3423548
6100.6997 943.94507 7252.0913 3423548
6151.0659 944.70227 7257.9082 3489341
6280.1094 957.44305 7355.7925 3555134
6326.1958 957.44305 7355.7925 3620927
6388.2021 959.83514 7374.1699 3686720
6364.3452 949.38428 7293.8789 3620927
6607.7173 978.6615 7518.8086 3620927
6694.8872 984.5531 7564.0723 3752513
6715.5488 980.64984 7534.0845 3752513
6770.7603 981.81097 7543.0054 3752769
6847.8804 986.11115 7576.0425 3752260
6849.8677 979.60706 7526.0728 3752259
6897.02 979.60706 7526.0728 3752516
7047.1519 994.13409 7637.6807 3752259
7112.9243 996.64496 7656.9712 3752516
7262.1436 1010.7363 7765.231 3686466
7364.9697 1018.2261 7822.7729 3686466
7429.1509 1020.3094 7838.7788 3554880
7510.0063 1024.6403 7872.0518 3686466
7495.5532 1015.9959 7805.6396 3686466
7566.7871 1019.0029 7828.7417 3818309
7728.9155 1034.1329 7944.9814 3752516
7837.1636 1041.9062 8004.7017 3752259
7913.8018 1045.405 8031.582 3752259
7983.5142 1047.9506 8051.1387 3752516
8065.1934 1052.025 8082.4419 3752259
8158.5356 1057.5604 8124.9692 3752515
8209.4404 1057.5604 8124.9692 3752516
7616.1069 975.07947 7491.2886 3752515
7678.3584 977.02826 7506.2607 3555137
nan nan nan 16777215
nan nan nan 16777215
nan nan nan 16777215
nan nan nan 16777215
-5041.9521 723.39447 5303.7144 3226171
-5084.9023 734.39691 5384.3809 3620929
-5056.6958 735.20062 5390.2734 3621186
-5048.5845 738.95654 5417.8105 3687235
-5057.063 745.20795 5463.644 3883845
-5038.3237 747.50641 5480.4961 3818309
-5026.6758 750.89581 5505.3457 3752259
-5036.3403 757.5376 5554.0415 3818052
-5059.9258 766.38043 5618.8745 3752516
-5082.8667 775.24872 5683.8945 3686723
-5098.9106 783.18292 5742.0654 3554880
-5106.5 789.922 5791.4741 3291708
-5243.8413 816.97247 5989.8003 2962744
-5175.4307 812.1264 5954.2705 2699572
-5169.3838 817.06714 5990.4941 2633778
-5168.0298 822.82721 6032.7256 2633776
-5113.8818 820.20471 6013.498 2699825
-5093.0923 822.93323 6033.5029 3028790
-5101.0508 830.38245 6088.1182 3160376
-5195.7856 852.17621 6247.9038 3226169
-5167.9209 854.04028 6261.5708 3489341
-5160.3643 859.31476 6300.2417 3489341
-5188.5405 870.66675 6383.4707 3357755
-5201.9473 879.69733 6449.6807 3292219
-5213.7324 888.59302 6514.9014 3357755
-5082.8442 873.12085 6401.4639 3358012
-5138.5356 889.70782 6523.0747 3423805
-5131.9297 895.68787 6566.9185 3489598
-5097.8975 896.93915 6576.0928 3489598
-5053.4824 896.36914 6571.9131 3489598
-4998.7095 893.93732 6554.084 3555391
-4930.1313 888.97601 6517.709 3489598
-4789.4658 870.82489 6384.6299 3423805
-4585.543 840.76947 6164.2729 3292219
-4513.0195 834.50073 6118.312 3226426
-4400.0693 820.58496 6016.2866 3226426
-4302.3052 809.28552 5933.4419 3292219
-4177.9512 792.74371 5812.1626 3358012
-4057.9646 776.74707 5694.8794 3292219
-3963.186 765.33453 5611.2065 3160633
-3874.4509 754.8952 5534.668 3029047
-3746.9194 736.63995 5400.8262 3160633
-3617.8003 717.73706 5262.2358 3160377
-3379.7146 676.6698 4961.1426 3161146
-3203.5552 647.35364 4746.2056 3161146
-3063.988 624.95184 4581.9619 2898488
-2766.7163 569.65558 4176.5459 3754310
-2691.6257 559.48627 4101.9878 4938327
-2645.551 555.21039 4070.6382 5201756
-2623.3135 555.90253 4075.7129 5201756
-2590.165 554.27344 4063.7688 5201757
-2574.6816 556.42969 4079.5779 5202013
-2597.4436 566.97754 4156.9116 4478033
-2565.8337 565.75043 4147.9146 3359295
-2517.0999 560.68372 4110.7671 3096123
nan nan nan 16777215
-3217.7402 731.72552 5364.7949 3425088
-3288.0366 755.60413 5539.8657 3621954
-3268.5713 759.14447 5565.8228 3753540
-3314.6509 778.14862 5705.1558 3622467
-3354.3867 796.06165 5836.4883 3754053
-3386.9734 812.65411 5958.1396 3754053
-3379.033 819.78418 6010.4146 3819333
-3390.782 831.90558 6099.2856 3753283
-3356.6958 832.92993 6106.7954 3753283
-3370.1741 845.91656 6202.0098 3687490
-3378.5247 857.90393 6289.8979 3621697
-3355.5908 862.13666 6320.9307 3621697
-3312.854 861.32178 6314.9565 3753283
-3301.6782 868.79199 6369.7261 3687490
-3323.0405 885.11182 6489.3779 3753283
-3311.0691 892.84735 6546.0928 3819076
-3251.5369 887.79095 6509.0205 3884869
-3193.4136 882.99579 6473.8638 3819076
-3146.2468 881.14569 6460.2993 3884869
-3099.6118 879.39819 6447.4873 3950662
-3022.3149 868.79053 6369.7153 4016455
-2967.1567 864.34821 6337.145 3884869
-2940.5991 868.22974 6365.604 4016455
-2911.9365 871.58813 6390.2261 3950662
-2861.2249 868.34839 6366.4731 4082248
-2822.2161 868.61896 6368.457 3884869
-2722.5095 849.94781 6231.5659 4016455
-2662.3457 843.25806 6182.5186 4148041
-2608.7007 838.46594 6147.3843 3950662
-2558.2129 834.56012 6118.748 3884869
-2524.843 836.20483 6130.8066 4016712
-2495.3069 839.18976 6152.6909 4016712
-2439.583 833.32281 6109.6768 3885125
-2401.9453 833.54535 6111.3081 3884869
-2367.5273 834.91071 6121.3179 3950662
-2321.8625 832.28937 6102.0991 3950662
-2277.0488 829.89026 6084.5103 3884869
-2251.1782 834.43127 6117.8032 3687490
-2198.3938 828.98065 6077.8408 3687490
-2141.9995 821.95276 6026.3145 3687490
-2108.5359 823.6297 6038.6094 3753283
-2084.4216 829.08673 6078.6182 3753283
-2061.2788 835.14038 6123.002 3819333
-2027.9834 837.23224 6138.3394 3753540
-1979.3082 832.93292 6106.8179 3885126
-1941.0471 832.93292 6106.8179 4016712
-1844.215 807.29382 5918.8394 4082248
-1810.8337 808.94775 5930.9653 3884869
-1778.6505 811.2171 5947.604 3884869
-1689.993 787.27557 5772.0718 3819076
-1656.7184 788.65088 5782.1548 3687490
-1612.2972 784.66302 5752.917 3621697
-1576.2533 784.66302 5752.917 3490111
-1552.0521 790.69623 5797.1509 3095353
-1497.8246 781.35504 5728.6641 3621697
-1487.5181 795.0296 5828.9219 3621697
-1468.7113 804.73505 5900.0791 4082248
-1433.7317 805.85138 5908.2637 4148041
-1366.3418 788.32745 5779.7837 4016455
-1330.4888 788.54034 5781.3442 4148041
-1295.6332 789.3728 5787.4478 4016455
-1261.8231 790.90851 5798.707 3819076
-1237.506 798.66174 5855.5518 3819076
-1200.8191 798.66174 5855.5518 3753283
-1201.624 824.3833 6044.1343 3753283
-1169.3593 828.35278 6073.2373 3884869
-1095.7731 802.33344 5882.4712 3753283
-1075.2548 814.71198 5973.2271 3621954
-1051.606 825.52582 6052.5107 3621697
-1008.22 821.07507 6019.8794 3753283
-970.58466 821.14362 6020.3823 3819076
-925.8432 814.96271 5975.0654 3819076
-892.42615 818.64911 6002.0933 3819076
-836.75006 801.34271 5875.2075 3753283
-793.94092 795.33307 5831.1465 3621697
-756.19391 794.0592 5821.8071 3621697
-713.24963 786.92218 5769.4805 3555391
-679.29645 789.4726 5788.1792 3686977
-652.97369 801.67859 5877.6704 3818563
-617.62689 803.60242 5891.7754 3884356
-580.71301 803.60242 5891.7754 3884356
-545.35699 805.90436 5908.6523 3818563
-508.96912 806.90582 5915.9946 3752770
-471.90854 806.91437 5916.0571 3818564
-436.39221 809.78979 5937.1392 3818562
-397.47314 806.29865 5911.543 3949635
-360.77994 807.06915 5917.1919 3818563
-324.34656 808.66394 5928.8848 3884099
-291.88004 821.84064 6025.4927 4081735
-247.69609 801.0387 5872.9785 4015685
-215.62997 819.00378 6004.6934 3950149
-178.00871 819.00378 6004.6934 3949892
-143.89618 839.47333 6154.77 3818563
-105.58342 841.45612 6169.3071 3818563
-66.414986 834.97125 6121.7622 3752770
-28.109537 836.43793 6132.5156 3686977
10.41792 844.98236 6195.1602 3753027
49.490997 849.41858 6227.6855 3818563
88.725327 851.49097 6242.8799 3621441
130.81279 871.29901 6388.1064 3621441
171.57266 875.05487 6415.6431 3621441
210.46944 869.68634 6376.2827 3818819
249.86339 867.75726 6362.1396 3687490
291.05225 871.73505 6391.3032 3555904
333.5033 878.07385 6437.7773 3556160
373.83795 878.07385 6437.7773 3555904
410.6712 870.65057 6383.3525 3621953
450.37943 870.09912 6379.3091 3621697
487.60901 865.23932 6343.6782 3555647
521.88873 856.27209 6277.9336 3687234
550.3175 839.63495 6155.9551 3687490
586.09967 835.66144 6126.8223 3687234
617.24384 825.97015 6055.7686 3621441
647.65942 816.48279 5986.21 3555649
676.47241 806.12433 5910.2651 3555907
711.54425 803.91235 5894.0474 3555139
737.61798 792.25409 5808.5728 3620934
761.88623 779.84406 5717.5859 3291972
769.71661 752.47882 5516.9521 1054754
804.01678 752.23071 5515.1328 396830
839.66345 753.21088 5522.3193 988712
851.58093 733.6698 5379.0498 988713
881.72089 730.71826 5357.4102 791590
912.23364 728.28088 5339.54 791590
941.63531 725.16022 5316.6602 856873
973.00531 723.71692 5306.0781 791079
1006.6643 724.0152 5308.2651 725028
1033.162 719.30853 5273.7573 527649
1060.4926 715.45557 5245.5083 330013
1098.6541 718.92157 5270.9204 396060
1126.776 715.8075 5248.0884 396828
1164.2913 718.66815 5269.062 331289
1220.1555 732.3847 5369.6279 923424
1243.3938 726.30731 5325.0703 2699833
1302.8463 741.14874 5433.8833 3818311
1398.3641 775.22821 5683.7437 3555907
1464.7513 791.86652 5805.731 3621698
1504.1757 793.47528 5817.5259 3687492
1557.1206 801.9715 5879.8174 3753282
1610.0106 810.0473 5939.0273 3819076
1663.0306 817.82227 5996.0308 3753283
1710.0546 822.37012 6029.374 3621697
1788.7568 841.62634 6170.5552 3555904
1834.6533 844.95898 6194.9888 3621697
1901.899 857.78223 6289.0054 3555904
1974.6934 872.53668 6397.1807 3490111
2040.474 883.66675 6478.7827 3490111
2098.7715 891.18494 6533.9043 3424318
2174.21 905.55487 6639.2603 3226939
2245.342 917.62531 6727.7568 3358525
2287.9895 917.82422 6729.2153 3358525
2342.2771 922.60089 6764.2363 3424318
2384.657 922.60089 6764.2363 3555647
2433.668 925.12152 6782.7173 3621697
2472.272 923.66748 6772.0566 3555647
2514.7012 923.66748 6772.0566 3555648
2562.6111 925.64722 6786.5718 3621697
2615.5051 929.33337 6813.5972 3753540
2617.0027 914.93231 6708.0127 3819076
2651.2676 912.26123 6688.4292 3819075
2671.7197 904.99445 6635.1514 3884868
2681.7244 894.4657 6557.9575 3819332
2711.126 890.62671 6529.811 3885127
2717.7893 879.54315 6448.5503 3753285
2730.4197 870.68726 6383.6211 3687492
2693.4626 846.50256 6206.3066 3687748
2733.8286 846.96155 6209.6714 3423551
2756.0962 841.87933 6172.4102 3292220
2772.9761 835.31482 6124.2808 3358012
2769.5908 822.9082 6033.3198 3423805
2759.3396 808.82318 5930.0522 3555391
2769.9448 801.14465 5873.7554 3621184
2764.6367 789.12518 5785.6323 3555391
2790.8616 786.30109 5764.9268 3160633
2784.3867 774.45392 5678.0669 3357755
2717.2258 746.23938 5471.2061 3752000
2667.0752 723.34106 5303.3228 3817793
2571.0437 688.71606 5049.4624 3948865
2422.9126 641.14642 4700.6958 3092785
2410.2175 630.12762 4619.9092 2500390
2489.1221 643.03406 4714.5352 2697513
2522.1418 643.92291 4721.0522 2960685
2549.0154 643.24017 4716.0469 3157807
2548.6643 635.78186 4661.3643 3685177
2723.9529 671.81055 4925.5161 3751487
2921.2803 712.40668 5223.1548 3619644
3021.8281 728.76337 5343.0771 3489084
3137.0056 748.2511 5485.9556 3685950
3212.3489 757.91791 5556.8301 3423805
3300.7898 770.43469 5648.5991 3555134
3476.6458 802.87286 5886.4263 3489342
3674.9302 839.75519 6156.8369 3489341
3609.5103 816.23834 5984.418 3423805
3651.2654 817.19208 5991.4102 3423805
3751.1465 831.00311 6092.6689 3292219
3909.5144 857.36212 6285.9253 3358012
4166.4268 904.5907 6632.1914 3423806
4209.2124 904.8559 6634.1353 3423806
4281.9067 911.4823 6682.7188 3423805
4333.8872 913.61383 6698.3462 3358013
4375.8545 913.61383 6698.3462 3358012
4476.0649 925.65851 6786.6548 3423805
4528.752 927.74133 6801.9248 3423805
4562.1699 925.87463 6788.2388 3489598
4604.7007 925.87463 6788.2388 3555391
4638.1421 924.06378 6774.9624 3621184
4682.6084 924.46234 6777.8843 3489598
4729.2354 925.27661 6783.854 3489598
4769.4697 924.83667 6780.6289 3358012
4812.249 924.89374 6781.0469 3489341
4867.3857 927.30389 6798.7178 3555134
4877.4185 921.15405 6753.6289 3620927
4881.6567 914.02496 6701.3604 3686720
4876.9517 905.35718 6637.811 3752513
4868.6265 896.16962 6570.4507 3555134
4906.3423 895.53986 6565.8335 3489341
4930.9717 892.55182 6543.9263 3555134
4946.5039 887.98004 6510.4067 3555134
5003.3965 890.84705 6531.4272 3620927
5111.3877 902.69196 6618.27 3620927
5213.7905 913.36713 6696.5376 3686720
5230.2241 908.9317 6664.0186 3686720
5215.9224 899.26758 6593.1636 3620927
5257.2305 899.26758 6593.1636 3620927
5326.7739 904.05963 6628.2974 3620927
5392.7554 908.17773 6658.4902 3489341
5438.1523 908.79266 6662.9985 3489341
5483.1514 909.33209 6666.9541 3423548
5532.8882 910.64331 6676.5674 3357755
5521.73 901.98743 6613.105 3357755
5643.8735 915.07349 6709.0479 3291962
5647.9917 908.97131 6664.3091 3357755
5708.4199 911.95471 6686.1816 3555134
5822.6807 923.43201 6770.3301 3620927
5898.2661 928.65393 6808.6162 3752513
5999.2876 937.77698 6875.5034 3620927
6092.1626 945.50574 6932.168 3620927
6068.2983 935.13513 6856.1343 3555134
6099.2134 933.29272 6842.626 3555134
6063.6372 921.37268 6755.2314 3555134
6105.9609 921.37268 6755.2314 3620673
6267.417 939.22552 6886.124 3489087
6321.0015 940.7796 6897.5176 3620673
6394.1309 945.2016 6929.9385 3489087
6503.9961 954.95776 7001.4678 3489087
6666.5874 972.27307 7128.418 3489087
6737.7041 976.10553 7156.5166 3489087
6790.2603 977.21625 7164.6602 3554880
6813.1533 974.07159 7141.605 3554880
6832.8047 970.50739 7115.4731 3620673
6878.0356 970.59924 7116.146 3620673
7019.2798 984.15155 7215.5078 3686466
7073.0215 985.34045 7224.2241 3686466
7127.1021 986.56104 7233.1738 3555137
7189.4009 988.89685 7250.2993 3620673
7309.6865 999.12915 7325.3193 3554880
7330.4434 995.71454 7300.2842 3620673
7433.4233 1003.4415 7356.936 3620673
7585.6553 1017.681 7461.3359 3620673
7627.9478 1017.087 7456.9805 3554880
nan nan nan 16777215
nan nan nan 16777215
nan nan nan 16777215
nan nan nan 16777215
nan nan nan 16777215
-4914.4653 742.21277 5203.9058 2831157
-4881.8613 742.21277 5203.9058 3423038
-4966.9004 760.21893 5330.1528 3554880
-4888.395 753.2677 5281.4155 3423294
-4870.7715 755.66718 5298.2388 3423294
-4886.1128 763.24896 5351.3975 3620930
-4884.3398 768.24359 5386.4165 3883845
-4815.0239 762.61029 5346.9194 3752259
-4831.2334 770.53851 5402.5068 3686466
-4840.0356 777.38885 5450.5371 3554880
-4809.2378 777.93103 5454.3384 3554880
-4805.4844 782.88678 5489.085 3554880
-4901.5356 804.29102 5639.1572 3554880
-4931.5244 815.08716 5714.8525 3686466
-4902.4277 816.20404 5722.6836 3620673
-4893.958 820.79688 5754.8857 3357246
-4935.1689 833.85211 5846.4199 3094583
-4940.9194 841.06622 5897.0005 3094583
-4981.5723 854.37506 5990.3135 3160376
-4968.8696 858.66565 6020.3965 3226168
-4977.2236 866.68854 6076.6475 3423547
-4975.7583 873.112 6121.6846 3357756
-4961.4673 877.36725 6151.5195 3357755
-4967.3096 885.27722 6206.9795 3160634
-4965.3818 891.91644 6253.5288 3292220
-4926.2017 891.91644 6253.5288 3555392
-4894.5 893.28131 6263.0986 3489599
-4833.4194 889.26312 6234.9258 3686978
-4792.4663 888.91272 6232.4688 3686978
-4701.2734 879.16144 6164.0991 3686979
-4652.9536 877.33252 6151.2759 3621184
-4474.0269 850.64093 5964.1323 3555391
-4347.5068 833.54761 5844.2852 3555391
-4242.7275 820.36761 5751.876 3555391
-4158.0933 810.8905 5685.4287 3489598
-4069.1772 800.40735 5611.9277 3292219
-3985.0894 790.69946 5543.8623 3226426
-3884.7202 777.56207 5451.7515 3226426
-3808.1816 769.00372 5391.7461 3292219
-3726.074 759.15747 5322.7109 3292219
-3607.5522 741.6474 5199.9419 3292219
-3474.394 720.7818 5053.646 3226428
-3271.0105 684.82971 4801.5737 3161402
-3142.8672 664.10895 4656.2935 3423804
-2876.0764 613.42828 4300.9541 3424832
-2779.5752 598.45306 4195.9575 4148811
-2691.6257 585.05048 4101.9878 5069913
-2621.3445 575.26697 4033.3921 5267548
-2598.1375 575.72424 4036.5981 5202010
-2566.5115 574.30658 4026.6582 5136218
-2545.106 575.17047 4032.7156 5070168
-2597.4436 592.88409 4156.9116 4609873
-2571.4285 592.89087 4156.959 3688260
-2612.1484 608.4422 4265.9946 3227709
-2808.9531 661.0473 4634.8271 3359551
-3071.0933 730.28796 5120.2969 3424574
-3074.3108 738.77008 5179.7681 3358525
-3116.9395 757.00507 5307.6196 3424318
-3127.0811 767.65814 5382.3115 3621440
-3163.1143 784.96875 5503.6821 3490111
-3154.7312 791.51697 5549.5942 3358525
-3183.9553 807.75189 5663.4229 3095610
-3152.9438 808.89911 5671.4663 3358525
-3141.8259 815.23444 5715.8853 3358525
-3145.5713 825.61694 5788.6807 3424318
-3146.2031 835.41498 5857.3784 3358525
-3107.7815 834.95197 5854.1318 3424318
-3063.5271 832.89221 5839.6899 3753283
-3033.9983 834.83441 5853.3076 3753283
-3002.635 836.31329 5863.6763 3819076
-3007.2905 847.98529 5945.5122 3687490
-2967.9143 847.3783 5941.2568 3753283
-2930.7766 847.40314 5941.4312 3884869
-2894.7043 847.74072 5943.7979 3950662
-2848.7737 845.16241 5925.7202 4016455
-2810.9219 844.94434 5924.1914 3884869
-2775.3738 845.42218 5927.542 3950662
-2734.6331 844.30988 5919.7427 3884869
-2694.9817 843.50787 5914.1196 3950662
-2650.7612 841.23352 5898.1733 3950662
-2608.2285 839.43793 5885.5845 4016455
-2516.0022 821.3681 5758.8906 3950662
-2478.9275 821.03906 5756.5835 4016455
-2457.3713 825.91602 5790.7778 3950919
-2431.1389 829.34399 5814.812 3884869
-2354.3135 815.35461 5716.728 4016455
-2321.5923 816.4433 5724.3613 4016455
-2287.6353 817.12488 5729.1396 3884869
-2251.7405 817.12488 5729.1396 3885126
-2186.9075 806.45349 5654.3193 3950662
-2154.1914 807.4693 5661.4414 3884869
-2121.6826 808.59808 5669.356 3950662
-2075.1401 804.32593 5639.4019 3884869
-2013.3688 793.9007 5566.3071 3753283
-1985.1465 796.57001 5585.0229 3884869
-1950.1545 796.57001 5585.0229 3884869
-1925.7332 800.96655 5615.8486 3884869
-1879.8997 796.4552 5584.2178 3884869
-1663.7719 718.25604 5035.937 3884869
-1814.5305 798.48138 5598.4243 3950662
-1774.5267 796.27014 5582.9204 3950662
-1691.7902 774.40924 5429.646 3884869
-1657.7717 774.40924 5429.646 3884869
-1621.6127 773.38831 5422.4878 3950662
-1556.4691 758.20447 5316.0288 4082504
-1488.4614 740.93079 5194.917 4148041
-1477.6381 751.98657 5272.4331 4082248
-1449.0602 754.30591 5288.6948 4082504
-1400.6494 746.16821 5231.6387 4213833
-1343.8245 733.0506 5139.6665 4148041
-1293.5167 722.93134 5068.7168 4148041
-1272.636 729.16296 5112.4092 4148041
-1278.6661 751.53326 5269.2549 4082248
-1183.7205 714.16797 5007.2739 4148041
-1189.3462 737.09741 5168.04 4082248
-1156.9668 737.09741 5168.04 4016455
-1086.9138 712.40472 4994.9111 3819076
-972.70807 656.45062 4602.5981 3687490
-1100.4619 765.3573 5366.1802 3687490
-1029.6658 738.68756 5179.1895 3819076
-987.97394 731.84106 5131.186 3753283
-905.29199 693.14941 4859.9058 3687490
-901.5556 714.31396 5008.2979 3555904
-879.27087 721.77899 5060.6377 3555904
-858.7337 731.29059 5127.3267 3950662
-853.42792 755.01666 5293.6782 3950662
-781.13141 718.99908 5041.147 3753540
-790.67114 758.4472 5317.7305 3687490
-772.1358 773.25043 5421.521 3819332
-735.34827 770.29639 5400.8096 3950406
-700.16852 768.82281 5390.4775 4016455
-609.64886 703.35388 4931.4531 4148041
-578.75177 703.35388 4931.4531 4279373
-576.62982 740.29645 5190.4697 4410958
-550.93689 749.5849 5255.5942 4542801
-528.89319 765.33496 5366.0234 4345421
-498.1572 769.79126 5397.2681 4279371
-467.62186 775.22925 5435.3955 4279627
-433.96381 775.93799 5440.3647 4213835
-406.29681 788.39288 5527.6899 4147529
-373.92679 793.19257 5561.3423 4147785
-340.18826 795.7774 5579.4658 4081991
-308.28876 803.7489 5635.3564 4016199
-271.13525 798.31293 5597.2432 4147528
-237.45563 803.00958 5630.1729 4147528
-201.23895 799.26868 5603.9438 3950149
-167.04485 803.67725 5634.854 3818563
-135.0499 823.86469 5776.3945 3818563
-99.608604 830.11169 5820.1948 3621184
-62.931988 827.33392 5800.7188 3423805
-26.765003 832.82025 5839.1855 3489598
9.8375549 834.3681 5850.0381 3489598
46.390373 832.5827 5837.5195 3489598
82.834572 831.28131 5828.3955 3358012
120.25554 837.57959 5872.5547 3226426
157.71777 841.14673 5897.5654 2963254
195.07845 842.92084 5910.0044 3160633
232.76555 845.31451 5926.7866 3094840
269.70499 844.7077 5922.5327 3094840
306.80389 844.68677 5922.3857 3160633
340.05939 835.23047 5856.0845 3292219
377.9502 837.89215 5874.7466 3357755
416.20807 840.82306 5895.2959 3489598
451.76404 838.26263 5877.3438 3358012
488.66678 838.39874 5878.2983 3226426
523.68274 835.50568 5858.0137 3292219
557.56091 831.29498 5828.4912 3358012
590.67407 826.53156 5795.0933 3292219
616.31537 812.46991 5696.5024 3358012
646.68903 805.84473 5650.0508 3358013
662.77722 783.02985 5490.0879 3226429
694.06903 779.54218 5465.6348 3226176
728.31299 779.54218 5465.6348 2897213
768.24805 785.36011 5506.4263 1120548
804.61096 787.18317 5519.2085 660000
846.6261 794.15796 5568.1108 1054505
849.95734 765.73016 5368.7944 988713
877.85974 760.76038 5333.9492 791335
905.04626 755.5575 5297.4702 791590
935.08478 753.01941 5279.6748 856874
964.00824 749.78748 5257.0142 660004
1002.2357 753.76648 5284.9126 725028
1021.9411 744.00623 5216.4805 461856
1059.1147 747.17444 5238.6934 264476
1093.4125 748.1842 5245.7734 396061
1125.3837 747.58942 5241.6035 396315
1159.3317 748.3045 5246.6167 330776
1232.4674 773.57684 5423.8096 199702
1253.6058 765.73175 5368.8052 1910317
1285.0455 764.42456 5359.6401 3818057
1353.8875 784.86646 5502.9648 3621444
1396.2263 789.31042 5534.1235 3687492
1443.0145 795.99347 5580.9805 3687491
1488.6499 801.73932 5621.2666 3687491
1545.373 813.0531 5700.5913 3687492
1618.6409 832.36359 5835.9839 3753284
1655.2051 832.36359 5835.9839 3555904
1710.7838 841.71893 5901.5771 3555904
1764.5796 849.81964 5958.374 3621954
1816.5293 856.71417 6006.7139 3555904
1871.9163 864.91687 6064.2261 3555904
1919.8195 869.40424 6095.688 3490111
1962.6636 871.47009 6110.1729 3490111
2008.4504 874.73865 6133.0898 3292732
2058.3538 879.64374 6167.481 3424318
2099.6147 880.74268 6175.186 3424318
2144.3833 883.24652 6192.7412 3424574
2176.6528 880.6048 6174.2188 3424318
2222.731 883.54419 6194.8281 3358525
2261.5435 883.54419 6194.8281 3292732
2307.5759 886.31732 6214.2715 3226939
2332.939 881.1911 6178.3301 3227195
2373.5811 881.90936 6183.3657 3490367
2414.1523 882.57861 6188.0581 3555904
2445.1245 879.77289 6168.3862 3621697
2468.4167 874.33405 6130.2529 3556160
2490.2815 868.56415 6089.7979 3687490
2528.436 868.56415 6089.7979 3621441
2559.7773 866.25854 6073.6328 3687490
2568.7856 856.57336 6005.7266 3423805
2598.9209 854.11096 5988.4624 3292219
2596.2429 841.0885 5897.1567 3358011
2619.0725 836.57892 5865.5391 3292219
2643.2756 832.62689 5837.8296 3555391
2634.905 818.66205 5739.9175 3621184
2623.9829 804.29132 5639.1592 3686977
2579.4438 780.13507 5469.792 3686977
2592.0486 773.66846 5424.4521 3621184
2643.1553 778.71259 5459.8184 3555134
2655.9746 772.49176 5416.2021 3752256
2633.8481 756.39221 5303.3228 3817534
2587.0903 733.70825 5144.2773 3883070
2580.926 722.95331 5068.8711 4014400
2489.2505 688.79822 4829.3979 3093041
2400.0486 656.13959 4600.4175 2566183
2435.2109 657.85205 4612.4243 2566440
2464.6858 658.0061 4613.5039 2763306
2488.7998 656.74176 4604.6396 2960428
2499.1245 651.90948 4570.7588 3684151
2669.6162 688.49377 4827.2637 4013629
2754.8125 702.50714 4925.5161 3817021
2852.0444 719.24518 5042.8721 3686205
2938.938 733.03784 5139.5771 3751741
3053.9814 753.47668 5282.8809 3751741
3160.8372 771.47888 5409.1001 3555133
3308.0449 798.84351 5600.9629 3620926
3395.9849 811.4715 5689.5024 3620926
3430.6401 811.23718 5687.8594 3555134
3466.2766 811.23718 5687.8594 3555391
3537.5378 819.48999 5745.7222 3423805
3669.8708 841.58154 5900.6138 3292219
3798.6316 862.42151 6046.7295 3358011
3843.3794 863.96411 6057.5459 3292219
3898.6614 867.82153 6084.5918 3358011
3943.5466 869.31262 6095.0459 3358011
4044.1101 882.93085 6190.5278 3358012
4078.8684 882.05988 6184.4214 3226426
4118.5073 882.25098 6185.7612 3423805
4177.7373 886.59601 6216.2256 3423805
4182.9937 879.51233 6166.5591 3555134
4172.7354 869.32605 6095.1396 3489855
4271.292 881.78882 6182.5205 3423805
4333.3408 886.55853 6215.9629 3292219
4357.3994 883.5401 6194.7998 3226426
4400.5425 884.41046 6200.9019 3226683
4433.8916 883.31458 6193.2183 3489341
4429.2573 874.73615 6133.0723 3555134
4460.6089 873.35101 6123.3608 3620927
4499.312 873.41687 6123.8218 3686720
4503.1528 866.77106 6077.2261 3620927
4540.5977 866.65057 6076.3813 3686720
4581.4531 867.1778 6080.0781 3555134
4609.8794 865.36304 6067.354 3489341
4655.5605 866.79053 6077.3628 3555134
4732.9053 874.0423 6128.2075 3555134
4783.1069 876.20514 6143.3716 3489341
4811.8633 874.43628 6130.9697 3357755
4824.791 869.84167 6098.7554 3423548
4852.7793 868.01331 6085.936 3423548
4899.376 869.51581 6096.4707 3555134
4967.6572 874.81396 6133.6172 3620927
5054.7056 883.31024 6193.1875 3620927
5106.9497 885.64124 6209.5312 3620927
5138.2729 884.33636 6200.3823 3489341
5153.5571 880.3114 6172.1621 3555134
5200.2949 881.67926 6181.7524 3489341
5216.4858 877.88599 6155.1567 3423548
5261.9883 879.0451 6163.2837 3489341
5343.9702 886.23712 6213.709 3555134
5440.4551 895.71259 6280.1455 3752513
5480.4077 895.81165 6280.8398 3752513
5593.6665 907.80621 6364.9375 3686720
5529.1445 890.98279 6246.9829 3555134
5570.1958 891.28882 6249.1284 3489341
5615.1387 892.2088 6255.5786 3489340
5683.8931 896.87335 6288.2837 3357758
5742.168 899.83148 6309.0239 3489087
5781.6963 899.83148 6309.0239 3554880
