# .PCD v0.7 - Point Cloud Data file format
VERSION 0.7
FIELDS x y z rgb
SIZE 4 4 4 4
TYPE F F F U
COUNT 1 1 1 1
WIDTH 1264
HEIGHT 1
VIEWPOINT 0 0 0 1 0 0 0
POINTS 1264
DATA ascii
-2870.3254 676.79358 3302.2744 3620927
-2848.7349 676.57965 3301.2307 3818306
-2804.4285 670.9281 3273.655 3818306
-2769.9824 667.56964 3257.2681 3884099
-2753.2249 668.45581 3261.592 3752513
-2744.7781 671.38818 3275.8999 3620927
-2731.6611 673.21375 3284.8076 3423548
-2720.0964 675.45251 3295.731 3423548
-2712.1311 678.62622 3311.2163 3489341
-2684.738 676.95007 3303.0381 3818306
-2663.989 676.93622 3302.9705 3949892
-2628.3867 673.11835 3284.3418 3686720
-2606.4626 672.77069 3282.6458 3423805
-2586.6216 672.95953 3283.5669 3489598
-2581.3594 676.97479 3303.1587 3621184
-2580.1265 682.12012 3328.2642 3686977
-2563.2754 683.18671 3333.4683 3621184
-2472.1748 664.31854 3241.405 3950149
-2495.9377 676.2594 3299.668 4214090
-2510.2195 685.80933 3346.2649 4279627
-2484.8293 684.59033 3340.3171 4411213
-2460.5076 683.6474 3335.7161 4542799
-2451.7397 687.047 3352.3037 4608592
-2424.7014 685.34119 3343.9807 4542799
-2392.8279 682.22699 3328.7856 4082248
-2381.5869 684.99243 3342.2793 3687490
-2375.5417 689.31458 3363.3682 3950662
-2364.7383 692.32111 3378.0378 4279627
-2334.6931 689.69757 3365.2368 4148041
-2321.0195 691.90674 3376.0161 4213834
-2303.5103 693.00256 3381.363 4082248
-2276.1736 691.13477 3372.2495 4148041
-2248.5913 689.15668 3362.5979 4016455
-2227.3623 689.10681 3362.3542 3950662
-2205.6477 688.90436 3361.3665 3950662
-2185.0149 689.039 3362.0237 4016455
-2166.9338 689.98889 3366.6582 3687490
-2125.1343 683.33087 3334.1716 3555904
-2112.0391 685.86194 3346.5217 3358525
-2098.0112 688.13794 3357.627 3424318
-2078.9041 688.77728 3360.7463 3555904
-2067.7334 692.08594 3376.8906 3490111
-2045.1869 691.61615 3374.5981 3424318
-2003.3439 684.54297 3340.0859 3556160
-1983.0437 684.75922 3341.1414 3818563
-1972.6313 688.43097 3359.0566 3884100
-1954.5731 689.48474 3364.1985 3818563
-1940.5184 691.9892 3376.4182 3686977
-1921.4771 692.75098 3380.1353 3752770
-1914.2361 697.83154 3404.9248 3818563
-1889.7086 696.65387 3399.1785 3818563
-1864.5502 695.21405 3392.1533 3555391
-1844.7739 695.77094 3394.8706 3489598
-1817.5851 693.51257 3383.8513 3292219
-1794.9409 692.95532 3381.1326 3292219
-1779.3644 695.14594 3391.821 3292219
-1764.1941 697.55017 3403.552 3292219
-1734.7308 694.29266 3387.6577 3423805
-1716.8616 695.65234 3394.2917 3358012
-1701.3291 698.0047 3405.7698 3358012
-1669.0027 693.43927 3383.4937 3160633
-1646.605 692.93469 3381.0317 3029047
-1615.3807 688.65411 3360.1455 3358012
-1596.6807 689.6701 3365.103 3489598
-1599.7367 700.23645 3416.6592 3555391
-1582.8872 702.25824 3426.5239 3424318
-1562.0272 702.53168 3427.8584 3621697
-1539.738 702.16119 3426.0505 3819076
-1516.4399 701.31354 3421.9146 3819076
-1494.8882 701.2608 3421.6575 3753283
-1473.5007 701.28485 3421.7744 3819076
-1453.5214 701.98938 3425.2124 3884869
-1433.4784 702.68408 3428.6018 3885126
-1406.0297 699.71429 3414.1116 3819333
-1388.8745 701.85468 3424.5549 3819333
-1370.1874 703.27576 3431.4888 3819333
-1352.0153 705.01074 3439.9543 3753283
-1330.4874 705.0238 3440.0178 3753283
-1309.6693 705.41943 3441.9485 3687490
-1288.1044 705.41943 3441.9485 3621697
-1268.3566 706.4314 3446.8862 3687234
-1254.7875 710.97955 3469.0779 3753026
-1250.4979 721.03851 3518.1584 3555134
-1232.2904 723.28937 3529.1411 2831668
-1214.0974 725.63116 3540.5674 2897461
-1163.1581 708.12421 3455.146 3357755
-1135.0656 704.12622 3435.6384 3621184
-1115.2101 705.18213 3440.7905 3489598
-1104.3408 712.07391 3474.4175 3423545
-1079.9094 710.32227 3465.8706 3291962
-1056.8232 709.40161 3461.3787 3226169
-1040.4928 713.07233 3479.2891 3226168
-987.29156 691.09106 3372.0361 3029046
-965.71857 690.77197 3370.479 2897460
-943.2168 689.7594 3365.5383 3094839
-925.73578 692.45605 3378.6963 3423804
-905.01917 692.802 3380.3843 3752256
-879.39539 689.31812 3363.3853 3751999
-860.23413 690.85309 3370.875 3160377
-843.8512 694.75287 3389.9031 3620670
-819.93115 692.48834 3378.8538 3818306
-798.7616 692.48834 3378.8538 3489084
-778.90167 693.65466 3384.5447 3489341
-755.72845 691.85303 3375.7539 3555134
-722.27246 680.26294 3319.2024 3818306
-712.08154 690.54712 3369.3821 3884612
-693.07251 692.64703 3379.6279 3687233
-671.77496 692.52002 3379.0085 3621440
-652.14362 694.15839 3387.0024 3621184
-630.52606 693.72174 3384.8718 3291962
-607.32953 691.45685 3373.8208 3291962
-585.56946 690.72314 3370.2407 3226425
-566.87878 693.69055 3384.7197 3291962
-541.33691 688.17896 3357.8271 3357755
-518.96051 686.40845 3349.1882 3423548
-499.07678 687.92462 3356.5862 3357755
-479.71506 690.3255 3368.3005 3686977
-463.02228 696.9646 3400.6948 4147527
-440.36475 694.8327 3390.2927 4279113
-422.34961 700.18097 3416.3884 4081994
-393.50113 687.18176 3352.9617 3621440
-371.29688 684.97375 3342.188 3423805
-355.45279 694.93634 3390.7983 3555391
-328.65063 683.37976 3334.4104 3621184
-307.11783 681.9549 3327.458 3423805
-291.10556 693.47357 3383.6611 3226426
-269.26096 691.81653 3375.5759 3489598
-248.65851 693.34058 3383.0122 3555135
-227.30449 692.85785 3380.6567 3686721
-205.13287 689.52753 3364.407 3818563
-185.71303 695.74347 3394.7366 3620927
-164.19273 694.68054 3389.5503 3423805
-142.95615 694.68054 3389.5503 3423805
-122.24227 697.66382 3404.1064 3555391
-100.9733 698.07037 3406.0901 3555391
-79.671303 698.4054 3407.7249 3621441
-58.521458 700.80768 3419.4463 3687490
-37.066154 700.21423 3416.5508 3687490
-15.752953 704.35236 3436.7419 3490111
5.8156953 708.78778 3458.3835 3226939
27.75898 715.89124 3493.0435 3424318
49.966957 720.54871 3515.7688 3687490
72.595726 726.56769 3545.137 3753283
93.345253 715.3645 3490.4734 3950662
115.72218 718.51886 3505.8643 3884869
137.17464 715.84247 3492.8054 3884869
159.05103 715.81042 3492.6492 4016455
181.06485 716.32983 3495.1836 3819076
202.90549 716.12592 3494.1887 3819333
225.01237 716.80994 3497.5259 4016455
245.55965 712.84509 3478.1804 4345420
262.89328 700.95801 3420.1797 3950919
284.68457 701.85242 3424.5439 3819076
303.66742 696.18286 3396.8806 3753283
322.88379 691.75629 3375.282 3950662
345.41742 694.54413 3388.8845 3884869
369.87335 700.65039 3418.679 3884869
391.47195 700.97186 3420.2473 4213834
408.19263 692.97876 3381.2468 4213834
429.37717 692.97876 3381.2468 4082248
453.45657 697.43109 3402.9709 4082248
471.43222 692.5174 3378.9956 4213834
494.97061 695.84631 3395.2383 3819076
516.81512 696.61774 3399.0022 3423805
535.38483 693.08868 3381.783 3686977
557.02441 693.65106 3384.5271 4015943
579.04028 694.6236 3389.2725 3686977
600.28186 694.63147 3389.3108 3489599
619.62903 692.52142 3379.0154 3686977
640.79962 692.52142 3379.0154 3555391
669.98517 700.90631 3419.9277 3555391
692.47235 701.9812 3425.1724 3620926
713.33862 701.39758 3422.3247 3489340
730.71796 697.51953 3403.4026 3029045
752.04126 697.51953 3403.4026 3160631
779.1886 702.77228 3429.0322 3358267
797.95746 700.38922 3417.4045 3292219
819.65222 700.63171 3418.5876 3160633
842.35266 701.69958 3423.7981 3292219
860.82245 699.27771 3411.9812 3292219
882.38269 699.42285 3412.6892 3226426
900.58105 696.95941 3400.6694 3029047
918.27252 694.2265 3387.335 3292219
946.5827 699.46375 3412.8889 3358012
968.76642 700.04248 3415.7126 3292219
997.26862 705.06329 3440.2109 3226426
1021.7902 707.117 3450.2314 3423804
1046.2144 709.01959 3459.5149 3292219
1067.3721 708.67621 3457.8394 3160888
1084.2013 705.52972 3442.4866 3029047
1105.7695 705.52972 3442.4866 3226426
1132.1182 708.52148 3457.0842 3423804
1146.9171 704.30835 3436.5271 3423804
1172.2809 706.61871 3447.8 3555647
1196.2432 708.01593 3454.6177 3358011
1218.3242 708.2699 3455.8567 3292219
1242.7488 709.85358 3463.5837 3489598
1267.0453 711.31104 3470.6951 3358012
1287.6017 710.65497 3467.4941 3423805
1292.783 701.67566 3423.6814 3226426
1315.9098 702.57068 3428.0486 3226426
1338.8223 703.32446 3431.7263 3423805
1346.6102 696.2345 3397.1323 3358012
1368.5348 696.56049 3398.7231 3752770
1415.0361 709.19397 3460.3655 3818563
1439.0603 710.35095 3466.0107 3621184
1446.801 703.55524 3432.8525 3292219
1458.9272 699.05988 3410.9182 3292219
1480.2977 699.05988 3410.9182 3226426
1503.5024 699.91382 3415.0847 3226426
1526.2198 700.52008 3418.043 3358012
1551.5502 702.29224 3426.6899 3226426
1568.9025 700.45416 3417.7214 3358012
1592.4175 701.37994 3422.2385 3160633
1605.3412 697.67822 3404.1768 3160633
1608.6543 689.95148 3366.4758 3094840
1634.7446 692.0675 3376.8005 3423805
1660.8958 694.15497 3386.9856 3094840
1689.1174 697.04407 3401.0825 3291963
1712.2339 697.7807 3404.6768 3226167
1733.0811 697.58582 3403.7258 3094581
1754.4065 697.58582 3403.7258 3094581
1776.3737 697.83789 3404.9561 2765616
1805.1625 700.73212 3419.0776 2830639
1826.584 700.73212 3419.0776 3028274
1859.7308 705.1781 3440.771 3028018
1861.688 697.83118 3404.9231 2896432
1871.1566 693.43433 3383.4697 2633260
1900.3707 696.37164 3397.8015 3159604
1921.0375 696.14636 3396.7024 3356983
1982.2228 710.44836 3466.4858 3159604
2003.9413 710.44836 3466.4858 3159860
2030.0552 711.98987 3474.0076 2897202
2051.821 711.98987 3474.0076 3028788
2079.4692 714.00964 3483.8625 3423546
2137.7812 726.40692 3544.3525 3291963
2155.9082 725.03497 3537.6584 3357755
2178.4414 725.15778 3538.2576 3357755
2207.1277 727.30548 3548.7371 3423548
2241.4915 731.26276 3568.0457 3357755
2257.833 729.32037 3558.5681 3818306
2256.0564 721.62067 3520.999 3620927
2303.429 729.63873 3560.1213 3357755
2325.8992 729.69043 3560.3738 3226169
2345.6619 728.8999 3556.5164 3226169
2370.3738 729.64758 3560.1648 3291962
2383.8125 726.94373 3546.9717 3423548
2401.1106 725.45575 3539.7114 3423548
2413.0974 722.40497 3524.8259 3357755
2432.1692 721.51141 3520.4658 3423548
2453.9204 721.42157 3520.0276 3489341
2460.1951 716.82391 3497.5942 3160376
2500.77 722.21332 3523.8906 2897204
2518.8953 721.0816 3518.3689 2962997
2542.3445 721.48059 3520.3154 3028790
2570.0383 723.06671 3528.0547 3094583
2596.1917 724.19617 3533.5657 2962997
2622.2061 725.26801 3538.7957 2634289
2668.8491 731.9798 3571.5444 2765618
2693.022 732.46832 3573.928 3028790
2714.8911 732.32733 3573.24 3028790
2732.8323 731.13782 3567.4358 3028790
2747.3862 729.06866 3557.3401 3094583
2782.5576 732.46002 3573.8875 3094583
2811.4712 734.16315 3582.1975 3226169
2837.5637 735.1084 3586.8098 3028790
2867.2834 736.97125 3595.8989 3028790
2889.813 736.97125 3595.8989 2897461
2910.0825 736.39935 3593.1086 2568239
2929.3733 735.59052 3589.1621 2568239
2969.7092 740.03833 3610.8643 2634032
2984.4905 738.09894 3601.4014 2634032
2971.8896 729.46759 3559.2864 2699825
2987.7837 727.90686 3551.6711 2700082
3020.3794 730.40814 3563.8757 2831411
3026.8599 726.60376 3545.313 2897204
3032.0171 722.53943 3525.4819 3094583
3061.1057 724.19556 3533.5627 3094583
3104.1489 729.10565 3557.5203 3226169
3130.3643 730.0213 3561.988 3291962
3126.8962 724.0506 3532.8555 3291962
3113.6885 715.92444 3493.2053 3357755
3118.3044 711.98132 3473.9658 3357755
3154.52 715.25775 3489.9524 3226169
3197.7068 720.05878 3513.3782 3160376
3226.9758 721.68164 3521.2966 3160376
3257.4197 723.54346 3530.3809 3291962
3272.3159 721.94995 3522.6057 3226169
3286.571 720.2373 3514.2493 3291962
3309.1685 720.36353 3514.865 3489341
3342.0801 722.71838 3526.3552 3555134
3366.7529 723.27252 3529.0588 3489341
3384.8381 722.41339 3524.8667 3489341
3412.2881 723.55109 3530.418 3489341
3439.6724 724.66034 3535.8306 3423803
3461.8254 724.66034 3535.8306 3357501
3489.6611 725.84229 3541.5974 3357501
3510.1287 725.48645 3539.8613 3423037
3549.532 729.02423 3557.123 3553854
3601.8794 735.15979 3587.0603 3619903
3635.2974 737.3797 3597.8918 3554110
3644.8215 734.75537 3585.0872 3488318
3668.0518 734.90936 3585.8386 3356732
nan nan nan 16777215
nan nan nan 16777215
nan nan nan 16777215
nan nan nan 16777215
nan nan nan 16777215
nan nan nan 16777215
nan nan nan 16777215
-2886.0132 654.04108 3097.0806 3751486
-2968.8733 677.37347 3207.5667 3620670
-2944.8359 676.4682 3203.2798 3555134
-2926.3245 676.82855 3204.9863 3620927
-2906.2441 676.82855 3204.9863 3555134
-2876.7893 674.63013 3194.5759 3620927
-2844.2756 671.67859 3180.5996 3620927
-2823.4509 671.46521 3179.5891 3884356
-2762.7961 661.70917 3133.3914 4147271
-2762.6721 666.41479 3155.6741 4213064
-2716.4993 660.00024 3125.2993 4081478
-2706.6023 662.37018 3136.5215 3949892
-2666.5808 657.34869 3112.7432 3884099
-2644.1208 656.6142 3109.2651 3818306
-2621.1948 655.75226 3105.1836 3818306
-2606.5718 656.97009 3110.9504 3818306
-2603.4192 661.11914 3130.5974 3949892
-2589.9783 662.69867 3138.0769 4015685
-2584.8313 666.4408 3155.7971 4015685
-2579.1709 670.10724 3173.1587 4015685
-2551.9043 668.17334 3164.0012 3950149
-2507.4797 661.68152 3133.2605 3884356
-2482.4688 660.25061 3126.4846 3687234
-2505.884 671.77911 3181.0754 4279370
-2527.3547 682.96692 3234.0532 4410957
-2486.6611 677.40118 3207.6978 4410956
-2456.4109 674.61279 3194.4939 4345420
-2440.5962 675.77563 3200.0002 4345420
-2450.376 684.10327 3239.4343 4279627
-2431.2532 684.43365 3240.9985 4213834
-2402.0273 681.90137 3229.0076 4082248
-2378.2124 680.87524 3224.1484 4148041
-2362.9653 682.30554 3230.9211 4279627
-2352.1387 685.04791 3243.9072 4213834
-2310.0728 678.66046 3213.6609 3884869
-2289.9382 678.66046 3213.6609 3884869
-2294.3479 685.99915 3248.4116 3950662
-2276.0417 686.61633 3251.3342 3819076
-2251.832 685.44781 3245.8008 3687490
-2225.1792 683.50745 3236.6128 3621697
-2197.7898 681.30304 3226.1741 3687490
-2187.1592 684.30115 3240.3711 3884869
-2172.1077 685.95917 3248.2224 4082505
-2151.7566 685.95917 3248.2224 4082248
-2125.6765 684.11542 3239.4917 4213834
-2082.2024 676.58417 3203.8289 4148041
-2066.6436 678.06519 3210.842 3884869
-2043.7095 677.13184 3206.4224 3884869
-2012.4578 673.39667 3188.7354 3753283
-1983.8779 670.48969 3174.9697 3753283
-1993.8104 680.67163 3223.1843 3621697
-1973.6163 680.67163 3223.1843 3621697
-1968.8025 686.03094 3248.5623 3621697
-1959.0928 689.77844 3266.3079 3753539
-1925.9171 685.25574 3244.8914 3621698
-1905.5868 685.25574 3244.8914 3687234
-1877.9719 682.60785 3232.353 3358268
-1864.1409 684.9671 3243.5247 3226426
-1850.298 687.37396 3254.9219 3686977
-1825.8285 685.84271 3247.6709 3884356
-1810.6433 687.80371 3256.957 3950149
-1794.9125 689.59985 3265.4622 3818563
-1763.1068 685.19025 3244.5815 3818563
-1742.7784 685.19025 3244.5815 3621184
-1708.0764 679.47241 3217.5056 3423805
-1696.2524 682.82758 3233.3933 3818563
-1680.2072 684.54401 3241.521 3752770
-1669.9578 688.69263 3261.166 3752770
-1649.5255 688.69263 3261.166 4015942
-1634.6802 691.05444 3272.3501 3555391
-1623.7787 695.16467 3291.8132 3358012
-1584.8861 687.24316 3254.3022 3423805
-1561.9783 686.13678 3249.0635 3621184
-1551.7444 690.64203 3270.397 3555391
-1539.0802 694.17175 3287.1113 3555391
-1523.3944 696.41583 3297.7378 3620928
-1503.4763 696.76025 3299.3689 3753027
-1484.7122 697.65662 3303.6133 3687490
-1463.922 697.61273 3303.4055 3753283
-1442.7512 697.38367 3302.3208 3884869
-1425.2273 698.93634 3309.6731 3950662
-1406.9409 700.15552 3315.4463 3950662
-1389.0742 701.62305 3322.3955 3555904
-1374.6858 704.91895 3338.0027 3490368
-1353.0833 704.56024 3336.3042 3753540
-1334.7484 705.91852 3342.7358 3753540
-1314.9393 706.52789 3345.6213 3753283
-1278.0834 697.8493 3304.5256 3490368
-1254.6965 696.36017 3297.4741 3687490
-1259.824 710.91174 3366.3801 3950662
-1240.8655 712.1358 3372.1765 4082248
-1231.02 718.72296 3403.3687 4213321
-1215.7251 722.30444 3420.3281 3950149
-1184.2616 716.2359 3391.5918 3884356
-1163.0122 716.2359 3391.5918 3621184
-1137.4078 713.50397 3378.6553 3358012
-1116.5763 713.71924 3379.6748 3292219
-1090.8594 710.75977 3365.6606 3226425
-1066.7806 708.77191 3356.2478 3226167
-1040.87 705.46259 3340.5771 3291960
-1017.6962 703.91046 3333.2271 3160374
-996.98688 704.03363 3333.8103 3489339
-968.44464 698.51239 3307.6658 3555132
-949.15338 699.56805 3312.6646 3686718
-907.08105 683.50488 3236.6006 3818304
-887.23163 683.83545 3238.166 3555132
-870.03003 686.27002 3249.6946 3752511
-850.83136 687.20831 3254.1375 4147270
-831.45734 688.04761 3258.1118 4081734
-813.65143 690.2594 3268.5852 3818306
-785.77271 683.81952 3238.0903 3686977
-765.59528 683.91791 3238.5564 3752513
-744.8634 683.513 3236.6389 3752770
-721.82037 680.90515 3224.29 3818820
-701.08661 680.38831 3221.8425 3818563
-678.72375 678.21295 3211.5417 3752770
-659.73389 679.37805 3217.0588 3621184
-644.43127 684.53339 3241.4707 3555391
-624.1225 684.53339 3241.4707 3489598
-606.56201 687.64917 3256.2249 3357755
-587.32263 689.01215 3262.6792 3358012
-568.92584 691.49768 3274.4487 3423805
-548.90106 692.11633 3277.3784 3686720
-528.78302 692.66095 3279.9573 3489598
-507.71475 691.95453 3276.6121 3884613
-483.22458 686.32843 3249.9709 3884356
-464.5137 688.77679 3261.5647 3818563
-448.11053 695.02985 3291.1748 4015942
-425.79257 692.26959 3278.104 4015942
-398.6459 680.98096 3224.6492 4081735
-378.44247 680.98096 3224.6492 3489598
-365.49692 694.77759 3289.9802 3423805
-345.42126 695.85956 3295.1038 3489598
-322.83411 691.698 3275.3975 3621184
-302.31274 691.698 3275.3975 3489598
-281.07077 689.9292 3267.0217 3226426
-259.62903 687.35376 3254.8262 3292219
-237.63562 682.75409 3233.0454 3358012
-217.37958 682.75409 3233.0454 3950663
-197.66731 684.63745 3241.9636 3818820
-175.95023 679.21313 3216.2778 3884869
-158.0988 689.23804 3263.7488 4016455
-137.98775 690.92725 3271.7478 3884612
-117.57285 691.41895 3274.0759 3621441
-97.154228 692.09198 3277.2632 3687490
-77.366631 698.82556 3309.1487 3818820
-56.335342 695.14294 3291.7102 3753027
-35.588886 692.75116 3280.3845 3489855
-15.137517 697.41638 3302.4756 3424062
5.6016312 703.45856 3331.0874 3424062
26.587152 706.52057 3345.5869 3555904
47.558418 706.67102 3346.2993 3687490
68.674797 708.22595 3353.6624 3884869
90.595276 715.40198 3387.6431 3950662
111.81992 715.40198 3387.6431 4016455
133.34169 716.99988 3395.2092 3753540
154.37294 715.88318 3389.9216 3950662
174.6362 711.90601 3371.0884 3687747
195.41827 710.67371 3365.2532 3687490
216.3623 710.21301 3363.0718 3621697
236.57288 707.64026 3350.8889 3555904
257.4256 707.2511 3349.0461 3753283
277.67862 705.39728 3340.2676 3950662
295.22348 697.4057 3302.425 3555904
313.89719 692.953 3281.3403 3687490
335.3399 694.78473 3290.0142 3950662
356.57675 696.0025 3295.7805 3884869
376.73969 695.10553 3291.5332 4213834
396.30023 693.24786 3282.7366 4148041
414.50641 689.32123 3264.1428 4213834
435.95074 690.89575 3271.5986 4542799
444.97809 673.53394 3189.3853 4345420
458.64734 664.38873 3146.0798 3950662
500.19147 694.7124 3289.6714 3686977
521.51117 695.6579 3294.1489 3686977
541.46796 694.78278 3290.0049 3950149
562.22748 694.96399 3290.863 3555391
580.4668 692.12738 3277.4309 3424062
602.14429 693.44415 3283.666 3489598
626.27783 697.40887 3302.4402 3489598
644.26312 694.49243 3288.6299 3950149
664.76953 694.39014 3288.1458 3884356
691.99054 701.09705 3319.9048 3621184
715.68127 703.94012 3333.3677 3160890
733.11957 700.64648 3317.7712 3160633
747.43164 694.62909 3289.2771 3423806
758.00641 685.55463 3246.3066 3423805
785.90186 692.21008 3277.8223 3029047
810.72186 695.88678 3295.2327 3358012
823.73431 689.4975 3264.9773 3423805
844.19031 689.4975 3264.9773 3489855
871.32794 694.82556 3290.2073 3292219
893.85992 696.31952 3297.2817 3358012
916.16071 697.56995 3303.2029 3160633
932.44183 694.28302 3287.6382 3292219
959.93604 699.30676 3311.4272 3423805
980.33368 699.05762 3310.2473 3423806
998.86163 697.51306 3302.9336 3160634
1019.5556 697.51306 3302.9336 3226426
1045.1248 700.78204 3318.4133 3226683
1068.8282 702.69702 3327.481 2831924
1090.3903 703.15759 3329.6621 3292218
1111.0186 703.01013 3328.9636 3358012
1131.4086 702.72009 3327.5903 3357755
1157.4049 705.85962 3342.457 3226426
1155.1422 691.95978 3276.637 3094840
1175.6714 691.95978 3276.637 3358012
1207.1794 698.31061 3306.7102 3489855
1232.8362 701.11951 3320.0112 3884356
1260.257 704.8219 3337.543 3884356
1259.4115 692.85297 3280.8665 3884099
1292.0946 699.41754 3311.9519 3818562
1318.0468 702.18878 3325.0745 4147528
1338.8794 702.18878 3325.0745 4147528
1366.985 705.9447 3342.8599 4147528
1379.8356 701.82812 3323.3667 4344651
1381.0845 692.02063 3276.9253 3950149
1400.0139 691.22998 3273.1812 3752770
1420.5215 691.22998 3273.1812 3423805
1431.6002 686.70721 3251.7646 3358012
1453.1715 687.2738 3254.4475 3423805
1488.6128 694.2937 3287.689 3292219
1506.1042 692.86444 3280.9209 3358012
1530.1064 694.42847 3288.3271 3555391
1549.2461 693.77344 3285.2251 3555391
1560.104 689.47552 3264.8733 3621184
1558.8425 680.00208 3220.0139 3686977
1574.2559 677.95178 3210.3049 3160633
1618.1771 688.07513 3258.2422 3226169
1646.7347 691.49487 3274.4355 2962995
1666.3463 691.12006 3272.6609 2962995
1682.1984 689.21399 3263.635 2962995
1703.2325 689.45142 3264.7593 3028788
1726.2916 690.4931 3269.6919 3028788
1753.9359 693.32288 3283.0918 2897202
1772.7365 692.63165 3279.8186 2568237
1791.9982 692.13452 3277.4644 2501674
1814.136 692.74677 3280.3638 2568237
1784.4307 673.77026 3190.5044 2831153
1878.5829 701.46265 3321.636 2830896
1913.3046 706.59991 3345.9626 2896945
1933.4155 706.28851 3344.488 2897201
1954.3699 706.28851 3344.488 2765616
1947.2744 696.25922 3296.9963 2831409
2007.0637 710.10443 3362.5574 3291963
2033.952 712.14246 3372.2083 3226169
2056.8418 712.75299 3375.0991 3226169
2083.3516 714.59271 3383.8108 3291962
2101.2827 713.48267 3378.5544 3291962
2122.4504 713.48267 3378.5544 3291962
2152.7273 716.51453 3392.9111 3620927
2178.7883 718.09772 3400.408 3752513
2226.198 726.61823 3440.7551 3423548
2227.1455 719.95575 3409.2063 3226169
2249.7832 720.36493 3411.144 3291962
2278.5754 722.71857 3422.2891 3357755
2285.8997 718.28253 3401.2832 3686720
2289.0479 712.62836 3374.5088 3949892
2325.4771 717.34387 3396.8384 3555134
2346.7593 717.34387 3396.8384 3489341
2369.9795 717.93097 3399.6184 3489341
2383.95 715.73047 3389.1985 3357755
2413.166 718.10565 3400.4458 3028790
2422.1475 714.47064 3383.2327 3028790
2428.1382 710.02405 3362.1768 3226169
2457.0227 712.29089 3372.9109 3291962
2484.7896 714.19781 3381.9409 3291962
2506.6475 714.38849 3382.8438 3094583
2548.239 720.15289 3410.1399 2831411
2569.6045 720.15289 3410.1399 2831411
2591.3191 720.24988 3410.5991 3028790
2612.6362 720.23578 3410.5322 3028790
2621.2786 716.75604 3394.0549 3160376
2643.5281 717.02307 3395.3193 3028790
2678.9304 720.82495 3413.3223 2962997
2705.5168 722.21332 3419.8965 3028790
2736.4316 724.72614 3431.7957 2897204
2752.8564 723.39221 3425.479 2897204
2767.5264 721.62122 3417.093 2634032
2807.6794 726.47119 3440.0588 2634032
2824.5254 725.26245 3434.3354 2568239
2829.4292 721.02887 3414.2878 2502446
2851.1626 721.11536 3414.6975 2502446
2877.8652 722.448 3421.0078 2502446
2873.4868 716.01611 3390.551 2568239
2877.0396 711.64044 3369.8308 2831411
2900.7651 712.28198 3372.8687 3028790
2926.8105 713.47968 3378.54 3028790
2953.7568 714.8783 3385.1631 2962997
2962.281 711.83008 3370.729 2831411
2958.0017 705.7702 3342.0337 2700082
2991.1018 708.65143 3355.677 2699825
3026.4109 712.01215 3371.5911 2962997
3032.6321 708.53027 3355.1035 2897204
3048.6594 707.3717 3349.6172 2962997
3082.2258 710.27063 3363.3445 2962997
3100.6843 709.67242 3360.5117 2897204
3113.4402 707.78583 3351.5781 2962997
3126.3879 705.96783 3342.9695 2962997
3148.1553 706.1524 3343.8433 2962997
3173.1465 707.05286 3348.1072 2962997
3201.6814 708.72583 3356.0293 3094583
3224.7307 709.17065 3358.1357 3094583
3216.9353 702.87042 3328.3022 3160376
3241.9094 703.76508 3332.5388 3226425
3276.8372 706.79529 3346.8877 3488061
3294.0518 705.99054 3343.0769 3422525
3325.9971 708.33319 3354.1702 3488317
3369.1438 713.01697 3376.3491 3554110
3395.2834 714.06555 3381.3145 3619903
3423.1509 715.46222 3387.9282 3817282
3465.5481 719.8598 3408.752 3817282
3508.1511 724.24597 3429.5217 3817282
nan nan nan 16777215
nan nan nan 16777215
nan nan nan 16777215
nan nan nan 16777215
nan nan nan 16777215
nan nan nan 16777215
nan nan nan 16777215
nan nan nan 16777215
-2867.6714 673.5921 3098.2283 3620671
-2836.0569 670.70618 3084.9541 3752513
-2814.1794 670.09912 3082.1624 3752513
-2793.2739 669.7168 3080.4036 3752513
-2772.2292 669.29541 3078.4656 3752513
-2751.8555 669.03143 3077.2512 3818306
-2710.4814 663.62201 3052.3701 4147271
-2688.9194 663.02081 3049.605 4213064
-2663.813 661.53082 3042.752 4278857
-2645.4758 661.71259 3043.5879 4147271
-2615.7742 659.03375 3031.2664 4015685
-2593.47 658.19312 3027.3997 3489341
-2561.4094 654.84576 3012.0034 3357755
-2523.7817 650.01489 2989.7834 3884099
-2512.5637 651.9646 2998.7515 3949892
-2499.075 653.3501 3005.124 3752770
-2499.2568 658.35773 3028.1567 3752770
-2494.3696 662.09644 3045.3533 3818563
-2483.95 664.4129 3056.0081 4147528
-2457.9844 662.57483 3047.5537 4344907
-2433.7974 661.19116 3041.1895 4213578
-2441.9287 668.63495 3075.4275 4213834
-2453.1968 677.06274 3114.1919 4674385
-2464.4795 685.62982 3153.5967 4805714
-2421.2771 679.05481 3123.3545 4740178
-2397.3555 677.82416 3117.6938 4608848
-2379.5637 678.32056 3119.9773 4279627
-2372.1816 681.81726 3136.0605 4082248
-2351.5437 681.53046 3134.7415 4016455
-2331.3772 681.37659 3134.0334 4148041
-2302.3181 678.59906 3121.2583 4542799
-2266.521 673.77094 3099.051 4937557
-2244.8186 673.08563 3095.8987 5200729
-2233.5576 675.54633 3107.2168 4082248
-2230.002 680.40125 3129.5474 3687747
-2214.0234 681.51837 3134.6855 3687490
-2195.9783 682.01355 3136.9634 3753283
-2168.0464 679.41949 3125.0317 3885126
-2148.0464 679.28644 3124.4197 3819076
-2132.053 680.42963 3129.678 3884869
-2114.4968 681.09064 3132.7183 3950662
-2098.5115 682.27484 3138.165 4016455
-2078.0142 682.00055 3136.9036 3950662
-2055.0303 680.89716 3131.8284 4082248
-2023.3813 676.87372 3113.3223 4148041
-1987.4344 671.32031 3087.7791 4148041
-1965.5597 670.45764 3083.8113 4148298
-1904.7639 656.17004 3018.0947 3885126
-1904.7458 662.74323 3048.3281 3358525
-1917.578 673.96582 3099.9473 3095353
-1899.4423 674.42255 3102.0481 3358781
-1894.4369 679.59906 3125.8577 3621184
-1882.1824 682.25604 3138.0786 3818563
-1854.1598 679.19312 3123.9907 3752770
-1833.5011 678.79114 3122.1416 3686977
-1811.4684 677.86621 3117.8875 3423805
-1795.9249 679.37604 3124.8318 3292219
-1788.4406 684.0014 3146.1064 3489598
-1764.9408 682.53632 3139.3677 3950406
-1750.8624 684.72266 3149.4241 3950406
-1732.8457 685.40125 3152.5452 3818563
-1713.0942 685.40125 3152.5452 3818820
-1684.9077 681.98718 3136.842 3752770
-1660.8666 680.19012 3128.5764 3818563
-1642.7363 680.79987 3131.3809 4213321
-1624.8341 681.51996 3134.6931 4279371
-1593.9135 676.73047 3112.6633 4147528
-1568.1328 674.03162 3100.25 3621184
-1556.4323 677.39307 3115.7112 3423805
-1536.9114 677.39307 3115.7112 3686977
-1509.4391 673.84338 3099.3843 3752770
-1493.8303 675.56635 3107.3091 3621440
-1485.3435 680.59814 3130.4531 3555391
-1468.4437 681.85815 3136.2485 3555391
-1459.1038 686.71027 3158.5662 3621184
-1441.3922 687.70166 3163.126 3621185
-1417.5189 685.73975 3154.1023 3621185
-1395.3462 684.55682 3148.6614 3753027
-1377.3231 685.40491 3152.562 4016455
-1366.9509 690.14044 3174.3435 4213834
-1351.3198 692.32147 3184.3752 4016455
-1351.4041 702.73999 3232.2959 4213834
-1330.6466 702.47284 3231.0671 4213834
-1302.2863 698.1217 3211.0537 3884869
-1287.4001 700.97052 3224.157 3753283
-1268.222 701.53595 3226.7578 3950919
-1252.3053 703.953 3237.8752 4279627
-1227.3566 701.28894 3225.6218 4148041
-1221.4728 709.61151 3263.9019 4148041
-1205.1454 712.04694 3275.1038 4148041
-1190.0048 715.27997 3289.9744 4148041
-1171.4166 716.51837 3295.6704 4147528
-1151.6578 717.07233 3298.2183 4081735
-1130.9934 717.07233 3298.2183 3686720
-1101.9946 711.68976 3273.4609 3555391
-1088.7701 716.48358 3295.5105 3489598
-1061.3339 711.92969 3274.5645 3358012
-1036.0273 708.65308 3259.4934 3292220
-1006.9963 702.64575 3231.8625 3357753
-990.02521 704.97968 3242.5974 3357753
-960.7984 698.50146 3212.8003 3489596
-936.7276 695.57452 3199.3379 3423546
-910.01801 690.51733 3176.0771 3423546
-877.0097 680.34778 3129.3015 3620925
-855.09009 678.51196 3120.8577 3226167
-828.79077 673.03369 3095.6597 3028531
-809.83234 673.39691 3097.3303 3752254
-803.53815 684.56714 3148.7087 4015683
-785.9278 686.41632 3157.2141 3752511
-762.06744 682.76141 3140.4033 3752514
-742.43347 682.79968 3140.5793 3949891
-722.68707 682.73395 3140.2766 3884099
-692.70038 672.71942 3094.2144 3949892
-681.98267 681.38031 3134.0505 3752770
-662.94971 682.00049 3136.9031 3752256
-644.17603 682.93335 3141.1941 3686720
-624.49548 682.93335 3141.1941 3620927
-604.15106 682.18378 3137.7463 3884099
-584.49213 682.18378 3137.7463 3686720
-566.86121 684.63312 3149.0122 3555391
-547.73657 685.39008 3152.4939 3489598
-527.5036 684.76495 3149.6187 3752770
-510.05484 687.84583 3163.7891 3686977
-491.9379 690.23834 3174.7939 3621184
-470.18616 687.51764 3162.2798 3686977
-451.42059 689.11609 3169.6318 3818563
-432.55472 690.70148 3176.9241 3818563
-412.28711 690.09357 3174.1279 3950149
-391.88022 689.17908 3169.9216 3884356
-370.30679 686.00592 3155.3264 3686977
-352.20251 689.26398 3170.312 3555391
-332.21561 689.00696 3169.1301 3686977
-307.57126 678.44379 3120.5442 3621441
-290.30765 683.83234 3145.3289 3555648
-270.99805 684.83521 3149.9417 3621185
-251.23537 684.76074 3149.5991 3555391
-229.79259 679.70404 3126.3406 3489598
-208.86485 675.37036 3106.4075 3161403
-189.97179 677.40118 3115.7485 3621697
-169.56943 673.89905 3099.6401 3687490
-151.08466 678.09741 3118.9509 3358781
-131.03093 675.45538 3106.7986 3358525
-111.97269 677.91833 3118.1272 3226682
-93.130287 683.00537 3141.5251 3358268
-73.840225 686.65594 3158.3164 3226682
-54.052395 686.65594 3158.3164 3226682
-34.398014 689.33026 3170.6169 3358269
-14.533118 689.33026 3170.6169 3358268
5.3652158 693.65302 3190.4998 3424062
25.645859 701.61896 3227.1394 3621184
45.556469 696.90088 3205.4385 3556160
65.704422 697.58978 3208.6072 3885126
86.384239 702.27979 3230.1792 3819076
107.66916 709.17493 3261.8938 3753283
128.33934 710.46704 3267.8369 3687490
148.81335 710.46704 3267.8369 3687490
169.2308 710.22974 3266.7454 3424318
184.41605 690.45416 3175.7864 3161146
204.31334 690.45416 3175.7864 3687490
227.89842 701.81073 3228.0215 3819076
248.36292 702.48932 3231.1428 3687490
264.7482 692.39734 3184.7241 3884869
283.73755 690.05298 3173.9412 3621697
302.51895 687.54321 3162.3972 3555904
321.61874 686.02112 3155.3962 3950662
341.22607 685.69507 3153.8967 4016455
363.29672 690.08392 3174.0835 3884869
376.30637 677.69904 3117.1184 4082248
396.38034 678.6308 3121.4043 4148041
418.17813 682.28748 3138.2234 3621697
437.84003 682.28748 3138.2234 3555904
454.26862 677.46545 3116.0442 3950662
473.67868 677.30402 3115.3015 4147528
491.94559 675.58551 3107.397 4213321
511.68704 675.94562 3109.0535 4147271
538.21149 684.91119 3150.2913 4213320
560.39722 687.9165 3164.1143 4542286
572.68994 678.98712 3123.0432 4213064
592.25684 678.98712 3123.0432 3884613
616.45813 684.13037 3146.6997 3884356
635.57251 683.4845 3143.729 3950406
644.23718 671.97766 3090.8025 4015942
667.95532 676.38586 3111.0786 3489598
698.51562 687.27625 3161.1694 3423805
711.55829 680.80554 3131.407 3555391
721.82764 672.09979 3091.3643 3423805
756.02374 685.54517 3153.2073 3029047
776.99634 686.62048 3158.1531 3094840
803.67682 692.56104 3185.4771 3555391
818.67432 688.38989 3166.2917 3687234
830.26031 681.61548 3135.1323 3423805
862.28864 691.54871 3180.821 2963254
869.66675 681.71051 3135.5696 3094840
889.31201 681.71051 3135.5696 3358012
913.72394 685.2854 3152.0125 3555391
933.59192 685.37323 3152.4165 3489598
950.0741 683.02332 3141.6079 3094840
969.7572 683.02332 3141.6079 3358012
1002.2365 691.85663 3182.2373 3226426
1026.7974 694.98584 3196.6304 3226426
1048.1328 695.85394 3200.623 3423805
1058.8182 689.75165 3172.5552 3423805
1080.9851 691.21582 3179.2896 3094840
1100.9043 691.21582 3179.2896 3160633
1121.1836 691.43787 3180.311 3358012
1141.1093 691.43787 3180.311 3423805
1168.293 695.76031 3200.1924 3686977
1181.366 691.67523 3181.4028 3752770
1201.2985 691.67523 3181.4028 3818563
1220.8075 691.43542 3180.2998 3818819
1254.1174 698.89429 3214.6072 3884612
1260.394 691.29028 3179.6323 4213577
1282.2179 692.3175 3184.3569 4213577
1301.6836 692.05945 3183.1702 4082248
1319.8821 691.14581 3178.9675 3555905
1312.9186 677.27911 3115.187 3818563
1362.5325 692.57703 3185.5508 4015942
1384.061 693.36365 3189.1687 3950149
1397.4799 690.12292 3174.2629 4344907
1410.2841 686.67389 3158.3989 3489598
1434.9397 689.01105 3169.1487 3423805
1449.062 686.29565 3156.6592 3423805
1470.434 687.04071 3160.0859 3358012
1486.1775 685.17102 3151.4861 3358012
1505.7562 685.09534 3151.1382 3423805
1528.9906 686.66333 3158.3503 2963254
1548.2812 686.44281 3157.3362 2831668
1569.2606 686.96716 3159.7478 3160377
1585.8362 685.57458 3153.3425 3028788
1601.1421 683.67413 3144.6013 3094581
1619.371 683.0528 3141.7434 3094581
1637.6487 682.4668 3139.0479 3160374
1657.3157 682.4668 3139.0479 2962995
1663.0812 676.80927 3113.0259 2765616
1705.4254 685.99658 3155.2837 2897202
1734.8246 689.82599 3172.897 2764846
1731.0939 680.54425 3130.2051 3226167
1753.2799 681.54492 3134.8079 3291961
1776.9436 683.09149 3141.9214 2699824
1823.9006 693.46051 3189.6143 2436653
1846.0087 694.25934 3193.2886 2568238
1873.7568 697.13953 3206.5361 2700080
1884.2411 693.60358 3190.2725 2897203
1916.474 698.06366 3210.7869 3094581
1948.849 702.48236 3231.1108 3160376
1971.1637 703.22113 3234.5088 3160376
2000.0134 706.2525 3248.4519 3160376
2015.0964 704.41046 3239.9792 3160376
2038.3138 705.42035 3244.6243 3160376
2071.5205 709.83319 3264.9214 3226169
2044.3723 693.68054 3190.6262 3489341
2072.2798 696.341 3202.8633 3094583
2103.8733 700.177 3220.5073 3028790
2159.134 711.74188 3273.7007 2897461
2171.147 708.96716 3260.938 3028790
2185.7874 707.09393 3252.322 3160376
2206.1643 707.09393 3252.322 3357755
2243.1243 712.36041 3276.5454 3686720
2261.4089 711.65417 3273.2971 3818306
2258.9314 704.48566 3240.3252 3950149
2244.5991 693.78076 3191.0874 3620927
2325.5757 712.46362 3277.0203 3357755
2332.7126 708.396 3258.3108 3291962
2343.1335 705.38751 3244.4731 3291962
2318.7246 692.03558 3183.0603 3357755
2311.8064 684.08716 3146.501 3818306
2372.0293 695.97284 3201.1699 3555134
2447.9775 712.23456 3275.9666 3686720
2433.6177 702.16919 3229.6704 3752513
2454.7966 702.43945 3230.9133 3423548
2487.5564 705.99188 3247.2529 3094583
2517.7866 708.7746 3260.0525 3094583
2545.4207 710.7876 3269.3113 3094583
2568.3401 711.46246 3272.4155 3094583
2595.2266 713.2168 3280.4846 3028790
2631.9097 717.61481 3300.7134 2962997
2654.155 718.03827 3302.6614 2897204
2664.8 715.34119 3290.2559 2765618
2685.4146 715.34119 3290.2559 2765618
2734.2429 722.79956 3324.561 2502446
2727.3403 715.52405 3291.0969 2568239
2746.5872 715.16656 3289.4526 2831411
2761.3096 713.64508 3282.4543 2765618
2780.8943 713.39349 3281.2971 2699825
2770.0984 705.409 3244.5723 2765618
2799.6343 707.73669 3255.2786 2897461
2819.8464 707.69073 3255.0671 2962997
2837.8977 707.10699 3252.3821 2897204
2839.0933 702.36169 3230.5557 2897204
2850.7505 700.2533 3220.8582 2897204
2862.4568 698.18658 3211.3521 2962997
2873.3311 695.94714 3201.0518 3291962
2893.3867 695.94714 3201.0518 3094583
2925.7083 698.87714 3214.5283 3028790
2945.832 698.87329 3214.5107 3094583
2961.48 697.81482 3209.6423 3094583
2981.5891 697.81482 3209.6423 3094583
2991.1665 695.36639 3198.3806 2962997
3010.7402 695.25897 3197.8865 2897204
3034.6941 696.15778 3202.0205 2897204
3048.1511 694.65265 3195.0977 2897204
3058.7898 692.52905 3185.3301 2831411
3064.8044 689.39288 3170.905 2765875
3096.312 691.99451 3182.8711 2962997
3128.7385 694.76685 3195.6228 3225143
3150.3928 695.12714 3197.28 3225400
3189.1453 699.23163 3216.1589 3159607
3209.6804 699.31549 3216.5447 2896435
3243.895 702.36017 3230.5488 2699057
3264.1353 702.36017 3230.5488 2699056
3267.5166 698.75488 3213.9661 2830643
3288.5618 698.948 3214.8545 2896180
nan nan nan 16777215
nan nan nan 16777215
nan nan nan 16777215
nan nan nan 16777215
nan nan nan 16777215
nan nan nan 16777215
nan nan nan 16777215
nan nan nan 16777215
-2834.6958 684.93298 3062.6013 3752513
-2748.949 668.74115 2990.2014 3818306
-2723.9424 667.20496 2983.3323 3884099
-2700.4827 666.02887 2978.0737 3884099
-2673.4878 663.95856 2968.8167 3884099
-2654.231 663.79443 2968.0828 3818306
-2626.4204 661.47369 2957.7058 4081478
-2599.6697 659.38885 2948.3835 4213064
-2574.8105 657.75732 2941.0884 4147271
-2557.6121 658.07336 2942.5015 4081735
-2555.0359 662.18365 2960.8804 4015685
-2536.4851 662.18365 2960.8804 4015685
-2510.1643 660.14032 2951.7437 4015942
-2463.1438 652.5824 2917.9492 4015942
-2423.3184 646.83203 2892.2371 4015942
-2415.2109 649.52484 2904.2778 3884613
-2416.3352 654.76025 2927.6873 4081992
-2404.002 656.40106 2935.0239 4345164
-2417.8215 665.26324 2974.6501 4608336
-2403.2844 666.40009 2979.7336 4608336
-2396.2275 669.64514 2994.2437 4411726
-2397.1165 675.1795 3018.9897 4345933
-2417.4111 686.31128 3068.7642 4345934
-2374.2654 679.46613 3038.157 4280141
-2360.7786 681.06677 3045.314 4608592
-2341.3696 680.97107 3044.886 4542799
-2335.0322 684.70679 3061.5898 4148041
-2311.5813 683.44452 3055.9458 4082248
-2286.1768 681.57886 3047.6035 4016455
-2311.6484 694.97717 3107.5127 4148041
-2294.5107 695.68408 3110.6738 4279627
-2238.1838 684.41949 3060.3052 4213834
-2220.4683 684.8692 3062.3162 4082248
-2182.646 679.07123 3036.3911 3753283
-2162.6082 678.75287 3034.9678 3555904
-2140.3271 677.71881 3030.344 3621697
-2119.9473 677.27356 3028.353 3621697
-2096.8567 675.94635 3022.4187 3687490
-2075.7461 675.23914 3019.2563 3884869
-2079.4045 682.65021 3052.3943 4148041
-2049.6172 679.11719 3036.5967 4016455
-2031.2701 679.34399 3037.6106 4082248
-2012.2386 679.34399 3037.6106 4016455
-1996.604 680.50177 3042.7876 3819076
-1973.7472 679.19659 3036.9517 3819076
-1943.5691 675.32214 3019.6274 3753283
-1916.2723 672.38251 3006.4832 3752770
-1897.4357 672.38251 3006.4832 3555648
-1885.8546 674.97937 3018.0947 3226682
-1891.4928 683.85431 3057.7781 3226426
-1843.161 673.19879 3010.1333 3358012
-1829.1711 674.99579 3018.1682 3555391
-1825.0087 680.49451 3042.7554 3489855
-1805.8503 680.45892 3042.5962 3686977
-1785.6813 680.03766 3040.7124 3621184
-1771.4407 681.88934 3048.9922 3621184
-1749.9487 680.95972 3044.8352 3358012
-1770.5244 696.55981 3114.5894 3621184
-1751.0106 696.55981 3114.5894 3818820
-1698.6383 683.34125 3055.4841 3818820
-1675.1898 681.58972 3047.6523 3884356
-1657.0737 681.99237 3049.4529 3818820
-1637.968 681.99237 3049.4529 3752770
-1614.3943 680.11017 3041.0366 3686977
-1598.4475 681.43439 3046.9578 3686977
-1593.7456 687.6424 3074.7161 3884356
-1569.6566 685.53516 3065.2937 3358012
-1563.5334 691.31934 3091.157 3292219
-1534.5886 687.03131 3071.9839 3358012
-1497.5942 678.98492 3036.0054 3555648
-1481.1409 680.16431 3041.2786 3489598
-1461.428 679.85803 3039.9092 3423805
-1440.9082 679.16333 3036.803 3752770
-1421.3557 678.91211 3035.6797 4015942
-1410.1442 682.69208 3052.5815 4015942
-1397.2646 685.75757 3066.2883 3950662
-1377.3173 685.39124 3064.6501 3950662
-1358.1163 685.39124 3064.6501 3884869
-1342.0811 687.01184 3071.8965 3687490
-1334.798 693.22491 3099.6777 4148041
-1312.3976 691.65436 3092.6553 4279627
-1295.0011 692.7135 3097.3911 4213834
-1275.595 692.7135 3097.3911 4345420
-1269.5375 700.07452 3130.3049 4148041
-1255.9309 703.43823 3145.3455 4213834
-1263.2698 718.8277 3214.1577 4542799
-1247.566 721.3916 3225.6218 4608849
-1207.0437 709.45251 3172.2375 4017482
-1200.3529 717.33142 3207.4673 3951432
-1192.0985 724.52832 3239.6475 4149068
-1172.5767 725.00787 3241.7917 4345163
-1146.9795 721.6817 3226.9192 4279627
-1118.7815 716.57037 3204.0645 4148041
-1097.9266 716.06134 3201.7883 4016712
-1068.3618 709.74707 3173.5547 3818820
-1039.1799 703.45264 3145.4099 3555904
-1018.2953 702.64001 3141.7764 3687233
-998.14062 702.30902 3140.2964 3818820
-985.43762 707.31323 3162.6721 4015942
-965.6225 707.31323 3162.6721 4213321
-934.20416 698.6358 3123.8721 4015942
-910.55963 695.52502 3109.9626 3884612
-891.15771 695.5899 3110.2524 3884355
-862.85675 688.55615 3078.8018 3752512
-837.25305 683.40234 3055.7571 3423547
-820.36414 685.28711 3064.1848 3225911
-799.97766 684.27063 3059.6396 4147269
-783.33386 686.48413 3069.5371 4015683
-766.26282 688.42523 3078.2163 3620925
-741.8866 683.73395 3057.24 3620925
-722.73199 683.73395 3057.24 3818303
-704.13965 684.28027 3059.6829 3686719
-684.98712 684.29761 3059.7603 3489341
-664.00421 682.43475 3051.4307 3489342
-646.49127 684.13342 3059.0261 3620927
-628.40948 685.31549 3064.3118 3620670
-613.38739 690.01404 3085.3208 3884099
-595.53674 691.73303 3093.0068 3884099
-567.40619 681.2254 3046.0232 3752770
-549.26501 682.39709 3051.2625 3358012
-532.69427 685.6748 3065.9182 3555134
-519.56702 693.79584 3102.2307 3555134
-496.60321 688.90253 3080.3508 3686720
-477.7504 689.54706 3083.2327 3621183
-458.36481 689.44452 3082.7742 3818306
-438.73251 688.94556 3080.543 3686977
-420.43311 690.59003 3087.896 3489598
-401.08649 690.59003 3087.896 3752770
-381.60855 690.35248 3086.834 3621184
-362.16602 690.15704 3085.9602 3555391
-343.20026 690.89929 3089.2791 3489598
-322.68808 688.43121 3078.2434 3686977
-304.36343 690.61292 3087.9983 3687234
-283.64471 687.28979 3073.1394 3424318
-263.75275 685.63184 3065.7261 3489854
-244.8351 686.44507 3069.3625 3489598
-225.26056 685.39825 3064.6819 3094840
-205.11368 682.25275 3050.6169 3028791
-184.47913 676.67194 3025.6628 3094840
-165.77991 677.72455 3030.3696 3160633
-147.89172 682.79395 3053.0369 3029047
-129.52885 686.85236 3071.1836 2831668
-108.79597 677.56683 3029.6643 3226426
-90.086891 679.62415 3038.8635 3489598
-71.58683 684.78351 3061.9331 3292219
-52.80658 690.05908 3085.5222 3029047
-33.377842 688.05988 3076.583 2831668
-14.150448 690.41913 3087.1318 3358012
5.2044301 692.15332 3094.8865 3358012
24.726273 695.85181 3111.4236 3226426
44.376472 698.3092 3122.4116 3424575
63.948479 698.40894 3122.8574 3555904
83.722862 700.1543 3130.6619 3621697
103.38961 700.50787 3132.2427 3490111
123.33471 702.33374 3140.4067 3621697
143.08844 702.71729 3142.1218 3555904
162.91493 703.3222 3144.8267 3621440
182.62233 703.33795 3144.897 3621696
202.12677 702.64508 3141.7991 3489854
221.46033 701.53394 3136.8306 3555904
240.82744 700.70142 3133.1082 3556160
260.54474 700.93658 3134.1594 3687490
280.02557 700.54718 3132.4185 3555904
299.65112 700.54718 3132.4185 3753540
318.89999 699.72064 3128.7227 4016455
336.76987 696.13922 3112.7087 3555904
356.27194 696.13922 3112.7087 3226939
375.10507 694.8999 3107.1675 4477006
394.57245 694.8999 3107.1675 4608592
413.66675 694.27386 3104.3679 3753283
429.97659 689.24054 3081.8621 3687490
450.37668 690.91467 3089.3477 3753283
470.76093 692.42743 3096.1118 4279370
489.40506 691.3623 3091.3494 4542543
506.5441 688.33313 3077.8047 4279628
529.17963 692.72119 3097.4255 3950663
560.39722 707.63574 3164.1143 4148042
571.19635 696.62885 3114.8979 4279628
586.06256 691.14557 3090.3804 4147528
599.05237 683.87091 3057.8523 3489598
619.47186 685.26599 3064.0903 3818820
638.72113 685.32159 3064.3389 3621184
658.53955 685.96674 3067.2236 3489598
678.72748 686.94934 3071.6172 3489598
697.81323 686.79291 3070.9177 3489598
712.34229 682.28058 3050.7415 3358012
733.46429 684.15375 3059.1169 3423805
763.55042 694.08002 3103.5012 3292219
789.46686 699.81708 3129.1541 3489598
797.90332 690.15662 3085.9583 3489598
820.34381 692.7796 3097.6868 3423805
850.34052 701.51514 3136.7466 3358269
855.89374 690.14618 3085.9114 3423805
876.98529 691.53186 3092.1077 3818563
894.16205 689.8374 3084.531 3818563
916.97003 692.46722 3096.29 3555391
930.2644 687.95264 3076.1033 3292219
954.4837 691.53644 3092.1279 3423805
978.86359 695.09174 3108.0249 3358012
997.54858 694.54327 3105.5728 3423805
1016.6655 694.31073 3104.533 3555391
1032.6392 691.98077 3094.1145 3621184
1052.4209 692.24127 3095.2795 3555391
1076.2723 695.12091 3108.1555 3489598
1095.8374 695.17889 3108.4148 3292219
1116.3884 695.84949 3111.4131 3292219
1138.7448 697.60297 3119.2539 3226426
1158.2878 697.60297 3119.2539 3358012
1167.9244 691.73553 3093.0183 3423805
1187.7732 692.0094 3094.2429 3555391
1207.1597 692.0094 3094.2429 3818563
1220.0703 688.3559 3077.9065 3884356
1240.0964 688.76807 3079.7495 4147528
1259.3921 688.76807 3079.7495 4344907
1283.0986 691.1441 3090.3735 4081735
1298.2498 688.90955 3080.3821 4015942
1317.5494 688.90955 3080.3821 4015942
1338.2091 689.61041 3083.5161 4213321
1390.863 706.54419 3159.2334 4016199
1389.1849 695.78986 3111.1467 3489598
1404.8623 693.90558 3102.7212 3489855
1409.996 686.93591 3071.5571 3358012
1422.6267 683.7572 3057.344 3423805
1440.4071 683.10522 3054.4287 3489598
1450.7096 678.97046 3035.9407 3358012
1487.1819 687.03235 3071.9885 2897461
1505.925 686.80261 3070.9612 2831668
1523.5745 686.08612 3067.7576 2962998
1539.9471 684.8197 3062.0947 3094581
1552.8907 682.07825 3049.8367 3357753
1604.3795 696.12793 3112.6584 3423546
1592.8242 682.81433 3053.1282 3160374
1603.4049 679.19348 3036.9377 3160374
1629.9568 682.34338 3051.0222 3291960
1670.8079 691.33698 3091.2361 3423546
1687.5435 690.26044 3086.4224 3423546
1693.5253 684.85944 3062.2725 3357753
1712.7112 684.85944 3062.2725 3226167
1743.6827 689.5199 3083.1111 2831409
1764.1412 689.96637 3085.1077 2897458
1794.1619 694.10254 3103.6021 3028789
1808.3643 692.09613 3094.6306 3028788
1832.5337 693.90631 3102.7246 2962996
1852.2188 693.99829 3103.136 2831410
1872.5469 694.32684 3104.605 3094583
1897.0231 696.17096 3112.8506 2962997
1914.6605 695.49329 3109.8206 2962997
1933.6141 695.30261 3108.9678 3094583
1959.7914 697.68726 3119.6306 3028790
1979.4674 697.73328 3119.8364 3094583
1997.7479 697.29132 3117.8604 3226169
2000.8041 691.59552 3092.3921 3094583
2036.6305 697.2276 3117.5752 2962997
2078.4238 704.77606 3151.3274 2962997
2095.2441 703.79401 3146.9363 2700082
2095.9805 697.47791 3118.6946 2699825
2145.5339 707.37335 3162.9409 3226169
2165.3506 707.37335 3162.9409 3423548
2185.6775 707.53845 3163.6792 3357755
2213.5979 710.13666 3175.2966 3423548
2229.3662 708.82489 3169.4312 3423548
2239.2449 705.68005 3155.3696 3226169
2252.217 703.55676 3145.8755 3226169
2270.2551 703.03906 3143.5605 3160376
2288.8696 702.70721 3142.0769 3226169
2307.0522 702.24951 3140.0303 3357755
2338.7253 705.87134 3156.2246 3555134
2392.9429 716.17969 3202.3174 3949892
2413.0063 716.17969 3202.3174 4542029
2404.7888 707.8551 3165.095 3752513
2386.1414 696.62164 3114.866 3094583
2416.6895 699.81641 3129.1509 3160376
2440.533 701.03387 3134.5947 3160376
2467.3425 703.07709 3143.7307 3226169
2493.1736 704.81128 3151.4851 3226169
2512.9285 704.81415 3151.4976 3160376
2533.1602 704.94952 3152.103 2962997
2563.6951 707.92786 3165.4204 3094583
2584.1384 708.09534 3166.1692 3094583
2603.0352 707.83966 3165.0259 3160376
2632.0137 710.30859 3176.0657 3094583
2651.9126 710.30859 3176.0657 2897204
2647.2253 703.77222 3146.8389 2831411
2674.4685 705.75861 3155.7207 2765875
2687.4968 703.99219 3147.8223 2897204
2695.6582 700.9859 3134.3804 2831411
2707.2004 698.89594 3125.0349 2765618
2730.9319 699.96008 3129.7935 2765618
2752.6287 700.49139 3132.1689 3028790
2765.3083 698.73676 3124.3232 2962997
2771.5525 695.39203 3109.3677 3094583
2801.9792 698.11914 3121.5618 3028790
2821.5369 698.11914 3121.5618 3226169
2830.3918 695.48932 3109.8027 3226169
2842.9563 693.80066 3102.2522 3226169
2850.4382 690.90308 3089.2959 3226169
2876.9353 692.62238 3096.9836 3160376
2894.7126 692.23352 3095.2449 3160376
2907.4932 690.66284 3088.2217 3160376
2929.2356 691.22766 3090.7473 3094583
2942.2847 689.74725 3084.1277 3094583
2967.2122 691.05243 3089.9639 3160376
2985.4263 690.78741 3088.7788 3094583
2994.0078 688.31128 3077.707 3094839
3007.8394 687.06604 3072.1392 3159608
3027.0872 687.06604 3072.1392 3093559
3041.6516 686.00977 3067.416 3027767
3064.6062 686.84711 3071.1602 3027510
3085.5466 687.22546 3072.8518 2962229
3116.0127 689.70752 3083.9502 2962229
3135.3345 689.70752 3083.9502 2961973
3172.3142 693.56805 3101.2122 3027766
nan nan nan 16777215
