# .PCD v0.7 - Point Cloud Data file format
VERSION 0.7
FIELDS x y z rgb
SIZE 4 4 4 4
TYPE F F F U
COUNT 1 1 1 1
WIDTH 1264
HEIGHT 1
VIEWPOINT 0 0 0 1 0 0 0
POINTS 1264
DATA ascii
-1937.6157 764.5813 4929.9067 3885126
-1903.2095 763.17035 4920.8091 3753540
-1873.9581 763.81396 4924.959 3819076
-1862.7479 771.95569 4977.4556 3819076
-1816.8738 765.76471 4937.5371 3819076
-1747.2313 749.16797 4830.5239 3621697
-1679.535 732.83539 4725.2139 3555904
-1646.3882 731.26227 4715.0703 3687490
-1625.4648 735.15991 4740.2021 3687490
-1580.0024 727.89783 4693.377 3621697
-1550.597 727.89783 4693.377 3490111
-1526.9702 730.66296 4711.2061 3424318
-1472.4518 718.46387 4632.5483 3950662
-1422.3693 707.98224 4564.9644 4871764
-1258.1941 639.11554 4120.9224 5332314
nan nan nan 16777215
-1225.6705 649.24042 4186.2056 3227195
-1274.4888 689.86169 4448.126 3424574
-1168.1475 646.43616 4168.1245 3621697
-1071.0355 606.24884 3909.0027 3753539
-1028.2343 595.64203 3840.6111 3687490
-1021.2751 605.78729 3906.0264 3292732
-1071.623 651.25793 4199.2144 3819077
-1045.3137 651.25793 4199.2144 4279627
-999.64734 638.88666 4119.4463 4477008
-999.18884 655.51825 4226.6841 4148042
-953.5564 642.61224 4143.4683 2963768
-923.46667 639.75128 4125.0215 3950662
-905.63385 645.46143 4161.8394 4344907
-872.61359 640.36475 4128.9771 4345676
-833.11365 630.05646 4062.5105 4016455
-823.39917 642.33398 4141.6743 2832183
-800.76947 645.00751 4158.9126 3621699
-775.27368 645.47467 4161.9248 4411214
-748.00671 644.44836 4155.3071 4279372
-715.33173 638.52075 4117.0869 4674644
-691.87158 640.68274 4131.0269 3227455
-661.03918 635.92059 4100.3213 3227455
-635.34943 635.92059 4100.3213 4674901
-611.91827 638.27649 4115.5122 4806488
-586.13336 638.27649 4115.5122 4740696
-564.5813 643.09808 4146.6011 2767422
-540.07898 644.86218 4157.9756 3490630
-540.79956 678.44788 4374.5312 4675160
-516.73511 682.86609 4403.019 4938074
-486.91547 679.74829 4382.916 4346193
-464.95486 687.88495 4435.3799 3820362
-460.90469 725.23822 4676.2285 4149069
-442.56775 743.65637 4794.9858 4148557
-412.81238 744.17322 4798.3184 4082765
-387.88403 754.15631 4862.688 4016456
-359.69171 758.95435 4893.625 3950920
-332.80905 767.66754 4949.8062 4016713
-304.52936 774.61774 4994.6201 4016713
-275.0683 779.81079 5028.104 4016713
-244.20204 781.84814 5041.2407 4148298
-212.79419 782.49933 5045.4395 4082504
-181.73347 784.87701 5060.7705 4214091
-150.09749 785.25012 5063.1763 4082505
-119.12434 790.22009 5095.2217 4016712
-87.860687 796.19647 5133.7563 4345421
-55.684536 796.03088 5132.689 4279886
-23.488037 794.72467 5124.2666 4346191
8.6265373 795.59674 5129.8896 4477777
40.914303 798.47369 5148.4399 4346191
72.787086 794.28558 5121.4355 4214349
105.07031 795.76886 5130.9995 4148556
137.21762 795.76886 5130.9995 4213835
168.32471 790.88141 5099.4858 4148298
200.27457 790.88141 5099.4858 4082505
229.80284 782.63422 5046.3091 4016712
261.41953 782.63422 5046.3091 3688003
293.37918 783.55023 5052.2153 3819076
325.0329 783.55023 5052.2153 3621697
358.06119 786.56982 5071.6855 3753283
380.35678 767.44202 4948.3521 3753283
415.09647 774.41333 4993.3022 3621697
445.32489 772.58093 4981.4873 3555904
474.29562 768.94971 4958.0732 3358525
505.7579 769.55597 4961.9824 3292732
533.625 764.93829 4932.2085 3226939
563.98383 764.20258 4927.4648 3095354
596.00073 765.67334 4936.9478 3095355
626.98267 765.73486 4937.3447 2963514
668.95276 778.57947 5020.165 2766392
713.01221 792.59314 5110.5229 2831931
755.93994 804.1983 5185.3511 2831931
779.02814 794.6106 5123.5312 3029054
810.57532 794.06854 5120.0361 2765885
842.65393 794.06854 5120.0361 2502713
883.01801 801.58997 5168.5332 2568505
901.17462 789.13275 5088.2109 2041907
937.87848 793.2132 5114.521 2041907
968.23346 791.83191 5105.6147 2239542
998.89594 790.78235 5098.8472 1910320
1038.5986 796.73273 5137.2144 1778990
1076.0052 800.61707 5162.2598 1713452
1099.9734 794.56738 5123.2524 1713195
1129.1899 792.54443 5110.209 1910829
1171.0411 799.25635 5153.4863 2502965
1185.6969 787.54492 5077.9727 3226429
1200.2192 776.35907 5005.8481 3160894
1210.5699 763.11334 4920.4414 3029307
1241.6377 763.26068 4921.3916 2963510
1298.6586 778.9682 5022.6714 3095096
1341.9156 785.87195 5067.1855 3095097
1379.0219 788.93768 5086.9531 3226682
1422.5751 795.46991 5129.0718 3226426
1469.7059 803.6698 5181.9438 3160890
1507.9495 806.76062 5201.8726 2963510
1536.2684 804.52325 5187.4463 2831924
1575.308 807.87646 5209.0674 2700338
1609.5087 808.66235 5214.1348 3029047
1651.0576 813.03552 5242.3325 3029047
1685.9636 814.03076 5248.7495 2963254
1742.2927 825.13361 5320.3389 3094840
1775.0789 824.87921 5318.6987 3029048
1810.8723 826.00598 5325.9639 3160633
1851.5298 829.27045 5347.0127 3029048
1886.9939 830.13434 5352.5825 3160633
1926.9839 832.92407 5370.5708 3226426
1957.6387 831.6524 5362.3711 3226426
2007.3033 838.36322 5405.6411 3094584
2057.3826 845.02148 5448.5732 2963254
2094.3647 846.17102 5455.9854 2963254
2115.8401 841.11908 5423.4111 2963254
2144.5813 839.06976 5410.1973 3094840
2150.2751 828.20709 5340.1562 2963511
2167.803 822.16541 5301.2007 2831668
2166.9519 809.44092 5219.1548 3094840
2210.4492 813.41437 5244.7749 3358012
2275.4529 825.0694 5319.9253 3292219
2287.8276 817.58051 5271.6377 3423805
2328.0359 820.1098 5287.9463 3358012
2346.053 814.86035 5254.0986 3358268
2367.2451 810.84375 5228.2002 3489597
2375.7415 802.64746 5175.3516 3555388
2406.6963 802.15741 5172.1919 3160630
2433.5808 800.34174 5160.4849 3028788
2460.7122 798.65381 5149.6011 3160374
2459.1482 787.81665 5079.7246 3423546
2465.7031 779.82428 5028.1909 3686204
2443.478 763.04602 4920.0073 3751741
2465.5752 760.35431 4902.6519 3883070
2427.1567 739.29626 4766.8726 3948607
2397.7834 721.47174 4651.9424 2829612
2399.3945 713.28619 4599.1636 2236962
2399.7913 704.93829 4545.3374 2368548
2412.9885 700.50232 4516.7349 2499877
2419.7439 694.32056 4476.876 2895149
2471.02 700.90894 4519.3569 3289650
2509.5725 703.77997 4537.8687 3619128
2603.0381 721.81378 4654.1479 3816506
2650.97 726.96155 4687.3403 3423032
2716.4043 736.74359 4750.4131 3554363
2787.4646 747.82288 4821.8511 3554364
2827.1902 750.34827 4838.1343 3423291
2891.408 759.2514 4895.5405 3291962
3001.7739 779.9585 5029.0566 3357755
3027.0183 778.34778 5018.6709 3357755
3060.3201 778.82068 5021.7202 3423805
3093.9739 779.37256 5025.2788 3621184
3233.2485 806.25134 5198.5889 3752770
3277.3982 809.10992 5217.0205 3752770
3308.2329 808.65729 5214.1021 3555391
3363.9272 814.23083 5250.0396 3358012
3423.5042 820.62695 5291.2808 3423805
3448.5417 818.70074 5278.8608 3292219
3487.0303 819.97406 5287.0708 3291962
3526.7795 821.51697 5297.0195 3291962
3557.7578 821.00732 5293.7329 3160376
3568.2629 815.82593 5260.3247 3226169
3602.8369 816.19214 5262.6855 3357755
3635.8091 816.19214 5262.6855 3160376
3657.2139 813.61865 5246.0923 3291962
3700.8086 815.9837 5261.3418 3160376
3733.7725 815.9837 5261.3418 3160376
3776.7568 818.15436 5275.3379 3094583
3818.8828 820.10309 5287.9028 3094583
3845.1958 818.65167 5278.5444 3226169
3876.9629 818.37634 5276.769 3160376
3909.7576 818.32056 5276.4097 3160376
3930.1052 815.68256 5259.3999 3160376
3966.0176 816.29193 5263.3291 3160376
4008.4033 818.21259 5275.7134 3357755
4059.2466 821.81421 5298.9355 3357755
4104.4072 824.216 5314.4224 3357755
4144.3916 825.54834 5323.0132 3291962
4178.041 825.6073 5323.3936 3291962
4224.0029 828.07935 5339.3325 3291962
4245.3882 825.73224 5324.1987 3357755
4276.0391 825.20984 5320.8306 3291962
4313.7783 826.05286 5326.2661 3094583
4360.7119 828.63013 5342.8838 3028790
4427.5396 834.91956 5383.4375 3160376
4462.1318 835.08118 5384.4795 3357755
4495.8677 835.08118 5384.4795 3226169
4550.2671 838.89087 5409.0439 3291962
4547.082 832.10638 5365.2983 3291962
4580.6973 832.10638 5365.2983 3357755
4643.1064 837.29877 5398.7783 3226169
4699.9199 841.41443 5425.3149 3291962
4732.252 841.11945 5423.4136 3226169
4776.4595 842.92444 5435.0518 3160376
4815.9565 843.87854 5441.2036 3226169
4900.2085 852.6062 5497.4785 3291962
4948.4961 854.99829 5512.9019 3357755
4996.0825 857.23669 5527.335 3489087
5038.6987 858.59753 5536.1094 3620673
5123.1025 867.01166 5590.3623 3620417
5161.5952 867.59448 5594.1201 3620417
5218.354 871.21893 5617.4907 3489087
5265.522 873.20447 5630.293 3423295
5335.644 878.94476 5667.3057 3489087
5379.3042 880.27887 5675.9072 3489088
5428.0806 882.42719 5689.7598 3357501
5489.6597 886.61523 5716.7632 3489087
5561.7319 892.43262 5754.2734 3489087
5605.4292 893.65149 5762.1323 3489087
5711.999 904.81409 5834.1069 3554880
5776.4629 909.20728 5862.4336 3489087
5838.1006 913.10297 5887.5522 3489087
5903.6816 917.56256 5916.3071 3357501
5993.4111 925.69641 5968.7529 3423294
6045.3535 927.9292 5983.1494 3423294
6090.4375 929.0882 5990.6226 3423294
6127.9707 929.0882 5990.6226 3554880
nan nan nan 16777215
nan nan nan 16777215
nan nan nan 16777215
nan nan nan 16777215
nan nan nan 16777215
nan nan nan 16777215
-4320.1128 742.90656 4605.0996 3094329
-4291.2603 742.90656 4605.0996 3160122
-4275.8125 745.24286 4619.582 3094329
-4257.4961 747.1076 4631.1411 3160375
-4241.188 749.35291 4645.0591 3094583
-4243.6416 754.96692 4679.8589 3160376
-4208.8413 753.98529 4673.7739 3094583
-4147.4033 748.18451 4637.8164 3160376
-4123.2437 749.07428 4643.332 3226169
-4141.7095 757.77557 4697.269 3489341
-4124.5352 760.03394 4711.2681 3555134
-4149.8672 770.21405 4774.3721 3686720
-4164.6113 778.56256 4826.1226 3686720
-4188.7554 788.80322 4889.6021 3752513
-4189.5591 794.76727 4926.5718 3949892
-4114.0562 786.23676 4873.6934 3884356
-4134.1685 795.9884 4934.1411 3884099
-4124.4731 800.10455 4959.6562 3621184
-4097.6743 800.94025 4964.8364 3752513
-4077.7527 803.14307 4978.4912 3620927
-4055.2717 804.87189 4989.208 3884099
-4043.3579 808.74127 5013.1934 4015942
-3967.4739 799.77588 4957.6191 4081478
-3912.2073 794.85797 4927.1338 3950149
-3874.8499 793.52948 4918.8989 3884613
-3855.5715 795.91168 4933.6655 3950149
-3805.9182 792.01141 4909.4888 3950149
-3760.4314 788.92163 4890.3359 3950406
-3729.792 788.92163 4890.3359 3950149
-3682.4963 785.36938 4868.3164 3818563
-3651.9949 785.36938 4868.3164 3752770
-3657.9368 793.27258 4917.3066 3752770
-3607.9102 789.06952 4891.2529 3884356
-3502.8083 772.646 4789.4473 3818563
-3472.1072 772.49158 4788.4902 3687747
-3381.2739 758.83948 4703.8638 3819076
-3305.0732 748.26007 4638.2847 3687490
-3237.3933 739.43909 4583.6055 3555904
-3166.4302 729.70361 4523.2578 3556162
-3112.9636 723.86078 4487.0396 3556418
-2978.4102 698.88446 4332.2173 3491139
-2817.4939 667.20575 4135.8486 3425345
-2732.5076 653.08673 4048.3281 3557445
-2659.249 641.53241 3976.7056 4281938
-2615.5173 636.95007 3948.3008 4743516
-2555.4697 628.26892 3894.4885 4875615
-2499.6594 620.47223 3846.1587 4810079
-2470.7803 619.27374 3838.7295 4612445
-2487.4412 629.578 3902.6033 4480601
-2473.5576 632.27917 3919.3472 4677464
-2441.0347 630.22235 3906.5969 4347730
-2440.1868 636.38434 3944.7939 4478803
-2499.2222 658.44946 4081.5706 4675155
-2515.5305 669.59753 4150.6743 4149068
-2565.2849 689.97424 4276.9849 3491138
-2559.365 695.64868 4312.1592 3227965
-2641.8909 725.74066 4498.6924 3292989
-2629.1917 730.04077 4525.3477 3490111
-2635.5166 739.77454 4585.6851 3621697
-2602.7322 738.62421 4578.5542 3687747
-2574.0461 738.62421 4578.5542 3950919
-2568.1663 745.24219 4619.5776 4016455
-2566.2959 753.18781 4668.8306 3884869
-2560.4099 760.12451 4711.8296 3753283
-2525.8174 758.60132 4702.3877 3621697
-2547.4761 774.13611 4798.6841 3555904
-2486.1497 764.52283 4739.0938 3819076
-2481.2151 772.22815 4786.8569 4082248
-2480.4958 781.44977 4844.02 4016455
-2467.8416 787.09338 4879.0034 3819076
-2441.2529 788.37872 4886.9707 3687490
-2405.718 786.77081 4877.0034 3621697
-2362.1797 782.47046 4850.3467 3621954
-2262.2742 759.14307 4705.7456 3555904
-2168.7852 737.3811 4570.8486 3950662
-2241.0984 772.16345 4786.4561 4082248
-2220.2476 775.35455 4806.2368 4016455
-2206.0979 781.0058 4841.2676 3884869
-2177.4402 781.60681 4844.9932 3884869
-2105.6658 766.52899 4751.5293 3687490
-2071.1321 764.76996 4740.6255 3621954
-2017.1438 755.67145 4684.2261 3621954
-1980.1794 752.77606 4666.2783 3753283
-1950.1302 752.46216 4664.3325 3819076
-1920.6196 752.34973 4663.6357 4082248
-1886.4392 750.37622 4651.4023 3819076
-1837.1425 742.23364 4600.9282 3819076
-1801.6085 739.48041 4583.8618 3687747
-1773.2539 739.63251 4584.8047 3884869
-1745.2051 739.91925 4586.582 3819076
-1725.2045 743.685 4609.9248 3753283
-1663.3198 729.21661 4520.2388 3687490
-1639.6376 731.28534 4533.0625 3490111
-1593.39 723.18542 4482.853 3490367
-1547.4836 714.95245 4431.8188 3819075
-1517.1251 713.73315 4424.2607 3621697
-1498.4806 718.08185 4451.2173 3753284
-1313.2057 641.23083 3974.8362 4477007
-1272.7642 633.49713 3926.8967 4937559
-1319.8292 669.87189 4152.3755 5003608
-1284.0129 664.79779 4120.9224 3819078
-1214.0533 641.47491 3976.3494 2371632
-1113.7765 600.82037 3724.3416 2305839
-1158.2358 638.17377 3955.8862 3489600
-1113.9448 627.1911 3887.8074 3686979
-1123.8468 646.91211 4010.053 3949895
-1085.0154 638.84149 3960.0254 2699828
-1028.2343 619.57733 3840.6111 2239533
-1021.2751 630.13025 3906.0264 3160635
-1003.5748 634.41132 3932.5635 3950151
-996.85089 646.02112 4004.5303 4608080
-968.58826 643.9118 3991.4548 4147273
-931.91895 635.9538 3942.125 2041897
-912.43591 639.6098 3964.7878 2765877
-890.56586 641.75049 3978.0571 4410702
-876.84491 650.05579 4029.54 4739410
-838.91864 640.37671 3969.5417 4674130
-809.21796 636.57697 3945.9878 2569010
-790.04523 641.08057 3973.9045 2306096
-765.14746 641.08057 3973.9045 4213323
-733.26196 635.02887 3936.3918 4674644
-700.33032 627.61847 3890.4565 4806230
-678.67004 630.13904 3906.0806 2897976
-654.40234 630.33661 3907.3054 1713961
-632.35785 632.77417 3922.4153 3359299
-614.28912 639.5481 3964.4055 4543573
-590.6167 640.81299 3972.2461 4675929
-541.60699 613.48914 3802.8721 4148559
-540.16766 640.0141 3967.2937 1582632
-515.2934 639.99176 3967.1555 3753801
-497.25995 648.89404 4022.3386 5003870
-477.24472 656.02277 4066.5276 5004123
-452.06778 656.46002 4069.2383 3688007
-447.22836 688.24725 4266.2798 3556421
-431.78445 706.71906 4380.7817 4016971
-415.28452 725.85266 4499.3867 3885641
-392.24915 735.51831 4559.3018 3885898
-369.32553 746.92847 4630.0303 3819847
-342.84155 752.46942 4664.3774 3753542
-314.93185 755.62238 4683.9219 3688005
-289.14319 765.03516 4742.2695 3819591
-259.22678 764.4317 4738.5288 3753798
-229.53839 764.4317 4738.5288 3885384
-203.38635 777.95813 4822.376 3950918
-173.90556 781.25061 4842.7852 4082505
-143.46548 780.71442 4839.4614 4148554
-113.70054 784.54938 4863.2334 3951432
-83.522491 787.29822 4880.2729 3819846
-52.946068 787.29822 4880.2729 3622468
-22.397087 788.26398 4886.2593 3754053
8.1391621 780.81189 4840.0654 3885639
38.640007 784.39142 4862.2544 3820359
68.783966 780.76398 4839.7686 3754310
97.912514 771.35687 4781.4561 3819846
126.27415 761.73114 4721.7886 3622211
158.3322 773.82526 4796.7573 3490625
189.39133 777.95746 4822.3716 3819589
219.95541 779.19885 4830.0669 3622467
248.06505 772.49658 4788.521 3556931
273.77563 760.57581 4714.627 3753540
307.01477 769.85504 4772.147 3687490
335.73965 767.1723 4755.5171 3621697
363.50726 762.91772 4729.144 3621697
390.49298 757.78705 4697.3403 3555904
417.49823 753.41089 4670.2134 3358781
446.14523 752.37659 4663.8022 3226939
476.45465 754.10059 4674.4888 3358525
503.91473 751.37628 4657.6016 3358525
527.64203 743.68909 4609.9502 3161146
561.21277 749.95361 4648.7827 3095355
590.49799 750.15582 4650.0361 3029562
623.55109 754.90057 4679.4478 3095355
650.92621 752.65387 4665.521 3095099
679.34723 751.75763 4659.9653 3029306
708.5379 751.75177 4659.9292 2963516
737.34088 751.35144 4657.4473 3160895
781.75305 766.2818 4749.9971 3226945
808.55792 763.49121 4732.6987 3292481
838.89154 764.11218 4736.5483 3292481
875.89252 770.55627 4776.4937 3029307
905.789 770.53101 4776.3369 2963771
910.9093 750.10492 4649.7207 3423808
948.08307 756.52191 4689.498 3555139
976.74023 755.96155 4686.0244 3358015
1006.8311 756.51111 4689.4312 3160892
1034.5341 755.28638 4681.8389 3226428
1045.5278 742.2663 4601.1309 3292220
1080.6456 746.6123 4628.0708 3226428
1108.3302 745.72974 4622.5996 3292218
1160.829 761.1629 4718.2661 3095352
1190.3903 761.1629 4718.2661 3161146
1227.4352 765.83197 4747.209 3226939
1260.5552 767.88922 4759.9614 3424318
1297.2062 771.95282 4785.1504 3490111
1333.1837 775.44092 4806.7725 3556160
1370.8802 779.75287 4833.501 3621697
1410.6978 785.05859 4866.3901 3490111
1447.4619 788.47656 4887.5771 3555903
1481.7816 790.4491 4899.8042 3358012
1516.089 792.3349 4911.4941 3358012
1548.6721 793.26263 4917.2446 3489598
1581.035 794.04352 4922.0854 3292219
1625.0242 800.52185 4962.2432 3094839
1655.3484 800.15173 4959.9487 2831667
1697.2911 805.30774 4991.9097 2831923
1730.321 806.12494 4996.9751 2897459
1764.6895 807.52551 5005.6572 2897459
1800.7561 809.64087 5018.7695 2897717
1840.1183 813.13977 5040.4585 3160633
1875.675 814.86749 5051.168 3094840
1909.4766 815.7879 5056.8735 3160633
1942.9203 816.52783 5061.4604 3160633
1970.5519 814.84076 5051.0024 3029047
1992.0127 810.69562 5025.3076 3029047
2029.6287 813.15192 5040.5337 2897461
2060.9995 813.06921 5040.021 2766132
2040.2391 792.7334 4913.9644 3358012
2119.7849 811.39673 5029.6538 3489598
2136.1501 805.68378 4994.2407 3489598
2136.5186 794.18939 4922.9897 3226426
2167.9392 794.40063 4924.2993 3226426
2210.1245 798.49518 4949.6802 3226425
2241.6045 798.66217 4950.7153 3358010
2277.7952 800.4801 4961.9844 3555132
2301.282 797.8446 4945.6475 3489338
2318.7725 793.22803 4917.0303 3094581
2348.292 792.79346 4914.3364 3028788
2369.7009 789.66742 4894.959 3423288
2345.354 771.56854 4782.7686 3488826
2339.4436 759.91516 4710.5317 3554106
2343.5342 751.76007 4659.9805 3553849
2350.2366 744.6333 4615.8032 3750458
2349.2388 735.26971 4557.7607 2697257
2371.3958 733.29108 4545.4956 2302242
2380.0776 727.242 4507.999 2433828
2398.6074 724.30859 4489.8154 2565414
2385.2607 711.92902 4413.0771 2828329
2421.3474 714.41846 4428.5088 2960685
2439.9634 711.75513 4411.9995 3619128
2468.2493 711.94073 4413.1499 3619387
2539.6235 724.4129 4490.4619 3488827
2604.0059 734.63916 4553.8521 3620156
2654.0427 740.64056 4591.0532 3488572
2690.8455 742.85968 4604.8091 3423291
2770.0774 756.62097 4690.1118 3423548
2831.2483 765.21185 4743.3647 3291962
2864.5742 766.17664 4749.3452 3423548
2904.4253 768.84894 4765.9102 3489598
2947.1099 772.20929 4786.7402 3489598
3031.5442 786.33105 4874.2778 3489598
3063.3069 786.64539 4876.2261 3621184
3084.5789 784.28613 4861.6016 3489598
3151.5508 793.479 4918.5859 3292219
3174.2935 791.46588 4906.1074 3292219
3204.2837 791.28119 4904.9624 3358012
3237.6287 791.92053 4908.9253 3226426
3289.7542 797.09833 4941.0215 3160633
3313.5127 795.37036 4930.3101 3094840
3346.7349 795.92505 4933.7485 3226426
3385.6284 797.80597 4945.4077 3357755
3425.1475 799.79895 4957.7617 3423548
3456.2097 799.79895 4957.7617 3423548
3493.4802 801.2229 4966.5884 2962997
3525.4387 801.41412 4967.7739 2831411
3567.4668 803.87103 4983.0039 2897204
3602.5835 804.74146 4988.3994 3423548
3631.8311 804.29712 4985.645 3423548
3669.1729 805.63763 4993.9546 3555134
3695.7471 804.61127 4987.5923 3489341
3712.4531 801.47168 4968.1309 3489341
3739.5737 800.61395 4962.814 3423548
3783.8389 803.41064 4980.1499 3291962
3822.8091 805.04645 4990.29 3423548
3815.7881 797.04913 4940.7163 3357755
3885.6399 805.10852 4990.6748 3291962
3920.1838 805.78186 4994.8486 3291962
3944.2637 804.31067 4985.729 3423548
3985.5635 806.34662 4998.3491 3423548
4015.845 806.13879 4997.061 3423548
4072.9124 811.26978 5028.8667 3226169
4102.5894 810.90796 5026.624 2962997
4126.6646 809.45282 5017.604 2962997
4165.1885 810.83246 5026.1562 2962997
4208.6055 813.13678 5040.4399 3028790
4247.4175 814.52374 5049.0371 3226169
4288.9023 816.3988 5060.6606 3226169
4330.0366 818.18024 5071.7031 3094583
4394.9233 824.39117 5110.2031 3094583
4448.2051 828.35114 5134.75 2897204
4463.1567 825.16754 5115.0156 2831411
4516.8511 829.14124 5139.6479 2765618
4487.7432 817.96661 5070.3789 2897204
4519.5107 817.96661 5070.3789 3357755
4636.9531 833.36432 5165.8257 3292218
4669.4819 833.39343 5166.0059 3357499
4723.7417 837.27393 5190.0601 3291962
4758.6963 837.70306 5192.7202 3357755
4820.668 842.84985 5224.624 3423549
4883.8364 848.13531 5257.3872 3291962
4919.562 848.61591 5260.3662 3094583
4979.4253 853.22614 5288.9443 3094583
5047.1865 859.11981 5325.4775 3225913
5086.772 860.17157 5331.9971 3160377
5130.7974 861.95544 5343.0552 3291706
5134.9478 857.06073 5312.7144 3291451
5225.5977 866.57367 5371.6821 3225915
5309.8403 874.909 5423.3511 3291708
5359.2544 877.4361 5439.0161 3423294
5440.481 885.10675 5486.5645 3489087
5482.8188 886.39404 5494.5444 3423294
5542.0479 890.37915 5519.2466 3357501
5609.4917 895.62622 5551.7725 3291708
5667.4536 899.3042 5574.5713 3225915
5731.5483 903.90417 5603.0854 3094329
nan nan nan 16777215
nan nan nan 16777215
nan nan nan 16777215
nan nan nan 16777215
nan nan nan 16777215
nan nan nan 16777215
-4142.5132 739.88568 4415.7847 3159866
-4115.2368 739.95569 4416.2026 3160377
-4091.0745 740.59045 4419.9912 3160376
-4076.1121 742.91077 4433.8389 3160376
-4061.366 745.30249 4448.1133 3226169
-4032.7913 745.17206 4447.335 3160376
-3965.8586 737.90271 4403.9502 3291962
-3958.407 741.67639 4426.4722 3291962
-3969.7996 749.05902 4470.5332 3423548
-3947.0762 750.06348 4476.5278 3489341
-3936.6702 753.43976 4496.6782 3555134
-3936.7844 758.8927 4529.2227 3686720
-3940.8887 765.19958 4566.8633 3686720
-3911.7295 765.09277 4566.2256 3686720
-3890.9956 766.64435 4575.4858 3555134
-3881.0452 770.35944 4597.6582 3489341
-3853.981 770.70776 4599.7368 3555134
-3828.7944 771.43951 4604.1045 3620927
-3808.6099 773.198 4614.5991 3489341
-3783.5703 773.99011 4619.3267 3555134
-3738.7424 770.71515 4599.7812 3489341
-3708.741 770.46954 4598.3154 3423548
-3679.6545 770.41168 4597.9702 3489341
-3626.9905 765.37738 4567.9243 3555134
-3585.1584 762.56708 4551.1519 3423805
-3549.5742 761.05127 4542.1055 3555391
-3519.3672 760.67316 4539.8486 3555391
-3492.0701 760.92297 4541.3398 3489598
-3456.7087 759.40527 4532.2817 3424061
-3419.9065 757.54327 4521.1689 3489854
-3385.7673 756.24487 4513.4199 3358012
-3367.6355 758.53027 4527.0596 3358012
-3322.562 754.73456 4504.4058 3358012
-3295.5015 755.00043 4505.9927 3358269
-3252.6675 751.6261 4485.854 3292732
-3209.665 748.15369 4465.1299 3621697
-3174.6064 746.4881 4455.1895 3621697
-3122.791 740.81775 4421.3477 3424318
-3052.1382 730.53723 4359.9912 3161660
-2960.1479 714.9176 4266.7705 3359296
-2886.0005 703.36194 4197.8037 4280144
-2815.0703 692.38495 4132.291 4741464
-2732.5076 678.31659 4048.3281 5136991
-2659.249 666.31586 3976.7056 5071456
-2620.5093 662.81915 3955.8364 4939614
-2591.0281 661.61987 3948.6792 4808026
-2529.6653 652.17798 3892.3279 4413267
-2480.751 645.79291 3854.2205 4018252
-2479.5515 651.82556 3890.2246 3689287
-2485.8625 659.97211 3938.8445 3492422
-2464.9021 660.96893 3944.7939 3030331
-2440.1868 660.96893 3944.7939 3030330
-2460.7219 673.35132 4018.6943 3491138
-2435.5435 673.35132 4018.6943 3293759
-2464.3188 688.42358 4108.6489 3359295
-2474.0549 698.43927 4168.4243 3490111
-2489.7212 710.3606 4239.5732 3753283
-2480.1646 715.26483 4268.8428 4016455
-2451.8088 714.79547 4266.0415 3950662
-2453.0217 723.03113 4315.1934 4082248
-2425.9856 723.03113 4315.1934 4016455
-2435.1133 733.9306 4380.2437 3884869
-2426.1089 739.55145 4413.79 3490368
-2424.8372 747.68616 4462.3398 3556161
-2408.9043 751.43738 4484.7275 3555904
-2400.1545 757.54419 4521.1743 3490368
-2333.907 745.4325 4448.8892 3950662
-2335.5188 754.96381 4505.7739 4016455
-2309.0032 755.52478 4509.1221 3950662
-2301.332 762.3421 4549.8091 3884869
-2281.7493 765.33508 4567.6719 3753283
-2257.7844 766.91559 4577.1045 3687747
-2230.3293 767.336 4579.6138 3621697
-2170.1697 756.36877 4514.1592 3555904
-2122.2483 749.43372 4472.7695 3819333
-2111.2798 755.53693 4509.1943 3884869
-2106.583 764.08044 4560.1841 3819076
-2084.7144 766.54486 4574.8921 3950662
-2040.4467 760.72705 4540.1704 3884869
-2003.3378 757.4516 4520.6216 3621697
-1966.5144 754.19153 4501.165 3687490
-1936.5884 753.52039 4497.1597 3687490
-1898.4929 749.60382 4473.7847 3884869
-1867.864 748.56219 4467.5679 3884869
-1835.7458 746.88287 4457.5454 3819076
-1792.4502 740.53387 4419.6533 3884869
-1756.9453 737.25476 4400.083 3819076
-1718.0526 732.42682 4371.269 3819076
-1692.1993 733.09143 4375.2354 3753283
-1666.0883 733.66443 4378.6553 3753540
-1660.4119 743.40564 4436.7925 3621697
-1561.2626 710.91595 4242.8877 3161145
-1541.1799 713.92719 4260.8594 3226938
-1515.3705 714.34497 4263.3525 3490370
-1498.1454 718.89691 4290.5195 3951178
-1401.9086 685.00812 4088.2646 4740694
-1331.0962 662.51215 3954.0039 5332831
-1281.1263 649.7334 3877.7378 5596003
-1251.3617 646.90594 3860.863 6056041
-1203.5961 634.47766 3786.689 3292734
-1201.7411 646.23822 3856.8782 2371888
-1158.11 635.55524 3793.1201 4213067
-1116.9424 625.80487 3734.928 4739667
-1104.6306 632.15063 3772.8008 4476495
-1081.4812 632.43628 3774.5054 3818565
-1060.5723 634.07404 3784.28 2042154
-1026.6906 627.85352 3747.1545 2634291
-1003.2134 627.85352 3747.1545 4081737
-985.78857 631.73206 3770.3025 4015944
-974.09528 639.56421 3817.0461 4081737
-959.2724 645.68414 3853.571 2897719
-917.69183 633.64441 3781.7158 1845032
-883.58453 626.26343 3737.6648 3358014
-865.13525 629.88074 3759.2534 4739924
-838.46436 627.54706 3745.3257 5003096
-814.99872 627.54706 3745.3257 5332061
-787.28876 624.18207 3725.2424 2766134
-768.59625 627.97906 3747.9041 2305583
-744.01855 627.05548 3742.3918 4673874
-735.44409 639.99811 3819.6357 5134425
-698.99402 628.73749 3752.4304 4739923
-668.41382 622.15674 3713.155 3358014
-650.69531 627.50464 3745.0723 1647909
-634.50385 634.7804 3788.4956 2240047
-624.92126 649.49036 3876.2876 4608337
-592.79712 641.01483 3825.7039 4674131
-570.47906 642.87549 3836.8088 4674132
-531.03577 624.7525 3728.647 3160893
-507.577 624.63226 3727.9294 1516838
-494.58206 637.99866 3807.7026 3950410
-473.24295 641.41046 3828.0652 4805718
-460.04205 656.80566 3919.9465 4542547
-435.86725 657.38611 3923.4109 3621701
-418.34882 668.67529 3990.7871 2964026
-410.29138 697.48309 4162.7178 3161404
-398.16675 722.81854 4313.9248 3555649
-373.00687 726.45697 4335.6396 3621698
-352.77158 741.01135 4422.5029 3555904
-328.28589 748.35767 4466.3472 3423804
-303.72803 756.89325 4517.2896 3226427
-274.26517 753.70367 4498.2534 2897461
-244.46664 748.75549 4468.7217 2765875
-213.17622 737.36694 4400.7524 3424574
-188.54404 749.04651 4470.4585 3621697
-162.3643 757.58087 4521.3931 3490367
-133.82988 756.41382 4514.4277 3555904
-105.51864 756.22058 4513.2749 3687490
-77.504471 758.79449 4528.6362 3424318
-49.230137 760.323 4537.7588 3424318
-20.930046 765.08893 4566.2026 3490368
7.5708389 754.34888 4502.104 2898231
36.286995 765.08234 4566.1636 3424062
65.049759 766.90186 4577.0229 3292475
93.525642 765.26062 4567.2275 3226939
121.22135 759.50024 4532.8486 3095353
150.26019 762.74469 4552.2119 3358525
177.7516 758.35193 4525.9951 3226939
206.10837 758.35193 4525.9951 3161402
235.05894 760.27264 4537.458 3556161
263.42923 760.10437 4536.4541 3555904
291.58688 759.41522 4532.3408 3555904
318.99155 757.06128 4518.292 3687490
346.14307 754.53918 4503.2397 3687490
372.5936 750.98438 4482.0239 3490111
400.271 750.22742 4477.5063 3424318
429.12549 751.63135 4485.8853 3490111
457.23099 751.63135 4485.8853 3490111
484.58194 750.46289 4478.9116 3226939
508.11417 743.83203 4439.3374 3226939
536.20197 744.21228 4441.6069 3226940
559.92737 738.79901 4409.2993 3358526
587.73169 739.0238 4410.6406 3358527
617.41345 741.48297 4425.3179 3424065
636.7959 731.89343 4368.0854 3555651
659.68481 726.95825 4338.6313 3555908
683.70276 723.60858 4318.6396 3556164
710.76038 723.60858 4318.6396 3490371
738.01801 723.80475 4319.8105 3292992
771.14642 729.54108 4354.0459 3490115
801.31958 732.18512 4369.8262 3489858
835.09692 737.83893 4403.5693 3292479
867.78577 742.20007 4429.5977 3292479
904.18256 749.36395 4472.353 3424065
925.34088 743.84753 4439.4302 3358272
957.01495 746.85974 4457.4072 3424321
984.94202 746.85974 4457.4072 3226941
1017.0183 749.91925 4475.667 3161148
1045.5054 750.23895 4477.5752 3161149
1073.5586 750.23895 4477.5752 3161146
1113.6533 758.43951 4526.5176 3161146
1146.0239 761.10303 4542.4141 3095353
1174.9364 761.39642 4544.165 3226939
1201.269 760.04376 4536.0923 3424318
1232.9851 762.08099 4548.251 3490111
1264.1576 763.69775 4557.8999 3358781
1284.1025 758.61023 4527.5366 3029817
1320.2153 763.08765 4554.2588 2964024
1376.5956 778.84235 4648.2861 3292732
1402.2031 776.89471 4636.6621 3358525
1437.3252 780.19061 4656.3325 3555647
1484.4152 789.72241 4713.2202 3818563
1505.6967 785.4198 4687.5415 3819076
1531.7822 783.73993 4677.5156 3950406
1541.5199 773.91565 4618.8823 3686977
1573.5149 775.42175 4627.8711 3358013
1615.0232 781.47662 4664.0078 3358012
1651.9862 785.15613 4685.9678 3292219
1684.6381 786.69379 4695.145 3226426
1719.0231 788.97412 4708.7544 3226426
1751.9962 790.54047 4718.1025 3226426
1779.7649 789.74536 4713.3574 3226426
1801.1713 786.19922 4692.1934 3292219
1821.0632 782.11658 4667.8271 3358012
1861.4716 786.83502 4695.9878 3094840
1910.829 795.13062 4745.4976 3160633
1954.2091 800.72284 4778.873 3226426
1984.4041 800.82526 4779.4844 3292219
2013.1583 800.35187 4776.6592 3423805
2013.3966 788.72156 4707.2471 3489598
2024.3453 781.56226 4664.519 3292219
2054.3293 781.85126 4666.2437 3226425
2097.0193 786.89996 4696.3755 3226423
2130.479 788.39337 4705.2881 3291960
2167.2515 791.05505 4721.1738 3291960
2185.6973 787.04596 4697.2466 3291960
2198.8833 781.27448 4662.8013 3094581
2223.4158 779.633 4653.0044 3160374
2243.6865 776.55884 4634.6577 3225653
2250.8721 769.09241 4590.0962 3422776
2267.0132 764.83563 4564.6909 3554106
2304.7778 767.88928 4582.916 3224884
2318.2075 762.8598 4552.8989 2961712
2325.0781 755.8205 4510.8867 2368805
2339.8123 751.47571 4484.9565 2171682
2357.8616 748.28613 4465.9204 2303269
2345.1768 735.5321 4389.8018 2499878
2350.1636 728.55188 4348.1426 2500134
2383.2576 730.34509 4358.8447 2828842
2365.1897 716.59686 4276.7925 3158320
2400.3032 719.08875 4291.6646 3750971
2490.5032 737.84564 4403.6094 3553850
2533.8848 742.47278 4431.2251 3685691
2561.6477 742.47278 4431.2251 3423289
2607.3069 747.60425 4461.8506 3423546
2669.1941 757.23059 4519.3027 3423546
2706.4248 759.73346 4534.2402 3291961
2759.6233 766.62012 4575.3413 3291962
2785.3325 765.80719 4570.4893 3291962
2821.9937 767.99127 4583.5244 3423291
2879.832 775.83661 4630.3472 3291962
2906.0369 775.08826 4625.8809 3160376
2931.3408 774.11682 4620.083 3094840
2971.6902 777.09875 4637.8799 3226426
3012.6504 780.18109 4656.2759 3291962
3058.8772 784.55511 4682.3809 3357498
3092.5574 785.65863 4688.9668 3226169
3126.6455 786.84399 4696.0415 3160633
3153.5793 786.22363 4692.3389 3028790
3138.481 775.23242 4626.7412 3226169
3206.7031 784.8349 4684.0508 3423805
3230.7925 783.55975 4676.4404 3357755
3256.7688 782.76111 4671.6738 3358012
3290.3086 783.77826 4677.7446 3358012
3346.0269 790.01404 4714.9609 3358012
3348.6355 783.71088 4677.3423 3423291
3344.054 775.849 4630.4209 3620927
3378.9275 777.19739 4638.4683 3620927
3400.8459 775.56842 4628.7466 3620927
3433.8333 776.46985 4634.1265 3555134
3444.1819 772.28009 4609.1211 3555134
3478.5139 773.49286 4616.3594 3620927
3532.9324 779.11548 4649.916 3555134
3577.9033 782.57959 4670.5903 3489341
3624.1006 786.25354 4692.5176 3489341
3643.9756 784.20374 4680.2837 3620927
3678.6533 785.34686 4687.106 3555134
3711.5181 786.08771 4691.5278 3621183
3741.823 786.27917 4692.6704 3686720
3748.781 781.59998 4664.7441 3686720
3816.1746 789.49609 4711.8696 3489341
3844.2087 789.1908 4710.0474 3555134
3883.4412 791.17169 4721.8696 3752513
3938.3884 796.29974 4752.4751 3818306
3977.1816 798.10925 4763.2749 3555134
4019.5962 800.61322 4778.2188 3226169
4040.7795 798.88263 4767.8901 3094583
4076.0039 799.93292 4774.1587 3226169
4111.312 800.98431 4780.4336 3423548
4153.1597 803.28534 4794.1665 3555134
4191.8208 804.94141 4804.0503 3555134
4221.9194 804.94141 4804.0503 3423548
4251.4844 804.84033 4803.4468 3423548
4322.687 812.5675 4849.5645 3357755
4338.8696 809.91669 4833.7437 3291962
4384.0605 812.67981 4850.2349 3160121
4427.0938 815.00769 4864.1279 3160122
4466.7261 816.68195 4874.1201 3225915
4509.2939 818.86658 4887.1582 3291708
4542.5693 819.34558 4890.0171 3357501
4608.7207 825.70831 4927.9912 3225915
4665.6948 830.35303 4955.7119 3225915
4721.8408 834.79004 4982.1929 3291709
4745.1152 833.39551 4973.8696 3423294
4791.3164 836.01941 4989.5303 3423294
4833.2832 837.87543 5000.6069 3357502
4896.3652 843.34424 5033.2461 3423294
4975.6582 851.51733 5082.0249 3357501
5013.9819 852.61987 5088.605 3291708
5072.0928 857.05188 5115.0562 3225915
5122.5322 860.14014 5133.4873 3357501
5174.0859 863.37585 5152.7988 3357501
5243.2192 869.48651 5189.2686 3357501
5292.9316 872.32135 5206.187 3357501
5335.3818 873.93176 5215.7983 3225915
nan nan nan 16777215
nan nan nan 16777215
nan nan nan 16777215
nan nan nan 16777215
nan nan nan 16777215
nan nan nan 16777215
-3802.6191 704.4397 4053.4685 3225915
-3921.7332 731.39038 4208.5474 3291452
-3899.2852 732.1264 4212.7822 3357501
-3868.5225 731.3006 4208.0308 3423548
-3848.2737 732.46472 4214.729 3423548
-3823.0481 732.69104 4216.0312 3357755
-3805.2048 734.34521 4225.5498 3357755
-3760.582 730.8183 4205.2554 3489341
-3728.6812 729.73138 4199.001 3555134
-3716.7671 732.56848 4215.3262 3686720
-3704.0876 735.29419 4231.0103 3752513
-3713.8037 742.53687 4272.686 3818306
-3686.6565 742.46088 4272.2485 3752770
-3591.5674 728.60071 4192.4951 3752513
-3635.6753 742.98254 4275.2505 3357755
-3637.5874 748.89069 4309.2471 3423548
-3621.0332 751.05713 4321.7129 3489341
-3590.3696 750.30756 4317.3999 3423548
-3563.3198 750.30756 4317.3999 3357755
-3521.9978 747.27936 4299.9751 3357755
-3497.1926 747.73596 4302.6025 3291962
-3461.083 745.76379 4291.2544 3423548
-3387.5542 735.63495 4232.9712 3423548
-3335.3359 730.01056 4200.6074 3357755
-3312.8403 730.85382 4205.46 3292219
-3307.6531 735.55969 4232.5381 3292219
-3260.4419 730.92078 4205.8452 3358012
-3224.9817 728.862 4193.9985 3358012
-3201.1631 729.42218 4197.2217 3423805
-3180.4592 730.70715 4204.6157 3358012
-3154.116 730.70715 4204.6157 3358012
-3133.8176 732.11932 4212.7417 3358012
-3110.7493 732.90289 4217.2505 3358012
-3091.7981 734.67822 4227.4658 3358268
-3040.6575 728.76917 4193.4644 3292989
-3012.8098 728.38861 4191.2744 3358525
-2972.3076 724.91498 4171.2866 3226939
-2927.8042 720.39526 4145.2793 3226939
-2884.5125 716.09534 4120.5371 3030330
-2863.2905 717.24634 4127.1597 2898487
-2764.6516 698.84875 4021.2969 2635571
-2692.3398 686.82892 3952.1328 2306350
-2645.3003 681.0929 3919.1267 2174766
-2653.8042 689.68427 3968.5632 2305835
-2615.0881 686.05042 3947.6531 2305580
-2584.9216 684.61139 3939.3728 2437165
-2558.2395 684.07635 3936.2942 2700080
-2517.377 679.70221 3911.1245 2765616
-2479.5232 676.06238 3890.1802 2699566
-2446.9734 673.81085 3877.2246 2831152
-2413.821 671.34656 3863.0447 2765359
-2375.238 667.30658 3839.7981 2765615
-2405.6375 682.76251 3928.7339 2963251
-2400.9587 688.47919 3961.6289 3424058
-2356.2957 682.72992 3928.5466 3950662
-2409.2456 705.44098 4059.23 4148040
-2385.0708 705.81311 4061.3713 4016455
-2385.1123 713.43689 4105.2397 4016455
-2375.4771 718.30084 4133.2275 4148041
-2330.8423 712.57214 4100.2637 4213834
-2297.9065 710.33209 4087.374 3884869
-2317.2354 724.37982 4168.207 3687490
-2293.6633 725.18378 4172.8335 3819076
-2293.5962 733.52356 4220.8218 3753283
-2275.7859 736.3172 4236.897 3490368
-2249.6238 736.44269 4237.6191 3490111
-2240.8572 742.3338 4271.5176 3621697
-2215.0864 742.66638 4273.4312 3687490
-2195.5706 745.1297 4287.6055 3687490
-2189.4946 752.27185 4328.7026 3753283
-2167.3606 754.00659 4338.6851 3687490
-2137.2334 752.96942 4332.7168 3687490
-2104.6531 751.03015 4321.5581 3621697
-2072.2954 749.12085 4310.5713 3621954
-2044.3887 748.79132 4308.6753 3687490
-2018.3381 749.14197 4310.6929 3753283
-1993.3906 749.91705 4315.1528 3687490
-1981.7349 755.78259 4348.9043 3884869
-1936.4249 748.79785 4308.7129 3687490
-1888.6681 740.65619 4261.8643 3490111
-1853.8303 737.4198 4243.2417 3687490
-1817.7576 733.591 4221.21 3753283
-1785.5707 731.24048 4207.6846 3884869
-1744.6635 725.19464 4172.896 3819076
-1717.4102 724.72675 4170.2036 3819076
-1691.7626 724.9325 4171.3872 3753283
-1657.6567 721.46332 4151.4253 4082248
-1632.4622 721.82391 4153.5 4082248
-1609.3214 723.11902 4160.9521 3884869
-1585.6012 724.19202 4167.1265 3687490
-1537.6221 714.03571 4108.6855 3292732
-1498.2954 707.62006 4071.7686 3029561
-1448.1387 695.77856 4003.6306 3029818
-1427.8849 698.1402 4017.22 3884871
-1383.2527 688.45337 3961.48 4608595
-1297.9209 657.78595 3785.0144 4872023
-1272.639 656.97668 3780.3579 5265756
-1240.3507 652.45117 3754.3174 4476496
-1216.8287 652.45117 3754.3174 2371376
-1201.6722 657.02515 3780.6367 3226429
-1182.9207 659.77771 3796.4756 4608339
-1144.2969 651.33221 3747.8787 4410703
-1116.9424 649.08154 3734.928 4475470
-1082.5903 642.58112 3697.5234 3225659
-1066.6216 646.94666 3722.6433 1910055
-1055.5917 654.56989 3766.5088 2502193
-1028.2646 652.2049 3752.9001 3818052
-999.69385 648.92175 3734.0085 3686723
-985.7182 655.18237 3770.0332 3686466
-966.73267 658.33875 3788.1953 3094329
-928.53442 648.24091 3730.0908 2107433
-899.91772 644.48358 3708.4702 2567728
-888.68811 653.30902 3759.2534 4278602
-861.49744 650.56195 3743.4465 3752258
-830.52051 644.72186 3709.8413 4409931
-799.18988 638.263 3672.6763 3752001
-776.05597 638.1615 3672.092 1976103
-758.34583 642.65009 3697.9202 2700083
-734.60156 642.14691 3695.0247 3357243
-711.45111 642.14691 3695.0247 2896693
-691.60419 645.22894 3712.7593 3554366
-665.05829 642.05823 3694.5144 2567727
-645.33069 645.47858 3714.196 2304299
-625.32007 648.86139 3733.6611 2699058
-603.68152 650.75214 3744.5408 2764851
-579.13715 649.53674 3737.5471 2633521
-555.72028 649.53674 3737.5471 2501678
-528.1264 644.43982 3708.2188 2501679
-510.30673 651.34949 3747.978 2567471
-492.34177 658.73138 3790.4548 2436142
-468.59341 658.73138 3790.4548 2370093
-449.01575 664.90747 3825.9929 2370093
-430.3223 673.16339 3873.4988 2370862
-410.99847 681.36102 3920.6694 2568495
-395.09705 696.63519 4008.5598 2897461
-375.31076 706.66827 4066.292 3029303
-349.83417 706.66827 4066.292 3095353
-330.98276 721.10236 4149.3481 3226426
-307.36804 726.73492 4181.7588 3226426
-287.59717 743.35223 4277.3779 3095353
-261.13339 744.30811 4282.8779 3095609
-233.26118 741.00861 4263.8921 3161146
-206.009 739.07983 4252.7939 3292732
-180.41104 743.39459 4277.6216 3424318
-154.10333 745.78009 4291.3481 3358525
-126.43114 741.17493 4264.8491 3292989
-99.565033 740.09332 4258.6255 3292732
-73.367195 745.0058 4286.8926 3424318
-46.815472 749.92322 4315.1885 3424060
-19.878616 753.68207 4336.8174 3358269
7.3100514 755.45563 4347.0229 3424318
34.545498 755.45563 4347.0229 3424318
61.824226 755.98486 4350.0684 3292732
89.078751 755.98486 4350.0684 3358525
115.52511 750.73303 4319.8481 3161146
141.5481 745.24591 4288.2744 3292732
169.65875 750.74744 4319.9312 3490111
197.08186 752.11145 4327.7798 3424318
223.84047 750.91626 4320.9023 3292732
248.22589 742.87659 4274.6406 3358525
275.00784 742.87659 4274.6406 3621697
301.08191 741.13409 4264.6143 3555904
325.901 736.83826 4239.895 3292732
350.08377 731.85968 4211.2476 3292732
375.68536 730.33716 4202.4868 3424318
402.75159 731.67487 4210.1841 3424574
428.87106 731.23389 4207.6465 3358525
455.69583 731.97687 4211.9219 3161146
482.08484 731.97687 4211.9219 3161146
509.35059 733.23901 4219.1846 3029819
529.92615 725.22089 4173.0469 3095355
552.8869 721.0675 4149.1475 3358527
581.08331 723.80865 4164.9209 3160893
604.8526 721.0368 4148.9712 3226686
631.36646 721.63037 4152.3862 3555651
653.35663 717.21106 4126.957 3555651
680.32843 718.38867 4133.7329 3489859
707.28851 719.46783 4139.9429 3489858
734.00366 720.23035 4144.3306 3424066
757.92841 718.29633 4133.2017 3358272
798.95642 732.16345 4212.9956 3424065
824.89984 731.76221 4210.687 3489602
853.93719 734.04541 4223.8247 3423809
884.87469 737.77563 4245.2891 3489858
914.2793 740.04736 4258.3608 3424320
947.68298 745.33545 4288.7896 3161148
965.25885 738.22681 4247.8853 3029562
991.87311 738.22681 4247.8853 3226941
1020.6174 739.77069 4256.769 3292731
1054.5012 744.86627 4286.0898 3226939
1086.1263 748.15308 4305.0024 3226939
1114.433 749.04993 4310.1631 3226939
1145.2611 751.55914 4324.6016 3226939
1172.5168 751.66223 4325.1948 3292732
1202.9233 753.73486 4337.1211 3161402
1231.4498 754.5639 4341.8916 3227196
1276.7277 765.3996 4404.2422 2964023
1294.9285 759.88751 4372.5249 2963767
1332.9353 765.9856 4407.6143 3029047
1361.8022 766.69043 4411.6699 2765875
1389.4427 766.69043 4411.6699 2831669
1406.3948 760.90759 4378.3945 2897461
1444.5985 766.62402 4411.2876 2963255
1468.1409 764.49133 4399.0156 3226427
1509.9291 771.763 4440.8584 3423806
1540.2957 773.03943 4448.2031 3095097
1568.229 773.07098 4448.3848 2963511
1603.8439 776.8219 4469.9683 3094840
1641.0588 781.20593 4495.1943 3094840
1670.1206 781.62622 4497.6128 3094840
1706.8514 785.56207 4520.2603 3160633
1737.1068 786.43793 4525.3003 3226426
1772.7601 789.69019 4544.0142 3226426
1799.974 789.13959 4540.8462 3160633
1830.2295 789.91888 4545.3306 3160633
1858.9333 790.01495 4545.8833 3292219
1885.1031 789.04742 4540.3159 3226426
1922.8464 792.88086 4562.374 3160633
1950.9663 792.69202 4561.2876 3358012
1944.3079 778.58197 4480.0957 3226426
1978.254 780.90186 4493.4448 3160633
2015.5909 784.47638 4514.0132 3160630
2035.1823 781.14081 4494.8198 3160374
2064.0815 781.42017 4496.4272 3029045
2092.2532 781.42017 4496.4272 3160374
2113.8018 778.97949 4482.3833 3160374
2139.7603 778.2066 4477.936 3226167
2159.0125 775.04626 4459.751 3160374
2178.6804 772.11426 4442.8794 3357240
2203.7791 771.15643 4437.3677 3620155
2222.6001 768.05298 4419.5103 3488312
2211.7319 754.8927 4343.7837 3620155
2234.6609 753.44763 4335.4683 3817022
2229.4175 742.65247 4273.3511 3882558
2215.543 729.27252 4196.3608 3487800
2231.5029 725.91168 4177.022 3355699
2268.0105 729.23547 4196.1475 3159348
2268.668 721.0882 4149.2666 3553078
2296.1506 721.55524 4151.9541 3290677
2343.2297 728.10095 4189.6191 3619642
2369.479 728.10095 4189.6191 3488569
2409.5244 732.29382 4213.7456 3290933
2435.9248 732.29382 4213.7456 3160117
2507.8665 745.83771 4291.6797 3620925
2576.6504 758.1651 4362.6138 3752511
2579.6384 751.07697 4321.8271 3620926
2630.5776 757.95221 4361.3887 3752256
2660.6108 758.72443 4365.832 3358012
2687.6567 758.63757 4365.3325 3095097
2710.8547 757.47742 4358.6567 3226169
2749.0674 760.49396 4376.0142 3160633
2795.4951 765.70111 4405.9771 3160890
2821.0681 765.14996 4402.8057 3226426
2853.157 766.3598 4409.7671 3291962
2898.1868 770.98889 4436.4038 3489598
2886.4456 760.57111 4376.458 3818820
2902.2935 757.5506 4359.0776 3621184
2969.4692 767.85901 4418.394 3358012
2992.7261 766.72516 4411.8696 3489598
3020.3677 766.72516 4411.8696 3489598
3063.1746 770.53992 4433.8203 3423805
3084.939 769.04047 4425.1924 3358012
3103.3743 766.74524 4411.9854 3489598
3134.3774 767.56818 4416.7207 3292219
3171.0186 769.74542 4429.2485 3423548
3208.3735 772.05658 4442.5474 3555134
3226.7026 769.789 4429.4995 3621183
3252.1692 769.24841 4426.3887 3620927
3292.9558 772.30994 4444.0054 3555134
3323.0293 772.82867 4446.9902 3423548
3344.5596 771.36847 4438.5879 3621183
3372.3687 771.36847 4438.5879 3620927
3414.2017 774.54993 4456.8945 3686720
3457.1519 777.93121 4476.3511 3686720
3484.0195 777.66821 4474.8379 3686720
3512.0559 777.66821 4474.8379 3620927
3531.4495 775.76959 4463.9131 3620927
3558.8923 775.65527 4463.2549 3555134
3582.1052 774.62787 4457.3433 3555134
3627.1626 778.30371 4478.4946 3620927
3663.1628 779.99457 4488.2241 3686977
3698.0276 781.41986 4496.4253 3752769
3726.1992 781.41986 4496.4253 3752769
3746.2898 779.73792 4486.7471 3949892
3743.1633 773.28467 4449.6143 4015685
3810.5972 781.396 4496.2881 3752513
3868.2827 787.40387 4530.8584 3489341
3897.5198 787.5755 4531.8462 3489341
3927.0337 787.80029 4533.1396 3489341
3981.6648 793.02441 4563.2002 3423548
4019.2212 794.79755 4573.4028 3489341
4059.085 796.9986 4586.0684 3423548
4069.3049 793.38916 4565.2988 3357755
4095.114 792.84814 4562.186 3423547
4128.3081 793.73468 4567.2871 3094584
4165.9502 795.45825 4577.2046 3160122
4205.9224 797.6001 4589.5293 3159866
4248.8081 800.2616 4604.8442 3225915
4293.0518 803.1413 4621.4146 3160122
4333.2275 805.2265 4633.4131 3160122
4363.8276 805.51642 4635.0811 3225915
4425.3081 811.46497 4669.3101 3291708
4452.0386 811.00507 4666.6641 3225915
4486.3735 811.92761 4671.9722 3291708
4537.6416 815.88269 4694.7305 3225915
4597.6953 821.35632 4726.2266 3357501
4662.9287 827.67932 4762.6104 3357501
4699.9536 828.94659 4769.9028 3357245
4763.062 834.76941 4803.4077 3094586
4821.7354 839.74652 4832.0474 3160375
4857.2856 840.65967 4837.3018 3094584
4899.9321 842.7821 4849.5142 3225914
4929.627 842.66425 4848.8364 3094328
4974.6768 845.15662 4863.1777 3160121
nan nan nan 16777215
nan nan nan 16777215
nan nan nan 16777215
nan nan nan 16777215
nan nan nan 16777215
nan nan nan 16777215
-3652.4702 700.88885 3893.4146 3555135
-3773.8691 729.05365 4049.8694 3555133
-3751.3696 729.61273 4052.9749 3620926
-3717.0764 727.86993 4043.2935 3555134
-3684.8496 726.51068 4035.7429 3555134
-3657.7788 726.15613 4033.7734 3686720
-3623.5391 724.36359 4023.8159 3620927
-3584.2927 721.53809 4008.1204 3620927
-3572.9819 724.336 4023.6626 3620927
-3550.1538 724.8222 4026.3635 3555134
-3526.1858 725.08093 4027.8008 3423548
-3515.2678 728.04614 4044.2727 3423548
-3478.1348 725.58575 4030.605 3226169
-3457.1675 726.48639 4035.6079 3160376
-3442.312 728.69403 4047.8713 3028790
-3410.5591 727.33093 4040.2996 3028790
-3384.2561 727.11835 4039.1187 3094583
-3360.009 727.34766 4040.3926 3291962
-3335.5093 727.52539 4041.3796 3423548
-3309.2559 727.32031 4040.2405 3423548
-3281.9543 726.87994 4037.7942 3423548
-3249.9766 725.3891 4029.5125 3423548
-3176.0906 714.44775 3968.7336 3291962
-3147.3142 713.56104 3963.8081 3292219
-3122.4797 713.56104 3963.8081 3423805
-3116.3462 717.8689 3987.7383 3489598
-3077.7063 714.69788 3970.1233 3423805
-3058.0583 715.92133 3976.9194 3555391
-3046.0149 718.95978 3993.7981 3489598
-3019.8489 718.68762 3992.2864 3358012
-2993.7979 718.43854 3990.9023 3358012
-2968.2236 718.3006 3990.1362 3423805
-2948.4426 719.57416 3997.2109 3555391
-2895.4243 712.68842 3958.9609 3555647
-2887.198 716.8042 3981.824 3490111
-2860.0969 716.26477 3978.8276 3358525
-2835.1755 716.26666 3978.8379 3358525
-2807.4495 715.55365 3974.8772 3226939
-2764.6895 710.96179 3949.3696 3292731
-2739.8591 710.93939 3949.2451 3358268
-2693.7244 705.33813 3918.1301 3095353
-2647.7468 699.67542 3886.6741 2897718
-2620.468 698.89465 3882.3369 3160889
-2567.4778 691.17749 3839.4683 3358012
-2540.6108 690.41351 3835.2244 3029045
-2537.0266 696.02246 3866.3818 3094839
-2511.7622 695.73425 3864.781 3291962
-2465.4336 689.54907 3830.4226 3291963
-2440.9585 689.41455 3829.6753 3357756
-2410.3264 687.52118 3819.1575 3424318
-2386.3982 687.52118 3819.1575 3621698
-2374.7075 691.08246 3838.9404 3819077
-2352.5588 691.64209 3842.0491 3687747
-2294.397 681.51605 3785.7996 3491139
-2310.606 693.50006 3852.3704 3622724
-2286.3301 693.4577 3852.135 3753539
-2268.8291 695.49133 3863.4314 3884868
-2288.2217 709.00006 3938.4722 3950660
-2287.5874 716.53046 3980.3032 4148040
-2262.522 716.49011 3980.0789 4148041
-2252.2542 721.18701 4006.1702 3687490
-2232.9319 723.05792 4016.563 3555904
-2207.7668 723.05792 4016.563 3687490
-2193.0376 726.51508 4035.7673 3819076
-2169.365 727.0556 4038.77 3753283
-2145.3555 727.49469 4041.209 3490111
-2126.0527 729.55927 4052.6777 3555904
-2101.5664 729.8736 4054.4238 3555904
-2076.1643 729.8736 4054.4238 3490111
-2056.2642 731.83185 4065.302 3621697
-2044.3015 736.69958 4092.342 3687490
