# .PCD v0.7 - Point Cloud Data file format
VERSION 0.7
FIELDS x y z rgb
SIZE 4 4 4 4
TYPE F F F U
COUNT 1 1 1 1
WIDTH 1271
HEIGHT 1
VIEWPOINT 0 0 0 1 0 0 0
POINTS 1271
DATA ascii
586.901 654.2309 2447.834 3292219
606.30145 658.64575 2464.3523 3358012
622.57465 659.5285 2467.6553 3423805
638.03528 659.5285 2467.6553 3292219
657.5907 663.66107 2483.1174 3358012
670.51556 661.06555 2473.4062 3621184
686.35944 661.40015 2474.658 3818820
705.78876 665.09869 2488.4963 3950149
717.54803 661.56573 2475.2776 3621184
733.2359 661.72772 2475.8835 3686977
751.8866 664.50146 2486.2617 3752770
772.69666 669.03235 2503.2141 3621184
788.38007 669.03235 2503.2141 3423805
805.51123 670.23694 2507.7212 3226426
827.1051 675.03766 2525.6833 3489854
832.72333 666.86444 2495.103 3884356
841.74451 661.66748 2475.6582 3884356
860.20337 663.94299 2484.1721 3884613
884.96783 670.91797 2510.2693 3818820
901.31799 671.38171 2512.0044 3489598
910.78735 666.79205 2494.832 3687234
929.07953 668.70746 2501.9988 3950149
945.60614 669.30969 2504.252 2831668
953.18256 663.66064 2483.1157 3160633
967.31592 662.685 2479.4653 3818563
979.59454 660.48969 2471.2515 3686977
996.97443 661.74866 2475.9619 3686977
1007.7575 658.65741 2464.396 3489598
1025.7759 660.31702 2470.6055 3489598
1047.9393 664.55591 2486.4656 3818820
1058.6562 661.51807 2475.0994 3489598
1074.9862 662.02478 2476.9951 3621184
1089.96 661.69373 2475.7563 4015942
1112.3319 665.80017 2491.1208 3686977
1128.7808 666.29669 2492.9788 3555388
1138.2755 662.7309 2479.637 3489852
1146.894 658.75775 2464.7715 3423802
1160.5466 657.74329 2460.9758 3424058
1175.1827 657.30554 2459.3379 3489852
1199.1986 662.0575 2477.1174 3292729
1213.1331 661.19342 2473.8845 3095094
1209.5909 650.94598 2435.5432 2962995
1226.3734 651.75543 2438.5718 2897201
1242.1121 651.99695 2439.4756 3094580
1253.7338 650.09796 2432.3704 3226167
1261.2903 646.16193 2417.6436 3291960
1272.6938 644.26678 2410.5527 3094581
1283.7156 642.22498 2402.9133 2897202
1290.8997 638.33295 2388.3511 3028788
1319.8726 645.18085 2413.9729 2568238
1332.4513 643.95062 2409.3699 2765618
1351.4875 645.83386 2416.416 3094583
1371.1788 647.98486 2424.4641 3160376
1385.032 647.35999 2422.1262 3226169
1399.1604 646.87598 2420.3152 3160376
1414.3245 646.87598 2420.3152 3226169
1438.3373 650.88025 2435.2974 3357755
1469.2697 657.89886 2461.5579 3686720
1486.5199 658.70886 2464.5884 3555134
1497.325 656.67548 2456.9805 2962997
1497.6924 650.15247 2432.5745 2699825
1511.1587 649.38989 2429.7212 3028790
1532.9755 652.19525 2440.2175 3094583
1551.403 653.51746 2445.1646 3094840
1569.9116 654.84766 2450.1416 2963254
1588.3202 656.11066 2454.8672 2962997
1603.7006 656.11066 2454.8672 2962997
1619.6399 656.3371 2455.7144 2831411
1633.6989 655.80444 2453.7214 2765875
1649.9265 656.14423 2454.9927 3094583
1674.9576 659.94635 2469.2185 3226169
1685.1119 657.87097 2461.4534 3160376
1701.4753 658.23523 2462.8162 3226169
1718.4832 658.84003 2465.0791 3094583
1740.1301 661.19672 2473.897 3094583
1755.9242 661.30762 2474.3118 2962997
1781.0066 664.88403 2487.6931 3094583
1798.1172 665.44818 2489.804 3094583
1809.4047 663.86615 2483.8848 3028790
1829.6677 665.57617 2490.2827 3028790
1846.6493 666.07355 2492.1438 3028791
1861.4495 665.78247 2491.0547 2963254
1879.2498 666.56042 2493.9653 3028790
1886.2771 663.53583 2482.6487 3028790
1930.2263 673.4425 2519.7151 3226169
1950.17 674.88104 2525.0974 3226169
1958.6223 672.35175 2515.6338 3226426
1969.2017 670.58704 2509.0312 3226169
1981.7979 669.53174 2505.0828 3094583
1999.4269 670.17999 2507.5083 2962997
2016.4821 670.62726 2509.1816 3094583
2032.4169 670.69788 2509.4458 3160633
2067.1221 676.91406 2532.7041 2962997
2073.8979 673.95941 2521.6489 2765618
2090.157 674.10773 2522.2041 2699825
2107.5625 674.62097 2524.1243 2765618
2128.5164 676.25372 2530.2334 2699825
2156.1494 679.96887 2544.1338 2699825
2172.8577 680.20941 2545.0337 2436653
2183.5898 678.58929 2538.9719 2568496
2196.1858 677.56769 2535.1494 2699825
2220.4807 680.14404 2544.7893 3028790
2226.0938 677.00226 2533.0339 3094583
2237.0237 675.51044 2527.4524 3094583
2230.9753 668.94873 2502.9014 3226169
2247.3408 669.15247 2503.6636 3160376
2263.3533 669.2489 2504.0244 3226169
2282.1892 670.1731 2507.4824 3291962
2297.8992 670.1731 2507.4824 3028790
2309.4827 668.97772 2503.0098 2896691
2307.3652 663.85657 2483.8489 2764849
2320.4636 663.15247 2481.2144 2896434
2341.7488 664.78186 2487.3108 3159606
2351.3398 663.09192 2480.9878 3159606
2358.3633 660.70477 2472.0564 3159606
2373.7231 660.66907 2471.9226 3028020
2387.9211 660.3125 2470.5886 3028020
2404.8433 660.70898 2472.072 2962227
2433.1499 664.20813 2485.1643 3028019
2446.2964 663.55072 2482.7046 2961974
2455.5815 661.86084 2476.3816 2961973
2467.3469 660.85638 2472.6235 2896180
2482.8386 660.85638 2472.6235 2896180
2504.9858 662.61694 2479.2107 2830387
2520.707 662.66644 2479.3958 2699058
2535.7744 662.54443 2478.9395 2699315
nan nan nan 16777215
nan nan nan 16777215
nan nan nan 16777215
nan nan nan 16777215
nan nan nan 16777215
nan nan nan 16777215
nan nan nan 16777215
nan nan nan 16777215
nan nan nan 16777215
nan nan nan 16777215
-2177.8784 652.37451 2385.2688 3489598
-2195.1189 662.08203 2420.7622 3160633
-2180.0601 662.11481 2420.8821 2963254
-2171.0142 663.98706 2427.7275 3358012
-2154.1033 663.46338 2425.8127 3358012
-2123.9326 658.81915 2408.8323 3226426
-2119.8967 662.27319 2421.4612 2963254
-2108.842 663.56854 2426.1973 2831668
-2087.7485 661.70087 2419.3687 3226426
-2069.3831 660.67682 2415.6245 3423805
-2045.8258 657.96802 2405.7202 3489598
-2026.3251 656.53326 2400.4744 3489598
-2012.0092 656.76959 2401.3384 3621184
-1999.8384 657.71484 2404.7947 3621184
-1997.3407 661.88007 2420.0237 3621184
-1982.0957 661.85242 2419.9226 3686977
-1960.4213 659.66089 2411.9097 3686977
-1943.9507 659.19995 2410.2246 3621441
-1932.7638 660.53754 2415.1152 3818563
-1912.603 658.80518 2408.7812 3885125
-1882.0164 653.42548 2389.1113 3950919
-1865.9695 653.04803 2387.7314 4016456
-1872.4647 660.61755 2415.4077 4082249
-1857.3314 660.61755 2415.4077 4279883
-1834.5671 657.8811 2405.4023 4345420
-1811.2896 654.91364 2394.5525 4015429
-1782.3623 649.83679 2375.99 4213065
-1768.5265 650.22302 2377.4023 4081735
-1759.3695 652.35071 2385.1816 3686977
-1732.6437 647.9447 2369.072 3621184
-1723.1858 649.97595 2376.4988 3686977
-1709.6111 650.47614 2378.3279 3489598
-1694.7102 650.47614 2378.3279 3358012
-1694.7709 656.26978 2399.511 3621184
-1655.8351 646.93134 2365.3669 3621184
-1629.3071 642.31561 2348.4905 3489598
-1603.0197 637.71149 2331.6565 3291962
-1586.3416 636.88062 2328.6187 3160633
-1575.1827 638.27075 2333.7014 3292219
-1560.0106 638.04547 2332.8777 3292219
-1543.2505 637.16034 2329.6414 3358012
-1531.6157 638.39459 2334.1541 3686977
-1520.0376 639.67645 2338.8411 3423805
-1505.384 639.67645 2338.8411 3423805
-1492.043 640.23962 2340.9001 3686977
-1475.8682 639.586 2338.5103 3555391
-1462.7158 640.24219 2340.9094 3358009
-1458.3464 644.79498 2357.5557 3292473
-1444.2758 645.10767 2358.6992 3160374
-1424.6953 642.94043 2350.7749 2962995
-1406.998 641.58655 2345.825 2962995
-1390.8099 640.8996 2343.3132 3028788
-1379.1431 642.30365 2348.4468 3028788
-1377.1256 648.2804 2370.2996 3226167
-1357.8828 646.19031 2362.6575 3094581
-1334.7489 642.18195 2348.0017 2962995
-1326.975 645.55676 2360.3411 3226167
-1312.5765 645.74854 2361.0422 3423546
-1294.8289 644.2782 2355.6663 3489339
-1280.0699 644.2782 2355.6663 3357753
-1273.2333 648.31213 2370.4155 3620925
-1260.1836 649.24042 2373.8096 3752511
-1243.1709 648.12463 2369.73 3226167
-1241.2888 654.96564 2394.7427 2699823
-1217.5438 650.29694 2377.6726 3094325
-1209.6293 654.07239 2391.4768 3357753
-1200.5865 657.32489 2403.3689 3357753
-1179.3981 653.92572 2390.9404 3357753
-1161.3354 652.19458 2384.6108 3291960
-1144.7852 651.27863 2381.262 3226167
-1130.5824 651.69171 2382.7722 3423546
-1116.1783 651.99817 2383.8928 3423546
-1101.4423 652.11652 2384.3254 3424060
-1088.4067 653.25867 2388.5015 3292219
-1079.6809 657.05542 2402.3835 3423805
-1076.7885 664.55969 2429.8213 3949893
-1061.5648 664.55969 2429.8213 3950148
-1038.5372 659.60315 2411.6987 3687234
-1029.6699 663.62659 2426.4097 3753027
-1014.4677 663.62659 2426.4097 3753027
-1010.4756 671.07135 2453.6299 3358782
-991.28229 668.49493 2444.2097 3292732
-975.96863 668.49493 2444.2097 3424318
-963.60931 670.5509 2451.7268 3292732
-948.24854 670.5509 2451.7268 3226939
-940.08551 675.72467 2470.6436 3884869
-928.30621 678.42877 2480.5305 3687490
-910.19812 676.52087 2473.5549 3753540
-889.76593 672.78961 2459.9124 3753283
-878.07196 675.65057 2470.3728 3950918
-862.5943 675.65057 2470.3728 3753283
-851.55023 679.18683 2483.3022 3819076
-834.55145 678.01678 2479.0242 4410956
-809.52924 670.16034 2450.2988 4740178
-795.83557 671.55957 2455.4148 4871764
-784.44885 674.99908 2467.9907 4477263
-764.64514 671.18872 2454.0588 4805971
-742.33081 664.9729 2431.332 4608592
-735.94476 673.06396 2460.9153 4082248
-720.52631 673.06396 2460.9153 4148040
-696.2077 664.56818 2429.8523 4345420
-685.08221 668.56769 2444.4756 4805971
-673.03131 671.82635 2456.3901 4806227
-659.64447 673.87274 2463.8726 3556161
-647.87543 677.70953 2477.9009 4016199
-633.21167 678.63232 2481.2749 4016195
-616.11139 676.92462 2475.031 3753024
-599.59674 675.78876 2470.8779 3687231
-585.23328 677.08142 2475.6042 3753024
-570.69397 678.2356 2479.8242 3884353
-552.51135 675.00323 2468.0059 4016196
-538.49219 676.81781 2474.6404 3752770
-519.17511 671.88361 2456.5996 3555648
-505.22522 673.80609 2463.6287 3818564
-489.22003 673.02222 2460.7627 3555391
-475.95154 676.07465 2471.9233 3686977
-460.46417 676.07465 2471.9233 3818563
-441.43359 670.69128 2452.2402 3686977
-422.62537 665.26978 2432.4175 3423805
-406.68286 664.12225 2428.2219 3423805
-391.26569 663.77686 2426.959 3292219
-375.45639 662.71136 2423.0632 3423805
-358.81906 660.03296 2413.2703 3291963
-343.27161 659.21185 2410.2681 3094840
-326.78125 656.42114 2400.0645 3752770
-311.67764 656.28125 2399.5527 3950149
-300.03165 663.77655 2426.958 3884613
-283.80035 661.38623 2418.2183 4016199
-267.00812 657.34552 2403.4441 3687233
-257.67914 672.29352 2458.0984 3884356
-242.44978 672.76917 2459.8374 4147528
-221.20833 655.49396 2396.6743 3818563
-205.26982 652.56104 2385.9507 3686977
-190.36757 652.72034 2386.5332 2963254
-174.82532 650.52539 2378.5078 3029301
-159.90096 650.43475 2378.1765 3358011
-142.30424 638.33813 2333.9478 3621183
-127.68134 638.33813 2333.9478 3489853
-112.71751 636.41321 2326.9097 2897715
-98.007423 635.56195 2323.7971 3029301
-84.051865 640.16034 2340.6101 3226936
-69.362862 639.93561 2339.7886 3226936
-54.913567 642.39459 2348.7793 3292473
-40.197731 642.39459 2348.7793 3358266
-25.595692 645.26318 2359.2678 3160889
-10.851293 647.47968 2367.3718 3029046
3.9802508 647.35364 2366.9111 2634544
18.853273 648.85394 2372.3965 2502958
33.7215 648.93909 2372.708 2502958
48.597904 649.08142 2373.2283 2437164
63.390118 648.29596 2370.3564 2568494
78.543816 650.80389 2379.5261 2897717
93.869263 653.70776 2390.1436 2963509
109.4492 657.34106 2403.4277 2897460
124.96574 659.7608 2412.2751 2963511
140.56062 662.02734 2420.5623 3094840
155.99475 663.16895 2424.7363 3094840
171.05711 662.66785 2422.9041 3095095
186.07639 662.09503 2420.8098 2831922
201.16443 661.8349 2419.8586 3029301
218.47185 668.40125 2443.8672 3029301
233.78343 668.40125 2443.8672 2765872
249.12968 668.4942 2444.207 2963252
265.0882 670.12421 2450.1667 3028788
279.56549 668.03638 2442.533 2831409
294.41205 667.00171 2438.75 2897972
309.60623 666.81793 2438.0781 2897715
324.32092 665.66724 2433.8708 2963252
339.50412 665.53839 2433.3997 2963764
354.09482 664.30896 2428.9045 2569007
368.11493 662.15454 2421.0273 2437420
383.62277 662.74078 2423.1707 2503213
397.50293 660.57751 2415.2612 3029301
409.75961 655.97388 2398.4292 2502957
423.78909 654.43365 2392.7976 2699826
437.50308 652.52808 2385.8301 2437166
450.47101 649.67242 2375.3892 2436910
468.33746 653.83826 2390.6206 2963254
483.43631 654.00177 2391.2185 2831668
497.80298 653.1947 2388.2676 2700082
512.71234 653.12604 2388.0166 2568496
527.67401 653.12604 2388.0166 2634289
543.30078 653.92657 2390.9436 2765876
563.66046 660.22791 2413.9829 2963254
571.49341 651.91052 2383.5723 3094840
589.04114 654.81635 2394.1968 3160633
604.24225 655.03387 2394.9922 3094840
620.14172 655.97968 2398.4502 3094840
638.69171 659.6181 2411.7534 3358013
652.22992 658.03192 2405.9539 3292219
669.59888 660.29492 2414.228 3029047
688.85522 664.27808 2428.7915 2963511
706.56427 666.62915 2437.3877 3160633
721.83527 666.62915 2437.3877 3160633
730.63916 660.78033 2416.0029 3226426
747.49396 662.30237 2421.5679 3292219
764.1181 663.56348 2426.179 3423805
780.99805 664.99323 2431.4065 3423805
797.06311 665.68774 2433.9458 3423805
811.65338 665.14764 2431.9709 3423805
825.49384 664.02417 2427.8633 3489598
839.56006 663.11975 2424.5564 4213321
854.38123 662.83319 2423.5085 3884613
873.15033 665.56586 2433.5002 3555391
887.90906 665.20038 2432.1638 3489855
901.50177 663.98834 2427.7322 3686977
916.35321 663.72821 2426.7812 2963254
932.99591 664.75293 2430.5278 2831668
950.09979 666.06799 2435.3362 3358012
959.78748 662.22455 2421.2834 3621184
970.69861 659.33179 2410.7065 3950149
981.52386 656.47021 2400.2437 3489598
1009.7086 665.13013 2431.907 3489598
1028.6798 667.55377 2440.7683 3687234
1032.248 660.05695 2413.3579 3950149
1047.3684 660.05695 2413.3579 3950149
1055.1985 655.52789 2396.7983 3884356
1099.6912 673.58252 2462.8113 3884356
1101.3528 665.26562 2432.4023 3423805
1103.5411 657.48969 2403.9712 3489854
1110.5867 652.77795 2386.7437 3423805
1123.0015 651.30542 2381.3599 3423806
1137.048 650.80548 2379.532 3489598
1145.9192 647.39478 2367.0613 3292218
1159.6895 646.80347 2364.8994 3160886
1174.5063 646.80347 2364.8994 3291705
1186.2383 645.12579 2358.7654 3094582
1199.1478 644.12195 2355.095 3028790
1209.7319 641.90857 2347.0022 3028788
1224.184 641.77606 2346.5178 3160374
1242.5208 643.65918 2353.4031 3160374
1257.6796 643.87115 2354.178 3752512
1272.4292 643.87115 2354.178 3686718
1284.5243 642.54333 2349.323 3423546
1303.2902 644.54456 2356.6401 3094583
1312.8066 641.97791 2347.2559 3028790
1330.2114 643.2829 2352.0271 3226169
1347.3898 644.45099 2356.2981 3094583
1360.5305 643.68347 2353.4919 3094583
1381.7548 646.71588 2364.5791 2962997
1398.4309 647.57782 2367.7307 3291962
1426.0548 653.43811 2389.1575 3489341
1447.6482 656.44202 2400.1406 3291962
1470.7192 660.0473 2413.3228 2831411
1457.3495 647.39142 2367.0491 3094583
1465.1764 644.31165 2355.7886 3160376
1475.3533 642.31641 2348.4934 3226169
1501.4729 647.23297 2366.4697 3094583
1515.1162 646.72778 2364.6228 2831668
1538.0883 650.17596 2377.2302 3226169
1556.0476 651.45929 2381.9224 3489341
1563.6284 648.41437 2370.7893 3291962
1570.4946 645.13318 2358.7925 3226169
1595.7325 649.38971 2374.3555 3291962
1617.535 652.18243 2384.5664 3160376
1633.8131 652.71692 2386.5208 3226169
1647.6753 652.2854 2384.9429 3160376
1663.1454 652.49237 2385.6997 3028790
1676.4384 651.84924 2383.3481 2897461
1700.9958 655.55872 2396.9111 2897461
1717.317 656.05676 2398.7322 2897204
1739.1726 658.64209 2408.1848 2897461
1757.4663 659.8457 2412.5854 3159349
1776.0608 661.14075 2417.3206 2896176
1783.7614 658.39288 2407.2737 2830383
1805.5845 660.86005 2416.2944 2961968
1819.1472 660.28802 2414.2029 2764845
1828.2772 658.1297 2406.3113 3028018
1843.6102 658.22137 2406.6465 3029046
1865.9452 660.7912 2416.0425 2962998
1887.3763 663.00208 2424.1262 3094840
1908.3978 665.03491 2431.5588 2897461
1923.86 665.11365 2431.8467 2897204
1947.8845 668.12805 2442.8682 2962997
1963.8433 668.35046 2443.6814 3160376
1984.6744 670.21478 2450.4978 3226169
2001.5909 670.73865 2452.4133 3291962
2013.0676 669.44556 2447.6853 3160376
2021.5004 667.16742 2439.3557 2962997
2047.9374 670.82092 2452.7141 2897204
2062.7437 670.63861 2452.0476 2962997
2069.9814 668.01654 2442.4604 3028790
2094.9324 671.10724 2453.761 2962997
2112.5701 671.82727 2456.3936 2963254
2131.4734 672.93646 2460.4492 3160376
2155.1143 675.51465 2469.8757 3357755
2166.6675 674.29431 2465.4138 3291962
2175.5356 672.26154 2457.9814 2962997
2181.4456 669.34961 2447.3345 2765618
2190.8208 667.53424 2440.697 2765618
2201.293 666.07587 2435.365 2962997
2211.5916 664.58551 2429.9158 3028534
2224.7402 663.966 2427.6506 3159606
2232.8052 661.84808 2419.907 3093813
2268.3284 667.84308 2441.8262 2962227
2262.1792 661.57062 2418.8923 2764848
2269.3784 659.25946 2410.4421 3093813
2285.9961 659.69678 2412.041 2896434
2299.1536 659.13641 2409.9922 2896434
2312.7393 658.70532 2408.416 2962227
2322.5122 657.20087 2402.9153 2962739
2341.5693 658.32605 2407.0293 2830898
2362.9487 660.08557 2413.4626 2830897
2378.8398 660.29932 2414.2441 2895925
2391.1738 659.52917 2411.4282 2764594
2400.5466 657.95715 2405.6804 2830387
2416.7144 658.25555 2406.7715 2698801
2436.2842 659.47107 2411.2158 2764594
2456.541 660.85645 2416.2812 2896180
2473.0073 661.21143 2417.5791 2961973
nan nan nan 16777215
nan nan nan 16777215
nan nan nan 16777215
nan nan nan 16777215
nan nan nan 16777215
nan nan nan 16777215
nan nan nan 16777215
nan nan nan 16777215
nan nan nan 16777215
nan nan nan 16777215
-2127.186 651.70917 2329.749 3555391
-2121.2266 654.37366 2339.2742 3752770
-2124.0142 659.7923 2358.645 4015942
-2109.2366 659.7923 2358.645 3818563
-2100.5618 661.71484 2365.5176 3160633
-2071.2034 657.10266 2349.0298 3160633
-2058.2634 657.67065 2351.0603 3226426
-2043.5333 657.67065 2351.0603 3489598
-2023.3616 655.90662 2344.7542 3621184
-2013.6458 657.53113 2350.5615 3686977
-2000.7743 658.14148 2352.7434 3752770
-1989.446 659.27228 2356.7859 3621184
-1974.6801 659.27228 2356.7859 3621184
-1948.0543 655.2829 2342.5247 3752770
-1937.5227 656.68781 2347.5469 3686977
-1912.996 653.33447 2335.5593 3752770
-1900.8622 654.19464 2338.6343 3884356
-1885.6172 653.98901 2337.8992 3686977
-1874.4414 655.20264 2342.2375 3818563
-1858.5935 654.78937 2340.7603 3950149
-1838.6769 652.92468 2334.0942 4015942
-1824.2234 652.98566 2334.3123 4015942
-1833.2295 661.51294 2364.7959 3686977
-1782.5352 648.46094 2318.1372 3555647
-1775.7007 651.28125 2328.2192 3358012
-1763.1525 652.03516 2330.9146 3555391
-1761.369 656.81592 2348.0049 3686975
-1718.9861 646.4101 2310.8059 3555646
-1696.3176 643.30396 2299.7019 3358011
-1681.9941 643.33649 2299.8181 3358010
-1663.7384 641.85248 2294.5129 3554876
-1644.4128 639.92627 2287.6272 3620924
-1631.824 640.61084 2290.0745 3423545
-1624.7006 643.47217 2300.3032 3028789
-1590.121 635.41321 2271.4939 3160375
-1579.2805 636.78064 2276.3821 3291705
-1559.4891 634.53088 2268.3396 3160632
-1546.3379 634.96643 2269.8965 3029047
-1532.5193 635.13336 2270.4934 3423805
-1518.2938 635.13336 2270.4934 3489598
-1507.5696 636.61182 2275.7786 3489598
-1496.9934 638.18164 2281.3904 3621184
-1477.0197 635.73676 2272.6504 3489598
-1469.8759 638.82031 2283.6736 3358012
-1454.2284 638.23242 2281.572 3555646
-1441.8158 639.06671 2284.5544 3555132
-1423.817 637.41675 2278.6562 3291960
-1412.4225 638.72009 2283.3152 3291960
-1402.2963 640.62946 2290.1409 3094581
-1383.9219 638.77118 2283.498 2897202
-1365.0222 636.62915 2275.8406 2897202
-1352.493 637.4444 2278.7549 3094581
-1342.2109 639.34735 2285.5576 3028788
-1330.0811 640.40173 2289.3269 3028788
-1313.9316 639.52264 2286.1843 3028788
-1302.0658 640.73212 2290.5081 3028788
-1288.0934 640.92035 2291.1809 2765873
-1274.5341 641.32068 2292.6121 3291960
-1264.0073 643.2735 2299.593 3489339
-1249.4919 643.21802 2299.3948 3357753
-1230.0664 640.60419 2290.0505 3555132
-1240.4127 653.61639 2336.5671 3489339
-1228.7998 655.23016 2342.3359 2962995
-1207.0354 651.40442 2328.6597 3291960
-1188.7501 649.38562 2321.4429 3423546
-1179.5342 652.33264 2331.9778 3357753
-1159.4528 649.26904 2321.0261 3357753
-1144.4979 649.03485 2320.189 3226167
-1139.1149 654.29266 2338.9846 3225910
-1123.2522 653.58966 2336.4714 3686718
-1108.6135 653.58966 2336.4714 3555132
-1092.0082 652.41473 2332.2712 3555388
-1075.6182 651.33826 2328.4231 3555646
-1061.9816 651.92249 2330.5115 3423805
-1047.5519 652.02936 2330.8938 3950150
-1039.7939 656.35071 2346.3418 4016455
-1027.0875 657.62744 2350.906 3687490
-1013.4016 658.30518 2353.3286 3621697
-1002.7853 661.02631 2363.0564 3687490
-988.90381 661.64441 2365.2659 3753540
-976.80414 663.49158 2371.8691 3753283
-961.9436 663.49158 2371.8691 3621954
-945.14532 662.13403 2367.0161 3555904
-930.31525 662.13403 2367.0161 3621697
-915.43005 662.09412 2366.8735 4016712
-904.88495 665.24365 2378.1326 4345420
-892.33691 667.00159 2384.4167 4411213
-875.64648 665.67017 2379.6572 4345420
-861.99524 666.64319 2383.1355 4345421
-848.70929 667.93781 2387.7637 4214349
-830.55664 665.38019 2378.6206 4148556
-821.73016 670.33704 2396.3406 4280143
-805.27344 669.13806 2392.0544 4938072
-783.70721 663.56738 2372.1401 4806487
-768.89288 663.6087 2372.2878 4477265
-757.05377 666.27008 2381.8018 4543315
-741.52332 665.72449 2379.8513 4477522
-728.14996 667.13281 2384.886 4411472
-713.20795 667.13281 2384.886 4411472
-692.17078 661.30951 2364.0686 4345679
-676.07489 660.0556 2359.5862 4214349
-658.79376 657.56268 2350.6743 4806486
-642.3811 655.84247 2344.5249 4345678
-635.92346 664.44312 2375.2708 3885639
-627.20447 671.03662 2398.8416 3950662
-605.92169 664.18207 2374.3376 3950919
-591.86047 665.09766 2377.6106 3884869
-579.91345 668.49768 2389.7651 3555904
-569.96997 674.44867 2411.0388 3819076
-554.86401 674.44867 2411.0388 3621698
-534.84167 668.3053 2389.0774 3029560
-511.85895 658.00269 2352.2473 3423805
-503.4115 666.32837 2382.0103 3686977
-492.58594 671.91895 2401.9956 3621441
-474.77048 668.02679 2388.0818 3950149
-456.60196 663.36829 2371.4285 3555648
-442.87454 665.06573 2377.4966 3358012
-429.72525 667.77966 2387.1982 3292219
-414.76868 667.77966 2387.1982 3292219
-398.11472 664.94452 2377.0632 3292219
-381.06897 661.20929 2363.7104 3358012
-367.71188 663.83118 2373.083 3687234
-349.69681 657.91052 2351.9177 4081992
-333.58844 655.21399 2342.2781 3950662
-318.24579 653.84247 2337.3752 3950406
-304.67093 656.14581 2345.6094 3555391
-289.46625 654.99475 2341.4944 3160633
-273.31741 651.47021 2328.8948 3555391
-258.68228 651.35974 2328.5 3489598
-244.71619 653.02136 2334.4399 3358012
-227.70692 646.25739 2310.2598 3621184
-212.94965 645.40033 2307.196 3884356
-200.21539 650.99628 2327.2007 3950149
-184.84869 648.23962 2317.3462 3752770
-169.30826 644.35187 2303.448 3752767
-153.59561 639.02307 2284.3984 3358266
-139.46466 639.85583 2287.3755 3621694
-124.98081 639.07489 2284.5835 3621694
-110.27857 636.83069 2276.561 3095094
-96.143982 637.68481 2279.6143 3029045
-81.905678 638.02899 2280.8447 3423546
-67.823753 639.99432 2287.8704 3358009
-53.885296 644.72949 2304.7979 3358266
-39.272003 641.90155 2294.6885 3424059
-24.878065 641.46307 2293.1211 3029301
-10.59936 646.85852 2312.4089 2568750
3.8481708 640.13348 2288.3679 2502957
18.284603 643.62177 2300.8379 2371371
33.011982 649.76105 2322.7849 2568497
47.741409 652.17157 2331.4021 2634033
62.196945 650.58771 2325.74 2700083
77.254181 654.70428 2340.4561 2963254
92.849182 661.33783 2364.1699 3160633
106.84808 656.34149 2346.3088 3028791
121.92619 658.38135 2353.6011 3029047
136.83478 659.16437 2356.4001 2831925
151.7002 659.60718 2357.9832 2831923
166.31334 658.97186 2355.7119 2897715
180.9037 658.35712 2353.5144 2766129
196.15137 660.04694 2359.5552 3095094
210.19533 657.73334 2351.2844 3161144
224.44589 656.3269 2346.2566 3160887
241.21277 661.99927 2366.5344 3160887
254.90051 659.05353 2356.0039 3226167
270.64099 661.44708 2364.5605 3226167
285.45569 661.44708 2364.5605 3226167
298.56308 657.68616 2351.1157 2962995
314.85709 660.96844 2362.8494 3028788
329.65393 660.95416 2362.7983 3094581
343.5228 659.1604 2356.386 3094581
361.38132 664.85455 2376.7415 2962995
373.06287 659.18359 2356.4688 2963252
385.29941 654.88763 2341.1116 2568237
398.34317 652.22852 2331.6057 2831409
412.70557 651.84027 2330.2178 2897202
427.30511 651.84027 2330.2178 2699823
442.38062 652.54236 2332.7275 2568493
456.41351 651.71082 2329.7549 3029300
469.60971 649.77307 2322.8279 2766129
485.34787 651.36334 2328.5127 2634544
501.75192 653.72833 2336.9673 2568495
516.40735 653.74554 2337.0288 2568496
530.78717 653.42249 2335.874 2700338
544.70312 652.5611 2332.7947 2568751
558.1579 651.20673 2327.9529 2700081
572.06738 650.43817 2325.2056 3029302
586.95288 650.7901 2326.4636 3160631
602.86145 652.23181 2331.6174 3029044
619.95691 654.85901 2341.009 3028787
634.75409 654.99316 2341.4888 2896945
648.96228 654.52728 2339.8232 2962995
665.99152 656.86426 2348.1777 2897202
682.42902 658.5293 2354.1299 2896945
697.737 659.05695 2356.0161 3028787
712.2641 658.84045 2355.2422 3028788
726.45667 658.32959 2353.4158 3028533
738.59052 656.0105 2345.1255 3160633
756.63104 658.92578 2355.5471 3358012
769.9953 657.73505 2351.2905 3358012
783.77289 656.93549 2348.4321 3489598
793.07379 652.48224 2332.5127 3423805
810.4986 654.75299 2340.6301 3489598
829.64667 658.31042 2353.3474 3555391
856.84106 668.01666 2388.0457 3884356
859.63214 658.69086 2354.7075 4147528
875.95526 659.87366 2358.9358 3555391
886.70007 656.88477 2348.251 3621184
899.20355 655.27502 2342.4963 3292219
919.62964 659.39758 2357.2339 3292219
930.5921 656.71143 2347.6313 3358012
943.19135 655.24603 2342.3928 3160633
953.31116 652.12946 2331.2515 3226426
957.44031 645.07074 2306.0178 3029047
973.4762 646.12463 2309.7854 3358268
995.15582 650.83881 2326.6377 3752770
1008.7544 650.20813 2324.3831 3621184
1027.1791 652.6618 2333.1545 3555391
1045.3049 654.85944 2341.0107 3160633
1062.2678 656.27771 2346.0808 3160633
1071.4972 652.94476 2334.166 3489598
1086.1215 652.94476 2334.166 3358012
1098.3156 651.50323 2329.0127 3292475
1110.1921 649.91357 2323.3301 3555390
1107.9174 640.18805 2288.563 3358011
1125.0491 641.78143 2294.259 3095096
1143.2537 643.93884 2301.9714 3357497
1149.1832 639.21478 2285.0837 3226168
1166.1 640.64313 2290.1899 2962996
1178.108 639.3728 2285.6487 3028789
1188.1238 637.06476 2277.3977 3291959
1226.1722 649.66406 2322.438 3686718
1234.4135 646.36023 2310.6274 4015683
1244.0741 643.86761 2301.7168 3555132
1255.8629 642.52094 2296.9028 3357754
1269.564 642.17212 2295.6558 3160376
1288.6245 644.5116 2304.019 3160376
1307.7382 646.82556 2312.291 3423548
1312.0782 641.86163 2294.5457 3291962
1326.4542 641.86163 2294.5457 3226169
1349.6407 646.07922 2309.623 3423548
1359.2522 643.77783 2301.3958 3357755
1377.6035 645.62079 2307.9841 3357755
1392.0638 645.62079 2307.9841 3291962
1410.6161 647.49908 2314.6987 3291962
1421.8506 646.0144 2309.3911 3555134
1432.0884 644.11127 2302.5879 3160376
1451.8566 646.48993 2311.0911 3160376
1463.8451 645.39148 2307.1646 2962997
1500.9705 655.28888 2342.5459 2699825
1509.071 652.44562 2332.3818 2699825
1517.1134 649.63202 2322.3237 2831411
1525.5839 647.05347 2313.1057 3226169
1534.6923 644.79138 2305.0193 3555134
1538.8126 640.49542 2289.6619 3226169
1562.2042 644.22595 2302.9978 2963254
1589.0438 649.297 2321.126 3160376
1608.7487 651.38721 2328.5981 3226169
1630.3002 654.18085 2338.585 2897204
1650.4235 656.35681 2346.3635 2765618
1658.5035 653.74707 2337.0342 2765618
1677.0657 655.27869 2342.5095 2962227
1683.4335 652.06036 2331.0044 3028277
1733.0486 665.50476 2379.0659 2765618
1743.2777 663.72424 2372.7009 2699055
1736.3984 655.5152 2343.355 2830641
1750.568 655.32343 2342.6694 2961971
1768.9402 656.69501 2347.5728 2699312
1787.9801 658.28979 2353.2737 2962227
1806.8375 659.79187 2358.6433 3093813
1821.7537 659.8421 2358.8228 2962227
1824.1226 655.3833 2342.8835 3093812
1852.9155 660.41388 2360.8669 3028790
1872.2272 662.01221 2366.5806 3028790
1887.2247 662.0719 2366.7939 3028790
1906.3855 663.57983 2372.1846 3094583
1935.3156 668.4386 2389.554 3226169
1956.3728 670.52454 2397.0107 3423548
1948.0281 662.57812 2368.6038 3226169
1966.9888 663.96912 2373.5764 2962997
1984.3088 664.78961 2376.5093 2831411
1999.1984 664.78961 2376.5093 2897204
2012.5149 664.27032 2374.6531 3291962
2027.3928 664.27032 2374.6531 3357755
2032.5125 661.09637 2363.3066 3160376
2051.5239 662.45404 2368.1602 3094583
2075.8123 665.48395 2378.9915 3160376
2089.2434 665.01483 2377.3145 3226169
2082.3076 658.1153 2352.6499 3160376
2110.5681 662.35834 2367.8181 2962997
2127.7141 663.07849 2370.3926 2765875
2142.0642 662.92352 2369.8384 2831155
2155.075 662.35883 2367.8198 2831155
2169.6399 662.27631 2367.5249 3028020
2174.7725 659.33533 2357.0112 3159349
2186.8528 658.52625 2354.1189 3290935
2211.0007 661.3374 2364.1685 3225399
2225.813 661.3374 2364.1685 3028020
2226.9373 657.29736 2349.7258 3027764
2241.6589 657.29736 2349.7258 2830641
2254.3262 656.69885 2347.5862 2896434
2262.3015 654.75018 2340.6201 2962227
2281.0676 655.92957 2344.8362 2764848
2299.7034 657.05658 2348.8652 2633262
2311.3967 656.19836 2345.7971 2632752
2326.4541 656.29999 2346.1604 2633009
2341.9338 656.51874 2346.9424 2633008
2355.9373 656.32349 2346.2444 2567215
2383.8154 659.97186 2359.2869 2567215
2403.0027 661.18408 2363.6204 2764594
2408.864 658.7373 2354.8735 2830387
nan nan nan 16777215
nan nan nan 16777215
nan nan nan 16777215
nan nan nan 16777215
nan nan nan 16777215
nan nan nan 16777215
nan nan nan 16777215
nan nan nan 16777215
nan nan nan 16777215
nan nan nan 16777215
-2077.3892 650.63232 2275.2102 3950149
-2065.0669 651.24182 2277.3418 4279114
-2069.543 657.19415 2298.1565 4147785
-2077.2478 664.26245 2322.8738 3752770
-2048.1045 659.56396 2306.4436 3884356
-2026.1881 657.1427 2297.9766 3884356
-2005.233 655.00067 2290.4861 3752770
-1990.8857 655.00171 2290.4897 3621184
-1977.5352 655.33313 2291.6487 3621184
-1955.9652 652.92572 2283.23 3621184
-1948.8649 655.34839 2291.7021 3621184
-1939.832 657.15253 2298.011 3753027
-1931.6039 659.25824 2305.3745 3884356
-1912.4657 657.64398 2299.7295 3884356
-1885.2979 653.22308 2284.27 3818563
-1864.3994 650.9234 2276.2283 3818563
-1850.0999 650.90991 2276.1812 3818563
-1829.8564 648.78888 2268.7639 3752770
-1819.6461 650.21967 2273.7673 3752770
-1804.6879 649.96307 2272.8701 3818563
-1790.4476 649.96307 2272.8701 3687234
-1776.2722 649.98682 2272.9531 3686977
-1752.6459 646.5246 2260.8459 3423805
-1721.8441 640.33752 2239.2102 3489598
-1711.4924 641.71649 2244.0322 3555391
-1689.5969 638.75403 2233.6729 3686977
-1664.4186 634.49072 2218.7644 3160377
-1646.9875 633.13379 2214.0193 3029047
-1642.8107 636.89233 2227.1626 3358013
-1628.6884 636.82642 2226.9321 3292219
-1612.5891 635.9798 2223.9714 3358012
-1598.5873 635.95276 2223.877 3555391
-1571.0997 630.51312 2204.855 3423805
-1562.1254 632.4726 2211.7073 3226426
-1556.3953 635.79254 2223.3167 3358012
-1537.1481 633.60071 2215.6521 3555391
-1523.2422 633.59064 2215.6169 3489598
-1507.7294 632.90588 2213.2224 3358012
-1500.0161 635.51282 2222.3386 3423806
-1483.8281 634.54456 2218.9526 3621185
-1472.101 635.48358 2222.2363 3621184
-1458.178 635.48358 2222.2363 3621184
-1443.6316 635.20929 2221.2771 3489599
-1429.4736 635.10223 2220.9028 3489598
-1414.9169 634.81409 2219.8953 3424059
-1402.5187 635.49841 2222.2881 3424059
-1388.0308 635.23999 2221.3845 3226167
-1373.866 635.12579 2220.9851 3160374
-1368.5314 639.13306 2234.9983 3291960
-1354.5284 639.13306 2234.9983 3094581
-1332.1692 635.14893 2221.0662 2897202
-1323.3121 637.58618 2229.5891 2831409
-1307.439 636.65906 2226.3469 2962995
-1302.1678 640.93018 2241.2827 3160374
-1279.6 636.68817 2226.4487 3160374
-1264.1653 635.94092 2223.8357 3028788
-1249.6713 635.65558 2222.8379 3028788
-1229.1182 632.24713 2210.9187 3291960
-1210.7415 629.89319 2202.6873 3752511
-1205.9476 634.63293 2219.2617 3489339
-1196.6997 637.112 2227.9307 3489339
-1195.5796 644.02777 2252.1147 3489339
-1204.6343 656.65515 2296.2717 3226167
-1173.8094 647.58636 2264.5588 3555132
-1153.722 644.29199 2253.0386 3620925
-1134.5802 641.45056 2243.1023 3423546
-1127.0875 645.20648 2256.2366 3226167
-1113.0642 645.27179 2256.4648 3226167
-1102.9966 647.66144 2264.8215 3358010
-1101.8005 655.39069 2291.8501 4016452
-1084.2856 653.48871 2285.199 3884610
-1058.7196 646.61865 2261.1748 3687232
-1043.6387 646.0528 2259.196 3489854
-1040.4532 652.93652 2283.2678 3555647
-1023.89 651.49982 2278.2439 3950406
-1012.8713 653.6004 2285.5894 3819332
-998.45294 653.53601 2285.3643 3621698
-983.62372 653.19684 2284.1782 3555904
-973.35028 655.91772 2293.6929 3555904
-970.76086 663.97583 2321.8713 3753540
-960.76007 667.13281 2332.9111 4148041
-943.76196 665.45343 2327.0386 4214091
-918.58521 657.86407 2300.499 4213834
-908.46271 660.98608 2311.4165 3753283
-898.48151 664.31354 2323.0525 3950662
-883.92676 664.31354 2323.0525 4477006
-867.01495 662.51239 2316.7539 4213834
-854.23468 663.8606 2321.4685 4279627
-837.37933 662.03387 2315.0806 4279627
-821.55066 660.96857 2311.3555 4213834
-806.97437 660.89087 2311.0837 4148041
-800.46204 667.53516 2334.3181 4279370
-782.99805 665.12372 2325.8857 4411213
-764.61005 661.82104 2314.3364 3753540
-748.14978 660.09155 2308.2886 3950662
-730.40576 657.13892 2297.9634 4542800
-717.44226 658.45496 2302.5654 4016456
-703.74011 659.13324 2304.9373 4082248
-693.98163 663.6109 2320.5955 3950919
-677.43799 661.6532 2313.7495 4082248
-659.29944 658.01813 2301.0378 3950662
-640.58838 653.63629 2285.7151 4082248
-624.31635 651.59973 2278.5933 4016455
-615.71558 657.66162 2299.7913 3753283
-600.4917 656.77032 2296.6743 3884869
-587.96783 658.86072 2303.9844 3819076
-574.61023 660.09863 2308.3132 3555904
-558.6673 658.35388 2302.2119 3358525
-542.45575 656.19153 2294.6504 3621697
-528.93457 657.25464 2298.3679 3687233
-518.25806 662.01099 2315.0005 3029303
-498.15662 654.65521 2289.2781 3094584
-487.19434 659.2298 2305.2749 3621184
-478.68439 667.50348 2334.2075 3621184
-463.49835 666.69592 2331.3833 3884356
-445.93893 662.31067 2316.0486 3292219
-431.65216 662.65454 2317.251 3489598
-420.82669 668.52094 2337.7654 3489598
-402.84964 663.03979 2318.5984 3950406
-386.24445 659.49091 2306.1882 3819076
-374.78607 664.79565 2324.7385 3884869
-361.34756 666.87506 2332.01 4213834
-341.73749 657.25995 2298.3865 3950662
-325.33661 653.24255 2284.3381 4016455
-309.44009 649.91479 2272.7012 4015942
-298.16428 656.4389 2295.5156 3686977
-279.49246 646.51605 2260.8162 3292475
-264.16617 643.68567 2250.9185 3423805
-250.68651 645.28949 2256.5269 3489342
-237.9847 649.20697 2270.2258 3621440
-221.40495 642.37115 2246.3215 3818564
-206.75496 640.58624 2240.0798 4081735
-195.15254 648.6712 2268.3525 4147528
-178.57324 640.18427 2238.6743 4015942
-164.47009 639.88409 2237.6245 3818816
-149.49184 635.80597 2223.3638 3555645
-136.1319 638.47992 2232.7144 3555901
-121.58238 635.5481 2222.4619 3621438
-108.0582 637.91089 2230.7244 3555645
-93.858246 636.39355 2225.4185 3489852
-79.697174 634.65643 2219.344 3489852
-66.5065 641.54596 2243.436 3555901
-52.919563 647.28107 2263.4912 3621438
-38.626629 645.4187 2256.9788 3489852
-24.185156 637.48993 2229.2524 2897715
-10.416556 649.86517 2272.5276 2897715
3.8122535 648.28711 2267.0093 2568750
17.977512 646.9104 2262.1951 2371370
32.018818 644.25348 2252.9041 2765875
46.589878 650.6203 2275.1682 2634546
60.991154 652.18835 2280.6516 2568753
74.922073 649.08618 2269.8037 2897461
90.130226 656.27393 2294.9385 3094840
104.00154 653.08893 2283.801 2963511
118.56879 654.51605 2288.7915 3029047
132.91707 654.55688 2288.9341 2963254
147.5791 655.98438 2293.926 2831922
160.90724 651.75555 2279.1382 2502957
175.57722 653.20831 2284.2183 2568750
189.38496 651.47595 2278.1604 2831922
205.23647 656.52411 2295.8135 2963251
220.51912 659.21057 2305.2078 3094581
234.43625 657.73566 2300.05 3160374
249.70256 659.99762 2307.96 3160374
263.73352 658.92554 2304.2109 3160374
277.30597 656.87848 2297.0527 3160631
291.04816 655.41571 2291.9375 3028788
306.70337 658.19592 2301.6597 3094581
320.11581 656.12952 2294.4336 3160374
336.30054 659.67871 2306.845 3291960
347.43414 653.43567 2285.0134 3226167
361.74008 653.41693 2284.9478 2963252
372.87778 647.89459 2265.6367 3094581
385.97614 646.05914 2259.2183 2831666
400.12366 646.04755 2259.1777 2831666
414.27811 646.04755 2259.1777 2962995
432.73102 652.5293 2281.844 2831409
447.02747 652.5293 2281.844 2897202
463.479 655.57764 2292.5037 3160887
473.50684 649.62964 2271.7039 2766129
488.73859 650.95996 2276.3562 2502957
502.50449 650.31781 2274.1106 2502701
516.7525 650.31781 2274.1106 2634544
530.89392 650.18732 2273.6541 2502958
545.13904 650.18732 2273.6541 2371372
557.45184 647.94135 2265.8 2897716
577.09851 654.11945 2287.4045 2897715
588.64197 651.03607 2276.6223 3094837
605.2049 653.51892 2285.3044 3094581
617.224 651.09363 2276.8235 2897202
634.50262 654.20087 2287.6892 2962995
648.46942 653.83154 2286.3977 2766129
661.25696 652.31482 2281.094 2700080
679.86169 656.47949 2295.6575 2831668
693.61707 655.88605 2293.582 2897204
708.21295 656.09521 2294.3137 2700082
721.79816 655.37854 2291.8074 2634289
725.40308 645.80457 2258.3281 3226426
740.74396 646.84528 2261.9673 3226426
767.81158 657.8949 2300.6069 3489598
782.22565 657.8949 2300.6069 3555391
787.79242 650.58856 2275.0571 3292219
803.55188 651.80975 2279.3276 3292219
818.28729 652.17212 2280.595 3029047
830.67456 650.68286 2275.387 3094583
843.92621 649.9093 2272.6821 3094583
853.63501 646.47845 2260.6846 2897204
867.17896 646.0166 2259.0696 2765618
878.10956 643.65405 2250.8079 3094583
892.21161 643.65405 2250.8079 3489341
903.60632 641.73145 2244.0845 3028790
912.22406 637.92566 2230.7761 2634289
931.59668 641.64221 2243.7727 3094583
959.94458 651.3382 2277.6787 3358012
974.54297 651.5575 2278.4456 3292219
981.83398 646.95551 2262.3528 3028790
992.48389 644.6662 2254.3472 2897461
1010.3803 647.08209 2262.7954 3357498
1026.2715 648.16467 2266.5811 3357498
1045.5497 651.32758 2277.6416 3094583
1059.8198 651.32758 2277.6416 3028789
1061.9104 643.94189 2251.8145 3160374
1085.3761 649.54181 2271.397 3423290
1088.0924 642.73999 2247.6116 3292216
1092.553 637.12927 2227.9912 3160373
1106.4431 637.08954 2227.8523 3094581
1128.1677 641.50574 2243.2954 3226166
1158.6683 650.74219 2275.5945 3226166
1143.4862 634.409 2218.4788 3028788
1144.2754 627.22278 2193.3491 3160374
1170.0453 633.73755 2216.1306 3489339
1188.9629 636.43158 2225.5513 3555132
1202.2004 636.05786 2224.2446 2962995
1205.1365 630.30499 2204.1272 2568237
1237.8778 640.09436 2238.3599 3094583
1259.5104 643.98462 2251.9639 3357755
1272.7633 643.55164 2250.4497 3226169
1279.9454 640.09216 2238.3523 3226169
1290.5629 638.40704 2232.4595 3226169
1315.537 643.78381 2251.2615 3160376
1327.4946 642.7442 2247.6262 3094583
1335.8573 640.00397 2238.0439 3094840
1351.0918 640.57886 2240.0542 3094583
1364.4932 640.28168 2239.0149 3291962
1380.6428 641.26715 2242.4609 3423548
1407.2239 647.02893 2262.6094 3094583
1426.4338 649.32037 2270.6226 2831411
1438.4722 648.33429 2267.1743 2765618
1444.5509 644.70776 2254.4927 2962997
1454.4424 642.83655 2247.9492 3028790
1478.6812 647.28168 2263.4934 3160376
1491.073 646.50574 2260.78 3226169
1483.0808 636.98938 2227.502 3423548
1511.9668 643.34216 2249.717 3028790
1540.413 649.39203 2270.873 2831411
1549.2271 647.13068 2262.9653 3291962
1569.6992 649.73596 2272.0757 3291962
1583.9346 649.73596 2272.0757 3423548
1589.1952 646.08734 2259.3169 3357755
1605.1268 646.8031 2261.8198 3226169
1631.0928 651.5144 2278.2949 3423548
1645.3351 651.50177 2278.2507 3423805
1658.3431 651.00482 2276.5129 3357755
1659.3088 645.82928 2258.4146 3160376
1673.4586 645.82928 2258.4146 2831667
1709.0284 654.02661 2287.0798 2831411
1725.4127 654.80652 2289.8071 2897204
1735.9246 653.36328 2284.7603 2831411
1750.2394 653.36328 2284.7603 2896947
1788.6107 662.27075 2315.9089 2567982
1799.9437 661.10388 2311.8286 2699568
1825.2418 665.04401 2325.6069 3160376
1828.7618 661.0495 2311.6384 3160376
1860.0074 667.06104 2332.6604 2634032
1862.7874 662.84979 2317.9338 2634032
1882.6295 664.72803 2324.502 2568496
1892.0096 662.91187 2318.1509 3160376
1907.6256 663.2915 2319.4785 3094583
1917.7524 661.7713 2314.1626 2962997
1930.6656 661.22827 2312.2634 2897204
1939.5426 659.32117 2305.5945 2765875
1958.0012 660.67542 2310.3301 3160376
1972.4762 660.67542 2310.3301 3225912
1976.6981 657.26617 2298.4084 3291705
2002.1274 660.90692 2311.1396 3357242
2022.4918 662.83539 2317.8835 3291962
2037.014 662.83539 2317.8835 3356985
2027.2241 654.98029 2290.4148 3422778
2058.166 660.30328 2309.0291 3159606
2074.9927 661.05518 2311.6582 3028277
2089.4763 661.05518 2311.6582 3094070
2097.082 658.89435 2304.1021 3028277
2108.4141 657.92584 2300.7151 2896947
2121.9309 657.64752 2299.7419 2962997
2133.7732 656.85748 2296.9792 3028533
2148.1646 656.85748 2296.9792 2962741
2164.8787 657.56305 2299.4465 3028533
2172.5469 655.52985 2292.3367 2962740
2187.7698 655.78778 2293.2385 2699568
2202.1375 655.78778 2293.2385 2699311
2202.752 651.71863 2279.009 2830898
2222.7742 653.40698 2284.9131 2699312
2240.584 654.42755 2288.4819 2830897
2253.928 654.13904 2287.4729 2764592
2272.9099 655.48016 2292.1628 2699056
2287.2712 655.48016 2292.1628 2698801
2301.0686 655.3197 2291.6016 2633008
2321.8215 657.12964 2297.9309 2501422
2353.3052 661.93567 2314.7373 2633008
2372.78 663.32568 2319.5981 2961973
nan nan nan 16777215
nan nan nan 16777215
nan nan nan 16777215
nan nan nan 16777215
nan nan nan 16777215
nan nan nan 16777215
nan nan nan 16777215
nan nan nan 16777215
nan nan nan 16777215
nan nan nan 16777215
-2032.0425 650.29993 2225.5457 4213321
-2022.9253 651.8551 2230.8682 4147528
-2017.0251 654.47589 2239.8374 4015942
-2006.8434 655.73438 2244.1443 3950149
-1991.5566 655.33081 2242.7632 3884356
-1968.6871 652.40863 2232.7625 3621184
-1955.0759 652.53467 2233.1938 3752770
-1945.1912 653.91534 2237.9189 3686977
-1927.3042 652.60632 2233.439 3686977
-1913.3109 652.60632 2233.439 3621184
-1899.8374 652.78485 2234.05 3489598
-1893.4733 655.427 2243.0923 3358012
-1872.955 653.17249 2235.3767 3226426
-1867.1572 656.0564 2245.2463 3686977
-1849.5312 654.79639 2240.9343 3687234
-1821.8684 649.93665 2224.3025 3687234
-1798.0565 646.38629 2212.1521 3555391
-1777.5309 643.97137 2203.8875 3686977
-1761.3221 643.09491 2200.8877 3686977
-1746.1852 642.59894 2199.1904 3555648
-1733.0781 642.84802 2200.043 3555391
-1719.5055 642.927 2200.3132 3555391
-1695.2952 638.99774 2186.866 3358012
-1677.0101 637.25592 2180.9048 3292219
-1667.8071 638.96509 2186.7542 3555392
-1658.9325 640.82935 2193.1343 3555392
-1632.2527 635.78931 2175.8855 3489598
-1612.045 633.20667 2167.0469 3423805
-1600.0861 633.84772 2169.2407 3292220
-1590.3962 635.40625 2174.5747 3358012
-1576.7719 635.40625 2174.5747 3358011
-1554.7902 632.00909 2162.9485 3423805
-1538.1115 630.72675 2158.5598 3489597
-1525.7961 631.22681 2160.2712 3358011
-1519.2562 634.14655 2170.2634 3161145
-1500.7706 632.08771 2163.2175 3226938
-1486.59 631.82104 2162.3049 3424060
-1473.5265 632.02869 2163.0154 3292474
-1460.5558 632.28027 2163.8765 3226681
-1445.1384 631.46753 2161.095 3226680
-1429.6575 630.61133 2158.1648 3226424
-1408.3629 627.15009 2146.3191 3160373
-1390.7953 625.29755 2139.9792 3357753
-1383.8894 628.24921 2150.0808 3489339
-1367.4054 626.86792 2145.3535 3357753
-1359.6987 629.52295 2154.4399 3160374
-1355.5742 633.90643 2169.4417 3160374
-1340.3196 633.12109 2166.7542 3094581
-1332.6299 635.92975 2176.3662 3291960
-1330.9907 641.71362 2196.1606 3489339
-1304.9364 635.724 2175.6621 3620925
-1276.1982 628.28674 2150.2092 3686718
-1264.3966 629.11768 2153.053 3357753
-1255.5845 631.47009 2161.1038 3423546
-1244.6824 632.81128 2165.6936 3489339
-1233.0408 633.80182 2169.0837 3489339
-1216.1461 632.08423 2163.2056 3423546
-1195.5249 628.36926 2150.4917 3357753
-1182.0515 628.36926 2150.4917 3686718
-1169.5493 628.8916 2152.2793 3752511
-1167.6639 635.20154 2173.874 3423802
-1155.9791 636.26666 2177.5193 3423546
-1141.2094 635.63904 2175.3713 3620925
-1128.2318 636.00647 2176.6287 4015683
-1118.1414 638.03027 2183.5549 4081476
-1106.8793 639.42749 2188.3367 3489339
-1108.5272 648.41119 2219.0818 3423546
-1096.8386 649.72302 2223.5715 3620925
-1089.1726 653.48212 2236.4363 3555388
-1076.1842 654.10425 2238.5654 3292473
-1054.0408 649.10492 2221.4561 3358010
-1039.327 648.6084 2219.7568 3686976
-1036.652 655.7132 2244.0718 3029047
-1021.8624 655.2453 2242.4705 2568496
-1004.2467 652.92682 2234.5359 2897461
-992.76019 654.58417 2240.208 3818563
-983.75189 657.94647 2251.7148 3884613
-963.94098 654.07654 2238.4707 3621697
-949.95917 654.10608 2238.5718 3490111
-930.11713 650.04095 2224.6594 3490111
-935.2063 663.54114 2270.8616 3950405
-915.80182 659.81134 2258.0972 3950406
-899.28522 658.07782 2252.1643 3818819
-878.14221 652.84955 2234.2715 3686977
-866.88611 654.92133 2241.3618 3489599
-854.14484 655.92084 2244.7825 3555647
-843.36407 658.4845 2253.5562 3489854
-829.24481 658.4845 2253.5562 3621697
-807.48602 652.31305 2232.4353 4016455
-793.75891 652.52655 2233.166 3753283
-772.71893 646.62823 2212.98 3555904
-765.19928 652.03516 2231.4844 3884869
-751.21832 652.03516 2231.4844 3555904
-731.9173 647.3299 2215.3813 3292732
-729.31689 657.49884 2250.1829 3950662
-715.21881 657.49884 2250.1829 4213835
-691.88348 648.8363 2220.5369 3819077
-676.86993 647.78247 2216.9302 3687747
-663.28656 648.08179 2217.9546 3687490
-650.31268 649.00226 2221.1047 3819076
-637.68951 650.32056 2225.6165 4016455
-621.62848 648.11353 2218.0632 4082248
-612.6095 653.31555 2235.8662 3687747
-598.60107 653.31555 2235.8662 3555904
-579.86749 648.03485 2217.7939 3687490
-564.8429 646.74164 2213.3682 3621697
-547.57526 642.75049 2199.709 3555135
-544.59229 655.75366 2244.2102 3489599
-530.53168 655.75366 2244.2102 3489598
-514.82532 653.66418 2237.0593 3094840
-503.91156 657.71307 2250.916 3094840
-490.52322 658.6723 2254.199 3423805
-475.543 657.48749 2250.144 3621184
-463.09546 659.83893 2258.1914 3489598
-448.9472 659.83893 2258.1914 4147785
-432.91306 656.97699 2248.397 3621441
-419.94412 658.73059 2254.3984 3555391
-403.33258 654.6936 2240.5825 3686977
-389.27646 654.66309 2240.478 3818563
-374.16046 652.78107 2234.0371 3884356
-359.97458 652.43866 2232.8652 3884356
-345.45203 651.43359 2229.4255 3752770
-330.93936 650.36328 2225.7627 3686977
-316.52686 649.40436 2222.4807 4278857
-301.14474 646.27631 2211.7756 3686977
-285.76398 642.84949 2200.0479 3950662
-271.91623 642.69879 2199.532 3884869
-258.13547 642.69879 2199.532 3621697
-244.65768 643.49567 2202.2593 3621954
-228.23492 636.17896 2177.219 3753283
-215.58333 639.11194 2187.2566 3950663
-201.70357 638.55505 2185.3508 4016199
-186.67274 634.00757 2169.7878 4147528
-173.07835 634.00757 2169.7878 3752770
-160.58026 638.36578 2184.7031 3687231
-147.86989 642.61365 2199.2407 3884867
-133.77267 641.08832 2194.0205 3753024
-118.78635 634.4646 2171.3521 3687231
-105.78772 638.11737 2183.853 3687231
-91.836823 636.258 2177.4897 3555645
-78.289932 637.03717 2180.1562 3621181
-64.431076 635.0708 2173.4265 3489851
-51.284119 640.94775 2193.5396 3292473
-37.449684 639.3902 2188.209 3160888
-23.825247 641.68958 2196.0781 2897715
-10.10759 644.33209 2205.1218 3424315
3.7165384 645.78406 2210.0911 2832179
17.640091 648.60229 2219.7358 3095093
31.521986 648.07928 2217.946 2963255
45.433693 648.3017 2218.7073 2765875
59.413738 649.16663 2221.6672 2700082
73.107971 647.17303 2214.8445 2897461
87.074219 647.83936 2217.125 2897461
101.22225 649.48877 2222.7698 2897461
115.36066 650.68488 2226.8633 2963254
129.23489 650.2937 2225.5244 3029047
143.01637 649.55737 2223.0044 2897716
156.6525 648.3501 2218.8728 2568750
169.97055 646.13062 2211.2769 2503213
183.80463 646.05933 2211.033 2897971
197.76819 646.42139 2212.272 2765872
211.86346 647.13831 2214.7256 2634030
225.63298 646.83319 2213.6814 2897202
240.24393 648.83588 2220.5354 2962995
254.15627 648.83588 2220.5354 2897202
267.50467 647.47095 2215.864 3029045
280.95673 646.47913 2212.4697 3094838
295.88 648.8067 2220.4355 3226167
310.26013 649.78778 2223.793 3423546
324.6749 650.75391 2227.0994 3423546
335.14322 644.05634 2204.178 3489596
349.31628 644.72668 2206.4722 2963252
363.9039 646.08203 2211.1106 2963508
377.75717 646.08203 2211.1106 2634287
390.19656 643.74933 2203.1274 3818304
