# .PCD v0.7 - Point Cloud Data file format
VERSION 0.7
FIELDS x y z rgb
SIZE 4 4 4 4
TYPE F F F U
COUNT 1 1 1 1
WIDTH 1275
HEIGHT 1
VIEWPOINT 0 0 0 1 0 0 0
POINTS 1275
DATA ascii
-228.03036 611.44177 1755.5667 2173740
-216.17929 609.04163 1748.6755 2107947
-206.07738 611.57635 1755.9532 1844775
-195.43066 612.68884 1759.1475 1976361
-186.28494 618.92145 1777.0422 2107947
-177.56723 627.45874 1801.5546 2173740
-164.92613 622.35016 1786.8867 1976361
-154.06985 623.72302 1790.8285 1910568
-142.97041 624.24988 1792.3412 1910568
-132.72862 628.93042 1805.78 2239533
-121.58685 629.82135 1808.3381 2371119
-110.44413 630.89001 1811.4065 2831670
-98.92157 629.78522 1808.2343 2765877
-87.051704 625.89752 1797.0719 2634291
-75.587158 624.20184 1792.2032 2634291
-64.060745 621.31445 1783.9131 3226428
-53.258762 625.71771 1796.5557 3094842
-42.243191 629.29901 1806.8383 2765877
-30.922787 629.29901 1806.8383 2700084
-19.513578 626.44806 1798.6527 2831670
-8.244462 626.44806 1798.6527 2699828
3.0201266 625.51025 1795.9601 2700084
14.268421 625.33704 1795.4628 2569011
25.77681 631.69043 1813.7046 2305839
37.147022 631.80597 1814.0363 2569011
49.228722 641.13348 1840.8173 2437425
60.762012 641.13348 1840.8173 2766390
72.032791 638.80536 1834.1329 2832183
82.82399 633.45007 1818.7568 2437425
94.289551 633.92401 1820.1174 2437425
105.48827 632.69513 1816.5892 2634291
116.88707 632.78888 1816.8583 2568754
128.403 633.44373 1818.7385 2569011
139.77437 633.33685 1818.4316 2700854
152.35909 638.32953 1832.7666 3029562
161.56229 629.448 1807.2661 2634804
173.8075 632.8053 1816.9055 2240046
185.27626 633.09674 1817.7422 2174253
195.86606 630.52484 1810.3579 2108460
205.13239 624.20734 1792.2191 2569011
214.8136 619.74243 1779.3997 2766390
224.62877 616.08557 1768.9 2568755
236.42732 617.9566 1774.2721 2371376
248.36807 620.01465 1780.181 2437425
258.98111 618.72357 1776.4742 2700597
270.61514 619.87781 1779.7882 2634804
281.74719 619.8363 1779.6689 2634802
292.2486 618.46338 1775.7271 2766388
303.99347 619.72601 1779.3524 2700851
314.49185 618.44818 1775.6835 2437423
326.09521 619.35638 1778.2911 2437423
337.07471 619.05872 1777.4365 2503473
349.48077 621.31635 1783.9186 2503216
360.67065 621.33893 1783.9833 2634032
371.8595 621.35834 1784.0391 2832437
384.45447 623.65759 1790.6407 3029560
395.67337 623.65759 1790.6407 3161146
405.18552 621.04156 1783.1296 3095353
420.25394 626.8537 1799.8174 2766387
429.45511 623.83911 1791.162 3029560
441.43622 624.91351 1794.2467 2897717
452.08658 624.09741 1791.9036 2107947
460.10385 619.77411 1779.4905 2108204
470.78256 619.15546 1777.7142 2437168
481.77322 618.96625 1777.171 2502705
493.87878 620.18561 1780.672 2305069
504.82593 619.92865 1779.9342 1976362
516.09283 620.06689 1780.3311 1713188
528.04633 621.00665 1783.0294 1712933
539.2334 621.02496 1783.0819 1910568
548.97467 619.41113 1778.4482 2305326
560.11719 619.41113 1778.4482 2568498
572.89728 621.18671 1783.5464 2371119
594.39203 632.16284 1815.0608 2107947
605.76398 632.16284 1815.0608 2700341
616.69299 631.70917 1813.7583 2634547
626.3374 629.9798 1808.793 2107434
634.36877 626.71832 1799.4287 2239020
645.51056 626.59003 1799.0602 2041641
655.58698 625.44971 1795.7863 1976361
673.32281 631.53198 1813.2495 2502705
681.81598 628.88715 1805.6558 2502705
694.35968 630.00378 1808.8618 2568498
705.89563 630.18481 1809.3817 2305326
717.85175 630.72943 1810.9453 2436912
732.65656 633.72107 1819.5348 2568498
742.76764 632.62329 1816.3829 2371119
755.04108 633.37262 1818.5344 2042154
764.45148 631.73364 1813.8286 1515810
782.58636 637.24689 1829.6582 1778982
807.81891 648.29706 1861.3853 1844775
824.58527 652.33502 1872.9791 1910568
834.38208 650.82336 1868.6388 2173740
835.18677 642.43671 1844.5592 2700085
852.95563 647.1499 1858.0917 2897720
864.59711 647.1499 1858.0917 2897463
865.47174 639.19794 1835.26 2502705
860.84766 627.44666 1801.5199 2239533
883.6416 635.72516 1825.2891 2239533
891.35693 633.08258 1817.7017 2042154
899.29059 630.65979 1810.7454 2371119
911.45087 631.22449 1812.3667 2371119
927.03479 634.11713 1820.672 2502705
931.94598 629.72778 1808.0695 2634291
932.65112 622.63593 1787.7073 2634291
945.33081 623.61176 1790.509 2634291
954.3067 622.1499 1786.3119 2371119
966.8194 623.00104 1788.7556 2239533
976.90088 622.28406 1786.697 2239533
984.06384 619.74524 1779.4076 2305326
994.4679 619.28162 1778.0764 1976361
1004.5116 618.60638 1776.1377 1976361
1014.4332 617.87152 1774.0278 2107947
1026.9003 618.68628 1776.3671 1976361
1038.6492 619.05536 1777.4269 2042154
1051.7208 620.19678 1780.704 2173740
1071.8575 625.43671 1795.7489 1976361
1077.3306 622.10028 1786.1693 1713189
1078.5038 616.37512 1769.7313 1515810
1078.821 610.28223 1752.2374 1844775
1095.926 613.71307 1762.0881 2173740
1107.2854 613.89014 1762.5964 2173740
1124.9403 617.51959 1773.0172 1647395
1136.0488 617.51959 1773.0172 1515810
1140.8236 614.11011 1763.228 1976361
1161.2649 619.11853 1777.6082 2568498
1165.1285 615.27747 1766.5797 2568498
1176.6127 615.49506 1767.2045 2305326
1196.6256 620.12842 1780.5078 1976617
1214.0079 623.32568 1789.6877 2173996
1228.1722 624.82715 1793.9988 1910568
1240.2826 625.26593 1795.2584 1845031
1254.8092 626.90399 1799.9618 1647652
1259.7633 623.77307 1790.9722 1778982
1293.0166 634.58606 1822.0184 2239533
1328.0942 646.09735 1855.0695 2436912
1343.2317 647.79242 1859.9363 2371120
1351.5115 646.17957 1855.3057 2567729
1363.2866 646.25122 1855.5114 2568754
1385.7303 651.33618 1870.1112 2700341
1407.0844 655.82794 1883.0079 3621186
1421.131 656.86743 1885.9926 3687235
1433.9071 657.30743 1887.2559 3949895
1432.881 651.46497 1870.4811 3291965
1417.6829 639.32617 1835.6283 1844519
1416.9451 633.85144 1819.9092 1581090
1415.6078 628.19806 1803.6772 1646883
1425.9919 627.79462 1802.5188 1778469
1443.5918 630.54919 1810.4279 1844262
1453.0197 629.7193 1808.045 2304813
1463.4938 629.35211 1806.9907 2502192
1481.2239 632.08691 1814.8429 2239020
1486.6039 629.55005 1807.5591 1910312
1496.7308 629.04657 1806.1135 1844262
1509.4038 629.61267 1807.7388 1910055
1517.3208 628.20123 1803.6863 2041641
1532.9209 629.96814 1808.7594 2173227
1544.2533 629.96814 1808.7594 2304814
1555.6675 630.00122 1808.8545 2436399
1575.7913 633.53546 1819.002 2370606
1591.7948 635.37433 1824.2817 2502192
1599.3611 633.8432 1819.8856 2502193
1611.2639 634.04028 1820.4513 2370606
1624.548 634.77423 1822.5587 2436400
1637.6846 635.44067 1824.4723 2502193
1646.7665 634.53558 1821.8734 2502193
1660.6141 635.46667 1824.5469 2436400
1669.8381 634.62775 1822.1381 2370607
1678.8889 633.7348 1819.5743 2304814
1691.1119 634.0434 1820.4602 2239021
1698.6953 632.61987 1816.373 2239022
1706.8755 631.43597 1812.974 2239021
1717.8243 631.28534 1812.5414 2370607
1729.0658 631.24347 1812.4213 2436400
1740.0507 631.10907 1812.0354 2502193
1751.0798 630.99243 1811.7004 2370607
1760.3938 630.26318 1809.6066 2041899
1740.1608 619.03241 1777.3608 1975849
1756.558 620.89221 1782.7007 1844520
1767.014 620.64172 1781.9816 1975849
1775.5098 619.71021 1779.307 1975849
1778.8682 617.00836 1771.5494 2107435
1789.1245 616.71783 1770.7152 2502193
1800.2186 616.71783 1770.7152 2699572
1806.5669 615.10193 1766.0758 2633779
nan nan nan 16777215
nan nan nan 16777215
nan nan nan 16777215
nan nan nan 16777215
nan nan nan 16777215
nan nan nan 16777215
nan nan nan 16777215
nan nan nan 16777215
nan nan nan 16777215
nan nan nan 16777215
nan nan nan 16777215
nan nan nan 16777215
-1571.8638 618.81421 1745.5009 2963256
-1566.613 621.06812 1751.8585 2897720
-1549.2531 618.51941 1744.6693 2831670
-1536.4033 617.74786 1742.493 2831670
-1523.8157 617.07141 1740.585 2831670
-1511.8003 616.61865 1739.3079 2502705
-1495.2357 614.29041 1732.7405 2897463
-1488.144 615.84821 1737.1346 3094842
-1484.069 618.68665 1745.1411 2897720
-1462.2594 614.11908 1732.2572 2502962
-1438.3656 608.60138 1716.6932 2568499
-1425.5781 607.73511 1714.2499 2502705
-1413.6647 607.2312 1712.8285 2371119
-1409.5946 610.11444 1720.9613 2371119
-1400.8169 610.98883 1723.4276 2634291
-1386.5889 609.48102 1719.1746 2502705
-1375.8176 609.48102 1719.1746 2502705
-1365.2549 609.57404 1719.4369 2371119
-1359.1841 611.69019 1725.406 2436912
-1344.1527 609.77521 1720.0044 2700084
-1331.8585 609.08105 1718.0464 2700084
-1329.9427 613.16052 1729.5535 2305326
-1319.1066 613.16052 1729.5535 1976361
-1312.0323 614.92371 1734.5269 2568498
-1313.8984 620.94141 1751.5012 2963256
-1295.2496 617.28363 1741.1836 2831670
-1276.9098 613.71228 1731.1097 2700084
-1268.5116 614.8988 1734.4567 2831670
-1256.8624 614.51636 1733.3778 2831670
-1242.6085 612.84259 1728.6566 2765877
-1231.5754 612.74182 1728.3723 2897463
-1217.1599 610.94147 1723.2942 3029049
-1208.1888 611.86615 1725.9023 3029049
-1196.5211 611.42957 1724.6709 2897463
-1188.2672 612.74542 1728.3824 2897463
-1176.8715 612.45038 1727.5503 2831670
-1168.5396 613.75916 1731.2419 2963256
-1156.3893 613.06799 1729.2925 2897463
-1144.0873 612.28265 1727.0773 2963256
-1130.1791 610.61456 1722.3719 3160635
-1116.8834 609.24841 1718.5186 3226428
-1109.8617 611.31134 1724.3374 3029306
-1100.1305 611.90778 1726.0198 2765877
-1088.653 611.53503 1724.9684 2963256
-1077.8455 611.53503 1724.9684 2897720
-1079.8501 618.87787 1745.6804 2963256
-1071.7319 620.51001 1750.2843 3160635
-1072.0836 627.13055 1768.9589 2305326
-1056.6913 624.58337 1761.7742 1844775
-1029.1604 614.73206 1733.9862 1976618
-1018.0295 614.57086 1733.5316 2173740
-1011.892 617.45319 1741.6619 2568498
-996.19812 614.50354 1733.3417 2634291
-982.32037 612.62146 1728.033 2700341
-976.10107 615.52692 1736.2283 2700341
-972.04321 619.8761 1748.4962 2502705
-973.04645 627.58875 1770.2513 2766134
-947.77228 618.33557 1744.1509 2963256
-924.04956 609.89069 1720.3301 3226428
-916.7243 612.19666 1726.8347 2568498
-912.56708 616.69873 1739.5337 2436912
-906.90179 620.27808 1749.6301 2371119
-896.79553 620.87061 1751.3013 2239533
-891.11328 624.57849 1761.7603 2831670
-879.16101 623.92963 1759.9301 2897463
-869.70081 625.0553 1763.1052 2700084
-853.20123 621.08569 1751.9081 2568499
-836.76398 617.05853 1740.5486 2371120
-823.11444 615.00793 1734.7645 2502705
-820.51892 621.27228 1752.4343 2436912
-809.53937 621.27228 1752.4343 2305583
-803.65167 625.2337 1763.6084 2831670
-783.08459 617.72589 1742.431 2831670
-769.71393 615.76288 1736.8939 2963256
-757.6532 614.80652 1734.1963 3095099
-744.31036 612.76685 1728.443 3160635
-736.61816 615.38757 1735.8353 2634291
-726.10919 615.69843 1736.7122 2766134
-714.05621 614.68958 1733.8665 2765877
-706.22498 617.33997 1741.3424 2634291
-702.02795 623.30017 1758.1544 2371376
-699.09583 630.59131 1778.7208 2700341
-682.40002 625.50262 1764.3671 2963256
-671.63275 625.77002 1765.1213 2831670
-662.37067 627.47235 1769.9231 2568498
-649.7359 625.98322 1765.7227 2765877
-638.67316 625.98322 1765.7227 2765877
-629.10748 627.4765 1769.9348 2765620
-619.54077 629.02228 1774.295 2765620
-611.42987 632.12964 1783.0601 2634291
-601.19751 633.11859 1785.8495 2305326
-587.51733 630.44525 1778.3087 2107947
-577.95367 632.17126 1783.1774 2568498
-570.771 636.62097 1795.7289 2502707
-567.52673 645.73083 1821.4252 2437425
-556.96796 646.72131 1824.219 2569011
-542.26941 642.8457 1813.287 2634804
-532.64111 644.94354 1819.2045 2634804
-519.25165 642.47931 1812.2534 2766390
-507.89731 642.47931 1812.2534 2766647
-495.86005 641.59564 1809.7609 2240302
-482.11227 638.40558 1800.7627 2436655
-470.47693 637.92694 1799.4125 2766134
-465.18219 646.23315 1822.8422 2634035
-449.3237 639.91302 1805.0148 2436912
-435.84058 636.73663 1796.0551 2371119
-422.67313 633.86548 1787.9562 2371119
-411.47101 633.86548 1787.9562 2502705
-398.74612 631.45392 1781.1539 2700084
-384.72696 626.79492 1768.0122 2831670
-373.58484 626.68597 1767.7048 2963256
-362.34164 626.39551 1766.8857 2502962
-348.89526 622.15808 1754.9331 2436912
-332.90207 612.95557 1728.9752 2897463
-321.6705 612.19617 1726.8334 2963256
-310.85138 612.19617 1726.8334 2107947
-299.43115 610.96979 1723.374 2371119
-288.34662 610.36218 1721.66 2436912
-277.7883 610.86438 1723.0768 2502705
-265.55359 607.57184 1713.7893 2634291
-253.83453 605.23126 1707.1873 2042154
-243.20303 605.39197 1707.6406 2239533
-233.93228 609.1106 1718.1296 2305326
-223.11655 608.97107 1717.7361 2107947
-213.08665 611.07092 1723.6593 1845032
-202.5811 611.95813 1726.1619 1713189
-192.09111 612.99512 1729.0869 1844775
-182.3709 616.75934 1739.7047 1910568
-173.55142 624.242 1760.8112 1976361
-162.13927 622.78192 1756.6926 1910568
-150.98502 622.17194 1754.972 1910825
-140.03041 622.35345 1755.484 1779239
-128.86375 621.54309 1753.1982 1910568
-117.76105 620.91895 1751.4377 1910824
-107.35614 624.22382 1760.7599 2107947
-96.066254 622.55072 1756.0405 2239533
-85.639153 626.75922 1767.9115 2502705
-74.562637 626.75922 1767.9115 2699827
-62.933548 621.30396 1752.5238 2963000
-51.910683 620.7926 1751.0814 2897463
-40.30999 611.24518 1724.1509 2436912
-29.634357 613.86993 1731.5544 2239533
-18.857161 616.20734 1738.1477 1910568
-7.9704976 616.46814 1738.8833 2107947
2.9197361 615.5387 1736.2615 2306095
13.891606 619.71661 1748.0463 2371632
25.04089 624.63647 1761.9238 2305839
36.123528 625.39191 1764.0548 2371632
47.050098 623.72455 1759.3516 2042668
58.069832 623.69067 1759.2561 1516323
68.679008 619.96155 1748.7373 2174510
81.160202 631.83228 1782.2212 2437682
92.504227 633.04944 1785.6544 2371888
103.52047 632.00281 1782.7023 2502961
114.68966 632.00281 1782.7023 2305326
125.58304 630.61786 1778.7957 2371376
136.82576 631.06989 1780.0708 2569011
147.52766 629.14752 1774.6482 2502962
157.78876 625.74634 1765.0546 2437425
169.1208 626.7597 1767.9128 2503475
180.19731 626.7597 1767.9128 2437425
190.63451 624.66467 1762.0035 2371632
200.94583 622.4093 1755.6416 2371889
213.54605 627.10968 1768.9 2239789
223.94847 625.21045 1763.5428 2305583
233.4743 621.15771 1752.1112 2371376
244.37695 620.96741 1751.5745 2502705
254.21996 618.21667 1743.8153 2765877
265.14548 618.21667 1743.8153 2765877
275.6181 617.20239 1740.9545 2700597
286.24576 616.59937 1739.2534 2766645
296.48608 615.23669 1735.4098 2766388
307.39413 615.30713 1735.6084 2569009
318.06018 614.90485 1734.4736 2569009
329.43137 615.84741 1737.1323 2569009
340.87659 616.86353 1739.9987 2766388
351.90674 617.08893 1740.6343 2765875
363.71976 618.63226 1744.9877 2700595
370.99225 612.5882 1727.9391 2897974
382.19116 613.1864 1729.6263 2897974
396.1911 618.12158 1743.5472 3227196
405.53674 615.7254 1736.7882 3095353
422.0116 623.99585 1760.1168 2963767
432.44525 623.13989 1757.7024 2700853
439.08859 617.00037 1740.3845 2240303
451.45847 619.01019 1746.0537 2107947
462.39804 619.01019 1746.0537 2305326
472.49005 617.90179 1742.9271 2436912
485.55145 620.63898 1750.6481 2371119
496.51981 620.63898 1750.6481 2173484
504.90356 617.47815 1741.7322 1844519
518.70746 620.93939 1751.4954 1975848
530.44159 621.83093 1754.0101 2304557
543.37115 624.05908 1760.2953 2238764
555.30939 625.08282 1763.1829 2238764
561.97656 620.2489 1749.5479 2502193
571.17413 618.33942 1744.1617 3028793
582.10187 618.33942 1744.1617 2963513
599.70398 625.29871 1763.7919 2831670
616.33258 631.0094 1779.9001 1976361
626.46472 629.98425 1777.0084 2107691
634.84241 627.26135 1769.3279 2107434
645.86206 627.19751 1769.1477 2107434
657.66595 627.88446 1771.0856 2173227
670.82922 629.82501 1776.5593 2107948
682.39459 630.22644 1777.6917 2239533
695.42529 631.94659 1782.5437 2436912
705.19855 630.69904 1779.0247 2436912
720.34796 634.22363 1788.9667 2042154
731.58844 634.25153 1789.0452 2107947
742.83618 634.28461 1789.1385 1976361
756.065 635.98322 1793.9298 1450017
767.3045 635.98322 1793.9298 1581603
788.69604 644.27625 1817.3221 1778982
805.37402 648.5376 1829.3422 1844775
818.35657 649.74542 1832.749 2042154
816.01611 638.92206 1802.2196 2502705
827.30756 638.92206 1802.2196 2436912
840.02466 640.00824 1805.2833 2765877
848.74103 638.05792 1799.782 2963256
853.35461 633.11487 1785.8391 2700084
860.93988 630.47589 1778.3953 2436912
869.52557 628.62775 1773.182 2371119
869.35272 620.57391 1750.4646 2568498
874.12579 616.20746 1738.1479 2634291
888.30103 618.49487 1744.6001 2173740
893.73114 614.71167 1733.9288 2173740
908.23187 617.18323 1740.9004 2765877
916.55505 615.44812 1736.0061 2831670
927.46808 615.47223 1736.0741 2700341
941.60406 617.60986 1742.1038 2502705
948.16626 614.7876 1734.1429 2568498
964.36035 618.20386 1743.7793 2700084
970.44672 615.1366 1735.1274 2107947
981.19702 615.06085 1734.9137 1976618
989.3941 613.40381 1730.2397 1976361
1002.5095 614.79895 1734.1749 1976361
1013.3746 614.79895 1734.1749 2239533
1021.6976 613.27301 1729.8708 2239533
1044.9575 620.65088 1750.6816 2107947
1057.7903 621.74664 1753.7725 1910568
1059.7872 616.5163 1739.0192 1713446
1068.6936 615.37091 1735.7882 1976361
1078.4393 614.72705 1733.972 2305326
1093.0575 616.8457 1739.9484 2502705
1108.6469 619.46515 1747.337 1778982
1117.8065 618.47589 1744.5466 1713189
1129.8049 619.06128 1746.1979 1976361
1136.5966 616.80981 1739.8469 2568498
1144.4862 615.19128 1735.2816 2765877
1157.3699 616.26239 1738.3029 2305326
1174.4095 619.50586 1747.4518 1976361
1179.9943 616.70264 1739.5447 1844775
1196.0657 619.38129 1747.1005 1910312
1212.7218 622.3114 1755.3654 1975848
1235.6931 628.40033 1772.5406 1712419
1250.351 630.1908 1777.5909 1712676
1265.2727 632.08136 1782.9238 2042154
1288.3694 637.98706 1799.5822 2173740
1319.0724 647.52411 1826.4835 2305583
1329.1776 646.87286 1824.6465 2502192
1337.5912 645.41644 1820.5382 2436143
1356.7919 649.14557 1831.0573 2634035
1369.4884 649.7265 1832.6958 3226171
1380.6655 649.58289 1832.2906 3423294
1384.053 645.80688 1821.6398 3225915
1402.814 649.20746 1831.2317 2831157
1402.0551 643.59247 1815.3933 2107434
1403.7494 639.18488 1802.9608 1778469
1398.8878 631.88635 1782.3738 1712676
1389.359 622.61194 1756.2133 2370606
1399.3269 622.15161 1754.9148 2567985
1413.1965 623.41968 1758.4916 2436399
1428.1436 625.13977 1763.3435 2436399
1439.1914 625.13977 1763.3435 2436399
1459.2177 629.00995 1774.2601 2173227
1465.9987 627.15533 1769.0288 2107434
1478.7196 627.85052 1770.9899 2173227
1479.1537 623.35742 1758.3159 1910312
1485.7815 621.52155 1753.1376 1976617
1500.7292 623.16754 1757.7804 2041899
1519.1295 626.21265 1766.3699 2107435
1535.0239 628.18823 1771.9425 2304814
1554.5024 631.59174 1781.5427 2567985
1569.3417 633.0752 1785.7272 2567986
1580.5299 633.0752 1785.7272 2502193
1590.5231 632.59991 1784.3866 2567986
1601.7029 632.59991 1784.3866 2567986
1609.4781 631.26471 1780.6202 2502193
1621.3379 631.5387 1781.3932 2502193
1632.156 631.40613 1781.0192 2436399
1640.8477 630.45825 1778.3455 2567985
1650.8669 630.02979 1777.137 2567986
1657.4042 628.28717 1772.2213 2567986
1669.9983 628.84845 1773.8047 2567987
1681.8005 629.10608 1774.5314 2567986
1692.9755 629.12726 1774.5911 2502194
1704.7209 629.35883 1775.2443 2436400
1716.9462 629.76331 1776.3851 2239021
1713.5574 624.47235 1761.4608 2107435
1707.1638 618.16107 1743.6586 1844263
1717.9019 618.09393 1743.4692 1844263
1723.5627 616.21252 1738.1622 1910056
1734.4232 616.20203 1738.1326 2107435
1738.974 613.96387 1731.8195 2173228
1747.671 613.20831 1729.6884 2173228
1765.5332 615.65808 1736.5983 2107435
1759.9464 609.95099 1720.5002 1975849
nan nan nan 16777215
nan nan nan 16777215
nan nan nan 16777215
nan nan nan 16777215
nan nan nan 16777215
nan nan nan 16777215
nan nan nan 16777215
nan nan nan 16777215
nan nan nan 16777215
nan nan nan 16777215
nan nan nan 16777215
nan nan nan 16777215
-1543.3873 618.28479 1713.8789 2831670
-1533.9177 618.79645 1715.2972 2831670
-1518.147 616.75543 1709.6396 2831670
-1506.7577 616.47809 1708.8707 2700084
-1495.9594 616.44031 1708.766 2305583
-1479.8127 614.18219 1702.5066 2436912
-1459.8633 610.30151 1691.7494 2831670
-1441.9325 607.21411 1683.1912 2897463
-1431.3866 607.21411 1683.1912 2700084
-1416.8359 605.5025 1678.4467 2436912
-1407.9703 606.21313 1680.4164 2305326
-1398.2717 606.573 1681.4141 2371119
-1389.5637 607.3714 1683.6272 2305326
-1379.0153 607.3714 1683.6272 2371119
-1371.4634 608.70135 1687.3138 2436912
-1356.4781 606.72723 1681.8416 2700084
-1344.5737 606.1109 1680.1332 2634291
-1334.9637 606.52734 1681.2875 2634291
-1327.3539 607.86639 1684.9993 2568498
-1315.9005 607.45258 1683.8523 2765877
-1299.7349 604.83929 1676.6082 2634291
-1302.4403 611.03668 1693.7872 2436912
-1298.5823 614.23132 1702.6428 2239533
-1290.6366 615.52948 1706.2412 2831670
-1289.1943 619.97687 1718.5693 3094842
-1269.8232 615.80438 1707.0033 2897463
-1250.0618 611.37018 1694.7118 2765877
-1243.3107 613.27753 1699.9989 2831670
-1232.5834 613.23956 1699.8938 2897463
-1218.9398 611.73743 1695.7299 2831670
-1208.6174 611.89032 1696.1536 2897720
-1196.651 611.20612 1694.257 2963256
-1188.2263 612.33484 1697.3859 2963256
-1180.1665 613.67377 1701.0973 2897463
-1166.1791 611.9267 1696.2544 2831670
-1154.8032 611.53046 1695.156 2634548
-1140.0291 609.31049 1689.0023 2831670
-1130.8358 610.05975 1691.0793 2897463
-1121.9044 610.96582 1693.5908 3029049
-1109.6359 610.05444 1691.0646 3292221
-1099.4679 610.2915 1691.7217 3094842
-1084.8798 608.05573 1685.5242 2568755
-1075.6932 608.83337 1687.6797 2634291
-1065.5353 609.07104 1688.3386 2765877
-1054.9573 609.07104 1688.3386 2831670
-1049.3881 611.99207 1696.4355 3095099
-1039.8887 612.65741 1698.2799 3029049
-1059.8527 630.87451 1748.7776 2371119
-1025.7557 616.95642 1710.1967 2305326
-1009.4191 613.53949 1700.725 2239533
-995.05829 611.26331 1694.4155 2239533
-984.44226 611.26331 1694.4155 2305326
-976.61218 613.01202 1699.2629 2239533
-969.95947 615.54651 1706.2885 2634291
-960.91913 616.60535 1709.2235 2634548
-951.50079 617.44281 1711.5449 2502705
-939.10516 616.34528 1708.5026 2502705
-929.57751 617.12634 1710.6678 2305326
-925.78357 621.77661 1723.5583 2568498
-911.31342 619.28162 1716.6422 2502705
-895.68402 615.92987 1707.3512 2436912
-884.98688 615.92987 1707.3512 2436912
-876.38 617.4024 1711.4331 2502705
-866.98639 618.35028 1714.0604 2700084
-862.38452 622.78241 1726.3463 2634291
-854.24207 624.73773 1731.7665 2239533
-845.43927 626.25421 1735.9701 2042154
-820.26697 615.52661 1706.2333 2371119
-804.79236 611.88885 1696.1495 2963256
-797.58142 614.52081 1703.4453 2239533
-787.48615 614.97168 1704.6951 2437169
-777.50665 615.52667 1706.2334 2897463
-766.02216 614.88892 1704.4657 2831670
-751.2829 611.58362 1695.3035 2765877
-741.04657 611.90179 1696.1854 2568498
-730.41943 611.90179 1696.1854 2634291
-721.0155 612.94165 1699.0679 2502705
-710.68231 613.21082 1699.814 2634291
-701.30511 614.32562 1702.9043 2765877
-690.63593 614.32562 1702.9043 2634291
-681.76178 615.94751 1707.4 2502705
-679.68384 623.85901 1729.3306 2766134
-668.849 623.85901 1729.3306 2765877
-659.07501 624.86469 1732.1184 2634291
-643.90497 620.70251 1720.5808 1976361
-633.20099 620.77698 1720.7872 2173740
-623.11365 621.46912 1722.7059 2436912
-613.20422 622.36609 1725.1924 2371119
-605.51038 625.58441 1734.1135 2305326
-596.85828 627.91217 1740.566 2173740
-587.89783 629.99622 1746.3429 1976361
-579.38202 632.64478 1753.6847 1778982
-568.97046 633.28564 1755.4613 2371376
-561.37274 637.14545 1766.1606 2634292
-550.26031 637.09119 1766.0101 2502448
-541.60968 639.94348 1773.9166 2436656
-535.07385 645.46637 1789.2261 1910825
-527.14026 649.50336 1800.4165 2634804
-514.46967 647.75269 1795.5637 2700854
-500.49094 644.23993 1785.8263 2371632
-488.98254 643.81909 1784.6598 2371632
-475.08545 640.15991 1774.5165 2436912
-460.27621 635.06671 1760.3983 2371120
-448.43457 633.91858 1757.2157 2371119
-440.3121 638.10248 1768.8134 2239533
-433.31403 644.17401 1785.6436 2239533
-419.05115 639.48108 1772.6349 2502705
-404.18607 633.58862 1756.301 2502705
-390.1904 628.76733 1742.9365 2897463
-377.3255 625.54309 1733.9989 3029306
-365.33426 623.61902 1728.6654 2963513
-352.75467 620.5423 1720.1368 2766134
-339.62558 616.2746 1708.3068 2173740
-328.57489 615.62335 1706.5015 3029049
-316.47495 612.89624 1698.9419 3752772
-304.31839 609.86578 1690.5416 2107947
-294.61536 611.711 1695.6565 2239533
-283.99152 611.711 1695.6565 2371119
-273.07291 611.05133 1693.8279 2305326
-260.82977 607.25464 1683.3035 2634291
-250.65315 608.15186 1685.7906 2305326
-239.51784 606.69965 1681.7651 1976361
-228.84412 606.33685 1680.7594 2502705
-220.15739 611.45764 1694.9541 2239533
-209.85013 612.36847 1697.4789 2173740
-202.32455 621.92725 1723.976 3160635
-191.11192 620.59143 1720.2729 3029049
-179.96838 619.33356 1716.7861 1778982
-172.23584 630.40045 1747.4635 1450017
-160.70325 628.11713 1741.1342 1384224
-148.37108 622.14844 1724.589 1844775
-137.12074 620.13477 1719.0071 1910055
-125.79208 617.39343 1711.4081 1581090
-115.0665 617.37683 1711.3621 1712420
-104.34428 617.37683 1711.3621 1712676
-93.67878 617.75079 1712.3988 1646883
-83.039551 618.41724 1714.2461 1910055
-72.869827 623.29755 1727.7743 2239020
-61.640484 619.2359 1716.5155 2304813
-50.800903 618.20062 1713.6456 2436912
-40.085091 618.52014 1714.5314 2107947
-29.171495 614.9046 1704.5092 2305326
-18.432116 612.90613 1698.9694 2436912
-7.8316751 616.37933 1708.597 2700084
2.873215 616.37933 1708.597 2503218
13.577137 616.33533 1708.4751 2437169
24.377527 618.77887 1715.2485 2436654
35.646774 627.98688 1740.7731 2568753
46.005699 620.60059 1720.2983 2305068
57.003033 622.99542 1726.9369 1647395
68.150162 626.0022 1735.2716 2436911
79.523575 629.97418 1746.282 2371118
90.248283 628.46802 1742.1068 2371118
100.64665 625.25946 1733.2128 2371119
111.5362 625.43011 1733.6858 2042154
122.39828 625.43011 1733.6858 1581860
132.8119 623.32544 1727.8516 1844775
143.97865 624.80621 1731.9562 2239533
154.4157 623.1347 1727.3229 2371119
165.6062 624.52362 1731.173 2305070
176.55605 624.88995 1732.1884 2634291
186.24805 621.01978 1721.4603 2765877
195.71454 616.86255 1709.9364 2107947
206.61395 617.4187 1711.4781 1844775
218.71518 621.33417 1722.3319 2173740
228.68834 619.12024 1716.1948 2305326
237.49561 614.09045 1702.2524 2305326
247.5947 612.68976 1698.3696 2502705
258.03394 612.21155 1697.0439 2437425
268.67316 612.22681 1697.0863 2503474
279.32736 612.2738 1697.2166 2503217
290.15457 612.68262 1698.3499 2569009
301.14191 613.38873 1700.3071 2569009
311.79688 613.39264 1700.3181 2634802
323.32437 615.05615 1704.9293 2634802
334.95181 616.7973 1709.7557 2898230
345.66397 616.7973 1709.7557 3160633
359.37979 621.99591 1724.1661 2635059
367.02768 616.6955 1709.4735 2766388
377.47919 616.27289 1708.302 2963767
387.88617 615.80286 1706.999 2634545
397.85468 614.6806 1703.8883 2634547
408.88757 615.21857 1705.3794 2634547
419.5723 615.21857 1705.3794 2700341
429.81631 614.58844 1703.6327 2634548
438.83896 612.28467 1697.2467 2240045
452.18979 615.9859 1707.5065 2305839
468.74838 623.78473 1729.1248 3095099
478.32721 622.15283 1724.6012 2897720
487.88431 620.56537 1720.2007 2568498
496.67282 618.09003 1713.339 2173484
510.43808 621.7818 1723.5726 2239533
520.54144 620.95233 1721.2733 2502448
530.88 620.43134 1719.8292 2831927
538.36652 616.66431 1709.387 2766134
549.07635 616.66431 1709.387 2765877
559.6134 616.47394 1708.8593 2765877
569.10571 615.1615 1705.2212 2371119
583.89795 619.52057 1717.3046 2305326
602.01392 627.18469 1738.5494 2436912
615.50238 629.84106 1745.9128 2305326
621.93878 625.31433 1733.3649 2305326
629.9054 622.45508 1725.4391 2173740
641.98792 623.69104 1728.865 2239789
652.34399 623.23639 1727.6049 2239533
664.11719 624.12848 1730.0776 2371119
680.20898 628.98523 1743.5405 2305326
695.83636 633.26587 1755.4064 2239534
711.23676 637.20996 1766.3394 2371119
725.33942 639.88824 1773.7635 2173740
738.00446 641.23663 1777.5013 2568498
749.28857 641.36292 1777.8513 2042154
756.90277 638.39014 1769.6108 1581603
771.24786 641.09839 1777.1179 1713190
782.38208 641.09839 1777.1179 1976361
792.17206 640.01233 1774.1074 2107947
803.53119 640.2066 1774.646 2239533
812.99768 638.90814 1771.0468 2239533
821.47327 636.87646 1765.4149 2831670
819.07916 626.58362 1736.8832 3423807
816.71063 616.57996 1709.1532 3621186
830.56982 618.92792 1715.6616 2897463
839.17896 617.35352 1711.2976 2963256
847.64429 615.71442 1706.754 2831670
852.48676 611.51746 1695.12 2634291
863.35297 611.69165 1695.6028 2239533
873.06903 611.05646 1693.8422 2305326
893.55096 617.88116 1712.7601 2765877
900.35815 615.20001 1705.3281 2765877
908.03265 613.1676 1699.6941 2765877
920.22876 614.2002 1702.5564 2765877
930.72827 614.08954 1702.2499 2897463
938.98944 612.52148 1697.9031 2700341
949.06641 612.15961 1696.9001 2239533
957.43152 610.71393 1692.8926 2173740
968.1958 610.81342 1693.1685 2239533
979.0166 610.94604 1693.5361 2239533
989.56439 610.90741 1693.429 2173740
1001.5267 611.7334 1695.7186 2371119
1017.4656 614.94562 1704.6228 2173740
1029.1464 615.54425 1706.2821 2042154
1043.9774 617.9953 1713.0765 1976361
1052.5098 616.70581 1709.5022 2173740
1057.2375 613.2356 1699.8827 2436912
1067.0841 612.77405 1698.6034 2371119
1078.179 613.03137 1699.3167 2239533
1091.8448 614.7312 1704.0286 2042154
1103.8075 615.44849 1706.0168 2107947
1112.3546 614.26587 1702.7385 2436912
1123.0127 614.26038 1702.7233 2634291
1140.7251 618.07709 1713.3033 2239533
1150.4135 617.51569 1711.7469 2239533
1161.1381 617.51569 1711.7469 2042154
1172.7087 617.96149 1712.9828 1910568
1184.7213 618.62994 1714.8358 1844775
1202.0404 622.03241 1724.2675 1581603
1219.0408 625.21094 1733.0781 1450017
1241.42 631.0675 1749.3125 1712933
1252.38 631.0675 1749.3125 1910568
1271.4885 635.13782 1760.5955 2107947
1282.41 635.0838 1760.4457 2436143
1281.4777 629.21039 1744.1646 2239020
1299.1113 632.47516 1753.2145 2239020
1339.0479 646.45239 1791.9592 2239020
1350.4861 646.55347 1792.2394 2502192
1350.1642 641.06903 1777.0366 2370606
1368.0868 644.26605 1785.8988 2436399
1369.5747 639.73456 1773.3375 2436399
1368.8843 634.26666 1758.1805 2436399
1374.4132 631.74469 1751.1897 2436399
1366.3269 623.05414 1727.0995 2567985
1373.8387 621.55707 1722.9497 2502192
1386.5923 622.43634 1725.387 2436399
1400.0697 623.62439 1728.6804 2502192
1408.9252 622.75134 1726.2601 2436399
1416.8704 621.49231 1722.7701 2304813
1426.6886 621.06769 1721.5931 2304813
1434.8284 619.92419 1718.4235 2173227
1445.5948 619.92419 1718.4235 1975848
1453.9479 618.89691 1715.5758 1844262
1473.739 622.71777 1726.1672 2370606
1484.5541 622.71777 1726.1672 2436401
1498.1938 623.8941 1729.428 2239021
1515.7482 626.67206 1737.1283 2239021
1524.2979 625.71393 1734.4725 2239021
1526.2712 622.08899 1724.4242 2436401
1555.3783 629.49664 1744.9581 2633778
1561.5361 627.57764 1739.6387 2567985
1567.498 625.60699 1734.1761 2502192
1585.4529 628.41711 1741.9657 2502192
1598.2061 629.14117 1743.9728 2436398
1608.1405 628.7533 1742.8976 2239020
1611.5363 625.83136 1734.798 2370607
1619.7124 624.79254 1731.9185 2567986
1625.5316 622.8645 1726.5739 2633779
1635.6406 622.59485 1725.8264 2699572
1648.657 623.4281 1728.1362 2567986
1663.5341 624.94946 1732.3534 2370607
1667.2246 622.27594 1724.9424 2173228
1665.625 617.67499 1712.1886 2107435
1675.4615 617.34668 1711.2786 2041642
1680.634 615.31506 1705.6469 1975849
1691.1399 615.24933 1705.4647 2041642
1698.4985 614.04669 1702.131 2107435
1705.5469 612.74756 1698.5298 2173228
1716.7053 612.93201 1699.0411 2370607
1740.4579 617.58307 1711.9338 2173228
1747.7533 616.37329 1708.5803 1910056
nan nan nan 16777215
nan nan nan 16777215
nan nan nan 16777215
nan nan nan 16777215
nan nan nan 16777215
nan nan nan 16777215
nan nan nan 16777215
nan nan nan 16777215
nan nan nan 16777215
nan nan nan 16777215
nan nan nan 16777215
nan nan nan 16777215
nan nan nan 16777215
-1529.1373 627.52466 1709.9515 2634291
-1515.6179 626.36499 1706.7916 2700084
-1505.3273 626.53271 1707.2485 2831670
-1491.4803 625.21204 1703.6499 2897463
-1476.3723 623.3399 1698.5483 2831927
-1446.1924 615.03082 1675.907 2831670
-1437.9355 615.99188 1678.5256 2568755
-1427.2633 615.92462 1678.3424 2371119
-1413.1012 614.33917 1674.0222 2305326
-1405.9966 615.82123 1678.0607 2173740
-1395.7458 615.93719 1678.3767 2436912
-1387.7371 617.05188 1681.4141 2107947
-1377.9613 617.39178 1682.3403 2305326
-1365.3125 616.43988 1679.7465 2568498
-1352.115 615.22345 1676.4319 2568755
-1340.2186 614.58466 1674.6912 2568498
-1331.3037 615.31378 1676.678 2634291
-1324.4299 617.00543 1681.2875 2634291
-1310.2394 615.28815 1676.6082 2700084
-1296.4204 613.71912 1672.3326 2700084
-1285.9427 613.71912 1672.3326 2700084
-1287.1503 619.34174 1687.6538 2634291
-1280.4869 621.23889 1692.8234 2963256
-1271.3806 621.97253 1694.8225 3029049
-1260.0179 621.60553 1693.8224 2766134
-1248.3801 621.09528 1692.432 2831670
-1239.4438 621.93188 1694.7118 2502705
-1228.9136 621.97626 1694.8326 2436912
-1217.9821 621.81653 1694.3973 2502705
-1205.4058 620.80688 1691.6462 2436912
-1194.087 620.4328 1690.6268 2831670
-1183.6052 620.49066 1690.7845 2963256
-1175.665 621.89417 1694.6089 2897463
-1165.0479 621.89417 1694.6089 2700341
-1150.7734 619.92401 1689.2405 2765877
-1134.8781 617.03607 1681.371 2831670
-1125.7913 617.83038 1683.5355 3029049
-1120.2308 620.59344 1691.0646 3226427
-1100.4507 615.45636 1677.0665 3226428
-1092.3757 616.82983 1680.8091 2700084
-1078.6134 614.98737 1675.7885 2700084
-1073.9972 618.37469 1685.0187 2700084
-1063.4401 618.37469 1685.0187 2436912
-1041.4937 611.68567 1666.7915 2371119
-1031.0507 611.68567 1666.7915 3226428
-1037.7451 621.9566 1694.7792 2963256
-1033.1357 625.59521 1704.6941 2502705
-1021.9261 625.27148 1703.8118 2568498
-998.17059 617.18353 1681.7728 2239533
-993.84998 621.06812 1692.358 1910568
-979.82947 618.90955 1686.4761 2173740
-974.72046 622.39417 1695.9714 2634292
-965.9082 623.56494 1699.1616 2305326
-958.47614 625.66278 1704.8781 2371119
-948.30774 626.00153 1705.8011 2305326
-936.52155 625.26788 1703.8021 2239533
-925.84668 625.26788 1703.8021 2239533
-919.1109 627.95917 1711.1356 2371119
-904.45941 625.24194 1703.7313 2568498
-893.78497 625.24194 1703.7313 2371119
-883.47424 625.49939 1704.4329 2371119
-870.47986 623.83997 1699.911 2831670
-860.71442 624.48199 1701.6606 2568498
-856.94611 629.54596 1715.4595 2502705
-843.05005 627.20386 1709.0774 2305326
-835.70984 629.74152 1715.9923 2173740
-812.06476 619.89886 1689.1719 2371119
-798.55994 617.63916 1683.0144 3029049
-788.85052 618.2937 1684.7981 2897463
-777.22797 617.44629 1682.4889 2831670
-775.41138 624.47272 1701.6353 3029049
-761.56006 621.8678 1694.5371 3292221
-745.95801 617.73938 1683.2876 3160635
-736.828 618.92914 1686.5295 2502962
-728.10315 620.49872 1690.8064 2568498
-719.74823 622.43457 1696.0814 2700084
-710.07538 623.27161 1698.3624 2831670
-700.29913 624.04199 1700.4615 2765877
-689.27679 623.70862 1699.5532 2371119
-680.38843 625.32605 1703.9604 2371119
-673.86725 629.20538 1714.5314 2436912
-666.76862 632.66241 1723.9515 2371119
-645.48273 622.55017 1696.3965 2173740
-641.87537 629.43512 1715.1575 2042154
-632.48682 630.78894 1718.8466 1976361
-620.92188 629.98151 1716.6462 2042154
-610.16656 629.98151 1716.6462 2568498
-601.78918 632.48077 1723.4565 2568498
-593.49615 635.1615 1730.7614 1910568
-582.65234 635.1615 1730.7614 1778982
-576.82611 640.73492 1745.9484 2173740
-567.26093 642.29034 1750.1868 3489857
-553.64276 639.2276 1741.8411 3029049
-545.45386 642.43622 1750.5842 1910568
-539.75452 648.76892 1767.8403 2436912
-530.83875 651.41998 1775.0643 2699828
-522.21558 654.55115 1783.5966 2437425
-507.93207 650.56946 1772.7467 2240046
-497.30496 651.19763 1774.4584 2305839
-486.20334 651.21893 1774.5165 2437425
-470.13354 644.43109 1756.0203 2305326
-459.05576 644.32477 1755.7305 2371119
-447.2244 643.12952 1752.4735 2371119
-430.45572 634.59528 1729.2185 2173740
-429.22992 649.12598 1768.8134 2634291
-415.18985 644.53418 1756.301 2766134
-399.71521 637.40472 1736.8739 2502705
-388.06415 636.1441 1733.4388 3029049
-372.71918 628.58118 1712.8304 2700341
-364.80087 633.46613 1726.1415 2437169
-350.11963 626.54706 1707.2876 2897463
-339.26666 626.25854 1706.5015 2831670
-327.9837 625.13171 1703.431 3094842
-316.30762 623.15454 1698.0435 3094842
-303.38849 618.50574 1685.3757 2634291
-292.37631 617.54938 1682.7698 2305326
-282.54672 619.11279 1687.0299 2436912
-269.70529 613.94171 1672.9392 2765877
-259.22382 613.94171 1672.9392 2897463
-249.10201 614.82941 1675.3582 2239533
-238.60535 614.82941 1675.3582 2107947
-228.19916 615.07318 1676.0223 2436912
-216.97314 613.02423 1670.4391 2371119
-208.67885 619.47046 1688.0046 1976361
-201.52863 630.18243 1717.1938 1713189
-187.78087 620.30872 1690.2887 2897463
-177.19067 620.30872 1690.2887 2831670
-168.94901 629.05298 1714.1161 2370862
-158.60175 630.61243 1718.3655 1778983
-147.68274 629.96014 1716.588 2173227
-135.51317 623.45197 1698.8538 2304813
-124.96861 623.94769 1700.2047 1317918
-114.31631 623.94769 1700.2047 1712933
-103.91595 625.46423 1704.337 2041641
-93.237747 625.46423 1704.337 1383711
-82.759384 626.97815 1708.4624 1252125
-71.968834 626.22546 1706.4114 1910055
-61.393646 627.41101 1709.6418 2173227
-50.682209 627.41101 1709.6418 2173483
-39.808651 624.86621 1702.7075 1778982
-28.939507 620.55286 1690.954 2239533
-18.278633 618.30261 1684.8223 2897463
-7.7875447 623.49438 1698.9694 2569011
2.860682 624.29248 1701.1442 2371632
13.472104 622.13251 1695.2584 1779752
24.099842 622.29822 1695.71 1713702
35.052082 628.1781 1711.7321 2240302
45.776615 628.1781 1711.7321 2437681
56.569912 628.94257 1713.8153 2502706
67.307495 628.94257 1713.8153 2371375
78.66214 633.91534 1727.3656 2173740
89.667427 635.21027 1730.8943 2042154
99.894699 631.30902 1720.2635 2042154
110.80866 632.08466 1722.3772 1976361
121.98638 634.09369 1727.8516 1910568
131.85092 629.50555 1715.3494 1844775
143.59348 633.89966 1727.3229 1976361
153.34009 629.48413 1715.2909 2107947
164.08691 629.48413 1715.2909 2436912
175.32408 631.24957 1720.1016 2634291
185.03563 627.63568 1710.2542 2107947
194.53918 623.75055 1699.6675 1976361
206.10258 626.53046 1707.2424 1844775
217.2626 627.87018 1710.8931 1910568
226.08281 622.64014 1696.6416 2042154
236.71278 622.64014 1696.6416 2107947
247.16544 622.19366 1695.425 2305070
255.66727 617.07556 1681.4786 2568498
268.3894 622.14551 1695.2938 2371632
279.01093 622.14551 1695.2938 2305840
289.87701 622.67078 1696.7252 2569011
300.50754 622.67078 1696.7252 2371632
311.51318 623.42157 1698.771 2503217
322.4534 623.99615 1700.3367 2700596
331.37769 620.75751 1691.5117 3029561
344.12814 624.66498 1702.1592 3094584
355.71191 626.28339 1706.5692 2503472
365.26419 624.33502 1701.26 2437423
375.92313 624.33502 1701.26 2437423
386.37543 624.00134 1700.3507 2569009
397.15836 624.20514 1700.9061 2437679
408.14954 624.71716 1702.3013 2503216
418.5809 624.36798 1701.3499 2569009
428.55643 623.37305 1698.6388 2569268
438.62799 622.56274 1696.4308 2700597
448.62738 621.69067 1694.0544 2371889
460.8187 623.82629 1699.8738 2700597
474.13538 627.35437 1709.4875 2963513
483.63132 625.78296 1705.2054 2963256
494.18506 625.61841 1704.7572 3292221
507.09448 628.38007 1712.2823 3094842
519.50104 630.41699 1717.8329 2634291
526.86444 626.37561 1706.8206 2700084
537.21222 625.97241 1705.7219 2963256
548.09753 626.19916 1706.3397 3029049
556.93085 624.11761 1700.6677 2634291
567.94769 624.51538 1701.7515 2173740
578.54077 624.44098 1701.5487 2305326
596.11963 631.77283 1721.5275 2371119
610.87463 635.90454 1732.786 2502705
617.07068 631.13794 1719.7974 2568498
627.84576 631.13794 1719.7974 2502705
640.02679 632.5274 1723.5836 2436912
651.82953 633.50317 1726.2424 2371119
663.16797 634.00317 1727.6049 2436912
676.67059 636.52289 1734.4709 2831670
691.13275 639.85126 1743.5405 2963256
706.49622 643.89752 1754.5663 2634292
718.51886 644.82166 1757.0844 1778982
733.63885 648.45563 1766.9867 1778982
741.70056 645.83551 1759.847 2502705
753.78027 646.73962 1762.3107 2897463
767.18494 648.73792 1767.756 3094842
776.65338 647.39832 1764.1056 2765877
788.5152 648.06335 1765.9177 2568498
801.90155 649.94562 1771.0468 2634291
806.30463 644.59485 1756.4664 2305326
816.17267 643.69843 1754.0236 2634291
806.00226 627.23169 1709.1532 3160635
810.68665 622.60529 1696.5466 3752772
821.3161 622.60529 1696.5466 3160635
836.95087 626.35126 1706.754 3029049
839.73627 620.50781 1690.8312 2897463
849.13788 619.63794 1688.4609 2568498
860.34436 620.09039 1689.6938 2502705
863.27887 614.64233 1674.8484 2371119
880.69135 619.50946 1688.1107 2765877
897.31146 623.71021 1699.5575 2765877
906.73376 622.8681 1697.2628 2700084
917.64484 623.05634 1697.7756 2897463
926.24115 621.68652 1694.0432 2502962
932.31268 618.67242 1685.83 2305326
940.98407 617.4317 1682.4491 2437169
953.34277 618.61121 1685.6631 2634291
967.29321 620.78625 1691.59 2502705
975.78015 619.44592 1687.9377 2305326
987.22131 619.98956 1689.4191 2173740
1000.1411 621.44055 1693.3728 2107947
1012.8726 622.74518 1696.928 2305326
1027.6322 625.25671 1703.7716 2305326
1038.3069 625.25671 1703.7716 2239533
1046.5872 623.82953 1699.8827 2173740
1056.906 623.63397 1699.3497 2568498
1064.6102 621.91492 1694.6654 2831670
1075.2224 621.9118 1694.657 2568498
1085.84 621.9118 1694.657 2239533
1096.1375 621.73022 1694.1622 2107947
1106.752 621.73022 1694.1622 2502962
1119.7197 623.03967 1697.7303 2831670
1133.6741 624.86829 1702.7131 2436912
1144.342 624.86829 1702.7131 2436912
1154.8546 624.78418 1702.484 2568755
1163.9993 623.96832 1700.2609 2831927
1182.0105 627.87714 1710.912 2502705
1199.2872 631.32904 1720.3182 1844775
1212.8434 632.77838 1724.2675 1515810
1229.899 636.01178 1733.0781 2502705
1246.0439 638.72156 1740.4623 2568498
1256.7013 638.59601 1740.1201 2502705
1268.9515 639.27502 1741.9703 2633778
1268.7173 633.70667 1726.797 2239020
1281.5291 634.69366 1729.4865 2041641
1320.5452 648.53333 1767.1984 1844262
1338.1881 651.73352 1775.9186 1778469
1339.7302 647.10406 1763.3038 2239020
1322.0311 633.33264 1725.7778 2370606
1353.7882 643.28491 1752.897 2370606
1349.0901 635.89386 1732.757 2502192
1355.5061 633.81769 1727.0995 2699571
1353.9948 628.09698 1711.5112 2765364
1369.8556 630.46161 1717.9545 2765364
1375.524 628.13489 1711.6144 2239020
1396.3101 632.69427 1724.0383 2239020
1402.0128 630.40161 1717.791 2370606
1412.9237 630.46783 1717.9716 2304813
1421.7046 629.58978 1715.5789 2436399
1433.2146 629.92444 1716.4907 2304813
1443.1993 629.58868 1715.5758 1975848
1440.2626 623.66266 1699.4279 1844262
1450.9099 623.66266 1699.4279 2107434
1470.1005 627.30804 1709.3613 2304814
1480.8102 627.30804 1709.3613 2239021
1509.0372 634.67554 1729.4371 2107435
1518.6058 634.14655 1727.9956 2107435
1517.6749 629.27161 1714.7119 2239021
1537.0753 632.83588 1724.4242 2765366
1555.4484 635.93042 1732.8566 2831158
1566.3053 635.93042 1732.8566 2568243
1578.1327 636.32178 1733.9229 2699572
1592.7211 637.81342 1737.9874 2765364
1600.6672 636.64288 1734.798 2765365
1608.8613 635.58618 1731.9185 2502193
1614.276 633.45288 1726.1055 2502192
1625.0906 633.45288 1726.1055 2567986
1620.4976 627.48682 1709.8484 2699572
1643.1088 632.06384 1722.3204 2567986
1656.6946 633.13202 1725.2311 2502193
1655.2715 628.48749 1712.5752 2502193
1663.8698 627.68341 1710.3842 2304814
1671.8634 626.66296 1707.6035 2173228
1678.3495 625.09406 1703.3284 2239021
1687.5367 624.54456 1701.8311 2239021
1692.3323 622.3869 1695.9515 2173228
1702.9579 622.3869 1695.9515 2239021
1715.6394 623.13361 1697.9862 2370607
1727.3503 623.52069 1699.0411 2304814
1736.2441 622.89246 1697.3291 2107435
nan nan nan 16777215
nan nan nan 16777215
nan nan nan 16777215
nan nan nan 16777215
nan nan nan 16777215
nan nan nan 16777215
nan nan nan 16777215
nan nan nan 16777215
nan nan nan 16777215
nan nan nan 16777215
nan nan nan 16777215
nan nan nan 16777215
nan nan nan 16777215
-1495.686 624.22058 1672.5448 2700084
-1481.1632 622.52094 1667.9908 2700084
-1470.5846 622.46667 1667.8455 2765877
-1457.7709 621.45886 1665.145 2700084
-1441.5024 618.95306 1658.431 2831670
-1425.6667 616.59802 1652.121 2568498
-1415.5935 616.71906 1652.4453 2502705
-1411.0708 619.27789 1659.3014 2502705
-1390.3495 614.71283 1647.0696 2502705
-1380.0302 614.71283 1647.0696 2568498
-1370.3916 615.01837 1647.8884 2634291
-1361.6462 615.73248 1649.8018 2568498
-1351.985 616.04016 1650.6262 2436912
-1335.0353 613.00598 1642.4963 1910568
-1321.7732 611.63098 1638.8123 2634291
-1319.2062 615.22229 1648.4347 2831670
-1309.9342 615.71863 1649.7646 2831670
-1301.2029 616.47906 1651.8021 2568498
-1288.3719 615.29376 1648.6262 2568498
-1278.0428 615.29376 1648.6262 2700084
-1273.7161 618.20709 1656.4323 2700084
-1255.9379 614.58588 1646.7295 2700084
-1245.6206 614.58588 1646.7295 2634291
-1237.333 615.59564 1649.4351 2700341
-1233.807 619.01147 1658.5874 2766134
-1221.0328 617.80591 1655.3573 2897463
-1210.0345 617.4859 1654.5 2897463
-1195.4352 615.30688 1648.6615 2765877
-1185.1057 615.30688 1648.6615 2436912
-1180.8115 618.46796 1657.1311 2436912
-1167.9441 617.15479 1653.6127 2305326
-1157.3428 617.02643 1653.2687 2634291
-1148.0559 617.60266 1654.8129 2831670
-1138.7946 618.20343 1656.4224 2963255
-1129.5308 618.81384 1658.058 2831672
-1116.9807 617.61853 1654.8552 2831671
-1099.6023 613.70593 1644.3718 2700341
-1091.1573 614.7525 1647.176 3160636
-1084.0571 616.58386 1652.083 3686980
-1073.4185 616.41852 1651.64 2766134
-1054.7877 611.61591 1638.7717 2634548
-1047.8153 613.54523 1643.9412 2700084
-1041.7655 616.05853 1650.6754 2634548
-1021.0382 609.85553 1634.0549 3094842
-1009.0255 608.78461 1631.1855 3029049
-1002.6586 611.13312 1637.4781 2502705
-1009.1981 621.47803 1665.1964 2305326
-998.96814 621.60443 1665.535 1910825
-989.10614 621.96478 1666.5006 1581603
-964.75781 613.1264 1642.819 1844775
-955.75153 613.95276 1645.0332 2239533
-946.59558 614.70007 1647.0354 2370606
-937.79468 615.69684 1649.7063 2305326
-935.61871 621.11389 1664.2207 2042154
-916.72992 615.43304 1648.9995 1647653
-904.74536 614.31067 1645.9921 2173740
-907.47144 623.26587 1669.9868 2436912
-898.52905 624.32239 1672.8177 2305326
-889.53973 625.37091 1675.6271 2371119
-879.04138 625.37091 1675.6271 2371119
-864.56317 622.50525 1667.9489 2502705
-849.32184 619.01337 1658.5925 2897463
-836.73822 617.39594 1654.2589 2897463
-835.3158 624.07666 1672.1593 2700084
-827.89111 626.3858 1678.3464 2765877
-817.71509 626.64581 1679.0431 2634291
-799.39117 620.58722 1662.8096 2700084
-788.97314 620.58722 1662.8096 2700084
-777.69269 619.89978 1660.9677 2963256
-768.12964 620.58118 1662.7935 2897720
-758.54309 621.26215 1664.6179 2963513
-743.21521 617.19421 1653.7183 3094842
-727.76202 612.9057 1642.2277 2831670
-717.50269 612.93109 1642.2957 2502705
-711.20782 616.39319 1651.572 2568498
-703.33844 618.57269 1657.4119 2699571
-693.737 619.27142 1659.2841 2502192
-685.25006 621.00146 1663.9196 2371119
-672.24518 618.62732 1657.5582 2173740
-660.89471 617.72504 1655.1406 1976104
-658.49213 625.29071 1675.4121 2172971
-643.54224 620.99377 1663.8989 2173484
-628.03412 616.00781 1650.5396 1845032
-625.65717 623.95032 1671.8208 2107947
-617.50806 626.30884 1678.1403 2042154
-611.18469 630.63293 1689.7262 1844775
-600.59808 630.63293 1689.7262 2042410
-591.42969 632.14886 1693.7881 1713446
-583.73309 635.32196 1702.2902 1778469
-575.50659 638.02588 1709.5349 1844262
-569.67767 643.54071 1724.3114 1581860
-557.69781 642.18591 1720.6815 1779239
-544.34558 639.16632 1712.5908 1778982
-537.0213 643.24567 1723.5209 1581603
-525.74719 642.66412 1721.9626 1845031
-515.4458 643.27216 1723.5919 2239533
-509.63211 649.62671 1740.6184 2371119
-499.06607 650.06891 1741.8032 2173740
-487.32401 648.96478 1738.8447 2107947
-475.2496 647.35748 1734.5382 1910824
-460.77048 642.32263 1721.0479 1976361
-449.8988 642.19592 1720.7083 2305326
-438.20764 640.8645 1717.1409 2371119
-423.33267 634.69263 1700.6039 1581603
-411.80994 633.35779 1697.0272 3555393
-402.29642 635.12427 1701.7604 3358014
-392.83282 637.06781 1706.9679 3160635
-382.0914 636.98999 1706.7593 2963256
-371.28 636.78748 1706.2168 2305326
-358.40887 632.93573 1695.8962 2634291
-342.92651 624.09625 1672.2118 2831927
-330.8927 621.17358 1664.3806 2897463
-317.12881 614.70721 1647.0547 3160635
-309.45908 620.01569 1661.2783 2897463
-299.53412 621.01813 1663.9641 2963256
-285.89145 614.10687 1645.4462 2700084
-275.57635 614.09387 1645.4113 2305326
