# .PCD v0.7 - Point Cloud Data file format
VERSION 0.7
FIELDS x y z rgb
SIZE 4 4 4 4
TYPE F F F U
COUNT 1 1 1 1
WIDTH 1279
HEIGHT 1
VIEWPOINT 0 0 0 1 0 0 0
POINTS 1279
DATA ascii
1167.0485 617.89142 1602.0815 3620927
1156.863 607.27563 1574.5569 3686977
1193.3186 621.11584 1610.442 3489341
1210.7717 624.91626 1620.2958 3555134
1223.1213 626.04126 1623.2128 4015685
1231.2007 624.98004 1620.4612 2962227
1241.3549 624.98077 1620.463 2304041
1245.9197 622.19031 1613.2278 2698799
1255.0149 621.6889 1611.9277 2764591
1267.724 622.97144 1615.2532 2830641
1273.2012 620.70795 1609.3844 2896434
1280.9634 619.58527 1606.4735 3028020
1287.7196 617.99725 1602.3561 3159606
1297.1597 617.71191 1601.6162 3159606
1307.1942 617.71191 1601.6162 3159606
1316.2874 617.27039 1600.4714 2896434
1332.5863 620.18915 1608.0393 3291192
1326.0715 612.52631 1588.1708 3620157
1342.7712 615.62067 1596.194 2962227
1358.802 618.36481 1603.3091 2567469
1353.6395 611.49487 1585.4966 2435883
1361.1219 610.39563 1582.6464 2370090
1369.3716 609.65381 1580.723 2830641
1388.0465 613.53082 1590.7753 3554364
1413.3208 620.24866 1608.1936 4014915
1422.6962 619.94348 1607.4022 3685950
1436.6157 621.60876 1611.72 3685950
1451.4535 623.64532 1617.0004 3817536
1460.8163 623.3175 1616.1505 3948866
1468.6572 622.34937 1613.6403 3752000
1480.8953 623.245 1615.9624 3555134
1488.3112 622.11279 1613.0269 3555390
1495.2203 620.78552 1609.5854 3621183
1475.3622 608.43713 1577.5684 3950148
1485.2461 608.43713 1577.5684 3949635
1499.1219 610.06158 1581.7803 3949635
1524.8762 616.46686 1598.3881 3422778
1550.3287 622.66736 1614.4648 3093813
1564.8162 624.41211 1618.9885 3159606
1578.052 625.63806 1622.1674 3225399
1587.5831 625.38898 1621.5215 3225399
1597.1497 625.15698 1620.9199 3225399
1611.3633 626.73535 1625.0123 3291192
1626.209 628.53821 1629.6869 3554364
1623.2782 623.49072 1616.5996 3488571
1644.4816 627.71814 1627.5605 3225399
1658.1096 629.01971 1630.9353 3159606
1670.0029 629.65125 1632.5728 3028020
nan nan nan 16777215
nan nan nan 16777215
nan nan nan 16777215
nan nan nan 16777215
nan nan nan 16777215
nan nan nan 16777215
nan nan nan 16777215
nan nan nan 16777215
nan nan nan 16777215
nan nan nan 16777215
nan nan nan 16777215
nan nan nan 16777215
nan nan nan 16777215
nan nan nan 16777215
-1400.8937 618.27979 1577.5964 3489341
-1377.4214 612.24005 1562.1855 3488833
-1365.9307 611.47766 1560.2402 3489088
-1355.7306 611.28619 1559.7516 3488831
-1347.5033 611.98785 1561.542 3554624
-1337.7197 611.98785 1561.542 3554624
-1326.4806 611.31702 1559.8303 3554881
-1312.7709 609.48932 1555.1666 3423549
-1304.2734 610.0722 1556.6539 3686718
-1286.8093 606.43805 1547.3812 3226169
-1277.1145 606.43805 1547.3812 3160377
-1272.7029 608.966 1553.8314 3357756
-1261.9813 608.49042 1552.6179 3423548
-1255.7513 610.18994 1556.9545 3160376
-1247.7054 611.02686 1559.09 3226169
-1243.0786 613.56451 1565.5651 3094839
-1228.3309 611.10736 1559.2953 3160376
-1213.3585 608.49811 1552.6376 3094583
-1203.6307 608.49811 1552.6376 3094582
-1200.8292 612.0282 1561.6449 3291962
-1192.6729 612.86462 1563.7792 3291962
-1184.0615 613.47931 1565.3475 3226169
-1174.2542 613.47931 1565.3475 3291962
-1166.1571 614.38031 1567.6466 3489341
-1150.3383 611.19397 1559.5164 3291962
-1138.0912 609.86707 1556.1306 3291962
-1122.6602 606.79633 1548.2953 3291962
-1111.2852 605.88342 1545.9659 3291962
-1103.1842 606.75519 1548.1903 3555134
-1092.4303 606.17029 1546.6979 3489341
-1071.3357 599.78577 1530.4072 3160376
-1069.3333 604.07117 1541.3418 2831411
-1060.1813 604.35895 1542.0762 2897204
-1047.9011 602.8526 1538.2324 3028790
-1041.3363 604.63666 1542.7848 3160376
-1033.4364 605.67169 1545.4258 3357755
-1007.2858 595.92896 1520.5663 3226169
-1006.1821 600.95978 1533.4028 3094583
-1004.5322 605.7583 1545.6467 2897204
-993.53467 604.95844 1543.6058 2634289
-984.39514 605.28534 1544.4399 2370860
-976.73877 606.53973 1547.6406 2502446
-968.45062 607.4231 1549.8945 2700079
-962.7348 609.95404 1556.3524 2700336
-959.68121 614.24066 1567.2903 2698796
-955.59674 617.94934 1576.7533 2830640
-946.32343 618.34497 1577.7627 2961971
-936.92584 618.66693 1578.5842 1909539
-932.52747 622.33209 1587.9362 1449758
-916.24475 618.05951 1577.0344 1515551
-909.20386 619.99603 1581.9756 1450014
-895.914 617.66693 1576.0326 2305064
-884.8432 616.83282 1573.9043 2962995
-879.65393 620.12628 1582.3079 3094581
-869.50824 619.96075 1581.8856 3094581
-852.7558 615.02661 1569.2957 3160631
-852.99359 622.37396 1588.043 2568237
-844.92456 623.76227 1591.5854 2239275
-829.29669 619.5368 1580.8038 2765619
-818.50269 618.86401 1579.0872 3752513
-810.89655 620.61469 1583.5541 3686720
-799.18402 619.22687 1580.0131 3620927
-785.63574 616.36407 1572.7084 3160376
-775.73596 616.32733 1572.6145 3160377
-766.36206 616.71283 1573.5981 3291962
-742.80261 605.54407 1545.1 3357753
-726.22192 599.84467 1530.5576 3818305
-716.63251 599.84467 1530.5576 4015685
-701.97211 595.54248 1519.5802 3818306
-696.10803 598.68738 1527.6046 3555134
-693.30408 604.58844 1542.6616 2831668
-687.81708 608.28351 1552.09 3028788
-679.48877 609.53577 1555.2853 2962997
-668.27502 608.19855 1551.8732 2634032
-658.8316 608.45673 1552.532 2699825
-648.56403 607.95001 1551.2391 2765875
-639.4292 608.50604 1552.6577 2700082
-631.76306 610.49829 1557.7412 2634032
-622.0033 610.49829 1557.7412 2568239
-609.75629 608.01807 1551.4127 2370860
-594.01447 601.91626 1535.8435 2634289
-585.38403 602.93805 1538.4507 3226169
-584.03241 611.61676 1560.5951 2831411
-578.08661 615.69788 1571.0084 2765618
-569.47577 617.03278 1574.4146 2699825
-559.61157 617.03278 1574.4146 2831667
-555.341 623.31097 1590.434 3093813
-546.14435 624.18866 1592.6735 2962484
-536.16577 624.18866 1592.6735 3225654
-523.46625 620.96094 1584.4376 2699824
-513.92163 621.42334 1585.6174 2502445
-512.14935 631.4873 1611.2966 2436653
-501.61853 630.93958 1609.8989 1976102
-492.41 632.06653 1612.7745 3028790
-482.30548 632.06653 1612.7745 3423548
-474.04721 634.53784 1619.0803 3884356
-462.91479 633.18591 1615.6307 3621184
-452.79236 633.18591 1615.6307 2436910
-442.30377 632.66217 1614.2943 3292219
-424.8186 621.87195 1586.7622 3555391
-412.60358 618.46411 1578.0668 3423805
-401.01697 615.85419 1571.4072 3358012
-391.17163 615.85419 1571.4072 3160633
-377.94278 610.38971 1557.4641 2963254
-368.18475 610.38971 1557.4641 2831668
-356.44983 607.02301 1548.8738 3160633
-347.53549 608.4057 1552.4019 3423805
-337.16562 607.24664 1549.4443 3489598
-325.68054 603.95062 1541.0343 3292219
-320.35855 612.23157 1562.1637 3292219
-312.99902 617.01764 1574.376 3292219
-302.33661 615.39246 1570.2291 3094840
-292.44049 615.27014 1569.917 2700082
-282.06689 614.09973 1566.9305 2502703
-269.58286 608.08453 1551.5823 3423805
-259.86172 608.08453 1551.5823 3621184
-246.05855 598.16119 1526.2621 3358012
-239.0114 604.52325 1542.4954 2700339
-228.9156 603.38568 1539.5928 3226426
-221.5726 609.72308 1555.7632 3555391
-211.86131 609.8269 1556.0281 3292219
-202.11232 609.8269 1556.0281 3292219
-193.25558 612.65552 1563.2456 3423548
-183.50774 612.81042 1563.6407 3884099
-173.8282 613.22369 1564.6953 2634032
-164.51282 615.04779 1569.3497 2962740
-154.45375 614.14673 1567.0507 3357498
-144.54915 613.7793 1566.113 2897204
-134.73697 613.7793 1566.113 3160119
-125.09818 614.63123 1568.2867 4344907
-116.13268 619.21838 1579.9913 4542796
-106.23354 619.21838 1579.9913 4608332
-96.506432 620.32416 1582.8127 3292729
-87.208549 624.75806 1594.1263 3424058
-76.750694 620.95428 1584.4207 3490108
-66.673416 619.55676 1580.8547 3489851
-57.076756 622.91693 1589.4285 3555135
-46.844479 619.29443 1580.1853 3752513
-37.228092 624.0545 1592.3311 3752256
-27.314638 625.49701 1596.0118 4015685
-17.393295 628.32068 1603.2167 3555134
-7.3486476 628.32092 1603.2173 3226166
2.6866982 626.15167 1597.6823 2831409
12.742246 628.39917 1603.4169 2962995
22.775694 628.05566 1602.5404 3094581
32.567406 623.29584 1590.3954 2765616
42.853767 628.01532 1602.4375 2305065
53.031857 629.65759 1606.6279 2305065
63.097878 629.65759 1606.6279 2436651
72.342804 622.59119 1588.5973 2305065
82.513519 624.23785 1592.799 2173478
92.492897 624.23785 1592.799 2436650
102.93006 627.02655 1599.9146 2567724
113.34341 629.18805 1605.4299 2106659
121.95021 621.78625 1586.5435 2106659
131.24586 618.74768 1578.7902 3422776
141.90541 622.11426 1587.3805 3027761
152.16933 623.41907 1590.7098 2501418
162.29666 624.03839 1592.2899 2239015
171.77994 622.25281 1587.7339 2501931
181.65556 622.00616 1587.1046 2436651
190.59517 618.74652 1578.7874 2502444
199.98819 617.20776 1574.8611 3884097
209.85516 617.20776 1574.8611 3949889
220.23248 618.64124 1578.5187 2962995
228.37033 613.93121 1566.5006 2765616
238.59035 614.9762 1569.1669 2765615
248.32417 614.7348 1568.551 2699822
258.54977 615.68286 1570.9701 2699823
267.84802 614.43414 1567.7838 2765616
278.0607 615.29718 1569.986 3029044
287.53073 614.5141 1567.9879 2370858
297.35468 614.5141 1567.9879 2435366
306.64795 613.45251 1565.2792 2303781
318.28342 616.99707 1574.3235 2501419
327.43823 615.66437 1570.9229 2369834
338.02536 617.02393 1574.392 2172711
346.78543 615.06586 1569.3958 3028020
356.61816 615.06586 1569.3958 2962227
367.6037 617.00073 1574.3328 2633260
377.50589 617.06366 1574.4933 2436651
389.0596 619.75421 1581.3585 2107943
400.68811 622.42731 1588.1792 1976356
409.53992 620.76202 1583.9302 1647392
416.50784 616.38763 1572.7684 1712928
425.46738 615.0946 1569.4692 2502700
434.323 613.71326 1565.9446 2831665
446.2804 616.67908 1573.512 2436651
457.40103 618.38538 1577.8657 2699823
467.60461 618.80591 1578.9388 2831408
474.95612 615.51288 1570.5364 3028790
480.27954 609.77856 1555.9048 2831411
494.23981 615.02002 1569.2787 3028790
503.93582 614.854 1568.8552 3028790
509.19379 609.38312 1554.8959 2568496
522.7395 613.84991 1566.2932 2568239
533.01874 614.38702 1567.6637 2568239
543.94128 615.63275 1570.8422 2436653
552.55511 614.26758 1567.3589 2305067
560.94733 612.70807 1563.3796 2765618
571.30292 613.30981 1564.915 3291962
582.31653 614.58575 1568.1707 3357755
591.39789 613.81384 1566.201 3160376
602.44043 615.06946 1569.4049 3291962
613.81366 616.61682 1573.3533 3028790
621.22498 614.1983 1567.1821 3028790
629.2912 612.49243 1562.8293 2765618
638.50507 611.93872 1561.4166 2897204
646.7002 610.44012 1557.5928 3489341
655.44843 609.50037 1555.1949 3423548
662.45819 606.9953 1548.803 3291962
672.06274 606.90564 1548.5743 3291962
682.15118 607.24945 1549.4515 2962997
691.90601 607.29071 1549.5568 2831411
689.3775 596.69885 1522.5308 2962997
702.35632 599.63556 1530.0239 2765618
714.62769 601.89722 1535.7948 2897204
719.55261 597.99341 1525.834 3423548
716.65845 587.77905 1499.7711 3226426
740.12708 599.17126 1528.8392 2963254
753.43347 602.15045 1536.4409 3028790
761.66602 601.0506 1533.6346 2831668
768.0188 598.51331 1527.1604 2633006
783.09967 602.75647 1537.9873 2896434
789.04761 599.95227 1530.8322 2962227
796.04639 598.00488 1525.8632 3159605
804.3515 597.07336 1523.4863 3093813
823.1441 603.8573 1540.7961 2962225
830.3114 602.0545 1536.1962 2435881
832.7807 596.9256 1523.1093 2370088
841.34155 596.2298 1521.3339 2896434
859.53174 602.29706 1536.8149 3291192
876.11377 607.11548 1549.1096 3291192
890.32025 610.20026 1556.9807 3159863
899.90057 610.08191 1556.6787 2831154
909.95758 610.28571 1557.1987 2765618
920.85455 611.04254 1559.13 3094583
932.05847 611.98505 1561.5349 3094840
942.16669 612.19604 1562.0732 2239531
954.43256 613.79028 1566.1411 2371117
964.97687 614.25629 1567.3301 2634032
978.74518 616.74432 1573.6786 2897202
987.33948 615.95496 1571.6644 2897202
997.18646 615.95496 1571.6644 2897202
1009.7557 617.62012 1575.9132 2831409
1014.922 614.76874 1568.6377 3094581
1024.1873 614.43109 1567.7761 3555133
1026.8828 610.19611 1556.9702 3555133
1037.983 610.98798 1558.9907 3226170
1055.0886 615.26709 1569.9092 3620927
1060.8159 612.89337 1563.8524 3686720
1077.3225 616.73376 1573.6515 3225912
1081.7535 613.65436 1565.7942 3621184
1096.0461 616.17432 1572.2241 3950149
1103.0638 614.59589 1568.1967 3818563
1107.1218 611.41095 1560.0699 3884356
1121.819 614.10577 1566.946 3950149
1131.4989 614.03119 1566.7559 3884356
1141.3152 614.03119 1566.7559 3489598
1152.7352 614.88672 1568.9387 3686720
1162.1288 614.65594 1568.3499 3949892
1172.0728 614.71777 1568.5076 3818306
1175.567 611.42395 1560.103 3752513
1185.3416 611.42395 1560.103 3620927
1199.9963 613.92065 1566.4736 3094840
1213.0221 615.55023 1570.6317 2897204
1222.8625 615.55023 1570.6317 3093813
1233.7274 616.06177 1571.937 3159350
1246.78 617.64893 1575.9867 3093813
1257.7875 618.20612 1577.4083 2830641
1257.9465 613.46399 1565.3085 2699055
1272.4218 615.72284 1571.0721 3291192
1281.5737 615.39093 1570.2251 3356985
1291.4116 615.39093 1570.2251 3356985
1300.6709 615.11725 1569.5269 3291192
1305.7698 612.8949 1563.8563 3028020
1310.3413 610.4599 1557.6433 2567469
1329.6338 614.86853 1568.8922 2699055
1345.9828 617.86115 1576.5283 2699055
1352.6215 616.38531 1572.7625 3422778
1365.2563 617.64343 1575.9727 3685950
1372.4878 616.4566 1572.9443 3620157
1382.4979 616.52576 1573.1208 3949122
1389.4532 615.24127 1569.8434 3751743
1399.2888 615.24127 1569.8434 3685950
1417.5437 618.9173 1579.223 3554364
1423.9928 617.42352 1575.4115 3620157
1431.3331 616.33398 1572.6316 3817536
1441.3922 616.42206 1572.8563 3554364
1458.161 619.35901 1580.3501 3488571
1460.5244 616.17889 1572.2357 3685950
1458.928 611.3819 1559.9957 3817536
1467.2249 610.76703 1558.4269 3949122
1481.9124 612.80298 1563.6218 3883329
1509.0322 619.91949 1581.7803 3422778
1528.0398 623.63232 1591.2539 3422778
1538.6049 623.87372 1591.8699 3356985
1552.7275 625.54529 1596.135 3225399
1559.8392 624.38898 1593.1846 3225399
1569.8412 624.39703 1593.2051 3291192
1580.9756 624.85254 1594.3673 3291192
1596.8112 627.14868 1600.2262 3291192
1603.0341 625.66437 1596.4388 3356985
1619.8484 628.30664 1603.1809 3422778
1616.2869 623.06165 1589.7979 3291192
1627.9862 623.72791 1591.4977 2699055
nan nan nan 16777215
nan nan nan 16777215
nan nan nan 16777215
nan nan nan 16777215
nan nan nan 16777215
nan nan nan 16777215
nan nan nan 16777215
nan nan nan 16777215
nan nan nan 16777215
nan nan nan 16777215
nan nan nan 16777215
nan nan nan 16777215
nan nan nan 16777215
nan nan nan 16777215
-1365.3964 612.19592 1537.6217 3357754
-1353.0184 610.95673 1534.5093 3423547
-1342.8549 610.70685 1533.8817 3423805
-1331.1401 609.74292 1531.4606 3555135
-1323.3885 610.59344 1533.5969 3752515
-1313.9252 610.66089 1533.7662 3620673
-1304.4518 610.72455 1533.9263 3489342
-1294.4644 610.54688 1533.4799 3489085
-1293.162 614.49341 1543.3922 3357755
-1271.3782 608.69366 1528.8253 3029045
-1252.0198 603.97583 1516.9757 3094583
-1249.7766 607.50543 1525.8408 3094839
-1237.1274 605.99225 1522.0402 3094583
-1231.6359 607.98871 1527.0547 3028790
-1226.3352 610.11151 1532.3864 3028790
-1216.4117 609.94977 1531.9801 3028790
-1207.384 610.23816 1532.7046 3028790
-1187.4518 604.97559 1519.4868 3028790
-1177.3013 604.65179 1518.6736 3028790
-1168.509 605.026 1519.6134 3226169
-1158.4633 604.75195 1518.9252 3357755
-1152.78 606.76965 1523.9929 2962997
-1143.2318 606.76965 1523.9929 3028790
-1139.0472 609.64044 1531.2032 3357755
-1130.7418 610.33569 1532.9495 3226169
-1120.0059 609.71967 1531.4022 3226169
-1108.7389 608.80145 1529.0961 3160376
-1098.0338 608.17847 1527.5314 3423548
-1086.8894 607.29895 1525.3223 3028790
-1072.7556 604.71875 1518.8418 2897204
-1060.1246 602.9472 1514.3921 2962997
-1056.2483 606.16766 1522.481 2963254
-1047.5541 606.6568 1523.7095 2831411
-1035.908 605.42969 1520.6274 2699825
-1026.3807 605.42969 1520.6274 3028790
-1016.6727 605.32208 1520.3571 3160376
-1007.2159 605.3634 1520.4608 3291962
-997.75903 605.4054 1520.5663 2962997
-996.57483 610.51617 1533.4028 2305067
-982.21307 607.57513 1526.016 2305067
-976.38837 609.90906 1531.8779 2502446
-965.91815 609.35858 1530.4954 2436653
-958.07037 610.46814 1533.2821 2502446
-953.71735 613.84943 1541.7748 2239274
-948.89679 616.99597 1549.6777 2239274
-951.05457 624.79199 1569.2585 3620927
-942.46661 625.61768 1571.3325 3686720
-930.03857 623.88489 1566.9803 2305324
-923.95587 626.41699 1573.3401 1712930
-914.09839 626.41699 1573.3401 1910309
-898.14502 622.19403 1562.7335 2502445
-889.07343 622.69794 1563.9991 3555132
-874.28986 619.16791 1555.1328 3357753
-867.3479 621.17413 1560.1719 2831409
-858.63666 621.94464 1562.1072 2831409
-839.43719 615.04828 1544.7859 2765616
-838.02069 621.17242 1560.1676 2699823
-834.08911 625.55481 1571.1747 2765619
-822.36279 624.12622 1567.5864 2634032
-810.00085 622.1748 1562.6852 1976102
-795.65747 618.63501 1553.7946 2765617
-792.37018 623.71033 1566.5419 3160374
-774.32709 617.15228 1550.0703 2962995
-761.37177 614.53424 1543.4948 3094581
-751.70135 614.53424 1543.4948 3226167
-733.15717 607.18524 1525.0366 2962995
-719.24695 603.53058 1515.8574 3489597
-710.98572 604.58167 1518.4973 3620928
-699.31604 602.72357 1513.8306 3423548
-689.98712 602.85962 1514.1722 3226169
-686.53717 608.20764 1527.6046 2897204
-677.4917 608.67981 1528.7904 3357755
-670.35938 610.90887 1534.389 3291962
-657.68341 608.07733 1527.2772 2897204
-648.11456 608.07733 1527.2772 2765618
-638.17499 607.7243 1526.3906 2634032
-629.89301 608.96301 1529.5018 2305067
-620.62103 609.26825 1530.2684 2436653
-610.09552 608.33301 1527.9194 2502446
-596.09717 603.84998 1516.6597 2568239
-583.31067 600.46924 1508.1685 3226169
-570.8421 597.30981 1500.233 3423548
-564.16876 600.20996 1507.5173 2962997
-559.82416 605.7287 1521.3784 2897204
-558.05475 614.27319 1542.8391 2962997
-550.98285 617.17938 1550.1384 3094583
-545.63483 622.15552 1562.6367 3949892
-532.72833 618.53748 1553.5494 4607822
-525.31311 621.27924 1560.4358 4607822
-515.67224 621.44281 1560.8467 3423548
-508.60428 624.77325 1569.2117 2107688
-498.80893 624.81873 1569.3258 1976102
-494.56149 631.95514 1587.25 3291962
-486.53128 634.4516 1593.5201 4081478
-477.36603 635.54144 1596.2576 3620927
-462.74768 629.2627 1580.4874 3620927
-448.34265 623.00568 1564.7721 3489341
-441.89331 627.77118 1576.7413 2371117
-430.98093 626.26917 1572.9689 2502446
-416.5365 619.44434 1555.8273 3029046
-405.54163 617.54523 1551.0574 3226425
-392.06467 611.68048 1536.3271 3292474
-384.26028 614.59326 1543.6431 3226426
-373.73029 613.18457 1540.1049 3094840
-359.99826 606.30835 1522.8342 3095097
-350.96536 607.1875 1525.0422 3358012
-341.41049 607.1875 1525.0422 3160633
-335.33557 613.55463 1541.0343 3884356
-321.01724 604.76941 1518.9689 3095097
-316.89359 615.23999 1545.2675 3160633
-307.82568 616.46906 1548.3544 2897461
-295.59225 611.23224 1535.2013 2831925
-285.97375 611.23224 1535.2013 3029304
-276.18265 610.85059 1534.2427 3884356
-266.78024 611.33197 1535.4518 3292219
-255.62105 607.67316 1526.2621 3292219
-245.19244 605.53418 1520.8899 3094583
-237.23682 609.5766 1531.0428 2963254
-227.65149 609.59564 1531.0907 3029304
-218.43314 610.64227 1533.7196 2963254
-206.3614 603.44141 1515.6335 3423805
-197.89519 606.59778 1523.5612 3358012
-191.48169 616.68494 1548.8966 2963254
-181.37228 615.31073 1545.4449 3094840
-171.68961 615.31073 1545.4449 3029047
-162.02841 615.39233 1545.65 3489855
-151.92456 613.69635 1541.3903 3423805
-142.1537 613.20636 1540.1597 2897461
-133.80449 619.2243 1555.2745 2831668
-123.93805 618.6145 1553.7429 3358012
-114.34602 619.38721 1555.6837 4081479
-104.53371 618.99957 1554.7101 3160633
-94.832794 619.25958 1555.3632 3160633
-86.001999 625.9118 1572.0713 2897718
-75.90519 623.87927 1566.9662 2765875
-66.042282 623.45093 1565.8904 3029047
-56.241547 623.56238 1566.1703 4147528
-46.570953 625.46881 1570.9585 3884356
-36.834194 627.2702 1575.4832 3555134
-26.917452 626.20355 1572.804 3291960
-17.061054 626.11945 1572.5927 3160630
-7.1859045 624.17639 1567.7125 2699823
2.6595216 629.67432 1581.5214 3094581
12.571885 629.85675 1581.9796 3160374
22.45857 629.159 1580.2271 2239272
32.237858 626.80011 1574.3022 2962995
41.989731 625.13837 1570.1285 2765616
52.240044 630.11957 1582.6396 2370858
62.269688 631.27441 1585.5402 2502444
71.354103 623.84741 1566.8862 2962995
80.633049 619.71191 1556.4993 3094581
91.493568 627.31268 1575.5897 2634286
101.77868 629.87201 1582.0178 2765616
111.84806 630.7605 1584.2494 3094581
121.22731 627.92944 1577.1388 2370858
130.93018 627.07501 1574.9927 2173479
140.27522 624.74677 1569.145 2107686
149.84917 623.67615 1566.4559 2173479
159.65117 623.62787 1566.3348 2370858
169.46474 623.62787 1566.3348 2962995
179.29727 623.69385 1566.5005 2962995
187.81828 619.42755 1555.785 2962995
197.71758 619.90356 1556.9806 3489341
205.93294 615.30334 1545.4265 3489341
214.50745 612.1413 1537.4846 2897204
222.36185 607.2843 1525.2855 2897204
230.92722 604.68933 1518.7677 2897205
242.4149 609.64905 1531.2249 2305068
254.09378 614.69366 1543.8953 2502446
263.49774 614.06671 1542.3206 3620927
271.13351 609.50928 1530.8738 4015686
282.03378 612.35114 1538.0115 3160377
292.62585 614.35809 1543.0522 2173738
301.57025 612.88806 1539.3601 2502447
312.36554 615.15424 1545.052 2370860
322.94043 616.86316 1549.3442 1910566
333.4104 618.27783 1552.8973 1910566
345.0509 621.72125 1561.546 2831410
352.92136 618.3692 1553.1268 3555390
359.61984 613.19867 1540.1404 2107944
372.55057 618.64752 1553.8258 1976101
383.51544 620.63739 1558.8239 2173479
395.31223 623.84143 1566.8711 2173479
405.93048 625.07532 1569.9702 2173479
413.29623 621.36096 1560.6411 2239272
420.81073 618.03674 1552.2919 2502444
427.70273 613.96912 1542.0753 2634030
437.15155 613.67041 1541.3252 2634030
448.98099 616.6543 1548.8197 2634030
457.43549 614.97473 1544.6011 2897201
461.88571 608.09296 1527.3165 2897461
472.14008 608.97681 1529.5364 2699825
485.0072 613.12842 1539.9639 2371117
489.68137 606.96295 1524.4783 2568496
498.61276 606.20923 1522.5852 2897204
512.69611 611.62988 1536.2001 3094583
524.03296 613.63477 1541.2356 2963254
534.41187 614.46558 1543.3223 2765618
545.60901 616.19092 1547.6558 2700082
557.36145 618.47223 1553.3856 3028790
558.83929 609.46979 1530.7745 3028790
570.7583 611.96613 1537.0446 2897204
582.1698 613.84442 1541.7622 3094583
590.86151 612.84058 1539.2408 3291962
594.44897 606.65973 1523.7168 2502446
606.64929 609.32532 1530.4117 2634032
611.77179 604.90936 1519.3204 2568239
609.4892 593.41895 1490.4606 2897204
621.48865 595.97089 1496.8702 3357755
639.80194 604.41156 1518.0702 3291962
647.59613 602.81335 1514.0559 3226169
659.72449 605.23743 1520.1444 2963254
667.24207 603.42279 1515.5867 3028790
676.45465 603.17035 1514.9528 2962997
682.77081 600.37805 1507.9395 2699825
692.9386 601.00262 1509.5082 2765618
703.1571 601.65375 1511.1436 2962997
707.00299 596.90735 1499.2222 3489341
708.5907 590.40381 1482.8876 3291962
721.50537 593.38422 1490.3733 2831411
738.95343 599.96918 1506.9125 2831668
746.2561 598.2547 1502.6063 2897461
752.2464 595.54401 1495.798 2173994
761.61804 595.54401 1495.798 2634289
775.66138 599.15259 1504.8615 2765361
785.46838 599.44153 1505.5872 2962228
795.15369 599.63184 1506.0651 3093813
804.5896 599.63184 1506.0651 3093813
818.60901 603.00806 1514.545 3093813
829.38336 603.94397 1516.8958 2896434
838.58691 603.72778 1516.3527 2896434
849.23431 604.54425 1518.4034 3159606
859.35687 604.97321 1519.4808 3027763
872.40271 607.42816 1525.6467 2896434
882.43115 607.75171 1526.4594 2962227
893.39917 608.7085 1528.8625 2896434
903.61639 609.13885 1529.9435 2699055
914.45764 609.97644 1532.0472 3159606
924.93207 610.5545 1533.499 3028020
935.13153 610.94092 1534.4697 2633519
943.00659 609.81653 1531.6455 2568239
957.77289 613.12616 1539.9581 2765872
967.17932 612.9729 1539.5732 2897202
976.88617 613.01111 1539.6692 2897459
988.78015 614.40765 1543.1769 2765873
1000.6314 615.75085 1546.5505 2897202
1007.2733 613.89343 1541.8853 3028788
1004.9472 606.65753 1523.7112 3357753
1014.4938 606.65753 1523.7112 3226167
1040.4438 616.37518 1548.1187 3094581
1050.365 616.50537 1548.4456 3094581
1056.7758 614.59155 1543.6388 3160374
1069.2428 616.20276 1547.6854 3357754
1072.3595 612.44476 1538.2467 3357755
1075.5439 608.79205 1529.0724 3357756
1080.6659 606.29089 1522.7903 3423549
1092.7727 607.7179 1526.3745 4015686
1108.6603 611.20447 1535.1316 4015686
1119.1191 611.66406 1536.2859 3752513
1132.318 613.60059 1541.1498 3555390
1138.1268 611.53357 1535.9581 3489341
1147.3423 611.31628 1535.4124 3160376
1157.1532 611.41724 1535.6659 3489341
1157.6718 606.64703 1523.6849 3818306
1169.7516 607.96387 1526.9923 3489341
1179.7635 608.19324 1527.5684 3094583
1194.1726 610.66736 1533.7826 3226169
1209.2697 613.45117 1540.7744 3160633
1214.725 611.33832 1535.4678 3225913
1209.2656 603.8089 1516.5564 3751743
1209.0505 598.99493 1504.4655 3291192
1245.5251 612.29187 1537.8627 3291192
1254.2598 611.85254 1536.7593 3291192
1265.9595 612.85529 1539.2778 3685950
1274.3529 612.25446 1537.7688 3488571
1281.9723 611.29352 1535.3552 3225399
1298.4437 614.53644 1543.5004 3028020
1307.9314 614.4505 1543.2845 3291192
1317.2581 614.29083 1542.8834 3422778
1322.3898 612.19147 1537.6106 3422778
1343.4568 617.44617 1550.8085 3751743
1353.1731 617.44617 1550.8085 3751743
1363.4288 617.69061 1551.4225 4080708
1368.99 615.81976 1546.7235 3949122
1373.7958 613.63776 1541.2432 3817536
1386.0569 614.79315 1544.145 3159606
1395.7314 614.79315 1544.145 3356985
1410.5608 617.0481 1549.8086 3685950
1426.1003 619.58075 1556.1699 3620157
1421.5283 613.40076 1540.6478 3159606
1428.3292 612.17847 1537.5779 3093813
1437.9625 612.17847 1537.5779 3422778
1447.5267 612.14917 1537.5043 3554364
1466.5051 616.0752 1547.3651 3751743
1487.4268 620.76062 1559.1333 3620157
1492.6926 618.89374 1554.4443 3554364
1502.4316 618.89374 1554.4443 3488571
1517.0294 620.88226 1559.4388 3422778
1528.1954 621.44989 1560.8644 3291192
1543.4277 623.6532 1566.3984 3356985
1554.976 624.34961 1568.1475 3225399
1573.8909 627.97638 1577.2568 2764848
1580.9802 626.86914 1574.4757 2501933
1586.6492 625.21588 1570.3232 2962227
1595.5734 624.85773 1569.4238 3291192
1603.2954 624.03613 1567.3602 2633262
nan nan nan 16777215
nan nan nan 16777215
nan nan nan 16777215
nan nan nan 16777215
nan nan nan 16777215
nan nan nan 16777215
nan nan nan 16777215
nan nan nan 16777215
nan nan nan 16777215
nan nan nan 16777215
nan nan nan 16777215
nan nan nan 16777215
nan nan nan 16777215
nan nan nan 16777215
-1322.5057 602.24695 1489.321 3357755
-1331.1573 610.49414 1509.7158 3291962
-1324.4028 611.74323 1512.8048 3423548
-1312.5404 610.63403 1510.0618 3555133
-1298.521 608.49792 1504.7794 3752513
-1289.0931 608.49792 1504.7794 3686720
-1283.7413 610.43622 1509.5725 3160376
-1272.2617 609.46765 1507.1775 2962997
-1253.4563 604.94916 1496.0034 2699825
-1249.8734 607.76459 1502.9658 2831411
-1241.4908 608.27124 1504.2188 2897204
-1235.7324 610.08112 1508.6945 2831411
-1224.061 608.97723 1505.9646 2897204
-1212.7499 608.03668 1503.6388 3028790
-1206.4547 609.61603 1507.5443 3028790
-1196.5973 609.40613 1507.0253 3160376
-1187.1553 609.40613 1507.0253 3028790
-1175.4055 608.21191 1504.0721 3094583
-1165.5256 607.97388 1503.4834 3226169
-1153.6245 606.66901 1500.2565 3291962
-1139.3522 604.08545 1493.8674 3160376
-1123.3755 600.54797 1485.1196 2897204
-1112.3558 599.6236 1482.8336 3423548
-1123.6237 610.79889 1510.4696 3291962
-1113.1555 610.24823 1509.1077 3226169
-1104.1135 610.47662 1509.6725 3226169
-1095.2368 610.80109 1510.4749 3028790
-1078.4058 606.65649 1500.2256 3160376
-1069.0063 606.65649 1500.2256 2831411
-1062.4087 608.26056 1504.1924 2897461
-1053.8223 608.74451 1505.3892 2897204
-1043.8168 608.41003 1504.562 2831668
-1034.2732 608.34125 1504.392 2831411
-1024.264 607.99481 1503.5352 3028790
-1014.163 607.58685 1502.5264 3489341
-1004.7493 607.58685 1502.5264 3489341
-992.51227 605.86346 1498.2645 3489341
-985.80701 607.51624 1502.3517 2897204
-979.30048 609.3244 1506.8232 2502446
-978.85229 614.97412 1520.7946 2634032
-966.98285 613.48877 1517.1215 2436653
-955.86212 612.45367 1514.5616 2436653
-940.5451 608.68219 1505.235 2502446
-935.26349 611.39447 1511.9424 2765618
-928.45795 613.15601 1516.2985 2502446
-934.40363 623.46185 1541.7842 3028790
-929.12622 626.41644 1549.0907 2502446
-921.78607 628.02795 1553.076 2041895
-915.18195 630.18079 1558.3998 2370860
-901.42749 627.40326 1551.5311 3028790
-879.11053 618.54065 1529.6144 3423547
-869.73419 618.68799 1529.9788 3291959
-863.52606 621.11755 1535.9868 3094581
-858.80927 624.68652 1544.8127 2831411
-847.45642 623.45496 1541.7671 2962996
-838.24707 623.79004 1542.5958 2831411
-826.45782 622.19061 1538.6406 2765616
-816.22186 621.73676 1537.5182 2831409
-809.45758 623.94806 1542.9866 3291960
-789.71283 616.08618 1523.5447 3489596
-780.47528 616.32941 1524.1461 3160374
-774.35229 619.06854 1530.9199 2897202
-761.09503 616.10132 1523.582 2962995
-753.38336 617.60486 1527.3002 2897202
-744.57422 618.23572 1528.8604 2897202
-721.42548 606.82147 1500.6337 2962995
-707.14276 602.66187 1490.347 3291961
-700.48529 604.97644 1496.0709 3620927
-691.11194 604.97644 1496.0709 3226169
-682.11578 605.31116 1496.8987 2897204
-674.3075 606.72406 1500.3927 2568239
-665.85065 607.58502 1502.5219 2962997
-657.74036 608.7915 1505.5054 2831411
-647.26868 607.81561 1503.092 3094583
-637.85138 607.81561 1503.092 3291962
-629.47015 608.81775 1505.5703 2962997
-624.17322 612.87885 1515.6132 2370860
-612.19397 610.40271 1509.4897 2568239
-600.60931 608.24835 1504.1622 2831411
-578.91809 595.62714 1472.9507 2765618
-573.90222 600.03156 1483.8425 3884099
-565.67859 601.172 1486.6627 3226169
-561.38458 606.59674 1500.0779 2699825
-553.38251 608.13129 1503.8726 3225912
-543.96027 608.13129 1503.8726 2766132
-534.96429 608.61615 1505.0718 2568753
-523.93335 606.76184 1500.4861 3884356
-520.61462 613.93439 1518.2234 4015428
-514.16992 617.61896 1527.3351 4213321
-509.78519 623.96466 1543.0276 3686720
-502.27646 626.65802 1549.6882 1976102
-487.59723 620.33514 1534.0521 1910309
-483.85501 627.95209 1552.8884 2305067
-476.88232 631.60315 1561.9171 3291962
-467.85172 632.62445 1564.4427 3292219
-455.84909 629.58472 1556.9257 3358012
-443.81827 626.37225 1548.9816 2963254
-426.28461 615.07623 1521.0471 2568753
-416.61331 614.86749 1520.5309 3094841
-408.77673 617.42004 1526.8433 3029304
-398.35721 616.10022 1523.5793 3029304
-388.06891 614.92346 1520.6694 3160633
-377.47824 613.19641 1516.3984 3423805
-366.14606 610.14447 1508.8511 3029047
-355.15924 607.52148 1502.3646 3094840
-342.34732 601.54877 1487.5944 3358012
-338.02798 610.58191 1509.933 3160633
-329.80173 612.87494 1515.6035 3226426
-320.40405 613.06262 1516.0675 2502703
-310.90543 613.06262 1516.0675 2963254
-302.4491 615.18262 1521.3102 2765875
-292.35019 613.99091 1518.3632 2502446
-282.83716 613.99091 1518.3632 3555134
-271.41928 609.71185 1507.7812 3818306
-261.97256 609.71185 1507.7812 2831154
-252.98686 610.82489 1510.5338 3226169
-243.42101 610.56934 1509.9019 3686720
-233.2807 608.79395 1505.5114 3226169
-225.44215 613.12897 1516.2317 3028790
-215.4248 611.65912 1512.5968 2831411
-205.94791 611.65912 1512.5968 3292219
-196.27562 611.05078 1511.0924 3291962
-187.94882 614.78192 1520.3192 2897461
-179.4236 618.22772 1528.8405 3160633
-169.951 618.61377 1529.7952 3292219
-160.662 619.75415 1532.6154 3029047
-149.89917 614.99292 1520.8411 2963254
-140.82515 616.98425 1525.7655 2963254
-131.0146 615.80377 1522.8463 2897461
-122.4204 620.60406 1534.717 2963254
-112.93338 621.31079 1536.4647 2963254
-103.18464 620.57507 1534.6455 3094840
-93.790085 622.03735 1538.2616 3029047
-83.56086 617.66486 1527.4486 2963511
-74.085747 618.45642 1529.4061 3094840
-64.378754 617.25989 1526.4473 3029047
-55.368748 623.49463 1541.8652 3358012
-45.891777 625.99487 1548.0482 3358012
-36.153427 625.31433 1546.3652 3424060
-26.162472 618.16687 1528.6901 3555388
-16.824303 627.09558 1550.7703 2305065
-7.1082468 627.09558 1550.7703 2305065
2.6130512 628.3559 1553.887 2831409
12.365998 629.23944 1556.0719 2502700
22.003876 626.06995 1548.2339 2502444
31.707407 626.13635 1548.3982 2239272
41.332359 624.98352 1545.5472 2107686
51.224327 627.53955 1551.868 2107686
61.069141 628.79437 1554.9713 2239272
70.108559 622.55225 1539.5348 2699823
79.129562 617.67627 1527.4768 3029045
89.210938 621.23645 1536.281 3686718
99.070999 622.71216 1539.9304 3291960
109.35978 626.38159 1549.0046 2897202
119.02126 626.15271 1548.4386 3029044
128.58778 625.49634 1546.8154 3028788
137.83168 623.47272 1541.811 3620924
146.35487 618.66754 1529.9282 4081475
155.96051 618.74744 1530.1259 3423546
166.49991 622.30823 1538.9314 2962995
175.51108 620.0799 1533.4209 3028789
185.27943 620.61926 1534.7546 3094581
195.03329 621.05908 1535.8424 3028788
203.13519 616.44458 1524.4309 3160374
210.24164 609.35919 1506.9092 2831409
219.68286 609.35919 1506.9092 2765616
227.91782 606.15088 1498.9753 3160374
236.20723 603.33582 1492.0138 2699826
246.64502 606.01367 1498.6359 2568496
258.26453 611.29211 1511.6892 3423805
268.76355 613.63879 1517.4924 3489341
276.93164 610.68506 1510.188 3028791
286.52457 610.96466 1510.8794 2765618
295.99069 610.96466 1510.8794 3028788
306.50516 613.06146 1516.0648 2634031
318.77679 618.44122 1529.3687 2041894
328.50912 618.72449 1530.069 2239015
342.78583 627.30798 1551.2954 2172452
350.1409 623.10052 1540.8907 2501416
358.47598 620.81616 1535.2416 2172709
369.43475 623.07617 1540.8304 1647135
380.80057 625.89008 1547.7892 2239529
389.01816 623.51825 1541.9237 2305065
397.44376 621.58673 1537.1472 2436651
404.58191 617.7807 1527.7351 2634030
415.32648 619.53015 1532.0614 2568237
425.84271 620.86768 1535.3691 2041893
433.34924 617.85504 1527.9189 2041893
441.59354 616.00177 1523.3358 2502444
450.53925 615.18457 1521.3149 2897201
459.25473 614.09338 1518.6166 2699825
469.91074 615.58868 1522.3143 2699825
479.62311 615.81287 1522.8687 2831668
487.98938 614.33368 1519.2108 3226169
496.07037 612.55884 1514.8217 3423548
503.84763 610.4826 1509.6873 3160376
513.30627 610.4826 1509.6873 3160376
522.33575 609.98138 1508.4479 3291962
531.20062 609.3092 1506.7855 3226169
540.55334 609.21027 1506.5409 3028790
548.16455 607.18573 1501.5343 3094583
559.67145 609.4718 1507.1877 2897204
569.11444 609.4718 1507.1877 3423548
575.10065 605.83032 1498.1825 3226169
577.17297 598.24902 1479.4344 2634032
592.95526 604.89331 1495.8654 2634032
602.58746 605.1546 1496.5115 3226169
606.5885 599.83923 1483.3669 3423548
618.4657 602.35547 1489.5894 3357755
625.33472 599.99158 1483.7437 3423548
634.7597 600.1134 1484.0449 2831411
641.98456 598.1817 1479.2679 2502446
652.61731 599.43518 1482.3677 2831411
661.86499 599.39911 1482.2784 2568239
669.55933 597.97675 1478.7611 2502446
679.41339 598.49579 1480.0447 3029047
689.16547 598.91217 1481.0743 3028790
696.93182 597.61475 1477.8658 3226169
697.76605 590.48505 1460.2346 3094583
713.09735 595.64929 1473.0054 2765618
724.45154 597.40186 1477.3395 2765618
733.00934 596.83337 1475.9336 2634289
744.487 598.62689 1480.3688 3226169
753.341 598.29254 1479.542 3489085
754.65009 592.04712 1464.0975 3028533
770.59009 597.2923 1477.0685 2830897
779.84442 597.2923 1477.0685 2962482
788.28821 596.67883 1475.5514 3093811
804.66339 602.01349 1488.7437 2962224
816.67841 604.00116 1493.6591 2896431
830.53735 607.29205 1501.7974 2830638
838.8009 606.46375 1499.7489 2830385
847.3316 605.84479 1498.2183 2699569
856.55658 605.73035 1497.9353 2633775
866.41437 606.06104 1498.7531 2371117
874.65277 605.26398 1496.782 2831668
881.72473 603.68524 1492.8779 3489341
896.68903 607.48657 1502.2783 3160119
907.57117 608.47211 1504.7155 3094070
923.09625 612.51807 1514.7209 3291192
933.14355 612.88403 1515.6259 3159862
942.07092 612.51434 1514.7118 3027761
947.98547 610.21277 1509.02 2830638
958.38715 610.81647 1510.5129 2764846
970.64111 612.57733 1514.8674 2765103
980.82037 613.00739 1515.931 2830896
985.47534 610.0097 1508.5179 2502443
991.2074 607.72931 1502.8787 2699823
1010.8274 613.92676 1518.2046 3029301
1023.4233 615.78229 1522.7932 3094581
1032.9641 615.78229 1522.7932 3029045
1038.2316 613.25818 1516.5511 2897458
1048.1464 613.5 1517.1492 2765872
1057.6519 613.5 1517.1492 3160374
1068.6603 614.36407 1519.286 3292217
1077.7385 614.11304 1518.6652 3160374
1087.7546 614.39618 1519.3654 3423803
1083.2661 606.5528 1499.9691 3818560
1088.4081 604.19037 1494.127 4015683
1101.7438 606.37781 1499.5364 3423548
1116.1042 609.08759 1506.2375 3094583
1125.5414 609.08759 1506.2375 2963253
1136.7178 610.021 1508.5459 3291962
1143.6646 608.68799 1505.2493 3752512
1153.0953 608.68799 1505.2493 3489597
1161.2389 608.01392 1503.5824 3029046
1173.5051 609.49194 1507.2375 2963510
1186.0496 611.08972 1511.1887 3028533
1191.2399 608.9032 1505.7815 2831154
1195.5582 606.30878 1499.3657 3028020
1204.9523 606.30878 1499.3657 3356985
1219.6532 608.9585 1505.9183 3225399
1232.4425 610.62036 1510.0281 3291192
1241.8064 610.57269 1509.9102 3225399
1242.7418 606.41302 1499.6235 3422778
1248.4205 604.61285 1495.1719 3356985
1274.0784 612.44354 1514.5366 3159606
1285.9553 613.58289 1517.3541 3356985
1293.5315 612.66852 1515.093 3488571
1307.2025 614.63318 1519.9515 3356985
1314.653 613.66577 1517.5591 2962227
1320.1722 611.81726 1512.9878 2633262
1335.9613 614.72052 1520.1675 2567469
1345.4855 614.72052 1520.1675 2830641
1359.9132 616.94501 1525.6685 3093813
1365.2979 615.06451 1521.0182 3159606
1370.6987 613.21741 1516.4504 3159606
1379.3179 612.82562 1515.4816 3356985
1387.0822 612.06195 1513.593 3422778
1395.7236 611.69312 1512.6808 3291192
1395.0629 607.27991 1501.7672 2896434
1407.2961 608.50098 1504.787 2567469
1432.3109 615.19574 1521.3427 2764848
1442.0392 615.27966 1521.5502 2962227
1446.0541 612.94073 1515.7661 3093813
1464.7505 616.8147 1525.3463 3225399
1474.3582 616.836 1525.3989 3291192
1484.1721 616.94281 1525.6631 3422778
1493.5381 616.86322 1525.4662 3422778
1505.0792 617.67725 1527.4792 3356985
1516.6333 618.48627 1529.48 3225399
1542.277 624.99487 1545.5753 3028020
1560.3816 628.38617 1553.9618 3159863
1560.8364 624.67169 1544.7761 3554364
1570.515 624.67169 1544.7761 3159606
1593.7449 630.02875 1558.0238 2830641
nan nan nan 16777215
nan nan nan 16777215
nan nan nan 16777215
nan nan nan 16777215
nan nan nan 16777215
nan nan nan 16777215
nan nan nan 16777215
nan nan nan 16777215
nan nan nan 16777215
nan nan nan 16777215
nan nan nan 16777215
nan nan nan 16777215
nan nan nan 16777215
nan nan nan 16777215
-1301.4171 601.77716 1465.5723 3226169
-1313.1747 611.52863 1489.321 2897204
-1304.922 612.03442 1490.5529 2962997
-1286.3831 607.68823 1479.9681 3357755
-1283.5527 610.7536 1487.4335 3686720
-1274.7833 611.01715 1488.0753 3555134
-1265.1436 610.86432 1487.7031 2897204
-1242.9115 604.58398 1472.4081 2568239
-1233.6864 604.58398 1472.4081 2634032
-1221.0934 602.92102 1468.358 2831411
-1225.8213 609.8501 1485.2332 3291962
-1216.5159 609.8501 1485.2332 3357755
-1206.6716 609.57794 1484.5703 3357755
-1195.4403 608.59534 1482.1774 3357755
-1185.1993 608.10553 1480.9844 3291962
-1169.4315 604.74988 1472.812 3226169
-1158.7137 603.97314 1470.9204 3291962
-1148.3824 603.38702 1469.4929 3160376
-1143.0383 605.43292 1474.4756 3357755
-1134.5214 605.81805 1475.4135 3291962
-1125.2775 605.81805 1475.4135 3226169
-1114.0204 604.72522 1472.752 3357755
-1098.3274 601.18604 1464.1327 3357755
-1100.4037 607.39557 1479.2554 3028790
-1095.0968 609.60059 1484.6255 3094583
-1087.1143 610.34113 1486.4291 3094583
-1076.7037 609.71967 1484.9154 2962997
-1064.4476 608.03302 1480.8077 3028790
-1055.2195 608.06152 1480.8773 3029047
-1047.6548 609.05774 1483.3033 2765618
-1036.7157 608.09241 1480.9524 3226169
-1027.9519 608.39709 1481.6945 3423548
-1020.043 609.21796 1483.6936 3160376
-1007.2102 607.086 1478.5015 3160376
-1003.0214 610.17303 1486.0195 3489341
-998.44519 613.07996 1493.0991 3686720
-982.64771 609.08649 1483.3734 3555134
-976.16418 610.84503 1487.6561 2897204
-972.33337 614.31342 1496.1031 2897204
-963.04089 614.36523 1496.2292 3028790
-951.66583 613.07629 1493.0902 3160376
-947.44958 616.41937 1501.2321 2173481
-936.08179 615.13 1498.0918 2107688
-928.42334 616.27673 1500.8846 2962997
-919.93243 616.88873 1502.375 3818306
-914.30865 619.45587 1508.6271 3489084
-920.09058 629.88489 1534.0259 2568239
-914.90808 632.94867 1541.4875 2634289
-897.09668 627.2478 1527.6035 2897204
-870.52893 615.23541 1498.3486 3489084
-862.84753 616.45447 1501.3174 3686718
-854.45282 617.18506 1503.0968 3226167
-855.62158 624.91687 1521.9268 3489338
-848.49988 626.69952 1526.2684 3094581
-837.74042 625.80542 1524.0908 3029044
-825.50012 623.77167 1519.1379 3620925
-811.56378 620.39404 1510.912 3358266
-798.69446 617.76202 1504.5018 3028788
-791.3335 619.37842 1508.4385 3028788
-784.69159 621.60352 1513.8575 2765616
-772.01746 619.04614 1507.6293 2699823
-762.57172 619.04614 1507.6293 2765616
-752.11371 618.21417 1505.603 2831665
-741.18097 616.96576 1502.5627 2699823
-729.38092 614.9541 1497.6635 2765616
-720.39514 615.29364 1498.4904 3094581
-701.11438 606.73309 1477.6418 3226168
-684.75006 600.50098 1462.4642 3028790
-674.5072 599.54095 1460.1262 3094583
-665.35907 599.54095 1460.1262 3028790
-665.53644 608.0611 1480.8762 2370860
-656.39185 608.18488 1481.1776 3160376
-645.48621 606.65704 1477.4568 3160376
-636.22949 606.65704 1477.4568 3094583
-622.81854 602.63745 1467.6675 3160376
-611.95215 600.9964 1463.6708 3357755
-608.6037 606.80103 1477.8074 2634032
-598.23071 605.6731 1475.0604 2634032
-589.88019 606.58948 1477.2922 3291962
-576.78369 602.57697 1467.52 3028790
-568.44507 603.4856 1469.7329 3752513
-563.68286 608.28345 1481.4177 3291962
-556.95227 611.0824 1488.2343 3226169
-543.9234 606.94849 1478.1665 3226169
-538.6734 611.50201 1489.2561 2897204
-529.34271 611.50201 1489.2561 2699825
-518.39575 609.6012 1484.627 3555391
-513.95935 615.427 1498.8152 3555134
-507.08215 618.49255 1506.281 3555134
-499.57953 620.89709 1512.137 3489341
-495.2709 627.44086 1528.0739 3555134
-486.4324 628.39087 1530.3875 3818306
-476.75171 628.26917 1530.0911 2831668
-466.39325 627.23096 1527.5626 2239531
-453.69833 622.94122 1517.1154 2765875
-444.23071 622.99396 1517.2438 2963254
-432.79568 620.22949 1510.5112 3621440
-423.15399 619.96893 1509.8767 4279114
-413.61447 619.84955 1509.5859 3292219
-403.2681 618.48706 1506.2677 3029047
-394.13834 618.96997 1507.4437 3029047
-381.01227 613.04651 1493.0177 3423548
-371.27551 612.41553 1491.481 3949892
-360.15005 609.40216 1484.1422 3094583
-347.59912 603.75311 1470.3845 2436910
-338.38672 603.75311 1470.3845 2305323
-332.34158 609.56238 1484.5323 3028790
-327.4946 617.96698 1505.001 2962740
-317.66632 617.19177 1503.1132 2765618
-306.93597 614.56311 1496.7112 2963511
-299.65222 618.88715 1507.2421 3226426
-287.58575 613.29315 1493.6184 3226426
-278.22775 613.29315 1493.6184 3160633
-267.50858 610.18823 1486.0566 3094840
-257.4704 608.46875 1481.869 2831668
-245.5433 601.98969 1466.0898 2634546
-238.34811 607.05896 1478.4355 3621184
-229.48318 608.1134 1481.0035 4081735
-222.0596 613.23718 1493.4821 3686977
-211.8828 610.87402 1487.7268 3226426
-203.70891 614.33356 1496.1522 3160633
-194.83609 615.91748 1500.0096 2897204
-185.60678 616.47784 1501.3744 2700082
-176.00653 615.80023 1499.7241 3160633
-166.81511 616.55725 1501.5677 3950149
-156.95297 614.77759 1497.2335 3950150
-148.03371 616.69958 1501.9144 3950149
-138.79553 617.46387 1503.7758 4410700
-129.59396 618.5141 1506.3335 4410701
-120.15633 618.5141 1506.3335 2831668
-111.16345 620.99878 1512.3846 3291962
-101.29138 618.57733 1506.4875 3621184
-91.978798 619.42603 1508.5544 3555391
-82.515884 619.34082 1508.3469 3423805
-73.06562 619.34082 1508.3469 3292219
-63.229282 615.58209 1499.1929 2897461
-53.932781 616.68445 1501.8776 2897461
-44.908134 622.01819 1514.8673 3095095
-35.49305 623.35345 1518.1193 3357753
-25.82778 619.66394 1509.1338 3028531
-16.372589 619.66394 1509.1338 3028788
-6.9516711 622.73419 1516.6111 2897202
2.5506177 622.79541 1516.7601 2634030
12.070431 623.66547 1518.8792 2041893
21.408026 618.50397 1506.3088 2173479
30.947832 620.55554 1511.3052 3094581
40.379925 619.992 1509.9327 3094581
49.840118 619.992 1509.9327 3028788
59.410667 621.14569 1512.7426 2502444
68.544556 618.04474 1505.1904 2502444
78.092812 618.97821 1507.4639 2897202
87.85833 621.24658 1512.9882 3226167
97.727478 623.73444 1519.0471 3160374
107.53739 625.43628 1523.1918 3028789
116.9446 624.70947 1521.4216 2962996
126.24931 623.58588 1518.6853 3028789
135.60413 622.85004 1516.8932 3291961
144.51553 620.30719 1510.7004 4081477
153.40485 617.98804 1505.0524 3818306
162.58185 617.0293 1502.7174 3094583
172.33437 618.24017 1505.6664 3094583
181.56633 617.55481 1503.9973 3357752
190.46652 615.86438 1499.8802 3226167
199.59279 615.02936 1497.8468 2831409
207.25465 609.95966 1485.5 2634030
216.19365 608.92291 1482.975 2502445
223.0018 602.2171 1466.6437 2502701
232.19078 602.2171 1466.6437 2371118
243.6026 607.76288 1480.1499 2568240
253.31319 608.81317 1482.7078 2634289
262.60281 608.81317 1482.7078 2634032
273.68619 612.82965 1492.4896 2634030
282.04813 610.68835 1487.2747 2699822
293.31384 614.77014 1497.2155 2963251
299.43256 608.14545 1481.0815 2831411
309.67923 610.05084 1485.722 2436651
324.53827 620.66602 1511.5742 2304551
334.00876 620.66602 1511.5742 2041123
343.97357 621.55927 1513.7498 1843746
352.9642 620.69153 1511.6364 1909280
360.97244 618.18665 1505.536 1777951
372.80499 622.19196 1515.2905 2568494
381.5737 621.0119 1512.4166 2370858
390.54437 620.20984 1510.4633 2370858
397.86368 616.88525 1502.3666 2831665
408.85938 619.28278 1508.2056 2699823
418.80151 620.01227 1509.9822 2634287
426.8638 617.98804 1505.0522 3489339
436.27695 617.96466 1504.9954 2962995
447.25348 620.10999 1510.2201 2831408
455.34619 618.25079 1505.6923 2962997
463.75272 616.88452 1502.3649 2634032
472.25333 615.69531 1499.4686 2370860
482.79047 617.15576 1503.0254 2962997
488.74582 612.81549 1492.4551 3357755
496.21152 610.49634 1486.807 2699825
501.88242 606.09521 1476.0884 2699825
511.50385 606.53784 1477.1664 2962997
517.59222 602.84967 1468.1843 2897461
530.06494 606.5965 1477.3093 2634032
540.17993 607.56293 1479.663 2962997
548.76727 606.80743 1477.823 2962997
558.07806 606.86371 1477.9601 2897204
562.89386 602.11005 1466.3829 3094583
571.75793 601.76978 1465.5543 2765618
578.83289 599.58698 1460.2383 2436653
594.50732 606.24139 1476.4445 3094583
598.7959 601.25916 1464.3108 3226169
607.22644 600.52362 1462.5193 3423548
616.26959 600.40668 1462.2346 3226169
623.58398 598.63367 1457.9165 2897204
632.41211 598.34393 1457.2109 2502446
640.94904 597.79095 1455.8641 2831411
649.9256 597.65765 1455.5397 3028790
658.26611 596.95135 1453.8195 3094840
666.29034 595.98138 1451.4572 3160376
675.38416 595.98138 1451.4572 3028790
686.2854 597.55511 1455.2898 2699825
692.40289 594.97699 1449.011 2699825
701.01654 594.58264 1448.0507 2699825
711.8075 596.02161 1451.5551 2699825
721.53534 596.54529 1452.8304 2897204
734.88855 600.01587 1461.2828 3094583
736.4726 593.91016 1446.4128 3028790
741.36505 590.58844 1438.3231 2831411
746.26843 587.3551 1430.4486 2436653
758.46588 589.87115 1436.5763 3160376
771.65845 593.09308 1444.4231 3226425
791.47913 601.27563 1464.3508 2831668
803.10522 603.11664 1468.8345 2897204
813.21173 603.78772 1470.4688 2831155
822.36346 603.7428 1470.3594 2764848
831.57574 603.7428 1470.3594 2764848
841.75372 604.43622 1472.0481 2765104
841.74567 597.8797 1456.0803 2567469
844.4425 593.36438 1445.0836 2896691
861.11566 598.66138 1457.9841 3357755
874.33606 601.47198 1464.829 3226169
894.15924 608.71918 1482.4789 2897204
904.25977 609.2666 1483.812 3291962
912.59216 608.62354 1482.2458 3291962
920.59821 607.77802 1480.1868 3357752
927.86621 606.46698 1476.9939 3094581
935.45367 605.38855 1474.3676 2370858
936.01306 599.82745 1460.8239 2305065
958.7702 608.4613 1481.8508 3028531
962.79596 605.15613 1473.8014 2764846
980.54425 610.45697 1486.7112 2633260
990.4856 610.84344 1487.6523 2501674
991.59241 605.82513 1475.4307 2698796
997.59558 603.86334 1470.653 3093554
1013.7878 608.04871 1480.8461 3290933
1005.4479 597.5777 1455.3448 2764589
1014.566 597.5777 1455.3448 2962225
1034.7129 604.01569 1471.024 3093811
1043.5809 603.81409 1470.533 2830896
1051.9945 603.35541 1469.416 2962225
