# .PCD v0.7 - Point Cloud Data file format
VERSION 0.7
FIELDS x y z rgb
SIZE 4 4 4 4
TYPE F F F U
COUNT 1 1 1 1
WIDTH 1269
HEIGHT 1
VIEWPOINT 0 0 0 1 0 0 0
POINTS 1269
DATA ascii
1359.7242 671.96722 2772.8208 2502705
1377.3931 672.11182 2773.4172 2634291
1388.5764 669.12756 2761.103 2437169
1405.8757 669.12756 2761.103 2436912
1420.78 668.00165 2756.457 2371119
1435.009 666.58899 2750.6277 2634548
1460.4462 670.35449 2766.1658 2831670
1462.632 663.48431 2737.8167 2765877
1481.2404 664.13684 2740.509 2765877
1506.8202 667.86414 2755.8896 2634291
1527.243 669.24731 2761.5972 2502705
1544.026 669.02222 2760.6685 2568498
1554.6993 666.18427 2748.9578 2634291
1572.7416 666.53143 2750.3904 2568498
1590.0732 666.57318 2750.5627 2634291
1606.6768 666.31213 2749.4854 2765877
1627.4762 667.77814 2755.5349 2700084
1646.4501 668.47229 2758.3992 2700084
1662.522 667.98602 2756.3926 2700084
1680.1621 668.13336 2757.0005 2502705
1723.6711 678.46002 2799.6128 2568498
1731.0139 674.48651 2783.2163 2436912
1746.2216 673.62628 2779.6665 2436912
1760.3705 672.37854 2774.5181 2371119
1777.7538 672.37854 2774.5181 2371119
1798.7312 673.72479 2780.0732 2371119
1817.2042 674.11621 2781.6882 2371119
1830.2896 672.52045 2775.1035 2305326
1857.6997 676.16876 2790.158 2173740
1875.3661 676.23553 2790.4336 2042154
1894.2443 676.73395 2792.4902 2107947
1913.9183 677.50507 2795.6721 2305326
1945.5896 682.47046 2816.1616 1910825
1962.1948 682.10938 2814.6716 2042154
1975.7086 680.68951 2808.8125 2305326
1994.9785 681.26044 2811.1685 2371119
2010.6406 680.6001 2808.4436 2371119
2031.2521 681.61206 2812.6194 2239533
2052.6458 682.86682 2817.7971 1976618
2075.8611 684.70111 2825.366 1976361
2089.2686 683.29663 2819.5706 2371119
2098.6365 680.60565 2808.4666 2634291
2139.6418 688.1344 2839.5332 2371119
2155.853 687.63068 2837.4546 2239533
2158.7124 682.91125 2817.9805 2436912
2194.3049 688.53967 2841.2056 2700084
2212.106 688.53967 2841.2056 2700084
2242.2405 692.34796 2856.9202 2831670
2264.8665 693.79578 2862.8945 2765877
2278.0374 692.34729 2856.9175 2568498
2291.325 690.9566 2851.1787 2502706
2306.7913 690.23926 2848.2188 2436913
2323.53 689.91077 2846.8633 2568499
2341.3665 689.91077 2846.8633 2568499
2355.897 688.94397 2842.874 2568499
2372.7834 688.67554 2841.7664 2634292
2384.3489 686.87817 2834.3496 2502706
2391.9829 683.98322 2822.4038 2568499
2405.6985 682.85699 2817.7566 2700085
2422.5527 682.63159 2816.8264 2634292
2440.2642 682.64929 2816.8994 2568499
2458.0588 682.68976 2817.0664 2568499
2479.178 683.64642 2821.0142 2502706
2496.4712 683.54211 2820.5835 2371120
2487.5103 676.30115 2790.7043 2634291
2485.7307 671.10022 2769.2432 2897465
2501.8503 670.77032 2767.8818 2963257
2532.3989 674.28687 2782.3926 2700085
2549.8315 674.28687 2782.3926 2765878
2565.9912 673.95251 2781.0129 2634291
2572.533 671.11365 2769.2986 2437168
2588.5024 670.75574 2767.8218 2568498
2599.3357 669.08057 2760.9092 2568498
2615.3552 668.75366 2759.5603 2700084
2641.9673 671.12183 2769.3323 2634291
2650.9219 669.00299 2760.5889 2568498
2676.689 671.12689 2769.3533 2568755
2703.2261 673.41541 2778.7964 2437169
2714.0269 671.77942 2772.0457 2502448
2736.5623 673.05035 2777.2903 2502192
2784.6721 680.55554 2808.2598 2633779
2776.9971 674.41858 2782.936 2436401
2780.5994 671.07996 2769.1594 2304814
2797.3804 670.94348 2768.5964 2173229
2807.1631 669.14069 2761.1572 2107435
2833.5701 671.29834 2770.0605 2107435
nan nan nan 16777215
nan nan nan 16777215
nan nan nan 16777215
nan nan nan 16777215
nan nan nan 16777215
nan nan nan 16777215
nan nan nan 16777215
nan nan nan 16777215
nan nan nan 16777215
-2441.6587 660.19519 2655.9429 3029050
-2406.0938 655.04315 2635.2163 2700085
-2375.468 651.17377 2619.6499 2700085
-2369.2903 653.99896 2631.0156 3160636
-2359.8403 655.95435 2638.8818 3226430
-2347.1519 657.03052 2643.2114 3226429
-2330.8345 657.09918 2643.4875 3226429
-2327.9944 660.9953 2659.1616 3094844
-2286.7729 653.97137 2630.9045 2897463
-2283.5789 657.79944 2646.3047 2897719
-2272.304 659.33881 2652.4976 3161404
-2255.6853 659.33881 2652.4976 3292989
-2246.2778 661.46222 2661.04 3358783
-2222.8608 659.4613 2652.9902 3227197
-2206.2666 659.46954 2653.0234 2898233
-2208.3132 665.0921 2675.6428 2897463
-2195.3628 666.24945 2680.2986 2831928
-2191.6069 670.23639 2696.3381 2831927
-2177.1406 670.98438 2699.3472 2897977
-2146.8059 666.81525 2682.575 3226686
-2134.6333 668.26617 2688.4119 3160893
-2148.1877 677.85822 2727.0005 2831672
-2086.2756 663.59985 2669.6396 2568756
-2068.5242 663.27106 2668.3169 2437169
-2069.2556 668.91174 2691.009 2831927
-2057.5752 670.59991 2697.8005 2963256
-2027.9189 666.40881 2680.9399 3160635
-2018.7201 668.92651 2691.0686 3292478
-1977.6222 660.82751 2658.4863 3358013
-1969.614 663.74176 2670.2104 2765621
-1954.5724 664.31555 2672.5188 2765877
-1939.1362 664.76392 2674.3225 3094843
-1922.3806 664.76392 2674.3225 3028793
-1908.1035 665.62842 2677.8005 3028793
-1893.719 666.47058 2681.1882 2897463
-1872.4719 664.89087 2674.8333 3028793
-1859.5872 666.27887 2680.4172 3160635
-1839.6628 665.14697 2675.8635 3029818
-1818.9202 663.69562 2670.0247 2832440
-1793.0011 660.31104 2656.4087 2635061
-1781.4268 662.19519 2663.9888 2700854
-1763.9039 661.88293 2662.7324 2832183
-1746.7642 661.7099 2662.0361 2832183
-1730.3984 661.82947 2662.5173 2832183
-1715.1154 662.36957 2664.6902 2963769
-1698.4203 662.36957 2664.6902 2832183
-1682.179 662.54828 2665.4092 2700597
-1666.9976 663.15234 2667.8391 2832183
-1654.2919 664.76331 2674.3201 2766390
-1637.902 664.91174 2674.9172 2700597
-1621.0438 664.87115 2674.7539 2766390
-1606.0306 665.59436 2677.6633 2766390
-1591.8597 666.68549 2682.053 2766390
-1569.184 664.20007 2672.0542 2569268
-1547.9054 662.25885 2664.2446 2634804
-1535.4303 664.08282 2671.5825 2766390
-1522.307 665.66357 2677.9417 2832180
-1507.5341 666.55011 2681.5083 2963765
-1489.8158 666.13983 2679.8577 2897973
-1475.8101 667.39893 2684.9231 2897974
-1466.7451 670.94733 2699.198 2897974
-1454.8352 673.26178 2708.509 3029562
-1429.1866 669.198 2692.1606 2963513
-1410.79 668.47333 2689.2454 2831670
-1387.2979 665.28754 2676.429 2831670
-1364.6509 662.43408 2664.9497 2699828
-1352.9215 664.87524 2674.7703 2568241
-1341.6639 667.61237 2685.7817 2700597
-1327.1111 668.75842 2690.3923 2766390
-1307.2676 667.23376 2684.2585 2832183
-1285.1523 664.49457 2673.239 2963769
-1271.5049 666.11926 2679.7751 2766390
-1258.9302 668.35693 2688.7771 2897976
-1244.5103 669.66241 2694.0291 2898233
-1232.2612 672.18793 2704.1892 3029819
-1215.3105 672.18353 2704.1714 3095355
-1200.7145 673.49969 2709.4661 3029562
-1190.9976 677.62952 2726.0806 3095355
-1174.3833 677.89832 2727.1616 3161148
-1156.5936 677.48639 2725.5046 3161148
-1141.3197 678.55786 2729.8152 3161148
-1134.3635 684.68237 2754.4536 2897976
-1119.4117 686.09552 2760.1389 3226941
-1104.0371 687.28986 2764.9436 3226941
-1087.3508 687.69269 2766.5642 3292734
-1073.274 689.78571 2774.9844 3292734
-1056.8312 690.40204 2777.4636 3161148
-1040.1647 690.8902 2779.4277 3424320
-1022.6286 690.80774 2779.0959 3358527
-1006.6318 691.78027 2783.0083 3292734
-989.42426 691.94031 2783.6521 3095355
-972.58112 692.36554 2785.3628 2963769
-958.5611 694.85272 2795.3687 3161148
-936.91479 691.80139 2783.0933 3161148
-920.31305 692.42975 2785.6213 3358527
-904.69421 693.8363 2791.2798 3292991
-896.3656 700.99951 2820.0972 3226428
-874.08319 697.31891 2805.29 2436912
-842.14899 685.62933 2758.2634 2634291
-820.61511 682.0946 2744.0432 2634548
-800.18829 679.34857 2732.9961 3226428
-795.37689 690.02954 2775.9653 2897463
-774.89978 687.29346 2764.958 2568498
-742.81409 673.90063 2711.0793 2700084
-724.22949 672.41614 2705.1072 2700084
-714.65509 679.42657 2733.3101 2568499
-709.15912 690.75391 2778.8794 2897464
-691.74866 690.75391 2778.8794 3160635
-668.10382 684.36786 2753.1885 3423807
-641.43115 674.45959 2713.3279 3423807
-629.12024 679.52423 2733.7026 3094842
-611.51099 678.98932 2731.5508 3029049
-603.77716 689.70441 2774.6572 2305326
-586.39307 689.70441 2774.6572 2897720
-567.2204 687.53644 2765.9355 2897463
-545.32581 681.82855 2742.9729 2831670
-525.69617 678.67334 2730.2795 2963256
-508.04837 677.95038 2727.3711 3029049
-490.63324 677.49841 2725.553 2963256
-475.87949 680.82135 2738.9209 2831670
-458.27914 680.16809 2736.293 2897463
-439.8187 678.13788 2728.1255 2963256
-417.62686 669.95764 2695.2168 3160635
-402.2728 672.51929 2705.5222 2700084
-385.80301 673.35907 2708.9006 2831670
-369.67105 674.89288 2715.071 2831670
-352.08682 673.79547 2710.6562 2700084
-333.09735 669.76129 2694.4268 2699828
-315.75842 668.79218 2690.5281 2569267
-297.96036 666.68652 2682.0571 2634804
-281.40756 667.28198 2684.4526 3029562
-262.98447 663.23639 2668.1772 2832183
-245.58424 661.3963 2660.7747 2766390
-228.10959 659.07306 2651.4282 2634804
-211.72539 659.78296 2654.2844 2700597
-195.07278 659.70624 2653.9756 2569011
-179.03943 661.90454 2662.8193 2700597
-162.35603 661.90454 2662.8193 2897976
-144.80704 657.97144 2646.9966 2766390
-128.31245 658.43158 2648.8477 2766390
-111.7166 658.43158 2648.8477 2963769
-95.139259 658.55969 2649.363 2832183
-78.799438 660.73358 2658.1086 2766390
-62.129551 660.56329 2657.4236 2832183
-45.187656 656.31769 2640.3438 3029562
-28.725985 658.17133 2647.8008 2832183
-12.181948 660.62555 2657.6741 2700597
4.4835825 662.75092 2666.2241 2832183
21.227262 663.96948 2671.1265 2766647
37.962696 663.96948 2671.1265 2700597
54.883774 666.22296 2680.1921 2963769
71.672142 666.18701 2680.0476 2963769
88.929329 669.69519 2694.1609 2766390
106.10359 671.5592 2701.6597 2634804
123.90807 676.35034 2720.9343 2766390
142.54567 683.98016 2751.6289 2963769
159.78548 683.98016 2751.6289 2963513
176.14973 680.59729 2738.0195 2963769
193.47658 681.20392 2740.4602 3095355
211.07906 682.60303 2746.0886 3095355
228.36221 682.83643 2747.0276 3095355
246.58337 685.64539 2758.3279 3292734
263.24615 684.03693 2751.8572 3226941
279.40729 681.40277 2741.26 2897976
297.49991 683.51141 2749.7429 2897976
314.13776 682.22974 2744.5869 2897976
332.62738 684.89404 2755.3054 2832183
345.8978 677.07904 2723.866 2963769
363.82001 678.67645 2730.2922 2634804
379.52451 676.17926 2720.2461 2371889
398.55109 679.5611 2733.8511 2174253
415.67947 679.5611 2733.8511 2174253
431.35364 677.27771 2724.665 2174253
447.38351 675.70538 2718.3398 2042667
463.9834 675.07782 2715.8149 2108460
479.23038 672.59583 2705.8301 2634804
494.78809 670.70459 2698.2217 2634804
512.50055 671.76282 2702.4788 2569011
529.29614 671.58984 2701.783 2503218
547.75714 673.47534 2709.3682 2568498
564.73218 673.47534 2709.3682 2569011
576.01581 666.88605 2682.8599 2503218
593.47205 667.6142 2685.7891 2503218
609.62518 666.87671 2682.8223 2766390
626.34174 666.77856 2682.4275 2832183
641.12201 664.67822 2673.9778 2700597
666.20563 673.0946 2707.8367 2897976
689.33875 679.17139 2732.2832 2766390
710.82153 683.367 2749.1621 2766647
708.70746 665.21539 2676.1387 2897976
726.29016 665.96344 2679.1482 3029562
744.56885 667.30151 2684.5312 3161148
775.85461 679.98016 2735.5371 3161148
781.50842 670.13184 2695.9175 2963769
800.06848 671.53296 2701.5542 3358527
827.65375 680.29431 2736.8008 3424320
844.8006 680.29431 2736.8008 3292734
857.17194 676.52521 2721.6377 3095355
874.22388 676.52521 2721.6377 2897976
904.52936 686.58533 2762.1094 3095611
923.0661 687.50238 2765.7986 3555906
932.73706 681.90405 2743.2769 3556163
949.05957 681.28314 2740.7788 3753284
964.35468 679.9599 2735.4553 3621699
992.59546 687.65137 2766.3979 3687748
1009.9501 687.6665 2766.459 3490113
1027.2828 687.6665 2766.459 2766646
1030.3171 678.25397 2728.5925 2832183
1048.9357 679.24017 2732.5601 3161148
1066.056 679.24017 2732.5601 3095098
1079.8065 677.12708 2724.0591 3489600
1094.5741 675.70758 2718.3484 3489600
1113.0336 676.57562 2721.8406 3226428
1127.1503 674.81757 2714.7681 3292221
1141.771 673.40912 2709.1018 3423807
1157.3076 672.5741 2705.7427 3423807
1171.7382 671.12976 2699.9321 3226428
1184.2527 668.64465 2689.9346 3423807
1198.41 667.14386 2683.897 3489601
1217.6873 668.4953 2689.3337 3621443
1230.1718 666.13171 2679.8252 3621443
1252.4879 669.08386 2691.7014 3029306
1278.3167 673.80902 2710.7107 2963256
1289.2617 670.66791 2698.074 3029049
1301.338 668.1889 2688.1011 2436912
1315.3068 666.73248 2682.2422 2436912
1331.3875 666.37006 2680.7839 3029049
1334.6633 659.68738 2653.8999 2897463
1348.6426 658.39459 2648.6987 2700084
1361.7482 656.71185 2641.9292 2831670
1371.824 653.62592 2629.5146 3160635
1388.8242 653.87335 2630.51 3292221
1415.4635 658.59985 2649.5249 3160635
1442.0824 663.20752 2668.061 2831670
1458.509 663.07581 2667.5312 3029049
1466.6444 659.2204 2652.0212 2765877
1478.7964 657.23651 2644.04 2831670
1495.9883 657.51172 2645.1472 2765877
1516.5243 659.23462 2652.0784 2765877
1533.1123 659.22253 2652.0298 2897720
1549.1825 658.99048 2651.0962 2831670
1564.2216 658.32935 2648.4365 2765877
1586.7274 660.79163 2658.342 2700084
1603.4355 660.81335 2658.4297 2700084
1620.3203 660.90668 2658.8052 2568498
1645.1177 664.19281 2672.0249 2568498
1669.1658 667.11316 2683.7734 2700084
1685.3486 666.86322 2682.7678 2568755
1699.7808 665.93225 2679.0227 2502705
1722.8013 668.35126 2688.7544 2371119
1739.6471 668.35126 2688.7544 2371119
1760.3201 669.80756 2694.6128 2897463
1769.8197 667.02496 2683.4187 2568755
1785.9681 666.77704 2682.4214 2173740
1809.2496 669.172 2692.0562 2305326
1831.8185 671.2616 2700.4624 2371119
1853.337 672.93158 2707.1807 2239533
1878.4929 675.87994 2719.042 2239533
1907.5391 680.16254 2736.2705 2239533
1909.7734 674.89374 2715.0745 2371119
1925.8929 674.58154 2713.8184 2371119
1941.8669 674.22424 2712.3811 2305326
1961.5947 675.16528 2716.167 2239533
1992.2734 679.82684 2734.9202 2107947
2015.0916 681.74951 2742.655 1976361
2019.0825 677.32391 2724.8511 2305326
2058.5891 684.78668 2754.8735 2634548
2068.4358 682.34113 2745.0352 2700084
2073.4883 678.36749 2729.0493 2436912
2091.6018 678.69684 2730.3743 2502705
2114.4226 680.53601 2737.7732 2634291
2129.769 679.95923 2735.4526 2634291
2154.7283 682.43622 2745.4175 2371119
2173.6929 682.9903 2747.6467 2305326
2200.7727 686.06567 2760.0188 2305328
2222.8533 687.54669 2765.9768 2239534
2239.1077 687.21667 2764.6492 2107948
2256.4292 687.21667 2764.6492 2107949
2277.3999 688.31964 2769.0864 2371120
2304.2473 691.1687 2780.5481 2436913
2297.1404 683.86664 2751.1721 2239534
2305.5461 681.25714 2740.6743 2371120
2321.864 681.0069 2739.6675 2305327
2337.3582 680.52045 2737.7104 2502706
2348.9448 678.91174 2731.2388 2700342
2369.5334 679.9093 2735.252 2568499
2387.3562 680.10461 2736.0376 2502706
2394.4436 677.26074 2724.5967 2568499
2407.9231 676.25214 2720.5393 2371377
2424.968 676.25214 2720.5393 2568499
2413.9409 668.47827 2689.2654 2766135
2438.2634 670.53357 2697.5334 2897721
2455.1643 670.53357 2697.5334 2831671
2465.9829 668.88379 2690.8965 2765878
2487.9514 670.26013 2696.4336 2700341
2496.5974 668.05316 2687.5549 2568500
2511.7996 667.61829 2685.8054 2568754
2554.864 674.54547 2713.6733 2831670
2571.8662 674.54547 2713.6733 2765877
2566.1548 668.62732 2689.865 2568498
2578.8286 667.54559 2685.5132 2568498
2599.0906 668.42938 2689.0686 2502705
2615.8411 668.40454 2688.9685 2305582
2644.7153 671.45795 2701.2524 2042154
2672.345 674.15869 2712.1172 1975849
2689.2546 674.138 2712.0339 2041642
2706.2463 674.138 2712.0339 1910055
2700.5352 668.51782 2689.4243 1778469
2749.3342 676.37775 2721.0447 1647140
2768.6377 676.92926 2723.2632 1515298
2777.386 674.90894 2715.1355 2173229
nan nan nan 16777215
nan nan nan 16777215
nan nan nan 16777215
nan nan nan 16777215
nan nan nan 16777215
nan nan nan 16777215
nan nan nan 16777215
nan nan nan 16777215
nan nan nan 16777215
-2368.2581 656.40332 2576.1006 3094843
-2347.9695 655.24554 2571.5569 3160636
-2317.3579 651.17102 2555.5664 3358015
-2316.7634 655.53339 2572.6865 3358016
-2295.8137 654.15686 2567.2844 3358015
-2283.6985 655.29584 2571.7544 3226429
-2264.959 654.5368 2568.7754 3226429
-2257.1628 656.95197 2578.2539 3292221
-2246.5928 658.58881 2584.6777 3358016
-2225.9951 657.28845 2579.5745 3423809
-2211.5615 657.80243 2581.5918 3424065
-2186.0364 655.00073 2570.5962 3424065
-2173.8884 656.19531 2575.2844 3424065
-2167.2283 659.07672 2586.5928 3095357
-2159.4514 661.65936 2596.7285 3029564
-2149.6021 663.64142 2604.5071 2897721
-2145.6833 667.49866 2619.6453 3095100
-2127.9417 667.08215 2618.0105 3292479
-2113.1453 667.5896 2620.002 3095100
-2092.3599 666.19812 2614.541 3029307
-2077.5813 666.71228 2616.5591 2897976
-2059.8574 666.28192 2614.8701 2832440
-2043.4744 666.28192 2614.8701 3160891
-2039.4589 670.34705 2630.8237 3292221
-2018.5148 668.86865 2625.022 3094842
-2001.8948 668.81085 2624.7949 2765877
-1985.4497 668.81085 2624.7949 3160635
-1965.4347 667.59821 2620.0359 3160635
-1939.6576 664.39154 2607.4512 3028793
-1926.7738 665.58423 2612.1318 3094586
-1916.2261 667.61127 2620.0872 3160635
-1895.6613 666.15326 2614.365 3094842
-1869.6099 662.72491 2600.9102 3029049
-1850.1932 661.60883 2596.5303 2963769
-1833.0518 661.29376 2595.2937 3029562
-1816.7915 661.29376 2595.2937 3029562
-1811.8658 665.45673 2611.6313 3029819
-1789.3921 663.19183 2602.7427 3095355
-1757.3682 657.31317 2579.6716 3095355
-1741.2058 657.31317 2579.6716 2832183
-1729.4983 659.01074 2586.3337 2897976
-1713.2941 659.01074 2586.3337 2897976
-1692.8243 657.35431 2579.833 2832183
-1676.9706 657.47577 2580.3096 2897976
-1659.6145 657.00476 2578.4612 2897976
-1642.309 656.54474 2576.6558 2766390
-1625.7474 656.37604 2575.9937 2700597
-1614.8295 658.50525 2584.3499 2832183
-1611.6019 663.84546 2605.3079 2766647
-1588.0996 660.85785 2593.583 2832183
-1572.6886 661.21045 2594.9668 2700597
-1556.4586 661.22247 2595.0139 2569268
-1540.2 661.22247 2595.0139 2503475
-1526.2128 662.20801 2598.8816 2503218
-1512.8828 663.50305 2603.9641 2503218
-1484.963 658.35785 2583.7715 2700597
-1472.8589 660.18848 2590.9558 2832183
-1459.4709 661.47797 2596.0166 2766390
-1445.819 662.6756 2600.7168 2766390
-1429.0885 662.47345 2599.9233 2700597
-1411.9741 662.08661 2598.405 2700597
-1395.5122 662.00018 2598.0659 2766390
-1378.1609 661.48486 2596.0435 2700597
-1358.8966 660.02802 2590.3262 2700597
-1342.5092 659.9502 2590.0208 2700341
-1323.4385 658.5354 2584.4683 2700084
-1314.3937 662.13617 2598.5996 2634288
-1302.5453 664.39703 2607.4727 2568239
-1299.7422 671.38788 2634.9087 2765361
-1267.3611 663.08331 2602.3169 2502446
-1248.4622 661.70819 2596.9199 2634032
-1235.16 663.30225 2603.176 2963254
-1223.3767 665.7655 2612.8433 3029304
-1208.483 666.58002 2616.0398 3029562
-1190.3738 665.61884 2612.2676 2963769
-1170.436 663.59412 2604.3215 2569011
-1164.7356 669.69836 2628.2781 2897976
-1151.2362 671.42914 2635.0706 2964026
-1138.4342 673.62292 2643.6804 2766390
-1121.5742 673.44482 2642.9814 2963769
-1108.7778 675.73804 2651.9812 3095612
-1094.3234 677.07507 2657.2285 3161148
-1082.1703 679.89941 2668.3127 3161148
-1065.4851 679.92023 2668.3943 3292734
-1051.793 681.88208 2676.0938 2897976
-1038.0432 683.86957 2683.894 3161148
-1019.2034 682.51398 2678.5737 3424320
-1010.4101 687.95319 2699.9204 3424320
-994.37384 688.56226 2702.3108 3292734
-974.76752 686.67749 2694.9138 3292734
-957.18909 686.18005 2692.9617 3160635
-940.8172 686.54517 2694.3945 2963513
-924.80872 687.1936 2696.9395 3292221
-907.35858 686.77509 2695.2969 3292221
-887.54126 684.51508 2686.4272 3292221
-869.13947 683.28033 2681.5815 3094842
-852.4165 683.3429 2681.8269 3094842
-834.59656 682.5108 2678.5615 3029049
-816.33167 681.27325 2673.7046 3489600
-803.42761 684.55151 2686.5703 3358014
-781.6839 680.27716 2669.7954 3423807
-771.30591 685.92346 2691.9546 3028791
-751.88776 683.60303 2682.8479 2699825
-727.85626 676.88617 2656.4871 2173482
-714.23499 679.76276 2667.7764 2699825
-699.93237 682.11316 2677.0007 2634032
-681.1911 680.14716 2669.2849 2634546
-675.2168 691.15039 2712.468 2897463
-649.26788 681.74799 2675.5676 2831670
-634.35651 683.74408 2683.4014 2765877
-616.58673 682.68396 2679.241 2831927
-598.19678 680.8587 2672.0776 2765877
-585.27008 685.3255 2689.6079 2897720
-570.43933 687.76154 2699.1682 3094842
-553.52814 687.76154 2699.1682 3423807
-533.38617 683.62067 2682.917 3423807
-511.99261 677.55402 2659.1082 3094842
-494.42084 676.30701 2654.2141 3029049
-477.2533 675.54535 2651.2249 3029049
-461.65375 677.02826 2657.0449 3094842
-443.53003 674.78198 2648.229 3094842
-425.87546 673.10254 2641.6379 3029049
-408.63245 671.96399 2637.1697 2963256
-393.86713 674.97565 2648.9893 2634291
-376.40393 673.42548 2642.9053 2700084
-358.68188 671.24823 2634.3606 2897463
-342.17679 671.24823 2634.3606 2502705
-323.77686 667.34265 2619.033 2305070
-307.42816 667.47375 2619.5474 2437682
-289.79907 664.68292 2608.5945 2634804
-275.11069 668.70624 2624.3845 2832183
-257.31839 665.21704 2610.6907 2569011
-242.41898 669.2403 2626.4805 2766390
-226.62816 671.20959 2634.209 3687492
-206.02875 658.12787 2582.8687 2963769
-189.84627 658.12787 2582.8687 2437425
-172.70142 654.48071 2568.5554 2437425
-156.35919 653.43842 2564.4646 2240046
-140.29202 653.43842 2564.4646 2371632
-123.42544 649.23328 2547.9614 2305839
-107.63976 650.30927 2552.1841 2305839
-92.379234 655.48694 2572.5042 3029562
-75.63736 650.12054 2551.4436 2897976
-59.726295 650.93268 2554.6309 2963769
-43.186405 642.97729 2523.4094 2898233
-27.435658 644.36761 2528.8657 2766390
-11.770282 654.30432 2567.863 2963769
4.3237758 655.15277 2571.1929 2897976
20.622765 661.23419 2595.0598 2963769
36.985031 663.0882 2602.3359 2963769
53.546761 666.28967 2614.9004 2766390
70.18605 668.73004 2624.4778 2635061
86.769928 669.81628 2628.7407 2832183
103.41431 670.94836 2633.1838 2700597
120.70667 675.39471 2650.6338 2832183
137.52765 676.44702 2654.7637 2964026
154.33345 677.20563 2657.741 3029049
171.52632 679.34955 2666.1548 3029306
188.6245 680.77106 2671.7336 2832183
205.51463 681.27124 2673.6968 2897976
222.00092 680.45825 2670.5061 2897976
238.4982 679.79059 2667.8857 2766390
255.85576 681.50177 2674.6013 2766390
272.79675 681.96124 2676.4045 2766390
289.62289 682.09692 2676.937 2569011
305.36484 679.8042 2667.939 2832183
323.38873 682.56586 2678.7773 2897976
341.04584 684.31897 2685.6577 2634804
359.62436 687.66919 2698.8059 2108460
378.20987 690.73132 2710.8235 1647909
388.46738 678.9743 2664.6821 1713702
402.77927 674.98059 2649.0085 2240046
418.77628 674.01514 2645.2195 2305839
433.68271 671.43475 2635.0925 2305839
448.76111 669.30005 2626.7148 2240046
465.41449 669.58234 2627.8228 2371632
480.81366 668.10254 2622.0151 2569011
497.24139 668.10254 2622.0151 2503218
514.16437 668.74664 2624.543 2503218
530.45294 668.55139 2623.7766 2568498
544.52112 665.65344 2612.4033 2437425
559.56537 664.08295 2606.24 2371632
574.97009 663.01727 2602.0576 2437425
589.85852 661.4314 2595.8337 2437425
602.73041 657.73004 2581.3076 2371632
623.73596 662.86609 2601.4644 2832183
640.03497 662.86609 2601.4644 2832183
657.36926 663.9118 2605.5681 2700597
675.17126 665.36761 2611.2817 2174510
692.55164 666.34888 2615.1328 2437425
708.04492 665.51117 2611.845 3029562
727.33679 668.20093 2622.4011 3424320
749.68329 673.51617 2643.2612 3555906
766.24414 673.51617 2643.2612 3490113
781.71655 672.57971 2639.5859 3292734
800.60364 674.55908 2647.3542 3358527
817.89996 675.14502 2649.6538 3226685
834.9538 675.51141 2651.0918 3291708
856.47101 679.40424 2666.3694 3226428
873.74994 679.85034 2668.1201 3357757
889.49872 679.11133 2665.22 3292221
906.07916 679.02295 2664.873 3226685
928.11121 682.94928 2680.2822 3029305
945.27942 683.22064 2681.3472 3029305
959.64661 681.49329 2674.5681 3029306
973.87659 679.72961 2667.6462 3161405
994.85486 682.65594 2679.1311 2897976
1009.8497 681.44757 2674.3887 3161405
1020.543 677.42322 2658.595 3490113
1037.1998 677.42322 2658.595 3095355
1054.6027 677.90271 2660.4766 3226428
1073.5149 679.32233 2666.0481 3555392
1084.2583 675.60852 2651.4729 3489600
1094.0579 671.42749 2635.0642 3423807
1107.118 669.3421 2626.8799 3489600
1126.8981 671.32098 2634.6462 3160635
1147.2297 673.56665 2643.4595 2963256
1166.2526 674.99084 2649.0488 3160635
1174.5968 670.28131 2630.5659 3094842
1186.2168 667.54565 2619.8296 3094842
1205.6703 669.23273 2626.4507 3358014
1224.8667 670.7337 2632.3413 3358014
1233.3657 666.41461 2615.3909 3226428
1252.4795 667.86908 2621.0989 2963256
1268.0292 667.40991 2619.2969 2765877
1291.809 671.23901 2634.3245 2700084
1287.1411 660.37622 2591.6926 2766134
1298.6019 657.95587 2582.1938 2831670
1311.3939 656.26129 2575.5435 2700084
1320.9612 653.01379 2562.7983 3029049
1328.3531 648.78186 2546.1897 3094842
1344.136 648.69989 2545.8682 3160635
1366.8649 651.93286 2558.5559 3160635
1395.7374 657.98706 2582.3162 3358014
1411.9165 657.98706 2582.3162 3424064
1420.6599 654.56116 2568.8711 2963256
1435.8556 654.15155 2567.2634 2897720
1451.9403 654.15155 2567.2634 2765877
1464.2333 652.46191 2560.6326 2831670
1480.3591 652.49841 2560.7756 2897463
1507.5339 657.35187 2579.8235 2831670
1527.6692 659.06543 2586.5483 2634291
1549.4902 661.46271 2595.9565 2963256
1574.0444 664.96466 2609.7004 2963256
1565.7339 654.65356 2569.2336 2700084
1591.9674 658.84863 2585.6975 2502705
1612.0682 660.44666 2591.969 2502705
1629.1061 660.77045 2593.24 2502705
1649.4036 662.39697 2599.6233 2502705
1669.5504 663.93176 2605.6467 2568498
1689.8444 665.49469 2611.7805 2700341
1715.948 669.29376 2626.6902 2765877
1721.1847 664.9588 2609.6775 2766134
1734.0425 663.62225 2604.4319 2897463
1752.8544 664.56793 2608.1433 2502705
1774.3134 666.49048 2615.6885 2436912
1792.0758 667.00201 2617.696 2436912
1813.7301 668.9397 2625.3005 2502705
1835.3091 670.81488 2632.6599 2502706
1845.231 668.43402 2623.3162 2502705
1862.951 668.89508 2625.1255 2371119
1879.26 668.84595 2624.9326 2436912
1904.4943 671.94666 2637.1016 2371119
1921.6755 672.17712 2638.0061 2371119
1959.5162 679.56848 2667.0139 2436912
1975.494 679.31677 2666.0261 2436913
1979.2911 674.91583 2648.7544 2568498
1997.0654 675.31451 2650.3191 2305326
2012.8644 675.04419 2649.2583 2436913
2027.0967 674.25714 2646.1694 2502705
2045.6738 674.91638 2648.7566 2568498
2063.2031 675.22211 2649.9563 2634291
2087.8931 677.8476 2660.2603 2436912
2113.7573 680.80981 2671.8857 2371119
2130.2468 680.72968 2671.5713 2239532
2155.4463 683.41248 2682.0999 2173740
2169.4536 682.53247 2678.6465 2107946
2189.3276 683.49768 2682.4343 1910568
2202.9578 682.51367 2678.5725 2107947
2219.9478 682.57758 2678.8235 2173739
2232.645 681.33051 2673.9292 2107947
2253.1765 682.4751 2678.4211 1910568
2278.4885 685.03986 2688.4868 2107948
2269.7881 677.41608 2658.5669 2305327
2288.3936 677.99347 2660.8328 2765878
2305.0645 677.99347 2660.8328 2765878
2308.0259 673.98999 2645.1208 2831671
2320.2964 672.74268 2640.2256 2831671
2333.77 671.85931 2636.759 3029050
2351.4214 672.1828 2638.0283 2963257
2365.3025 671.4314 2635.0793 3094843
2360.7722 665.50024 2611.8022 3029050
2390.158 669.14594 2626.1099 2831671
2405.4048 668.81042 2624.7932 2831671
2414.3806 666.74768 2616.6978 2634292
2419.3054 663.60162 2604.3511 2700085
2441.0234 665.07318 2610.1262 2568500
2461.6594 666.23224 2614.675 2634292
2482.9734 667.55829 2619.8792 2700085
2498.5066 667.32294 2618.9556 2634293
2514.3789 667.18066 2618.3972 2502707
2532.4626 667.62323 2620.134 2305327
2547.8743 667.36017 2619.1016 2239535
2571.7539 669.30432 2626.7314 2371120
2591.9207 670.26349 2630.4961 2304557
2609.2231 670.47467 2631.3247 2239021
2645.2749 675.4707 2650.9321 1910056
2652.3586 673.05365 2641.4463 1844263
2668.9082 673.05365 2641.4463 1844263
2721.7959 682.16107 2677.189 2107435
2757.3315 686.83472 2695.5308 2370607
nan nan nan 16777215
nan nan nan 16777215
nan nan nan 16777215
nan nan nan 16777215
nan nan nan 16777215
nan nan nan 16777215
nan nan nan 16777215
nan nan nan 16777215
nan nan nan 16777215
-2302.5955 653.81329 2504.6753 3094842
-2291.7632 655.20282 2509.9983 3226428
-2285.0012 657.78326 2519.8838 3226428
-2283.0029 661.78046 2535.1965 3358014
-2258.1948 659.17548 2525.217 3358014
-2228.4463 655.08136 2509.533 3292221
-2214.8145 655.70044 2511.9045 3226428
-2200.3364 656.07611 2513.3438 3423807
-2183.897 655.86804 2512.5469 3489601
-2173.0735 657.35596 2518.2466 3489858
-2160.3564 658.28851 2521.8193 3424065
-2140.5042 657.04468 2517.0542 3160893
-2135.269 660.30237 2529.5342 3160893
-2116.4944 659.39075 2526.0417 3029307
-2103.3232 660.22418 2529.2346 3029307
-2089.415 660.83722 2531.583 3029564
-2080.4272 663.02771 2539.9746 3029307
-2062.4099 662.35217 2537.3867 3029564
-2037.5953 659.46619 2526.3308 2963771
-2028.3527 661.61426 2534.5598 2963771
-2012.6368 661.66821 2534.7664 2963256
-1996.0033 661.41882 2533.811 3094586
-1980.1824 661.43695 2533.8806 3160635
-1966.7964 662.27533 2537.092 3226428
-1956.2914 664.10522 2544.1023 3160635
-1934.2626 662.02112 2536.1184 2897463
-1916.4705 661.36456 2533.6033 2897463
-1898.8745 660.76532 2531.3076 3094842
-1875.3467 658.0744 2520.999 3094841
-1857.5765 657.37537 2518.321 3160635
-1838.5721 656.22382 2513.9097 3095355
-1822.7988 656.21558 2513.8779 3095355
-1804.6929 655.36011 2510.6008 3095355
-1788.5381 655.20441 2510.0044 3095355
-1775.5664 656.22229 2513.9038 2832183
-1759.8278 656.22668 2513.9207 2832183
-1743.4193 655.97913 2512.9722 2963769
-1726.8501 655.66602 2511.7727 3029562
-1711.1129 655.66602 2511.7727 2963769
-1693.0325 654.7597 2508.3008 2832440
-1674.3802 653.61316 2503.9087 2963769
-1657.3977 653.10303 2501.9543 2766390
-1644.4614 654.19275 2506.1289 2832183
-1626.6409 653.34161 2502.8684 2963769
-1608.8795 652.49805 2499.6367 2897976
-1592.5426 652.22125 2498.5764 2963769
-1576.6769 652.13385 2498.2415 2897976
-1565.8822 654.16315 2506.0154 2897976
-1559.7157 658.18658 2521.4287 2963769
-1541.1355 657.00031 2516.8843 2634805
-1522.4064 655.7254 2512.0002 2569011
-1508.3667 656.46472 2514.8325 2634804
-1489.3046 655.01074 2509.2625 2569011
-1473.7592 655.08893 2509.562 2503218
-1471.9121 661.32343 2533.4456 2437425
-1456.0394 661.32343 2533.4456 2634804
-1429.4921 656.42169 2514.6677 2766647
-1415.5797 657.2774 2517.9458 2766390
-1399.905 657.32483 2518.1274 2766390
-1386.1329 658.27686 2521.7747 2700597
-1370.6007 658.4054 2522.2668 2832440
-1354.2511 658.13959 2521.2488 2766391
-1338.2515 658.03967 2520.866 2634804
-1319.7927 656.71381 2515.7866 2766390
-1304.0306 656.71381 2515.7866 2832183
-1285.6874 655.39801 2510.7461 2634804
-1270.3441 655.5979 2511.512 2503475
-1260.962 658.91785 2524.2302 3029562
-1248.1493 660.50665 2530.3167 3095355
-1241.4847 665.43176 2549.1841 2963769
-1213.6836 659.00842 2524.5771 2897976
-1197.6337 658.88049 2524.0869 2897976
-1186.0586 661.24384 2533.1406 2897976
-1173.9436 663.36621 2541.2712 2897976
-1153.5168 660.78564 2531.3853 2832183
-1136.4984 660.11273 2528.8076 2634804
-1123.5577 661.82275 2535.3584 2832183
-1113.5354 665.3255 2548.7771 2700597
-1100.6658 667.20422 2555.9741 2700597
-1085.8839 667.9621 2558.8774 2634804
-1070.9601 668.65411 2561.5286 2766390
-1060.8109 672.39349 2575.8538 3095355
-1044.7638 672.45239 2576.0791 3029819
-1053.3622 688.62476 2638.0337 3226941
-1023.6136 679.8443 2604.3967 3161148
-1012.2736 683.20361 2617.2659 3226941
-1001.787 687.25897 2632.8013 3621699
-995.82092 694.60339 2660.9368 3358527
-979.14929 694.60339 2660.9368 2963769
-943.69635 681.04919 2609.0125 3094842
-927.3501 681.04919 2609.0125 3226428
-910.80994 680.90417 2608.457 3226428
-896.25299 682.26367 2613.665 3226428
-880.32941 682.61401 2615.0071 3226429
-865.7337 684.02679 2620.4194 3161661
-850.49469 684.97614 2624.0562 3226941
-834.05414 684.97614 2624.0562 3029562
-817.54987 684.92273 2623.8516 3160635
-799.34845 683.41614 2618.0801 3029049
-779.84656 680.7113 2607.718 3094842
-758.33417 676.09814 2590.0457 3423807
-745.19415 678.91095 2600.821 3489600
-725.59937 675.8374 2589.0469 3489600
-713.52917 679.79211 2604.1968 3160635
-698.07581 680.63336 2607.4194 2765877
-675.9411 674.8443 2585.2424 3094586
-660.47809 675.5954 2588.1199 2831157
-647.36499 678.84863 2600.5823 3094329
-629.76526 677.44348 2595.1995 2766134
-612.40552 676.22876 2590.5461 2634291
-595.35858 675.3028 2586.9988 2700084
-584.03485 680.99835 2608.8179 3226428
-566.30621 679.33862 2602.4595 3358014
-548.81714 677.8764 2596.8579 3094842
-532.34058 677.61365 2595.8513 3292221
-515.53235 676.8988 2593.113 2831670
-497.97531 675.12225 2586.3071 3160635
-481.10904 674.19421 2582.752 3292221
-464.78812 673.99237 2581.9788 2897463
-449.90179 675.9314 2589.4067 3094842
-431.44443 672.44952 2576.0684 3029049
-413.45032 669.44714 2564.5667 2897720
-396.58096 668.09686 2559.3938 2765877
-380.81232 668.56519 2561.1877 3029049
-364.68848 668.42365 2560.6458 3029049
-347.93689 667.06561 2555.4434 3094842
-330.90359 665.01044 2547.5701 3029306
-315.49899 666.18591 2552.0732 3226428
-298.60483 664.17377 2544.365 2964025
-281.72977 661.97955 2535.9592 2832183
-264.92044 659.68683 2527.176 2634804
-248.54022 658.23901 2521.6296 2569011
-234.66881 663.68994 2542.5115 2635061
-220.42426 668.80273 2562.0979 2503218
-200.92737 657.53052 2518.9155 2240046
-184.50674 655.26172 2510.2241 2174253
-167.69803 651.06348 2494.1409 2108460
-152.32323 652.1413 2498.27 2240046
-136.6658 652.11749 2498.179 2371632
-120.59928 649.88306 2489.6189 2437425
-104.77067 648.45721 2484.1567 2503218
-88.356575 642.27777 2460.4841 2832183
-72.985512 642.67078 2461.9897 3095355
-57.528103 642.31036 2460.6091 3226941
-41.983875 640.36188 2453.1448 2700597
-26.704788 642.54248 2461.4983 2700597
-11.367701 647.38098 2480.0339 3292734
4.1928816 650.85828 2493.355 3753285
19.935226 654.82306 2508.5435 2766390
35.956741 660.41974 2529.9836 3029562
51.753426 659.72565 2527.3247 2832183
68.070602 664.43738 2545.3748 2897976
85.140076 673.30975 2579.3635 3029562
99.841568 663.61212 2542.2134 3029562
116.47333 667.64758 2557.6726 2898233
133.49023 672.64777 2576.8276 2700597
148.98289 669.71692 2565.6001 2634547
165.48506 671.45306 2572.251 2634548
181.44394 670.87238 2570.0264 2569011
197.58121 670.99207 2570.4849 2569011
213.94603 671.80823 2573.6116 2174510
232.12477 677.8067 2596.5911 2503218
248.39322 677.8067 2596.5911 2503218
264.05682 676.25781 2590.6572 1976874
280.12094 675.85443 2589.1121 2174253
296.24997 675.64337 2588.3035 2108460
314.23401 679.46527 2602.9446 2174253
330.54227 679.46527 2602.9446 2042667
349.22208 684.11096 2620.7419 2437425
365.29929 683.47009 2618.2866 2634804
376.44791 674.05927 2582.2349 2437425
392.93768 674.59363 2584.2822 2305839
407.68414 672.21124 2575.1555 2240046
422.45029 670.0415 2566.8435 2305839
437.61655 668.64221 2561.4829 2437425
453.66504 668.64221 2561.4829 2371632
464.03754 660.56244 2530.5303 2371632
480.83865 661.8653 2535.5215 2174253
498.31662 663.98682 2543.6487 2305840
512.85443 662.18048 2536.729 2436912
529.69458 663.36621 2541.2712 2503218
545.65387 663.41168 2541.4456 2503475
557.6969 658.82819 2523.8867 2371632
573.24847 658.52795 2522.7366 2240046
584.16504 653.06219 2501.7979 2832183
604.98682 658.66614 2523.2659 2832440
620.79584 658.66614 2523.2659 2569011
640.84167 663.04974 2540.0588 2569011
657.65161 663.95398 2543.5229 2503218
673.58752 663.95398 2543.5229 2503475
688.21088 662.69 2538.6809 2832183
701.55029 660.27484 2529.4285 3358527
723.67413 666.05121 2551.5571 3490370
742.26886 668.40009 2560.5554 3424577
757.46075 667.65021 2557.6826 3358527
775.42609 669.32532 2564.0999 3226941
794.44995 671.82758 2573.6855 3161148
813.83167 674.52692 2584.0264 3029819
833.534 677.38147 2594.9619 3160379
842.38818 671.47949 2572.3523 3489600
856.2251 669.69647 2565.5217 3358014
877.41547 673.62476 2580.5703 3292221
894.01245 673.94806 2581.8088 3094842
913.94666 676.7309 2592.4697 3095099
930.09167 676.65985 2592.1975 3226428
945.85901 676.32129 2590.9004 3358014
957.75189 673.27045 2579.2131 3226428
983.51654 679.91046 2604.6501 3686722
995.5802 677.01678 2593.5649 3555136
1003.7866 671.63513 2572.9485 3292220
1018.9971 671.03601 2570.6533 3160635
1036.1873 671.73889 2573.3459 3160635
1046.5112 668.03723 2559.1653 3029049
1063.2911 668.50616 2560.9619 3226428
1070.0087 662.72888 2538.8298 3423807
1097.076 669.54034 2564.9236 3094842
1113.8743 669.97827 2566.6013 2897720
1132.1445 671.27661 2571.575 2897463
1148.2561 671.27661 2571.575 2634291
1152.3781 664.36432 2545.0947 2568498
1159.9342 659.59351 2526.8186 2963256
1215.5145 681.89233 2612.2424 3226428
1200.8105 664.6936 2546.3564 2963256
1212.1082 662.15015 2536.6125 3029049
1229.2039 662.79883 2539.0977 2963256
1232.9301 656.31403 2514.2554 2700084
1249.9657 656.9884 2516.8389 2700084
1268.6483 658.50098 2522.6331 2831670
1282.178 657.33435 2518.1641 3160635
1290.9208 653.77197 2504.5168 2963256
1306.7098 653.82068 2504.7036 2831670
1313.6428 649.48975 2488.1123 2831670
1335.7458 652.67273 2500.3059 2897463
1351.3085 652.62317 2500.116 2897463
1364.4111 651.40039 2495.4316 2634291
1373.0389 648.09302 2482.7615 2436912
1388.6486 648.11835 2482.8586 2634291
1404.5385 648.27252 2483.4492 2700084
1422.2367 649.24884 2487.1895 2765877
1440.467 650.44421 2491.7688 2831927
1454.9739 649.95074 2489.8782 2700084
1466.0865 647.96747 2482.2808 3160635
1502.5441 657.11005 2517.3047 3423807
1525.1647 660.07416 2528.6597 3029049
1545.9651 662.19763 2536.7947 2568755
1540.8223 653.27856 2502.6267 2305326
1562.3671 655.74017 2512.0569 2502705
1579.6506 656.38208 2514.5159 2502705
1598.2239 657.54187 2518.959 2568498
1622.0935 660.83667 2531.5811 2634291
1634.0834 659.27478 2525.5977 2502705
1649.907 659.27478 2525.5977 2502705
1669.9913 660.96118 2532.0579 2765877
1685.3915 660.7793 2531.3611 2897463
1687.49 655.43427 2510.885 2700084
1715.772 660.26398 2529.387 2437169
1733.3416 660.92065 2531.9026 2502705
1748.5721 660.68158 2530.9868 2436912
1771.1274 663.18964 2540.5947 2436912
1787.1661 663.2345 2540.7668 2436912
1806.0354 664.31982 2544.9246 2436912
1827.4707 666.32184 2552.5938 2568498
1837.3601 664.11572 2544.1426 2436912
1869.8829 670.05817 2566.9072 2568498
1897.0398 673.99268 2581.98 2568498
1901.6149 669.90552 2566.3225 2634548
1914.827 668.90411 2562.4863 2568498
1937.8649 671.3233 2571.7539 2568498
1953.4563 671.14417 2571.0676 2502705
1962.3701 668.6925 2561.6755 2437169
1983.4036 670.37689 2568.1284 2436912
2004.9934 672.22089 2575.1924 2239533
2032.7787 676.09589 2590.0371 2371119
2049.0061 676.09589 2590.0371 2371119
2066.6082 676.5459 2591.761 2436912
2086.7681 677.81982 2596.6411 2239533
2100.7476 677.08191 2593.8145 2107947
2121.1733 678.41718 2598.9297 1976361
2139.0439 678.92108 2600.8599 2042154
2155.0869 678.84161 2600.5554 2042154
2170.0146 678.41467 2598.9199 1976361
2189.5291 679.41742 2602.7612 1910568
2208.4695 680.22845 2605.8684 2042155
2236.979 683.95337 2620.1382 2239534
2246.2842 681.79504 2611.8699 2239534
2236.5833 673.94104 2581.782 2502706
2262.7373 676.92621 2593.2178 2831928
2276.8562 676.29388 2590.7957 3094843
2286.8979 674.4682 2583.8018 3029050
2286.7629 669.68787 2565.4888 2897464
2297.9585 668.26935 2560.0544 2897721
2314.3281 668.36462 2560.4194 3029050
2323.0154 666.25525 2552.3389 2831671
2330.9341 663.95587 2543.5303 2634292
2349.4526 664.68658 2546.3293 2436912
2358.1023 662.63416 2538.4668 2239533
2377.2498 663.53937 2541.9346 2305327
2397.2263 664.66241 2546.2368 2436912
2422.8557 667.32758 2556.4468 2371118
2436.1343 666.57831 2553.5764 2371119
2442.8542 664.05597 2543.9136 2502705
2456.7029 663.49152 2541.7515 2436912
2489.583 668.0412 2559.1807 2436913
2510.0251 669.21649 2563.6831 2305583
2506.2385 663.95813 2543.5388 2502192
2537.3201 667.94513 2558.8125 2370607
2563.1355 670.50446 2568.6169 2304814
2588.2932 672.8609 2577.6443 2173228
2632.5852 680.13153 2605.4971 2041642
2651.1541 680.70782 2607.7048 1976106
2669.3967 681.19385 2609.5667 2304814
nan nan nan 16777215
nan nan nan 16777215
nan nan nan 16777215
nan nan nan 16777215
nan nan nan 16777215
nan nan nan 16777215
nan nan nan 16777215
nan nan nan 16777215
nan nan nan 16777215
-2244.1848 652.44141 2441.1384 3358014
-2223.1311 650.75555 2434.8308 3226428
-2214.2939 652.64716 2441.9082 3094842
-2200.1064 652.97717 2443.1431 3029049
-2188.4995 654.08301 2447.2805 2831670
-2168.1685 652.57867 2441.6521 3029049
-2165.4646 656.39612 2455.9353 3358014
-2157.1699 658.56134 2464.0366 3621186
-2140.3665 658.14148 2462.4656 3555395
-2123.0164 657.5462 2460.2383 3423808
-2097.5583 654.41266 2448.5139 3095100
-2103.9451 661.24127 2474.0635 2897464
-2088.4441 661.24127 2474.0635 2963257
-2064.3613 658.50366 2463.8208 3160893
-2050.8738 659.13007 2466.1643 3160636
-2037.8473 659.91534 2469.1025 3094843
-2026.4244 661.23584 2474.0432 3029307
-2010.924 661.23584 2474.0432 3160636
-1990.1168 659.47748 2467.4641 3095100
-1977.604 660.46149 2471.146 3094844
-1961.6886 660.3158 2470.6008 3095355
-1945.8975 660.2099 2470.2046 3029819
-1928.5515 659.57062 2467.8127 3095611
-1910.4458 658.659 2464.4019 3226941
-1902.5165 661.26959 2474.1694 3161148
-1881.0085 659.16479 2466.2942 3161148
-1864.6425 658.8418 2465.0857 3095612
-1840.2094 655.63928 2453.1035 3095612
-1815.7358 652.36829 2440.865 3226941
-1793.5785 649.88104 2431.5588 3292734
-1787.2805 653.14685 2443.7778 3161148
-1763.0892 649.87354 2431.5308 3029562
-1751.1442 651.09656 2436.1067 3095355
-1743.1266 653.81415 2446.2747 3029819
-1724.9342 652.72974 2442.2173 3226941
-1702.4343 649.98132 2431.9341 3029562
-1688.6272 650.53204 2433.9946 2963769
-1675.9277 651.52356 2437.7043 3029819
-1662.578 652.27808 2440.5273 2964026
-1647.2872 652.27808 2440.5273 2832440
-1629.4744 651.26996 2436.7554 2897976
-1611.3459 650.11554 2432.436 2897976
-1600.1262 651.75299 2438.5627 3095355
-1573.4197 647.05322 2420.9785 3029562
-1564.4934 649.6452 2430.6763 2897976
-1549.2644 649.6452 2430.6763 2964026
-1533.4495 649.39697 2429.7476 3029560
-1515.6284 648.28583 2425.5901 2832182
-1508.0616 651.58258 2437.925 2700594
-1500.1733 654.80652 2449.9875 2569009
-1478.1534 651.86499 2438.9819 2437422
-1461.6475 651.31921 2436.9397 2437679
-1446.1442 651.21332 2436.5435 2503216
-1433.8113 652.5481 2441.5376 2503216
-1423.9005 655.02582 2450.8081 2634802
-1411.0586 656.19458 2455.1812 2569010
-1398.9417 657.72986 2460.9255 2437422
-1380.2438 656.17078 2455.0923 2635059
-1367.4192 657.40027 2459.6924 2832180
-1352.0085 657.40027 2459.6924 2897974
-1334.7365 656.4848 2456.2671 2963767
-1315.9069 654.77295 2449.8621 3029560
-1303.1899 656.09821 2454.8206 3161146
-1272.7365 648.41882 2426.0879 2766389
-1264.3993 651.95764 2439.3284 2371632
-1256.2729 655.69299 2453.3044 2503218
-1246.5959 658.70154 2464.561 2766390
-1231.4088 658.83752 2465.0698 3358527
-1214.4142 657.99756 2461.927 3029819
-1202.7892 660.08282 2469.7292 3161148
-1182.3397 657.31647 2459.3789 3029819
-1169.4044 658.70984 2464.592 2832183
-1154.2406 658.86829 2465.1851 2766390
-1140.058 659.59875 2467.918 2766390
-1124.7505 659.68951 2468.2576 2766390
-1109.2861 659.68951 2468.2576 2569268
-1091.8303 658.48853 2463.7642 2503218
-1083.0526 662.56195 2479.0049 2897976
-1074.0057 666.58673 2494.064 2634804
-1058.3796 666.58673 2494.064 2437682
-1043.8909 667.31378 2496.7842 2766390
-1028.2477 667.31378 2496.7842 2635061
-1009.1821 665.05829 2488.3452 2569011
-1018.1567 681.50079 2549.8655 3095355
-1004.1382 682.83173 2554.8452 3292734
-975.67804 674.22607 2522.6467 3029562
-972.15802 682.85529 2554.9333 3226941
-959.6601 685.36169 2564.3113 3161148
-935.66974 679.60614 2542.7766 2963770
-914.75702 675.92523 2529.0044 3029049
-902.22681 678.41779 2538.3303 3226428
-895.53601 685.46948 2564.7144 2963512
-884.36548 689.28711 2578.9983 3029049
-851.41571 675.95599 2529.1194 3160635
-834.40283 675.01178 2525.5867 3226428
-822.02197 677.85077 2536.2087 3160379
-803.43646 675.58429 2527.7285 3357757
-782.99933 671.63837 2512.9648 2765877
-778.30737 681.31354 2549.1648 2963000
-760.60175 679.76355 2543.3655 3423807
-738.91437 674.51251 2523.7185 3621186
-718.12256 669.86719 2506.3379 3687235
-697.10004 664.79419 2487.3569 3753542
-678.92395 662.26575 2477.8967 3950921
-665.77515 664.63776 2486.7715 2568754
-665.49951 680.28241 2545.3069 3423550
-649.92694 680.67474 2546.7747 3489600
-632.90472 679.53033 2542.4929 3160635
-616.72479 679.25452 2541.4609 3094842
-597.91632 675.99231 2529.2551 3029049
-581.58081 675.42438 2527.1304 3358014
-562.26776 671.27008 2511.5867 3621186
-548.06525 673.15338 2518.6333 3358014
-532.28522 673.15338 2518.6333 3292221
-515.67596 672.07263 2514.5896 3292221
-500.46686 672.80603 2517.3337 2963256
-484.69498 672.80603 2517.3337 3358014
-467.88235 671.31274 2511.7466 3094842
-452.14545 671.31274 2511.7466 2897463
-434.67282 668.6427 2501.7563 2700341
-418.65262 668.0907 2499.6909 2831670
-402.43106 667.16193 2496.2161 2765877
-386.01633 665.82489 2491.2134 2765877
-370.1438 665.34979 2489.4358 2963256
-354.81616 665.85541 2491.3276 3094842
-339.20721 665.85541 2491.3276 3160635
-322.1243 662.82245 2479.9797 3160635
-305.54297 660.56659 2471.5391 3094843
-290.66907 661.95813 2476.7458 2963769
-275.82108 663.56903 2482.7729 3029562
-260.77475 664.86676 2487.6284 3095355
-245.72554 666.32172 2493.0723 2832183
-230.10565 666.32172 2493.0723 2766390
-210.92827 655.26996 2451.7217 2766390
-195.892 656.35724 2455.7898 2371632
-178.81628 650.21417 2432.8052 2108460
-164.00081 651.91071 2439.1528 2240303
-148.62381 651.49457 2437.5957 2503218
-132.0831 645.29761 2414.4097 2503218
-116.53265 642.96136 2405.6685 2503475
-102.22599 647.81305 2423.8213 2700597
-87.570145 651.75879 2438.5845 3161148
-72.090416 649.94446 2431.7959 3424320
-56.061871 640.88379 2397.8953 3226941
-41.049732 641.06207 2398.5623 2634804
-26.394396 650.23627 2432.8879 2766390
-11.151599 650.23627 2432.8879 3095355
4.0410419 642.26453 2403.0613 2897976
19.351545 650.82648 2435.0962 2437425
34.716827 652.86969 2442.741 2569268
50.183685 654.98834 2450.668 2634804
65.856674 658.17444 2462.5889 2569011
81.629852 660.96216 2473.0193 2700597
96.979141 659.97583 2469.3289 2766390
112.82052 662.14893 2477.4595 2766390
129.10281 666.07123 2492.135 2503475
145.15193 668.07391 2499.6282 2503218
160.84206 668.19507 2500.0815 2634804
176.45685 668.00964 2499.3877 2503218
192.31943 668.71588 2502.0303 2569011
209.7068 674.21814 2522.6172 2305839
225.51178 674.21814 2522.6172 1976874
239.14954 668.16309 2499.9619 1911081
257.35553 674.83118 2524.9109 1976874
271.41827 670.49176 2508.6748 2240046
286.96695 670.09717 2507.1985 2174253
302.5802 669.88672 2506.4109 2305839
318.46024 670.2583 2507.8013 1845288
334.09601 670.10516 2507.228 2174253
348.94196 668.4527 2501.0454 2174253
366.44229 671.80859 2513.6018 2042667
381.47308 670.54706 2508.8816 1779495
394.06445 665.26703 2489.1262 1911081
410.95602 667.37238 2497.0034 1976874
426.65552 667.45837 2497.3252 1779495
439.23944 662.83679 2480.0332 2240046
453.57443 661.08313 2473.4719 2240046
468.1965 659.84998 2468.8579 2042667
485.40903 662.22974 2477.762 2108460
500.93298 662.22974 2477.762 2239790
514.69977 659.97662 2469.3318 2108460
531.03058 661.04681 2473.3359 2108460
546.09186 660.52075 2471.3677 2240046
558.57288 656.98883 2458.1528 2437425
573.974 656.98883 2458.1528 2897976
587.47327 654.86884 2450.2207 2766390
605.81787 658.12042 2462.387 2700597
622.47333 659.42114 2467.2537 2766647
638.50745 660.01654 2469.4812 2766390
655.39447 661.44458 2474.8242 2766647
671.33997 661.87836 2476.4473 3029562
683.89844 659.02863 2465.7849 3226941
701.54059 661.0954 2473.5178 3161148
718.34424 662.2998 2478.0242 3095355
734.42358 662.79956 2479.894 3095355
752.95721 665.44769 2489.802 3226940
770.49701 667.12775 2496.0881 3094842
786.13574 667.12775 2496.0881 2897463
804.8219 669.66339 2505.5752 2765877
825.55292 673.77081 2520.9434 3029049
839.56055 672.3399 2515.5896 3226428
849.60858 667.84912 2498.7871 3292221
868.64148 670.45581 2508.5403 3292221
886.29675 671.92542 2514.0388 3160635
901.54297 671.54932 2512.6316 3160635
915.29523 670.09222 2507.1799 3226428
933.88831 672.16864 2514.949 3029306
958.36328 678.33936 2538.0369 2305326
961.9101 669.7373 2505.8518 2700084
977.0885 669.37994 2504.5149 3160635
988.12671 666.24243 2492.7756 3094842
1003.7447 666.24243 2492.7756 3160635
1016.0141 664.05383 2484.5869 2963256
1026.6866 660.90332 2472.7993 3029049
