# .PCD v0.7 - Point Cloud Data file format
VERSION 0.7
FIELDS x y z rgb
SIZE 4 4 4 4
TYPE F F F U
COUNT 1 1 1 1
WIDTH 1279
HEIGHT 1
VIEWPOINT 0 0 0 1 0 0 0
POINTS 1279
DATA ascii
-696.80536 605.19012 1594.9215 2765618
-693.83136 611.37463 1611.2202 2699824
-684.15619 611.74988 1612.2091 3094583
-673.58655 611.32452 1611.0881 3028533
-662.33862 610.26129 1608.2861 2765361
-652.26221 610.26129 1608.2861 2567983
-648.81866 616.56439 1624.8975 2370346
-637.20831 615.18396 1621.2594 2567470
-630.59906 618.66522 1630.434 2764591
-622.04651 620.32324 1634.8036 2501675
-611.28198 619.79401 1633.4088 2698798
-604.3606 623.20984 1642.4108 2830384
-595.07684 624.26562 1645.1932 2172711
-585.41113 624.95087 1646.9993 2106918
-573.48975 623.20953 1642.41 2040869
-568.06952 628.59839 1656.6118 2106918
-559.5697 630.71674 1662.1946 2172711
-550.41266 632.16064 1665.9998 2304297
-544.04126 636.92145 1678.5465 2435883
-537.00269 641.07361 1689.489 2435883
-528.33081 643.40356 1695.6294 3160633
-513.88513 638.65356 1683.1113 3160376
-503.33994 638.65356 1683.1113 2634032
-493.47952 639.54108 1685.4502 2173481
-486.28867 644.00262 1697.2084 2107688
-472.24118 639.38049 1685.0271 2436653
-460.00058 637.04919 1678.8831 2436653
-452.80673 641.76154 1691.302 2765361
-440.41293 639.1532 1684.4281 2634032
-428.17673 636.65118 1677.8342 3160890
-414.45517 631.75897 1664.9413 2634289
-397.91049 622.19983 1639.749 3029047
-382.5701 614.06696 1618.3157 4147528
-371.64874 612.77747 1614.9172 3555391
-369.42001 626.14929 1650.1576 2765875
-366.62912 639.31091 1684.8436 2502703
-349.64871 627.77631 1654.4453 3160633
-338.92416 627.11218 1652.6951 3160633
-327.00357 624.12341 1644.8185 3226426
-315.98584 622.71942 1641.1184 3621184
-305.98166 623.28558 1642.6105 3358012
-293.44772 618.55865 1630.1531 3753027
-280.99789 613.6745 1617.2814 3226169
-267.02222 604.96808 1594.3363 2568239
-259.84161 611.57806 1611.7563 3555134
-248.69052 608.99957 1604.9611 3489341
-241.28708 615.76782 1622.7981 3423548
-229.79224 612.23102 1613.4772 3160376
-220.08417 613.34821 1616.4214 3160376
-209.9568 613.34821 1616.4214 3160376
-199.8886 613.52985 1616.9 3555134
-191.08443 617.81775 1628.2004 4015685
-179.86076 614.32544 1618.9968 2831411
-169.87807 614.90759 1620.531 2962997
-160.65825 618.50061 1630.0001 3226169
-149.72186 615.52441 1622.1566 4081735
-139.70175 616.15607 1623.8212 3555134
-129.528 616.15607 1623.8212 3160377
-121.73145 628.42804 1656.163 3818563
-110.73826 624.94702 1646.989 3883072
-99.358803 618.34686 1629.5948 3488314
-89.403511 620.11285 1634.2491 3159606
-80.227425 628.43951 1656.1932 2962227
-69.691505 627.00586 1652.4149 3159606
-59.024956 623.69159 1643.6804 2698799
-48.599937 622.06787 1639.4014 2501418
-38.391945 623.09631 1642.1117 2435625
-28.624075 634.63593 1672.5232 2239016
-17.802082 622.63513 1640.8964 2700079
-7.476748 618.94238 1631.1644 3160374
2.7473011 619.91235 1633.7206 3358010
13.057972 623.48889 1643.1462 2568237
23.395998 624.6424 1646.1862 2436651
33.668716 623.87988 1644.1766 2568237
43.948521 623.57526 1643.3738 2502444
54.42485 625.64545 1648.8296 2173479
64.506393 623.24072 1642.4923 2239272
75.233765 626.87909 1652.0808 2765872
85.357155 625.21338 1647.6909 3028788
96.315666 629.3642 1658.63 2239272
106.69926 629.31555 1658.5018 2436651
116.55605 626.44421 1650.9347 3160374
126.11572 622.57422 1640.7358 3160374
136.06316 621.05756 1636.7386 2305322
147.45329 625.87708 1649.4401 2371115
157.43852 624.49261 1645.7915 2371114
167.29994 622.81757 1641.377 2305065
179.12662 628.22888 1655.6381 1778721
188.17261 623.82928 1644.0433 1976100
198.09352 622.63635 1640.8995 2502446
208.16074 621.99835 1639.2181 2502446
218.43095 621.99835 1639.2181 2305065
228.1893 620.60626 1635.5493 2041894
236.52182 615.62268 1622.4155 2436652
246.68677 615.62268 1622.4155 2831409
256.02972 613.65259 1617.2235 2831409
267.91248 617.68805 1627.8586 2962995
278.1207 617.7085 1627.9125 2897202
287.49664 615.94434 1623.2633 2436651
295.47263 611.40381 1611.2971 2305065
304.32974 608.92645 1604.7683 3226167
316.62234 613.2616 1616.1932 2963252
326.96869 613.67529 1617.2834 2634030
338.9173 616.98096 1625.9951 2699823
349.88657 618.36279 1629.6368 2831408
360.29456 618.70245 1630.5321 2699825
370.09332 618.00604 1628.6968 2765618
380.88062 618.95343 1631.1936 2962997
392.18375 620.66772 1635.7114 2765617
402.79581 621.22888 1637.1902 2239271
411.42783 618.78418 1630.7474 2305067
423.89731 622.0896 1639.4585 2436653
434.12076 622.02039 1639.2761 2568496
443.92209 621.36359 1637.5453 3160376
452.48178 619.03778 1631.4158 2699825
461.98022 618.07074 1628.8672 2897204
477.99817 625.67914 1648.9185 3291962
489.72159 627.4632 1653.6201 3160376
496.38989 622.83057 1641.4114 3423548
504.70862 620.41486 1635.0449 3291962
518.625 624.83923 1646.705 2962997
529.17987 625.12012 1647.4452 3160376
539.34705 624.94098 1646.9731 3160376
549.66583 624.94098 1646.9731 3357755
559.92932 624.87921 1646.8103 3226169
568.13525 622.56506 1640.7115 2962997
583.82611 628.38947 1656.0612 3160376
593.28546 627.42029 1653.5071 3094583
600.53809 624.1908 1644.9961 2831411
612.12915 625.50354 1648.4557 3028790
623.47174 626.52301 1651.1423 3029047
634.63007 627.32703 1653.2614 2897204
644.02014 626.38544 1650.7798 3160376
657.16272 629.06561 1657.8433 3357755
666.85876 628.41461 1656.1276 3818306
676.09375 627.35571 1653.3369 3818306
678.0658 619.6911 1633.1376 3818307
688.29791 619.6911 1633.1376 3357755
696.24884 617.66742 1627.8042 3094584
711.9104 622.44379 1640.3918 3094841
721.79907 622.10852 1639.5084 3358013
728.45374 619.03455 1631.4072 3555135
741.01587 620.99622 1636.5771 3489087
755.09302 624.15674 1644.9062 3489086
755.71503 616.25983 1624.0948 3357755
762.5896 613.60394 1617.0953 3555134
766.71918 608.83777 1604.5347 3686720
782.86194 613.61102 1617.1141 3686720
788.99634 610.51794 1608.9625 3423548
799.07697 610.51794 1608.9625 2831411
808.44684 609.98163 1607.5492 3292219
805.47296 600.2597 1581.9279 3291962
816.05328 600.7522 1583.2258 2765618
833.17004 605.987 1597.0217 2963254
847.81854 609.32373 1605.8153 3621184
865.17169 614.50317 1619.4652 2897461
879.17816 617.21301 1626.6068 3028790
885.87195 614.78583 1620.2102 3357755
890.4743 610.9787 1610.1769 3555134
898.84204 609.81134 1607.1005 3029047
913.66125 612.99841 1615.4996 2897204
930.44214 617.4173 1627.1453 3226426
935.65808 614.14948 1618.5331 3226169
946.76831 614.77911 1620.1925 3160376
962.28186 618.2243 1629.2719 3028790
973.03625 618.57172 1630.1875 2765618
983.57959 618.77917 1630.7341 2765875
993.79663 618.77917 1630.7341 2897204
1004.5636 619.1181 1631.6273 3028790
1012.8173 617.91681 1628.4615 2699825
1015.4842 613.36505 1616.4658 3094583
1024.094 612.45734 1614.0735 3423548
1038.5854 615.05042 1620.9075 3160376
1051.8552 616.87677 1625.7207 3160376
1059.4944 615.39771 1621.8228 3818306
1074.3156 618.07874 1628.8882 3555134
1085.9514 618.89386 1631.0365 3357755
1097.5217 619.65686 1633.0472 3555134
1109.6366 620.71027 1635.8235 3620927
1121.9972 621.8808 1638.9082 3686720
1131.4523 621.43408 1637.7311 3752513
1132.2379 616.27667 1624.1392 3818306
1142.4136 616.27667 1624.1392 4081221
1157.8447 619.08673 1631.5448 3884098
1162.9149 616.35614 1624.3486 3686720
1189.9148 625.19501 1647.6426 3686720
1197.9498 624.00323 1644.5017 3291962
1196.0627 617.70752 1627.91 2831411
1220.6151 625.0575 1647.28 2370860
1232.0165 625.6062 1648.7262 2831411
1247.8944 628.40009 1656.0892 3225912
1246.5874 622.56549 1640.7126 2962996
1265.6971 626.93927 1652.2394 2502702
1282.0598 629.89258 1660.0225 2436910
1292.4917 629.90778 1660.0626 2502702
1300.0455 628.53137 1656.4352 2502446
1302.0311 624.50598 1645.8267 2962227
1305.924 621.45148 1637.7769 3225399
1315.4133 621.08704 1636.8164 3159606
1313.0676 615.18341 1621.2581 3094070
1326.9095 616.8963 1625.7721 3028277
1337.8939 617.26471 1626.7429 3159606
1345.3455 616.00977 1623.4358 3356985
1348.4188 612.78418 1614.9349 3291192
1360.9667 613.88019 1617.8234 2962227
1371.6182 614.1109 1618.4314 2567469
1376.8617 611.93475 1612.6963 2106918
1386.9658 611.93475 1612.6963 2041125
1411.855 618.41089 1629.7635 2764848
1432.2651 622.84613 1641.4523 3751743
1444.5808 623.72321 1643.7638 3883329
1451.0714 622.0907 1639.4614 3488571
1460.0813 621.55347 1638.0457 3620414
1473.0159 622.68292 1641.0222 3620670
1483.1451 622.61902 1640.8538 3489597
1492.0557 622.04785 1639.3485 3555134
1500.4122 621.25519 1637.2595 3489341
1507.2437 619.84607 1633.5459 3489341
1513.6942 618.30035 1629.4723 3489341
1521.4628 617.31012 1626.8627 3949892
1514.9277 610.56818 1609.095 3686720
1525.0092 610.56818 1609.095 3291962
1546.5186 615.11353 1621.0737 2897204
1556.675 615.11353 1621.0737 3094839
1577.6171 619.34772 1632.2327 3226169
1590.178 620.2583 1634.6323 3160632
1601.1346 620.53546 1635.3628 3029047
1610.0024 620.0047 1633.964 3094839
1620.9484 620.27588 1634.6787 3357755
1638.5593 623.07806 1642.0636 3423805
1642.7142 620.76044 1635.9557 3226425
1655.7194 621.79523 1638.6827 3028791
1662.2212 620.38995 1634.9794 3159863
1674.0172 620.96582 1636.4969 2896434
nan nan nan 16777215
nan nan nan 16777215
nan nan nan 16777215
nan nan nan 16777215
nan nan nan 16777215
nan nan nan 16777215
nan nan nan 16777215
nan nan nan 16777215
nan nan nan 16777215
nan nan nan 16777215
nan nan nan 16777215
nan nan nan 16777215
nan nan nan 16777215
nan nan nan 16777215
-1411.1432 612.89966 1589.1388 3555134
-1401.1868 612.89966 1589.1388 3489341
-1387.8988 611.43195 1585.3334 3620927
-1377.9662 611.43195 1585.3334 3423548
-1377.387 615.61237 1596.1725 3291706
-1360.6788 612.59253 1588.3425 3357754
-1349.5304 612.04962 1586.9349 3226169
-1335.7551 610.29852 1582.3947 3094839
-1324.277 609.57861 1580.5281 3489341
-1311.6674 608.32312 1577.2728 3752515
-1305.7732 610.18665 1582.1046 3620417
-1291.943 608.34192 1577.3214 3488833
-1280.1547 607.43762 1574.9767 3160122
-1280.9753 612.54865 1588.2288 2962999
-1276.1171 615.00287 1594.592 3291707
-1263.3137 613.6366 1591.0497 3489086
-1253.3453 613.6366 1591.0497 3094328
-1252.3846 618.08215 1602.576 2831157
-1241.4114 617.6181 1601.373 2633778
-1231.1431 617.50012 1601.0671 2699572
-1225.8273 619.8847 1607.2499 3028791
-1216.1113 620.06519 1607.7178 3094583
-1207.7604 620.9505 1610.0132 3423548
-1197.6576 620.94244 1609.9923 3555134
-1174.1074 613.90295 1591.7402 3620927
-1166.1555 614.96869 1594.5034 3752513
-1163.9017 619.08368 1605.1729 3620927
-1135.6434 609.31787 1579.8519 3357755
-1112.5397 602.17023 1561.3195 3094583
-1109.5927 605.90271 1570.9969 3094583
-1099.7854 605.92224 1571.0477 2897204
-1084.5872 602.94519 1563.3287 2765618
-1073.9294 602.46112 1562.0736 2962997
-1067.7975 604.53033 1567.4387 2962997
-1053.1021 601.74475 1560.2162 3226169
-1042.7186 601.39398 1559.3068 3226169
-1037.9259 604.2915 1566.8195 3094583
-1026.7068 603.46716 1564.6821 3028790
-1019.4434 604.97437 1568.5901 3028788
-1008.2545 604.15875 1566.4752 3225911
-998.44 604.15875 1566.4752 3422775
-994.13318 607.52454 1575.2021 3619898
-980.03143 604.91199 1568.4282 2764846
-973.31573 606.85168 1573.4575 2698796
-963.45758 606.85168 1573.4575 2896434
-956.04089 608.40546 1577.4861 2501675
-957.58478 615.75354 1596.5385 2041124
-949.50891 617.00562 1599.7849 1185814
-940.74268 617.83112 1601.9253 1185813
-924.18402 613.50159 1590.6996 1514779
-917.61743 615.78296 1596.6147 1778207
-906.18134 614.81085 1594.0942 1910307
-896.19385 614.81085 1594.0942 2634031
-887.60913 615.784 1596.6176 2831411
-877.06659 615.40558 1595.6364 2897460
-874.14105 620.4248 1608.6501 2371117
-865.8645 621.71875 1612.0051 2370858
-861.86389 626.14978 1623.494 3028788
-848.1178 623.52197 1616.6807 2699825
-836.85797 622.68054 1614.4989 2765618
-820.25885 617.79712 1601.8372 3357755
-810.22284 617.79712 1601.8372 3752513
-808.22327 624.00177 1617.9247 2897204
-795.21625 621.75763 1612.1061 2897204
-780.77698 618.32153 1603.1968 3291963
-768.66327 616.66156 1598.8927 3291962
-746.78387 607.01971 1573.8932 3489341
-729.6109 600.99658 1558.2764 4015685
-704.69196 588.34302 1525.4679 3423805
-717.41412 607.19995 1574.3606 2568238
-710.1886 609.46417 1580.2312 3028790
-699.20966 608.52563 1577.7979 2765875
-689.88483 609.02051 1579.0809 2502703
-678.867 608.01355 1576.47 2699055
-668.05005 607.1593 1574.2551 2699052
-659.93091 608.76813 1578.4265 2764590
-649.19794 607.97797 1576.3779 2765360
-640.44781 609.04926 1579.1554 2962739
-624.09351 602.80914 1562.976 2699568
-623.87146 612.2005 1587.3262 2305067
-613.92633 612.2005 1587.3262 2634032
-604.85828 613.08948 1589.6311 2699825
-600.4306 618.79053 1604.4128 2634289
-589.34509 617.7074 1601.6045 2764592
-579.31055 617.7074 1601.6045 2304554
-573.64203 622.44482 1613.8878 2370347
-563.70856 622.64154 1614.3978 2633006
-553.94812 623.03998 1615.4309 2041125
-542.24237 621.22461 1610.724 2633262
-531.60248 620.58466 1609.0646 3028020
-524.15057 623.71344 1617.1771 2435883
-520.4447 631.51117 1637.3951 2764848
-514.17822 636.45282 1650.208 2370860
-501.18674 633.10223 1641.5206 3028790
-490.90213 633.10223 1641.5206 2831411
-484.90332 638.74792 1656.1588 2634032
-474.52701 638.74792 1656.1588 2897204
-458.85849 631.46503 1637.2755 2568239
-450.14835 633.64392 1642.925 3094583
-438.03824 631.02686 1636.1394 3226169
-428.5311 632.12408 1638.9843 2765618
-417.23093 630.56525 1634.9425 3094840
-405.78848 628.70746 1630.1257 2897461
-390.96481 621.37988 1611.1267 3094840
-376.0658 613.54102 1590.8018 3686977
-362.59558 607.66986 1575.5789 3226426
-361.73917 623.20087 1615.848 2568496
-351.26294 622.57623 1614.2285 2568496
-338.50562 617.75165 1601.7192 3094840
-331.96164 624.31769 1618.7438 3095097
-322.60602 625.84314 1622.699 3226426
-308.76849 618.49011 1603.634 3423805
-299.48297 620.06732 1607.7233 3292219
-283.52325 607.45465 1575.0209 3358012
-273.3797 606.84302 1573.4351 3489084
-262.94116 605.50623 1569.969 3620927
-251.17976 600.90088 1558.0282 3423548
-241.11302 600.14117 1556.0585 3160376
-235.31665 610.39453 1582.6436 3226169
-225.40089 610.39453 1582.6436 3291962
-215.99251 611.83173 1586.3699 2962997
-206.14534 612.10468 1587.0776 2568496
-195.32635 609.37347 1579.9961 2699825
-186.49422 612.88007 1589.0881 4476236
-176.5164 612.80475 1588.8928 3818306
-166.74519 613.48065 1590.6453 3423548
-157.74081 617.24304 1600.4005 2568239
-147.58002 616.68396 1598.9509 2765618
-137.56209 616.68396 1598.9509 3291962
-127.60705 616.98804 1599.7393 3818306
-117.5842 616.98804 1599.7393 4015685
-108.43111 621.97717 1612.6753 3423805
-97.895065 619.24371 1605.5879 3291962
-88.149841 621.45941 1611.3328 3489084
-78.412529 624.31122 1618.7271 3225913
-68.134933 623.0697 1615.5079 3290935
-57.98378 622.75287 1614.6865 3356728
-47.671654 620.20795 1608.088 3094068
-37.596481 620.20795 1608.088 3555131
-27.332205 615.94635 1597.0383 2568493
-17.608707 625.98706 1623.0723 3226166
-7.4197159 624.30927 1618.7219 3555132
2.6918008 617.36493 1600.7166 2897201
12.765939 619.55627 1606.3983 2765872
22.996754 624.06732 1618.0946 2436651
33.26104 626.44849 1624.2684 2305065
43.223454 623.36023 1616.2612 2305065
53.349831 623.36023 1616.2612 2173479
63.639133 624.96027 1620.4098 2041893
73.58149 623.18152 1615.798 2305065
83.917931 624.76709 1619.9089 2765616
94.55632 628.01593 1628.3326 2634286
104.71383 627.74921 1627.641 2436651
114.56567 625.85999 1622.7426 1646878
123.7831 621.0954 1610.3889 1909537
134.24652 622.82977 1614.8859 2633260
145.35547 627.10608 1625.9736 2764846
155.00369 624.93286 1620.3389 2501417
164.95322 624.16711 1618.3533 2435881
175.67911 626.25751 1623.7733 2173736
184.37296 621.27173 1610.8462 2239272
194.70107 622.0246 1612.7982 2370857
204.69623 621.69202 1611.9358 2371114
213.40977 617.68121 1601.5366 2502444
222.754 615.77405 1596.5917 2173478
231.92531 613.57343 1590.8857 2568237
243.89198 618.64465 1604.0347 2634030
253.94176 618.64465 1604.0347 2699823
263.96603 618.58496 1603.8798 2502700
272.07199 614.19897 1592.5078 2502444
281.68811 613.41193 1590.4672 2502444
291.45703 613 1589.399 2371114
303.39066 617.01776 1599.8164 3028788
310.92377 612.11523 1587.105 2502444
319.23148 608.99426 1579.0129 2502444
330.36734 611.29401 1584.9757 2634032
341.26212 613.02643 1589.4675 2568240
351.91312 614.23511 1592.6014 2634032
361.89127 614.23511 1592.6014 2568239
373.76395 617.36438 1600.7152 2436653
386.59906 621.87836 1612.4189 2568239
398.41089 624.55823 1619.3674 2173480
406.91486 622.04828 1612.8596 2107688
415.37177 619.58984 1606.4852 1712930
424.629 618.41321 1603.4346 1778723
434.50943 618.17767 1602.8237 2436909
446.26834 620.56488 1609.0134 2700081
457.52618 622.16522 1613.1628 2436653
467.61209 622.13721 1613.0902 2370860
477.7186 622.13721 1613.0902 2370860
489.30759 624.02783 1617.9923 2239274
498.43811 622.77008 1614.7311 3160376
509.40222 623.80768 1617.4214 3094840
518.39771 622.4411 1613.8782 3226169
525.00726 618.31683 1603.1847 2962997
536.67023 620.18719 1608.0341 2831411
542.4519 615.31738 1595.4076 2831411
546.3252 608.49811 1577.7266 2370860
557.14844 609.52466 1580.3881 2634032
565.34076 607.68732 1575.6243 3094583
583.96527 616.93427 1599.5999 3160376
593.9873 616.93427 1599.5999 3160376
606.43225 619.40906 1606.0166 3028790
618.98828 621.91467 1612.5132 3094583
629.4693 622.28851 1613.4825 3160376
643.00836 625.62592 1622.1357 3291962
652.18481 624.68079 1619.6852 3686720
653.14459 616.01501 1597.2164 3752513
658.0155 611.24396 1584.8459 3686720
667.94507 611.24396 1584.8459 3423548
680.02014 613.17859 1589.8621 3160376
688.05707 611.46875 1585.4287 2831411
697.65509 611.17511 1584.6674 2634032
706.89886 610.58374 1583.134 3028790
716.00653 609.89276 1581.3425 3160376
722.70892 607.19989 1574.3604 2699825
732.98108 607.53827 1575.2378 2961970
745.90076 610.03296 1581.7061 3159605
751.0694 606.20618 1571.7839 3028277
760.91711 606.20618 1571.7839 3094070
769.67993 605.35297 1569.5715 2962740
781.81616 607.14093 1574.2075 2897204
792.26337 607.58899 1575.3694 3027763
799.67603 605.72754 1570.5428 3159350
807.40173 604.14557 1566.441 2764848
816.46637 603.59137 1565.0042 2238505
825.97699 603.37616 1564.4462 2765105
837.93811 604.93506 1568.4882 2699311
847.7652 604.93506 1568.4882 2502189
862.39441 608.32245 1577.271 2896690
884.48499 616.83661 1599.3467 2963254
896.33496 618.09827 1602.6179 2897204
896.44965 611.32916 1585.0669 3028790
906.38055 611.32916 1585.0669 2963254
921.49963 614.79047 1594.0414 3028790
929.81482 613.68695 1591.1802 3028790
938.13818 612.61212 1588.3934 3094583
950.11566 613.92108 1591.7872 3094583
965.0567 617.09784 1600.0239 3094583
975.32648 617.25299 1600.4263 2897461
985.35364 617.25299 1600.4263 2962997
997.68024 618.67889 1604.1234 2765618
1009.6964 619.88574 1607.2526 2897204
999.35229 607.47668 1575.0781 2962997
1009.2206 607.47668 1575.0781 3028790
1018.6055 607.18848 1574.3308 3028790
1032.3015 609.45099 1580.197 4015685
1038.54 607.30963 1574.6449 3818306
1051.9739 609.37659 1580.0042 3489341
1076.2511 617.62769 1601.3978 3555134
1087.5302 618.33606 1603.2344 3620927
1099.4728 619.40521 1606.0067 3357755
1106.8737 617.91956 1602.1545 3620927
1107.801 612.87915 1589.0857 3884099
1121.0446 614.68164 1593.7593 4476493
1134.1436 616.37384 1598.1467 4081737
1139.7244 613.98627 1591.9563 3818565
1149.6986 613.98627 1591.9563 3621188
1168.3766 618.59454 1603.9047 3555391
1156.4048 607.03516 1573.9332 3752770
1187.6628 618.17212 1602.8093 3423548
1201.3619 620.05957 1607.7032 3489341
1215.5925 622.18774 1613.2212 3884099
1228.6249 623.67255 1617.0709 2765618
1238.7562 623.67255 1617.0709 2305067
1246.9025 622.68109 1614.5004 2502446
1255.5693 621.96356 1612.6399 2699825
1264.402 621.33899 1611.0205 2568239
1278.4733 623.27814 1616.0485 2699056
1283.948 621.02893 1610.2166 3028020
1287.7538 618.01373 1602.3987 3093813
1296.4642 617.38074 1600.7576 3159606
1302.5616 615.52283 1595.9402 3094070
1310.1638 614.3988 1593.0259 2962227
1320.1447 614.3988 1593.0259 3225399
1320.3884 609.90118 1581.3644 3488571
1333.8591 611.53473 1585.5999 3028020
1351.5587 615.0686 1594.7625 2633262
1345.9645 608.02777 1576.5068 2304297
1348.7217 604.83472 1568.2279 2238504
1357.7386 604.47479 1567.2947 2962227
1380.3242 610.11749 1581.9252 3554364
1395.3496 612.36182 1587.7444 4014915
1405.37 612.39355 1587.8267 3751743
1420.64 614.69629 1593.7971 3423805
1440.235 618.82501 1604.5023 3620927
1445.1797 616.64557 1598.8513 3686720
1455.24 616.6637 1598.8984 3489341
1465.2574 616.6637 1598.8984 3489341
1476.3723 617.12238 1600.0876 3555134
1485.2302 616.63776 1598.8312 3621184
1465.0289 604.17572 1566.5193 4015685
1474.8436 604.17572 1566.5193 3949892
1496.9468 609.17639 1579.4852 3752513
1521.1328 614.95355 1594.4642 3160376
1536.9756 617.30432 1600.5593 2962997
1551.5743 619.12817 1605.2883 2963253
1560.1155 618.52692 1603.7294 3290679
1570.4926 618.65668 1604.0657 3225399
1583.424 619.78448 1606.99 3225399
1597.4335 621.31738 1610.9646 3422522
1611.9539 623.02856 1615.4012 3356729
1622.0748 623.02856 1615.4012 3422778
1631.6448 622.81818 1614.8558 3225399
1638.2622 621.49036 1611.4131 3093813
1627.7067 613.70398 1591.2244 3028020
nan nan nan 16777215
nan nan nan 16777215
nan nan nan 16777215
nan nan nan 16777215
nan nan nan 16777215
nan nan nan 16777215
nan nan nan 16777215
nan nan nan 16777215
nan nan nan 16777215
nan nan nan 16777215
nan nan nan 16777215
nan nan nan 16777215
nan nan nan 16777215
nan nan nan 16777215
-1385.6122 611.5354 1560.3875 3291962
-1368.7592 608.38983 1552.3613 3423295
-1358.2695 608.04803 1551.4891 3554624
-1350.0854 608.74084 1553.257 3423038
-1343.4919 610.16602 1556.8934 3423294
-1334.9177 610.70599 1558.2711 3357501
-1322.9198 609.67609 1555.6432 3357501
-1313.2241 609.69965 1555.7035 3357499
-1301.3927 608.72467 1553.2157 3620926
-1287.3522 606.69385 1548.0339 3423548
-1276.9894 606.37866 1547.2296 3291706
-1277.3116 611.1712 1559.4581 3291963
-1267.5411 611.1712 1559.4581 3291709
-1260.3264 612.41302 1562.627 2962744
-1254.5903 614.3985 1567.693 3028537
-1249.2679 616.61951 1573.3601 3094072
-1237.432 615.63525 1570.8486 3094073
-1227.6577 615.66913 1570.9351 2963000
-1217.8153 615.66913 1570.9351 2962743
-1209.8013 616.60101 1573.3129 3160375
-1204.3279 618.8537 1579.0608 3226169
-1191.9435 617.56305 1575.7676 3226168
-1182.5454 617.81097 1576.4001 3160376
-1174.4877 618.76929 1578.8453 3357755
-1157.7406 615.12701 1569.5518 3226169
-1148.058 615.20801 1569.7584 3291962
-1142.4109 617.4715 1575.5341 3094583
-1119.5149 610.3703 1557.4147 3291962
-1109.7572 610.3703 1557.4147 3423548
-1093.894 606.98248 1548.7704 3291962
-1076.9873 602.94983 1538.4806 3028790
-1072.0247 605.59155 1545.2212 2765875
-1062.2563 605.54193 1545.0946 2831411
-1051.7056 605.04126 1543.817 2897204
-1038.8651 603.20178 1539.1235 3094583
-1029.2744 603.23248 1539.2019 3160376
-1011.5205 598.43433 1526.9589 3094583
-1009.1078 602.70721 1537.8617 3094583
-1003.7619 605.29376 1544.4614 2765618
-992.79059 604.50543 1542.4498 2634031
-985.45538 605.93726 1546.1033 2305322
-974.26959 605.00647 1543.7283 2437164
-971.85657 609.55933 1555.3453 2700080
-960.21436 608.35712 1552.2778 2961969
-958.4007 613.42108 1565.1989 2567723
-953.47974 616.58038 1573.2601 2764848
-947.12408 618.86823 1579.0978 2896433
-945.05377 624.034 1592.2788 1975331
-935.84808 624.5481 1593.5906 1449499
-919.56952 620.30231 1582.7571 1318427
-910.45154 620.8468 1584.1464 1383965
-896.93494 618.37073 1577.8285 2239274
-885.40491 617.22443 1574.9036 2897204
-875.73138 617.36096 1575.252 2962997
-865.72253 617.2616 1574.9984 3226169
-855.85468 617.2616 1574.9984 2897461
-862.35358 629.20337 1605.4689 2634032
-849.60187 627.21527 1600.3961 2239274
-839.52277 627.17633 1600.2968 2699825
-830.52039 627.95056 1602.2722 3686720
-820.25885 627.78003 1601.8372 3489341
-801.6463 621.1347 1584.881 3555134
-786.37158 616.94135 1574.1813 3028790
-778.55475 618.56689 1578.329 3160376
-769.11359 618.927 1579.2479 3226169
-756.42682 616.6507 1573.4397 3291962
-736.75067 608.5412 1552.7476 3686720
-713.99323 597.6355 1524.9207 3884099
-699.91241 593.7951 1515.1216 3686720
-695.07318 597.79736 1525.3336 3423548
-690.55554 602.19159 1536.5459 2634289
-686.90778 607.47931 1550.0381 2831411
-675.24249 605.72668 1545.566 3160632
-664.75702 604.9967 1543.7035 2765617
-654.617 604.56433 1542.6002 2699825
-645.87152 605.42615 1544.7992 2699825
-637.83429 606.98816 1548.7848 2699825
-628.91553 607.74664 1550.7202 2568239
-619.58923 608.12891 1551.6954 2370860
-607.84375 606.11096 1546.5466 2305067
-587.68866 595.50629 1519.4878 2502446
-579.8559 597.24414 1523.9221 3160376
-577.03308 604.2868 1541.8921 2831411
-575.83057 613.29504 1564.8774 2699825
-566.02612 613.29504 1564.8774 2568239
-556.47266 613.57178 1565.5835 3028790
-550.72961 618.13525 1577.2275 2896691
-542.89581 620.47595 1583.2001 2896691
-532.97656 620.47595 1583.2001 3225912
-524.09143 621.70264 1586.3301 2830385
-514.15259 621.70264 1586.3301 2698798
-510.74475 629.75549 1606.8777 2370860
-503.97699 633.90601 1617.4681 2041895
-491.9191 631.4364 1611.1667 3094583
-483.43954 633.5528 1616.5668 3555134
-474.42026 635.03717 1620.3544 4015941
-461.90866 631.80975 1612.1193 3620927
-451.0528 630.7533 1609.4237 2370860
-441.58078 631.62799 1611.6555 3160890
-422.42581 618.36926 1577.8247 3423805
-412.48422 618.28528 1577.6105 3357755
-400.63766 615.27161 1569.9208 3226169
-392.07602 617.27808 1575.0404 3029047
-381.75659 616.54913 1573.1804 2831668
-368.57373 611.03455 1559.1095 2765875
-358.9559 611.29083 1559.7634 2963254
-349.18353 611.29083 1559.7634 3423805
-339.48175 611.41803 1560.088 3358012
-330.60651 613.08551 1564.3428 3094840
-321.62943 614.66028 1568.3608 3160633
-312.62152 616.2735 1572.4772 3160890
-302.51981 615.76538 1571.1807 2897461
-292.44965 615.28943 1569.9662 2765875
-281.69501 613.29004 1564.8646 2634289
-270.85721 610.95905 1558.9169 3423548
-261.09012 610.95905 1558.9169 3555134
-248.02542 602.94263 1538.4623 3357755
-240.11327 607.31018 1549.6064 2831411
-230.40451 607.31018 1549.6064 3094583
-221.93588 610.72284 1558.3141 3357755
-212.59315 611.93347 1561.4032 3291962
-202.57948 611.23645 1559.6246 3291962
-193.38823 613.07605 1564.3186 3489341
-184.13286 614.89795 1568.9673 3818306
-174.33269 615.00342 1569.2365 2502446
-165 616.8692 1573.9972 2765618
-155.06499 616.57727 1573.2522 3291962
-144.56392 613.84204 1566.2731 2897204
-134.75073 613.84204 1566.2731 2963511
-125.3718 615.97559 1571.717 4147271
-115.90327 617.99524 1576.8702 4410443
-106.08955 618.37909 1577.8497 4476236
-96.203827 618.37909 1577.8497 3357755
-86.719894 621.25739 1585.1941 3291962
-77.019852 623.1319 1589.9769 3423291
-66.955574 622.17871 1587.5448 3489341
-57.009109 622.17871 1587.5448 3291962
-46.996841 621.30865 1585.3248 3489083
-37.06702 621.35449 1585.4418 3489338
-27.210808 623.11932 1589.9449 3949890
-17.290628 624.61194 1593.7535 3555133
-7.3115473 625.14886 1595.1234 3291960
2.6686823 621.953 1586.9689 2634030
12.606352 621.69739 1586.3168 2897202
22.490656 620.19562 1582.4847 2897202
32.236763 616.96777 1574.2487 2634030
42.717262 626.01489 1597.3333 2041893
52.734112 626.12244 1597.6077 2107686
62.940895 628.09113 1602.6309 2305065
72.237915 621.68848 1586.2941 2370858
82.775002 626.216 1597.8464 1976100
92.786003 626.216 1597.8464 2502444
103.31016 629.34198 1605.8226 2568237
113.45857 629.82739 1607.0612 1976100
122.01616 622.12244 1587.4014 2041122
131.0869 617.99823 1576.8781 3291190
141.23436 619.17242 1579.874 3093811
151.27316 619.74762 1581.3417 2501417
162.08186 623.2124 1590.1824 2107686
171.68819 621.92047 1586.8859 2370601
181.86383 622.71936 1588.9243 2436651
191.88008 622.91785 1589.4308 2370858
200.36722 618.3775 1577.8458 3752510
209.26341 615.46735 1570.4202 4015682
219.46677 616.49036 1573.0305 3028788
227.77286 612.32501 1562.4022 2765616
237.21767 611.43799 1560.1389 2699823
246.46448 610.13098 1556.8041 2568237
257.4874 613.15302 1564.515 2634030
267.69092 614.07379 1566.8644 2699823
277.67575 614.44537 1567.8125 2962995
287.43457 614.30853 1567.4634 2502444
297.70255 615.23303 1569.8223 2239272
308.10696 616.37128 1572.7266 2107686
316.39001 613.32672 1564.9581 2305065
326.47507 613.85339 1566.3021 2305065
337.01291 615.17584 1569.6764 1910307
346.12057 613.88666 1566.387 2699823
355.93448 613.88666 1566.387 2765618
366.44617 615.05786 1569.3754 2370861
376.34885 615.17236 1569.6675 2370861
388.14661 618.29987 1577.6476 2239275
400.40942 621.99438 1587.0746 2041895
410.35294 621.99438 1587.0746 1778723
416.61389 616.54456 1573.1688 1712930
425.80521 615.58307 1570.7155 2502446
435.60678 615.5274 1570.5734 2699825
448.41055 619.62256 1581.0226 2568239
458.69467 620.13428 1582.3284 2502446
470.05484 622.0484 1587.2124 2765618
475.85681 616.68005 1573.5146 2962997
483.47681 613.83795 1566.2626 2831411
494.09082 614.83459 1568.8057 3028790
502.68262 613.32501 1564.9537 3160376
512.48755 613.32501 1564.9537 2699825
525.35052 616.91602 1574.1167 2436653
529.17633 609.95801 1556.3627 2502446
545.14789 616.99829 1574.3265 2502446
554.85016 616.81897 1573.869 2107688
559.73065 611.37915 1559.9888 2831411
570.67859 612.63953 1563.2048 3160376
580.5741 612.7467 1563.4783 3291962
592.79871 615.2677 1569.9109 3160376
602.49457 615.12463 1569.5458 3226169
607.06256 609.83496 1556.0487 3028790
617.32971 610.34711 1557.3555 3029047
631.40167 614.54657 1568.0708 2897204
638.67206 612.09875 1561.825 3028790
648.24939 611.90247 1561.3241 3489341
653.57465 607.758 1550.749 3423548
663.53156 607.97876 1551.3124 3226169
671.64984 606.53284 1547.623 3291962
680.02344 605.35535 1544.6185 2897460
686.61292 602.64496 1537.7028 2897204
694.04822 600.7417 1532.8463 2962997
703.65198 600.7417 1532.8463 2765618
713.00024 600.52649 1532.2972 2765618
716.83783 595.73724 1520.0771 3423548
726.39771 595.76697 1520.1528 3291705
733.36523 593.69714 1514.8716 2962741
748.83771 598.47748 1527.069 3159606
757.57666 597.82361 1525.4006 3159606
767.4967 598.10645 1526.1223 2633262
778.08252 598.89471 1528.1337 2896434
789.19958 600.06781 1531.127 3028020
797.28961 598.93884 1528.2462 3093813
797.38055 591.8988 1510.283 3028020
824.25928 604.67535 1542.8835 2962227
827.05127 599.69061 1530.1646 2567212
832.81586 596.95074 1523.1735 2041125
839.31525 594.79376 1517.6697 2764335
860.10107 602.69604 1537.833 3094583
880.30933 610.02289 1556.5282 3028790
891.48346 610.9975 1559.0149 2897204
901.23914 610.98932 1558.9941 2831411
910.73047 610.80402 1558.5214 2699825
920.58148 610.86133 1558.6676 2962997
931.47412 611.60138 1560.5559 3160376
943.41583 613.00775 1564.1443 2173481
950.47351 611.24426 1559.6447 2305067
964.54333 613.98022 1566.6257 2634032
975.43262 614.65698 1568.3524 2897204
985.33649 614.70538 1568.4761 2897204
996.66608 615.63354 1570.8444 2831411
1007.5802 616.28943 1572.5178 2831411
1014.4673 614.49335 1567.9349 3094583
1023.3616 613.93585 1566.5125 3620927
1031.1718 612.74469 1563.473 3620927
1039.0793 611.6333 1560.6373 3160376
1054.9044 615.15973 1569.6353 3423548
1064.6212 615.09174 1569.4619 3620927
1073.7048 614.66272 1568.3671 2962997
1082.449 614.04877 1566.8007 3555134
1099.7511 618.25708 1577.5385 3950149
1104.8219 615.57544 1570.696 3818309
1108.0253 611.90991 1561.343 3752261
1115.515 610.65485 1558.1407 3883590
1125.7396 610.90582 1558.7811 3883845
1135.7537 611.03912 1559.1212 3620672
1151.1619 614.04749 1566.7972 3686719
1162.9237 615.07635 1569.4226 3884356
1172.8467 615.12366 1569.5432 3818306
1174.0857 610.65344 1558.1371 3884099
1184.1255 610.79669 1558.5026 3620927
1204.7701 616.36292 1572.7053 2963254
1218.4133 618.28607 1577.6124 2962997
1230.2969 619.29236 1580.1802 2897204
1237.291 617.84119 1576.4773 2963254
1248.9697 618.7337 1578.7546 3094069
1258.8611 618.7337 1578.7546 2830641
1255.0654 612.05896 1561.7234 2633262
1267.371 613.27881 1564.8359 3291192
1278.4185 613.87579 1566.3593 3291192
1281.5947 610.71289 1558.2888 3356985
1291.7648 610.90533 1558.7798 3356985
1300.4209 610.38422 1557.4502 3159606
1302.5992 606.85309 1548.4402 2699055
1320.3043 610.5542 1557.8839 2699055
1338.2839 614.32709 1567.5107 2699055
1339.3199 610.32385 1557.2961 3356985
1353.7125 612.42096 1562.6471 3554364
1374.3431 617.28986 1575.0706 3488571
1376.6057 613.89813 1566.4161 3751743
1381.6337 611.77881 1561.0087 3752000
1391.6011 611.86108 1561.2186 3883329
1410.38 615.78949 1571.2422 3357241
1419.1332 615.31641 1570.035 3489085
1420.9033 611.8429 1561.1721 3686463
1430.6846 611.8429 1561.1721 3489341
1447.3632 614.77264 1568.6476 3489341
1443.7206 609.08948 1554.1466 3555391
1445.4264 605.72388 1545.5588 3752770
1452.6498 604.69983 1542.9459 3818306
1476.9758 610.7616 1558.4131 3818306
1495.3325 614.29163 1567.4202 3489341
1511.7163 616.97034 1574.2551 3423035
1523.3694 617.69604 1576.1069 3356472
1533.9479 617.97949 1576.8302 3225399
1545.5016 618.64978 1578.5405 3225399
1558.9127 620.05029 1582.1139 3093813
1568.5299 619.93353 1581.8162 3225399
1576.598 619.20996 1579.9698 3291192
1589.7397 620.47559 1583.1991 3159606
1604.2383 622.25183 1587.7314 3488571
1608.9175 620.22083 1582.5492 3225399
1614.3994 618.52234 1578.2153 2699055
nan nan nan 16777215
nan nan nan 16777215
nan nan nan 16777215
nan nan nan 16777215
nan nan nan 16777215
nan nan nan 16777215
nan nan nan 16777215
nan nan nan 16777215
nan nan nan 16777215
nan nan nan 16777215
nan nan nan 16777215
nan nan nan 16777215
nan nan nan 16777215
nan nan nan 16777215
-1357.1725 608.50861 1528.3605 3291707
-1347.8221 608.61029 1528.616 3291708
-1339.2556 609.06995 1529.7704 3423294
-1329.0708 608.79498 1529.0798 3554880
-1319.9161 608.99127 1529.5729 3686466
-1310.8184 609.21698 1530.1396 3620417
-1298.8102 608.08331 1527.2922 3554881
-1289.3025 608.11224 1527.3649 3488831
-1283.6184 609.9585 1532.0021 3489088
-1266.3289 606.27625 1522.7535 2897206
-1254.41 605.12891 1519.8719 2962742
-1245.692 605.51996 1520.8541 3160377
-1237.0006 605.93005 1521.884 3094840
-1238.0273 611.14386 1534.9792 2897203
-1225.2465 609.56989 1531.026 3028537
-1219.6549 611.57593 1536.0646 2963000
-1212.6357 612.89246 1539.3711 2962743
-1193.4047 608.00836 1527.1041 2962999
-1183.6183 607.89618 1526.8223 2831414
-1172.6852 607.18835 1525.0444 2962744
-1167.1676 609.29584 1530.3378 3357245
-1164.0513 612.70233 1538.8936 2896949
-1153.3198 612.1239 1537.4408 3160376
-1147.5515 614.19214 1542.6355 3291962
-1140.0217 615.34467 1545.5303 3226169
-1130.3385 615.34467 1545.5303 3160376
-1119.6006 614.76556 1544.0758 3291962
-1109.9265 614.76556 1544.0758 3291962
-1092.951 610.68597 1533.8292 2962997
-1081.2014 609.47974 1530.7997 2897204
-1064.403 605.38049 1520.5038 2897204
-1057.5757 606.9295 1524.3943 2831411
-1048.059 606.94922 1524.4438 2699826
-1038.7295 607.07874 1524.7692 2699824
-1027.3947 606.02783 1522.1296 2962995
-1017.6117 605.88116 1521.7612 3029044
-1007.8201 605.7265 1521.3728 3094581
-994.53497 603.4491 1515.6528 3028787
-990.02118 606.50134 1523.319 2239272
-979.94611 606.17285 1522.4939 2107686
-974.4978 608.72809 1528.9117 2370858
-964.91864 608.72809 1528.9117 2436651
-957.20233 609.91504 1531.8929 2502444
-951.33478 612.31592 1537.9231 2107943
-948.93372 617.01996 1549.738 2435367
-948.59418 623.1756 1565.1989 3488569
-940.14337 624.07544 1567.459 3685691
-926.68011 621.63196 1561.3218 2765102
-922.35382 625.33087 1570.6121 1712673
-914.45245 626.65967 1573.9496 1844516
-900.9566 624.14178 1567.6256 2239274
-887.86121 621.84894 1561.8667 3291962
-879.21021 622.65234 1563.8846 3094583
-867.93799 621.59674 1561.2334 2831411
-862.1792 624.51062 1568.552 2699825
-852.35168 624.51062 1568.552 2699825
-846.44171 627.41443 1575.8453 2699825
-839.16058 629.35834 1580.7278 2699825
-826.38953 627.18225 1575.2621 2634289
-815.38904 626.3136 1573.0803 1844516
-803.11621 624.43433 1568.3604 2502446
-793.33331 624.46838 1568.4459 3094583
-775.50244 618.08905 1552.4232 3029047
-766.62512 618.77435 1554.1445 3094840
-755.31494 617.4884 1550.9147 3094840
-737.95605 611.15955 1535.0188 2897204
-719.4411 603.69348 1516.2666 3620927
-708.96289 602.86151 1514.177 3555390
-697.21399 600.91187 1509.2802 3357755
-688.39142 601.46539 1510.6704 3160376
-680.92792 603.2384 1515.1235 2897204
-676.07373 607.40582 1525.5906 3160633
-665.81006 606.76294 1523.9761 3094583
-654.16718 604.82629 1519.1117 2765618
-645.06238 605.21368 1520.0848 2765618
-635.21216 604.90283 1519.3041 2699825
-626.55133 605.73242 1521.3877 2436653
-618.58398 607.26843 1525.2456 2305067
-609.0296 607.2702 1525.25 2436653
-596.37396 604.13037 1517.3639 2436653
-583.50494 600.66925 1508.6707 3160376
-572.83728 599.3974 1505.4764 3357755
-562.91919 598.88062 1504.1785 2765875
-558.43396 604.22455 1517.6003 2765875
-556.20966 612.24231 1537.7382 2831411
-548.80084 614.73523 1543.9996 2897204
-541.03107 616.90607 1549.452 3752513
-530.61932 616.08868 1547.399 4344650
-523.0144 618.56061 1553.6077 4278857
-513.5412 618.87463 1554.3964 3555134
-507.56348 623.49475 1566.0005 2107688
-498.57056 624.52014 1568.5758 1910309
-489.14066 625.02832 1569.8522 3094583
-482.35596 629.00677 1579.8447 3950149
-475.29837 632.78864 1589.3435 3621183
-468.74207 637.41406 1600.9608 3555134
-448.21198 622.8241 1564.316 3489341
-441.19751 626.78265 1574.2585 2437166
-431.33429 626.78265 1574.2585 2436910
-417.46906 620.83112 1559.3104 3029047
-404.75742 616.35107 1548.058 3226426
-392.68982 612.65576 1538.7767 3292219
-384.55392 615.06293 1544.8226 3094840
-375.35165 615.84485 1546.7865 3029047
-360.13504 606.5387 1523.4128 2963254
-350.59039 606.5387 1523.4128 3358012
-342.39044 608.93018 1529.4194 3094840
-335.63959 614.1109 1542.4314 3555391
-325.46643 613.15125 1540.0212 2963254
-317.15198 615.7417 1546.5275 3029047
-309.12787 619.07684 1554.9042 2831925
-296.1611 612.40851 1538.1558 2634289
-287.43292 614.35107 1543.0347 3160633
-277.16174 613.01611 1539.6818 3621184
-267.43845 612.84027 1539.2401 3489341
-256.69748 610.23212 1532.6893 3357755
-245.74277 606.89325 1524.3033 3028790
-237.51488 610.29102 1532.8373 3160376
-227.91118 610.29102 1532.8373 3226169
-218.89828 611.94269 1536.9857 2962997
-208.52783 609.77649 1531.545 3620927
-198.06747 607.12592 1524.8876 3357755
-191.10204 615.46222 1545.8256 2831411
-182.50356 619.1485 1555.0842 3028790
-172.76047 619.1485 1555.0842 3226169
-162.0372 615.42578 1545.734 3357755
-151.57455 612.28247 1537.8391 3423548
-141.73199 611.38727 1535.5907 3029047
-133.51895 617.90283 1551.9554 2765875
-124.03197 619.08331 1554.9204 3292476
-114.30399 619.15948 1555.1118 3950149
-104.16078 616.79126 1549.1636 3292219
-94.2304 615.32593 1545.4833 3160890
-85.691261 623.65039 1566.3912 2963511
-75.472229 620.32068 1558.0283 3029047
-65.890808 622.021 1562.2988 3094840
-56.222691 623.35333 1565.6451 4213321
-46.180584 620.22601 1557.7904 4081734
-36.512897 621.79871 1561.7405 3686460
-26.85829 624.82715 1569.347 3357753
-17.025843 624.82715 1569.347 3291960
-7.2035403 625.70831 1571.5601 2568237
2.6454051 626.33203 1573.1267 2897202
12.508836 626.69794 1574.0458 3160374
22.27611 624.04755 1567.3888 2370858
31.954941 621.29932 1560.4863 2897202
41.818401 622.58759 1563.7219 2568237
52.001755 627.2453 1575.4205 2370858
61.998314 628.52325 1578.6304 2436651
71.191193 622.4231 1563.3088 2962995
80.440483 618.23193 1552.7821 3226167
91.390175 626.60376 1573.8092 2699823
101.71832 629.49841 1581.0796 2699823
111.47872 628.67767 1579.0181 3028788
121.21059 627.84277 1576.9211 2436651
130.95132 627.17627 1575.2471 2173479
140.31172 624.90924 1569.5531 1910563
149.23184 621.10675 1560.0027 2042151
159.27405 622.15485 1562.635 2173481
169.09123 622.25342 1562.8827 2897204
178.52832 621.01904 1559.7823 3028789
187.94031 619.83002 1556.7959 2962996
197.30736 618.61737 1553.7501 3489340
205.84941 615.05377 1544.7997 3357755
214.16666 611.16876 1535.0419 2897205
221.70959 605.50299 1520.8114 2765618
231.13025 605.22101 1520.1031 2831412
242.24245 609.21533 1530.1355 2239274
253.46422 613.17065 1540.0699 2436653
262.75366 612.33264 1537.9652 3423549
270.76602 608.68317 1528.7988 3949893
280.6199 609.28131 1530.3011 3357757
292.26852 613.60785 1541.168 2107689
300.81668 611.35657 1535.5135 2568240
311.17703 612.8136 1539.1732 2305067
322.44675 615.92017 1546.9757 1976103
333.29224 618.05865 1552.3469 1910309
343.01819 618.05865 1552.3469 2700081
352.39294 617.4433 1550.8014 3555132
359.44846 612.90643 1539.4064 2173479
372.1792 618.03076 1552.2769 1844516
382.49033 618.97852 1554.6572 2173479
394.41656 622.42798 1563.321 2107688
405.53537 624.46692 1568.4421 2239274
412.86533 620.7132 1559.014 2173481
420.91278 618.18665 1552.6683 2371117
430.4707 617.94257 1552.0553 2568753
440.19482 617.94257 1552.0553 2502703
450.2959 618.46039 1553.3558 2437167
459.57654 617.85321 1551.8308 2765875
463.06769 609.64911 1531.225 2831411
473.0571 610.15961 1532.5072 2568239
487.44641 616.21198 1547.7087 2436653
494.90262 613.43469 1540.733 2765875
501.01721 609.13251 1529.9275 2831411
515.03088 614.41522 1543.1958 3028790
526.88385 616.97302 1549.6202 3028790
537.44501 617.95306 1552.0817 2765618
550.00391 621.15436 1560.1223 2765618
555.60278 616.52075 1548.4843 3028790
560.86383 611.67767 1536.3202 2897204
572.68036 614.02692 1542.2206 2765618
585.18481 617.02356 1549.7469 3094583
583.26221 604.95856 1519.444 3423548
591.33295 603.47974 1515.7297 2634032
606.70471 609.38092 1530.5514 2568239
611.85632 604.99292 1519.5304 2568496
612.27124 596.12762 1497.2638 2765618
623.63074 598.02509 1502.0295 3423548
639.0979 603.74652 1516.3998 3423548
646.80127 602.07349 1512.1976 3028790
659.57971 605.10461 1519.8109 2963253
668.07892 604.17957 1517.4875 3094329
675.43207 602.25854 1512.6626 2831415
683.50488 601.02356 1509.5608 2699316
692.1026 600.27753 1507.6869 2502702
701.76398 600.46173 1508.1495 2963254
705.60345 595.72571 1496.2543 3423548
711.90753 593.16742 1489.8287 3489341
724.52563 595.86816 1496.6122 2830642
735.94196 597.52411 1500.7714 2962740
742.99524 595.64062 1496.0405 3028277
755.24341 597.91669 1501.7573 2501676
764.34796 597.67865 1501.1594 2962227
773.63342 597.58618 1500.9271 2962227
782.67139 597.30695 1500.226 3028020
792.26025 597.44989 1500.5848 3159606
803.49445 598.81561 1504.015 3028277
816.43372 601.4057 1510.5205 2962227
826.1153 601.56427 1510.9187 2567212
833.21869 599.86304 1506.6459 2830642
848.64203 604.12268 1517.3446 2897461
858.33435 604.25342 1517.6729 2962997
869.76971 605.59485 1521.0422 2897204
880.28625 606.27448 1522.7491 2765875
890.0885 606.45288 1523.1971 2831411
902.62091 608.46777 1528.2579 2634032
912.01709 608.34851 1527.9584 2962997
925.79413 611.12354 1534.9282 2962997
936.58014 611.88745 1536.8469 2436653
943.05811 609.84985 1531.7291 2502446
957.23541 612.7821 1539.094 2699825
966.30896 612.42126 1538.1877 2765618
975.96204 612.43121 1538.2126 2897204
986.99762 613.29999 1540.3948 2765618
1001.4536 616.25684 1547.8213 2897204
1004.6645 612.30341 1537.8917 2962997
1005.463 606.96893 1524.4933 3291962
1018.0596 608.78986 1529.0669 3160376
1036.5928 614.09375 1542.3884 3028790
1048.7466 615.55542 1546.0596 3094583
1055.8851 614.07361 1542.3379 3160376
1066.6227 614.69269 1543.8928 3357755
1070.231 611.22906 1535.1934 3357755
1073.7596 607.78204 1526.5356 3423548
1084.5736 608.48322 1528.2968 3226169
1096.0586 609.54529 1530.9642 3949892
1110.4254 612.17761 1537.5758 4015684
1120.0588 612.17761 1537.5758 3818562
1134.0979 614.56506 1543.5723 3555134
1145.2632 615.36798 1545.5889 3620927
1154.97 615.38037 1545.62 2962997
1156.5457 611.09619 1534.8596 3489341
1163.541 609.72272 1531.4099 3818306
1178.4581 612.48895 1538.3578 3555134
1186.4763 611.65375 1536.26 3094583
1196.1014 611.65375 1536.26 3291962
1209.9915 613.81726 1541.694 3291962
1220.3739 614.18121 1542.6082 3357499
1211.5013 604.92517 1519.3601 3422778
1223.6136 606.20984 1522.5867 3488571
1245.7039 612.3797 1538.0834 3291192
1255.3153 612.36743 1538.0525 3291192
1261.207 610.55463 1533.4994 3488571
1264.0179 607.28912 1525.2976 3554364
1269.7345 605.45807 1520.6986 3356985
1291.2488 611.13116 1534.9475 2962227
1292.295 607.10486 1524.8347 3093813
1312.9414 612.27783 1537.8275 3422778
1321.2701 611.6731 1536.3086 3488571
1330.2551 611.37872 1535.5693 3554364
1341.3053 612.03094 1537.2074 3751743
1352.7715 612.86237 1539.2955 4080708
1359.1143 611.37726 1535.5656 4080708
1357.5083 606.36255 1522.9703 3751743
1369.8673 607.61212 1526.1088 3159606
1387.3513 611.10187 1534.8738 3291192
1400.5111 612.65179 1538.7668 3817536
1405.9409 610.82233 1534.1718 3554364
1407.6118 607.39569 1525.5652 3225399
1413.1469 605.67139 1521.2344 3093813
1428.3218 608.07416 1527.2693 3356728
1439.6591 608.82202 1529.1477 3619900
1454.291 610.94403 1534.4774 3554364
1473.6802 615.02362 1544.7239 3488827
1479.5724 613.45392 1540.7814 3488828
1489.2258 613.45392 1540.7814 3291962
1501.8221 614.65833 1543.8064 3488571
1511.6959 614.74023 1544.0121 3291192
1522.1412 615.052 1544.7952 3225399
1540.4324 618.51007 1553.4807 3225399
1552.7715 619.54987 1556.0923 2962227
1564.4318 620.30762 1557.9954 2764848
1577.5162 621.617 1561.2842 3093813
1584.4863 620.51587 1558.5186 3225399
1590.5176 619.06274 1554.8689 2633262
nan nan nan 16777215
nan nan nan 16777215
nan nan nan 16777215
nan nan nan 16777215
nan nan nan 16777215
nan nan nan 16777215
nan nan nan 16777215
nan nan nan 16777215
nan nan nan 16777215
nan nan nan 16777215
nan nan nan 16777215
nan nan nan 16777215
nan nan nan 16777215
nan nan nan 16777215
-1339.1055 609.80615 1508.0145 3292218
-1330.8749 610.36462 1509.3955 3291708
-1321.0828 610.20972 1509.0125 3291964
-1304.7469 607.00824 1501.0955 3291963
-1295.1663 606.9259 1500.8917 3686719
-1285.6254 606.86108 1500.7314 3489597
-1279.1492 608.25262 1504.1726 3094839
-1268.457 607.64508 1502.6704 2831411
-1253.7145 605.07379 1496.3116 2502702
-1251.566 608.58765 1505.0012 2436909
-1242.0674 608.55371 1504.9172 2699824
-1232.1541 608.31445 1504.3257 2699827
-1221.0326 607.47052 1502.2386 2897206
-1213.9347 608.63074 1505.1077 2831413
-1206.1245 609.44922 1507.1318 2962997
-1197.166 609.69574 1507.7415 3094582
-1188.7378 610.21844 1509.0341 2962740
-1177.2806 609.18219 1506.4716 3028791
-1165.6748 608.05164 1503.6758 3160377
-1155.1968 607.49585 1502.3013 3225915
-1139.2244 604.0177 1493.7 3226424
-1131.2871 604.77747 1495.5789 2765875
-1122.4623 605.07153 1496.306 3357755
-1126.3273 612.26862 1514.104 3291962
-1116.3787 612.01514 1513.4772 3160376
-1105.7192 611.36444 1511.868 3160376
-1097.3326 611.96991 1513.3654 3094583
-1077.7288 606.2757 1499.2839 2962997
-1068.3353 606.2757 1499.2839 2831411
-1060.842 607.36359 1501.9742 2831411
-1055.4796 609.7019 1507.7567 2897204
-1044.2777 608.67877 1505.2266 2831411
-1034.847 608.67877 1505.2266 2962997
-1025.9027 608.96747 1505.9406 2897205
-1016.0121 608.69464 1505.2659 3489340
-1003.8394 607.03662 1501.1656 3423547
-993.57538 606.51251 1499.8695 3357755
-986.23706 607.78125 1503.0071 2831411
-985.0144 612.87976 1515.6152 2765615
-977.76117 614.28857 1519.0994 2634029
-966.87354 613.41937 1516.9498 2436652
-953.42963 610.89508 1510.7074 2305067
-945.10492 611.63306 1512.5323 2370860
-933.92505 610.51953 1509.7787 2765618
-933.55286 616.52063 1524.619 2568493
-927.36847 618.76776 1530.176 2634543
-928.3576 625.89819 1547.8092 2436650
-921.04297 627.52173 1551.824 1976100
-913.00879 628.68433 1554.6992 2370857
-903.26819 628.68433 1554.6992 2897203
-881.28735 620.0722 1533.4019 3423548
-871.68005 620.0722 1533.4019 3160376
-868.70984 624.84607 1545.2073 3160376
-862.17841 627.13721 1550.8732 2831411
-852.46173 627.13721 1550.8732 2897204
-843.39307 627.61945 1552.0658 2765618
-833.24231 627.29828 1551.2715 2699825
-820.75183 625.18732 1546.0513 2897204
-815.88477 628.90228 1555.238 3226426
-798.46539 622.91437 1540.4304 3620927
-776.48956 613.18188 1516.3625 3160376
-770.81195 616.23816 1523.9205 2765618
-764.50201 618.85925 1530.4022 2765618
-755.41699 619.27191 1531.4229 2831411
-742.91705 616.8598 1525.4578 2831411
-721.82562 607.15802 1501.4658 2962997
-709.83313 604.95465 1496.0171 3226169
-696.47388 601.5119 1487.5034 3423548
-688.34821 602.55713 1490.0881 3226169
-679.50049 602.99036 1491.1594 2831411
-673.56427 606.0553 1498.7388 2568239
