# .PCD v0.7 - Point Cloud Data file format
VERSION 0.7
FIELDS x y z rgb
SIZE 4 4 4 4
TYPE F F F U
COUNT 1 1 1 1
WIDTH 1253
HEIGHT 1
VIEWPOINT 0 0 0 1 0 0 0
POINTS 1253
DATA ascii
259.59384 1207.2739 2411.9502 12160416
272.7294 1202.1774 2401.7683 12160673
288.64172 1209.2192 2415.8367 11963038
301.51825 1203.4784 2404.3674 10581641
315.08167 1200.8738 2399.1636 11041935
327.06311 1192.7249 2382.8833 11568281
341.43387 1193.6029 2384.6377 11963038
354.72336 1190.7816 2379.0012 12029088
367.89413 1187.7927 2373.0298 12423846
378.98187 1178.546 2354.5564 12358053
393.505 1180.26 2357.9805 12292260
407.20493 1179.472 2356.4062 12028830
421.17426 1179.4907 2356.4436 11634072
434.88675 1178.812 2355.0876 11699353
448.69696 1178.4323 2354.3289 11765400
462.66943 1178.4885 2354.4414 11699863
475.42245 1175.5265 2348.5237 13410481
488.6145 1173.7875 2345.0493 12160414
501.85095 1172.2483 2341.9744 11502484
513.51746 1167.2235 2331.9358 11962778
524.69421 1161.3781 2320.2573 12555172
540.64008 1166.1177 2329.7263 12752297
549.51746 1155.7549 2309.0229 13147055
561.87354 1153.0339 2303.5872 13081005
573.61658 1149.2142 2295.9558 12752297
587.43726 1149.6372 2296.801 12752040
595.94489 1139.8789 2277.3052 11765145
612.10492 1144.8655 2287.2676 11633045
623.84399 1141.5463 2280.6365 9198960
634.30505 1136.0789 2269.7134 12751783
644.38116 1130.1633 2257.895 11633300
656.07788 1127.2729 2252.1204 11238541
669.54486 1127.4789 2252.5317 11962265
690.39081 1139.8596 2277.2666 11435921
698.05896 1130.4257 2258.4192 11304078
711.43054 1130.4091 2258.386 11106700
715.4765 1115.849 2229.2971 10646149
732.60565 1121.8513 2241.2888 11896216
744.38544 1119.594 2236.7791 11633300
752.86847 1112.5441 2222.6943 11238284
765.63019 1111.9504 2221.5085 12422816
780.79028 1114.8014 2227.2043 12291230
784.99878 1102.181 2201.9907 11698836
798.66626 1103.0371 2203.7009 12093851
809.53235 1100.0587 2197.7507 11962008
819.97845 1096.613 2190.8667 11567506
836.38147 1101.1172 2199.8652 12357023
846.23419 1096.9919 2191.6235 11896215
856.72595 1093.8071 2185.2607 11961752
865.59644 1088.678 2175.0137 12751268
881.87335 1092.8781 2183.4045 11698580
889.82562 1086.7893 2171.2402 11500430
901.6427 1085.5271 2168.7185 10843271
909.62573 1079.7493 2157.1753 10119548
920.64661 1077.6874 2153.0562 10843271
933.35077 1077.6256 2152.9326 13277611
944.297 1075.5632 2148.8123 12883367
954.91595 1073.1879 2144.0667 12225437
962.67297 1067.7006 2133.104 12027545
974.95953 1067.3142 2132.332 12225181
987.76581 1067.4995 2132.7021 12027544
1000.9261 1068.0577 2133.8174 12093337
998.84845 1052.5449 2102.8252 12882853
1013.2919 1054.6091 2106.9492 11764628
1018.0969 1046.7139 2091.1755 12685474
1031.8839 1048.1317 2094.0083 12751011
1037.428 1041.2428 2080.2451 12488097
1051.5981 1043.0715 2083.8989 12685475
1067.8248 1046.8743 2091.4961 12093594
1066.6548 1033.7299 2065.2356 11633040
1082.8837 1037.5543 2072.8762 13672370
1102.4518 1044.4567 2086.666 12685475
1117.0754 1046.5734 2090.895 12027288
1131.8607 1048.7933 2095.3301 11830166
1137.3307 1042.4274 2082.6118 12488350
1149.7759 1042.5223 2082.8015 12224923
1151.2773 1032.798 2063.3738 12290972
1154.8242 1025.0935 2047.9814 12422558
1167.8303 1025.8586 2049.51 12224152
1179.5344 1025.4761 2048.7456 12488350
1192.1094 1025.8507 2049.4941 12422301
1200.0795 1022.295 2042.3905 12685216
1206.9791 1017.9076 2033.6251 12882338
1228.1246 1025.5024 2048.7986 13014694
1231.6991 1018.4202 2034.649 13211816
1243.4153 1018.1418 2034.0931 13146280
1255.5896 1018.2404 2034.2898 12422042
1269.2455 1019.5271 2036.8606 12421786
1290.615 1026.9272 2051.645 12223893
1301.7084 1026.089 2049.9702 12092051
1311.5475 1024.2866 2046.3694 12619421
1321.3119 1022.4595 2042.7191 12883106
1329.1581 1019.1946 2036.1964 13541038
1339.0052 1017.5092 2032.829 13672624
1341.5529 1010.3561 2018.5385 12751523
1345.7153 1004.5352 2006.9089 11764884
1352.0631 1000.4329 1998.7134 10975111
1364.8041 1001.0915 2000.0291 11698834
1375.2474 1000.0678 1997.9839 10777989
1388.7051 1001.235 2000.3157 11371153
1386.9359 991.49701 1980.8606 11041931
1408.5579 998.50397 1994.8595 13016234
1426.3807 1002.7236 2003.2898 13410736
1422.8722 992.00183 1981.8693 13476275
1429.7057 988.60675 1975.0864 13279409
1439.8986 987.57086 1973.0168 13871034
1449.5208 986.16345 1970.2051 13542070
1474.1442 994.90277 1987.665 13213360
1479.8615 990.84509 1979.5582 13476018
1492.2501 991.28284 1980.4327 12489380
1500.3251 988.87054 1975.6135 13739446
1518.3772 993.02075 1983.9049 13147822
1528.1084 991.70703 1981.2804 13148591
1536.6735 989.66241 1977.1954 13608888
1552.8993 992.5451 1982.9547 13411767
1537.6879 975.44202 1948.7853 13346744
1544.5304 972.47986 1942.8673 13215927
1560.2341 975.09937 1948.1007 13413564
1567.4939 972.44202 1942.7916 13087165
1574.3972 969.60376 1937.1212 13548485
1580.8333 966.52094 1930.9623 13683148
1581.8208 960.17523 1918.2845 13089213
1576.9207 950.37152 1898.6984 9930903
1584.9188 948.42542 1894.8102 13027022
1900.1229 1129.0474 2255.6655 13685201
1905.8083 1124.5156 2246.6118 13553869
1915.2577 1122.2523 2242.0898 13750735
1916.3789 1115.1738 2227.9482 13750737
1927.6398 1114.0522 2225.7075 13750737
1936.1219 1111.351 2220.3108 13750737
1938.6079 1105.2673 2208.1567 13750737
1930.0648 1093.0197 2183.6875 13750737
1930.9167 1086.22 2170.1028 13750737
1841.5266 1029.0813 2055.9485 13750737
1849.7478 1026.8823 2051.5552 13750737
1857.7921 1024.6144 2047.0243 13750737
1862.9781 1020.8098 2039.4232 13750737
1870.3903 1018.2662 2034.3414 13750737
1962.4183 1061.5262 2120.7686 13750737
1964.5104 1055.8965 2109.521 13750737
1982.0078 1058.5656 2114.8535 13750737
1831.0394 971.79102 1941.4912 13750737
1842.9669 972.01434 1941.9374 13750737
1847.6791 968.45312 1934.8224 13750737
0 0 0 0
0 0 0 0
0 0 0 0
0 0 0 0
0 0 0 0
0 0 0 0
-3140.4673 1767.868 3490.6101 3301436
-3137.8171 1778.0865 3510.7866 2840885
-3143.6138 1793.2603 3540.7463 3170108
-3109.8167 1785.8999 3526.2136 3761733
-3097.7087 1790.9796 3536.2437 3564355
-3051.2566 1776.1371 3506.9373 3761990
-2997.323 1756.7061 3468.5713 4879701
-2960.5137 1747.1124 3449.6289 4222028
-2947.2339 1751.3674 3458.0303 4222284
-2926.5293 1751.2393 3457.7771 4353612
-2891.3474 1742.3849 3440.2944 4551248
-2850.0488 1729.6925 3415.2336 3761221
-2845.5471 1739.3102 3434.2236 3300671
-2828.1392 1741.121 3437.7988 3234879
-2791.9011 1731.2812 3418.3706 3366207
-2775.8931 1733.9342 3423.6089 3365949
-2776.6892 1747.2002 3449.802 4944728
-2758.8037 1748.8204 3453.0012 4681556
-2706.8245 1728.691 3413.2566 4221262
-2706.7283 1741.6429 3438.8293 3629638
-2692.8025 1745.825 3447.0869 2840121
-2665.9131 1741.6024 3438.7493 2905913
-2654.5894 1747.5615 3450.5154 2576948
-2584.3035 1714.4962 3385.229 2709304
-2590.5579 1732.0897 3419.9668 3433026
-2504.0378 1687.441 3331.8091 3630151
-2462.7163 1672.7834 3302.8682 3959116
-2410.4907 1650.4253 3258.7224 3696457
-2356.7249 1626.6427 3211.7646 3038271
-2340.6353 1628.6895 3215.8057 3169857
-2307.1863 1618.5914 3195.8674 2972990
-2276.8152 1610.5034 3179.8977 3170110
-2256.9783 1609.7938 3178.4968 2972984
-2210.2463 1589.728 3138.8774 3301436
-2155.8652 1563.7734 3087.6306 3630914
-2130.1311 1558.3315 3076.8857 4025673
-2122.0901 1565.8511 3091.7329 3630658
-2113.0684 1572.7716 3105.3975 3630658
-2095.5703 1573.4493 3106.7356 3959878
-2096.7017 1588.251 3135.9609 3564864
-2071.6274 1583.2889 3126.1636 3630400
-2049.1199 1580.2168 3120.0977 4288584
-1990.1663 1548.7268 3057.9214 5735772
-1972.4712 1549.0601 3058.5796 4288326
-1948.4958 1544.4216 3049.4209 4419653
-1929.0007 1543.2806 3047.1682 4024637
-1931.9928 1560.2788 3080.7307 4288325
-1893.5602 1543.8276 3048.2483 4353860
-1855.8945 1527.6908 3016.3865 4156737
-1841.7616 1530.7997 3022.5249 4222787
-1791.7314 1503.8402 2969.2942 3564857
-1762.6947 1494.141 2950.1433 3170355
-1743.8768 1492.9963 2947.8831 3302200
-1724.0908 1490.9911 2943.9238 2907442
-1694.7056 1480.5587 2923.3254 3630652
-1664.5455 1469.2271 2900.9512 3433275
-1674.2465 1493.2097 2948.3044 4090951
-1640.6332 1478.66 2919.5764 3499071
-1623.9879 1479.2561 2920.7534 2906935
-1583.9584 1458.3353 2879.4458 3104317
-1592.2098 1481.8949 2925.9636 3828293
-1569.9839 1477.2949 2916.8811 3761731
-1547.0157 1471.8867 2906.2026 3366975
-1511.1447 1453.942 2870.7712 4484176
-1522.2208 1481.2731 2924.7358 5865062
-1492.426 1469.004 2900.511 5470304
-1478.7266 1472.4766 2907.3674 5865576
-1447.1578 1458.0276 2878.8381 5799526
-1422.0228 1449.793 2862.5793 5010264
-1405.6855 1450.4375 2863.8518 4221002
-1388.1716 1449.8688 2862.729 3629377
-1372.2668 1450.9877 2864.938 3431995
-1349.949 1445.2686 2853.6458 3300407
-1338.3557 1451.0317 2865.0251 4089921
-1313.184 1442.0323 2847.2561 2972209
-1287.7744 1432.5342 2828.5022 2577451
-1237.9479 1395.2654 2754.916 4420170
-1210.3143 1382.3484 2729.4116 2907186
-1187.7367 1374.9341 2714.7722 3169846
-1160.6559 1362.0319 2689.2971 3761984
-1166.7026 1388.1866 2740.9392 4419915
-1147.0023 1384.0128 2732.698 3038515
-1125.7983 1377.879 2720.5869 2644014
-1101.3018 1367.4788 2700.0518 2841646
-1071.9991 1350.7159 2666.9541 2775596
-1052.2637 1345.6865 2657.0237 2709801
-1035.2322 1344.015 2653.7234 1986075
-1020.0558 1344.7374 2655.1499 2051869
-993.67578 1330.4813 2627.0015 1788953
-975.11938 1326.4137 2618.97 2577699
-974.50165 1347.0104 2659.6375 2840870
-955.68591 1342.7163 2651.1589 2117148
-928.44684 1326.2462 2618.6394 2906151
-913.01318 1326.3667 2618.8772 2708772
-889.32794 1314.2965 2595.0449 4812607
-879.50275 1322.6451 2611.5291 4154164
-863.27002 1321.4841 2609.2368 5469509
-842.75793 1313.6108 2593.6909 4613689
-840.90802 1335.0739 2636.0693 4613689
-833.85083 1348.9257 2663.4192 5137730
-822.91248 1356.9121 2679.1882 7043683
-820.66516 1379.8254 2724.4302 7699060
-803.46887 1378.0197 2720.8645 7895158
-811.72974 1420.6951 2805.126 10986664
-781.08154 1395.6322 2755.6401 11642799
-768.18695 1401.8984 2768.0127 11443367
-753.3891 1404.889 2773.9175 10586006
-734.36975 1399.9653 2764.1958 11506851
-718.0827 1400.1447 2764.5498 11769766
-701.74652 1400.2341 2764.7266 11966889
-685.38708 1400.2805 2764.8181 11835559
-666.76624 1395.5957 2755.5681 11637410
-651.32648 1397.5012 2759.3306 11834276
-634.81042 1397.1361 2758.6096 11767969
-615.94769 1391.4506 2747.3835 11834019
-602.47504 1397.963 2760.2424 11702433
-577.77942 1378.071 2720.9661 11571360
-561.65662 1378.071 2720.9661 11834532
-535.88757 1353.7037 2672.8535 10912660
-523.74884 1363.3323 2691.8647 11899042
-512.4588 1375.8442 2716.5693 10648462
-490.16019 1358.6537 2682.627 10714255
-477.95859 1369.2362 2703.522 11635357
-455.37018 1349.7651 2665.0767 11240598
-439.52579 1349.6033 2664.7571 11437977
-426.28598 1357.7249 2680.793 12029858
-409.14059 1353.5544 2672.5586 11306391
-391.14825 1346.1333 2657.9058 11240342
-373.56329 1339.5503 2644.908 10648205
-356.51721 1334.4078 2634.7542 10845584
-342.26959 1339.7483 2645.2988 11174549
-325.84348 1336.6649 2639.2107 11109012
-307.95007 1326.9481 2620.0251 11372183
-292.59406 1327.7135 2621.5364 12359079
-276.29843 1324.0621 2614.3269 12161958
-261.05542 1325.3207 2616.8118 11766686
-240.19382 1296.4127 2559.7339 10911377
-225.62874 1299.8832 2566.5859 10779021
-210.91478 1302.9354 2572.6128 10779278
-194.8157 1297.2401 2561.3674 10713228
-178.38399 1288.1803 2543.479 11832477
-165.01585 1301.6132 2570.002 11700635
-149.1521 1296.0912 2559.0989 12753323
-134.24335 1298.557 2563.9678 12094880
-118.98446 1297.8335 2562.5391 11831708
-102.95667 1287.2843 2541.71 11831708
-87.292053 1278.439 2524.2451 11436950
-72.46981 1280.8235 2528.9534 11568536
-56.986439 1269.7208 2507.0312 11041935
-42.077259 1268.093 2503.8171 12160673
-27.257357 1268.8481 2505.3081 11568279
-12.340249 1261.4724 2490.7451 11305364
2.4083474 1256.2206 2480.3755 11831451
17.188692 1262.3252 2492.4287 11370900
31.78853 1255.6573 2479.2634 10976399
46.253357 1249.5573 2467.2188 10120834
60.995552 1252.0806 2472.2012 11568023
76.016815 1258.246 2484.3745 10909837
89.469162 1240.6548 2449.6414 10844556
104.02525 1241.1439 2450.6069 11831708
118.08226 1236.2877 2441.0186 11502743
132.37207 1234.663 2437.8105 11502743
147.05632 1236.6749 2441.783 10976399
162.19092 1241.7744 2451.8518 10844557
175.30112 1231.8103 2432.178 11436950
188.65991 1224.9742 2418.6802 12357796
202.57883 1222.4835 2413.7625 12358052
216.81009 1222.0819 2412.9695 12029087
229.60081 1214.1124 2397.2341 12226466
242.20114 1206.1235 2381.4602 11765658
255.29207 1201.323 2371.9814 12358052
269.88022 1203.701 2376.677 11436694
284.12943 1204.4066 2378.0701 11502487
297.57916 1201.8168 2372.9565 11831708
310.24924 1196.4537 2362.3674 11831708
324.76572 1198.3671 2366.1453 10779021
336.54971 1190.4564 2350.5259 11305365
350.52679 1190.6239 2350.8564 12358053
362.995 1185.849 2341.4287 12555432
376.57632 1184.9285 2339.6111 12094881
388.05746 1177.6995 2325.3376 12029087
404.49945 1185.5055 2340.7502 12291745
416.94696 1181.4749 2332.792 11699609
431.51852 1183.5288 2336.8474 11041680
444.2399 1180.5381 2330.9424 11765655
457.75287 1179.7681 2329.4219 11634070
468.59473 1172.3602 2314.7954 11107726
482.05225 1171.7318 2313.5544 12555172
491.98553 1162.8086 2295.9358 12489379
505.28018 1162.0962 2294.5293 12818344
517.76801 1159.6144 2289.6289 12357793
531.33502 1159.6144 2289.6289 12160159
546.05658 1162.0715 2294.4805 12752297
559.37134 1161.4882 2293.3286 12620197
569.21307 1153.8918 2278.3301 12685733
575.56549 1139.7382 2250.384 11698838
587.00403 1136.069 2243.1392 12422560
602.64313 1140.512 2251.9116 12554403
612.16229 1133.431 2237.9307 12488353
626.46069 1135.3118 2241.644 11106956
637.87006 1131.9873 2235.0801 12093597
646.2829 1123.5886 2218.4971 10054270
666.68494 1135.953 2242.9102 12356769
678.20807 1133.001 2237.0815 12093597
689.27887 1129.4211 2230.0132 12422817
700.22003 1125.7675 2222.7991 11040906
711.75922 1123.1924 2217.7146 11699093
726.95282 1126.373 2223.9949 12028058
735.01581 1118.5885 2208.6245 11764886
745.54492 1114.7639 2201.073 11962265
762.21014 1120.088 2211.5852 11567507
773.95728 1118.127 2207.7131 11699093
773.25092 1098.5388 2169.0369 11567509
784.52734 1096.3364 2164.6882 11699095
799.86542 1099.7897 2171.5066 11436437
808.03619 1093.4346 2158.9587 12621736
823.59454 1097.1188 2166.2329 13016495
833.15143 1092.818 2157.7412 12093853
847.16052 1094.3986 2160.8621 11698580
859.75946 1094.1377 2160.3469 12027545
871.01331 1092.1978 2156.5166 12356508
884.39343 1092.9415 2157.9851 12289944
890.41766 1084.7032 2141.719 11566737
901.60217 1082.8944 2138.1475 10974600
910.65198 1078.6073 2129.6826 10054013
928.2663 1084.4429 2141.2046 10909323
936.55914 1079.3781 2131.2043 11962267
947.75458 1077.7487 2127.9871 12356766
948.05286 1063.933 2100.7085 11304335
960.44806 1063.875 2100.594 11106700
970.69501 1061.4694 2095.8442 12620195
984.48993 1062.9553 2098.7781 12225437
986.33093 1051.6584 2076.4727 12357023
998.30072 1051.3065 2075.7778 12816805
1010.7947 1051.5085 2076.1768 12619682
1022.3165 1050.7064 2074.593 12817061
1030.854 1046.8927 2067.063 12487840
1035.1074 1038.869 2051.2202 12487840
1053.1311 1044.6914 2062.7163 12882854
1061.8412 1041.2469 2055.9155 12882854
1079.6031 1046.6565 2066.5967 12619939
1092.2765 1047.0669 2067.4067 12553889
1099.51 1042.3112 2058.0166 12488096
1110.8059 1041.4686 2056.353 13277355
1125.8898 1044.1571 2061.6616 13080232
1136.2897 1042.4908 2058.3716 12093337
1142.0916 1036.6863 2046.9105 12027798
1148.3923 1031.4517 2036.5751 12817059
1160.5815 1031.5599 2036.7887 13277867
1171.0052 1030.1128 2033.9313 13870005
1177.1288 1024.9509 2023.7393 12356510
1182.4845 1019.2312 2012.4459 11632528
1193.2606 1018.2512 2010.511 12882338
1220.2239 1030.967 2035.6182 11763601
1229.5859 1028.7084 2031.1583 11895186
1228.2792 1017.6541 2009.332 13079461
1234.8798 1013.3005 2000.7361 12027799
1254.3953 1019.5266 2013.0293 13080487
1262.3446 1016.3233 2006.7045 13343659
1289.2484 1028.2979 2030.3479 12619679
1289.2354 1018.7807 2011.5564 10711426
1314.3671 1029.1257 2031.9827 12355739
1310.4127 1016.7159 2007.4796 12751522
1320.3005 1015.1725 2004.4321 13014695
1332.0712 1015.0915 2004.2721 13409709
1336.5846 1009.5303 1993.2919 12554400
1344.6691 1006.7402 1987.783 12817572
1353.9298 1004.8717 1984.0935 12620706
1373.8285 1010.8627 1995.9226 11831447
1393.3872 1016.5034 2007.0601 10055036
1392.4639 1007.233 1988.7559 12357279
1405.8994 1008.4174 1991.0945 11963034
1406.703 1000.597 1975.6533 13081771
1408.8428 993.84833 1962.3282 13476531
1419.3265 993.04803 1960.7479 13477300
1425.51 989.27637 1953.3009 14071494
1444.261 994.21692 1963.0559 13544893
1443.0861 985.47119 1945.7878 13544636
1455.4567 986.04108 1946.9128 13610173
1467.4438 986.34418 1947.5114 13609659
1487.4933 992.01923 1958.7167 13872061
1500.6742 993.0614 1960.7743 13739962
1517.5698 996.52673 1967.6166 13673910
1525.0675 993.815 1962.2623 13279151
1537.8882 994.58691 1963.7864 13344688
1545.2274 991.8288 1958.3406 13278896
1545.3402 984.508 1943.8859 13542840
1545.3586 977.23572 1929.5271 13345973
1552.0596 974.26526 1923.6619 13410483
1558.2932 971.04688 1917.3071 13542068
1561.3311 965.89789 1907.1407 12949931
1565.5546 961.55127 1898.5585 12818856
1556.5242 949.18408 1874.1398 10714254
1566.7148 948.63049 1873.0468 10460847
1682.5476 1011.6 1997.3784 13423307
1909.3324 1139.9316 2250.7659 13554125
1915.4718 1135.6646 2242.3406 13750734
1922.2477 1131.8308 2234.771 13750737
1929.3105 1128.2174 2227.6365 13750737
1937.7954 1125.4791 2222.2297 13750737
1943.1921 1120.9962 2213.3784 13750737
1942.2072 1112.9167 2197.4255 13750737
1944.5181 1106.8207 2185.3892 13750737
1948.1218 1101.5364 2174.9553 13750737
1849.4893 1038.8934 2051.2686 13750737
1857.1299 1036.3744 2046.2948 13750737
1865.1476 1034.097 2041.7982 13750737
1871.8081 1031.1016 2035.8837 13750737
1879.5118 1028.7153 2031.1721 13750737
1980.9261 1077.3239 2127.1484 13750737
1981.0166 1070.5613 2113.7959 13750737
1826.0424 980.61163 1936.1926 13750737
1835.205 979.37891 1933.7585 13750737
1841.453 976.6156 1928.3026 13750737
0 0 0 0
0 0 0 0
0 0 0 0
0 0 0 0
0 0 0 0
0 0 0 0
0 0 0 0
-3072.4841 1761.4344 3437.688 2972217
-3071.5771 1772.6669 3459.6094 3564611
-3029.4758 1760.1163 3435.1152 4485459
-3038.2605 1777.1605 3468.3796 4550995
-3001.4915 1767.6099 3449.74 4550738
-2940.4644 1743.5446 3402.7732 4287566
-2940.7876 1755.7754 3426.6436 3432257
-2879.0312 1730.8546 3378.0071 4155979
-2825.2346 1710.4038 3338.0945 4550738
-2823.8076 1721.5929 3359.9314 4090187
-2825.054 1734.5823 3385.282 3827017
-2821.1411 1744.5669 3404.7686 4222033
-2779.1335 1730.9685 3378.2292 3893325
-2736.8708 1717.0125 3350.9922 4287569
-2723.2646 1720.9619 3358.7002 3366466
-2741.7197 1745.38 3406.3555 3300931
-2728.8787 1750.0892 3415.5461 4155212
-2642.2915 1707.2205 3331.8816 3892809
-2620.4089 1705.8275 3329.1631 2971706
-2618.2402 1717.3438 3351.6389 2840121
-2595.425 1715.3904 3347.8267 3300671
-2575.3364 1715.223 3347.5 3234878
-2528.7625 1697.2762 3312.4744 3893321
-2506.4685 1695.4729 3308.9548 3695942
-2461.9133 1678.4639 3275.7593 4090445
-2430.272 1670.0588 3259.3555 3630405
-2366.6694 1639.3795 3199.4807 3367234
-2338.052 1632.6348 3186.3171 3235648
-2319.2715 1632.7048 3186.4539 3038269
-2275.561 1615.082 3152.0608 2841145
-2245.7461 1607.1117 3136.5054 2775094
-2230.7112 1609.6735 3141.5049 2972728
-2183.6182 1588.9509 3101.0618 3630913
-2148.385 1576.5796 3076.9175 3104569
-2109.7844 1561.504 3047.4956 3104569
-2105.5486 1571.8224 3067.6333 3631684
-2069.3118 1558.223 3041.0923 2578996
-2043.7861 1552.5212 3029.9644 3104825
-2034.7253 1559.3364 3043.2651 3499325
-2015.9077 1558.7295 3042.0806 3433017
-1989.5063 1552.1948 3029.3271 3696187
-1964.285 1546.47 3018.1545 4156481
-1933.6476 1536.337 2998.3784 4287552
-1921.2189 1540.6174 3006.7322 4616517
-1881.9152 1523.2253 2972.7891 4287553
-1858.7733 1518.7094 2963.9758 3827256
-1854.5229 1529.6901 2985.406 3630392
-1822.9445 1518.1237 2962.8325 3828028
-1790.8274 1505.8796 2938.9365 3959615
-1737.6986 1475.553 2879.7498 3761980
-1744.3667 1495.9044 2919.4685 3894081
-1719.7523 1489.5681 2907.1023 3499066
-1696.111 1483.9551 2896.1477 3630398
-1662.6777 1469.5725 2868.0781 3828035
-1641.6992 1466.0149 2861.135 3696449
-1617.601 1459.5681 2848.553 4288331
-1617.2615 1474.6489 2877.9856 4025162
-1609.4246 1483.1421 2894.561 3498561
-1573.4788 1465.6357 2860.395 3301182
-1563.8597 1472.5377 2873.8652 3630147
-1541.2179 1467.1943 2863.4368 4353869
-1516.4797 1459.714 2848.8379 4551251
-1505.2727 1465.2367 2859.6162 3761224
-1478.2925 1455.3564 2840.3335 5931880
-1467.6783 1461.5465 2852.4143 5405280
-1453.2426 1464.0306 2857.2625 5273180
-1438.5516 1466.3135 2861.7178 5273438
-1407.5145 1451.7903 2833.3735 4878676
-1393.6735 1454.8674 2839.3792 4418381
-1387.3456 1465.9589 2861.0256 3366202
-1350.6942 1444.8866 2819.9001 3892290
-1336.3878 1447.4889 2824.9788 4024130
-1304.4829 1430.8539 2792.5134 3827009
-1270.2505 1411.2058 2754.1672 2840627
-1256.5527 1414.1565 2759.926 3169590
-1223.7373 1395.3856 2723.292 2380076
-1195.0474 1380.8802 2694.9827 3235128
-1170.5508 1370.8928 2675.491 2577454
-1152.6814 1368.4995 2670.8198 3432763
-1137.2268 1368.9463 2671.6919 3498812
-1122.9686 1370.866 2675.4385 3433019
-1105.0248 1368.2771 2670.386 2973236
-1084.9932 1362.9904 2660.0679 2907441
-1064.7523 1357.2808 2648.925 2446631
-1047.3307 1355.0481 2644.5676 2775594
-1028.5587 1350.974 2636.6165 1920540
-1008.5157 1345.079 2625.1116 2644004
-987.47455 1337.6471 2610.6072 2381090
-978.90265 1347.1385 2629.1311 1919770
-955.13623 1335.6886 2606.7849 1590547
-948.61829 1348.3794 2631.5527 1458705
-913.4577 1320.101 2576.3633 2642722
-901.10797 1324.3871 2584.7283 2773282
-879.94434 1315.6434 2567.6638 4286521
-867.10468 1319.2563 2574.7151 3693870
-846.34558 1310.7343 2558.0828 3233320
-833.09857 1313.7473 2563.9631 4614714
-819.76477 1316.7328 2569.7898 3955247
-810.9198 1327.1779 2590.1748 4677180
-818.20471 1364.9338 2663.8611 6583129
-813.24786 1383.3518 2699.8064 6251611
-809.32239 1404.2985 2740.6868 10789795
-799.67749 1415.9758 2763.4766 10722978
-775.56537 1401.9889 2736.1792 11115942
-758.68469 1400.7561 2733.7732 10653852
-743.70752 1403.0605 2738.2708 11902892
-725.81824 1399.8514 2732.0076 12231088
-709.90735 1400.3986 2733.0754 12625588
-692.54083 1398.0327 2728.4583 12427696
-676.02997 1397.3224 2727.0718 11242652
-662.49438 1402.8777 2737.9138 10518929
-643.27728 1396.3788 2725.2305 11834532
-624.8797 1391.3701 2715.4551 11966119
-605.3028 1383.4012 2699.9026 12032683
-591.91718 1389.5338 2711.8713 11902638
-567.63275 1369.7096 2673.1816 12166579
-557.92566 1384.9325 2702.8914 10390938
-535.20331 1367.7927 2669.4407 12101558
-519.70599 1368.6359 2671.0862 10388113
-502.36014 1364.511 2663.0359 11177115
-484.21951 1357.89 2650.114 10584208
-469.70438 1361.3326 2656.8328 11109782
-448.56281 1345.1429 2625.2363 11832991
-436.27325 1355.2889 2645.0376 12425129
-420.35049 1354.4839 2643.4663 11701919
-404.82266 1354.9382 2644.3533 11701663
-387.27679 1348.403 2631.5986 11438491
-369.98544 1342.2426 2619.5759 11635870
-352.75116 1335.7589 2606.9221 11438235
-336.51395 1332.6299 2600.8152 11569821
-322.65057 1339.0522 2613.3494 11766944
-304.83572 1328.8961 2593.5283 11832480
-289.07458 1327.0898 2590.0032 12030116
-273.32715 1325.1476 2586.2126 10977430
-254.43501 1306.8226 2550.449 11306393
-239.1861 1306.0775 2548.9946 10977428
-221.78549 1292.6906 2522.8682 10253704
-206.22415 1288.8638 2515.3994 10187397
-191.39304 1289.3596 2516.3672 11503256
-176.65736 1290.6368 2518.8599 11766171
-161.21793 1286.5337 2510.8521 12095393
-145.3134 1277.5073 2493.2358 11897757
-131.21259 1284.0897 2506.0823 11700635
-116.75078 1288.3685 2514.4329 11832221
-101.53105 1284.3118 2506.5156 11634842
-86.502579 1281.6986 2501.4158 11766172
-71.345627 1275.7075 2489.7231 10778763
-56.344196 1270.0988 2478.7769 10910606
-41.487007 1264.9324 2468.6941 11831708
-26.964506 1269.9011 2478.3914 11107728
-12.238309 1265.6885 2470.1697 11634072
2.3875029 1259.9178 2458.9075 11370900
17.020267 1264.5801 2468.0066 11502487
31.348112 1252.7478 2444.9141 10910350
45.786888 1251.4271 2442.3367 11107985
59.910637 1244.1984 2428.2288 10778764
73.878777 1237.1636 2414.4993 11305364
89.086113 1249.7963 2439.1538 10976143
102.51668 1237.4551 2415.0684 12555175
116.91027 1238.3378 2416.791 11502744
129.83073 1225.1271 2391.0083 11634587
144.0141 1225.2604 2391.2686 11766172
157.94385 1223.4054 2387.6484 12358054
172.13229 1223.6946 2388.2126 12226724
186.72751 1226.6119 2393.9062 12029089
199.54547 1218.2667 2377.6194 11700122
212.93733 1214.2949 2369.8679 11502743
226.41267 1211.2611 2363.947 12094880
240.41556 1211.2388 2363.9033 12884396
253.41859 1206.4587 2354.5745 11502999
267.25284 1205.9283 2353.5393 10910864
281.44974 1207.0056 2355.6418 11634588
294.69363 1204.0874 2349.9465 13016241
307.23669 1198.6982 2339.4287 10844815
319.61417 1193.1561 2328.6125 11107987
335.03564 1198.9661 2339.9514 11831709
349.698 1201.7056 2345.2979 11700123
361.20667 1193.8125 2329.8936 12489639
374.38239 1191.8075 2325.9805 11634328
387.97598 1191.2279 2324.8494 11700122
401.15695 1189.4646 2321.408 12358052
411.69745 1180.2485 2303.4216 12423845
424.28268 1177.2976 2297.6624 12291745
435.97076 1172.1182 2287.554 12225950
450.58847 1174.89 2292.9636 11831449
461.02185 1166.9084 2277.3865 12028572
475.23563 1168.6774 2280.8389 12159388
488.07941 1167.0726 2277.707 11765656
499.53149 1162.316 2268.4238 11962779
513.62494 1163.7937 2271.3076 12489379
526.69928 1162.9457 2269.6526 12489123
538.48138 1159.3577 2262.6501 12423332
550.49127 1156.4226 2256.9219 12160160
564.37994 1157.4797 2258.9851 12225696
575.18237 1152.3052 2248.8862 12489125
586.43109 1148.2388 2240.95 12884136
595.73291 1140.6248 2226.0901 12687271
609.68256 1142.0466 2228.8652 13477304
620.45068 1137.5753 2220.1387 10712458
633.32648 1137.0736 2219.1597 12292260
647.93042 1139.632 2224.1526 12093854
659.01703 1136.0249 2217.113 10251906
668.95325 1130.6149 2206.5544 11699094
683.8963 1133.712 2212.5989 12290975
695.29425 1130.9265 2207.1626 11501714
706.65277 1128.1807 2201.804 11501714
713.33014 1118.1965 2182.3184 11764629
726.26123 1118.1965 2182.3184 11699093
739.43781 1118.5677 2183.043 11764886
748.98224 1113.5264 2173.2039 12357023
759.22626 1109.6779 2165.6931 11238544
765.19556 1099.8134 2146.4409 11764888
778.22705 1100.2557 2147.3044 12423076
791.53845 1101.0734 2148.9001 11173008
803.10541 1099.4769 2145.7844 11896731
817.84161 1102.2013 2151.1016 11567766
824.58612 1094.2371 2135.5581 11765145
838.28119 1095.5978 2138.2136 11107216
851.01257 1095.677 2138.3684 11435667
863.27594 1095.1603 2137.3599 12619939
865.5285 1082.1423 2111.9534 11500945
884.15082 1089.6703 2126.6453 11895959
891.31232 1083.0603 2113.7451 11764373
898.66754 1076.8656 2101.6553 10645635
913.66858 1079.8771 2107.5325 11435408
924.19238 1077.5868 2103.0627 10777479
936.64844 1077.5806 2103.0505 11040651
943.01184 1070.6572 2089.5386 11764118
951.19928 1065.9573 2080.366 11172493
964.18359 1066.6844 2081.7852 10580612
978.12476 1068.4385 2085.2085 12489122
976.06628 1052.8898 2054.863 12423329
989.00452 1053.702 2056.4482 12948903
1003.4609 1056.0922 2061.113 12356253
1010.7025 1050.923 2051.0247 11764374
1022.9406 1051.0104 2051.1951 11632274
1035.2086 1051.126 2051.4207 12487326
1051.2069 1054.9824 2058.9473 10842502
1053.1218 1044.7788 2039.0333 11039882
1069.4637 1048.957 2047.1877 11632017
1077.1085 1044.6067 2038.6974 12092568
1087.7561 1043.2329 2036.0161 12158360
1090.5444 1034.4342 2018.8444 12488096
1114.8142 1045.9817 2041.3809 13277611
1121.9376 1041.3661 2032.3729 12290717
1135.8773 1043.1084 2035.7732 12027289
1148.9742 1044.048 2037.6071 12422303
1150.2151 1034.3068 2018.5957 13672626
1159.5647 1031.9828 2014.0601 12948901
1167.0645 1028.0765 2006.4364 13540011
1185.4413 1033.7341 2017.478 12421530
1192.938 1029.8857 2009.9673 12355994
1204.6382 1029.7065 2009.6177 13606061
1207.1803 1021.7793 1994.1465 13408426
1214.2205 1017.7761 1986.3336 13145253
1223.3483 1015.5826 1982.0529 11829394
1239.8223 1019.4716 1989.6427 12289944
1249.3771 1017.6516 1986.0906 13474989
1258.252 1015.3167 1981.5337 13146023
1281.198 1024.2744 1999.016 13540781
1291.8643 1023.3406 1997.1937 13014438
1294.0566 1015.7723 1982.4231 12883108
1312.0835 1020.6577 1991.9574 12488093
1318.8121 1016.7455 1984.3223 12290714
1319.7684 1008.4914 1968.2133 13343402
1341.1367 1015.8431 1982.5612 12817316
1344.6213 1009.6388 1970.4526 12488351
1360.5511 1012.8055 1976.6331 12489634
1364.5676 1007.1255 1965.5476 12687013
1390.1835 1017.3484 1985.4989 13805495
1384.0106 1004.3315 1960.0947 13674422
1392.2305 1001.8889 1955.3274 13476786
1399.2406 998.62292 1948.9536 13082030
1408.6525 997.11066 1946.0022 13411253
1406.4542 987.4715 1927.1899 13477562
1418.8545 988.1546 1928.5232 13806527
1425.7701 985.03754 1922.4398 13675711
1436.642 984.68158 1921.745 13938625
1448.4305 984.95459 1922.2778 13872319
1468.0582 990.51245 1933.1249 13214902
1489.4111 997.13928 1946.058 13807551
1497.7609 995.02576 1941.9331 13807551
1513.6929 997.94318 1947.627 13674939
1525.451 998.08557 1947.9049 13279153
1531.0277 994.21173 1940.3446 12752551
1529.2981 985.68658 1923.7064 12685475
1537.7681 983.81287 1920.0497 12883367
1543.4832 980.21704 1913.032 12948390
1548.899 976.48517 1905.7487 13145772
1549.1913 969.60052 1892.3121 11897242
1534.5891 953.55969 1861.0063 11569564
1545.364 953.40405 1860.7025 10517390
1554.0776 951.98798 1857.9388 7037556
1576.881 959.16205 1871.9401 13555149
1907.4473 1152.1298 2248.5437 13554383
1915.6151 1149.0372 2242.5083 13685198
1925.2701 1146.8733 2238.2849 13750737
1932.3572 1143.2196 2231.1543 13750737
1940.6901 1140.3477 2225.5493 13750737
1948.1243 1136.99 2218.9963 13750737
1945.9036 1128.0801 2201.6074 13750737
1951.6062 1123.8518 2193.3552 13750737
1952.4983 1116.9274 2179.8413 13750737
1848.1992 1050.3148 2049.8376 13750737
1856.4417 1048.111 2045.5364 13750737
1863.1605 1045.0809 2039.623 13750737
1870.2393 1042.2906 2034.1774 13750737
1980.594 1096.7235 2140.4106 13750737
1990.8214 1095.3726 2137.7742 13750737
1992.3668 1089.292 2125.907 13750737
2001.5044 1087.4126 2122.239 13750737
1827.4176 986.63269 1925.5529 13750737
1835.0754 984.61963 1921.6241 13750737
0 0 0 0
0 0 0 0
0 0 0 0
0 0 0 0
0 0 0 0
0 0 0 0
0 0 0 0
-3046.4172 1766.6874 3408.5227 4024647
-3029.0784 1768.356 3411.7419 3761223
-2970.5684 1745.8497 3368.3201 4287823
-2995.0381 1772.1378 3419.0383 4550997
-2966.5283 1767.2227 3409.5557 3498054
-2918.6221 1750.606 3377.4966 4879706
-2859.1531 1726.7769 3331.522 3827017
-2862.1077 1740.5787 3358.1506 4090189
-2789.6909 1708.4164 3296.0986 4090958
-2763.2205 1704.1365 3287.8413 4419668
-2792.3926 1734.3555 3346.1436 4288083
-2766.3257 1730.4523 3338.6133 2906686
-2741.1138 1727.0314 3332.0134 3761480
-2720.5259 1726.4957 3330.9797 3892807
-2682.5935 1714.8645 3308.5393 3300671
-2696.1926 1736.2462 3349.7917 2708789
-2651.1042 1719.8724 3318.2012 2971962
-2584.8337 1689.4095 3259.4282 3563843
-2581.3049 1699.8038 3279.4822 3300927
-2578.9663 1711.1454 3301.364 3300927
-2545.4963 1701.847 3283.4241 3498051
-2504.2622 1687.1742 3255.1157 4419154
-2512.9619 1706.1764 3291.7771 4090703
-2474.3357 1693.0925 3266.5342 4353362
-2412.739 1663.9606 3210.3289 3432259
-2405.6741 1672.2729 3226.366 3234880
-2357.8254 1652.1409 3187.5247 3432516
-2325.5615 1642.692 3169.2947 3432770
-2299.9543 1637.8298 3159.9141 2972218
-2267.0837 1627.673 3140.3181 3038263
-2215.9441 1604.123 3094.8826 2577456
-2203.9441 1608.7496 3103.8088 3367997
-2153.2373 1584.9629 3057.9163 3630913
-2121.5425 1574.8855 3038.4734 3301948
-2058.5764 1541.2231 2973.5278 2709811
-2033.3523 1535.4805 2962.4482 3367997
-2039.1613 1553.2764 2996.7825 2841654
-2035.0599 1563.7695 3017.0273 3696449
-1995.5929 1547.0326 2984.7361 3433276
-1982.9923 1551.01 2992.4099 3827777
-1951.6531 1540.2704 2971.6897 3498810
-1937.1997 1542.783 2976.5374 4089920
-1917.4503 1541.0854 2973.2622 4616264
-1892.2393 1534.926 2961.3787 5274448
-1864.712 1526.7549 2945.6138 4813897
-1838.2114 1519.2778 2931.1882 4156223
-1811.0485 1511.1055 2915.4209 3893052
-1793.5204 1510.8925 2915.0098 3761979
-1738.6069 1478.8746 2853.2371 3893309
-1717.1575 1474.9727 2845.7087 4551240
-1705.6305 1479.6006 2854.6375 3630396
-1687.3784 1478.429 2852.3772 3893824
-1657.7665 1467.1797 2830.6736 3630908
-1631.8811 1459.0326 2814.9551 4222536
-1618.0599 1461.6146 2819.9368 3630400
-1597.6473 1458.2345 2813.4153 4157002
-1585.4545 1462.3645 2821.3835 3827527
-1589.1885 1481.4296 2858.1663 4485456
-1580.5414 1489.2396 2873.2344 3959112
-1536.6945 1463.6918 2823.9443 5275227
-1529.3657 1472.748 2841.4167 4221773
-1509.2896 1469.5935 2835.3306 4221518
-1489.5605 1466.7098 2829.7671 4418640
-1470.1685 1464.0961 2824.7244 3233595
-1442.0171 1452.5986 2802.542 5207642
-1441.8779 1469.3796 2834.9182 3892038
-1408.9578 1452.7565 2802.8464 3892040
-1392.786 1453.2117 2803.7246 3958344
-1375.9016 1452.9253 2803.1721 3826500
-1342.5332 1435.0125 2768.6123 3892548
-1323.6489 1432.3296 2763.4363 3366460
-1328.0105 1455.0493 2807.27 2906165
-1277.5669 1417.5358 2734.894 3234874
-1250.5852 1405.4254 2711.5291 3169336
-1245.5635 1417.9995 2735.7888 3498045
-1205.9198 1390.9707 2683.6414 2971957
-1187.3442 1387.8451 2677.6111 2511662
-1166.8322 1382.3408 2666.9915 3432764
-1146.6086 1377.032 2656.749 2840371
-1128.7623 1374.4701 2651.8062 3564350
-1111.4882 1372.5422 2648.0867 2775089
-1095.9846 1372.777 2648.5396 3104308
-1071.1151 1361.1168 2626.0432 2775854
-1051.3618 1355.7101 2615.6118 3434038
-1023.0363 1338.9225 2583.2231 2578984
-1004.9202 1335.1896 2576.0212 2907693
-998.3598 1346.9321 2598.6763 2644263
-985.16412 1349.9501 2604.499 2183456
-971.54077 1352.4689 2609.3586 1656087
-954.98199 1350.9166 2606.3638 1655573
-935.14087 1344.5938 2594.165 1589781
-911.5083 1332.5172 2570.8652 2510369
-893.65295 1328.6191 2563.3445 2181148
-875.74011 1324.4991 2555.3958 1786133
-848.13062 1305.3108 2518.375 3101736
-837.25293 1311.6473 2530.6003 2312221
-837.40588 1335.8107 2577.2195 4746049
-814.9436 1324.1262 2554.6763 4547133
-803.23492 1329.8029 2565.6284 4677440
-805.41125 1359.1293 2622.2087 5859921
-798.94189 1374.733 2652.3135 6252890
-794.00586 1393.6543 2688.8188 9145479
-792.24127 1419.0311 2737.7791 9736079
-772.79584 1413.1375 2726.4082 9734288
-754.97162 1410.02 2720.3938 9535627
-737.14349 1406.7593 2714.1025 11442855
-723.65289 1411.8152 2723.8572 12034478
-708.20062 1413.1874 2726.5046 11967402
-686.92798 1402.7382 2706.3447 11835559
-664.31226 1388.9813 2679.8032 10716821
-651.21143 1394.9323 2691.2844 12163497
-631.75342 1387.2225 2676.4099 11374238
-616.41492 1388.3944 2678.6709 11571617
-601.23242 1389.989 2681.7473 11506337
-583.34674 1385.2507 2672.6057 12427439
-565.12231 1379.4215 2661.3591 11769510
-548.79272 1378.0155 2658.6465 12230061
-532.60437 1376.8914 2656.4778 12362419
-515.50714 1373.2776 2649.5056 11309472
-499.4838 1372.3876 2647.7883 11768996
-482.56546 1368.9008 2641.0613 11439518
-465.35419 1364.3217 2632.2266 11570334
-447.8963 1358.6766 2621.3354 11043733
-430.16165 1351.7565 2607.9841 11175319
-415.82965 1355.4115 2615.0359 11964835
-399.6377 1353.0524 2610.4844 11964836
-381.92068 1345.1318 2595.2031 11438491
-364.9599 1339.3221 2583.9941 12161701
-350.65039 1343.1591 2591.3967 11832736
-333.35336 1335.3798 2576.3879 11569564
-317.64804 1333.536 2572.8308 11437979
-299.77127 1321.9307 2550.4402 10977172
-284.44751 1320.949 2548.5464 11042963
-266.40744 1306.5358 2520.7385 11832736
-251.9353 1308.9478 2525.3921 11437978
-235.89575 1303.0066 2513.9294 10451083
-220.81534 1301.9196 2511.8323 9793153
-206.09871 1302.9752 2513.8691 10976913
-190.91411 1301.0065 2510.0706 11174290
-174.66527 1290.8397 2490.4556 11963551
-159.58072 1288.1953 2485.3535 11634587
-145.2843 1292.022 2492.7366 11898529
-130.15437 1288.4635 2485.8711 11897759
-115.15384 1285.441 2480.0398 12424103
-100.32858 1283.7772 2476.8298 12555689
-85.230713 1277.4574 2464.6367 12226723
-70.5662 1276.3623 2462.5239 11963807
-56.021046 1277.4177 2464.5601 10911119
-41.347767 1275.266 2460.4087 11634329
-26.799099 1276.7067 2463.1882 11634329
-12.079404 1263.701 2438.0962 11568279
2.3577988 1258.6313 2428.3152 10844813
16.997408 1277.4861 2464.6919 11305364
31.049503 1255.1638 2421.625 10581641
45.408993 1255.451 2422.1792 11305364
59.393482 1247.7224 2407.2681 11371157
73.601242 1246.7692 2405.429 11239571
87.958138 1248.2417 2408.27 11371157
101.72036 1242.042 2396.3088 11831708
116.59997 1249.3335 2410.3765 12226466
129.17883 1233.072 2379.0027 12160672
142.54601 1226.7948 2366.8918 12029087
156.85558 1229.0262 2371.197 11963295
170.44499 1225.712 2364.8027 12292003
185.34784 1231.629 2376.2185 12489896
198.31256 1224.7408 2362.9292 12226725
210.88713 1216.5106 2347.0503 12292773
226.08736 1223.5081 2360.5505 12753067
239.04016 1218.2363 2350.3796 12621224
252.83267 1217.5889 2349.1306 11699865
266.21097 1215.1184 2344.3643 10318213
279.23138 1211.3405 2337.0752 11042963
292.07907 1207.2054 2329.0977 10779791
303.13113 1196.3571 2308.1672 10779535
316.73965 1196.0991 2307.6697 10449800
333.62787 1207.735 2330.1191 10844814
346.79468 1205.51 2325.8264 11173522
355.15979 1187.4016 2290.8894 11107730
371.07571 1194.9415 2305.4365 10252164
384.36429 1193.7861 2303.2073 11568023
395.8364 1187.2615 2290.6191 12752297
405.84085 1176.9133 2270.6541 11963294
419.82919 1178.4117 2273.5449 12883627
435.09042 1183.2786 2282.9348 11897242
445.76828 1175.7629 2268.4346 11896985
458.76379 1174.6213 2266.2319 11239312
471.72659 1173.4631 2263.9976 12225437
484.35046 1171.5494 2260.3054 11699863
492.28644 1158.7046 2235.5234 11633557
509.05624 1166.7805 2251.1045 12093595
522.13196 1166.1931 2249.9712 12093851
533.88611 1162.7567 2243.3413 12291746
545.51648 1159.2244 2236.5261 11041679
560.20911 1162.2123 2242.291 12423075
571.18512 1157.53 2233.2573 12554918
582.47778 1153.6871 2225.843 12620711
594.73676 1151.8859 2222.3677 11831195
605.42621 1147.1885 2213.3049 10844047
613.71136 1138.2313 2196.0237 10120581
631.61084 1147.1071 2213.1479 10449802
644.99017 1147.5796 2214.0596 11700123
657.77094 1146.9894 2212.9209 10449287
667.95599 1141.9846 2203.2649 10910095
675.38062 1132.5426 2185.0483 11633045
686.30365 1129.2119 2178.6223 12291231
698.36053 1127.8356 2175.9668 11764629
709.90143 1125.6908 2171.8289 12554146
719.15027 1120.0525 2160.9507 11304079
729.55695 1116.3834 2153.8718 12093595
742.38025 1116.4746 2154.0479 11962008
751.46155 1111.0304 2143.5442 11830679
763.63696 1110.2657 2142.0688 11567508
769.34894 1100.2823 2122.8076 10910093
780.09863 1097.709 2117.8428 12225953
796.53821 1103.0969 2128.2378 11173265
807.78906 1101.2432 2124.6611 11502230
822.48529 1104.071 2130.1172 11633814
833.92957 1102.5143 2127.1138 12029084
843.06372 1097.9952 2118.395 12028828
855.21674 1097.4828 2117.4062 11896216
862.56396 1090.9072 2104.7197 12290717
873.41168 1088.8829 2100.8145 12751524
886.56793 1089.7533 2102.4937 12422303
897.73517 1088.1886 2099.4749 11895960
908.52515 1086.2157 2095.6682 11829909
918.40594 1083.2235 2089.8955 12291229
925.67938 1077.2766 2078.4219 11370128
938.45123 1077.8008 2079.4331 11106956
949.68451 1076.567 2077.053 11633044
957.35443 1071.3773 2067.0403 11962265
964.58344 1065.8315 2056.3406 12751524
971.93481 1060.5575 2046.1653 12160158
986.64166 1063.3408 2051.5352 12620708
999.89319 1064.507 2053.7849 12883367
1009.4996 1061.811 2048.5837 12554402
1020.5416 1060.6713 2046.3846 11633043
1031.2078 1059.1721 2043.4923 12291230
1042.7651 1058.6125 2042.4128 11962009
1042.4373 1046.1385 2018.3463 12554146
1057.6663 1049.3824 2024.6049 10251390
1070.4417 1050.1464 2026.0787 11830166
1075.8314 1043.7281 2013.696 11961752
1080.1982 1036.4694 1999.6912 12356253
1095.8298 1040.0596 2006.6179 13277868
1108.9611 1041.2249 2008.8661 12093592
1122.9725 1043.1831 2012.6444 12619938
1146.8188 1054.1405 2033.7848 12290717
1144.2019 1040.7981 2008.0428 12224668
1159.3828 1043.7531 2013.744 11895445
1164.4827 1037.6648 2001.9978 13212076
1177.7179 1038.8756 2004.3337 13739187
1187.0542 1036.6573 2000.054 12422814
1185.6298 1025.1782 1977.9071 13211559
1202.7043 1029.7629 1986.7524 12619679
1208.2466 1024.4806 1976.5609 12224922
1215.101 1020.4014 1968.6908 12356251
1225.6313 1019.4574 1966.8695 12751008
1235.9349 1018.3442 1964.7219 12882598
1248.4281 1019.0391 1966.0626 12093592
1262.076 1020.6552 1969.1807 13277865
1273.5297 1020.4833 1968.8489 13409451
1287.7534 1022.514 1972.7668 13146024
1293.165 1017.5741 1963.2361 12817059
1309.2715 1021.0628 1969.9669 12225178
1318.7002 1019.3282 1966.6204 11435918
1325.9226 1015.9334 1960.0708 13343916
1340.2539 1017.9971 1964.0524 12356764
1348.0653 1015.1159 1958.4934 12357021
1358.0219 1013.8852 1956.119 12291228
1379.0543 1020.8746 1969.6039 11568275
1381.4855 1014.0923 1956.5186 13674680
1388.3763 1010.6692 1949.9143 13609147
1399.0089 1010.004 1948.6309 13411253
1396.6813 1000.0698 1929.4644 13279667
1404.2734 997.34204 1924.2017 13214388
1404.4016 989.39978 1908.8785 13740733
1416.4854 989.94 1909.9208 14004931
1427.6129 989.80859 1909.6672 13278900
1434.8461 987.00043 1904.2494 13476789
1447.0563 987.633 1905.4697 13081774
1475.1946 999.0426 1927.4827 12423588
1495.3732 1004.9279 1938.8373 12818346
1506.5314 1004.7076 1938.4124 13673912
1517.9127 1004.6384 1938.2789 13937598
1528.4094 1003.9891 1937.0262 13740216
1523.1936 993.10516 1916.0275 13542068
1525.0582 986.96454 1904.1802 13146796
1522.9991 978.39331 1887.6436 12357023
1530.5604 976.0824 1883.1849 11172752
1523.4459 964.51343 1860.8646 11634074
1539.2096 967.49115 1866.6095 11899299
1536.0021 958.58685 1849.4303 11176348
1552.2827 961.8847 1855.7928 9731728
1563.0974 961.77295 1855.5773 12697284
1908.1564 1165.8865 2249.3796 13684687
1916.5054 1162.8651 2243.5505 13619408
1925.4792 1160.262 2238.5281 13750736
1933.5393 1157.1475 2232.519 13750737
1941.6154 1154.0848 2226.6104 13750737
1950.0482 1151.2743 2221.1877 13750737
1948.9601 1142.918 2205.0657 13750737
1954.1641 1138.3383 2196.23 13750737
1842.6578 1066.2828 2057.2114 13750737
1848.0508 1062.3755 2049.6729 13750737
1855.0088 1059.4133 2043.9576 13750737
1973.0919 1119.5421 2159.9661 13750737
1982.8394 1117.822 2156.6475 13750737
1986.8162 1112.8916 2147.135 13750737
1986.2424 1105.4912 2132.8572 13750737
1991.0725 1101.173 2124.5259 13750737
2001.5044 1099.9877 2122.239 13750737
1824.2236 996.29803 1922.1875 13750737
1830.6353 993.59607 1916.9746 13750737
0 0 0 0
0 0 0 0
0 0 0 0
0 0 0 0
0 0 0 0
0 0 0 0
0 0 0 0
-2966.4238 1739.9639 3319.021 3827015
-2961.5828 1748.7179 3335.7195 3498309
-2958.5493 1758.6641 3354.6919 3498309
-2939.8481 1759.3682 3356.0352 3893325
-2918.5259 1758.5027 3354.3843 3563847
-2835.0081 1719.8936 3280.7366 3761480
-2827.7136 1727.3125 3294.8884 3761737
-2807.4241 1726.8414 3293.9897 3564358
-2753.0007 1705.2209 3252.748 4288081
-2691.1594 1678.6687 3202.0989 5011548
-2743.9053 1723.7228 3288.041 4945498
-2743.0781 1735.5264 3310.5564 3827273
-2687.3354 1712.5049 3266.6423 4090443
-2656.5984 1705.1998 3252.7078 3564608
-2647.5249 1711.7948 3265.2878 3367231
-2644.688 1722.5488 3285.8015 3104059
-2591.5376 1700.4493 3243.646 3169853
-2545.2925 1682.5841 3209.5676 3103803
-2537.6785 1690.1796 3224.0562 3695429
-2488.7664 1670.1753 3185.8979 3564102
-2470.1423 1670.347 3186.2253 3498052
-2447.1699 1667.5582 3180.9055 3827017
-2437.813 1674.0759 3193.3381 2840122
-2407.2195 1665.9979 3177.9294 4155982
-2389.7537 1666.95 3179.7454 3169343
-2364.9402 1662.751 3171.7358 3563845
-2329.9634 1651.2819 3149.8582 2577207
-2286.8638 1633.8241 3116.5571 2709303
-2252.9807 1622.7205 3095.3767 2643508
-2215.8784 1609.097 3069.3896 2709813
-2167.6929 1587.1333 3027.4932 3630913
-2153.5066 1589.9038 3032.7781 3433790
-2094.2761 1559.1857 2974.1826 3170360
-2070.6169 1554.6537 2965.5378 3104823
-2043.9421 1547.7607 2952.3892 2710065
-2017.7909 1541.1487 2939.7764 3367482
-1999.9573 1540.8296 2939.1677 3696191
-1982.4049 1540.7233 2938.9651 4025409
-1971.7605 1546.0317 2949.0911 3761982
-1954.5773 1546.2622 2949.5305 3433016
-1927.7992 1538.8378 2935.3684 3761980
-1912.2178 1540.2972 2938.1523 4550725
-1879.9474 1528.2169 2915.1089 4616517
-1843.2607 1512.2894 2884.7268 4485188
-1814.6361 1502.7397 2866.5107 4485189
-1777.1448 1485.5979 2833.812 3696186
-1753.7318 1480.0099 2823.1528 4353860
-1737.2523 1480.2219 2823.5574 4353606
-1712.744 1473.5306 2810.7935 4156737
-1690.6754 1468.8273 2801.8218 4222530
-1672.5376 1467.4797 2799.2512 3696443
-1651.8147 1463.8143 2792.2595 3696187
-1629.3777 1458.5404 2782.1992 4090690
-1598.4298 1445.462 2757.2522 4090692
-1584.1709 1447.3617 2760.8755 4353866
-1584.5856 1462.8468 2790.4138 3958853
-1563.0157 1458.1492 2781.4529 3958341
-1542.5538 1454.3959 2774.2935 4418638
-1536.8663 1464.642 2793.8381 4418638
-1526.8853 1470.9749 2805.9182 4879189
-1520.4369 1480.8878 2824.8276 4550224
-1470.4052 1448.0995 2762.283 4155212
-1454.2056 1448.2668 2762.6023 4681555
-1421.2263 1431.5366 2730.689 3102268
-1415.6237 1442.3137 2751.2466 4549713
-1405.1688 1448.3408 2762.7434 3891783
-1374.3805 1433.3047 2734.0618 3957833
-1325.0516 1398.3439 2667.373 2839862
-1349.5789 1441.421 2749.5437 3366207
-1307.4054 1413.4408 2696.1707 3366718
-1310.9265 1434.7797 2736.8752 3169338
-1269.5803 1406.932 2683.7551 2709299
-1243.3635 1395.3568 2661.675 3103546
-1230.4561 1398.6119 2667.8845 2972216
-1221.2366 1406.1989 2682.3564 3366718
-1206.0851 1407.0651 2684.009 3695939
-1179.4807 1394.4147 2659.8779 3300922
-1163.4478 1394.0886 2659.2561 2774833
-1126.6207 1368.4951 2610.4358 4682318
-1124.4957 1384.9282 2641.7825 3695423
-1103.1193 1377.7805 2628.1479 3301178
-1073.626 1360.145 2594.5078 3498556
-1050.0004 1349.5388 2574.2764 3893822
-1032.1956 1346.2115 2567.9294 3170355
-1015.7534 1344.5884 2564.8333 2578216
-1003.0508 1347.9415 2571.2295 3104047
-1006.6584 1373.6543 2620.2771 2050845
-981.60663 1360.4524 2595.0942 799497
-958.86145 1350.0779 2575.3047 1391378
-947.6615 1355.8864 2586.3845 3234607
-926.52216 1347.4313 2570.2561 4287295
-901.63123 1333.1464 2543.0073 2905897
-871.02515 1309.7819 2498.439 3497265
-863.79645 1321.3704 2520.5444 3628851
-834.97687 1299.7574 2479.3171 3431216
-831.04175 1316.8003 2511.8269 4351804
-818.26971 1320.2072 2518.3254 4219961
-808.08911 1327.9993 2533.189 4678718
-798.54089 1337.1453 2550.6353 4283191
-791.91473 1351.6313 2578.2678 6189652
-782.72766 1362.2306 2598.4861 5727060
-776.28003 1378.1183 2628.7922 8487551
-774.56897 1403.2377 2676.708 8091512
-761.37122 1408.1625 2686.1023 10589595
-747.84045 1412.6687 2694.698 11444136
-727.50043 1404.2283 2678.5977 10390423
-711.81738 1404.6006 2679.3079 11244962
-693.21924 1399.1064 2668.8276 11178656
-677.63647 1399.5839 2669.7383 12033965
-657.60205 1390.6698 2652.7346 12625588
-641.95099 1390.816 2653.0134 12296367
-622.98029 1383.5968 2639.2427 10913687
-605.76105 1379.9957 2632.3735 11505824
-593.00281 1386.6357 2645.0396 11572130
-577.16132 1386.231 2644.2673 10914714
-552.80975 1364.7935 2603.375 11836331
-543.24011 1379.6671 2631.7466 11442087
-526.09167 1375.603 2623.9944 11441831
-510.76236 1376.1929 2625.1194 10124429
-489.91632 1361.4886 2597.0708 11111066
-474.6441 1361.8229 2597.7083 11834276
-458.82672 1360.5627 2595.3047 11768226
-442.48093 1357.594 2589.6418 12491949
-425.08298 1351.068 2577.1931 12360362
-408.09985 1345.4232 2566.4255 11439007
-394.28561 1350.1929 2575.5239 11701666
-378.10153 1346.9047 2569.2515 11898788
-362.0538 1343.8466 2563.4182 11503774
-346.48682 1342.3833 2560.627 11241368
-329.95218 1336.8652 2550.1011 11635613
-315.08487 1337.8975 2552.0701 11635101
-296.70953 1323.3871 2524.3911 12293030
-280.88416 1319.313 2516.6199 11372441
-265.21658 1315.5649 2509.4705 11109013
-249.2207 1309.6466 2498.1809 11437978
-234.45032 1309.8274 2498.5256 10253704
-219.66304 1309.9316 2498.7246 10055555
-204.29173 1306.3165 2491.8289 11173779
-189.87556 1308.7216 2496.4163 11174036
-173.96461 1300.3595 2480.4656 11042193
-159.20496 1299.854 2479.5015 10581899
-142.78699 1284.3298 2449.8887 11174036
