# .PCD v0.7 - Point Cloud Data file format
VERSION 0.7
FIELDS x y z rgb
SIZE 4 4 4 4
TYPE F F F U
COUNT 1 1 1 1
WIDTH 1285
HEIGHT 1
VIEWPOINT 0 0 0 1 0 0 0
POINTS 1285
DATA ascii
999.11975 877.96906 1912.5338 4727309
1009.7503 877.35913 1911.2052 4990481
1024.3257 880.15228 1917.2898 4661259
1035.8561 880.29645 1917.6038 5779227
1043.0583 876.79938 1909.9857 4265988
1054.7185 877.08441 1910.6067 6042398
1063.6198 875.09338 1906.2697 5055247
1076.8157 876.64069 1909.64 4397576
1085.585 874.58936 1905.1716 6042143
1102.5822 879.14081 1915.0864 4726284
1116.5558 881.21338 1919.6012 4857870
1130.4418 883.17554 1923.8755 4793364
1136.4788 879.02765 1914.8398 4134663
1146.2167 877.79596 1912.1567 4200712
1156.8488 877.26654 1911.0035 4661262
1165.4341 875.21033 1906.5243 3805956
1170.3353 870.45343 1896.162 4529420
1184.9639 872.953 1901.6071 4924435
1189.4812 868.02692 1890.8761 5122070
1202.7755 869.53784 1894.1677 4135174
1211.1371 867.48785 1889.702 5187862
1218.9586 865.09204 1884.4832 4793104
1232.2477 866.58496 1887.7351 5319448
1247.6261 869.50702 1894.1005 5253912
1266.1467 874.54742 1905.0803 4595725
1268.3324 868.31555 1891.5051 5253655
1281.443 869.60675 1894.3177 5122069
1293.3187 870.04486 1895.272 4398091
1309.7933 873.54242 1902.8911 4135175
1318.3572 871.74951 1898.9854 4793362
1320.1053 865.51813 1885.4113 3740422
1341.5294 872.18365 1899.931 3609091
1345.0975 867.22577 1889.1311 4398350
1353.3274 865.33057 1885.0027 4200968
1359.1901 861.96521 1877.6716 4924692
1372.9811 863.6416 1881.3235 4793361
1377.1608 859.29395 1871.8527 5779999
1394.7161 863.2948 1880.5681 5253655
1407.1478 864.08612 1882.2919 5056533
1410.0199 859.04083 1871.3014 5253912
1427.4347 862.86523 1879.6322 4529933
1433.6339 859.90314 1873.1797 4595726
1443.9863 859.45856 1872.2113 4201224
1457.6448 860.97351 1875.5115 4661776
1480.4766 867.84283 1890.4753 4398604
1488.6691 866.09204 1886.6614 4464141
1510.7968 872.41431 1900.4336 4990486
1511.0219 866.08881 1886.6544 4135432
1523.4834 866.81848 1888.2439 4332813
1524.7869 861.23517 1876.0813 6043174
1560.5557 875.05847 1906.1935 5714465
1548.6632 862.1499 1878.0741 4332811
1554.5809 859.2699 1871.8003 4661521
1560.5211 856.44293 1865.6421 4924950
1583.4901 862.93567 1879.7858 4332813
1584.1774 857.27997 1867.4656 4267019
1580.1909 849.19104 1849.845 3412232
1597.076 852.35284 1856.7324 3017988
1601.4449 848.83704 1849.0737 4332813
1597.8065 841.15363 1832.3365 2360321
1627.2252 850.85925 1853.4788 4135950
1641.0015 852.31006 1856.6393 2625285
1648.2904 850.39484 1852.4672 5846309
1660.0485 850.79529 1853.3395 6504239
1657.323 843.81628 1838.1367 3806472
1682.3219 850.95203 1853.6809 4530448
1691.4579 850.0235 1851.6582 4464399
1685.1622 841.40173 1832.8771 5056279
1690.4076 838.61615 1826.809 3411714
1722.0737 848.88989 1849.1888 4201228
1732.251 848.50781 1848.3566 5122328
1729.838 842.00226 1834.1852 4267020
1761.0443 851.83997 1855.6154 4267019
1772.5258 852.07367 1856.1244 4069385
0 0 0 0
0 0 0 0
0 0 0 0
0 0 0 0
0 0 0 0
0 0 0 0
0 0 0 0
0 0 0 0
0 0 0 0
0 0 0 0
-1853.7471 983.99304 2116.1775 7950122
-1836.4543 981.4527 2110.7141 7423522
-1819.7107 979.17279 2105.811 7620901
-1801.3184 975.96826 2098.9194 7357730
-1788.0577 975.51886 2097.9529 7686695
-1774.9821 975.16479 2097.1914 7226143
-1759.7706 973.62402 2093.8779 7291937
-1729.7993 963.83746 2072.8308 7620902
-1728.8643 970.20526 2086.5254 7028764
-1714.705 969.19025 2084.3425 6830874
-1702.3079 969.16376 2084.2856 7291424
-1701.3381 975.69031 2098.3215 7159838
-1683.7053 972.68652 2091.8616 6699288
-1665.8177 969.49005 2084.9873 6633494
-1658.052 972.18054 2090.7734 6962460
-1631.2399 963.65979 2072.4487 6304784
-1637.5031 974.69745 2096.1863 6041356
-1630.5012 977.94751 2103.176 6107406
-1617.3269 977.51709 2102.2502 6172942
-1605.302 977.78015 2102.8159 6370577
-1581.3275 970.71185 2087.615 6633751
-1570.8527 971.88434 2090.1365 6699285
-1559.7631 972.69214 2091.8738 6041612
-1547.3168 972.66003 2091.8047 6107149
-1528.8451 968.8092 2083.5229 6699543
-1516.8633 969.04163 2084.0229 7028251
-1505.3975 969.61029 2085.2458 6502163
-1492.1809 969.05139 2084.0439 7225886
-1480.4431 969.45142 2084.9043 6830872
-1469.8307 970.60144 2087.3774 6896921
-1463.267 974.46722 2095.6912 6962460
-1451.5359 974.92847 2096.6831 6435859
-1443.6294 977.98865 2103.2644 6699288
-1435.1323 980.69849 2109.0923 6633495
-1419.0732 978.24316 2103.8118 7357217
-1410.6968 981.08728 2109.9282 6501654
-1396.9177 980.19135 2108.0015 6304275
-1377.1427 975.03387 2096.9099 6633497
-1359.0441 970.98035 2088.1924 6830619
-1347.3342 971.45874 2089.2212 6633497
-1346.3306 979.73712 2107.0247 8080686
-1326.049 974.01031 2094.7085 6304531
-1311.1721 972.18268 2090.7781 6370324
-1297.5044 971.22528 2088.719 6764826
-1280.4968 967.72546 2081.1924 6435861
-1267.1908 966.98199 2079.5935 6041360
-1248.0524 961.7298 2068.2981 6962462
-1236.6448 962.38959 2069.717 6172946
-1223.8911 962.0047 2068.8892 6699290
-1213.5497 963.52722 2072.1636 6370324
-1209.6726 970.26569 2086.6555 7028767
-1204.8685 976.39227 2099.8313 6304789
-1184.8462 970.18561 2086.4832 6305045
-1170.8142 968.80481 2083.5137 6436630
-1147.8878 959.95636 2064.4841 6896922
-1141.0341 964.50323 2074.2627 6765593
-1129.3989 965.0636 2075.4678 6831129
-1121.3641 968.74658 2083.3884 6699801
-1103.012 963.49902 2072.103 6436629
-1086.3727 959.64655 2063.8179 6831132
-1073.4028 958.98474 2062.3945 6436631
-1061.6943 959.44739 2063.3896 6041873
-1050.5092 960.39935 2065.4368 7094561
-1031.3772 954.02289 2051.7236 6765596
-1023.188 957.73712 2059.7114 6831132
-1009.3432 956.18335 2056.3699 5910287
-993.16553 952.35461 2048.1357 6699802
-983.23413 954.49469 2052.7383 6699802
-969.64594 953.09418 2049.7263 6633753
-959.71869 955.30225 2054.4749 6370581
-945.55402 953.2948 2050.1577 6173202
-935.8468 955.78766 2055.5188 6436374
-924.73029 956.88782 2057.885 6831132
-918.73975 963.39252 2071.874 6567961
-901.06866 957.65948 2059.5444 6831135
-889.0993 957.9118 2060.0872 6041618
-875.64685 956.55121 2057.1609 6370326
-864.05438 957.21252 2058.5833 6896927
-843.66376 948.00659 2038.7849 5910030
-843.98273 962.14209 2069.1848 6304535
-822.61414 951.60608 2046.526 6633756
-811.71661 953.04901 2049.6292 6173204
-797.13428 950.14368 2043.381 6238741
-787.14117 952.70331 2048.8857 6304534
-770.99365 947.7774 2038.2921 5449482
-760.59424 949.87335 2042.7997 5975570
-748.74097 950.19202 2043.485 5845007
-738.79956 952.98737 2049.4966 6239765
-725.56189 951.55322 2046.4124 6503192
-709.99524 946.96399 2036.5426 6568984
-700.32397 950.21509 2043.5344 6240019
-686.71906 948.14923 2039.0917 6371861
-672.23651 944.77612 2031.8374 6567958
-655.5708 938.1557 2017.5995 6765338
-653.25922 952.2124 2047.83 6634009
-638.85687 948.84363 2040.5851 6831388
-623.91064 944.52167 2031.2903 6370838
-618.52557 954.78876 2053.3706 6173458
-604.79053 952.3197 2048.0608 6699293
-588.26013 945.25781 2032.8734 6370327
-576.10107 945.07172 2032.4731 5646604
-563.31354 943.82465 2029.7911 6041362
-549.15814 940.18127 2021.9557 5910033
-536.60455 939.17896 2019.8002 6304792
-525.03009 939.88361 2021.3156 6173206
-512.10022 938.13818 2017.5619 5975827
-498.95447 935.90442 2012.7579 5975828
-487.97125 937.71692 2016.656 6633758
-474.4032 934.52863 2009.7991 5581070
-463.3172 936.19122 2013.3748 5251848
-448.93552 931.10638 2002.4393 5844241
-436.97806 930.91003 2002.0171 6567965
-423.81125 928.05444 1995.8757 6304792
-412.02957 928.15509 1996.0923 6041364
-401.59766 931.39209 2003.0538 6436122
-388.99646 929.64209 1999.2902 5975828
-375.90646 926.57715 1992.6987 6962466
-365.22507 929.44305 1998.8621 6041621
-354.22876 931.67273 2003.6573 6962723
-340.51245 926.65497 1992.8661 7028516
-327.95319 924.53857 1988.3146 5580813
-316.46786 925.40485 1990.1776 5646864
-304.36203 924.45349 1988.1316 5712399
-292.72186 924.89685 1989.0851 6238743
-281.43362 926.53595 1992.6101 5975827
-270.66168 930.09277 2000.2595 6041364
-256.45755 921.64111 1982.0834 5975571
-244.36877 920.34503 1979.296 5646606
-233.69186 924.50372 1988.2397 6238743
-221.98184 924.79993 1988.8767 6304793
-210.35696 925.50391 1990.3906 5778448
-197.96593 922.72058 1984.4048 5778449
-186.74608 925.38922 1990.1439 6041621
-175.29402 927.18945 1994.0155 6436379
-163.35822 926.50616 1992.5461 5120519
-151.51717 926.29584 1992.0936 5777937
-139.3542 923.91553 1986.9746 5515278
-127.65916 924.48468 1988.1986 5778194
-115.97676 925.27026 1989.8882 5186313
-104.01039 923.71179 1986.5365 5975828
-92.91214 930.44922 2001.026 6304279
-81.115616 931.14203 2002.516 5646350
-68.525528 921.40198 1981.5691 5514763
-56.495087 916.71509 1971.4893 5777936
-45.134403 923.28516 1985.619 5843728
-33.01609 913.52563 1964.6301 4659713
-21.482765 918.13708 1974.5475 4791557
-9.7983723 919.60059 1977.6948 6173209
1.9239306 921.35632 1981.4708 4857348
13.626439 918.76038 1975.8879 5778452
25.286047 917.00793 1972.1191 6436380
36.756931 911.6825 1960.6661 6041624
48.301125 910.29651 1957.6854 5843989
59.608864 905.854 1948.1315 5186060
71.951073 916.02295 1970.0009 4791301
83.53009 914.99304 1967.7858 5251851
94.893753 912.14532 1961.6615 3673601
106.25005 909.85608 1956.7383 5712146
117.87917 910.12354 1957.3135 5580559
129.91254 913.18481 1963.8972 4792071
141.52901 913.0531 1963.6139 5450002
152.38185 908.38922 1953.5839 4857609
164.02315 908.75238 1954.3646 5252367
175.68752 909.18695 1955.2993 4923402
187.79561 911.72192 1960.751 5449744
199.52747 912.24139 1961.8682 5976088
211.39391 913.2851 1964.1128 5252622
223.51971 915.28198 1968.4072 6765861
233.87343 910.1842 1957.444 5121036
245.31339 909.5957 1956.1785 5450001
253.92955 899.06256 1933.5258 5975831
268.19125 908.56451 1953.9607 5580817
281.84042 915.29077 1968.4261 5581330
291.25641 908.28113 1953.3513 3214337
303.02206 908.85486 1954.5851 6239517
314.66165 909.02203 1954.9447 5318415
326.05127 908.4809 1953.7809 5383951
336.6853 905.94379 1948.3246 5647123
347.98898 905.31702 1946.9766 6042138
364.67322 918.27911 1974.853 5647380
370.77362 904.61279 1945.4623 6107931
379.4288 897.81592 1930.8448 5647123
389.77945 895.3114 1925.4585 5187086
399.20245 890.87915 1915.9264 6041624
416.28625 903.31543 1942.672 4923400
425.42764 898.31152 1931.9106 5910552
440.3233 905.4021 1947.1595 5384208
453.20355 908.09216 1952.9448 5186831
464.38461 907.32831 1951.3022 5976346
474.30029 904.18945 1944.5516 5384207
486.39523 905.25525 1946.8439 5186828
500.02515 909.06232 1955.0314 6502432
510.81763 907.65533 1952.0055 5581845
520.47205 904.33319 1944.8608 5647639
532.14136 904.58002 1945.3917 5647639
542.13965 902.03613 1939.9207 5252882
550.52094 896.96332 1929.0111 5450259
568.37878 907.22284 1951.0754 5055501
571.32965 893.75385 1922.1089 5581846
587.78894 901.53015 1938.8325 5055502
592.96399 892.03265 1918.4072 6305569
602.49298 889.31909 1912.5714 5252880
616.51355 893.2132 1920.9462 5910811
625.63989 890.00391 1914.0442 5515796
634.84851 887.02374 1907.6351 4726025
643.47137 883.34387 1899.7211 5317907
656.41754 885.62341 1904.6235 5712921
669.50726 888.01624 1909.7695 5712920
678.56262 885.06744 1903.4277 6502690
695.90204 892.84351 1920.1511 5778711
707.44244 893.04895 1920.5929 5318416
722.29932 897.36816 1929.8818 5515539
727.09369 889.24622 1912.4147 5910297
734.99072 885.10992 1903.5192 6042139
748.17365 887.36786 1908.3752 6436640
759.8866 887.84119 1909.3929 6634277
769.66968 886.07874 1905.6028 5647382
778.20068 882.94678 1898.8672 5186573
788.08936 881.42249 1895.589 5647128
801.02325 883.29913 1899.6249 5383956
811.86517 882.84875 1898.6564 4923405
827.18512 887.21368 1908.0436 5515285
836.5343 885.14325 1903.5908 4923404
846.25861 883.51959 1900.099 4528647
860.83038 886.93292 1907.4398 5516055
869.6745 884.43292 1902.0634 4923917
881.27277 884.76196 1902.771 5055247
885.30731 877.58514 1887.3363 6042398
892.14197 873.32825 1878.1815 4989711
908.83301 878.70587 1889.7467 6042143
921.87378 880.46643 1893.5328 4332039
934.84064 882.11475 1897.0776 3937026
940.06531 876.50531 1885.014 5252883
943.80176 869.65619 1870.2843 4990482
970.4881 883.86755 1900.8474 4267016
963.24957 867.21039 1865.0245 4990481
989.22351 880.4931 1893.5903 4398344
1001.6467 881.55182 1895.8671 5779484
1015.6641 883.97449 1901.0774 5384725
1021.3908 879.20746 1890.8254 5252883
1031.1974 878.0177 1888.2666 4726538
1034.0862 871.02655 1873.2314 5581848
1046.6807 872.27234 1875.9106 5910556
1058.6965 873.01477 1877.5073 5450005
1073.0394 875.64069 1883.1547 4924688
1078.6118 871.12921 1873.4523 5384984
1191.2889 952.33026 2048.0835 4990483
1098.2932 869.13464 1869.1627 4200711
1112.2916 871.42444 1874.0872 4858897
1130.0616 876.59473 1885.2065 5582364
1137.0203 873.3595 1878.2487 4989971
1150.2664 874.9696 1881.7114 4003590
1157.5492 872.05634 1875.4462 5056021
1168.7227 872.10162 1875.5435 3937285
1177.0604 870.05005 1871.1313 4529932
1189.6248 871.13159 1873.4574 5056276
1196.1755 867.83044 1866.3579 5122069
1210.6536 870.28833 1871.6439 4990483
1227.5653 874.43512 1880.562 4924690
1241.8732 876.66919 1885.3666 3609095
1241.8181 868.8147 1868.4747 4792847
1257.4093 871.94897 1875.2152 4134919
1264.1492 868.94403 1868.7528 4727311
1276.4452 869.7774 1870.545 5385242
1290.3975 871.71515 1874.7124 5122070
1290.0413 864.03644 1858.1985 4530190
1307.483 868.30743 1867.3838 4267019
1310.6079 863.07861 1856.1387 3740421
1323.3939 864.24603 1858.6493 4069384
1339.5146 867.55396 1865.7633 4069382
1349.3849 866.79272 1864.1262 4201224
1353.7627 862.54431 1854.9895 3740675
1367.0463 863.9928 1858.1047 4530190
1377.5033 863.64618 1857.3591 4793361
1389.1476 864.04346 1858.2136 4003848
1393.918 860.1925 1849.9318 8740942
1409.8204 863.21777 1856.4379 4201227
1427.9154 867.52814 1865.7079 3674883
1424.6923 858.9201 1847.1954 3872263
1444.4814 864.21118 1858.5745 4332812
1459.4327 866.5498 1863.6038 5253656
1471.9231 867.40289 1865.4385 4990484
1473.1581 861.65997 1853.0878 5056534
1488.2922 864.07166 1858.2743 4267018
1504.0973 866.83459 1864.2162 5319708
1517.8617 868.38965 1867.5605 4398606
1527.795 867.74628 1866.177 5187865
1526.0835 860.54572 1850.6914 4003847
1520.8313 851.46558 1831.1637 4595985
1533.6648 852.56799 1833.5345 4530191
1541.1263 850.6897 1829.4951 4595984
1558.1868 854.09906 1836.8271 5911586
1565.4166 852.11005 1832.5497 5451293
1573.5359 850.62927 1829.365 4793619
1593.0892 855.30743 1839.4259 4398863
1601.0442 853.7373 1836.0493 4004104
1607.1152 851.19067 1830.5725 4135690
1611.9099 848.00684 1823.7251 3740934
1622.3372 847.80865 1823.2991 3939083
1634.8099 848.67511 1825.1624 5715237
1634.2939 842.8316 1812.5953 4069642
1647.7031 844.19897 1815.536 4464656
1655.4663 842.67462 1812.2578 3477508
1671.8123 845.51056 1818.3568 4992798
1672.3011 840.34204 1807.2412 3677453
1692.7228 845.19189 1817.6714 4664608
1709.629 848.23621 1824.2185 4798761
1728.3052 852.11481 1832.5598 4732197
1736.4843 850.80194 1829.7365 4008476
1759.6722 856.81342 1842.6648 4403231
0 0 0 0
0 0 0 0
0 0 0 0
0 0 0 0
0 0 0 0
0 0 0 0
0 0 0 0
0 0 0 0
0 0 0 0
0 0 0 0
-1830.0686 983.80328 2089.147 7620901
-1803.8665 976.32166 2073.2595 7028508
-1780.8295 970.46228 2060.8169 7094300
-1766.5614 969.33368 2058.4202 6896922
-1748.901 966.31494 2052.0098 7357473
-1733.0173 964.24255 2047.609 7620645
-1724.187 966.09302 2051.5386 7489315
-1716.1068 968.39313 2056.4229 7226143
-1701.4126 966.9671 2053.3948 6897179
-1687.9716 966.23792 2051.8462 7160608
-1681.7288 969.64856 2059.0889 6765594
-1678.3131 974.75098 2069.9241 7094302
-1658.3168 970.22766 2060.3186 7160352
-1641.5972 967.56854 2054.6719 7620902
-1623.4211 964.00494 2047.1045 6173456
-1615.3492 966.43292 2052.2603 6436629
-1612.5562 972.07971 2064.2515 6502422
-1601.3744 972.71735 2065.6055 6765079
-1588.7426 972.47729 2065.0957 6699542
-1573.2406 970.46289 2060.8181 6172942
-1552.2426 965.00024 2049.218 6699286
-1550.4755 971.50128 2063.0232 6765335
-1532.8416 968.08478 2055.7681 6436627
-1523.2834 969.75464 2059.3142 6567957
-1515.7571 972.75549 2065.6865 6633750
-1496.0808 967.94434 2055.47 6764823
-1491.6573 973.0036 2066.2134 6962460
-1474.9485 970.06647 2059.9763 6962460
-1461.0973 968.97552 2057.6597 6501909
-1451.3647 970.62061 2061.1531 6106894
-1447.0216 975.92847 2072.4246 5975564
-1440.6686 979.96014 2080.9858 6633238
-1422.6117 976.03143 2072.6431 5975565
-1419.8666 982.63092 2086.6575 6764826
-1391.3563 971.35889 2062.7207 6501908
-1377.7911 970.41309 2060.7124 6501910
-1371.9779 974.95917 2070.3662 6501398
-1354.7649 971.41327 2062.8364 6370324
-1331.6675 963.54498 2046.1278 6436117
-1325.8976 968.185 2055.981 6370068
-1325.0861 976.56519 2073.7766 4396805
-1302.5941 968.97473 2057.658 6962461
-1293.3784 971.20996 2062.4045 7620392
-1275.2373 966.72168 2052.8735 6041360
-1262.6826 966.42279 2052.2388 7028255
-1255.116 969.97284 2059.7776 6633497
-1236.459 964.93774 2049.0852 7488806
-1219.6521 961.26074 2041.2771 5843981
-1210.6449 963.71918 2046.4976 6962461
-1202.8109 967.17053 2053.8267 6501911
-1184.3335 962.04681 2042.9463 6568216
-1181.254 969.45428 2058.6763 7225890
-1165.6672 966.64447 2052.7095 6634010
-1152.6688 965.94452 2051.2231 6502424
-1138.644 964.36029 2047.8591 6304787
-1123.4487 961.74005 2042.2948 5844237
-1114.6985 964.64008 2048.4531 6304788
-1102.5891 964.66498 2048.5061 6765595
-1088.3711 962.8252 2044.599 6436630
-1067.5718 955.05621 2028.1014 6765595
-1055.8384 955.31305 2028.6467 6896925
-1050.6354 961.55249 2041.8965 6436375
-1031.4048 954.94977 2027.8752 7357476
-1028.8914 963.85144 2046.7784 6370838
-1003.2227 951.0155 2019.5206 6962718
-1000.8937 960.26172 2039.1555 6634010
-987.65143 959.13568 2036.7643 7226147
-972.93982 956.53729 2031.2466 6041872
-964.15839 959.77704 2038.1262 6831132
-952.13593 959.83173 2038.2424 6502423
-936.01904 955.70728 2029.484 6896925
-930.45453 962.39001 2043.675 6304788
-915.91376 959.84229 2038.2648 6370581
-903.53033 959.5174 2037.5748 6173459
-884.70117 952.24591 2022.1335 6502167
-871.18475 950.57159 2018.5782 6436374
-857.1496 948.27692 2013.7052 6436630
-847.23828 950.54382 2018.5193 7094304
-830.40143 944.99469 2006.7354 6502171
-817.91797 944.3103 2005.2821 6041619
-809.75214 948.66412 2014.5275 6238998
-798.41223 949.37396 2016.0349 6239000
-785.67133 948.41425 2013.9968 5975827
-777.58228 953.12695 2024.0045 6107157
-768.14691 956.3111 2030.7662 6107157
-753.88525 953.49249 2024.7806 5646863
-739.70459 950.68683 2018.8228 5581068
-728.58606 951.78912 2021.1636 6304534
-712.69238 946.58594 2010.1145 6370839
-703.76672 950.6181 2018.6769 7028768
-690.29047 948.53662 2014.2567 5976080
-677.14081 946.8385 2010.6509 6700057
-664.44006 945.71863 2008.2726 6436629
-655.27222 949.67798 2016.6805 6634007
-643.94397 950.59534 2018.6285 6634010
-628.70935 945.67157 2008.1729 6897181
-615.41626 943.53455 2003.6346 7489318
-601.79193 940.79565 1997.8185 5515017
-591.49048 943.24579 2003.0215 5778190
-579.30194 942.7254 2001.9163 6501913
-567.02905 942.04291 2000.4672 6304534
-554.5415 940.96722 1998.1829 5975826
-536.83197 930.79034 1976.5718 5844240
-528.71863 937.16901 1990.1172 5712656
-516.74304 936.83673 1989.4115 5317641
-508.4368 943.29645 2003.129 6041619
-496.32645 942.8385 2002.1566 5646863
-482.73535 939.47656 1995.0173 6370586
-471.94208 941.5274 1999.3724 5580817
-458.53091 938.32678 1992.5757 5449234
-446.41333 937.67395 1991.1895 6436379
-430.94336 929.75299 1974.369 6239000
-418.30234 927.66382 1969.9325 6436379
-406.90051 928.28156 1971.2444 6304792
-397.12088 932.74609 1980.7249 4725766
-383.35571 927.8363 1970.2988 5844242
-374.97574 936.06134 1987.7649 6962723
-360.79211 929.86218 1974.6007 5910035
-348.47275 928.21326 1971.0991 6765343
-336.54715 927.53503 1969.6591 5778449
-324.44623 926.30768 1967.0526 5712400
-311.68002 923.01868 1960.0684 5383435
-300.60556 924.67889 1963.594 5844242
-288.53244 923.2771 1960.6172 6502172
-277.3125 924.60242 1963.4316 5975571
-265.87711 925.29407 1964.9003 6041364
-253.88905 924.03766 1962.2322 6173207
-243.27788 927.91223 1970.4601 6041620
-231.08946 925.85834 1966.0985 5909778
-218.88445 923.51636 1961.1251 5515020
-208.06403 927.08099 1968.6948 6369816
-195.84462 924.46539 1963.1406 5975058
-184.50935 925.95667 1966.3073 5975058
-172.89207 926.13812 1966.6926 5777680
-160.50488 921.92352 1957.7428 6040851
-150.57637 932.27502 1979.7245 6369816
-137.80122 925.26172 1964.8315 5383178
-125.76218 922.35291 1958.6545 4988169
-114.08857 921.80511 1957.4912 7620396
-102.94449 925.89594 1966.1783 5712656
-90.753716 920.41559 1954.5405 4528129
-79.264732 921.4903 1956.8229 5514764
-67.681458 921.64954 1957.1609 5580300
-55.800087 916.97571 1947.236 5580557
-44.154381 914.74768 1942.5045 5514507
-32.799828 919.10693 1951.7616 5514766
-21.250654 919.79053 1953.2134 4922629
-9.7107658 922.99231 1960.0125 5514767
1.9098448 926.26581 1966.9637 4922887
13.453769 918.67767 1950.8501 5120010
24.97036 917.09912 1947.4979 4791301
36.447838 915.53601 1944.1786 4593924
47.81144 912.55017 1937.8381 6041367
58.896656 906.43634 1924.8551 5646353
70.688797 911.42102 1935.4402 5251595
82.636566 916.74048 1946.7363 5054473
93.720177 912.34436 1937.401 5186059
105.51379 915.06525 1943.1788 4988680
116.41251 910.25336 1932.9607 6238747
128.02582 911.39056 1935.3755 5778709
139.49492 911.39844 1935.3923 5450000
151.08365 912.1275 1936.9406 5186828
160.7919 902.20221 1915.8638 4923657
174.03445 912.10931 1936.9017 5647123
185.07619 909.96948 1932.3579 5383951
195.92166 907.17047 1926.4139 5778965
206.94412 905.45386 1922.7688 5844759
219.87436 911.82812 1936.3048 5318414
231.01183 910.50415 1933.4933 5120781
242.77875 911.66907 1935.9669 5844759
252.98456 907.13104 1926.3302 5778966
263.7995 905.07471 1921.9636 6107161
276.3309 908.83392 1929.9465 4922632
289.32941 913.76971 1940.4277 4593671
298.33301 906.19342 1924.3392 4989451
312.01566 912.8645 1938.5055 5910296
323.61176 913.17401 1939.1627 5186315
330.35468 900.23712 1911.6907 5252623
342.46338 902.29517 1916.0612 4791816
357.37686 911.3739 1935.3402 6502689
365.54111 903.21155 1918.0071 5121036
375.37112 899.53326 1910.1962 4989707
386.81818 899.83185 1910.8302 5318161
400.24356 904.58466 1920.923 5713174
410.95081 903.10138 1917.7731 4857866
421.09842 900.50104 1912.2512 4594440
432.96988 901.62689 1914.642 5778966
444.58246 902.1698 1915.7949 6042139
454.72058 899.76813 1910.6949 4791819
468.733 904.96313 1921.7267 5515539
477.87183 900.72559 1912.728 5450003
489.28342 900.86896 1913.0326 5778711
501.30389 902.10162 1915.6501 4923659
510.76169 898.77026 1908.5759 6173726
521.81018 898.32159 1907.6232 5120782
533.29999 898.63574 1908.2902 5976347
544.85107 899.03784 1909.144 5187088
554.27167 895.97968 1902.65 5778968
565.18848 895.41394 1901.4485 5450260
578.41699 898.46094 1907.9189 5779224
589.61017 898.29034 1907.5566 5713174
598.52032 894.71326 1899.9606 5252367
611.04449 896.57104 1903.9056 5252623
622.09399 896.23688 1903.1962 6700070
633.24384 896.05664 1902.8134 5515540
636.59058 885.0343 1879.407 5647638
649.38062 887.29401 1884.2056 5647382
659.53528 885.93726 1881.3245 5910297
673.93311 890.23065 1890.4417 6173726
685.64935 890.89941 1891.8617 6239519
698.17041 892.57544 1895.4209 5976090
709.91681 893.22375 1896.7976 5712918
719.23499 890.84424 1891.7445 5515539
726.93805 886.56805 1882.6638 5515796
740.45459 889.40399 1888.6862 5581589
747.75696 884.80225 1878.9143 5976347
757.42194 883.09039 1875.2789 5778968
772.96777 888.18536 1886.0984 5910298
783.7204 887.70587 1885.0802 5186577
789.78058 881.99963 1872.9628 5647128
799.79504 880.80634 1870.4287 5186576
808.79883 878.54761 1865.6323 4791819
829.46954 888.85229 1887.5145 5252626
832.92712 880.68256 1870.1659 4331012
843.19586 879.83447 1868.3649 5317906
852.39716 877.909 1864.2761 5317906
864.95709 879.44775 1867.5436 5186320
876.03027 879.45496 1867.559 4265988
885.31433 877.68835 1863.8076 5647384
896.53149 877.85815 1864.1681 4923919
913.46954 883.55725 1876.2704 6832173
925.78717 884.70392 1878.7054 5056019
935.17981 883.06146 1875.2177 4924689
943.73676 880.67773 1870.1555 5056017
952.46472 878.5069 1865.5458 5384469
958.78912 874.19458 1856.3883 4199939
973.08521 877.16589 1862.6981 4200198
1000.6652 891.91077 1894.0094 4792076
999.22192 880.74652 1870.3016 5318419
1010.3042 880.74652 1870.3016 5516055
1022.5532 881.7525 1872.438 5121297
1029.2604 878.00964 1864.4897 4923918
1037.2437 875.4231 1858.9972 6305572
1049.3538 876.33746 1860.9388 4660492
1058.3502 874.65942 1857.3755 4989969
1068.7615 874.17322 1856.3429 5187348
1077.2789 872.16364 1852.0757 5252886
1089.5944 873.23859 1854.3583 7160882
1092.3867 866.73596 1840.5498 4793104
1115.1943 876.08582 1860.4044 4266759
1127.9227 877.41199 1863.2206 5187607
1138.885 877.35168 1863.0928 4398092
1143.9706 872.80908 1853.4462 4529677
1151.2845 870.0368 1847.5591 4727056
1152.3846 862.66516 1831.9052 4529932
1169.6421 867.41345 1841.9883 5253654
1185.3051 870.90228 1849.3971 3806467
1192.2535 867.98303 1843.1978 4200712
1209.8149 872.77289 1853.3694 4661518
1218.7416 871.30353 1850.2491 4727310
1232.6261 873.37317 1854.6442 5384984
1242.2394 872.40668 1852.5918 5187861
1239.5453 862.88959 1832.3817 4529931
1264.8907 872.88745 1853.6127 4989971
1260.8771 862.62738 1831.8248 5122069
1279.5081 867.90228 1843.0264 5056277
1292.033 868.98126 1845.3176 4859155
1310.1002 873.73834 1855.4196 4266763
1318.0931 871.75348 1851.2046 3806469
1313.406 861.48431 1829.3976 4201225
1328.5219 864.26599 1835.3047 4266761
1342.8923 866.52155 1840.0945 4990741
1354.105 866.7196 1840.5149 4069127
1365.8843 867.27429 1841.6927 5187607
1367.8766 861.65503 1829.7601 4990484
1392.8112 870.4624 1848.4629 4661776
1381.6279 856.73596 1819.3142 4793360
1392.8529 857.00964 1819.8954 4924947
1404.283 857.40442 1820.7336 5385754
1418.368 859.40173 1824.9752 4924691
1448.2976 870.89655 1849.3848 4727312
1446.114 863.05334 1832.7295 4793362
1456.9738 863.05334 1832.7295 4332554
1467.1964 862.67883 1831.9342 5188119
1485.203 866.85291 1840.7981 4464399
1501.343 869.8847 1847.2362 4859157
1510.5099 868.86151 1845.0635 4859157
1502.335 857.94965 1821.8916 4595728
1514.7579 858.87244 1823.8512 4332813
1516.8416 853.9613 1813.4221 4530192
1529.3262 854.93359 1815.4868 5253658
1537.7896 853.6601 1812.7826 4464399
1550.7719 854.89539 1815.4058 4727828
1561.1252 854.67438 1814.9364 4003848
1567.9547 852.54047 1810.405 4595985
1576.6974 851.46857 1808.1288 4267277
1590.1432 852.93396 1811.2406 4333069
1604.7216 854.98303 1815.5919 3872521
1616.7716 855.66687 1817.0439 4069899
1606.7589 844.74219 1793.8451 4793621
1612.3566 842.11438 1788.2646 3806725
1621.7407 841.48547 1786.9292 5254685
1626.5702 838.51672 1780.6249 5715495
1643.4562 841.76141 1787.5153 4400921
1646.7054 838.02484 1779.5803 3744024
1658.8752 838.8465 1781.3253 3351834
1697.832 853.11768 1811.6306 4538420
1702.0549 849.86621 1804.7261 4407866
1709.5839 848.29596 1801.3915 4145465
1734.0518 855.09796 1815.8358 4079675
0 0 0 0
0 0 0 0
0 0 0 0
0 0 0 0
0 0 0 0
0 0 0 0
0 0 0 0
0 0 0 0
0 0 0 0
0 0 0 0
0 0 0 0
-1791.2607 981.69806 2058.7712 7423266
-1774.0522 978.93372 2052.9741 7226143
-1745.0178 969.56067 2033.3173 6831385
-1740.9603 974.03131 2042.693 7028765
-1712.6904 964.92334 2023.5922 7291938
-1693.306 960.72839 2014.7947 7423267
-1696.0242 969.10315 2032.3578 6896923
-1679.908 966.75879 2027.4414 6830874
-1665.4261 965.328 2024.4408 7028253
-1665.7997 972.54956 2039.5854 6830874
-1648.2408 969.33051 2032.8347 6436628
-1632.7103 967.26587 2028.5048 6831130
-1615.3546 964.08118 2021.826 7291937
-1593.9969 958.44257 2010.0011 7423011
-1602.7163 970.94019 2036.2104 5976076
-1589.4132 970.18469 2034.626 6238992
-1579.6228 971.57812 2037.5482 7028765
-1556.0571 964.45514 2022.6101 7555109
-1548.4324 967.17841 2028.3213 6502421
-1531.1862 963.88757 2021.42 6107406
-1529.9615 970.71014 2035.7279 6502421
-1521.4761 972.99768 2040.5253 6831129
-1507.0162 971.47052 2037.3226 6699544
-1493.4967 970.52997 2035.35 6173200
-1484.2111 972.34766 2039.162 6765081
-1476.924 975.51526 2045.8049 6764824
-1461.1691 973.09601 2040.7316 6699287
-1449.2075 973.18372 2040.9153 6370323
-1442.4202 976.77673 2048.4504 6238480
-1462.2351 998.59814 2094.2134 6501910
-1423.6085 980.54028 2056.3433 6633240
-1407.9116 978.10022 2051.2261 6830617
-1392.1689 975.58563 2045.9526 6896410
-1382.5616 977.36414 2049.6824 7883562
-1365.1758 973.62653 2041.8441 7686185
-1336.2646 961.52887 2016.4735 7094048
-1322.1868 959.98285 2013.2312 6238739
-1313.5885 962.42328 2018.3491 6304531
-1312.8491 970.71948 2035.7474 5646603
-1285.4373 959.26501 2011.7258 6304532
-1294.0636 974.74152 2044.1824 6370324
-1283.3652 975.81689 2046.4376 6830876
-1258.8855 966.33405 2026.5505 6501654
-1241.0662 961.83032 2017.1056 5909517
-1230.2135 962.69067 2018.9099 5975311
-1216.2842 961.13672 2015.651 5712138
-1202.7256 959.84796 2012.9481 6501910
-1204.601 970.97369 2036.2808 7027998
-1181.8647 962.28577 2018.0608 5976080
-1175.1324 966.58392 2027.0746 6962975
-1153.6019 958.67316 2010.4845 6634010
-1146.8943 963.04407 2019.6509 6173459
-1137.5286 965.25153 2024.2804 6305044
-1114.0017 955.36157 2003.5397 6305045
-1110.9034 962.96674 2019.4889 5910030
-1098.6844 962.74524 2019.0244 6502167
-1081.6248 958.23059 2009.5563 6897181
-1071.9436 960.22485 2013.7386 6699803
-1055.4551 956.09741 2005.0829 7094561
-1045.609 957.96173 2008.9926 6962718
-1025.9788 950.80157 1993.9767 5712909
-1016.7793 953.25378 1999.1194 6765596
-1010.3499 958.39148 2009.8938 6370837
-1000.5844 960.44952 2014.2098 6634011
-990.04266 961.80304 2017.0483 6370838
-972.76624 956.56702 2006.0676 7094304
-961.09979 956.78638 2006.5276 6239252
-950.58081 958.16779 2009.4247 5844238
-937.91541 957.39331 2007.8005 6172946
-922.8252 954.09186 2000.877 5515274
-915.45093 958.78583 2010.7207 6633753
-905.18317 960.53296 2014.3849 6305045
-889.72247 956.74286 2006.4364 5910286
-876.58917 955.38678 2003.5924 6305045
-862.8902 953.36823 1999.3594 6436376
-847.3728 949.25653 1990.7365 6699292
-836.17566 949.93677 1992.163 6765341
-824.39111 949.95953 1992.2108 6765341
-809.95917 946.88818 1985.7697 6173204
-800.21454 949.28674 1990.7997 6041619
-789.53967 950.6369 1993.6313 6962466
-777.0592 949.82111 1991.9205 5712656
-764.17786 948.48267 1989.1134 5975828
-754.11682 950.65753 1993.6746 6304792
-741.41779 949.52313 1991.2955 5646863
-730.69727 950.92706 1994.2397 6238998
-716.64636 947.97156 1988.0416 6831135
-708.12799 952.35803 1997.2408 5712652
-688.18927 941.27344 1973.9946 6173458
-685.68402 954.06244 2000.8151 6238995
-672.57416 952.28656 1997.0909 7028509
-658.85175 949.56433 1991.382 6699545
-647.37622 950.0401 1992.3798 6567958
-634.32288 948.17505 1988.4685 6436630
-620.17139 944.56696 1980.9016 6633753
-613.22589 952.00641 1996.5034 5712655
-594.17059 940.56891 1972.5172 5186311
-583.89398 942.84796 1977.2968 6172950
-569.39557 938.26343 1967.6823 6238999
-557.83307 938.42639 1968.0239 5712654
-544.81628 936.09741 1963.1398 5844240
-534.28986 938.03918 1967.2119 4988676
-518.42432 930.48462 1951.3689 6436376
-511.62823 939.23505 1969.7198 6107412
-497.05096 933.776 1958.2712 5975569
-484.01776 931.02594 1952.5042 7094053
-477.74655 941.46667 1974.4 5910805
-463.19754 935.70959 1962.3264 6766370
-451.73749 936.0567 1963.0544 6107670
-439.48117 934.72858 1960.2692 5712656
-426.1528 930.98633 1952.421 6370586
-412.94565 927.3075 1944.7058 5383691
-402.01282 928.67114 1947.5658 6304793
-390.00906 927.56848 1945.2533 7357224
-379.08017 929.0329 1948.3243 6633501
-368.31967 931.01483 1952.4808 5843985
-356.64465 930.73877 1951.9019 6173207
-345.14331 930.9126 1952.2664 6501915
-332.39542 927.61987 1945.361 5844242
-320.87881 927.64996 1945.4241 5778194
-308.65454 925.5603 1941.0419 6172950
-296.50009 923.52643 1936.7765 6107413
-285.04285 923.58783 1936.9052 5975828
-274.13583 925.5119 1940.9403 5778192
-262.91138 926.48596 1942.983 6173207
-249.05547 917.85126 1924.8748 5910035
-239.36635 924.4809 1938.7781 5778448
-228.57646 927.31329 1944.7181 6172950
-215.1071 918.99884 1927.2815 5712399
-205.4454 926.9317 1943.9177 5975058
-192.81889 921.6355 1932.8109 5646349
-180.66812 918.08813 1925.3715 5843472
-169.58255 919.84015 1929.0459 5514764
-157.46513 915.84424 1920.6658 5120007
-147.22183 922.9751 1935.6201 5120005
-136.1982 926.00525 1941.975 5909265
-124.33321 923.34662 1936.3993 5712912
-113.36797 927.50836 1945.1273 5712656
-100.55086 915.74683 1920.4614 6239000
-89.226585 916.31409 1921.651 5449227
-78.093086 919.29303 1927.8983 5975315
-66.43576 916.06976 1921.1387 7028516
-55.163921 917.9281 1925.0359 5712143
-43.76693 918.12988 1925.4591 5120008
-32.243542 914.88763 1918.6595 5251337
-20.778269 910.66071 1909.795 5909266
-9.4543428 909.92688 1908.2562 5317645
1.8588471 912.87598 1914.4409 5712402
13.176322 911.05371 1910.6193 4725509
24.459606 909.6441 1907.6631 5580816
35.819511 911.07446 1910.6627 5383182
47.157383 911.39197 1911.3286 4725510
58.611225 913.39374 1915.5266 4988680
69.608223 908.78162 1905.8542 5580560
80.810699 907.76532 1903.7229 5317388
92.480095 911.60046 1911.7659 5515024
103.78391 911.38824 1911.3208 5186059
115.06982 911.07605 1910.666 6304283
126.00576 908.29706 1904.8381 5712916
137.52222 909.81549 1908.0226 5581330
148.72606 909.1922 1906.7155 5186830
159.69511 907.32306 1902.7954 5581586
171.06958 907.85168 1903.9042 5449745
183.26971 912.42572 1913.4967 4792075
193.63208 907.8504 1903.9014 4331012
205.04984 908.45459 1905.1686 5317904
217.46437 913.1814 1915.0814 4725512
227.78651 909.08875 1906.4984 5843732
239.82121 911.89465 1912.3828 6436126
249.61391 906.30701 1900.6647 6370590
263.36948 914.96912 1918.8306 5910295
273.02524 909.26074 1906.8591 5186828
284.3877 909.46399 1907.2854 5186572
295.93271 910.21313 1908.8564 4857864
307.65897 911.44415 1911.4381 6107931
319.22958 912.14301 1912.9037 5713172
329.40005 908.93042 1906.1664 6765604
341.86166 912.0434 1912.6947 5054733
352.5448 910.36395 1909.1727 5646611
361.99667 905.70837 1899.4093 4528131
372.16995 903.08417 1893.9059 5054731
383.83539 904.1283 1896.0956 4396546
396.56339 907.5448 1903.2605 5843991
403.66901 898.26117 1883.7914 5515281
412.76495 893.78693 1874.4081 5844758
427.49142 901.41986 1890.4156 6041881
440.2533 904.62616 1897.1398 5384208
445.56436 892.74408 1872.2212 6042138
459.04517 897.41089 1882.0081 4857867
473.13419 903.01715 1893.7653 5910555
485.03052 904.27551 1896.4043 5647126
496.27802 904.2948 1896.4448 5713175
504.24155 898.46167 1884.2119 5383953
516.26794 899.96387 1887.3622 5976091
529.64233 903.70227 1895.2021 5120781
537.47858 898.0321 1883.3109 5252367
550.48615 901.05731 1889.6553 6042140
556.13025 892.14929 1870.9739 5384210
568.03369 893.43475 1873.6696 5186831
579.78284 894.43268 1875.7625 5450003
589.88605 892.90161 1872.5515 6107676
602.26233 894.80432 1876.5419 5449746
612.1701 893.03699 1872.8354 5186831
624.98901 895.50378 1878.0087 5778712
633.86316 892.33105 1871.3549 5252623
641.46655 887.50903 1861.2426 5054988
654.41919 890.12616 1866.731 5383439
665.43042 890.05927 1866.5908 5055245
675.40283 888.62805 1863.5891 6436897
685.50311 887.4082 1861.0311 6305311
700.14056 892.00775 1870.6769 5976347
710.53088 891.13708 1868.851 6700069
721.31012 890.77338 1868.0883 5713174
731.64838 889.8844 1866.2239 5252367
740.26526 886.95941 1860.0898 5515796
751.25897 886.92621 1860.0203 5515796
762.6192 887.32056 1860.8472 5449492
771.80969 885.21503 1856.4315 5647128
776.96173 878.60187 1842.5627 4989197
790.36133 881.36932 1848.3666 5383956
802.54382 882.72235 1851.2041 4462853
819.2774 888.97736 1864.3217 5120784
824.18945 882.40912 1850.5472 5318163
837.02667 884.38702 1854.6952 5318162
850.01569 886.47205 1859.0677 5383955
860.36121 885.78198 1857.6206 5976093
873.07794 887.51978 1861.265 6436644
877.35217 880.73926 1847.0452 5121297
886.18286 878.64343 1842.65 5450005
905.18091 886.55682 1859.2455 5384470
920.2821 890.50909 1867.5339 4727567
927.73541 887.05493 1860.2902 5779997
932.60602 881.24139 1848.0983 5451032
934.7569 873.02277 1830.8624 4398087
947.17786 874.47437 1833.9069 4595209
960.40436 876.62842 1838.4242 4989711
979.7818 884.28564 1854.4824 3937795
986.08752 880.10608 1845.7173 4727309
1002.2145 884.68774 1855.3257 6371364
1010.027 881.91022 1849.5009 5121298
1022.8762 883.54285 1852.9247 4463366
1025.5302 876.42798 1838.0038 5252627
1031.3186 872.1131 1828.9548 4858126
1043.4058 873.15906 1831.1483 4924175
1050.9061 870.38458 1825.3297 4990482
1064.2124 872.42621 1829.6116 5319446
1078.1825 874.96533 1834.9365 5648154
1089.3304 875.18652 1835.4003 5450775
1103.1896 877.55994 1840.3777 4858897
1106.6139 871.66748 1828.0203 5450777
1120.2958 873.89075 1832.6827 5450777
1130.5894 873.45374 1831.7662 5516313
1140.3013 872.57971 1829.9335 5252883
1148.6649 870.70026 1825.9919 4727311
1156.0829 868.14575 1820.6348 5056019
1172.3357 872.21161 1829.1614 4661518
1193.9417 880.14917 1845.8076 3937797
1207.1321 881.79504 1849.2594 3279872
1215.4152 879.85889 1845.199 3542785
1215.5497 872.11096 1828.9504 3937541
1228.7201 873.7702 1832.4299 4463883
1236.738 871.76843 1828.2319 3675140
1253.4296 875.86212 1836.8171 3609091
1265.9946 877.02686 1839.2596 5517088
1267.1436 870.33051 1825.2163 2951680
1277.1721 869.7948 1824.0929 4727568
1285.0883 867.84143 1819.9966 4530190
1297.8107 869.13947 1822.7188 3609093
1306.5647 867.78046 1819.8685 3938055
1318.4496 868.50592 1821.39 5056280
1334.172 871.72711 1828.1454 3609348
1342.9016 870.3642 1825.2871 4332556
1349.1853 867.45044 1819.1766 5122072
1358.8257 866.72394 1817.653 4464400
1364.2415 863.33545 1810.5468 3609091
1373.9832 862.71594 1809.2477 4924949
1371.2828 854.35437 1791.712 4332555
1403.8984 867.9552 1820.2351 4661775
1404.203 861.52466 1806.7493 4595984
1418.4885 863.70441 1811.3206 4924948
1436.9462 868.37268 1821.1106 3674883
1447.5973 868.28888 1820.9348 4661006
1591.3368 947.44391 1986.9352 5121557
1491.0592 881.22144 1848.0564 4529679
1482.1228 869.55396 1823.5879 4530192
1488.5481 867.00275 1818.2375 4858900
1499.3219 867.00275 1818.2375 4661778
1507.9135 865.74976 1815.61 4595985
1498.0577 853.99841 1790.9655 4003848
1486.3595 841.36932 1764.4805 4726801
1513.8212 850.92877 1784.528 4397837
1529.4296 853.73901 1790.4215 3674115
1546.4592 857.2984 1797.8861 4595729
1560.3 859.05341 1801.5667 4595985
1560.1592 853.13898 1789.1632 4859157
1576.0913 856.03418 1795.2349 4793364
1580.8278 852.85065 1788.5585 4595985
1590.3296 852.26331 1787.3267 4924950
1607.0967 855.55133 1794.2223 4201484
1600.8704 846.63593 1775.5253 4662035
1608.2662 844.99414 1772.0822 4070156
1615.7092 843.39825 1768.7354 4597268
1612.561 836.3299 1753.9119 3874061
1638.3627 844.27039 1770.5643 4269851
1646.4949 843.06232 1768.031 2432529
1660.8574 845.03973 1772.1779 4407862
1679.8949 849.35577 1781.2292 4342074
1691.0078 849.63641 1781.8177 4145468
1701.5496 849.62836 1781.8009 4145211
0 0 0 0
0 0 0 0
0 0 0 0
0 0 0 0
0 0 0 0
0 0 0 0
0 0 0 0
0 0 0 0
0 0 0 0
0 0 0 0
0 0 0 0
-1775.3143 985.04901 2040.4432 7225888
-1750.031 977.67865 2025.1761 6962972
-1727.1251 971.54382 2012.4685 7028508
-1711.9713 969.71472 2008.6796 6963228
-1703.2883 971.55109 2012.4834 8410161
-1688.9702 970.17621 2009.6355 6370834
-1674.3779 968.62335 2006.4189 6831386
-1662.4891 968.62335 2006.4189 6765594
-1655.7094 971.62152 2012.6294 6831130
-1635.7336 966.86322 2002.7729 6502422
-1619.5591 964.29858 1997.4604 7686696
-1610.3419 965.86926 2000.714 7291938
-1590.8152 961.23364 1991.1118 6107664
-1592.2288 969.27637 2007.7715 7226144
-1585.5238 972.46069 2014.3677 6896923
-1582.6333 978.05078 2025.9469 6305042
-1559.4803 971.10852 2011.5667 7094559
-1547.8536 971.29211 2011.9469 7291681
-1532.8939 969.37091 2007.9673 6633751
-1518.6339 967.86536 2004.8489 6765337
-1504.892 966.66907 2002.3708 6567958
-1502.256 972.64441 2014.7482 6238993
-1493.7676 974.89587 2019.4119 6962716
-1471.5472 968.14935 2005.437 5646600
-1485.0378 984.97888 2040.298 6633495
-1456.8385 974.20612 2017.983 6699288
-1454.5464 980.72284 2031.4819 6699287
-1443.5358 981.42084 2032.9279 6962460
-1417.6593 971.93872 2013.2864 6765081
-1410.6125 975.3147 2020.2795 6897179
-1405.0153 979.75922 2029.486 7291937
-1382.3762 972.29425 2014.0228 6962715
-1368.8193 971.14276 2011.6377 5975821
-1347.7932 964.62531 1998.1373 5449222
-1336.0811 964.71741 1998.3281 6041103
-1324.2383 964.71613 1998.3253 6172945
-1316.0361 967.39087 2003.8658 6501654
-1308.2476 970.42108 2010.1427 6107152
-1287.5889 963.87256 1996.5781 6435861
-1283.5835 969.78467 2008.8245 6304532
-1268.5668 967.41022 2003.906 7291427
-1263.1091 972.34961 2014.1375 6567703
-1251.2589 972.41516 2014.2733 6304531
-1232.7229 967.23596 2003.5452 6238738
-1215.1149 962.69147 1994.1316 6830875
-1209.2544 967.45618 2004.0011 5975567
-1198.3083 968.20636 2005.5552 6567447
-1177.1417 960.6308 1989.8632 6765082
-1169.9691 964.43762 1997.7485 6436117
-1161.7655 967.46381 2004.017 6436629
-1149.9216 967.48956 2004.0704 6370580
-1134.2976 964.30237 1997.4684 5976079
-1122.8571 964.64197 1998.1718 6305046
-1108.1128 962.1203 1992.9484 5647115
-1096.9429 962.68121 1994.1102 5975823
-1086.8453 964.20569 1997.2681 6765596
-1074.0803 963.37115 1995.5394 7357732
-1052.5746 954.59106 1977.3523 7423525
-1039.3888 953.24359 1974.561 6436630
-1029.9312 955.32361 1978.8696 6633753
-1022.2745 959.14136 1986.7777 6173458
-1008.5216 957.26147 1982.8838 7094561
-999.03027 959.42999 1987.3757 7094561
-984.68573 956.93396 1982.2052 6699803
-973.1864 957.17584 1982.7064 5975567
-964.72308 960.44629 1989.4808 5383431
-950.487 957.97949 1984.371 6238485
-937.69611 956.92548 1982.1879 6106899
-926.65021 957.64819 1983.6849 7028254
-913.85931 956.56311 1981.4371 5778447
-904.02386 958.58344 1985.6221 6173458
-893.62909 960.05615 1988.6726 6107922
-880.52618 958.61987 1985.6976 6305045
-865.88812 955.45081 1979.1332 5778189
-854.83905 956.20935 1980.7045 6238998
-836.21136 948.39368 1964.5149 7028514
-830.92297 955.69971 1979.6487 6567963
-816.55597 952.62347 1973.2766 6699293
-802.78546 950.16388 1968.1818 5778446
-794.37903 954.07434 1976.2819 6041362
-784.47797 956.27972 1980.8502 5975827
-767.8703 950.25256 1968.3655 7291688
-756.74139 950.92426 1969.7567 6633758
-739.2663 943.51727 1954.4138 6107413
-730.73273 947.4682 1962.5978 5975572
-716.83606 944.48059 1956.4093 5712655
-707.13751 947.01703 1961.6633 6567963
-694.88544 946.16138 1959.8909 5778446
-681.07166 943.11395 1953.5785 5581323
-669.0528 942.48987 1952.2855 6173202
-658.63428 944.13763 1955.6989 6896925
-647.20502 944.36975 1956.1797 6041360
-635.13184 943.6535 1954.6962 6107152
-623.96161 944.27728 1955.9882 6897181
-617.75189 952.57355 1973.1732 6568217
-599.94592 942.96387 1953.2675 6238998
-587.41895 941.43634 1950.1033 6173204
-572.79285 936.41583 1939.7039 5843729
-562.2464 937.99591 1942.9767 5186313
-549.17963 935.34943 1937.4949 6107155
-537.74512 935.42926 1937.6603 6502169
-525.52716 934.12012 1934.9484 7685931
-513.95422 933.92456 1934.5435 6502423
-505.68103 939.85303 1946.8236 6238996
-493.88361 939.35529 1945.7926 6502169
-481.50235 937.69666 1942.3569 6107412
-470.63385 938.97504 1945.0051 5712656
-458.41898 937.56396 1942.0822 5844242
-445.24246 934.06281 1934.8297 5975828
-430.53955 927.08978 1920.3857 6239000
-422.2243 933.86633 1934.4227 6765344
-410.42035 933.08936 1932.8134 6239000
-396.50357 927.32654 1920.8761 5515020
-385.97574 929.38312 1925.1362 6304793
-374.66876 929.63184 1925.6514 5778448
-365.64539 935.74017 1938.3043 5515277
-353.13226 933.02435 1932.6787 5843985
-343.03912 936.73468 1940.3643 6831136
-326.54144 922.60706 1911.1001 5910035
-318.90851 933.41052 1933.4786 6765344
-302.03857 916.97601 1899.4359 5054730
-292.98489 923.91748 1913.8146 6567965
-280.57208 920.39862 1906.5256 6107414
-268.05353 916.22302 1897.8762 6107414
-257.34848 918.15179 1901.8716 6304792
-246.07381 918.13208 1901.8306 6107414
-235.68845 921.58759 1908.9885 6238999
-223.98663 919.98468 1905.6681 6107157
-213.07841 921.64392 1909.1051 6238743
-201.73062 921.48145 1908.7686 6699550
-190.9671 924.12701 1914.2487 5976084
-179.53635 923.67401 1913.3102 6304793
-168.21887 923.78198 1913.5338 6567708
-156.51726 921.64343 1909.1041 5778449
-145.51506 923.61121 1913.1802 5778449
-133.79527 920.97192 1907.7131 5317898
-122.62091 921.94629 1909.7314 5186057
-111.37347 922.51367 1910.9067 5844243
-100.03757 922.39368 1910.6581 5251848
-88.642311 921.62585 1909.0677 5317641
-77.011909 917.83112 1901.2072 5515277
-65.526329 914.75739 1894.8403 4331009
-54.730568 922.03412 1909.9135 5778195
-43.138535 916.19299 1897.814 5712657
-31.867229 915.44611 1896.267 5317643
-20.686167 917.89026 1901.3297 4857093
-9.4595451 921.74103 1909.3063 6304541
1.8435954 916.63666 1898.733 4659721
13.091846 916.46143 1898.3699 5843991
24.202442 911.26508 1887.6063 5185802
35.254795 907.85376 1880.5399 5054474
46.679699 913.37054 1891.9677 4330498
57.646675 909.5257 1884.0033 6172954
68.624237 907.06836 1878.9131 4396546
79.175789 900.45209 1865.208 6634018
91.629036 914.43512 1894.1727 4462854
102.35503 910.00983 1885.0061 5121036
112.91859 905.15332 1874.9463 5581330
125.10025 912.97559 1891.1494 5712916
136.08992 911.52783 1888.1506 5581330
148.50276 919.10822 1903.8527 4397576
159.58092 917.94092 1901.4347 5318415
169.45804 910.47455 1885.9688 5318414
179.01729 902.3299 1869.0977 5844758
190.9169 906.24341 1877.2042 5450000
201.27272 902.80133 1870.0743 5515793
211.63011 899.72528 1863.7026 4923401
223.01747 901.11591 1866.5831 6371103
237.38475 913.84674 1892.954 5515794
246.48259 906.05859 1876.8215 5186832
259.36679 912.26056 1889.6683 4791816
269.83005 909.7865 1884.5435 5054988
283.03174 916.37518 1898.1914 4528645
294.48788 917.02484 1899.5371 4726279
304.87402 914.41724 1894.1356 4923659
317.77213 919.2616 1904.1703 4660743
325.67249 909.81183 1884.5958 5317902
336.92038 910.03021 1885.0483 5055242
346.49576 905.86224 1876.4147 5384208
358.62823 908.43073 1881.7351 5712917
367.36063 902.49127 1869.432 5121035
377.88382 901.17023 1866.6957 5515794
393.01974 910.61194 1886.2533 4923659
401.84662 905.31775 1875.2869 5121036
412.97336 905.35046 1875.3545 5317902
419.8667 896.34375 1856.698 5778965
432.27847 899.27716 1862.7744 5581587
442.3027 897.22144 1858.516 5713429
455.10388 900.76178 1865.8495 3674370
465.85123 900.16553 1864.6145 10650187
480.38718 906.74799 1878.2495 9598775
487.16406 898.71863 1861.6173 7492632
498.88266 899.95923 1864.1873 8215336
511.07599 901.98407 1868.3813 5911564
522.87115 903.23523 1870.9731 4726795
533.42053 902.32703 1869.0918 5515794
543.12567 900.05664 1864.3889 5186830
550.6236 894.29205 1852.4481 5515283
563.80182 897.79803 1859.7104 5186831
575.3241 898.58325 1861.337 4988682
584.76587 896.15063 1856.2979 5383440
594.85211 894.77722 1853.4531 4922632
606.85291 896.28125 1856.5685 5778711
618.1308 896.68304 1857.4008 5976347
623.82635 889.11444 1841.7233 5647382
637.08966 892.4068 1848.5428 5581589
651.34503 896.95398 1857.9619 5976347
660.04425 893.82581 1851.4823 5317647
667.33484 888.92358 1841.3278 5712405
680.49451 891.87128 1847.4336 5383696
691.77435 892.30084 1848.3235 5910296
700.62311 889.63007 1842.7913 5515539
708.29681 885.5722 1834.3857 4923403
723.39276 890.77661 1845.1663 4528903
730.6416 886.30713 1835.9081 4660233
740.21722 884.74994 1832.6824 4331272
749.92749 883.3963 1829.8784 4988942
758.85999 881.17816 1825.2837 5186577
768.40619 879.72485 1822.2734 4857356
784.28534 885.46185 1834.157 5252370
794.38953 884.61115 1832.395 5449748
808.08856 887.73254 1838.8607 5910300
814.20441 882.55115 1828.1278 5120527
835.13129 893.34937 1850.4954 4463113
837.96417 884.76312 1832.7097 4462853
846.021 881.84167 1826.6583 5054734
858.51959 883.56549 1830.229 4726028
870.60608 884.82751 1832.8431 5121040
877.45404 880.79974 1824.5 4924174
888.11639 880.65253 1824.1949 5187092
898.91571 880.64288 1824.175 5055250
912.71497 883.53754 1830.1711 4331527
919.2666 879.43079 1821.6643 5055249
928.71356 878.15692 1819.0256 5056531
936.09839 874.98486 1812.455 5056274
948.7475 876.74963 1816.1105 4332294
963.39685 880.30237 1823.4697 5122067
967.85175 874.56458 1811.5844 4924687
983.88885 879.30359 1821.4008 5055503
995.05713 879.63574 1822.0889 5515799
