# .PCD v0.7 - Point Cloud Data file format
VERSION 0.7
FIELDS x y z rgb
SIZE 4 4 4 4
TYPE F F F U
COUNT 1 1 1 1
WIDTH 1295
HEIGHT 1
VIEWPOINT 0 0 0 1 0 0 0
POINTS 1295
DATA ascii
-1058.2823 1182.0782 2418.8828 1776409
-1043.6305 1181.7169 2418.1436 1644823
-1030.984 1183.6481 2422.0952 1513237
-1015.5988 1182.4449 2419.6331 1842202
-1002.425 1183.819 2422.4448 1776409
-987.85815 1183.5638 2421.9229 1776409
-974.34607 1184.5837 2424.0098 1907995
-959.98035 1184.5807 2424.0034 1776409
-944.60657 1183.3147 2421.4128 1842202
-927.83496 1180.2314 2415.1038 2039581
-914.46155 1181.4423 2417.5813 1973788
-901.1311 1182.7477 2420.2527 1710616
-882.8891 1177.5448 2409.606 1776409
-872.6438 1183.0116 2420.7927 1776409
-857.4906 1181.8965 2418.5107 1710616
-843.51074 1182.3882 2419.5171 1710616
-829.39142 1182.698 2420.1511 1776409
-815.00549 1182.6318 2420.0156 1842202
-800.49805 1182.3839 2419.5083 1776409
-786.32275 1182.6265 2420.0046 1710616
-772.74811 1183.7982 2422.4023 1579030
-756.07605 1180.1794 2414.9973 1842202
-744.73004 1184.895 2424.6467 2171167
-731.13611 1186.1492 2427.2131 2171167
-713.4928 1180.7523 2416.1697 2565925
-701.17853 1184.1342 2423.0898 2697511
-687.11273 1184.6377 2424.1201 2631718
-670.30347 1180.3315 2415.3086 2565925
-655.65649 1179.7281 2414.074 2631718
-642.96234 1182.6902 2420.135 2368546
-630.75629 1186.7053 2428.3513 2434339
-614.55255 1183.2114 2421.2017 2500132
-599.95953 1182.7256 2420.2075 2236960
-587.01514 1185.5455 2425.978 2171680
-574.6814 1189.7714 2434.6252 2105887
-559.62714 1188.4375 2431.8958 1908764
-547.98834 1194.4779 2444.2563 1974301
-533.74164 1195.0074 2445.3398 2171680
-517.01727 1189.8644 2434.8157 2237473
-504.83398 1195.177 2445.6868 2369059
-488.69727 1191.1672 2437.4817 2237217
-475.56314 1194.455 2444.2092 2236960
-459.02939 1189.142 2433.3374 2039581
-444.65219 1189.2524 2433.5635 2105374
-432.54736 1195.6517 2446.6582 2368546
-419.37454 1199.4403 2454.4106 2368546
-401.80115 1190.4629 2436.0403 2500132
-387.14169 1189.7715 2434.6255 2763304
-373.61899 1192.6554 2440.5269 2763304
-358.84961 1191.6317 2438.4321 2500132
-342.58188 1185.3379 2425.553 2171167
-329.28928 1189.2374 2433.5327 2829097
-315.30313 1190.8748 2436.8833 2894890
-299.89609 1187.0452 2429.0466 2631718
-287.83316 1196.7333 2448.8713 2763304
-271.99146 1190.9048 2436.9446 2434339
-258.32697 1194.4901 2444.2812 3092269
-242.40109 1187.4238 2429.8215 3026476
-229.03575 1192.8 2440.823 2631718
-215.38712 1197.3264 2450.085 2565925
-200.74806 1196.6031 2448.6052 2631718
-185.81775 1193.8959 2443.0654 2434339
-170.75023 1189.7753 2434.6333 2434339
-157.5358 1198.9979 2453.5054 2829097
-143.18692 1200.5836 2456.7502 2631718
-128.67973 1201.0508 2457.7063 2566435
-114.55449 1205.657 2467.1321 2698021
-99.199661 1196.7766 2448.96 2368800
-84.955559 1200.5493 2456.6802 2368799
-70.439491 1201.2441 2458.1021 2763304
-55.947823 1202.8259 2461.3389 2631718
-41.386147 1203.4874 2462.6924 2565925
-26.899326 1208.2316 2472.4004 2302753
-12.263897 1209.6654 2475.3345 2500132
2.4107914 1213.359 2482.8926 2434339
17.15979 1215.9711 2488.2378 2697511
32.03204 1220.8666 2498.2554 2631718
46.645809 1215.9296 2488.1526 2565925
61.92659 1226.5752 2509.937 2500132
76.429222 1220.6698 2497.8528 2500132
91.218719 1220.5188 2497.5437 2697511
106.05696 1220.9712 2498.4695 2894890
121.19764 1224.368 2505.4204 2829097
135.91039 1223.1721 2502.9731 2960683
150.75912 1223.3152 2503.2659 2894890
165.8483 1225.2087 2507.1406 2894890
181.01271 1227.301 2511.4221 2894890
196.74722 1232.6472 2522.3621 2697511
212.34964 1236.4694 2530.1833 2565925
228.18228 1241.0396 2539.5352 2500132
243.82629 1244.0818 2545.7605 2500132
264.62561 1271.5411 2601.9504 2565925
272.2619 1236.21 2529.6523 2565925
287.19424 1235.9652 2529.1516 2500132
302.91647 1238.9755 2535.3115 2500132
317.29645 1236.4708 2530.186 2434339
334.35809 1244.1707 2545.9424 2565925
348.95862 1242.4431 2542.4072 2368546
365.86984 1248.7452 2555.3032 2302753
380.83127 1248.156 2554.0977 2434339
395.98166 1248.2075 2554.2029 2302753
411.629 1249.7639 2557.3879 2368546
429.05249 1256.4111 2570.99 2500132
444.08377 1255.8375 2569.8162 2368546
457.24899 1250.1997 2558.2795 2434339
473.28922 1252.5323 2563.0527 2500132
488.39267 1252.3176 2562.6135 2302753
504.19229 1253.8473 2565.7437 2302753
521.70215 1259.416 2577.1389 2302753
534.05804 1252.58 2563.1501 2368546
550.02838 1254.3649 2566.8027 2368546
565.85114 1255.726 2569.5881 2368546
582.52478 1258.8549 2575.9907 2368546
597.86975 1259.0258 2576.3403 2565925
613.07001 1258.8912 2576.0649 2631718
628.50629 1259.2358 2576.7703 2434339
643.72021 1259.1293 2576.5522 2500132
656.91077 1255.1616 2568.4331 2565925
675.18042 1260.8586 2580.0908 2434339
680.75854 1243.1273 2543.8074 2236960
704.82184 1259.1887 2576.6736 2368546
719.48358 1258.1289 2574.5049 2302753
734.42249 1257.5875 2573.3972 2368546
749.6098 1257.485 2573.1875 2434339
761.70709 1252.3064 2562.5906 2236960
776.29297 1251.3417 2560.6165 2302753
794.73291 1256.5074 2571.187 2236960
810.1875 1256.8475 2571.8831 2434339
824.05145 1254.7532 2567.5972 2368546
838.12299 1253.0449 2564.1018 2302753
851.81525 1250.8409 2559.5916 2302753
872.55103 1258.8756 2576.0332 2302753
884.06268 1253.5551 2565.1455 2302753
906.2663 1263.3186 2585.1248 2236960
916.62445 1256.5198 2571.2122 2039581
924.72394 1246.8976 2551.5225 2500132
952.93011 1264.2609 2587.0527 2434339
973.9718 1271.7194 2602.3152 2302753
985.59503 1266.8394 2592.3293 2302753
1000.3558 1266.0803 2590.7761 2302753
1014.7901 1264.9371 2588.4368 2368546
1034.394 1270.1761 2599.1572 2368546
1050.0945 1270.5383 2599.8984 2302753
1068.2462 1273.8131 2606.5996 2236960
1081.0072 1270.6581 2600.1433 2302753
1096.6425 1270.9226 2600.6848 2565925
1110.21 1268.8168 2596.3757 2500132
1125.9342 1269.1997 2597.1592 2565925
1129.5713 1256.1309 2570.4165 2302753
1146.7443 1258.262 2574.7773 2697511
1176.6223 1274.0947 2607.176 2763304
1196.9105 1279.2672 2617.7605 2697511
1215.7445 1282.7732 2624.9346 2829097
1221.4368 1272.4995 2603.9116 2828840
1231.8187 1267.3068 2593.2856 2763302
1258.2649 1278.5656 2616.3245 2697253
1265.7891 1270.5568 2599.936 2762532
1283.014 1272.361 2603.6282 2762018
1289.0757 1263.1833 2584.8479 2828067
1317.3716 1275.7528 2610.5688 3156776
1322.1198 1265.4915 2589.571 3551790
1337.2847 1265.3218 2589.2239 3683119
1351.5677 1264.3311 2587.1965 3683118
1373.7943 1270.7101 2600.2498 3748910
1384.4054 1266.3226 2591.2717 4275254
1410.1522 1275.7244 2610.5107 4736062
1441.6951 1290.1088 2639.9453 5328196
1470.0251 1301.3403 2662.9285 5459782
1481.4379 1297.5161 2655.103 5919820
1495.4884 1296.0585 2652.1201 6248528
1516.3988 1300.5143 2661.238 6708566
1530.5702 1299.1583 2658.4634 6445905
1540.7094 1294.4423 2648.813 6972249
1559.7366 1297.2134 2654.4834 6972248
1577.7961 1299.1324 2658.4104 7103835
1599.936 1304.34 2669.0667 7235421
1617.3224 1305.6084 2671.6621 7235164
1631.5457 1304.3232 2669.0322 7235421
1647.293 1304.2695 2668.9224 7564385
1663.5474 1304.6146 2669.6287 7564641
1675.6332 1301.7147 2663.6946 7367262
1695.4209 1304.7965 2670.0007 7630434
1701.7949 1297.5934 2655.2612 7498591
1719.8892 1299.3768 2658.9106 7564641
1739.3711 1302.167 2664.6201 7564641
1757.9342 1304.2252 2668.8318 7630433
1767.5947 1299.7006 2659.573 7498848
1801.1473 1312.6685 2686.1091 7366749
1825.9812 1319.1107 2699.292 7432541
1847.5483 1323.1016 2707.4585 7432542
1853.9373 1316.2476 2693.4331 7366747
1876.6285 1320.9861 2703.1294 7564126
1893.7502 1321.757 2704.707 7103833
1919.8386 1328.7207 2718.957 7301468
1935.3541 1328.3121 2718.1208 7367261
1941.4587 1321.5045 2704.1904 7433053
1955.929 1320.4559 2702.0447 7432796
1983.6923 1328.3258 2718.1487 7696225
2005.2723 1331.9617 2725.5889 7630432
2036.6311 1341.983 2746.0955 7696225
2052.7751 1341.8995 2745.9248 7696225
2072.5493 1344.1718 2750.5742 7630432
2080.8572 1339.0298 2740.0525 7630432
2108.0085 1345.9996 2754.3147 7762018
2123.2922 1345.3427 2752.9705 8222313
2135.6956 1342.8848 2747.9407 8419691
2158.5193 1346.9666 2756.2932 8551277
2184.5833 1352.9938 2768.6267 8288361
2179.5916 1339.8407 2741.7117 7630433
2215.3965 1351.7751 2766.1331 7301469
2221.2554 1345.3964 2753.0801 7169883
2230.4614 1341.1229 2744.3354 7301469
2242.9128 1338.8488 2739.6819 7367262
2265.8013 1342.7926 2747.7522 7498848
2275.5142 1338.9275 2739.843 7630434
2287.0649 1336.1909 2734.2432 7433055
2299.9431 1334.2632 2730.2983 7433055
2313.7153 1332.8771 2727.4619 7367262
2340.7798 1339.1145 2740.2258 7433055
2333.5867 1325.803 2712.9863 7433054
2343.5935 1322.3788 2705.9795 7038297
2359.6277 1322.3788 2705.9795 7038297
2399.0527 1335.399 2732.6228 7367261
2413.4587 1334.4117 2730.6023 7235676
2412.0703 1324.7628 2710.8577 7367261
2436.2173 1329.1733 2719.8831 7367262
2459.9656 1333.3099 2728.3477 7432799
2464.2563 1326.9152 2715.2622 7432799
2470.3684 1321.5778 2704.3403 7498336
2498.4211 1327.9712 2717.4231 7432800
2524.5623 1333.2731 2728.2725 7432543
2554.082 1340.2805 2742.6118 7564129
2569.5144 1339.8538 2741.7383 7564386
2593.5305 1343.88 2749.9773 7564386
2628.0735 1353.2766 2769.2056 7432800
2650.0068 1356.1038 2774.9907 7367007
0 0 0 0
0 0 0 0
0 0 0 0
0 0 0 0
0 0 0 0
0 0 0 0
0 0 0 0
0 0 0 0
0 0 0 0
0 0 0 0
-2042.276 1153.1389 2331.396 768
-2088.5747 1187.312 2400.4866 768
-2072.9885 1186.5323 2398.9102 768
-2061.0015 1187.816 2401.5056 768
-2057.9287 1194.2909 2414.5962 768
-1959.5712 1145.1721 2315.2888 768
-2026.7437 1192.7782 2411.5381 768
-1941.4491 1150.6936 2326.4521 768
-2003.4742 1195.9476 2417.9458 768
-1977.7374 1189.0878 2404.0767 768
-1964.9772 1189.9871 2405.8948 768
-1957.1051 1193.8813 2413.7683 768
-1832.1462 1125.8813 2276.2871 768
-1906.5717 1180.3062 2386.322 768
-1834.3508 1144.0811 2313.083 768
-1814.1276 1139.9857 2304.803 512
-1809.344 1145.6038 2316.1616 768
-1769.7177 1129.0784 2282.7507 768
-1750.743 1125.5754 2275.6687 768
-1743.4476 1129.5853 2283.7756 768
-1746.4036 1140.3516 2305.5427 512
-1708.9637 1124.7024 2273.9036 512
-1705.4086 1131.282 2287.2061 512
-1692.8228 1131.9285 2288.5129 512
-1676.1307 1129.8175 2284.2451 65792
-1660.0127 1128.0623 2280.6965 65792
-1640.7848 1124.1476 2272.7817 65792
-1640.616 1133.3341 2291.3547 256
-1624.3704 1131.4752 2287.5967 131328
-1605.6541 1127.8499 2280.2668 196608
-1591.4307 1127.3455 2279.2473 196608
-1583.6752 1131.4536 2287.553 65536
-1571.4728 1132.428 2289.5229 460546
-1557.2516 1131.952 2288.5608 657669
-1559.6355 1143.6439 2312.199 592133
-1541.0288 1140.0144 2304.8611 592646
-1520.4698 1134.863 2294.446 1447698
-1521.5139 1145.8884 2316.7371 1842456
-1501.3425 1140.9913 2306.8362 1645077
-1484.4777 1138.5402 2301.8804 1052686
-1479.1244 1144.9545 2314.8486 1315858
-1467.7516 1146.7855 2318.5508 1842202
-1465.423 1155.7843 2336.7444 1644823
-1453.6284 1157.418 2340.0471 1776409
-1443.5817 1160.4879 2346.2542 1644823
-1425.3307 1156.9584 2339.1179 1579030
-1409.2939 1155.1742 2335.5107 1907995
-1402.0156 1160.6051 2346.491 1907995
-1391.9642 1163.8262 2353.0032 1776409
-1378.9846 1164.6394 2354.6475 1776409
-1362.1824 1162.2078 2349.7312 1710616
-1347.2106 1161.3038 2347.9036 1381651
-1333.672 1161.6293 2348.5615 986893
-1320.6493 1162.4158 2350.1516 1447444
-1302.4609 1158.6237 2342.4849 1644823
-1291.3307 1161.0962 2347.4839 1644823
-1281.2393 1164.5669 2354.5007 1842202
-1271.2296 1168.1891 2361.8242 1842202
-1260.4325 1171.1604 2367.8313 1776409
-1246.01 1170.7917 2367.0862 1842202
-1231.389 1170.2263 2365.9429 1710616
-1214.1716 1167.152 2359.7273 1513237
-1199.4448 1166.4279 2358.2634 1447444
-1189.2638 1170.1595 2365.8081 1710616
-1174.1052 1169.0244 2363.5129 1776409
-1160.9434 1169.8738 2365.2302 1710616
-1149.0908 1172.0795 2369.6895 1579030
-1136.4293 1173.5043 2372.5703 1776409
-1121.7964 1172.9037 2371.356 1644823
-1107.751 1172.9098 2371.3684 1644823
-1093.0811 1172.2463 2370.0271 1842202
-1082.1368 1175.6133 2376.8342 1579030
-1068.5515 1176.1619 2377.9434 986893
-1054.8752 1176.6237 2378.877 1447444
-1041.998 1178.0012 2381.6621 1447444
-1025.6823 1175.4758 2376.5564 1381651
-1013.136 1177.2605 2380.1646 1447444
-998.93048 1177.1403 2379.9214 1381651
-985.66803 1178.1437 2381.9502 1513237
-972.94995 1179.8364 2385.3726 1579030
-961.99304 1183.7462 2393.2773 1644823
-942.48828 1177.0975 2379.835 1907995
-929.34015 1178.3063 2382.2788 1842202
-914.09363 1176.8507 2379.3359 1842202
-900.75586 1177.8455 2381.3472 1776409
-887.61987 1179.1399 2383.9644 1776409
-872.80444 1178.2091 2382.0825 1710616
-859.44281 1179.2427 2384.1721 1842202
-845.31128 1179.2366 2384.1597 1973788
-831.30859 1179.413 2384.5164 1710616
-818.9292 1181.9386 2389.6226 1513237
-804.51111 1181.5587 2388.8545 1513237
-788.80267 1179.2363 2384.1592 1710616
-775.1109 1179.8989 2385.4988 1842202
-762.98767 1183.0183 2391.8054 1776409
-749.26752 1183.7328 2393.25 1907995
-733.90906 1181.8365 2389.4163 2171167
-719.75592 1181.845 2389.4333 2236960
-707.07983 1184.3276 2394.4529 2302753
-690.68542 1180.5565 2386.8284 2631718
-675.18768 1178.1924 2382.0486 2763304
-659.73322 1175.8044 2377.2207 2697511
-646.18829 1176.7898 2379.2129 2302753
-633.84894 1180.0636 2385.8318 2368546
-620.43176 1181.4342 2388.603 2236960
-605.07367 1179.0868 2383.8569 2236960
-592.37506 1181.9333 2389.6121 2105374
-577.94568 1181.3817 2388.4966 1908508
-565.52026 1185.0011 2395.8145 2171679
-549.38507 1180.8334 2387.3882 1974301
-535.20087 1180.7498 2387.219 2040094
-523.7677 1186.8954 2399.644 2105887
-510.547 1189.2205 2404.345 2369059
-496.04175 1188.6008 2403.0923 2369059
-483.36884 1192.4651 2410.905 2368803
-468.61209 1191.2673 2408.4834 2302753
-454.5383 1191.785 2409.53 2302753
-440.33853 1191.9952 2409.9551 2236960
-425.77127 1191.1914 2408.3298 2302753
-411.16553 1190.2206 2406.3669 2434339
-395.38718 1185.6635 2397.1536 2565925
-381.79602 1187.5699 2401.0081 2105374
-367.71567 1188.0436 2401.9656 2302753
-353.44974 1187.9316 2401.7393 2500132
-339.83551 1190.0924 2406.1079 2763304
-324.89227 1187.5846 2401.0376 2894890
-310.75983 1187.9465 2401.7693 2763304
-296.52359 1187.9272 2401.7305 2368546
-283.03793 1191.0648 2408.0737 2565925
-267.51505 1185.5071 2396.8374 2697511
-255.07217 1193.7411 2413.4846 2829097
-240.57626 1192.7739 2411.5293 2960683
-225.76152 1190.0043 2405.9297 2894890
-209.87706 1180.8424 2387.4065 2763304
-197.92934 1194.1068 2414.2241 2631718
-183.29822 1191.9875 2409.9395 2697511
-168.76813 1190.2228 2406.3716 2829097
-155.15508 1195.1967 2416.4275 2763304
-140.21324 1189.905 2405.729 2631718
-125.86139 1188.9893 2403.8774 2368547
-112.00186 1193.0841 2412.1565 2171420
-97.670059 1192.6104 2411.1985 2500385
-83.575691 1195.3701 2416.7783 2434594
-69.690361 1202.8792 2431.96 2434339
-55.361126 1204.644 2435.5281 2500132
-40.983654 1206.2336 2438.7419 2565925
-26.480312 1203.8325 2433.8875 2434339
-12.093502 1207.3218 2440.9419 2631718
2.3695362 1207.0554 2440.4033 2631718
16.816864 1206.12 2438.5122 2565925
31.493387 1214.8907 2456.2446 2631718
45.866337 1210.1078 2446.5745 2631718
60.450485 1211.856 2450.1091 2565925
75.001816 1212.3967 2451.2024 2565925
89.723312 1215.0665 2456.6001 2631718
104.81513 1221.306 2469.2148 2697511
119.09114 1217.6753 2461.8745 2960683
134.30307 1223.3623 2473.3723 2894890
149.19708 1225.3192 2477.3289 2631718
163.85065 1225.1279 2476.9419 2697511
178.86172 1227.4214 2481.5789 2697511
193.88589 1229.4493 2485.679 2631718
207.64929 1223.7607 2474.1777 2565925
224.25043 1234.4435 2495.7761 2500132
238.83774 1233.4045 2493.6755 2565925
252.74886 1229.1982 2485.1714 2500132
267.33746 1228.5685 2483.8982 2631718
282.16608 1229.0498 2484.8713 2631718
297.82654 1232.9272 2492.7104 2631718
313.271 1235.5862 2498.0864 2500132
327.88681 1234.8843 2496.6672 2236960
344.56693 1241.682 2510.4106 2236960
359.47876 1241.8086 2510.6667 2302753
374.33243 1241.7322 2510.5122 2434339
389.63794 1243.1031 2513.2839 2171167
407.28113 1251.5569 2530.3755 2302753
419.40775 1243.0597 2513.1963 2368546
434.80258 1244.4999 2516.1079 2236960
450.76883 1247.4257 2522.0232 2236960
465.66913 1247.3086 2521.7866 2171167
481.65829 1250.0248 2527.2781 2434339
496.70831 1250.2133 2527.6592 2368546
512.27319 1251.6487 2530.5613 2434339
525.94818 1248.5162 2524.228 2171167
540.12408 1246.7131 2520.5825 2171167
554.27496 1244.9508 2517.0195 2171166
571.19635 1249.3407 2525.895 2236960
588.71069 1254.7703 2536.8723 2236960
601.72168 1250.5699 2528.3801 2565925
617.86957 1252.9348 2533.1616 2631718
633.82098 1254.7986 2536.9297 2500132
638.69897 1235.1615 2497.2275 2631718
655.64795 1239.2286 2505.4507 2434339
670.67383 1239.5615 2506.1235 2302753
687.47412 1243.0884 2513.2542 2368546
707.44226 1252.0724 2531.4177 2302753
721.87787 1251.0948 2529.4414 2302753
736.75555 1250.9076 2529.0627 2434339
751.46631 1250.45 2528.1377 2368546
767.63165 1252.3835 2532.0469 2302753
782.56195 1252.2666 2531.8105 2171167
795.25806 1248.646 2524.4905 2368546
813.22015 1253.2748 2533.8489 2368546
828.23901 1253.2821 2533.8635 2368546
844.12097 1254.5717 2536.4709 2368546
859.0672 1254.4501 2536.2251 2368546
873.65491 1253.818 2534.947 2236960
891.50879 1257.8154 2543.0291 2236960
901.00372 1250.0825 2527.3948 2368546
918.49786 1253.5194 2534.3433 2368546
933.30103 1253.2322 2533.7627 2500132
953.15546 1259.6296 2546.697 2500132
969.04138 1260.6648 2548.7898 2368546
984.86053 1261.5826 2550.6455 2368546
999.86725 1261.4479 2550.373 2368546
1014.1953 1260.4735 2548.4031 2368546
1031.0061 1262.5681 2552.6379 2434339
1048.5189 1265.4495 2558.4634 2434339
1061.1913 1262.4901 2552.4802 2368546
1072.453 1257.9592 2543.3198 2631718
1094.8901 1266.4807 2560.5483 2500132
1116.4762 1273.7982 2575.3428 2697511
1128.5421 1270.2032 2568.0745 2631718
1141.5446 1267.744 2563.1025 2763304
1159.4464 1270.719 2569.1172 2894890
1167.8251 1263.3149 2554.1479 2631975
1191.7469 1272.6993 2573.1211 2697254
1207.4966 1273.2295 2574.1931 2763047
1220.3546 1270.7356 2569.1509 2829097
1230.6849 1265.7035 2558.9771 2763047
1247.1542 1267.0306 2561.6602 2828840
1260.7971 1265.4889 2558.5432 2828840
1274.4535 1263.9972 2555.5273 2697254
1287.9386 1262.3727 2552.2429 2828840
1305.9308 1265.1523 2557.8625 2894633
1329.5029 1273.2117 2574.157 3157035
1335.2021 1264.1663 2555.8691 3551792
1354.5814 1268.1309 2563.8845 3420206
1371.4498 1269.6827 2567.0222 3617582
1391.741 1274.3346 2576.4272 4604733
1407.8322 1275.0817 2577.9377 4538937
1434.9506 1285.693 2599.3914 5130816
1449.025 1284.5156 2597.0112 4933438
1477.1221 1295.6632 2619.5491 5459781
1489.0013 1292.5013 2613.1565 5920333
1510.863 1297.9805 2624.2339 6117710
1517.1344 1290.0907 2608.2825 6248782
1536.6984 1293.5493 2615.2751 6248782
1560.6266 1300.576 2629.4817 6840663
1569.1637 1294.7642 2617.7312 7038042
1591.8889 1300.6584 2629.6482 7038042
1606.5518 1299.9149 2628.145 7301214
1625.738 1302.8107 2633.9995 7235421
1636.9633 1299.3323 2626.967 7433055
1651.7837 1298.7461 2625.782 7433055
1664.7936 1296.7606 2621.7678 7630434
1682.2306 1298.2285 2624.7356 7433055
1689.7238 1292.0658 2612.2759 7564384
1717.7887 1301.6025 2631.5571 7630177
1746.3129 1311.3126 2651.1887 7498848
1750.4908 1302.7308 2633.8381 7433055
1757.4402 1296.345 2620.9275 7367262
1779.7501 1301.3022 2630.95 7301469
1809.3088 1311.4275 2651.4209 7301469
1803.1869 1295.7389 2619.7021 7104090
1836.8073 1308.6326 2645.7703 7038297
1854.344 1309.9462 2648.426 7300954
1884.7592 1320.2589 2669.2761 7366747
1902.9625 1321.9169 2672.6282 7432539
1921.5326 1323.8002 2676.4358 7235417
1933.6089 1321.2155 2671.2102 7104089
1942.701 1316.6504 2661.9805 7038295
1961.3776 1318.6021 2665.9265 7367260
1996.6 1331.5575 2692.1194 7367259
2001.004 1323.917 2676.6721 7564639
2028.2281 1331.3765 2691.7534 7630432
2050.6533 1335.594 2700.2805 7367259
2066.0464 1335.2015 2699.4871 7367260
2079.7092 1333.7057 2696.4626 7695968
2114.7024 1345.8073 2720.9294 7696226
2132.0698 1346.5935 2722.519 7827812
2123.8877 1331.3523 2691.7046 7893606
2154.3643 1340.3905 2709.978 8090984
2174.6526 1343.0034 2715.2605 8090985
2188.3257 1341.5223 2712.2661 8025192
2185.9109 1330.2723 2689.5212 7696227
2203.3835 1331.2003 2691.3975 7630434
2212.9307 1327.3612 2683.6355 7630434
2247.1626 1338.2777 2705.7063 7564384
2244.5229 1327.2365 2683.3833 7630433
2254.9568 1324.0269 2676.8943 7498848
2295.6484 1338.5043 2706.1643 7498591
2297.1179 1330.0704 2689.113 7433055
2315.8823 1331.698 2692.4036 7367262
2303.1602 1315.3215 2659.2937 7038297
2322.4856 1317.3455 2663.3857 7038297
2357.863 1328.3854 2685.7061 7301468
2372.1514 1327.4757 2683.8669 7301212
2388.5776 1327.7666 2684.4551 7235421
2393.9077 1321.9261 2672.647 7169627
2402.2041 1317.7899 2664.2844 7235164
2436.7405 1328.0082 2684.9436 7367007
2448.4282 1325.7223 2680.322 7432800
2457.8325 1322.2375 2673.2766 7498593
2488.9358 1330.3961 2689.7715 7301214
2505.8728 1330.9266 2690.844 7169628
2528.4895 1334.4482 2697.9639 7301214
2567.2446 1346.389 2722.1057 7432800
2583.3044 1346.3527 2722.0322 7367007
2592.1907 1342.6013 2714.4478 7498593
0 0 0 0
0 0 0 0
0 0 0 0
0 0 0 0
0 0 0 0
0 0 0 0
0 0 0 0
0 0 0 0
0 0 0 0
0 0 0 0
-2082.1204 1189.7205 2376.8811 768
-2002.3004 1151.9032 2301.3279 768
-1988.2532 1151.6652 2300.8523 768
-2030.6575 1184.3484 2366.1484 768
-2016.2401 1184.115 2365.6824 768
-2025.6368 1197.9623 2393.3472 768
-2027.5031 1207.5199 2412.4417 768
-2038.2264 1222.5258 2442.4211 768
-2003.7249 1210.4263 2418.2483 768
-1973.2798 1200.6207 2398.6582 768
-2000.4165 1225.962 2449.2864 768
-1945.7628 1201.1819 2399.7793 768
-1944.1213 1209.0039 2415.4065 768
-1915.3698 1199.9579 2397.334 768
-1890.1748 1193.0215 2383.4761 768
-1806.9131 1149.0548 2295.6372 768
-1774.6104 1137.0728 2271.699 768
-1747.0254 1127.9534 2253.48 768
-1742.4319 1133.6525 2264.8657 512
-1723.6737 1130.1526 2257.8735 512
-1705.8055 1127.1859 2251.9465 512
-1690.7478 1126.0444 2249.666 66048
-1681.6567 1128.8901 2255.3513 65792
-1671.6361 1131.1523 2259.8711 131328
-1655.5646 1129.3237 2256.2175 196608
-1640.5593 1128.1984 2253.9692 196608
-1620.0261 1123.2219 2244.0271 196608
-1621.2982 1133.4067 2264.3748 196608
-1607.921 1133.4349 2264.4312 131072
-1592.6067 1132.0867 2261.7375 131072
-1583.7001 1135.3092 2268.1755 723461
-1568.1237 1133.7644 2265.0894 723462
-1554.9004 1133.9089 2265.3782 591876
-1548.4861 1139.0647 2275.6787 197376
-1537.4591 1140.8883 2279.3218 1381392
-1522.1371 1139.5286 2276.6055 1250318
-1512.1833 1142.1996 2281.9417 1645077
-1503.7639 1146.088 2289.7102 1710870
-1489.6521 1145.6693 2288.8738 1579284
-1474.9294 1144.7689 2287.0747 1710617
-1467.5964 1149.6403 2296.8071 1842202
-1459.1932 1153.757 2305.0315 1776409
-1440.7421 1149.9314 2297.3887 1513237
-1433.8822 1155.3728 2308.2598 1776409
-1416.2863 1152.1849 2301.8909 1973788
-1412.8489 1160.5654 2318.6338 1907995
-1397.5553 1159.2759 2316.0574 1710616
-1382.3041 1157.9961 2313.5005 1644823
-1372.9634 1161.6917 2320.8838 1447444
-1354.6849 1157.8231 2313.155 1315858
-1341.8071 1158.5385 2314.5842 1315858
-1325.2795 1156.085 2309.6824 1184271
-1315.829 1159.818 2317.1406 1315858
-1303.5769 1161.1344 2319.7705 1579030
-1290.6328 1161.8558 2321.2119 1447444
-1278.5679 1163.3929 2324.2827 1381651
-1267.5024 1165.8828 2329.2571 1447444
-1254.2841 1166.4252 2330.3408 1579030
-1239.6678 1165.6655 2328.823 1447444
-1226.6554 1166.4136 2330.3176 1644823
-1209.7012 1163.3879 2324.2727 1644823
-1202.8401 1170.111 2337.7043 1579030
-1184.2296 1165.428 2328.3484 1710616
-1171.276 1166.2672 2330.0249 1513237
-1159.842 1168.6575 2334.8005 1644823
-1145.5243 1168.1649 2333.8164 1776409
-1134.7753 1171.3439 2340.1675 1776409
-1120.9376 1171.374 2340.2278 1579030
-1106.7183 1171.001 2339.4824 1842202
-1092.2035 1170.3019 2338.0857 1710616
-1080.2667 1172.3827 2342.2429 1973788
-1065.4135 1171.3114 2340.1025 1907995
-1050.1215 1169.723 2336.9292 1907995
-1036.485 1169.9609 2337.4045 1513237
-1024.274 1171.8362 2341.1511 1513237
-1012.928 1174.7659 2347.0042 1447444
-997.89502 1173.4418 2344.3589 1447444
-984.89368 1174.5032 2346.4792 1447444
-969.72009 1172.9672 2343.4106 1644823
-957.67462 1175.2253 2347.9221 1776409
-944.63928 1176.3176 2350.1042 1907995
-928.88892 1174.0109 2345.4958 1907995
-915.00165 1174.0247 2345.5232 1776409
-903.07898 1176.5985 2350.6655 1776409
-890.5885 1178.5016 2354.4675 1842202
-874.90747 1176.1761 2349.8215 1842202
-861.07056 1176.2946 2350.0581 1776409
-846.74292 1175.7356 2348.9414 1907995
-832.20673 1174.8634 2347.199 1907995
-820.638 1178.2222 2353.9092 2039581
-806.60565 1178.0988 2353.6626 1776409
-791.3783 1176.1948 2349.8589 1710616
-777.60242 1176.4187 2350.3062 1710616
-764.09564 1177.0654 2351.5981 1973788
-751.30566 1178.8606 2355.1848 1513237
-735.41467 1175.766 2349.0022 1907995
-723.23834 1178.6056 2354.6753 1973788
-710.62543 1180.8313 2359.1221 2302753
-694.09302 1176.5028 2350.4744 2171167
-680.20068 1176.5637 2350.5959 2565925
-668.18298 1179.9374 2357.3362 2500132
-652.89294 1177.5533 2352.573 2500132
-637.16217 1174.2531 2345.9795 2368546
-623.9541 1175.5582 2348.5872 2368546
-612.17462 1179.676 2356.8137 2368546
-598.14307 1179.5449 2356.552 2302753
-583.34808 1177.8661 2353.1978 2171167
-570.76398 1180.6783 2358.8164 2105887
-554.69885 1176.2502 2349.9697 1776922
-542.16052 1179.2654 2355.9934 2171680
-528.92096 1180.8744 2359.208 2105887
-516.95825 1185.4987 2368.4465 2105887
-503.24121 1186.2458 2369.9395 2171680
-488.35089 1184.1909 2365.8337 2434852
-472.98825 1180.8351 2359.1296 2368545
-458.2146 1178.7903 2355.0442 2236960
-446.31906 1184.2537 2365.9595 2368546
-432.25378 1184.1276 2365.7075 2631718
-418.76483 1185.6249 2368.6987 2434339
-404.65262 1185.4001 2368.2498 2500132
-390.71616 1185.6926 2368.834 2565925
-375.26865 1181.2504 2359.9592 2236960
-361.96976 1183.4895 2364.4326 2500132
-347.9404 1183.4243 2364.3025 2500132
-333.74164 1182.7535 2362.9622 2565925
-318.51404 1178.218 2353.9009 2829097
-305.93463 1183.5117 2364.4768 2894890
-291.60208 1182.2059 2361.8682 2763304
-276.8075 1178.8009 2355.0654 2368546
-265.01608 1188.5026 2374.4478 2565925
-249.5553 1181.9136 2361.2842 2565925
-236.87184 1188.4768 2374.3965 2565925
-221.77362 1182.988 2363.4307 3026476
-208.2484 1185.7156 2368.8801 2829097
-193.81248 1183.2775 2364.009 2631718
-179.69682 1182.567 2362.5896 2829097
-166.28841 1186.7841 2371.0146 2697511
-152.8416 1191.4801 2380.3967 2565925
-137.96652 1184.865 2367.1807 2500132
-124.17596 1187.1206 2371.687 2368546
-110.84607 1194.9177 2387.2646 2434339
-96.377487 1190.9254 2379.2886 1907995
-81.986504 1186.6882 2370.8232 2500132
-68.178276 1190.8778 2379.1934 2631718
-54.422333 1198.403 2394.2273 2434339
-40.162197 1196.2175 2389.8611 2302753
-26.085188 1200.0763 2397.5706 2368546
-11.885588 1200.78 2398.9766 2631718
2.3367424 1204.6104 2406.6289 2565925
16.591927 1204.2433 2405.8955 2500132
30.914389 1206.8418 2411.0869 2697511
45.481674 1214.3344 2426.0559 2697511
59.67701 1210.6823 2418.7598 2631718
74.36454 1216.4962 2430.375 2434339
88.397614 1211.4546 2420.3027 2697511
102.5816 1209.6001 2416.5977 2631718
117.38771 1214.6371 2426.6609 2894890
131.78513 1214.8075 2427.0012 2631718
146.36456 1216.457 2430.2966 2565925
161.38367 1221.1379 2439.6484 2565925
176.05704 1222.6482 2442.6658 2434339
190.48062 1222.326 2442.0222 2565925
205.69032 1226.7379 2450.8364 2565925
219.36308 1222.006 2441.3828 2500132
233.9845 1222.8174 2443.0037 2500132
249.22586 1226.5852 2450.5312 2368546
263.08212 1223.4966 2444.3606 2565925
277.66718 1223.9429 2445.2524 2697511
293.69949 1230.4078 2458.1685 2697511
305.54263 1219.5414 2436.4587 2697511
322.66345 1229.7703 2456.8945 2434339
337.58109 1231.0815 2459.5142 2236960
353.29935 1235.083 2467.5085 2105373
369.38596 1240.0029 2477.3379 2302753
385.14331 1243.4839 2484.2922 2236960
399.20068 1241.4219 2480.1729 2236960
413.89267 1241.4099 2480.1487 2105373
428.88831 1242.2781 2481.8833 1973788
443.84766 1242.9872 2483.3 1842202
457.61789 1240.4275 2478.186 2302752
472.78534 1241.6965 2480.7214 2500132
489.10388 1245.821 2488.9617 2434339
503.34546 1244.5686 2486.4595 2434339
518.87469 1246.4807 2490.2795 2565925
534.57428 1248.6849 2494.6833 2368546
547.35529 1244.1367 2485.5967 2236960
562.29156 1244.5974 2486.5168 2368546
579.67548 1250.314 2497.9377 2236960
595.61621 1252.7104 2502.7256 2368546
609.13763 1250.0258 2497.3621 2302753
623.45416 1249.0614 2495.4353 2434339
631.74872 1236.3566 2470.053 2500132
645.78802 1235.2152 2467.7727 2565925
659.35529 1233.2415 2463.8293 2500132
679.37872 1243.167 2483.6592 2434339
695.56824 1245.8049 2488.9294 2368546
710.12598 1245.4714 2488.2632 2368546
724.11005 1244.1658 2485.6545 2434339
740.24817 1246.5396 2490.397 2434339
753.1275 1243.4399 2484.2046 2368546
758.21649 1227.8439 2453.0459 2105374
784.16449 1245.9779 2489.2749 2302753
798.54755 1245.4058 2488.1318 2236960
813.22693 1245.308 2487.9365 2368546
827.14252 1244.0649 2485.4531 2500132
843.841 1246.9777 2491.2725 2500132
858.34283 1246.6002 2490.5183 2763304
873.52258 1247.2034 2491.7234 2500132
892.49603 1253.113 2503.5298 2368546
905.60748 1250.7335 2498.7759 2236960
917.18134 1246.3411 2490.0005 2236960
937.46906 1253.7413 2504.7852 2500132
952.71655 1254.2753 2505.8518 2500132
969.30804 1256.5353 2510.3669 2500132
984.79675 1257.3188 2511.9324 2434339
994.05499 1250.2429 2497.7959 2171167
1016.0421 1259.1492 2515.5891 2236960
1031.8732 1260.2792 2517.8467 2434339
1047.215 1260.7878 2518.863 2434339
1064.2378 1263.2777 2523.8374 2434339
1078.9658 1263.0123 2523.3071 2500132
1097.1379 1266.7307 2530.7358 2565925
1110.1842 1264.5103 2526.2998 2565925
1126.0957 1265.5691 2528.4153 2631718
1135.1248 1258.9668 2515.2249 2631718
1155.4823 1264.9374 2527.1531 2631718
1169.3875 1263.7817 2524.8445 2631718
1186.9946 1266.6058 2530.4863 2763304
1204.5231 1269.2762 2535.8215 2697511
1215.222 1264.7729 2526.8247 2894890
1235.488 1270.2153 2537.6978 2829097
1246.9626 1266.597 2530.4688 2828840
1256.7671 1261.3884 2520.0627 2828840
1270.3209 1260.0209 2517.3308 2631461
1296.188 1270.757 2538.7798 2763047
1302.7683 1262.5553 2522.394 3091242
1310.0168 1255.1798 2507.6589 3091240
1334.5817 1264.3751 2526.0298 3420205
1353.3639 1267.9489 2533.1697 3617839
1374.3723 1273.5071 2544.2739 3880498
1386.473 1270.7803 2538.8262 4012082
1402.7524 1271.9008 2541.0649 4143668
1437.1783 1289.2766 2575.7791 4275254
1442.4019 1280.3654 2557.9758 4801598
1462.9486 1285.0999 2567.4346 5064770
1482.5386 1288.9049 2575.0366 5459782
1491.9156 1283.8441 2564.926 5328196
1520.2621 1295.0446 2587.3027 5986127
1530.0088 1290.3352 2577.894 6051919
1551.9606 1295.9104 2589.0325 6643285
1568.1046 1296.5743 2590.3589 6972249
1578.7889 1292.7549 2582.7283 7235422
1597.7638 1295.7321 2588.676 7235420
1614.5354 1296.8827 2590.9751 7432800
1620.4901 1289.405 2576.0356 7630178
1642.7485 1294.9185 2587.0508 7433055
1659.8739 1296.3212 2589.853 7564384
1672.6093 1294.301 2585.8171 7433055
1687.1906 1293.733 2584.6824 7630433
1706.0706 1296.4419 2590.0942 7433055
1716.7717 1292.9427 2583.1035 7498848
1732.3 1293.1086 2583.4351 7367262
1745.1969 1291.3246 2579.8708 7498847
1781.2626 1306.5662 2610.321 7235676
1778.4332 1293.261 2583.7395 7367261
1814.1729 1307.9906 2613.167 7301469
1821.7585 1302.3442 2601.8865 7104091
1833.0326 1299.4073 2596.0188 7301469
1841.5769 1294.6002 2586.4148 7564640
1850.7738 1290.3273 2577.8784 7169625
1905.7878 1317.806 2632.7766 7235676
1906.9873 1307.9291 2613.0439 7235676
1939.3945 1319.4429 2636.0469 7235676
1953.3336 1318.3087 2633.781 7169883
1980.7595 1326.2227 2649.5918 7235676
1993.0914 1323.9854 2645.1221 7301469
2008.7649 1323.9854 2645.1221 7235675
2024.2894 1323.8879 2644.9275 7367260
2053.6333 1332.7606 2662.6536 7433052
2075.6389 1336.7719 2670.6675 7367261
2092.499 1337.4336 2671.9895 7498848
2105.5557 1335.6726 2668.4714 7169883
2126.1768 1338.7008 2674.5212 7433055
2137.1277 1335.6405 2668.4072 7630434
2149.5747 1333.5532 2664.2371 8025192
2166.7397 1334.4021 2665.9331 8090985
2173.5298 1328.8954 2654.9314 7827813
2194.6516 1332.1674 2661.4685 7893606
2200.8972 1326.4271 2650.0002 7762020
2229.3633 1334.0649 2665.2595 7696227
2232.8965 1326.7804 2650.7061 7696227
2245.1619 1324.75 2646.6497 7498848
2275.9541 1333.6036 2664.3379 7630434
2288.3188 1331.6119 2660.3589 7433055
2287.7273 1322.1599 2641.4749 7235676
2311.3071 1326.7104 2650.5664 7235675
2325.8982 1326.0751 2649.2969 7169628
2339.8416 1325.0812 2647.3113 7038042
2356.1294 1325.4197 2647.9875 7169628
2361.1787 1319.473 2636.1072 7235421
2372.2207 1316.9318 2631.03 7235421
2385.1633 1315.4717 2628.113 6972249
2414.3459 1322.9292 2643.012 7038042
2429.0144 1322.3888 2641.9324 7169627
2448.291 1324.3481 2645.8467 7235421
2458.8318 1321.5872 2640.3308 7169628
2479.7595 1324.4086 2645.9675 7169628
2465.3245 1308.4264 2614.0376 7038042
2495.4226 1316.1313 2629.4309 7301213
2554.2998 1338.8252 2674.7698 7498592
0 0 0 0
0 0 0 0
0 0 0 0
0 0 0 0
0 0 0 0
0 0 0 0
0 0 0 0
0 0 0 0
0 0 0 0
0 0 0 0
-2060.4438 1191.2719 2352.136 512
-1950.2023 1135.213 2241.4492 512
-2017.0088 1182.152 2334.1289 768
-2043.6964 1206.0634 2381.3413 768
-1885.5063 1120.4454 2212.2908 768
-2011.0524 1203.4165 2376.1152 768
-1866.394 1124.7271 2220.7449 768
-1848.777 1122.0212 2215.4023 768
-1834.2803 1121.1842 2213.7495 768
-1954.4385 1203.2343 2375.7554 768
-1938.6409 1202.1674 2373.6489 768
-1797.6906 1122.9097 2217.1565 768
-1784.5594 1122.9138 2217.1646 768
-1810.6595 1147.7867 2266.2756 768
-1772.111 1131.744 2234.5996 768
-1755.3942 1129.5074 2230.1836 768
-1745.1465 1131.4312 2233.9819 329216
-1724.0651 1126.3065 2223.8635 66048
-1710.1407 1125.8148 2222.8926 65792
-1702.6414 1129.5779 2230.3228 196864
-1682.6057 1125.0178 2221.3191 196864
-1669.2681 1124.8995 2221.0854 196864
-1659.0952 1126.9292 2225.093 196608
-1645.252 1126.4781 2224.2024 196608
-1635.4403 1128.8025 2228.7917 196608
-1619.1771 1126.6757 2224.5923 196608
-1604.1281 1125.3655 2222.0054 196608
-1595.1458 1128.325 2227.8489 131072
-1588.6322 1133.0948 2237.2668 328961
-1574.9221 1132.7687 2236.6228 1118474
-1575.5978 1142.8718 2256.5713 525825
-1562.3688 1142.9758 2256.7766 1249549
-1540.7832 1136.9155 2244.8105 1776407
-1515.9822 1128.3562 2227.9104 1710356
-1506.0632 1130.8207 2232.7766 1842199
-1496.6216 1133.6904 2238.4429 2105628
-1490.8467 1139.4139 2249.7437 2039835
-1484.1453 1144.5261 2259.8376 1710617
-1473.4705 1146.6394 2264.0103 1776410
-1457.5995 1144.7108 2260.2024 1776409
-1444.8951 1145.2565 2261.2795 1644823
-1437.83 1150.3236 2271.2847 1513237
-1425.7394 1151.4282 2273.4656 1842202
-1411.6594 1150.9319 2272.4856 1907995
-1399.1425 1151.7126 2274.0271 1907995
-1386.6488 1152.5278 2275.6367 1644823
-1375.6523 1154.6157 2279.7593 1710616
-1364.1835 1156.3446 2283.1729 1644823
-1349.7218 1155.5458 2281.5957 1579030
-1336.2024 1155.5458 2281.5957 1710616
-1322.8096 1155.6564 2281.814 1907995
-1312.1317 1158.1655 2286.7683 1907995
-1302.4799 1161.6423 2293.6331 1973788
-1284.0193 1157.2533 2284.967 1907995
-1273.6455 1160.1366 2290.6602 1579030
-1260.9292 1160.9254 2292.2175 1447444
-1247.7159 1161.2689 2292.8958 1315858
-1235.6027 1162.655 2295.6328 1250065
-1221.7201 1162.3885 2295.1064 1381651
-1207.6006 1161.8882 2294.1187 1447444
-1190.333 1158.3131 2287.0596 1579030
-1183.34 1164.7689 2299.8064 1644823
-1168.3411 1163.403 2297.1094 1710616
-1154.7239 1163.397 2297.0977 1579030
-1141.624 1163.9183 2298.1272 1250065
-1127.4125 1163.3052 2296.9165 1579030
-1116.0791 1165.6832 2301.6118 1513237
-1100.3787 1163.5026 2297.3059 1644823
-1088.3136 1165.1591 2300.5769 1842202
-1077.2404 1167.933 2306.054 1710616
-1063.7181 1168.089 2306.3621 1644823
-1050.3141 1168.3807 2306.9377 1644823
-1036.0665 1167.7292 2305.6516 1513237
-1020.4768 1165.5273 2301.304 1381651
-1008.3191 1167.2389 2304.6833 1579030
-994.46106 1167.002 2304.2156 1644823
-983.01422 1169.6274 2309.3994 1710616
-968.29218 1168.375 2306.9265 1842202
-953.55573 1167.0691 2304.3481 1907995
-939.1441 1166.1287 2302.4912 1842202
-927.39044 1168.5094 2307.1919 1710616
-913.75793 1168.5587 2307.2893 1710616
-900.23193 1168.7476 2307.6624 1579030
-886.6842 1168.9139 2307.9907 1776409
-874.78174 1171.2883 2312.679 1776409
-862.04541 1172.604 2315.2766 1644823
-849.18988 1173.7975 2317.6331 2236960
-830.86444 1167.3451 2304.8931 2434339
-819.72034 1170.9352 2311.9817 2302753
-807.17877 1172.6173 2315.3027 2236960
-793.30823 1172.3934 2314.8608 2236960
-778.96606 1171.4525 2313.0032 2105373
-764.71588 1170.6188 2311.3567 2039581
-751.67023 1171.632 2313.3574 1907995
-738.35852 1172.2604 2314.5981 1842202
-724.06506 1171.3246 2312.7505 1973788
-712.52258 1174.8887 2319.7876 2105374
-699.79523 1176.6008 2323.1682 2236960
-685.79889 1176.2053 2322.3872 2302753
-672.03778 1176.2053 2322.3872 2302753
-657.43817 1174.7069 2319.4287 2500132
-639.83807 1167.6689 2305.5325 2500132
-629.06647 1173.0573 2316.1716 2565925
-617.01971 1176.2551 2322.4858 2763304
-602.69788 1175.1628 2320.3291 2500132
-587.17163 1171.6165 2313.3267 2302753
-574.24921 1173.2202 2316.4934 2105630
-562.5307 1177.4225 2324.7905 1776922
-548.15704 1176.1385 2322.2556 1776922
-531.44977 1169.6526 2309.4492 2105887
-522.51697 1180.3866 2330.6433 1974301
-505.95401 1173.9989 2318.0308 1974301
-492.71399 1175.1801 2320.363 1908508
-480.37415 1178.6377 2327.1902 1908764
-466.04294 1177.2693 2324.4883 2236959
-451.05215 1174.1008 2318.2322 1973788
-437.12344 1173.5847 2317.2131 2236960
-423.28195 1173.2767 2316.605 2500132
-412.66544 1182.1871 2334.1982 2631718
-397.9202 1179.4774 2328.8479 2697511
-382.91101 1175.7625 2321.5129 2763304
-369.70093 1177.501 2324.9456 2697511
-355.92215 1177.4926 2324.929 2697511
-341.79187 1176.2738 2322.5225 2829097
-328.17194 1176.7827 2323.5273 2697511
-313.78287 1174.4575 2318.9363 2631718
-300.83401 1177.5568 2325.0557 2434339
-287.18027 1178.0619 2326.053 2434339
-273.36401 1177.9178 2325.7686 2236960
-260.02289 1179.9143 2329.7107 2368546
-246.57077 1181.6029 2333.0447 2565925
-233.02802 1183.0317 2335.866 2565925
-219.4079 1184.2236 2338.2192 2631718
-205.56491 1184.2922 2338.3547 2500132
-191.1689 1180.9543 2331.7642 2763304
-178.21901 1186.7258 2343.1599 2829097
-163.65997 1181.8524 2333.5374 2631718
-150.75522 1189.1281 2347.9028 2697511
-136.00861 1181.8777 2333.5874 2631718
-122.56416 1185.5826 2340.9026 2500132
-108.56706 1184.2048 2338.1821 2500132
-95.559799 1194.8 2359.1023 2500132
-81.483101 1193.3639 2356.2664 2500132
-67.179283 1187.3195 2344.332 2829097
-53.590073 1194.046 2357.6133 2697511
-39.474316 1189.6475 2348.9285 2434339
-25.618238 1192.5459 2354.6516 2434339
-11.714374 1197.4928 2364.4189 2697511
2.2994578 1199.4226 2368.2292 2434339
16.290384 1196.3541 2362.1707 2500132
30.488064 1204.2886 2377.8369 2500132
44.474789 1201.5083 2372.3474 2236960
58.544235 1201.7615 2372.8474 2500132
73.134224 1210.5328 2390.166 2565925
86.792953 1203.5442 2376.3674 2565925
101.37656 1209.5419 2388.2095 2565925
116.02302 1214.7281 2398.4497 2500132
129.97559 1212.3103 2393.6758 2500132
144.15579 1212.2827 2393.6213 2368546
158.40433 1212.7833 2394.6096 2500132
173.35213 1218.115 2405.137 2434339
187.10281 1214.8638 2398.7175 2500132
201.61397 1216.6609 2402.2659 2565925
216.17052 1218.4768 2405.8513 2500132
230.78958 1220.3986 2409.6458 2500132
245.19798 1221.0474 2410.9268 2500132
259.72986 1222.2058 2413.2141 2500132
273.81662 1221.2581 2411.3428 2434339
288.85248 1224.4274 2417.6006 2631718
304.88007 1231.3025 2431.1753 2565925
319.58136 1232.4424 2433.426 2368546
334.21893 1233.2488 2435.0183 2368546
349.72141 1237.048 2442.5195 2171167
363.18436 1233.6174 2435.7461 1973788
375.56546 1226.9149 2422.5122 2236960
392.52911 1235.1254 2438.7234 2302753
407.88895 1237.8853 2444.1729 2434339
422.21616 1237.4294 2443.2729 2500132
435.83829 1235.0061 2438.488 2368546
449.60345 1233.1305 2434.7847 2302753
465.70093 1237.5695 2443.5493 2302753
480.96027 1239.5806 2447.5203 2434339
494.96823 1238.3433 2445.0771 2368546
510.69064 1241.3436 2451.0012 2236960
525.86798 1242.8896 2454.054 2302753
538.77362 1239.1279 2446.6265 2368546
555.59387 1244.3307 2456.8992 2500132
571.6048 1247.5012 2463.1594 2236960
586.87787 1248.944 2466.0078 2171167
598.6109 1242.9658 2454.2043 2368546
611.7356 1240.0924 2448.5308 2302753
624.93427 1237.4984 2443.4092 2368546
637.02661 1232.8811 2434.2922 2434339
652.44067 1234.7545 2437.9912 2500132
671.79449 1243.8413 2455.9329 2434339
686.47833 1244.0796 2456.4033 2434339
699.65808 1241.6387 2451.5837 2302753
713.56305 1240.5579 2449.45 2302753
729.25909 1242.572 2453.4268 2302753
738.4007 1233.5577 2435.6282 2171167
749.97357 1228.8727 2426.3777 2368546
772.07336 1241.2885 2450.8923 2631718
784.70758 1238.3087 2445.0088 2500132
801.54535 1241.9501 2452.1987 2434339
816.45673 1242.5299 2453.3438 2302753
831.83563 1243.7888 2455.8293 2368546
845.57385 1242.5933 2453.4688 2368546
862.0799 1245.4368 2459.083 2500132
876.82825 1245.6886 2459.5803 2631718
892.00476 1246.5306 2461.2429 2500132
905.42676 1244.9331 2458.0886 2368546
921.745 1247.3054 2462.7727 2236960
936.02106 1246.8833 2461.9392 2565925
952.93243 1249.9309 2467.9565 2565925
967.45496 1249.8002 2467.6985 2368546
983.06433 1251.0565 2470.1792 2368546
996.50952 1249.5624 2467.229 2302753
1013.532 1252.5321 2473.0928 2302753
1030.1082 1254.8737 2477.7161 2500132
1049.1046 1260.0565 2487.9492 2500132
1064.4312 1260.7487 2489.3159 2368546
1074.8445 1255.6821 2479.3123 2368546
1081.3823 1246.2858 2460.7593 2302753
1109.3583 1261.5179 2490.835 2697511
1121.5574 1258.645 2485.1624 2631718
1138.0614 1260.6149 2489.0518 2631718
1154.5259 1262.4912 2492.7566 2829097
1170.0859 1263.3436 2494.4397 3026476
1185.5479 1264.0701 2495.874 2829097
1201.4911 1265.2855 2498.2739 2763304
1210.8619 1259.6343 2487.1157 2763304
1221.4121 1255.3309 2478.6189 2763047
1240.7345 1260.0388 2487.9143 2763047
1261.7861 1266.3713 2500.418 2697254
1277.5425 1267.3042 2502.2598 2565668
1287.3114 1262.3444 2492.4668 2631461
1298.7623 1259.1276 2486.1152 2762533
1317.3142 1262.7902 2493.3469 2894119
1338.3556 1268.7314 2505.0779 3222825
1355.5302 1270.9167 2509.3928 3288619
1366.1395 1266.9662 2501.5925 3486253
1369.3695 1256.3303 2480.592 4407098
1391.507 1263.0826 2493.9246 4341560
1412.2722 1268.4608 2504.5435 4341047
1423.8674 1265.5763 2498.8481 4472633
1443.156 1269.5189 2506.6328 4736058
1468.552 1278.6992 2524.7588 5065024
1485.3376 1280.2726 2527.8655 5393989
1509.0997 1287.7679 2542.6648 5657161
1527.9911 1290.9995 2549.0457 5985099
1538.7351 1287.3518 2541.8433 6248528
1544.1785 1279.3829 2526.1091 6314321
1560.7051 1280.6616 2528.6338 6577493
1587.7332 1290.4515 2547.9636 6774872
1591.6571 1281.4554 2530.2009 7432799
1620.0985 1292.1821 2551.3806 7630179
1635.2058 1292.1738 2551.3643 7367007
1646.1735 1288.9243 2544.948 7367007
1651.8246 1281.6088 2530.5037 7367007
1672.937 1286.313 2539.792 7301469
1687.8824 1286.2339 2539.636 7564641
1699.9425 1283.9768 2535.1794 7104090
1702.2314 1274.4436 2516.3564 7959913
1739.9136 1291.3446 2549.7271 8091499
1754.8914 1291.2487 2549.5374 7959656
1759.9607 1283.926 2535.0791 7696227
1781.2677 1288.4727 2544.0564 7235676
1804.7631 1294.5127 2555.9822 7498847
1819.1875 1294 2554.97 7367261
1847.0601 1302.9825 2572.7058 7433055
1863.6079 1303.8944 2574.5063 7301469
1880.8132 1305.248 2577.179 7235676
1893.3329 1303.3541 2573.4395 7235676
1983.6859 1354.6423 2674.7068 7301468
1941.0231 1315.002 2596.4377 7301469
1964.2899 1320.2997 2606.8982 7235676
1963.709 1309.6107 2585.793 7104090
1976.522 1307.9506 2582.5149 7235676
2004.5819 1316.3278 2599.0557 7433054
2029.2369 1322.3586 2610.9634 7564383
2045.6646 1322.9773 2612.1848 7498848
2057.4028 1320.5768 2607.4451 7630434
2060.3352 1312.6018 2591.6987 7630434
2088.0259 1320.4014 2607.0989 7696227
2119.2632 1330.3127 2626.6685 7630434
2119.2529 1320.6075 2607.5059 7696227
2135.8662 1321.3268 2608.926 7696227
2153.8972 1322.9065 2612.0452 7696227
2155.5908 1314.5012 2595.449 7696227
2166.8833 1312.0267 2590.5632 7367262
2177.3948 1309.1174 2584.8191 7433054
2202.9854 1315.2517 2596.9309 7498848
2234.137 1324.5979 2615.3848 7498848
2252.5278 1326.3018 2618.749 7433054
2246.4807 1313.6913 2593.8501 7301468
2276.678 1322.3033 2610.8542 7367263
2294.8577 1323.8665 2613.9404 7301469
2300.1931 1318.0483 2602.4529 7169628
2314.5901 1317.4659 2601.3027 7301214
2331.1895 1318.1361 2602.6262 7301214
2349.6028 1319.8168 2605.9443 7367007
2372.9731 1324.2416 2614.6812 7169628
2399.5525 1330.3881 2626.8174 7169628
2403.5076 1323.9928 2614.1899 7169628
2437.0386 1333.8671 2633.6865 7169629
2390.7219 1300.1907 2567.1934 7235423
2414.0398 1304.5713 2575.8428 6774871
2439.4587 1310.0254 2586.6116 7432800
2455.9604 1310.6523 2587.8496 7301214
2494.6438 1323.0356 2612.3 7103837
0 0 0 0
0 0 0 0
0 0 0 0
0 0 0 0
0 0 0 0
0 0 0 0
0 0 0 0
0 0 0 0
0 0 0 0
0 0 0 0
-1945.5206 1137.9874 2220.9431 512
-1920.9113 1131.2448 2207.7839 768
-1903.7904 1128.85 2203.1101 768
-1891.4487 1129.2754 2203.9404 768
-1880.1084 1130.3088 2205.9573 768
-1880.3345 1138.3591 2221.6685 768
-1859.2495 1133.53 2212.2439 768
-1826.6886 1121.5862 2188.9338 768
-1811.0618 1119.9435 2185.7278 768
-1795.7896 1118.4979 2182.9065 768
-1855.9746 1164.3705 2272.4333 768
-1794.0011 1133.7157 2212.6062 768
-1770.6985 1127.2274 2199.9434 512
-1759.0625 1128.125 2201.6951 512
-1734.0192 1120.3734 2186.5667 512
-1709.864 1113.0831 2172.3389 66048
-1705.0382 1118.3607 2182.6387 65792
-1708.6849 1129.3187 2204.0249 256
-1695.1952 1129.0323 2203.4658 131072
-1682.0511 1128.9735 2203.3511 196608
-1663.358 1125.1603 2195.9089 196864
-1647.1268 1122.9652 2191.625 131328
-1645.6674 1130.8864 2207.0842 262912
-1627.5747 1127.4126 2200.3047 196864
-1619.7678 1131.0651 2207.4331 196608
-1603.5874 1128.8824 2203.1733 196608
-1587.1172 1126.4583 2198.4424 196608
-1581.1393 1131.5027 2208.2871 525826
-1586.3728 1144.7211 2234.0847 657667
-1555.3229 1131.7599 2208.7891 1381647
-1546.2802 1134.7285 2214.5828 1908248
-1530.1595 1132.5093 2210.2517 2105627
-1510.9553 1127.95 2201.3535 2434591
-1497.7467 1127.8258 2201.1113 2171420
-1492.4792 1133.7319 2212.6379 2171421
-1480.3496 1134.4839 2214.1055 1908249
-1466.7115 1134.0829 2213.3228 1973787
-1457.8408 1137.3942 2219.7852 1842202
-1449.9777 1141.5588 2227.9133 1776409
-1436.9437 1141.6918 2228.1726 1776409
-1425.0369 1142.731 2230.2009 1579030
-1414.5294 1144.9225 2234.4778 1513237
-1404.5997 1147.6272 2239.7566 1776409
-1393.3082 1149.2604 2242.9438 1644823
-1378.0648 1147.6339 2239.7695 1776409
-1364.3832 1147.2891 2239.0964 1710616
-1353.219 1149.0752 2242.5823 1579030
-1342.9126 1151.6322 2247.5728 1710616
-1331.7915 1153.5349 2251.2861 1644823
-1319.951 1154.8466 2253.8462 1579030
-1301.6959 1150.5156 2245.3936 1513237
-1295.0222 1156.4371 2256.9502 1513237
-1281.6945 1156.4783 2257.0305 1381651
-1267.3422 1155.5861 2255.2893 1381651
-1253.7908 1155.4128 2254.9512 1513237
-1241.7181 1156.6134 2257.2942 1513237
-1230.135 1158.301 2260.5879 1579030
-1214.8583 1156.5095 2257.0916 1644823
-1202.0792 1157.0824 2258.2097 2171167
-1182.4093 1150.9606 2246.262 2302753
-1177.4862 1159.2173 2262.3762 1907995
-1161.2134 1156.3619 2256.8035 1776409
-1152.1707 1160.7239 2265.3164 1579030
-1137.696 1159.6519 2263.2241 1644823
-1125.3821 1160.783 2265.4316 1710616
-1112.8458 1161.7091 2267.2393 1579030
-1099.1296 1161.4113 2266.658 1710616
-1086.7063 1162.489 2268.7615 1710616
-1074.1874 1163.4902 2270.7156 1644823
-1059.5421 1162.1846 2268.1672 1579030
-1046.9001 1163.0709 2269.8972 1842202
-1034.2097 1163.9259 2271.5657 1710616
-1023.2307 1166.7548 2277.0867 1710616
-1005.7504 1162.1471 2268.094 1381651
-995.44818 1165.8212 2275.2646 1381651
-982.54266 1166.5055 2276.6001 1710616
-966.48059 1163.4089 2270.5569 1579030
-954.47552 1165.1777 2274.0088 1250065
-940.17468 1164.1545 2272.0117 1513237
-924.42932 1161.2867 2266.415 1579030
-912.94165 1163.762 2271.2456 1579030
-899.48358 1163.762 2271.2456 1579030
-885.86292 1163.5483 2270.8289 1579030
-875.96497 1168.2932 2280.0891 1973788
-863.56775 1169.8011 2283.0322 1776409
-851.2196 1171.4248 2286.2007 1842202
-834.91602 1167.5695 2278.6765 2105374
-821.8681 1168.215 2279.9363 2368546
-809.64648 1170.0762 2283.5688 2105374
