# .PCD v0.7 - Point Cloud Data file format
VERSION 0.7
FIELDS x y z rgb
SIZE 4 4 4 4
TYPE F F F U
COUNT 1 1 1 1
WIDTH 1291
HEIGHT 1
VIEWPOINT 0 0 0 1 0 0 0
POINTS 1291
DATA ascii
-107.43945 925.11139 2313.897 8673071
-93.351685 921.39038 2304.5901 9331257
-80.650459 932.42444 2332.1885 8936500
-66.403862 926.46088 2317.2722 9659966
-52.755131 927.90381 2320.8813 9133623
-38.855206 924.38818 2312.0881 9528380
-25.257282 928.14117 2321.4751 8738608
-11.49424 927.54633 2319.9873 9331259
2.2561622 929.00623 2323.6387 8475950
16.011875 928.26538 2321.7856 9068087
29.648626 924.49976 2312.3672 8936244
43.435516 926.31647 2316.9111 9462844
57.301521 928.54254 2322.479 9462845
70.972328 927.35602 2319.5112 8804914
84.75708 927.8017 2320.626 8804915
98.245644 925.33337 2314.4521 9528380
112.07553 926.29065 2316.8464 9133621
127.5098 938.85199 2348.2651 9462334
141.28429 937.9231 2345.9417 8935990
155.89352 942.20581 2356.6536 8935990
167.85483 931.09613 2328.866 9396284
183.15129 938.76917 2348.0579 9462334
196.6331 936.71417 2342.918 9331004
209.45256 931.98297 2331.0842 8936246
223.62207 933.47284 2334.8108 9067834
236.53787 929.8606 2325.7756 9264955
248.81891 924.28809 2311.8376 9330748
266.6546 938.85431 2348.271 8738864
280.78616 939.58081 2350.0881 8278057
294.44681 938.73737 2347.9785 9528381
307.76157 936.91699 2343.4253 8606768
322.52173 939.46411 2349.7961 9198904
334.49301 934.013 2336.1616 9725250
348.51727 934.49982 2337.3794 9791299
360.27383 929.10132 2323.8765 8870197
375.60205 932.97205 2333.5581 9593920
389.57959 933.33203 2334.4585 8343853
405.65225 938.51465 2347.4211 9067832
416.28061 931.17529 2329.064 9068089
433.85129 939.33783 2349.4802 9002041
443.10074 929.53662 2324.9653 8936762
456.30869 928.38019 2322.0728 8015143
467.90591 924.11029 2311.3928 12226153
484.44501 929.5658 2325.0383 8607538
496.25369 925.89374 2315.8538 8739124
517.11694 938.85852 2348.2812 9331261
527.60803 932.80591 2333.1426 9133625
533.03271 918.33374 2296.9446 9133881
554.38837 931.34564 2329.49 9199418
567.54517 930.28601 2326.8398 9659969
574.12488 918.75177 2297.9902 8936246
591.94403 925.32135 2314.4221 8936759
607.58191 928.26074 2321.7742 8739380
623.12854 930.93365 2328.4597 8673588
630.41467 921.41736 2304.6575 9134395
649.50421 929.19055 2324.0999 9463104
657.32416 920.85339 2303.2468 8805430
666.09552 914.16113 2286.5081 9002808
684.7207 920.98962 2303.5874 8607794
695.60718 917.34552 2294.4729 8475696
709.30499 917.4776 2294.8032 8344623
725.36273 920.59991 2302.6128 9068348
734.83606 915.40448 2289.6179 8542004
748.41528 915.41962 2289.6558 8541747
763.43701 917.16705 2294.0266 8081454
776.60931 916.67047 2292.7844 8147247
785.84888 911.62878 2280.1741 8607284
796.40436 908.25812 2271.7434 8673076
802.77167 900.30273 2251.8452 8147247
822.12061 906.92798 2268.4165 7754806
823.81812 894.18121 2236.5342 1114624
830.4342 887.09216 2218.803 917504
835.92059 879.03607 2198.6531 720896
835.39008 864.99725 2163.5388 851968
834.61243 851.13068 2128.8557 851968
834.93872 838.78595 2097.979 786432
849.23126 840.62817 2102.5869 4666655
853.79498 832.92627 2083.3228 7494707
869.76862 836.4162 2092.0518 7428396
902.10889 855.32599 2139.3491 7559212
911.87311 852.60297 2132.5383 7558698
888.6593 819.54138 2049.8442 7624234
899.44659 818.30511 2046.7521 7558697
908.57166 815.60956 2040.01 7624234
916.91534 812.29266 2031.7136 7558698
927.08008 810.65399 2027.615 7493161
935.94434 807.93463 2020.8132 7493675
945.15851 805.58221 2014.9296 7297070
960.04382 808.06189 2021.1318 6969137
960.65869 798.61719 1997.5084 393216
970.68353 797.12982 1993.7882 1774343
979.55304 794.74078 1987.8129 2103825
991.38068 794.78021 1987.9114 459520
998.64099 791.20001 1978.9564 196608
1007.9128 789.27795 1974.1492 327680
1017.8831 787.94092 1970.8049 1840139
1023.2405 783.10376 1958.7062 3286294
1045.2748 790.99512 1978.4441 4404257
1067.2655 798.67883 1997.6627 2693387
1076.6919 796.89478 1993.2003 4273446
1071.9153 784.75128 1962.827 2234384
1095.6295 793.50275 1984.7163 2235154
1100.953 788.89056 1973.1802 1511948
1110.4729 787.35059 1969.3284 328192
1130.8833 793.48389 1984.6691 131072
1139.7367 791.46552 1979.6207 131072
1150.5942 790.86578 1978.1205 131072
1153.0009 784.52789 1962.2683 196608
1166.4242 785.73785 1965.2946 525572
1178.9901 786.35199 1966.8306 920328
1174.0472 775.3905 1939.4137 1380620
1185.5051 775.36835 1939.3584 2038294
1190.032 770.85699 1928.0743 1643536
1195.8342 767.24963 1919.0516 985347
1198.8208 761.92072 1905.723 524288
1186.6993 747.17883 1868.8505 1050884
1215.4049 758.17767 1896.3608 5981223
1402.3883 866.80542 2168.0615 8215349
1431.927 877.02899 2193.6328 7754542
1447.9406 878.85925 2198.2107 8147760
1467.8311 882.98907 2208.5403 8476982
1478.0536 881.28143 2204.269 8475954
1496.5221 884.47736 2212.2627 8278574
1503.2238 880.72363 2202.8738 7554595
1526.1141 886.43768 2217.1658 8080940
1549.2631 892.20306 2231.5864 8081195
1564.2692 893.22113 2234.1328 9528641
1569.3413 888.59741 2222.5679 8870200
1564.7908 878.64734 2197.6807 8410419
1590.7838 885.87061 2215.7476 8279089
1610.2494 889.3703 2224.501 8344626
1618.9121 886.89496 2218.3096 8410419
1637.172 889.6748 2225.2627 7818025
1633.943 880.82605 2203.1301 9792072
1652.3469 883.68701 2210.2859 8080684
1664.2032 883.02881 2208.6396 9133372
1674.2172 881.41101 2204.593 8804407
1688.8994 882.25671 2206.7085 8673079
1717.2313 890.16522 2226.4893 8935995
1717.5648 883.55005 2209.9434 8146735
1741.4031 889.03491 2223.6621 8870456
1763.5995 893.60547 2235.094 7949354
1767.9445 889.13013 2223.9001 8475698
1782.1234 889.62988 2225.1504 8278319
1805.3344 894.59814 2237.5769 8344115
1819.1429 894.86865 2238.2537 8474931
1832.85 895.08588 2238.7969 7422500
1850.4069 897.16632 2244.0005 8475444
1859.1915 894.99438 2238.5681 8803896
1880.7278 898.94812 2248.4573 8870715
1890.3826 897.20709 2244.1025 8541750
1897.7485 894.41168 2237.1106 8542007
1902.3005 890.33807 2226.9216 8081456
1908.4539 887.06482 2218.7346 8673336
1903.6884 878.79602 2198.0525 8673593
1926.8896 883.46204 2209.7231 8015663
1948.3302 887.26324 2219.2307 7884076
1960.0977 886.63794 2217.6667 8147248
1971.3663 885.79681 2215.563 8870972
1971.7036 880.08759 2201.283 9068094
1974.6671 875.61786 2190.1033 8739129
1989.4988 876.43475 2192.1465 9463109
2018.8436 883.59308 2210.051 8739385
2036.515 885.58295 2215.0281 8475957
2047.2172 884.53619 2212.4099 8015406
2023.9664 868.92609 2173.3657 7949870
2039.9341 870.24408 2176.6624 8410164
2063.6545 874.83209 2188.1379 8805179
2083.3206 877.65485 2195.1982 8804922
2082.3457 871.80109 2180.5566 8278835
0 0 0 0
0 0 0 0
0 0 0 0
0 0 0 0
0 0 0 0
0 0 0 0
0 0 0 0
0 0 0 0
0 0 0 0
-1983.621 912.58185 2249.2229 1280
-1969.6577 912.28741 2248.4973 1280
-1920.9949 895.80768 2207.8799 1280
-1942.0225 911.82318 2247.353 1280
-2006.4115 948.55957 2337.8965 1280
-2014.4415 958.97699 2363.5723 1280
-1996.9198 957.2912 2359.4172 1280
-1918.0542 925.96704 2282.2131 1280
-1895.3171 921.48724 2271.1719 1280
-2129.7722 1042.8822 2570.3718 1280
-2112.8398 1042.043 2568.3032 1280
-1799.8192 894.10266 2203.6775 1024
-1794.012 897.73077 2212.6196 1024
-1806.3983 910.58337 2244.2974 1024
-1877.7305 953.5611 2350.2236 1024
-1871.9192 957.71265 2360.4561 1024
-1852.0924 954.70227 2353.0364 768
-1952.2327 1013.9549 2499.0752 768
-1939.9281 1015.2651 2502.3044 768
-1928.8584 1017.2468 2507.1885 512
-1920.1228 1020.4996 2515.2058 256
-1884.8734 1009.6017 2488.3459 65536
-1902.5366 1027.0973 2531.4668 131072
-1864.1854 1014.3907 2500.1492 854533
-1866.7579 1023.9276 2523.6545 590848
-1827.5079 1010.4932 2490.5432 1051395
-1818.2783 1013.5746 2498.1379 1116674
-1794.7997 1008.6985 2486.1199 1905933
-1777.3811 1007.1758 2482.3667 1379332
-1762.1285 1006.8652 2481.6013 1576712
-1735.6169 1000.062 2464.8335 1708295
-1725.0842 1002.4283 2470.6658 1576453
-1707.193 1000.5228 2465.9692 1773062
-1688.6221 998.1825 2460.2012 1904648
-1668.8812 995.10382 2452.6133 1641476
-1650.5586 992.82416 2446.9946 1509633
-1635.0881 992.23486 2445.5422 1575683
-1620.8322 992.37866 2445.8967 1575170
-1603.5907 990.68066 2441.7117 1772292
-1585.9047 988.67456 2436.7671 1772549
-1571.4698 988.67706 2436.7734 1641220
-1548.2849 983.12354 2423.0857 1707269
-1528.4209 979.59454 2414.3877 1773062
-1515.8481 980.716 2417.1519 2628371
-1506.9518 984.26013 2425.887 1904135
-1492.1462 983.97577 2425.1863 1904135
-1475.5695 982.50647 2421.5649 2101514
-1461.2059 982.49646 2421.5403 2101514
-1442.7715 979.72211 2414.7021 2035721
-1428.2023 979.54297 2414.2607 1640963
-1411.5485 977.91595 2410.2507 2035207
-1392.5212 974.59479 2402.0649 2035207
-1374.8734 972.18024 2396.114 1903621
-1366.4116 976.27863 2406.2151 2232586
-1349.2419 974.17609 2401.0332 1969928
-1339.8545 977.70776 2409.7375 1904135
-1320.5868 974.02795 2400.668 1904135
-1305.3433 973.26849 2398.7961 1772549
-1289.9778 972.40033 2396.6565 1772549
-1277.1744 973.4657 2399.2822 1838342
-1262.9492 973.45911 2399.2661 2166793
-1249.7875 974.28156 2401.293 2101000
-1240.1631 977.91205 2410.2412 1903621
-1222.8765 975.51495 2404.333 2035207
-1212.7075 978.80615 2412.4448 2166793
-1195.8347 976.70062 2407.2551 1969414
-1178.9363 974.52295 2401.8879 2101000
-1162 972.26025 2396.3113 1903365
-1149.4237 973.63489 2399.6992 2364172
-1135.8811 974.21515 2401.1294 2364429
-1119.6055 972.43646 2396.7454 2100999
-1104.329 971.49078 2394.4148 2100999
-1092.744 973.81049 2400.1321 2100999
-1075.2283 970.8363 2392.8015 2100486
-1063.3441 972.93549 2397.9753 2363658
-1045.4802 969.5459 2389.6211 2363657
-1031.3021 969.52838 2389.5779 2363658
-1023.8858 975.95569 2405.4192 2297865
-1001.9324 968.51227 2387.0735 2495244
-985.01636 965.79462 2380.3755 2297865
-978.7395 973.58118 2399.5669 2100229
-961.14459 970.17285 2391.1665 2363401
-947.88123 971.10034 2393.4524 2297865
-928.65411 965.85339 2380.5203 2297865
-917.88599 969.37799 2389.2073 2363657
-902.72412 968.30005 2386.5505 2429450
-892.72302 972.81177 2397.6704 1903107
-871.8313 965.40955 2379.4265 2232072
-855.33563 962.7121 2372.7781 2166279
-839.62665 960.82477 2368.1265 2297608
-825.71057 960.9599 2368.4592 2494987
-810.04987 959.03412 2363.7129 2757902
-793.81335 956.34674 2357.0896 2560521
-779.58826 956.02985 2356.3083 2823694
-767.10571 957.87726 2360.8618 2560778
-750.7085 954.81439 2353.3127 2297605
-736.63977 954.6532 2352.9155 2494985
-722.05426 953.80316 2350.8203 2297863
-705.68616 950.51855 2342.7249 2429192
-692.10529 950.9317 2343.7432 2428678
-678.76001 951.6922 2345.6174 2757387
-663.35223 949.5321 2340.2935 2757130
-650.31909 950.7514 2343.2988 2560008
-633.32684 946.1095 2331.8579 2494215
-619.80206 946.55615 2332.9587 2625801
-604.73761 944.61798 2328.1819 2494215
-590.82135 944.42493 2327.7061 2691593
-576.9989 944.37604 2327.5854 2362629
-565.54572 948.29749 2337.2505 2757386
-553.03473 950.59766 2342.9197 2626054
-536.93146 946.6825 2333.2703 2626055
-523.54596 947.47894 2335.2332 2625798
-507.32358 943.04523 2324.3054 2559749
-494.30588 944.48737 2327.8599 2493699
-479.6705 942.83258 2323.7812 2625285
-463.91052 938.80414 2313.8525 2559493
-449.71973 937.80255 2311.384 2559749
-438.70813 943.57593 2325.6135 2757128
-422.86786 939.00146 2314.3389 2691335
-410.83722 942.86322 2323.8569 2362370
-396.79633 942.21948 2322.2703 2690564
-386.19217 949.98346 2341.406 3085061
-372.56625 950.61591 2342.9646 4004360
-360.19937 954.63403 2352.8682 5187860
-344.54059 949.8999 2341.2002 6305822
-324.81583 933.08856 2299.7654 7489835
-311.21854 933.1778 2299.9854 8278577
-296.26328 929.01678 2289.7297 9002040
-283.34842 931.16174 2295.0166 8739122
-271.59692 937.539 2310.7344 7225626
-255.83591 930.0177 2292.1968 8739121
-244.21533 937.5484 2310.7576 9068087
-229.68422 934.13629 2302.3479 8475693
-215.91664 933.59479 2301.0132 8343850
-201.91107 931.88177 2296.7913 8541486
-188.63345 933.52386 2300.8384 8738864
-174.72179 932.03949 2297.1797 8870450
-160.8465 930.51459 2293.4214 8935988
-147.14333 929.79608 2291.6504 9199417
-133.28323 927.83893 2286.8267 9594688
-119.19068 923.63727 2276.4709 8739123
-106.35249 929.32416 2290.4873 8411188
-92.432175 925.83588 2281.8899 7621674
-78.999649 926.87531 2284.4517 6899236
-65.465836 926.91028 2284.5381 6832672
-51.688168 922.61115 2273.9419 8805944
-38.429638 927.81372 2286.7646 8673584
-24.682808 920.47345 2268.6733 8738864
-11.294281 924.91815 2279.6279 9133879
2.2264316 930.35126 2293.019 8870451
15.827994 931.20471 2295.1223 9133623
29.272236 926.29102 2283.0117 9002039
42.53204 920.49176 2268.7185 8738867
56.448906 928.2832 2287.9219 9396796
70.159492 930.32178 2292.946 9199674
83.865509 931.64801 2296.2151 9199672
97.490387 931.82855 2296.6599 10383179
110.32803 925.36194 2280.7217 9462333
124.00175 926.55402 2283.6599 9067576
137.97681 929.54144 2291.0229 8936246
152.47719 935.21588 2305.0085 9396540
165.1994 929.94751 2292.0237 9330745
179.07269 931.4671 2295.769 9988676
191.73795 926.93195 2284.5913 9462077
204.49677 923.41748 2275.9292 9264698
219.94377 931.72559 2296.4062 9264698
233.44783 931.31445 2295.3928 9067319
246.99472 931.10992 2294.8887 8278059
261.96793 936.02319 2306.9983 8869940
277.49005 942.31299 2322.5007 9133368
291.94745 944.56372 2328.0481 8475692
300.49692 928.35931 2288.1094 8278313
314.30646 929.10297 2289.9421 8870194
330.73816 937.21552 2309.937 9067829
341.05222 928.0365 2287.3137 9001780
356.3959 932.72229 2298.8628 9133882
371.87393 937.40161 2310.3958 9792068
381.62 927.81287 2286.7627 9002295
395.55957 928.7276 2289.0171 9660225
409.28745 929.10101 2289.9375 9265468
423.87555 931.34076 2295.4575 9594433
438.76599 934.08478 2302.2207 8804661
452.21323 933.68347 2301.2317 9133626
464.5274 931.03473 2294.7034 9528383
481.91324 938.41254 2312.8872 9002296
489.90527 927.59589 2286.2278 8936503
503.56235 927.79907 2286.7285 9397054
517.41687 928.3457 2288.0759 9397053
532.71136 931.38232 2295.5601 9265467
545.35675 929.75116 2291.5398 9594432
561.4823 933.98834 2301.9832 8936503
571.7066 928.4411 2288.3108 9199675
583.75085 926.03784 2282.3877 9134395
602.46881 934.0907 2302.2354 8608052
616.54083 934.7431 2303.8435 8673590
611.84442 907.52869 2236.7686 8278832
635.56 922.71741 2274.2039 8212782
644.78912 916.68036 2259.3245 8936505
652.15527 908.29419 2238.6553 7949351
669.10675 913.32629 2251.0579 8804917
678.36523 907.86603 2237.6001 9002296
693.60303 910.46387 2244.0029 9068601
714.61151 920.39655 2268.4836 7949865
723.81665 915.04077 2255.2834 8673590
739.56696 918.0036 2262.5857 8147246
754.51239 919.87946 2267.2092 8804662
761.90094 912.63776 2249.3608 8344367
780.05347 918.31708 2263.3584 8212782
793.31091 918.13892 2262.9194 8804919
808.17896 919.79993 2267.0132 8278576
810.33771 907.17834 2235.905 7884590
831.7851 916.20923 2258.1633 7162671
824.98792 894.33539 2204.2512 2823436
822.86768 878.1344 2164.321 851968
830.26227 872.42883 2150.2585 851968
832.99756 862.07373 2124.7366 851968
838.20978 854.55225 2106.1985 786432
846.05524 849.89655 2094.7236 4075034
850.71454 842.22113 2075.8062 7625525
890.40637 868.953 2141.6919 7428653
900.76013 866.70471 2136.1504 7559469
911.35095 864.74365 2131.3171 7624491
889.95099 832.89636 2052.8237 7558698
900.29401 831.21533 2048.6804 7558698
910.56177 829.51038 2044.4784 7558697
918.68628 825.9234 2035.6376 7558697
928.47571 823.9068 2030.6674 7493417
936.04547 819.99731 2021.0317 7428139
945.633 817.93195 2015.9412 7428140
956.62561 817.11823 2013.9357 7297583
963.4964 812.84723 2003.4089 6705457
969.58069 808.02472 1991.5229 1774082
983.72394 809.95361 1996.277 1248513
993.78088 808.51208 1992.7241 787712
1002.8441 806.30542 1987.2855 262400
1014.2253 805.99219 1986.5134 262144
1024.7277 804.99561 1984.0571 262144
1037.9126 806.10516 1986.7919 262144
1052.4697 808.24359 1992.0624 262144
1066.1561 809.67334 1995.5863 327936
1066.3199 800.91486 1973.9995 919299
1064.4767 790.85529 1949.2059 524288
1076.6462 791.31079 1950.3285 2957588
1083.4025 787.82019 1941.7252 4207908
1093.9973 787.16486 1940.1101 1709321
1120.7761 798.047 1966.9312 4339490
1136.6144 800.99524 1974.1975 3747099
1152.106 803.64148 1980.7196 3024408
1160.1687 801.10455 1974.4672 1643532
1167.1195 797.85828 1966.4661 65536
1174.9799 795.29187 1960.1405 328449
1184.7247 794.0387 1957.0519 131072
1190.1622 789.95087 1946.9767 196608
1195.4451 785.8399 1936.8445 131072
1193.4716 777.08234 1915.26 459008
1199.0747 773.37665 1906.1266 458752
1210.3693 773.37665 1906.1266 1509891
1200.5233 759.99359 1873.1416 5719334
1400.8755 878.70306 2165.7227 8741180
1438.2059 893.92987 2203.2517 8214322
1453.9421 895.5813 2207.322 7818795
1465.3595 894.56677 2204.8215 8082224
1469.1158 888.93457 2190.9399 8739383
1477.3259 886.07233 2183.8855 8080939
1473.4169 876.05414 2159.1938 7686181
1492.5504 879.79095 2168.4038 7949610
1525.4519 891.51025 2197.2883 8015402
1538.1083 891.29974 2196.7693 8804919
1538.1653 883.85278 2178.415 8606772
1559.0745 888.41211 2189.6523 9002043
1583.9652 895.14636 2206.25 8080684
1586.1794 889.06006 2191.2493 8607798
1596.084 887.34796 2187.0295 8015660
1605.037 885.13873 2181.5845 7751976
1624.1588 888.52795 2189.9377 9067835
1621.0422 879.79382 2168.4109 8804407
1637.9448 881.97668 2173.791 9067835
1642.5178 877.53821 2162.8516 9067835
1656.3127 878.05731 2164.1309 8475955
1679.3346 883.42218 2177.3538 8673077
1695.9281 885.34955 2182.104 8607028
1724.7594 893.58795 2202.4092 8409649
1743.4491 896.48792 2209.5564 8278063
1749.7734 893.03357 2201.0427 8212527
1770.0831 896.71539 2210.1172 8146733
1784.084 897.17041 2211.2388 8277807
1805.5765 901.35883 2221.5618 7949099
1811.5977 897.81909 2212.8374 6961692
1817.3372 894.19153 2203.8967 7685158
1845.999 901.81396 2222.6836 7290398
1856.8289 900.67865 2219.8853 7158812
1869.7875 900.58466 2219.6538 8804407
1877.0361 897.76105 2212.6943 8212786
1886.3766 895.97009 2208.2803 8278835
1881.9073 887.68988 2187.8721 7884077
1889.3713 885.11316 2181.5215 8410167
1897.5447 882.90167 2176.0708 8344628
1932.2499 892.98169 2200.9148 7949870
1947.8473 894.15497 2203.8066 8738873
1949.5897 888.99493 2191.0889 7225891
1944.1831 880.66504 2170.5581 8607543
1958.8936 881.49701 2172.6086 8278322
1979.8083 885.09186 2181.469 8410421
1993.9795 885.64496 2182.832 8475957
2004.0756 884.39246 2179.7451 7949613
2011.441 881.9588 2173.7468 7752490
1998.8318 870.85339 2146.3757 8213041
2013.3264 871.62262 2148.2715 8542006
2029.2284 872.98737 2151.6353 8278834
2030.6473 868.14343 2139.6965 8081199
2067.7847 878.53522 2165.3088 7423526
0 0 0 0
0 0 0 0
0 0 0 0
0 0 0 0
0 0 0 0
0 0 0 0
0 0 0 0
0 0 0 0
0 0 0 0
0 0 0 0
-1927.7128 905.89929 2200.6143 1280
-1925.62 911.07855 2213.1958 1280
-2050.3096 976.7254 2372.6655 1280
-2002.8962 960.72638 2333.8005 1280
-1895.3649 915.46771 2223.8579 1280
-1857.8657 903.63788 2195.1208 1280
-1851.1685 906.72839 2202.6284 1024
-2070.2576 1021.2416 2480.8042 1024
-1806.7694 897.63861 2180.5474 1024
-1804.4642 902.95056 2193.4512 768
-1801.0089 907.75983 2205.134 768
-1783.0061 905.25348 2199.0457 768
-1900.3063 971.91101 2360.9702 768
-1874.5271 965.83655 2346.2141 768
-1967.2213 1021.17 2480.6304 768
-1958.1219 1024.0985 2487.7441 512
-1942.318 1023.5382 2486.3833 256
-1924.5933 1021.9495 2482.5239 256
-1909.6432 1021.821 2482.2119 0
-1901.8883 1025.5704 2491.3201 131328
-1873.6863 1018.2665 2473.5771 591873
-1861.6056 1019.6776 2477.0051 1051142
-1812.5222 1000.6822 2430.8613 1380362
-1822.2266 1014.0988 2463.4529 1445641
-1787.0244 1002.5391 2435.3721 1511175
-1781.4668 1007.5573 2447.5625 1642505
-1767.8114 1008.0406 2448.7363 1774091
-1745.0505 1003.2968 2437.2126 1445126
-1726.1554 1000.7148 2430.9404 1642505
-1707.0619 997.97333 2424.281 1511174
-1698.5844 1001.4443 2432.7126 1576710
-1685.2036 1002.0593 2434.2065 1641476
-1660.0355 995.61511 2418.5525 1444098
-1641.8992 993.31293 2412.96 1641476
-1622.0129 989.9024 2404.675 1707269
-1607.5176 989.75049 2404.3059 1838855
-1588.5867 986.84052 2397.2371 1838598
-1570.3181 984.29309 2391.0488 1641476
-1560.4543 987.01562 2397.6624 1706756
-1540.2123 983.16339 2388.3044 1772549
-1520.6249 979.66138 2379.7974 1838342
-1504.9824 978.65912 2377.3628 1969671
-1490.5941 978.46118 2376.8821 1969928
-1471.41 975.08142 2368.6719 1969928
-1461.2045 977.64386 2374.8965 1640964
-1453.9088 982.22198 2386.0176 2101514
-1434.7485 978.79572 2377.6946 1969671
-1418.8551 977.55237 2374.6743 2101000
-1403.3978 976.58765 2372.3308 1903621
-1388.6965 976.13483 2371.2307 1903621
-1371.8602 974.15656 2366.4253 1772035
-1357.5292 973.93494 2365.8867 1838085
-1341.5334 972.50171 2362.4053 1706756
-1326.3535 971.63617 2360.3025 1706757
-1313.0862 972.16797 2361.5945 1838342
-1299.5474 972.50818 2362.4209 1838342
-1284.0072 971.34174 2359.5874 1772549
-1276.7468 976.48218 2372.0747 2035721
-1259.3121 973.8689 2365.7263 2364429
-1245.9324 974.36792 2366.9387 2298379
-1231.9336 974.38879 2366.9893 2035207
-1219.7157 975.83478 2370.502 1969414
-1206.4677 976.48083 2372.0713 1837828
-1192.1949 976.30298 2371.6392 2298379
-1173.1207 972.14185 2361.531 2298379
-1159.7495 972.66339 2362.7979 2298121
-1152.2656 978.19556 2376.2368 2298378
-1135.4106 975.81079 2370.4436 2232585
-1118.7152 973.50513 2364.8428 2232328
-1103.1124 972.10388 2361.4387 2232072
-1089.0076 972.00354 2361.1951 2100229
-1075.0166 972.00354 2361.1951 2363401
-1059.8 970.88086 2358.4678 2297608
-1044.7694 969.90076 2356.0869 2560780
-1030.9421 970.02637 2356.3921 2561037
-1017.3143 970.3457 2357.1677 2232072
-1006.5153 973.40961 2364.6106 2626573
-994.92346 975.78247 2370.3748 2758416
-977.96344 972.88306 2363.3315 2363401
-962.98962 971.90381 2360.9529 2429194
-945.34857 968.16425 2351.8687 2429451
-931.69202 968.45447 2352.5737 2495243
-917.1568 967.82642 2351.0479 2297865
-898.93896 963.23279 2339.8892 2297865
-889.65295 968.21588 2351.9941 2034693
-873.9209 966.23071 2347.1716 2363658
-859.64746 965.82007 2346.1741 1968643
-843.36353 963.10004 2339.5667 2363401
-827.3443 960.59637 2333.4846 2626573
-812.71716 959.65131 2331.189 2626573
-798.37201 959.01245 2329.637 2494987
-784.20679 958.57092 2328.5645 2758157
-769.02063 956.84326 2324.3677 2626571
-755.66162 957.36761 2325.6414 2231813
-737.28296 951.43365 2311.2266 2297349
-724.79767 953.02417 2315.0903 2494985
-709.04742 950.30023 2308.4734 2692364
-696.03131 951.20575 2310.6729 2297606
-680.86511 949.15015 2305.6794 2626314
-662.74701 942.81104 2290.2805 2691594
-651.15204 945.6806 2297.2512 2625544
-637.24518 945.24347 2296.1895 2428165
-623.20093 944.57898 2294.5752 2625801
-610.75323 946.35864 2298.8984 2691337
-597.70575 947.26917 2301.1101 2691594
-582.6358 944.94183 2295.4565 2757387
-565.8786 939.70135 2282.7266 2560008
-554.86292 943.97229 2293.1013 2757385
-539.96686 941.69031 2287.5579 2362884
-525.96875 940.89709 2285.6311 2823434
-512.60999 941.2359 2286.4541 2823434
-499.50259 942.0672 2288.4736 2757127
-485.3183 940.85718 2285.5342 2625542
-472.42145 942.14514 2288.6628 2757128
-456.83237 937.98151 2278.5486 2625542
-443.31113 937.93939 2278.4463 2954507
-430.01971 938.39624 2279.5559 2691335
-416.71976 938.86322 2280.6904 2493956
-404.22357 941.23328 2286.4478 2690822
-391.83624 944.02997 2293.2415 2821892
-378.88843 945.62866 2297.125 3084035
-367.9068 952.43646 2313.6626 4004360
-351.58673 945.41632 2296.6094 5648410
-338.69891 947.43182 2301.5054 6371102
-324.19653 944.91052 2295.3806 7357734
-307.23044 934.67328 2270.5122 7950123
-295.25101 939.36371 2281.9062 8475951
-279.65619 932.44983 2265.1108 8870708
-265.88058 931.21027 2262.0999 8739121
-252.84297 932.56097 2265.3811 8475949
-239.80997 934.08124 2269.074 8673072
-225.83795 931.90723 2263.793 8804658
-212.50208 932.24945 2264.6243 8541229
-199.65152 934.91052 2271.0884 9001780
-185.01286 928.97772 2256.6765 9199159
-173.08614 936.79846 2275.6748 9199416
-158.80548 932.12421 2264.3198 8607279
-145.54907 933.15381 2266.821 8541744
-131.44746 928.42303 2255.3291 8410158
-117.87277 926.7644 2251.2998 8344109
-105.66777 936.82562 2275.7407 8673332
-90.915268 923.94122 2244.4419 9265980
-77.714607 925.1145 2247.292 8804919
-64.683075 929.20239 2257.2224 9265470
-51.401798 930.89893 2261.3435 9265981
-37.767773 925.15082 2247.3801 9332030
-24.514549 927.54993 2253.2083 9331259
-11.209683 931.39673 2262.5527 9199415
2.1794026 923.99951 2244.5835 8673331
15.479461 923.99951 2244.5835 9988934
28.675102 920.64703 2236.4397 9002296
42.416759 931.40344 2262.5691 9199674
55.96521 933.76971 2268.3171 9462847
69.274879 932.00708 2264.0354 9594433
82.886971 934.22485 2269.4229 9067832
94.872337 920.04791 2234.9844 9528639
108.92717 926.95502 2251.7629 8278060
121.67365 922.43567 2240.7847 8541745
135.46744 925.96436 2249.3564 8870710
150.40231 935.96191 2273.6426 9002296
163.95259 936.40771 2274.7253 9594177
176.02333 928.97723 2256.6753 9989190
189.17661 927.90576 2254.0725 8804660
203.5786 932.69672 2265.7107 8936504
216.92963 932.37769 2264.9358 8475953
231.57823 937.34808 2277.0098 9331003
243.51245 931.38904 2262.5342 8739124
257.71497 934.27509 2269.5449 8673074
271.43948 935.22791 2271.8594 9528127
283.95285 932.11493 2264.2974 8475437
299.20114 937.85559 2278.2427 9331001
310.69617 931.84375 2263.6387 8475693
322.88086 928.31232 2255.0601 9133623
337.38217 931.4574 2262.7002 8804661
351.17996 932.49396 2265.2183 9068088
365.57428 934.97992 2271.2571 10317901
376.48901 928.70605 2256.0166 8344368
393.69104 937.83978 2278.2043 9067831
406.42728 936.08246 2273.9353 9594429
419.63452 935.48779 2272.4907 8541488
432.52502 934.24591 2269.4741 8673330
446.23184 934.78906 2270.7935 9068087
456.78781 928.89307 2256.4709 9199674
471.80936 932.15509 2264.395 8541744
482.43991 926.80121 2251.3894 9528383
499.62411 933.98669 2268.8445 8738867
511.88953 931.84161 2263.6335 8738867
527.0954 935.02216 2271.3596 9594432
541.96021 937.45428 2277.2678 9265211
554.53992 935.91162 2273.5205 9331004
569.12781 937.7511 2277.9888 8936502
574.89172 925.30292 2247.7498 8870709
587.62799 924.38654 2245.5237 8476465
601.64142 925.47534 2248.1685 8476465
611.81268 920.73474 2236.6526 8673333
623.57092 918.53278 2231.3037 8936762
634.30353 914.94281 2222.583 8870967
646.53497 913.617 2219.3623 8278829
662.12518 916.99573 2227.5698 8344622
672.18927 912.73865 2217.2285 10449485
683.9248 910.87079 2212.6912 7621155
695.82678 909.29083 2208.853 7950121
709.24969 909.71997 2209.8955 9068345
723.77509 911.52191 2214.2729 8673587
738.78381 913.85773 2219.947 7489057
745.6402 906.20386 2201.3542 9463107
760.49121 908.36237 2206.5977 8213294
777.1499 912.57062 2216.8203 8673588
790.53729 912.86133 2217.5266 8936759
806.98584 916.61963 2226.6562 8081965
820.27454 916.72583 2226.9141 8608564
832.54028 915.70325 2224.4302 8083252
825.66333 893.9859 2171.6743 3941651
824.414 878.93494 2135.1123 655360
827.20856 868.58508 2109.9705 851968
833.77649 862.44647 2095.0586 851968
841.43768 857.60223 2083.291 2694672
850.06097 853.86462 2074.2114 7493938
871.32037 862.7453 2095.7844 7296812
882.78021 861.80945 2093.5112 7493418
891.8349 858.58423 2085.6763 7624489
900.83789 855.39789 2077.9363 7624490
900.79211 843.82117 2049.814 7624490
910.36603 841.44385 2044.0389 7558697
919.43854 838.67151 2037.3044 7624234
927.84381 835.37042 2029.2854 7624490
936.44861 832.33105 2021.9021 7690541
946.01794 830.21497 2016.7617 7494190
955.29297 827.89667 2011.13 7559980
961.74951 823.2229 1999.7765 7362866
975.16565 824.54761 2002.9945 6443055
987.38873 824.84375 2003.7139 1115392
1032.0538 851.91229 2069.469 721664
1032.2753 842.08972 2045.6079 591360
1026.321 827.51575 2010.2047 459264
1037.4529 826.89453 2008.6957 196608
1049.7618 827.21497 2009.4739 262144
1055.0094 822.02625 1996.8695 262144
1067.1945 822.29797 1997.5297 393216
1077.851 821.39905 1995.3459 393216
1082.9717 816.34668 1983.0728 393216
1083.8092 808.20868 1963.304 393216
1095.0918 807.94989 1962.6753 327680
1100.4965 803.4054 1951.6357 262144
1110.7179 802.43536 1949.2793 525057
1118.7496 799.91956 1943.168 722178
1114.4232 788.7088 1915.9348 1182981
1135.3533 795.4187 1932.2344 3813411
1131.6063 784.8786 1906.6304 2168071
1159.1263 796.01917 1933.6931 2760468
1177.693 800.85327 1945.4362 4996395
1181.8693 795.90271 1933.4103 3023893
1189.724 793.50073 1927.5752 1445896
1192.7825 787.97583 1914.1541 1051652
1200.9772 785.9162 1909.1509 524288
1211.9667 785.70679 1908.6421 1247488
1200.943 771.36224 1873.7964 6111782
1393.9637 887.13721 2155.0374 7425835
1416.2468 893.13678 2169.6116 8280373
1428.3905 892.69177 2168.5305 8936506
1443.5579 894.12744 2172.0181 7752488
1470.9087 903.01752 2193.6138 7949611
1458.1982 887.37274 2155.6096 8212525
1469.1665 886.28418 2152.9651 8409905
1478.5977 884.29498 2148.1331 8673078
1500.1655 889.53638 2160.8655 8344112
1505.3086 885.03217 2149.9238 8607540
1510.5878 880.68292 2139.3586 8146733
1533.5007 886.60107 2153.7351 8344113
1553.5416 890.7749 2163.874 8147247
1579.4863 898.23773 2182.0029 8410419
1587.2716 895.33612 2174.9543 8936762
1591.546 890.51685 2163.2473 8739383
1609.0222 893.10248 2169.5281 8475955
1610.8076 887.00677 2154.7205 7620903
1608.3782 878.70416 2134.5518 9792071
1616.2125 876.09467 2128.2129 8081453
1620.3403 871.53217 2117.1294 7884075
1649.0111 880.13916 2138.0376 8146734
1663.4187 881.06018 2140.2751 8541492
1690.7446 888.75793 2158.9744 8607027
1709.6552 891.94971 2166.7278 7686182
1725.6266 893.57178 2170.6682 8409906
1738.4885 893.57178 2170.6682 8475442
1766.7196 901.41327 2189.7168 8804663
1761.4401 892.16742 2167.2568 8607028
1773.449 891.74847 2166.2393 8607030
1802.3873 899.78729 2185.7671 8541493
1801.8865 893.11951 2169.5696 8541237
1817.8739 894.66083 2173.3137 7949614
1839.5137 898.94269 2183.7153 8014893
1841.9313 893.83673 2171.312 7620134
1845.3749 889.29614 2160.2817 7949098
1843.2391 882.14777 2142.917 8607798
1831.035 870.31171 2114.1648 8607799
1860.7657 878.43311 2133.8933 8870971
1878.5895 880.86188 2139.7932 8476214
1898.5 884.22992 2147.9749 7818284
1918.8588 887.76044 2156.5513 8936764
1924.6664 884.5567 2148.7688 7686441
1955.5413 892.83997 2168.8906 8278835
1948.7366 883.92426 2147.2324 7884076
1944.72 876.38043 2128.907 8476214
1970.6034 882.32147 2143.3389 8739129
1972.0226 877.30286 2131.1477 9133887
1974.8523 872.97162 2120.6262 8213041
1990.7125 874.41882 2124.1418 7620905
1991.6642 869.34039 2111.8052 8870972
1996.6594 866.07928 2103.8833 8475957
2001.964 862.99207 2096.3838 9463109
0 0 0 0
0 0 0 0
0 0 0 0
0 0 0 0
0 0 0 0
0 0 0 0
0 0 0 0
0 0 0 0
0 0 0 0
-1902.9355 901.03265 2157.7339 1280
-1909.087 910.05994 2179.3518 1280
-1951.037 936.39142 2242.4087 1280
-1966.937 950.49579 2276.1848 1024
-1884.6198 917.00494 2195.9832 1024
-1839.558 901.302 2158.3789 512
-1804.8375 890.48151 2132.4666 768
-1802.9131 895.80353 2145.2114 768
-1788.9144 895.1593 2143.6687 768
-1789.8414 902.02808 2160.1174 768
-1768.6006 897.74323 2149.8564 768
-1777.2538 908.6806 2176.0486 768
-1980.4252 1019.9584 2442.5295 768
-1938.6097 1005.7729 2408.5591 512
-1929.0508 1008.2361 2414.4575 512
-1918.8373 1010.3914 2419.6189 256
-1912.1069 1014.427 2429.2832 512
-1903.0568 1017.2839 2436.1245 0
-1886.9175 1016.3659 2433.9263 460032
-1863.2971 1011.3731 2421.97 1117702
-1850.7111 1012.3386 2424.282 722433
-1819.9376 1003.293 2402.6201 919297
-1808.015 1004.5785 2405.6987 1116420
-1800.7161 1008.474 2415.0273 1379847
-1785.6219 1008.0314 2413.9675 1576970
-1768.5159 1006.4367 2410.1484 1576712
-1753.5355 1006.0355 2409.1877 1313540
-1738.9999 1005.8849 2408.8271 1642245
-1721.5264 1004.0186 2404.3577 1641989
-1701.9725 1000.8975 2396.8838 1707269
-1685.1541 999.34613 2393.1685 1838855
-1673.4458 1000.8248 2396.7095 1246720
-1655.0695 998.30658 2390.679 1312512
-1627.2601 990.00592 2370.801 1509890
-1612.0575 989.29736 2369.1042 1575682
-1591.8853 985.49976 2360.01 1575684
-1575.073 983.73322 2355.7798 1509634
-1556.6437 980.91632 2349.0339 1706756
-1541.8997 980.39166 2347.7776 2299149
-1524.418 978.10095 2342.292 1707269
-1504.9462 974.47949 2333.6196 1969928
-1494.0671 976.40649 2338.2341 1969928
-1481.7483 977.4198 2340.6606 1969928
-1463.9415 974.79797 2334.3823 1838342
-1450.9094 975.33582 2335.6702 1969671
-1437.2058 975.42822 2335.8914 2101514
-1416.1777 970.50299 2324.0969 2101515
-1409.0702 975.11444 2335.1401 1838341
-1392.9606 973.52588 2331.3359 2101000
-1380.808 974.69873 2334.1445 2035464
-1371.146 977.67114 2341.2627 1969928
-1345.8129 969.41614 2321.4941 2100743
-1337.6844 973.51154 2331.3015 1706499
-1323.2126 973.02771 2330.1428 1640963
-1307.3828 971.5246 2326.5432 1706756
-1293.2987 971.30042 2326.0066 2035721
-1281.2163 972.59106 2329.0972 1838342
-1264.6215 970.44708 2323.9629 1772549
-1250.8623 970.45569 2323.9836 1903621
-1241.343 973.79065 2331.97 2232329
-1228.7194 974.73798 2334.2385 1969414
-1214.9878 974.81799 2334.4302 1969414
-1201.4005 975.01703 2334.9067 1837828
-1187.8435 975.24548 2335.4539 1706242
-1172.9089 974.33496 2333.2734 2298379
-1158.1896 973.58368 2331.4741 2101000
-1144.6267 973.79797 2331.9875 2035205
-1126.1118 969.75323 2322.3015 2232585
-1113.2148 970.50616 2324.1045 2100998
-1100.0687 971.05804 2325.426 2297865
-1081.7538 967.0033 2315.7161 2363658
-1071.5229 970.16388 2323.2847 2166022
-1058.1047 970.48328 2324.0496 2297865
-1042.0221 968.33496 2318.905 2166279
-1031.7095 971.56293 2326.635 2166279
-1014.4347 968.23322 2318.6614 2034693
-1005.353 972.7395 2329.4526 2166279
-986.35364 967.6416 2317.2446 2363658
-971.40216 966.42706 2314.3362 2297864
-963.50964 972.30103 2328.4026 2363401
-949.71289 972.30103 2328.4026 2034436
-932.97021 969.24054 2321.0735 2166022
-919.13312 969.1521 2320.8618 2232072
-904.35913 968.05823 2318.2422 2363658
-888.04315 965.25452 2311.5281 2297865
-874.02728 964.90222 2310.6843 2429194
-859.31268 963.75488 2307.937 2166279
-841.48468 959.02234 2296.6038 2232072
-830.11115 961.61108 2302.8032 2561037
-812.9353 957.4527 2292.8447 2429451
-800.4339 958.75183 2295.9558 2297608
-786.2536 958.05023 2294.2756 2823951
-774.03778 959.7597 2298.3694 2034434
-759.27399 958.31445 2294.9084 2033921
-745.27466 957.79895 2293.6741 2494471
-730.36877 956.0777 2289.552 2363399
-716.58337 955.78577 2288.853 2231813
-699.31073 950.74139 2276.7732 2494984
-684.19165 948.48419 2271.3677 2363399
-669.58966 946.86761 2267.4963 2428166
-655.46063 945.86731 2265.1008 2625801
-641.625 945.25726 2263.6401 3020559
-627.00635 943.44318 2259.2957 2362629
-613.67517 943.52936 2259.5022 2494215
-604.97168 950.89319 2277.1365 2165250
-587.53339 944.55042 2261.9473 2099457
-572.86035 942.46088 2256.9434 2296579
-560.71545 944.53021 2261.8989 2493958
-549.07373 947.56909 2269.1763 2560008
-531.16785 939.67889 2250.2812 2493959
-516.25189 936.80774 2243.4058 2691847
-504.15775 939.04095 2248.7537 2494725
-490.73334 938.85034 2248.2971 2625542
-476.32367 936.71155 2243.1753 2625542
-463.49014 937.63849 2245.395 2691334
-449.01794 935.20715 2239.5728 2822921
-435.32568 934.3017 2237.4043 2888457
-422.02896 934.21484 2237.1963 2822921
-409.8179 936.6037 2242.917 2757128
-397.42984 938.73444 2248.0195 2493956
-385.96817 943.27716 2258.8982 3150858
-373.83047 946.43457 2266.4595 3412999
-361.47223 949.24829 2273.1975 4267532
-348.11957 949.56726 2273.9614 5451030
-335.78732 952.80743 2281.7207 6700065
-321.10626 949.37506 2273.501 7686699
-305.85693 943.88824 2260.3616 7949867
-290.59418 937.85559 2245.915 9199674
-276.68906 935.83582 2241.0781 9331259
-263.36526 935.67767 2240.6995 8081192
-249.53554 933.60999 2235.7478 8673072
-236.55713 934.67389 2238.2957 8607535
-222.82614 932.71423 2233.6028 8475693
-210.28674 935.80969 2241.0156 8409900
-196.01068 931.07318 2229.6729 9330745
-182.09801 927.50281 2221.1228 9199416
-168.87842 927.18146 2220.3533 9133623
-155.99271 928.79358 2224.2139 9199673
-142.37244 925.92621 2217.3472 9002037
-129.59872 928.54108 2223.6091 9133879
-116.25661 927.21442 2220.4321 8739123
-103.18107 927.94647 2222.1853 9002552
-89.807961 925.8252 2217.1055 9529152
-76.854866 928.04883 2222.4304 9265469
-63.948906 931.87891 2231.6025 8870712
-50.626633 930.0578 2227.2412 9134394
-37.326092 927.49237 2221.0979 8607538
-24.141945 926.60004 2218.9609 8673330
-11.008902 927.88037 2222.0271 8936245
2.1495221 924.44885 2213.8093 9002294
15.26872 924.53894 2214.0251 9265209
28.424145 925.72565 2216.8669 9199674
41.902313 933.35114 2235.1279 9067832
54.796474 927.42963 2220.9475 9068088
68.20742 930.85431 2229.1487 9199418
81.797516 935.21606 2239.594 8936502
94.72522 931.84393 2231.5186 9067576
108.12683 933.38879 2235.2183 9330748
121.63635 935.42639 2240.0977 9988421
134.53062 932.79706 2233.8013 9133368
147.44186 930.74585 2228.8892 9199161
159.89015 926.34979 2218.3616 9264954
174.49149 934.14807 2237.0364 9528126
187.11949 931.02679 2229.5618 9265211
200.20663 930.45093 2228.1826 9067832
213.1048 929.12244 2225.0012 9331004
228.83066 939.5589 2249.9939 8475952
242.7531 941.84924 2255.4788 9462847
255.1375 938.24457 2246.8464 9002294
267.48984 934.88544 2238.8022 9265210
280.08612 932.65601 2233.4634 9594173
292.89368 931.29956 2230.2148 9659710
305.68875 930.02216 2227.156 8344107
318.2197 928.08038 2222.5059 9002037
331.85614 929.38879 2225.6392 9726018
349.03796 940.14679 2251.4019 9594176
358.34592 929.68494 2226.3484 9397053
371.2569 928.98169 2224.6643 8673074
385.07474 930.51813 2228.3438 9199418
396.99344 927.5155 2221.1533 9199675
414.20645 936.67822 2243.0955 9396798
426.77469 935.09412 2239.302 8870453
440.55212 936.17505 2241.8904 9528640
449.36328 926.94818 2219.7947 8739123
464.33386 930.59052 2228.5171 8739124
476.70355 928.96295 2224.6196 9133625
491.92999 932.84033 2233.9048 8146730
503.89523 930.49231 2228.2817 9594176
517.31317 930.8783 2229.2061 9726020
536.5589 941.47064 2254.572 8212781
545.36877 933.68201 2235.9204 8936246
555.69574 928.79852 2224.2258 8541745
567.94586 927.28125 2220.5923 9463103
578.42212 923.00201 2210.3447 9265724
594.30042 927.34174 2220.7371 8673074
604.98334 923.56213 2211.686 8870966
614.93811 918.8548 2200.4131 8213038
626.27551 916.36603 2194.4531 8871223
641.20178 919.12292 2201.0552 8015660
647.21094 909.24249 2177.3943 8804919
669.51929 922.19897 2208.4214 7686439
678.664 916.87451 2195.6709 9660228
689.32208 913.75665 2188.2043 7357730
698.95294 909.41724 2177.8125 9397312
712.5921 910.3559 2180.0605 8542259
725.69098 910.58313 2180.6047 8344625
736.56781 908.06305 2174.5698 8739383
747.86951 906.14453 2169.9753 8147246
760.92181 906.37592 2170.5295 9068348
775.96497 908.9317 2176.6499 8344111
790.97705 911.36816 2182.4846 8607797
805.73706 913.44037 2187.447 8608311
816.19891 910.65143 2180.7683 8213810
823.8111 904.81958 2166.8025 7557423
830.90833 898.60974 2151.9316 5058838
825.70276 879.48364 2106.1296 1180416
832.82056 873.8576 2092.6567 983040
834.85834 863.14435 2067.0015 1971723
849.46985 865.55286 2072.769 7231278
869.45972 873.29474 2091.3088 7231018
883.08008 874.51141 2094.2224 7428139
891.315 870.43494 2084.4604 7624490
901.8399 868.67572 2080.2476 7624491
911.66699 866.3009 2074.5605 7624491
909.6922 852.92389 2042.526 7558698
918.87183 850.21899 2036.0487 7558698
928.8205 848.2868 2031.4215 7558697
937.12219 844.91895 2023.3564 7690540
946.75909 842.82495 2018.3418 7428396
956.48785 840.86395 2013.6456 7625775
964.78888 837.71143 2006.0963 7428142
976.28833 837.37903 2005.3004 7297072
988.41986 837.59033 2005.8064 6640175
994.06525 832.3656 1993.2944 1708550
1012.4429 837.79938 2006.307 854017
1021.4731 835.46191 2000.7094 328192
1031.1384 833.69153 1996.4697 1249806
1045.1792 835.45874 2000.7018 1051658
1069.4657 845.28436 2024.2316 131072
1082.3665 845.9928 2025.9281 196608
1089.7615 842.42963 2017.3951 262144
1104.0464 844.21198 2021.6635 262144
1103.7888 834.95557 1999.4968 196608
1108.083 829.30237 1985.9589 196608
1116.681 826.95514 1980.3379 262144
1126.1984 825.33051 1976.4471 262144
1135.9922 823.9397 1973.1167 262144
1140.5294 818.80359 1960.817 262144
1134.2924 806.11395 1930.4288 196608
1151.689 810.30591 1940.4673 131072
1161.33 809.01227 1937.3695 131072
1165.6421 804.06799 1925.5292 1050884
1165.3099 796.04706 1906.3212 1051140
1181.6235 799.44183 1914.4509 3615520
1187.3262 795.66156 1905.3981 4076067
1193.2751 792.11591 1896.9072 920069
1204.1674 791.88727 1896.3596 985088
1203.5669 784.17487 1877.8905 5783326
1380.7966 891.40619 2134.6812 7623214
1389.6868 889.00177 2128.9231 8544057
1399.5752 887.27344 2124.7842 8608052
1430.1315 898.56171 2151.8164 9594692
1425.7092 887.86725 2126.2063 8015402
1453.4994 897.24506 2148.6636 7751974
1451.7197 888.36499 2127.3982 8081196
1461.7303 886.79059 2123.6279 8344111
1469.1593 883.69025 2116.2034 8475697
1486.0916 886.3103 2122.4775 8673076
1479.2821 874.84534 2095.0222 8409649
1518.7334 890.70221 2132.9951 8278063
1541.6481 896.67908 2147.3081 8409649
1561.7648 900.94391 2157.5212 8146734
1567.3499 896.82465 2147.6567 7818282
1581.2695 897.50232 2149.2795 7883818
1578.038 888.51208 2127.7505 7818281
1583.6484 884.60345 2118.3904 8804920
1590.0114 881.1734 2110.1763 8344625
1594.8309 876.94812 2100.0579 8475955
1608.785 877.77234 2102.0315 8542004
1621.8721 878.11426 2102.8503 8081453
1637.2142 879.6626 2106.5583 9002299
1645.142 877.23413 2100.7427 8804407
1692.6497 895.78857 2145.1758 9265470
1701.4139 893.71552 2140.2112 8870456
1713.1295 893.21191 2139.0051 8804664
1729.3361 895.03998 2143.3828 9002043
1734.8839 891.36499 2134.5823 8804407
1730.9331 882.89838 2114.3069 8738871
1772.2897 897.49713 2149.2673 8541235
1776.6444 893.28357 2139.1768 8541491
1793.1669 895.20404 2143.7759 8212272
1786.8348 885.76819 2121.1794 9133374
1803.9509 888.00659 2126.5398 8475444
1806.8844 883.28082 2115.2229 8475701
1821.7388 884.40759 2117.9211 8278322
1807.8004 871.63629 2087.3374 8542007
1818.5907 870.88074 2085.5278 8870971
1847.0859 878.55652 2103.9094 8739386
1861.1254 879.29962 2105.689 7555112
1881.0035 882.77301 2114.0068 8147248
1891.0146 881.6004 2111.1987 7949869
1909.0499 884.15955 2117.3271 8212785
1916.9333 882.01416 2112.1897 8805179
1929.8379 882.19202 2112.6155 8081456
1934.7477 878.73639 2104.3403 8475444
1940.9275 875.89825 2097.5435 8541238
1973.7078 885.02393 2119.3972 9791561
1972.1481 878.73334 2104.333 8344371
1965.0508 870.06995 2083.5864 8213042
1956.3202 860.79602 2061.3779 8607799
1965.9625 859.67126 2058.6843 8476214
0 0 0 0
0 0 0 0
0 0 0 0
0 0 0 0
0 0 0 0
0 0 0 0
0 0 0 0
0 0 0 0
0 0 0 0
-1891.1636 908.1651 2144.3857 1280
-1880.6167 909.20917 2146.8511 1024
-2093.5598 1019.0525 2406.2163 1024
-1986.426 973.53448 2298.738 1024
-2063.2458 1018.1649 2404.1206 1024
-2083.3047 1035.2111 2444.3704 768
-2038.5062 1020.0419 2408.5527 768
-1837.3165 925.8512 2186.1467 768
-1994.3661 1012.1267 2389.863 768
-1958.894 1001.2341 2364.1431 768
-1946.5947 1002.114 2366.2207 66560
-1930.5521 1001.0656 2363.7451 512
-1927.9586 1007.0267 2377.8208 768
-1907.875 1003.8728 2370.3738 512
-1890.0155 1001.8511 2365.5999 256
-1890.8088 1009.7603 2384.2754 460546
-1886.2495 1014.9088 2396.4321 656896
-1852.5242 1004.3232 2371.4373 1512202
-1851.6317 1011.512 2388.4114 1182210
-1808.3954 995.50146 2350.6069 1247747
-1797.2036 997.01947 2354.1914 1445126
-1774.9138 992.35657 2343.1812 1379333
-1766.2572 995.30237 2350.137 1379333
-1750.7742 994.41766 2348.0479 1379076
-1751.9388 1003.0504 2368.4316 1510919
-1728.5631 997.65857 2355.7004 1445126
-1716.4011 998.70386 2358.1685 1379077
-1703.4434 999.29944 2359.575 1247745
-1688.4578 998.70563 2358.1726 852736
-1674.333 998.61517 2357.959 1180928
-1663.4319 1000.4619 2362.3198 1115136
-1631.451 989.55438 2336.5645 1378306
-1626.6512 995.08771 2349.6299 1443585
-1599.2461 986.76849 2329.9866 1706756
-1585.4399 986.76849 2329.9866 1838599
-1564.3721 982.20917 2319.2209 2167307
-1546.2805 979.45422 2312.7158 2167307
-1531.8501 978.98993 2311.6194 2035978
-1512.2842 975.20557 2302.6836 1772549
-1498.3889 975.04211 2302.2979 1640963
-1476.6625 969.73309 2289.762 1969671
-1455.6801 964.81873 2278.158 1115136
-1459.8989 976.672 2306.1462 2035721
-1449.2839 978.73163 2311.0095 1575170
-1432.9724 976.94678 2306.7952 1904135
-1416.9575 975.33185 2302.9819 1904135
-1401.2646 973.9093 2299.6228 1706757
-1388.9547 974.83307 2301.8042 1772549
-1378.045 976.76776 2306.3723 1969928
-1360.9774 974.33264 2300.6226 1838599
-1347.1981 974.2262 2300.3711 1838342
-1331.4207 972.65784 2296.668 1903621
-1316.0482 971.35602 2293.594 1640963
-1303.1038 971.83777 2294.7317 1706756
-1288.543 971.11163 2293.0171 2167307
-1273.5704 970.05627 2290.5251 1970185
-1261.6969 971.36414 2293.6133 1772292
-1245.4598 969.30438 2288.7498 2035207
-1232.7582 969.98132 2290.3479 1969414
-1222.0079 972.22565 2295.6475 2034950
-1210.834 974.17963 2300.2612 2824722
-1197.3655 974.31091 2300.5713 1969414
-1179.3885 970.73456 2292.1267 2034950
-1166.9211 971.66241 2294.3176 1969414
-1152.0673 970.60168 2291.813 2035207
-1136.5818 968.97705 2287.9768 2166792
-1127.0574 972.45673 2296.1931 2429194
-1111.6449 970.87878 2292.4673 2100486
-1098.061 970.87878 2292.4673 2232072
-1082.7637 969.34479 2288.845 2495244
-1067.1267 967.46393 2284.4038 2297865
-1057.0858 970.67328 2291.9819 2297865
-1039.8514 967.27478 2283.9573 2429451
-1028.1093 968.96289 2287.9434 2363658
-1012.7831 967.27332 2283.9539 2034693
-999.6073 967.61938 2284.771 2232072
-986.26709 967.81372 2285.2297 2034693
-972.22491 967.31488 2284.052 2231815
-961.11853 969.76434 2289.8357 2297865
-948.07684 970.3031 2291.1079 2429194
-935.88336 971.73834 2294.4968 2429193
-919.3692 968.66345 2287.2363 2034436
-902.72699 965.35974 2279.4355 2166279
-890.61517 966.8739 2283.0107 2495243
-877.13885 966.93066 2283.1448 2495244
-858.68793 961.41937 2270.1313 2100229
-847.60852 964.11743 2276.5022 2363658
-832.39697 962.12671 2271.8015 2166279
-821.39545 965.01666 2278.6252 2166279
-806.26282 963.0686 2274.0254 1903107
-788.88715 958.32935 2262.8352 1639936
-777.94263 961.37408 2270.0244 2692365
-760.89124 956.84613 2259.333 2034434
-751.3811 961.80945 2271.0522 2297350
-732.13733 954.26678 2253.2424 2100227
-716.90186 951.76538 2247.3362 2034434
-702.95599 950.91388 2245.3254 2494985
-688.98206 949.99072 2243.1458 2363399
-676.02777 950.46497 2244.2654 2560778
-661.28131 948.38782 2239.3608 2823180
-641.25421 938.49731 2216.0071 2757387
-630.74811 942.41895 2225.2668 2888973
-619.01758 944.63928 2230.5098 2494215
-607.08368 946.63959 2235.2329 2691337
-597.54877 952.55322 2249.1963 2494215
-581.83752 948.66644 2240.0188 2362629
-564.94244 942.62299 2225.7488 2428165
-552.41693 943.75555 2228.4231 2757387
-539.87506 944.91498 2231.1606 2757385
-524.79681 941.58179 2223.2903 3020557
-508.36667 935.58905 2209.1401 2494470
-496.85992 938.58002 2216.2024 2691593
-481.57678 934.40594 2206.3464 2691335
-468.70618 934.81055 2207.3018 2822921
-456.61972 936.84729 2212.1111 2428163
-442.13727 933.94312 2205.2537 2559749
-430.11148 936.20953 2210.6052 2493956
-416.64233 935.37799 2208.6416 2757128
-403.49167 935.23065 2208.2937 3151886
-390.49841 935.45044 2208.8127 2625542
-381.03162 944.42627 2230.0066 2887685
-369.06125 947.61865 2237.5447 3149825
-352.48993 938.79517 2216.7104 4925461
-342.77673 948.26093 2239.0613 5582357
-331.9241 955.2099 2255.4695 6634528
-314.12735 941.91998 2224.0889 7950125
-300.12656 939.34668 2218.0127 8344368
-285.56067 934.68805 2207.0125 9002294
-273.36829 937.72394 2214.1812 9068086
-260.0112 936.86938 2212.1633 8804914
-247.37184 938.64752 2216.3618 7818020
-234.53874 939.84857 2219.1978 8081192
-221.07666 938.52222 2216.0659 8936245
-206.99553 934.23438 2205.9414 8739122
-195.05804 939.69556 2218.8364 8541743
-182.10532 940.7016 2221.2119 9659967
-165.77898 923.07977 2179.6028 9068087
-154.61349 933.64453 2204.5486 8475692
-140.20718 924.78326 2183.625 9396794
-127.37712 925.57367 2185.4915 9133879
-115.104 931.0481 2198.4177 9463103
-101.64085 927.06549 2189.0139 9002809
-89.021095 930.7356 2197.6799 9134395
-76.257278 933.89923 2205.1499 9068601
-62.696308 926.58997 2187.8911 8739636
-50.017887 931.91321 2200.4604 8804917
-36.82346 927.98651 2191.1887 9002296
-23.867344 929.0592 2193.7214 9067832
-10.867648 928.97241 2193.5166 8739124
2.1344965 931.0127 2198.3342 9265468
15.088187 926.57135 2187.8472 8870710
28.310528 935.10864 2208.0056 9923141
