# .PCD v0.7 - Point Cloud Data file format
VERSION 0.7
FIELDS x y z rgb
SIZE 4 4 4 4
TYPE F F F U
COUNT 1 1 1 1
WIDTH 1366
HEIGHT 1
VIEWPOINT 0 0 0 1 0 0 0
POINTS 1366
DATA ascii
1700.8212 832.43048 1886.3807 256
1711.5239 832.19958 1885.8575 512
1726.8091 834.18536 1890.3574 5992295
1726.3785 828.6026 1877.7062 12502723
1721.3058 820.87744 1860.2002 12501697
1725.8871 817.82532 1853.2837 12632513
1722.2163 810.92609 1837.6494 12106683
1733.1051 810.92609 1837.6494 12566465
1735.6211 807.03296 1828.8269 12633287
1732.101 800.39868 1813.7931 13093579
0 0 0 0
0 0 0 0
0 0 0 0
0 0 0 0
0 0 0 0
0 0 0 0
0 0 0 0
0 0 0 0
0 0 0 0
0 0 0 0
-1965.1711 1003.2596 2243.3755 1024
-1948.8911 1001.7243 2239.9424 1024
-1935.4949 1001.6603 2239.7991 1024
-1921.9453 1001.5154 2239.4753 1024
-1908.4609 1001.4029 2239.2236 1024
-1894.9666 1001.2834 2238.9565 1024
-1881.4143 1001.1315 2238.6167 1024
-1867.8058 1000.9473 2238.2048 1024
-1854.4181 1000.8796 2238.0535 1024
-1840.8699 1000.7237 2237.7048 1024
-1827.4513 1000.6365 2237.5098 1024
0 0 0 0
0 0 0 0
-3645.5317 2040.5544 4562.8564 1024
-1773.1459 999.91864 2235.9048 1024
-1759.448 999.66339 2235.334 1024
-1746.2488 999.6897 2235.3928 1024
-1732.9246 999.64441 2235.2915 1024
-1719.5776 999.58514 2235.1589 1024
-1706.0385 999.41241 2234.7727 1024
-1692.6902 999.34961 2234.6323 1024
-1679.4113 999.32703 2234.5818 1024
-1666.1791 999.33215 2234.5933 768
-1652.9128 999.31683 2234.5591 768
-1639.7745 999.37927 2234.6985 768
-1626.4146 999.30646 2234.5359 768
-1613.2266 999.33887 2234.6084 768
-1599.9099 999.29175 2234.5029 768
-1586.7074 999.31555 2234.5562 768
-1572.9594 998.99329 2233.8354 768
-1558.4885 998.2027 2232.0676 768
-1553.2106 1003.3369 2243.5481 768
-1542.0026 1004.6958 2246.5869 768
-1519.645 998.75085 2233.2935 768
-1505.8613 998.38593 2232.4773 768
-1493.3735 998.88123 2233.585 768
-1480.7197 999.27332 2234.4617 768
-1467.0459 998.97797 2233.8013 768
-1453.6337 998.85699 2233.5308 768
-1441.1378 999.36926 2234.6763 768
-1428.2897 999.64441 2235.2915 768
-1414.8606 999.5144 2235.0007 768
-1401.5688 999.47986 2234.9236 768
-1389.0625 1000.01 2236.1091 768
-1376.5447 1000.5421 2237.2988 768
-1363.0643 1000.3781 2236.9321 768
-1350.0786 1000.5775 2237.3779 768
-1337.2119 1000.8699 2238.0317 768
-1325.9467 1002.3788 2241.4058 768
-1312.5322 1002.2772 2241.1785 768
-1298.8965 1002.0026 2240.5645 768
-1287.646 1003.5814 2244.095 768
-1275.7601 1004.6929 2246.5803 768
-1264.7588 1006.5316 2250.6919 768
-1252.2382 1007.1877 2252.1589 768
-1240.7354 1008.6853 2255.5076 768
-1229.3998 1010.353 2259.2368 768
-1218.5087 1012.4266 2263.8735 768
-1206.0321 1013.2144 2265.6353 768
-1195.4724 1015.6486 2271.0781 768
-1182.8232 1016.3428 2272.6306 768
-1173.0853 1019.5832 2279.8765 512
-1168.3105 1027.2633 2297.0496 512
-1148.3605 1021.6237 2284.439 256
-1135.1108 1021.8816 2285.0159 65792
-1124.3535 1024.4166 2290.6843 196608
-1114.8876 1028.2046 2299.1545 196608
-1102.3865 1029.2524 2301.4976 262144
-1091.3024 1031.6663 2306.895 393216
-1084.6763 1038.4089 2321.9724 393216
-1067.0363 1034.6451 2313.5564 393216
-1053.7653 1035.0753 2314.5181 590336
-1047.6267 1042.615 2331.3774 590336
-1036.4762 1045.3015 2337.3848 721920
-1022.211 1044.877 2336.4355 393216
-1010.6652 1047.2587 2341.7612 458752
-992.7605 1043.026 2332.2964 458752
-980.30011 1044.4744 2335.5352 458752
-965.63147 1043.5778 2333.5303 393216
-951.53876 1043.2865 2332.8789 524288
-940.90515 1046.8352 2340.8142 524288
-922.80139 1042.0547 2330.1245 458752
-910.07678 1043.2954 2332.8989 458752
-896.84509 1043.9841 2334.439 458752
-883.92133 1045.0585 2336.8413 524288
-868.58307 1043.2671 2332.8354 524288
-857.36932 1046.4517 2339.9565 655360
-843.12982 1045.9873 2338.9182 655360
-828.5426 1045.0688 2336.8645 720896
-815.81116 1046.4996 2340.0637 786432
-801.42529 1045.8209 2338.5464 655360
-787.54474 1045.7896 2338.4761 589824
-773.62134 1045.699 2338.2734 524288
-760.09497 1046.1515 2339.2854 720896
-747.3999 1047.7865 2342.9412 524288
-735.82092 1051.0774 2350.3 655360
-721.27429 1050.1744 2348.281 655360
-707.57153 1050.4888 2348.9839 655360
-693.98505 1050.9918 2350.1086 655360
-680.60437 1051.8336 2351.991 655360
-668.68127 1055.0103 2359.0942 655360
-656.84473 1058.4619 2366.8125 655360
-643.54419 1059.6537 2369.4775 655360
-626.54077 1054.6655 2358.3235 655360
-612.94733 1055.3207 2359.7886 655360
-599.62463 1056.4836 2362.3889 655360
-585.45636 1056.1766 2361.7024 655360
-573.0683 1059.1448 2368.3396 655360
-558.23602 1057.6311 2364.9548 655360
-543.16455 1055.5747 2360.3564 655360
-530.92993 1059.0685 2368.1689 655360
-516.98206 1059.2416 2368.5559 655360
-503.78107 1060.9972 2372.4817 655360
-488.55396 1058.4641 2366.8174 655360
-475.74905 1061.1842 2372.8997 655360
-460.33038 1058.0623 2365.9187 655360
-446.46072 1058.4163 2366.7104 655360
-433.71658 1061.548 2373.7134 655360
-418.29303 1058.1121 2366.03 655360
-403.91672 1057.1786 2363.9429 655360
-390.9754 1060.0688 2370.4058 655360
-376.92978 1060.0688 2370.4058 655360
-362.47058 1058.8606 2367.7041 589824
-347.63785 1056.4199 2362.2466 720896
-332.66766 1053.3394 2355.3582 720896
-317.88882 1050.6213 2349.2805 720896
-303.00308 1047.2849 2341.8198 720896
-289.82794 1049.8245 2347.4983 720896
-276.36417 1051.5217 2351.2937 720896
-262.26132 1050.8386 2349.7661 720896
-247.48654 1047.2357 2341.7097 720896
-233.83507 1048.2402 2343.9558 720896
-219.73737 1047.245 2341.7305 720896
-205.62967 1046.0647 2339.0913 720896
-191.33415 1043.6893 2333.7798 720896
-177.42035 1043.1884 2332.6594 720896
-163.25935 1041.0262 2327.825 655360
-149.12454 1038.6476 2322.5061 917504
-135.44742 1039.2974 2323.959 720896
-121.62403 1038.8446 2322.9465 720896
-107.78693 1038.1443 2321.3806 720896
-93.842819 1036.0577 2316.7148 720896
-80.080399 1035.6056 2315.7039 720896
-66.224686 1033.5107 2311.0195 720896
-52.499786 1032.8973 2309.6479 720896
-38.80862 1032.749 2309.3162 720896
-25.172182 1034.6886 2313.6533 720896
-11.411719 1030.0725 2303.3315 720896
2.2264843 1025.485 2293.0732 720896
15.761526 1022.0911 2285.4841 720896
29.229815 1019.5057 2279.7031 720896
42.879494 1022.8817 2287.2522 720896
56.255882 1019.6826 2280.0986 720896
69.752083 1019.4735 2279.6311 720896
83.413956 1021.3609 2283.8516 720896
96.026688 1011.6685 2262.1782 655360
109.51872 1012.4794 2263.9917 720896
122.5271 1009.1299 2256.502 720896
136.02052 1010.0414 2258.54 720896
149.0706 1007.7923 2253.511 720896
162.42072 1007.7746 2253.4714 720896
174.68806 1001.5518 2239.5566 786432
189.86787 1011.7269 2262.3091 720896
202.60999 1008.4272 2254.9307 720896
213.94669 998.97345 2233.7913 720896
228.07787 1002.9093 2242.592 720896
240.67017 1000.0175 2236.1257 720896
253.72404 999.24536 2234.3992 720896
267.20102 1000.1334 2236.3848 720896
280.32129 999.66553 2235.3386 720896
293.86053 1000.6666 2237.5771 720896
306.83679 999.7467 2235.5203 720896
320.74515 1001.8144 2240.1438 720896
334.52805 1003.3415 2243.5586 720896
347.82074 1003.3378 2243.5503 655360
360.63306 1001.9997 2240.5581 851968
373.91409 1002.0125 2240.5869 851968
386.63654 1000.579 2237.3813 851968
398.83359 997.92596 2231.449 851968
411.96216 997.6991 2230.9417 851968
424.42679 995.92853 2226.9824 851968
437.02161 994.56085 2223.9243 851968
450.36288 994.92242 2224.7327 851968
463.41672 994.64642 2224.1155 851968
476.44876 994.34015 2223.4307 851968
488.34717 991.74817 2217.6348 851968
500.15662 989.11609 2211.7493 851968
513.33325 989.25317 2212.0559 851968
526.40588 989.18793 2211.9099 851968
540.05286 990.17896 2214.126 851968
549.11456 982.91541 2197.884 851968
558.75415 976.99872 2184.6538 1376512
574.6759 982.08594 2196.0293 851968
588.95428 984.2016 2200.76 851968
599.24274 979.70258 2190.6997 851968
611.72687 978.90765 2188.9224 917504
625.6748 980.43982 2192.3484 851968
637.1991 978.1889 2187.3152 851968
647.86652 974.73859 2179.5999 851968
659.49878 972.84631 2175.3687 983040
669.21069 968.24823 2165.0869 851968
681.11938 966.94165 2162.1653 851968
695.31488 968.86993 2166.4771 786432
708.23071 968.97748 2166.7175 851968
724.68323 973.83374 2177.5767 851968
731.35693 965.60919 2159.1858 851968
744.80566 966.45874 2161.0854 917504
756.54694 965.10138 2158.0503 917504
768.64325 964.23456 2156.1121 1048576
779.495 961.86035 2150.803 1048576
791.00269 960.35883 2147.4456 851968
806.55298 963.73535 2154.9958 917504
818.3725 962.61823 2152.4978 917504
831.74121 963.32977 2154.0889 851968
843.83429 962.56464 2152.3779 1245184
854.28772 959.9798 2146.5979 1245184
865.1015 957.86969 2141.8796 851968
876.91071 956.90692 2139.7268 917504
892.26819 959.78839 2146.1699 917504
906.96448 961.88757 2150.864 917504
914.19061 956.11597 2137.958 851968
921.73169 950.8269 2126.1313 1114112
925.3147 941.65259 2105.6167 1114112
944.63501 948.52448 2120.9829 786432
955.55682 946.89349 2117.3359 1179648
970.00055 948.74963 2121.4863 1310976
980.5835 946.83026 2117.1946 1114112
993.28046 946.97498 2117.5181 983040
1005.7792 946.92938 2117.416 917504
1017.117 945.80536 2114.9028 1179904
1027.3765 943.71826 2110.2358 983040
1041.6921 945.36237 2113.9121 917504
1051.8422 943.23199 2109.1484 1245184
1064.6899 943.54224 2109.8423 1048576
1074.0349 940.77722 2103.6594 1114112
1088.1041 942.16626 2106.7654 1507328
1096.8157 938.93738 2099.5454 1572864
1110.9802 940.39648 2102.8081 1902080
1121.6802 938.92328 2099.5139 1770496
1136.208 940.65137 2103.3779 1835776
1146.7266 939.05884 2099.8169 1769984
1158.5684 938.57233 2098.729 1704192
1170.3608 938.0567 2097.5762 1835264
1182.0269 937.45166 2096.2231 2229504
1198.6259 940.73071 2103.5554 2689024
1209.0195 939.12225 2099.9587 5253143
1223.2809 940.5202 2103.0847 4462339
1241.0596 944.56696 2112.1335 6435355
1250.1057 941.95306 2106.2886 5776652
1258.1399 938.63574 2098.8708 6960924
1250.9059 924.10413 2066.377 7421985
1270.5873 929.54517 2078.5435 6961434
1286.5219 932.16693 2084.406 7421986
1298.8879 932.17767 2084.4302 6698262
1326.7391 943.19708 2109.0703 7948329
1331.0939 937.46252 2096.2473 8014122
1337.1068 932.99115 2086.249 6698263
1353.6415 935.8761 2092.7 6435091
1377.1539 943.48907 2109.7234 6105873
1388.2222 942.51642 2107.5483 5974547
1391.9955 936.6524 2094.4358 5843474
1419.0653 946.42938 2116.2981 6502689
1420.1823 938.87769 2099.4119 7228724
1422.3285 932.13165 2084.3271 589824
1442.8414 937.435 2096.1858 458752
1435.9674 925.00592 2068.3933 5131326
1427.0586 911.48749 2038.165 12171170
1427.3713 904.0365 2021.5039 12171681
1442.5552 906.04993 2026.0061 12039581
1459.2151 908.94958 2032.4899 12235678
1470.7711 908.6485 2031.8168 12104604
1481.5402 907.87006 2030.076 11906969
1490.0598 905.73688 2025.3062 11973019
1504.6842 907.31897 2028.8438 11841432
1512.6537 904.89484 2023.4232 11776153
1527.8964 906.82556 2027.7406 11644824
1546.0249 910.42566 2035.7905 11448216
1563.4652 913.56775 2042.8167 11382427
1576.4675 914.08838 2043.9808 11317147
1595.3995 918.013 2052.7566 11251097
1635.6703 934.06403 2088.6479 9343101
1649.9536 935.14502 2091.0652 4803645
1667.3877 937.98218 2097.4094 65792
1685.796 941.32153 2104.8765 394758
1697.2755 940.77136 2103.6462 1447442
1707.6283 939.60907 2101.0474 2039580
1712.1025 935.2525 2091.3057 1907995
1708.2817 926.45984 2071.6445 1841946
1713.0916 922.43988 2062.6555 1841946
1716.0687 917.49713 2051.603 1841945
1714.8931 910.41913 2035.7761 1776152
1712.2157 902.64844 2018.4001 1776152
1704.9584 892.58777 1995.9037 1776409
1709.1263 888.6059 1986.9999 1841945
1701.4491 878.56226 1964.5413 1907738
1691.9666 867.72913 1940.3175 2038041
1690.377 861.06281 1925.411 2104347
1682.9076 851.51086 1904.0521 65536
1695.2736 852.05554 1905.27 0
1690.8202 844.19556 1887.6943 66560
1707.2144 846.77893 1893.4712 256
1715.4619 845.31458 1890.1967 512
1730.4032 847.14606 1894.292 6716017
1723.0281 838.09906 1874.0621 13094603
1729.7686 835.98993 1869.3458 12896454
1735.3363 833.34442 1863.4303 12239036
1735.5399 828.17285 1851.8661 12106683
1735.907 823.14355 1840.6202 12304061
1734.9879 817.57111 1828.1597 13028040
1742.8195 816.16571 1825.0172 13028041
0 0 0 0
0 0 0 0
0 0 0 0
0 0 0 0
0 0 0 0
0 0 0 0
0 0 0 0
0 0 0 0
0 0 0 0
0 0 0 0
-1949.5212 1008.457 2225.51 1024
-1936.0566 1008.3126 2225.1912 1024
-1922.6023 1008.1714 2224.8796 1024
-1909.2285 1008.0709 2224.6577 1024
-1895.8055 1007.9427 2224.375 1024
-1882.4401 1007.8436 2224.1562 1024
-1869.0309 1007.7195 2223.8823 1024
-1855.621 1007.5933 2223.6038 1024
-1842.214 1007.4669 2223.3247 1024
-1828.9553 1007.4203 2223.2219 1024
0 0 0 0
0 0 0 0
0 0 0 0
0 0 0 0
-1761.733 1006.646 2221.5132 1024
-1748.348 1006.5184 2221.2317 1024
0 0 0 0
0 0 0 0
0 0 0 0
-1683.7689 999.43573 2205.6013 1024
-1681.7567 1006.0501 2220.1982 1024
-1668.5549 1006.0223 2220.1367 1024
-1655.3976 1006.0209 2220.1338 768
-1642.24 1006.0195 2220.1306 768
-1629.1244 1006.0438 2220.1843 768
-1615.9983 1006.0622 2220.2249 768
-1602.8794 1006.0853 2220.2759 768
-1589.7539 1006.1047 2220.3186 768
-1576.605 1006.1093 2220.3289 768
-1562.9263 1005.7732 2219.5872 768
-1545.2129 1002.8129 2213.0542 768
-1536.5023 1005.6945 2219.4136 768
-1523.3514 1005.6945 2219.4136 768
-1509.3179 1005.1068 2218.1165 768
-1496.0502 1005.0232 2217.9319 768
-1483.0258 1005.103 2218.1082 768
-1470.0281 1005.2025 2218.3276 768
-1456.6478 1005.0399 2217.9688 768
-1443.5968 1005.1034 2218.1089 768
-1430.594 1005.2021 2218.3267 768
-1418.9598 1006.2731 2220.6902 768
-1405.7834 1006.2603 2220.6621 768
-1391.6149 1005.5303 2219.051 768
-1379.111 1006.0007 2220.0891 768
-1367.0691 1006.8204 2221.8982 768
-1354.2181 1007.0544 2222.4146 768
-1341.3973 1007.3157 2222.9912 768
-1327.5394 1006.7955 2221.8433 768
-1315.4476 1007.618 2223.6582 768
-1303.6696 1008.6995 2226.0452 768
-1290.5728 1008.7726 2226.2063 768
-1278.9232 1009.9901 2228.8931 768
-1266.9954 1011.0108 2231.1458 768
-1256.1655 1012.9385 2235.3999 768
-1244.1982 1013.9803 2237.699 768
-1231.4841 1014.4295 2238.6902 768
-1220.7185 1016.5107 2243.2832 768
-1209.9275 1018.6166 2247.9307 768
-1196.9581 1018.915 2248.5891 768
-1185.3726 1020.4113 2251.8911 768
-1176.1985 1024.0414 2259.9021 768
-1165.5831 1026.4856 2265.2961 512
-1156.0492 1029.9502 2272.9421 512
-1140.9913 1028.5171 2269.7795 256
-1127.7737 1028.7286 2270.2461 65792
-1112.5077 1027.0541 2266.5505 196608
-1102.9426 1030.6658 2274.5212 196608
-1093.5258 1034.5072 2282.9988 262144
-1080.4019 1034.8939 2283.8523 393216
-1072.5959 1040.4492 2296.1118 393216
-1058.8733 1040.3341 2295.8577 590336
-1043.4659 1038.5391 2291.8962 524544
-1031.2443 1039.9092 2294.9199 721920
-1020.3879 1042.7112 2301.1035 327680
-1011.7845 1047.9225 2312.604 656384
-998.34607 1048.2003 2313.2173 458752
-981.78259 1045.1592 2306.5059 524288
-973.32349 1050.7815 2318.9136 458752
-953.63702 1044.2704 2304.5444 458752
-945.37488 1050.262 2317.7671 393216
-931.35657 1049.9412 2317.0591 458752
-918.49158 1050.9303 2319.2419 458752
-903.4043 1049.3683 2315.7947 524288
-892.72296 1052.9546 2323.7092 458752
-876.70795 1050.2639 2317.7712 524288
-863.23962 1050.5869 2318.4841 589824
-848.21307 1048.9933 2314.9673 655360
-835.90326 1050.7623 2318.8711 655360
-822.58777 1051.3052 2320.0691 589824
-808.38171 1050.709 2318.7534 786432
-792.97583 1048.5056 2313.8911 720896
-781.59155 1051.6359 2320.7991 589824
-769.13763 1053.4132 2324.7214 589824
-756.4278 1054.8986 2327.9993 655360
-743.5246 1056.1644 2330.7927 655360
-729.11414 1055.2966 2328.8777 655360
-716.34259 1056.8132 2332.2246 655360
-703.07214 1057.6389 2334.0469 655360
-689.91821 1058.6766 2336.3369 655360
-676.73285 1059.7076 2338.6121 655360
-662.45844 1059.0406 2337.1401 655360
-650.28595 1061.7771 2343.1792 655360
-636.54846 1062.0221 2343.7197 655360
-623.28284 1063.0828 2346.0605 655360
-609.49963 1063.2888 2346.5154 655360
-596.09784 1064.1855 2348.4941 655360
-581.8634 1063.6031 2347.2087 655360
-569.25208 1066.0316 2352.5681 655360
-554.8053 1065.0585 2350.4207 655360
-539.66626 1062.6722 2345.1545 655360
-527.30975 1065.7837 2352.0212 720896
-513.36676 1065.7706 2351.9922 655360
-501.18661 1069.5187 2360.2637 720896
-486.23828 1067.405 2355.5991 720896
-471.49759 1065.6357 2351.6946 655360
-458.59164 1068.0317 2356.9822 655360
-444.06366 1066.682 2354.0034 655360
-430.30975 1067.1643 2355.0679 655360
-416.31519 1067.0624 2354.8428 655360
-402.01016 1066.1298 2352.7847 655360
-387.90628 1065.6827 2351.7983 655360
-373.7847 1065.1521 2350.6272 655360
-359.45651 1063.9688 2348.0159 655360
-345.02603 1062.3751 2344.499 720896
-330.82092 1061.3708 2342.2827 720896
-316.22705 1058.9769 2336.9995 720896
-301.70459 1056.6136 2331.7842 720896
-287.41678 1054.8848 2327.9688 720896
-272.3591 1050.0135 2317.2188 720896
-259.4325 1053.2771 2324.4209 1180416
-245.21309 1051.3636 2320.1982 720896
-231.41623 1051.1422 2319.7095 720896
-217.23462 1049.0348 2315.0588 720896
-204.63129 1054.7786 2327.7346 720896
-189.66628 1048.2994 2313.436 720896
-174.62625 1040.364 2295.9236 720896
-162.24147 1048.243 2313.3115 720896
-147.51724 1041.0664 2297.4739 720896
-135.07629 1050.1823 2317.5911 720896
-121.28928 1049.7118 2316.553 720896
-107.37758 1047.9045 2312.5647 720896
-93.471497 1045.6312 2307.5479 720896
-79.719139 1044.5934 2305.2573 720896
-65.740273 1039.5444 2294.1152 720896
-51.988327 1036.387 2287.147 720896
-38.568256 1039.9514 2295.0132 720896
-24.866781 1035.6782 2285.5828 720896
-11.311814 1034.5834 2283.1667 720896
2.2056234 1029.3368 2271.5884 720896
15.623796 1026.5837 2265.5127 655360
28.912268 1021.7913 2254.9368 786432
42.112186 1017.8882 2246.323 720896
55.400356 1017.4805 2245.4233 720896
68.71904 1017.6826 2245.8694 720896
82.19397 1019.7578 2250.4487 720896
95.073952 1014.9024 2239.7339 720896
108.06712 1012.2968 2233.9836 720896
121.47307 1013.7047 2237.0906 720896
134.91121 1015.0777 2240.1206 720896
147.7085 1011.8147 2232.9199 786432
161.24019 1013.7055 2237.0925 1048832
174.07632 1011.2683 2231.7139 720896
187.42899 1011.964 2233.2493 786432
200.63829 1011.8451 2232.9868 720896
213.57968 1010.4733 2229.9595 786432
226.6907 1010.017 2228.9526 720896
238.92513 1005.9204 2219.9121 720896
252.27536 1006.704 2221.6414 720896
265.78598 1008.0182 2224.5415 720896
278.73276 1007.1708 2222.6714 720896
291.73343 1006.5858 2221.3804 720896
304.25934 1004.484 2216.7419 917504
318.38953 1007.6332 2223.6919 720896
331.6828 1007.9888 2224.4766 720896
344.74103 1007.6301 2223.6851 720896
357.86066 1007.4708 2223.3335 917504
371.34973 1008.3259 2225.2207 851968
383.96469 1006.8303 2221.9202 851968
397.02667 1006.5672 2221.3394 851968
409.80579 1005.6268 2219.2642 851968
422.21063 1003.8552 2215.3542 851968
435.10284 1003.3139 2214.1599 851968
448.0903 1003.0178 2213.5063 851968
460.52582 1001.5381 2210.241 786432
473.25952 1000.7707 2208.5474 851968
486.22629 1000.5244 2208.0037 851968
498.77011 999.44324 2205.6179 851968
512.13873 1000.0281 2206.9084 851968
524.10455 997.9126 2202.24 851968
537.32373 998.22852 2202.9373 851968
547.74628 993.45697 2192.4072 851968
560.22345 992.54688 2190.3987 851968
572.21509 990.83722 2186.6257 851968
586.73114 993.47772 2192.4529 851968
596.01971 987.34412 2178.917 851968
610.20081 989.40356 2183.4619 851968
623.42426 989.85693 2184.4624 851968
633.73804 985.76599 2175.4343 851968
645.06152 983.37744 2170.1631 851968
655.03668 979.06689 2160.6504 851968
666.11658 976.54108 2155.0764 851968
675.3783 971.49512 2143.9407 851968
688.68402 972.34509 2145.8164 917504
703.01587 974.58673 2150.7634 917504
718.18188 977.88446 2158.041 851968
721.66797 965.44141 2130.5811 851968
733.34967 964.20172 2127.8452 851968
743.69501 961.27667 2121.3901 1311232
762.81934 969.60773 2139.7754 786432
774.98615 968.96722 2138.3621 917504
782.88824 963.10095 2125.416 917504
795.33362 962.92108 2125.019 917504
806.64288 961.39288 2121.6465 1048576
817.72882 959.64935 2117.7988 983040
830.99042 960.47314 2119.6169 917504
841.06519 957.64398 2113.3733 851968
852.99896 956.98328 2111.9153 1245440
864.77405 956.16638 2110.1125 1245184
876.98083 955.84326 2109.3994 983040
889.4021 955.75977 2109.2151 917504
901.23737 955.05743 2107.6653 851968
911.52185 952.75336 2102.5806 1048576
921.21265 949.89935 2096.2822 1508609
933.58319 949.84772 2096.1682 983040
950.57886 954.44135 2106.3057 917504
957.36224 948.79504 2093.845 786432
970.70001 949.70575 2095.855 1048832
985.00836 951.53119 2099.8833 1245440
995.63141 949.79529 2096.0525 917504
1009.0825 950.76691 2098.1965 917504
1018.0583 947.54938 2091.0962 917504
1031.6334 948.63867 2093.5 917504
1045.1207 949.62225 2095.6707 983040
1056.8885 949.0387 2094.3828 983040
1069.8549 949.53235 2095.4722 917504
1078.567 946.28229 2088.2998 983040
1092.2621 947.42822 2090.8286 1639169
1100.3408 943.73138 2082.6704 1705217
1113.6378 944.54254 2084.4604 1442048
1124.9882 943.70288 2082.6074 1441792
1136.0488 942.64111 2080.2644 1704704
1148.4323 942.68799 2080.3677 1638400
1162.0679 943.75073 2082.7131 1572864
1171.5248 941.43311 2077.5984 1572864
1187.0713 944.00653 2083.2776 1310720
1197.9086 942.82037 2080.6599 1245184
1208.3702 941.36597 2077.4502 2031872
1224.6697 944.44263 2084.24 2951168
1230.6914 939.61108 2073.5776 5055250
1255.1208 948.79022 2093.8345 5777427
1249.1741 935.05188 2063.5161 7816750
1259.1359 933.37268 2059.8103 6434581
1274.0426 935.35602 2064.1873 7355939
1279.4244 930.37537 2053.1956 6171920
1305.2107 940.1864 2074.8472 7224606
1312.7115 936.76581 2067.2983 7487521
1318.5013 932.19861 2057.2192 8474160
1332.3237 933.34222 2059.7432 7092507
1344.6143 933.40173 2059.8745 6566678
1372.7372 944.35181 2084.0396 7291175
1375.5199 937.82971 2069.6462 6435612
1387.9484 937.94128 2069.8923 5777682
1391.9674 932.41766 2057.7026 5911073
1411.963 937.59906 2069.1372 3676173
1413.1123 930.28424 2052.9946 393216
1423.4547 929.09485 2050.3696 1511684
1418.4663 918.00366 2025.8932 10723980
1419.6021 911.02881 2010.5009 12171938
1429.4867 909.73804 2007.6521 12105116
1440.9426 909.46008 2007.0388 12170398
1453.2762 909.73627 2007.6483 12104605
1465.9938 910.24622 2008.7738 11973019
1475.9224 909.03027 2006.0905 11973019
1492.996 912.19928 2013.0839 11841433
1502.6837 910.84125 2010.0868 11775640
1516.3307 911.88544 2012.3911 11775384
1529.7295 912.76526 2014.3329 11710358
1541.1165 912.44037 2013.6158 11710615
1550.0983 910.7074 2009.7915 11776151
1573.1604 917.21021 2024.1422 11645591
1577.3054 912.6687 2014.1196 11711386
1628.5491 935.24304 2063.938 11514267
1618.8895 922.7663 2036.4037 11448217
1599.2129 904.80658 1996.7693 11777696
1662.2125 933.54395 2060.1882 9672064
1674.452 933.56177 2060.2275 5922126
1697.203 939.3974 2073.106 987147
1705.4707 937.19049 2068.2356 592135
1710.0959 933.02753 2059.0486 1250319
1711.4484 927.15076 2046.0793 1907737
1711.9187 920.88202 2032.2454 1776152
1705.845 911.20532 2010.8903 1644566
1702.7002 903.21655 1993.2603 1578773
1703.2117 897.26385 1980.1237 1512980
1695.8745 887.28632 1958.1047 1447187
1695.2919 880.95428 1944.131 1512210
1698.3251 876.5741 1934.4645 1643796
1685.7043 864.22705 1907.2166 65536
1702.384 866.96613 1913.2614 65536
1709.7905 864.97791 1908.8735 65536
1720.9651 864.90948 1908.7224 0
1725.0933 861.32361 1900.8091 65537
1732.465 859.39331 1896.5492 1511958
1722.5817 848.98358 1873.5765 4667198
1758.4792 861.1261 1900.3733 6969701
1747.2181 850.16754 1876.1893 8550791
1745.5811 844.00067 1862.5801 9670040
1739.4259 835.74066 1844.3514 11315891
1738.1464 829.91168 1831.4877 13289935
1744.1962 827.63287 1826.4587 13553359
0 0 0 0
0 0 0 0
0 0 0 0
0 0 0 0
0 0 0 0
0 0 0 0
0 0 0 0
0 0 0 0
0 0 0 0
0 0 0 0
-1923.5951 1008.0576 2195.9138 1024
-1910.3075 1007.912 2195.5964 1024
-1897.0117 1007.7601 2195.2656 1024
-1883.8246 1007.6642 2195.0566 1024
-1870.5787 1007.5353 2194.7759 1024
-1857.4043 1007.4434 2194.5757 1024
-1844.186 1007.3262 2194.3206 1024
-1830.9635 1007.205 2194.0564 1024
-1817.7378 1007.0803 2193.7849 1024
-1793.0189 1000.5405 2179.5386 768
0 0 0 0
0 0 0 0
0 0 0 0
0 0 0 0
0 0 0 0
0 0 0 0
-3425.8247 2013.1816 4385.437 768
0 0 0 0
0 0 0 0
-1672.704 1005.8511 2191.1072 1024
-1659.5488 1005.7469 2190.8801 1024
-1646.4869 1005.6979 2190.7734 1024
-1633.5021 1005.6958 2190.7688 1024
-1620.5371 1005.7059 2190.7908 768
-1607.7695 1005.8396 2191.082 768
-1594.7798 1005.8353 2191.0728 768
-1581.7145 1005.783 2190.9587 768
-1568.7721 1005.8085 2191.0144 768
-1555.8239 1005.8307 2191.0627 768
-1542.4922 1005.6034 2190.5676 768
-1529.0624 1005.3077 2189.9233 768
-1516.2877 1005.4413 2190.2144 768
-1503.3311 1005.4554 2190.2454 768
-1490.6686 1005.6684 2190.7092 768
-1477.457 1005.5114 2190.3672 768
-1464.12 1005.2654 2189.8313 768
-1451.26 1005.3456 2190.0059 768
-1438.3236 1005.3737 2190.0671 768
-1426.0514 1005.8709 2191.1501 768
-1412.5903 1005.5309 2190.4097 768
-1400.4659 1006.1448 2191.7471 768
-1387.243 1005.9739 2191.3745 768
-1374.1206 1005.8731 2191.155 768
-1361.5901 1006.2077 2191.884 768
-1349.2034 1006.6563 2192.8611 768
-1336.5408 1006.9056 2193.4043 768
-1323.5098 1006.8795 2193.3474 768
-1310.9857 1007.2426 2194.1382 768
-1299.0283 1008.0526 2195.9026 768
-1286.7603 1008.6353 2197.1721 768
-1274.0043 1008.8438 2197.6262 768
-1261.7649 1009.4697 2198.9897 768
-1250.7379 1011.0889 2202.5168 768
-1240.4509 1013.3466 2207.4351 768
-1227.3196 1013.3041 2207.3425 768
-1216.5771 1015.2545 2211.5911 768
-1205.3751 1016.8594 2215.0872 768
-1194.7421 1018.985 2219.7175 768
-1181.8712 1019.2281 2220.2471 768
-1169.5999 1019.9994 2221.9272 768
-1158.8055 1022.0912 2226.4839 768
-1145.9576 1022.399 2227.1543 512
-1137.3518 1026.5425 2236.1804 512
-1123.1885 1025.7087 2234.3643 256
-1110.9414 1026.6259 2236.3621 65792
-1097.2101 1026.177 2235.3843 196608
-1086.8705 1028.928 2241.377 196608
-1077.6774 1032.8458 2249.9114 196608
-1068.799 1037.1672 2259.325 393216
-1057.7252 1039.4409 2264.2778 393216
-1044.3099 1039.4424 2264.281 327680
-1039.2708 1047.8895 2282.6821 787712
-1024.7856 1046.9095 2280.5471 853761
-1013.0206 1048.7192 2284.4895 854017
-997.07819 1046.1947 2278.9902 919555
-987.85394 1050.7469 2288.9065 721920
-973.06396 1049.4233 2286.0232 262144
-959.18585 1049.0597 2285.231 458752
-944.84558 1048.1729 2283.2993 589824
-932.12421 1049.0824 2285.2805 787456
-919.07281 1049.6417 2286.499 524288
-905.31635 1049.4006 2285.9739 458752
-892.98865 1050.8335 2289.095 524288
-879.53558 1050.9658 2289.3833 524288
-865.01093 1049.8019 2286.8477 524288
-851.54523 1049.9062 2287.0752 589824
-839.0011 1051.1689 2289.8257 655360
-827.30994 1053.5592 2295.0325 720896
-813.71094 1053.5592 2295.0325 655360
-799.79553 1053.1425 2294.1248 720896
-786.64447 1053.7354 2295.4163 655360
-773.33636 1054.1349 2296.2866 655360
-759.84558 1054.2954 2296.6362 720896
-747.68042 1056.3345 2301.0781 655360
-734.8717 1057.5233 2303.668 655360
-719.1853 1054.5375 2297.1638 655360
-707.19043 1056.9539 2302.4275 655360
-694.39941 1058.252 2305.2551 655360
-681.6391 1059.65 2308.3005 655360
-669.06592 1061.4021 2312.1172 655360
-655.53094 1061.6697 2312.7002 655360
-643.4754 1064.3959 2318.6389 655360
-629.84308 1064.576 2319.0312 655360
-616.96631 1066.0696 2322.2847 655360
-603.36731 1066.355 2322.9065 655360
-590.03442 1067.135 2324.6057 655360
-575.87885 1066.4288 2323.0671 655360
-563.42688 1068.9199 2328.4939 655360
-549.66553 1068.99 2328.6462 655360
-533.56665 1064.4004 2318.6484 655360
-522.07654 1069.0049 2328.679 655360
-508.12 1068.6722 2327.9541 655360
-496.17395 1072.6674 2336.6572 655360
-481.35153 1070.4951 2331.925 655360
-466.94043 1069.1361 2328.9648 720896
-453.74771 1070.5692 2332.0864 655360
-440.03522 1070.8271 2332.6484 655360
-425.9743 1070.2264 2331.3401 655360
-411.36322 1068.1571 2326.8323 655360
-397.57578 1068.1571 2326.8323 655360
-383.92648 1068.5415 2327.6697 655360
-370.00894 1068.1803 2326.8826 655360
-355.88699 1067.178 2324.6992 655360
-341.89767 1066.5088 2323.2415 720896
-327.89145 1065.7284 2321.5415 720896
-313.58551 1063.8629 2317.4778 720896
-299.55945 1062.8195 2315.2048 720896
-285.16946 1060.3229 2309.7664 720896
-269.88297 1054.073 2296.1519 720896
-256.33087 1054.2931 2296.6313 720896
-242.55798 1053.579 2295.0757 720896
-228.17104 1049.9542 2287.1797 720896
-217.20041 1062.5851 2314.6943 720896
-202.61183 1058.0259 2304.7627 786432
-189.2438 1059.6418 2308.283 786432
-174.65111 1054.1183 2296.2505 720896
-160.18117 1048.4646 2283.9348 720896
-146.21744 1045.3868 2277.2302 720896
-132.3689 1042.5905 2271.1387 720896
-118.81121 1041.7113 2269.2234 786432
-105.29005 1040.9688 2267.606 851968
-91.83242 1040.729 2267.0837 720896
-78.297318 1039.3787 2264.1423 720896
-64.766182 1037.5334 2260.1228 720896
-51.066963 1031.3317 2246.613 720896
-37.617947 1027.5912 2238.4648 720896
-24.333782 1026.7321 2236.5933 720896
-11.112592 1029.6528 2242.9558 720896
2.1764879 1029.022 2241.5818 720896
15.430589 1027.1469 2237.4968 720896
28.623167 1024.8021 2232.3892 786432
41.740364 1022.0938 2226.4895 720896
55.005028 1023.43 2229.4004 720896
68.197006 1023.1583 2228.8083 720896
81.225449 1020.9192 2223.9309 720896
94.345253 1020.2932 2222.5674 720896
107.3432 1018.6642 2219.0188 720896
120.38229 1017.7386 2217.0024 720896
132.76942 1012.0255 2204.5574 720896
145.69803 1011.0937 2202.5273 720896
158.33206 1008.4389 2196.7444 720896
172.36589 1014.4257 2209.7856 720896
185.90305 1016.8504 2215.0676 720896
199.24112 1017.9382 2217.437 720896
212.04066 1016.3101 2213.8906 851968
225.02818 1015.7204 2212.606 1049088
238.01987 1015.2132 2211.5012 917760
250.90344 1014.322 2209.5598 720896
264.14542 1014.8962 2210.8105 851968
276.88828 1013.589 2207.9631 720896
289.37338 1011.4988 2203.4099 720896
302.58606 1012.0226 2204.5508 720896
316.01855 1013.2078 2207.1326 720896
329.15158 1013.3766 2207.5005 720896
342.38571 1013.8322 2208.4927 720896
355.21796 1013.1077 2206.9148 851968
367.67935 1011.4147 2203.2268 851968
381.24506 1012.7714 2206.1821 851968
393.75955 1011.3382 2203.0601 851968
406.53311 1010.6411 2201.5413 851968
418.41339 1007.8355 2195.4299 851968
431.03 1006.9193 2193.4341 917504
443.92355 1006.6847 2192.9231 786432
456.77734 1006.3759 2192.2505 786432
468.75574 1004.2089 2187.5298 851968
482.86871 1006.6083 2192.7566 786432
495.02444 1004.9087 2189.0542 851968
506.9892 1002.9181 2184.718 851968
518.6601 1000.4597 2179.3628 720896
531.58179 1000.4751 2179.3962 851968
543.20465 998.10309 2174.229 720896
555.30151 996.69159 2171.1545 720896
567.02747 994.69354 2166.802 851968
579.64624 994.31555 2165.9785 851968
591.5722 992.7912 2162.658 851968
603.87787 991.95508 2160.8367 851968
615.46143 989.99219 2156.5608 851968
628.59985 990.55945 2157.7964 851968
640.48798 989.1731 2154.7764 851968
651.55212 986.59326 2149.1565 851968
661.21924 982.03735 2139.2322 851968
671.44635 978.46899 2131.459 851968
685.3075 980.23041 2135.2959 917504
697.24725 979.22925 2133.1152 786432
711.57861 981.56305 2138.199 851968
720.90387 977.0304 2128.3252 851968
729.16022 971.2298 2115.6895 851968
738.05328 966.45911 2105.2971 917504
753.50269 970.28961 2113.6414 851968
766.15381 970.45044 2113.9917 851968
776.01355 967.1272 2106.7524 851968
788.02533 966.54889 2105.4927 851968
799.8493 965.76166 2103.7778 851968
810.33258 963.40472 2098.6436 786432
821.5788 962.01239 2095.6106 786432
833.22101 961.11829 2093.6628 851968
845.23193 960.66956 2092.6853 786432
856.03186 958.87708 2088.7808 720896
867.31378 957.66815 2086.1472 1048576
875.61353 953.24658 2076.5154 917504
886.65552 951.89142 2073.5635 1114112
897.24652 950.09583 2069.6521 1048576
907.60663 948.1076 2065.3208 1179904
922.492 950.8363 2071.2651 851968
934.79865 950.87061 2071.3396 917504
944.13593 947.92249 2064.9177 1245440
955.19415 946.75568 2062.376 917504
968.81726 948.12842 2065.3662 851968
984.46472 951.4234 2072.5439 851968
994.97345 949.73199 2068.8594 1048576
1006.0732 948.6391 2066.4788 1048576
1017.9988 948.3418 2065.8311 1245440
1028.082 946.35571 2061.5046 851968
1041.5007 947.45044 2063.8894 917504
1055.9044 949.40552 2068.1482 917504
1067.5262 948.84308 2066.9231 983040
1076.048 945.56927 2059.7915 983040
1086.5535 944.09247 2056.5745 851968
1095.6364 941.42603 2050.7661 1639680
1108.0903 941.68298 2051.3257 1903366
1117.5183 939.39075 2046.3325 1902594
1132.7902 942.00726 2052.0322 1507840
1149.3136 945.59808 2059.8542 1573632
1159.8281 944.22144 2056.8555 1376256
1169.8359 942.46521 2053.0298 1704704
1182.4615 942.83252 2053.8298 1638400
1193.8646 942.22736 2052.5117 1638400
1204.4622 941.00525 2049.8494 1703936
1220.8594 944.29321 2057.0117 2032128
1226.1675 939.02405 2045.5336 3083524
1234.6273 936.24799 2039.4863 4528908
1247.2786 936.6734 2040.4131 5909014
1258.1719 935.78314 2038.4738 5447947
1268.6821 934.62769 2035.9567 6895131
1282.899 936.19873 2039.3792 6631959
1297.0219 937.67261 2042.5897 7027227
1314.0962 941.23328 2050.3462 7421986
1319.7487 936.62256 2040.3025 7027228
1328.4712 934.25476 2035.1443 5776651
1348.5461 939.84119 2047.3136 6172696
1364.0475 942.16901 2052.3845 5909268
1371.058 938.64276 2044.703 6501404
1375.5219 933.45007 2033.3916 5449749
1392.9169 937.04681 2041.2264 5582622
1405.8799 937.62555 2042.4873 1115136
1403.7756 928.23157 2022.0237 459520
1439.9783 944.11212 2056.6172 7236955
1392.6072 905.39136 1972.2695 12303273
1411.5007 910.03796 1982.3915 12172711
1426.1514 911.89496 1986.4366 12105889
1436.7791 911.17029 1984.858 11908509
1449.8617 912.00153 1986.6688 11907739
1466.0479 914.75592 1992.6688 11973275
1475.5396 913.32251 1989.5465 12038811
1483.02 910.67694 1983.7833 11775640
1496.9268 911.98798 1986.6393 11709847
1509.0787 912.21796 1987.1403 11973019
1518.7998 910.98615 1984.457 11710616
1530.137 910.73535 1983.9105 11710615
1542.1113 910.86456 1984.1921 11908250
1555.2144 911.6535 1985.9108 11776665
1566.4817 911.36267 1985.2772 11644823
1583.4756 914.38287 1991.8563 11513238
1595.5005 914.51038 1992.1339 11513238
1606.3605 913.97308 1990.9637 11447447
1625.7484 918.2605 2000.3032 11316630
1617.4143 906.94116 1975.6455 11514008
1639.2794 912.59656 1987.965 11974302
1681.1897 929.25085 2024.2441 10724752
1701.3822 933.75006 2034.045 6908505
1699.1976 925.99139 2017.1438 1776403
1702.5521 921.33868 2007.0084 526341
1699.053 913.06732 1988.9906 1447187
1705.1768 910.04565 1982.4082 1644566
1695.5205 898.70123 1957.696 1512980
1689.4966 889.42322 1937.4851 1380367
1689.0219 883.17194 1923.8676 1315857
1690.2493 877.88861 1912.3586 197378
1706.2816 880.31396 1917.6418 65536
1716.3131 879.63159 1916.1554 0
1727.0381 879.31134 1915.4578 65536
1736.6476 878.43109 1913.5403 65536
1749.1912 879.03668 1914.8595 65537
1761.5146 879.5246 1915.9224 196609
1771.7958 878.99304 1914.7644 327682
1787.6135 881.19739 1919.5663 327684
1793.52 878.51923 1913.7323 327689
1795.9896 874.2016 1904.327 655374
1723.2906 833.57806 1815.8344 1245716
0 0 0 0
0 0 0 0
0 0 0 0
0 0 0 0
0 0 0 0
0 0 0 0
0 0 0 0
0 0 0 0
0 0 0 0
0 0 0 0
0 0 0 0
-1898.9547 1007.9899 2167.7852 1024
-1885.8754 1007.8646 2167.5156 1024
-1872.7947 1007.7368 2167.241 1024
-1859.8044 1007.6565 2167.0681 1024
-1846.776 1007.5541 2166.8479 1024
-1833.7985 1007.4783 2166.6848 1024
-1820.7999 1007.3898 2166.4944 1024
-1807.7848 1007.2906 2166.2812 1024
-1794.7693 1007.1899 2166.0647 1024
0 0 0 0
0 0 0 0
0 0 0 0
0 0 0 0
0 0 0 0
0 0 0 0
0 0 0 0
0 0 0 0
0 0 0 0
-1654.8229 1000.1798 2150.9888 512
-1641.8674 1000.0519 2150.7139 768
-1639.1698 1006.2188 2163.9763 1024
-1626.3027 1006.1912 2163.917 1024
-1613.4917 1006.1982 2163.9319 1024
-1600.6941 1006.2136 2163.9651 1024
-1588.0654 1006.3363 2164.229 768
-1575.2819 1006.3621 2164.2844 768
-1562.425 1006.3412 2164.2395 768
-1549.647 1006.371 2164.3035 768
-1536.8403 1006.3825 2164.3284 768
-1523.8844 1006.2958 2164.1418 768
-1510.785 1006.112 2163.7466 768
-1497.9917 1006.1306 2163.7866 768
-1485.1899 1006.1439 2163.8152 768
-1472.8076 1006.444 2164.4604 768
-1460.0273 1006.4751 2164.5273 768
-1446.7072 1006.131 2163.7876 768
-1433.9502 1006.1763 2163.8848 768
-1421.1581 1006.1973 2163.9302 768
-1408.9084 1006.6064 2164.8098 768
-1395.7439 1006.3633 2164.2869 768
-1383.6884 1006.9227 2165.49 768
-1370.6111 1006.742 2165.1016 768
-1357.9253 1006.8483 2165.3301 768
-1345.3794 1007.0613 2165.7881 768
-1333.1246 1007.4984 2166.7283 768
-1320.5865 1007.7278 2167.2217 768
-1307.5511 1007.5786 2166.9006 768
-1295.5896 1008.262 2168.3704 768
-1283.6953 1009.012 2169.9834 768
-1271.7645 1009.7482 2171.5667 768
-1259.4791 1010.215 2172.5706 768
-1247.2726 1010.7554 2173.7327 768
-1235.1423 1011.3696 2175.0535 768
-1223.4084 1012.3246 2177.1074 768
-1211.8104 1013.4136 2179.4495 768
-1200.5353 1014.799 2182.4287 768
-1189.3976 1016.3321 2185.7258 768
-1178.2245 1017.8682 2189.0293 768
-1165.2729 1017.885 2189.0657 768
-1153.8616 1019.2629 2192.0288 768
-1142.3644 1020.5954 2194.8945 768
-1129.74 1020.9399 2195.6355 512
-1120.6179 1024.4944 2203.2798 512
-1109.2524 1026.0575 2206.6414 65792
-1097.3958 1027.1981 2209.0942 65792
-1086.8107 1029.5708 2214.197 262144
-1077.505 1033.2285 2222.0632 525312
-1065.5836 1034.4373 2224.6628 327936
-1054.8789 1036.8723 2229.8997 393216
-1044.7816 1039.9738 2236.5696 459008
-1032.265 1040.7157 2238.1653 590336
-1021.0442 1042.8004 2242.6487 525056
-1011.7114 1046.8938 2251.4519 656640
-1002.1199 1050.8252 2259.907 590848
-988.31836 1050.3888 2258.9683 656384
-973.3468 1048.6797 2255.2927 656128
-962.8269 1051.7861 2261.9734 656128
-948.1673 1050.394 2258.9797 393216
-2967.9231 3334.9905 7172.2373 787456
-920.90479 1049.8334 2257.7739 590080
-907.63263 1049.9562 2258.0378 524544
-893.13428 1048.6427 2255.2134 721408
-879.73853 1048.6039 2255.1296 524288
-867.23187 1049.6398 2257.3574 524288
-854.30719 1050.1942 2258.5498 524288
-841.06787 1050.3734 2258.9353 655360
-827.54248 1050.1954 2258.5525 655360
-815.99603 1052.5642 2263.6467 720896
-803.83118 1054.201 2267.167 786432
-790.53162 1054.3802 2267.5522 720896
-777.38971 1054.7794 2268.4109 786432
-764.78961 1055.9408 2270.9084 589824
-752.78503 1057.9808 2275.2957 589824
-740.88214 1060.2406 2280.1558 655360
-727.56122 1060.5175 2280.751 655360
-713.80719 1060.1615 2279.9856 655360
-700.81476 1060.9447 2281.6699 655360
-687.92438 1061.9164 2283.7595 655360
-674.76898 1062.5098 2285.0356 655360
-662.01477 1063.772 2287.7502 655360
-648.80438 1064.3387 2288.969 655360
-636.42279 1066.3181 2293.2261 655360
-623.03833 1066.6672 2293.9766 655360
-609.98541 1067.6121 2296.0085 655360
-596.60284 1068.0098 2296.864 655360
-583.50769 1068.9525 2298.8916 655360
-569.30811 1067.8689 2296.561 655360
-557.4007 1071.137 2303.5894 655360
-542.49536 1068.6636 2298.27 655360
-529.46039 1069.842 2300.8044 655360
-516.83832 1071.9391 2305.3142 655360
-503.04025 1071.6447 2304.6814 655360
-488.76758 1070.2947 2301.7781 655360
-476.34567 1073.0364 2307.6741 655360
-461.21387 1069.655 2300.4023 655360
-448.16528 1071.0465 2303.3948 655360
-435.18988 1072.7057 2306.9631 655360
-421.53345 1072.7394 2307.0356 655360
-406.16534 1068.2736 2297.4312 655360
-393.95395 1072.0883 2305.6353 655360
-380.2561 1071.9867 2305.4167 655360
-366.21323 1070.8685 2303.0122 655360
-352.32504 1070.1339 2301.4321 655360
-338.27704 1068.835 2298.6387 720896
-324.16156 1067.205 2295.1331 720896
-310.07715 1065.5388 2291.55 720896
-296.23569 1064.5933 2289.5166 720896
-282.33365 1063.329 2286.7974 720896
-267.58511 1058.5881 2276.6018 720896
-254.82655 1061.6345 2283.1533 720896
-241.05893 1060.5828 2280.8916 720896
-227.27013 1059.3076 2278.1489 720896
-212.67035 1053.8525 2266.4175 720896
-199.9072 1057.3768 2273.9968 720896
-185.85201 1054.0825 2266.9119 720896
-172.01958 1051.6367 2261.6521 786432
-158.73711 1052.424 2263.345 786432
-144.94917 1049.6958 2257.478 851968
-130.49777 1041.1199 2239.0344 851968
-117.01089 1039.1687 2234.8384 851968
-103.26203 1034.0959 2223.929 786432
-90.373512 1037.4153 2231.0674 720896
-76.899017 1033.9929 2223.7073 720896
-63.781956 1034.955 2225.7764 655360
-50.499096 1033.0273 2221.6306 1378052
-37.192848 1029.0928 2213.1692 589824
-24.104038 1030.1659 2215.4768 655360
-10.982428 1030.7271 2216.6836 720896
2.1516824 1030.425 2216.0342 720896
15.2517 1028.3433 2211.5571 786432
28.268995 1025.1857 2204.7664 720896
41.32375 1024.9532 2204.2666 720896
54.069057 1019.0005 2191.4646 720896
66.829933 1015.5898 2184.1296 720896
79.821297 1016.2203 2185.4854 720896
92.63578 1014.7371 2182.2959 720896
105.90217 1017.9612 2189.2295 720896
118.83775 1017.6489 2188.5576 720896
131.929 1018.5998 2190.6028 720896
144.09709 1012.8913 2178.3262 655360
156.51501 1009.7332 2171.5342 720896
170.72806 1017.756 2188.7881 917504
183.25266 1015.2913 2183.4875 917504
195.95937 1014.0942 2180.9131 720896
209.70029 1018.0661 2189.4551 655360
222.25404 1016.1475 2185.3289 786432
234.72615 1014.0874 2180.8984 720896
247.98828 1015.4774 2183.8877 851968
259.92581 1011.5744 2175.4939 720896
273.13443 1012.7532 2178.0293 720896
286.70551 1015.1091 2183.0957 720896
299.6875 1015.2659 2183.4329 720896
312.83832 1015.9579 2184.9211 720896
326.08328 1016.8885 2186.9226 786432
339.03329 1016.8633 2186.8684 720896
351.0675 1014.1944 2181.1287 851968
363.86612 1013.8449 2180.377 851968
376.83215 1013.9699 2180.6458 851968
389.58371 1013.5286 2179.6965 851968
402.4632 1013.4376 2179.501 851968
414.26468 1010.7222 2173.6614 851968
427.30756 1011.1081 2174.4912 851968
440.16467 1011.0447 2174.3547 851968
451.23914 1007.0065 2165.6704 851968
462.83136 1004.3153 2159.8826 851968
478.03085 1009.3859 2170.7874 851968
488.9613 1005.4126 2162.2424 851968
501.36044 1004.585 2160.4626 851968
513.21106 1002.7269 2156.4666 851968
526.09155 1002.9224 2156.887 851968
538.41541 1002.0727 2155.0596 851968
550.04779 1000.0052 2150.6133 851968
562.30762 999.14624 2148.7659 851968
574.94751 998.98566 2148.4207 851968
587.71503 999.04901 2148.5569 851968
599.19159 996.96167 2144.0679 851968
611.10425 995.67163 2141.2935 851968
623.03027 994.45532 2138.6777 851968
635.09265 993.50085 2136.625 851968
646.16931 991.07184 2131.4011 851968
649.85541 977.61786 2102.467 851968
661.6192 976.5932 2100.2634 786432
674.03339 976.54877 2100.1677 786432
691.65973 983.92041 2116.0212 851968
705.36401 985.54956 2119.5249 851968
712.54919 978.17242 2103.6597 851968
725.35254 978.62897 2104.6414 851968
735.30426 975.2876 2097.4556 851968
750.72345 979.18872 2105.8452 917504
763.30518 979.32184 2106.1316 983040
770.21155 972.28638 2091.001 851968
781.00403 970.30164 2086.7327 851968
787.83984 963.53955 2072.1902 851968
799.71893 963.05859 2071.1558 851968
813.17352 964.46069 2074.1711 786432
824.21912 963.00635 2071.0435 851968
835.74902 962.15234 2069.2068 917504
846.82263 960.80524 2066.3098 851968
857.71759 959.29675 2063.0657 851968
869.96393 959.32086 2063.1174 786432
881.08398 958.11945 2060.5337 983040
892.85809 957.65259 2059.5295 1114112
902.44263 954.88135 2053.5698 1048576
913.91962 954.15955 2052.0176 851968
924.45947 952.49133 2048.4299 1114112
931.08466 946.88519 2036.3733 1048576
938.37659 942.09192 2026.0648 917504
956.43872 948.09601 2038.9772 851968
969.37939 948.93677 2040.7854 917504
981.13593 948.612 2040.0869 917504
990.95038 946.44025 2035.4163 917504
999.78534 943.39655 2028.8705 786432
1008.1447 939.98163 2021.5264 1048576
1025.4786 944.91638 2032.1392 1179648
1041.6304 948.66003 2040.1902 1114624
1053.012 948.02325 2038.8208 917504
1064.7556 947.72308 2038.1752 983040
1077.8955 948.65857 2040.187 983040
1081.165 940.98267 2023.6793 983040
1090.918 939.05609 2019.536 1573632
1104.7047 940.60596 2022.869 1507840
1120.9724 944.21216 2030.6246 1705217
1133.3179 944.47321 2031.1859 1639168
1147.03 945.85565 2034.1592 1573632
1156.1023 943.4231 2028.9277 1376256
1168.1683 943.45856 2029.0039 1376256
1179.641 943.01886 2028.0582 1310720
1191.4559 942.85895 2027.7144 1639168
1203.5944 942.95557 2027.9221 1901568
1214.7435 942.28302 2026.4757 1835264
1215.7987 933.87024 2008.3832 2492416
1226.8163 933.19861 2006.9388 2754304
1238.8204 933.28314 2007.1206 3739906
1249.1476 932.11475 2004.6079 5843733
1265.5669 935.47137 2011.8268 6501147
1277.4877 935.47137 2011.8268 6698781
1296.2579 940.44067 2022.5135 7093023
1313.76 944.40729 2031.0442 6829594
1325.8882 944.47375 2031.1871 7093023
1333.9526 941.67047 2025.1584 6370074
1349.7732 944.34344 2030.907 5778196
1370.3821 950.28973 2043.6951 5383185
1375.5219 945.49872 2033.3916 5449493
1386.0792 944.4826 2031.2063 4990490
1396.23 943.20923 2028.4678 1508864
1397.5647 936.05292 2013.0774 589824
1409.8575 936.29504 2013.5979 788484
0 0 0 0
1396.7195 912.13153 1961.6318 12105888
1408.6083 912.30322 1962.0013 12105887
1420.335 912.36823 1962.1411 11973533
1432.8845 912.95636 1963.4059 11776410
1445.0155 913.27057 1964.0815 11776410
1458.7157 914.56342 1966.8621 11973532
1463.0614 910.01746 1957.0853 11776667
1487.2023 917.75867 1973.7336 11381909
1495.8949 915.92023 1969.7799 6644556
1499.1625 910.81433 1958.7991 11841689
1514.3235 912.95709 1963.4075 11841176
1524.2529 911.93738 1961.2144 11907482
1537.877 913.12671 1963.7721 11907483
1545.7274 910.89581 1958.9744 11710360
1564.8613 915.29779 1968.4414 11776410
1578.215 916.27899 1970.5515 11776410
1589.4764 916.03986 1970.0372 11776412
1607.7959 919.84229 1978.2147 11579031
1615.4301 917.52057 1973.2217 11579031
1635.1967 922.07379 1983.0137 11579287
1625.8074 910.2384 1957.5607 11579033
1653.7494 919.32336 1977.0988 11316886
1676.6339 925.48883 1990.3582 11579543
1669.2539 914.979 1967.7559 12040094
1685.1559 917.28827 1972.722 12040094
1698.915 918.40723 1975.1285 8158318
1698.7726 912.04736 1961.4509 2763298
1697.7272 905.29242 1946.9237 0
1695.6127 898.06238 1931.3749 854796
1696.6023 892.56238 1919.5465 263429
1698.0474 887.3736 1908.3875 65536
1710.9221 888.18695 1910.1367 394756
1721.7405 887.92914 1909.5822 131584
1732.8434 887.82043 1909.3484 0
1746.6406 889.08466 1912.0674 65536
1758.2964 889.24957 1912.4219 196610
1770.1637 889.51862 1913.0006 196610
1784.7438 891.13873 1916.4847 196610
1796.5851 891.37964 1917.0028 196610
1808.9393 891.87036 1918.0581 196610
1814.9275 889.23578 1912.3922 196612
1818.3074 885.36389 1904.0654 131076
0 0 0 0
0 0 0 0
0 0 0 0
0 0 0 0
0 0 0 0
0 0 0 0
0 0 0 0
0 0 0 0
0 0 0 0
0 0 0 0
-1875.8633 1008.4214 2141.4246 1024
-1862.9355 1008.2921 2141.1499 1024
-1850.0178 1008.1664 2140.8831 1024
-1837.1802 1008.083 2140.7061 1024
-1824.3141 1007.9827 2140.4932 768
-1811.4819 1007.8999 2140.3171 768
-1798.6481 1007.8149 2140.1367 768
-1785.7883 1007.7141 2139.9226 768
-1772.9138 1007.6036 2139.688 768
0 0 0 0
-1736.4821 1001.2181 2126.1282 768
0 0 0 0
-1710.9281 1001.0089 2125.6836 768
-1698.2441 1000.9567 2125.573 768
0 0 0 0
0 0 0 0
0 0 0 0
0 0 0 0
0 0 0 0
0 0 0 0
-1618.9869 1006.4939 2137.3315 1024
-1606.2673 1006.4595 2137.2583 768
-1593.6049 1006.4606 2137.2607 768
-1580.9568 1006.4708 2137.2822 768
-1568.3181 1006.4871 2137.3171 768
-1555.6914 1006.5117 2137.3691 768
-1543.0815 1006.5474 2137.4451 768
-1530.4689 1006.582 2137.5186 768
-1517.8163 1006.5906 2137.5369 768
-1505.0286 1006.5091 2137.3638 768
-1492.1199 1006.3445 2137.0144 768
-1479.4613 1006.3474 2137.0203 768
-1466.8135 1006.3576 2137.042 768
-1454.8071 1006.812 2138.0068 768
-1442.1343 1006.8089 2138.0002 768
-1428.8811 1006.397 2137.1257 768
-1416.2332 1006.408 2137.1489 768
-1403.5479 1006.3923 2137.1157 768
-1391.506 1006.8419 2138.0706 768
-1378.5 1006.5958 2137.5479 768
-1366.5699 1007.1381 2138.6995 768
-1353.7468 1007.0262 2138.4619 768
-1341.1847 1007.1081 2138.6357 768
-1328.9817 1007.4639 2139.3914 768
-1316.999 1007.9951 2140.5193 768
-1304.4584 1008.1054 2140.7537 768
-1291.2931 1007.7305 2139.9573 768
-1279.7731 1008.6448 2141.8989 768
-1268.0315 1009.4011 2143.5049 768
-1255.1725 1009.2741 2143.2354 768
-1243.0815 1009.7685 2144.2852 768
-1231.7821 1010.9227 2146.7361 768
-1221.1655 1012.6672 2150.4407 768
-1209.1431 1013.2703 2151.7214 768
-1197.7104 1014.386 2154.0906 768
-1187.4476 1016.5269 2158.637 768
-1175.7667 1017.4874 2160.6765 768
-1164.703 1019.0091 2163.908 768
-1152.5696 1019.6182 2165.2014 768
-1140.7681 1020.5379 2167.1545 768
-1129.1278 1021.6247 2169.4624 512
-1116.4832 1021.8171 2169.8708 512
-1108.2001 1026.0522 2178.8645 512
-1098.274 1028.8483 2184.8018 256
-1086.9014 1030.3395 2187.9685 196608
-1073.0071 1029.4475 2186.0745 196608
