# .PCD v0.7 - Point Cloud Data file format
VERSION 0.7
FIELDS x y z rgb
SIZE 4 4 4 4
TYPE F F F U
COUNT 1 1 1 1
WIDTH 1311
HEIGHT 1
VIEWPOINT 0 0 0 1 0 0 0
POINTS 1311
DATA ascii
-2973.7112 987.93304 4020.1355 68096
-2945.9646 986.61835 4014.7856 68096
-2926.2039 987.97839 4020.3201 133632
-2930.4182 997.52222 4059.1558 463104
-2885.3179 990.29791 4029.7588 528640
-2878.043 996.04401 4053.1406 1792
-2865.6978 1000.1171 4069.7156 1792
-2848.9399 1002.7065 4080.2522 1280
-2811.6985 998.06915 4061.3816 1280
-2787.0259 997.85162 4060.4963 1536
-2779.7722 1003.9213 4085.1956 1024
-2753.7566 1003.2623 4082.5134 2304
-2734.6182 1005.1191 4090.0696 133888
-2727.4885 1011.4626 4115.8828 67840
-2710.8418 1014.3594 4127.6704 1024
-2691.8982 1016.4417 4136.1436 1280
-2679.7727 1021.1602 4155.3447 1280
-2649.7979 1019.1016 4146.9678 1280
-2633.3215 1022.2444 4159.7568 1280
-2593.3772 1016.2504 4135.3657 1280
-2563.1982 1014.0052 4126.2295 1792
-2561.717 1023.1791 4163.5601 2560
-2540.7634 1024.6783 4169.6606 1280
-2516.8357 1024.9956 4170.9517 2304
-2503.3345 1029.6075 4189.7192 2304
-2475.7385 1028.4568 4185.0361 463104
-2454.522 1029.9597 4191.1519 134144
-2427.5266 1029.0436 4187.4238 265472
-2404.4065 1029.7682 4190.3726 2304
-2375.533 1028.0182 4183.2515 1792
-2357.2485 1030.8621 4194.8237 1536
-2373.1514 1048.8766 4268.1289 1536
-2334.0991 1042.7285 4243.1113 1280
-2301.3662 1039.3005 4229.1621 1280
-2278.1506 1040.1425 4232.5879 1536
-2261.6189 1044.0889 4248.6465 2048
-2228.74 1040.4921 4234.0107 2560
-2201.5042 1039.478 4229.8843 68352
-2181.0439 1041.6768 4238.8311 68352
-2154.9067 1041.1837 4236.8252 2048
-2130.9204 1041.7306 4239.0503 2048
-2093.2598 1035.5258 4213.8018 1536
-2069.9358 1036.3491 4217.1519 1536
-2047.6489 1037.7181 4222.7231 1280
-2022.4091 1037.6061 4222.2666 1536
-1989.9244 1033.7275 4206.4844 1792
-1952.8066 1027.3134 4180.3833 1536
-1932.0641 1029.4596 4189.1167 1536
-1905.0903 1028.2982 4184.3911 660224
-1873.6096 1024.6415 4169.5107 265216
-1851.9879 1026.351 4176.4668 725760
-1830.1547 1027.9877 4183.127 133888
-1788.1531 1018.1854 4143.2393 2304
-1763.0608 1017.8725 4141.9663 199936
-1745.2009 1021.7852 4157.8882 331264
-1713.9913 1017.882 4142.0049 397312
-1694.6908 1021.0406 4154.8579 199936
-1676.5746 1025.0165 4171.0366 134144
-1647.9751 1022.606 4161.228 1792
-1621.1964 1021.2695 4155.7891 199936
-1601.0474 1024.1324 4167.4395 68096
-1581.4713 1027.4573 4180.9692 68352
-1567.4561 1034.5583 4209.8647 134144
-1547.0952 1037.6329 4222.376 397312
-1505.8987 1026.6045 4177.499 463360
-1488.1155 1031.4355 4197.1577 1714179
-1475.0364 1039.7469 4230.9785 1582849
-1433.3882 1027.859 4182.604 2241282
-1398.5881 1020.5502 4152.8623 2241280
-1375.3999 1021.6042 4157.1514 2175488
-1355.9207 1025.502 4173.0122 2504705
-1334.6284 1028.1478 4183.7788 3031305
-1298.2439 1019.0471 4146.7461 2965512
-1282.6975 1026.2677 4176.1284 2899973
-1261.2129 1028.9277 4186.9526 2965765
-1227.054 1021.1472 4155.2915 1847296
-1196.8467 1016.4039 4135.9897 2571008
-1165.8026 1010.7367 4112.9287 2768644
-1155.2533 1022.9755 4162.7314 2571267
-1134.9463 1026.9193 4178.7798 3097611
-1110.7701 1027.4603 4180.9814 2834438
-1074.8254 1016.8917 4137.9751 2965769
-1052.5702 1019.0836 4146.8945 2702341
-1024.4594 1015.5755 4132.6191 2702342
-1002.8741 1018.523 4144.6133 2570755
-983.62946 1024.0552 4167.125 2504966
-962.77563 1028.1539 4183.8037 2834185
-935.31122 1025.2231 4171.8779 2899723
-923.03955 1039.2386 4228.9102 2109952
-898.42078 1039.7469 4230.9785 2110464
-873.26013 1039.6393 4230.5405 2439171
-844.46021 1035.0646 4211.9248 2636550
-826.00568 1043.278 4245.3472 2110209
-796.04022 1037.0118 4219.8486 2044928
-769.59613 1035.0753 4211.9688 1715712
-739.99982 1028.6274 4185.7305 1978628
-715.17694 1028.5975 4185.6089 1452288
-697.39734 1039.0593 4228.1807 794624
-664.34503 1026.698 4177.8794 1715201
-644.6424 1034.8093 4210.8862 3424269
-618.30463 1032.4939 4201.4644 2041861
-588.04321 1023.1574 4163.4717 2963972
-579.31592 1052.1118 4281.2939 2701062
-559.99701 1063.6016 4328.0488 2964490
-542.47229 1079.7654 4393.8232 2961158
-527.33142 1102.5432 4486.5112 5720871
0 0 0 0
0 0 0 0
0 0 0 0
-279.24356 731.31244 2975.885 8480034
-265.63959 742.57623 3021.72 8347935
-245.3627 735.46637 2992.7881 9071653
-227.08662 733.71313 2985.6538 8808481
-210.05054 736.00854 2994.9946 9071397
-191.15237 731.60107 2977.0593 9005860
-173.17924 730.19757 2971.3481 9005604
-155.97678 732.09357 2979.0635 8939814
-138.20731 731.47266 2976.5369 8742435
-120.51537 731.14038 2975.1848 8742178
-102.19648 726.23895 2955.2397 8676385
-85.232651 730.93127 2974.3337 8676642
-67.253281 727.09058 2958.7051 9005606
-49.976376 730.81384 2973.856 9268778
-32.347958 730.65283 2973.2009 9268778
-14.713917 729.82794 2969.844 9268780
2.8844101 730.03241 2970.6763 9334574
20.481701 729.84857 2969.928 9202988
38.104393 730.32159 2971.8528 9268780
55.787067 731.2818 2975.76 9400367
73.274178 729.83289 2969.8643 9400366
91.074738 731.46265 2976.4961 9334573
108.86357 732.48468 2980.655 9268781
126.5268 732.49432 2980.6941 9202985
144.16508 732.37476 2980.2075 9202986
161.79465 732.24188 2979.667 9334571
179.45947 732.27893 2979.8179 9400108
196.92732 731.5777 2976.9644 9334058
214.42087 731.07941 2974.9365 9334057
232.93135 733.86066 2986.2542 9662766
249.55014 730.71008 2973.4338 9597231
267.61957 731.94257 2978.449 9729331
285.43701 732.37604 2980.2129 9795124
303.25894 732.76984 2981.8154 9663282
320.97049 732.86823 2982.2158 9662768
342.29239 740.76965 3014.3687 9531183
359.94876 740.34808 3012.6531 9662517
377.11383 739.00354 3007.1819 9399347
0 0 0 0
624.95966 1118.9482 4553.2676 9924427
652.34595 1119.6456 4556.1055 10121296
694.50836 1144.6407 4657.8164 10121552
711.70288 1128.1473 4590.7012 9989971
743.0376 1134.4576 4616.3789 9923921
777.98938 1145.646 4661.9072 9858128
799.6369 1137.1475 4627.3247 9858128
833.3006 1145.7339 4662.2646 9727056
860.79181 1145.5547 4661.5356 9726799
892.21606 1150.4583 4681.4893 9858385
930.85144 1164.0839 4736.9351 9332040
950.92957 1154.3843 4697.4653 9595726
971.15741 1145.4128 4660.9585 9793104
1011.0328 1159.4697 4718.1592 9661516
1040.8588 1161.5555 4726.647 9727309
1058.7633 1150.5768 4681.9717 9660746
1071.928 1135.1392 4619.1523 9660747
1148.9413 1186.4006 4827.7476 9265989
1148.1611 1156.7932 4707.2676 9003074
1180.4261 1161.0942 4724.7695 9134660
1195.3881 1148.5704 4673.8071 9003074
1226.8325 1152.0923 4688.1387 9463626
1255.6976 1153.0895 4692.1968 9397833
1279.6415 1149.6223 4678.0879 9397832
1291.1871 1135.3999 4620.2134 9266759
1316.5522 1133.6678 4613.165 9003587
1335.2716 1126.4 4583.5908 8806207
1373.1904 1135.2953 4619.7876 8937794
1399.5477 1134.4711 4616.4336 8740415
1425.7806 1133.5795 4612.8057 8872001
1457.679 1137.1411 4627.2988 9200709
1486.5344 1138.2415 4631.7759 8410937
1525.5262 1146.9224 4667.1011 8805438
1556.9677 1149.7189 4678.4805 7884593
1583.2985 1148.7096 4674.3735 8147765
1595.6606 1137.7749 4629.8774 7950129
1634.0128 1145.4285 4661.022 7753520
1646.2233 1134.8071 4617.8008 7358762
1655.0306 1122.2255 4566.6035 7490091
1676.7533 1118.6654 4552.1167 7687728
1673.8887 1099.0741 4472.3945 7227176
1710.9797 1105.9192 4500.249 8016694
1727.9617 1099.756 4475.1694 6963752
1740.0343 1090.7018 4438.3257 7226667
1754.9211 1083.6549 4409.6504 6436638
1777.8777 1081.7246 4401.7959 6107929
1790.9939 1073.9496 4370.1572 6305051
1807.4828 1068.3898 4347.5332 5778708
1809.0797 1054.3073 4290.228 5910295
1818.434 1045.0734 4252.6528 5779223
1835.6898 1040.5709 4234.3315 5910552
1854.5703 1037.0984 4220.2012 6107931
1875.2446 1034.7081 4210.4746 6239260
1908.1826 1039.0585 4228.1772 5845015
1901.6395 1022.0761 4159.0718 6897959
1923.2224 1020.4519 4152.4624 5911065
1935.4993 1013.9932 4126.1807 6437409
1959.5836 1013.8046 4125.4126 6239776
1982.7968 1013.1752 4122.8516 6700070
1982.3198 1000.6032 4071.6934 5647639
1989.1993 992.00232 4036.6943 5845018
2009.2959 990.11877 4029.0295 5055502
2022.6395 984.99078 4008.1626 5121295
2049.5591 986.51642 4014.3708 5252624
2034.2159 967.89807 3938.6082 5647639
2062.2109 970.08887 3947.5232 5055245
2084.0723 969.37744 3944.6284 4989709
2094.7539 963.53955 3920.8723 4989709
2108.2424 959.10651 3902.8333 5515796
2115.0942 951.78339 3873.0337 5581589
2081.8364 926.7619 3771.2153 5187087
2106.9395 927.9762 3776.1567 5712919
2124.7957 926.00665 3768.1423 5515796
2114.4919 911.93347 3710.875 5187344
2118.7864 904.3811 3680.1423 5187344
2139.1082 903.75372 3677.5898 5844761
2140.196 895.09515 3642.3557 6239519
2142.1465 886.96631 3609.2778 5910297
2194.1758 899.52881 3660.3975 5318419
2191.1477 889.49469 3619.5662 4727052
2182.1975 877.27441 3569.8391 5187860
2190.0005 871.95923 3548.2102 5451032
2235.0085 881.41754 3586.6985 5056274
2241.4917 875.64777 3563.22 5384981
2250.2532 870.86749 3543.7676 6042913
2251.9895 863.48181 3513.7136 5780508
2263.2446 859.8479 3498.9263 5451544
2253.9771 848.55371 3452.9678 5648923
2266.7959 845.70282 3441.3669 5582875
2274.7488 841.10364 3422.6514 4990740
2294.887 841.05151 3422.4392 6043171
2319.1614 842.50275 3428.345 5451291
2331.582 839.66003 3416.7773 4661518
2326.916 830.76599 3380.5852 5253912
2320.876 821.53729 3343.0312 5187860
2326.8164 816.66974 3323.2241 4793102
2346.2402 816.5766 3322.8452 4990224
2359.4045 814.32458 3313.6814 5122324
2363.0203 808.84137 3291.3687 4464648
2389.6689 811.2674 3301.2407 5517337
2399.7625 808.07935 3288.2676 5517081
2394.9373 799.95941 3255.2258 4069893
2373.978 786.62329 3200.9578 4529932
2377.1411 781.4281 3179.8174 4595982
2359.0938 769.39703 3130.8604 4069123
2366.7727 765.87872 3116.5432 4398603
2383.7158 765.38947 3114.5525 4529933
2395.4209 763.23877 3105.8008 4793618
2388.6174 755.26862 3073.3684 4464653
2420.7537 759.63843 3091.1501 4530192
2424.5544 755.11755 3072.7537 4135691
2437.1873 753.39441 3065.7417 4201483
2433.2568 746.61444 3038.1523 6438189
2424.709 738.52771 3005.2456 3609607
2416.4805 730.65546 2973.2114 4135436
2421.4231 726.85077 2957.7292 4464658
2441.23 727.53058 2960.4956 4004107
2447.0842 724.07227 2946.4229 4135436
2454.0754 720.99695 2933.9087 4135436
2428.8718 708.57269 2883.3516 3806727
2437.4783 706.11652 2873.3567 5187868
2439.6885 701.85437 2856.0129 3610117
2472.4355 706.37524 2874.4097 4793620
2465.74 699.6427 2847.0132 4990998
2482.8867 699.72076 2847.3308 5122841
2481.4363 694.59216 2826.4614 4925719
2467.7886 686.14099 2792.0715 4728341
2487.3035 686.96149 2795.4102 4333840
2473.396 678.60132 2761.3909 4268047
2471.7112 673.6825 2741.3748 4465170
2470.4841 668.95178 2722.1245 4333842
2485.3718 668.61761 2720.7646 4136206
2480.6689 663.05157 2698.115 4268307
2473.5127 656.90509 2673.1035 3807758
2484.1101 655.52191 2667.4751 4070929
2493.5344 653.84851 2660.6655 3939343
2487.929 648.27991 2638.0056 4268308
2492.7722 645.48639 2626.6382 3478535
2469.7803 635.56464 2586.2642 3544585
0 0 0 0
0 0 0 0
0 0 0 0
0 0 0 0
0 0 0 0
0 0 0 0
-3443.29 963.19653 3827.1958 2304
-3477.7056 979.27313 3891.0752 2816
-3451.4819 978.37537 3887.5078 2816
-3424.3162 977.19659 3882.824 199936
-3422.3184 983.23254 3906.8076 200192
-3372.7319 975.58545 3876.4221 199936
-3352.5151 976.38721 3879.6079 2304
-3340.356 979.56268 3892.2256 1536
-3338.2261 985.74414 3916.7871 1280
-3302.5767 982.04468 3902.0876 1280
-3275.4436 980.84338 3897.3145 1280
-3260.0801 983.1745 3906.5769 1280
-3227.3296 980.25787 3894.988 2048
-3209.4431 981.84656 3901.3003 2048
-3197.3745 985.25098 3914.8276 1280
-3168.6467 983.53418 3908.0061 1792
-3144.3557 983.1795 3906.5967 68096
-3127.2029 985.06799 3914.1006 1536
-3106.7415 985.93469 3917.5442 1536
-3098.4836 990.71661 3936.5447 1280
-3050.9014 982.90179 3905.4934 1536
-3025.6794 982.2265 3902.8101 1280
-2998.7229 980.97339 3897.8308 68096
-2982.02 983.08099 3906.2053 1536
-2958.8875 983.08539 3906.2229 2304
-2945.054 986.20386 3918.6138 68096
-2939.6172 992.20599 3942.4629 67840
-2905.8972 988.6814 3928.4583 199680
-2891.7078 991.79852 3940.8438 133888
-2876.1042 994.47736 3951.488 265472
-2877.3501 1003.0742 3985.647 594433
-2852.1003 1002.5001 3983.3657 462848
-2812.3203 996.76654 3960.5837 67584
-2814.1194 1005.7972 3996.4668 2304
-2783.1296 1003.1627 3985.9988 199424
-2763.8979 1004.7576 3992.3357 1024
-2740.9797 1005.0282 3993.4109 1280
-2720.7654 1006.3035 3998.4783 1280
-2695.9404 1005.881 3996.7996 1280
-2671.1235 1005.454 3995.1028 1280
-2668.0129 1013.2631 4026.1318 1792
-2652.5427 1016.4767 4038.9011 1280
-2626.2563 1015.5663 4035.2837 1280
-2602.7766 1015.7346 4035.9521 1280
-2589.1223 1019.7759 4052.0098 1280
-2574.9812 1023.6992 4067.5989 1280
-2546.0667 1021.7679 4059.925 1536
-2508.6746 1016.3652 4038.4578 1536
-2494.7688 1020.4653 4054.749 1536
-2474.8833 1022.1753 4061.5439 68352
-2454.0212 1023.5118 4066.8545 134144
-2435.2886 1025.7716 4075.8335 68096
-2414.6921 1027.2838 4081.842 2560
-2397.7673 1030.4044 4094.2419 2304
-2362.6057 1025.6719 4075.437 2304
-2345.1182 1028.5934 4087.0457 2560
-2330.1211 1032.6797 4103.2822 1536
-2334.8442 1045.6841 4154.9546 1536
-2318.782 1049.5575 4170.3452 1536
-2283.8259 1044.8702 4151.7207 1536
-2268.7915 1049.2946 4169.3003 1536
-2242.0208 1048.3286 4165.4624 2048
-2219.4126 1049.309 4169.3579 199936
-2186.6589 1045.4611 4154.0679 265728
-2159.0581 1044.017 4148.3301 199936
-2112.4319 1033.234 4105.4849 68096
-2113.6431 1045.8705 4155.6953 2304
-2076.9189 1039.8127 4131.625 68096
-2061.6145 1044.462 4150.0986 1536
-2033.5695 1042.6909 4143.0615 1536
-2006.7904 1041.5338 4138.4634 1536
-1975.4976 1037.9762 4124.3276 1536
-1959.1283 1042.2689 4141.3848 1792
-1926.3848 1037.8489 4123.8218 2048
-1900.0533 1036.8142 4119.7109 1536
-1881.6071 1040.1113 4132.8115 1024
-1864.5719 1044.2859 4149.3984 264960
-1824.5999 1035.554 4114.7031 1280
-1788.1761 1028.6267 4087.1782 1792
-1755.2102 1023.5255 4066.9089 199424
-1716.5581 1014.9205 4032.7173 660480
-1707.504 1023.8193 4068.0764 462848
-1676.912 1019.874 4052.3999 199936
-1655.8608 1021.701 4059.6592 199936
-1628.317 1019.5167 4050.9797 265728
-1607.6792 1021.6556 4059.4788 134144
-1603.6426 1034.5696 4110.7915 134144
-1570.5009 1028.8154 4087.928 134144
-1545.1715 1028.0791 4085.0024 134144
-1538.2296 1039.748 4131.3682 199936
-1502.8134 1032.2365 4101.521 331776
-1481.376 1034.2371 4109.4707 924160
-1457.1139 1034.2997 4109.7192 1056256
-1435.1626 1036.0326 4116.605 1977603
-1415.7827 1039.7139 4131.2319 1912064
-1381.369 1032.2898 4101.7329 2570243
-1351.3303 1027.9279 4084.4011 2899718
-1337.3011 1035.8069 4115.708 3426063
-1299.0049 1024.8336 4072.1062 3821074
-1276.9559 1026.5055 4078.7498 2570755
-1255.8406 1029.0071 4088.6895 2439426
-1234.8694 1031.7273 4099.498 2373633
-1205.4496 1027.3563 4082.1304 2702852
-1184.762 1030.401 4094.2283 2571271
-1140.703 1012.8216 4024.3777 2769159
-1134.6353 1028.9437 4088.438 2373889
-1117.5465 1035.557 4114.7153 2768647
-1071.7163 1015.2386 4033.9814 2110721
-1033.5536 1001.4222 3979.0828 2176256
-1035.4398 1026.6704 4079.4048 2176000
-1013.3801 1028.8149 4087.9263 2571784
-967.78668 1006.5873 3999.606 2440197
-945.49902 1008.0923 4005.5862 1913856
-947.93994 1036.7195 4119.334 2835210
-921.80859 1034.7856 4111.6504 3032333
-891.26233 1027.6565 4083.3228 3887386
-879.38104 1042.2512 4141.314 2176769
-864.52582 1054.0579 4188.2271 2177028
-829.26813 1040.9519 4136.1514 1059072
-812.14117 1050.4996 4174.0889 1847809
-784.17267 1046.1832 4156.938 1913602
-752.97357 1037.1372 4120.9941 1650688
-729.55585 1038.562 4126.6553 1321472
-692.25 1019.6293 4051.4277 1584641
-676.53473 1032.2802 4101.6948 1189888
-656.19714 1038.5581 4126.6396 1518336
-627.02405 1030.7969 4095.801 1978114
-600.73181 1027.3373 4082.0547 1977857
-588.18439 1048.0792 4164.4712 1845248
-579.96338 1078.6843 4286.0786 3028492
-550.55426 1070.88 4255.0684 3487758
-542.05902 1104.9583 4390.4761 2696714
-515.88995 1104.629 4389.168 8548942
0 0 0 0
0 0 0 0
0 0 0 0
-279.3056 749.11224 2976.5464 8414243
-261.46533 748.53094 2974.2366 8479775
-246.23897 755.88971 3003.4761 9005607
-227.69553 753.41913 2993.6594 8874274
-208.8652 749.50165 2978.0938 8940067
-191.16957 749.30872 2977.3271 8940068
-173.30716 748.35626 2973.5427 8874274
-156.11261 750.39868 2981.658 8939557
-138.28357 749.52319 2978.1792 8808228
-120.56928 749.10455 2976.5159 8742435
-102.10242 743.06555 2952.5203 8742435
-85.192589 748.20355 2972.9358 8545055
-67.468857 747.00897 2968.1892 9005606
-49.986374 748.5849 2974.4512 9400365
-32.358696 748.51868 2974.188 9400364
-14.720412 747.75537 2971.155 9400366
2.885093 747.81183 2971.3794 9400366
20.4804 747.39917 2969.7395 9466159
37.895855 743.83765 2955.5881 9597745
55.756443 748.50323 2974.1267 9531949
73.274178 747.43054 2969.8643 9597744
91.069969 749.06036 2976.3403 9466157
108.66722 748.79333 2975.2793 9334571
126.3187 748.9223 2975.7917 9400107
144.03926 749.37903 2977.6067 9334058
161.67163 749.32739 2977.4014 9531436
179.312 749.31927 2977.3691 9465387
196.55434 747.79846 2971.3262 9399851
213.25293 744.62891 2958.7322 9465644
230.98701 745.28198 2961.3271 9399851
249.02332 746.74908 2967.1565 9531181
267.10641 748.15381 2972.738 9596719
286.04791 751.64026 2986.5913 9596975
303.42212 750.84204 2983.4197 9465389
321.35376 751.43524 2985.7769 9465389
339.93854 753.41418 2993.6399 9399340
359.50266 757.25958 3008.9194 9465138
380.52176 763.66162 3034.3574 9333557
0 0 0 0
0 0 0 0
650.12531 1142.7391 4540.5962 10122319
685.35382 1156.7886 4596.4204 9990479
687.32697 1115.7784 4433.4692 9924691
730.03821 1141.4857 4535.6157 9464140
759.24432 1145.0006 4549.582 9529676
789.84308 1150.3029 4570.6499 9595469
818.15045 1152.027 4577.5005 9727055
848.18677 1155.9968 4593.2749 9464140
883.89478 1167.2094 4637.8271 9858898
903.23657 1156.7855 4596.4082 9793105
926.42828 1151.7581 4576.4321 9661262
957.04291 1155.9825 4593.2178 9595726
986.74493 1158.9015 4604.8159 9661008
1016.367 1161.572 4615.4272 9858643
1043.6418 1161.4902 4615.1025 9463883
1069.4559 1159.8285 4608.4995 9397833
1101.3705 1164.7008 4627.8594 9265989
1124.2472 1160.011 4609.2246 9134660
1142.2219 1150.6058 4571.8535 9003074
1174.6445 1155.8529 4592.7026 9134660
1187.0209 1141.5837 4536.0049 8937281
1238.4402 1164.6633 4627.7104 9331782
1249.788 1149.8751 4568.9502 9332038
1270.0726 1143.7618 4544.6597 9068866
1290.6267 1138.1403 4522.3228 9200453
1314.8467 1135.9143 4513.478 9266246
1335.6565 1130.8898 4493.5132 9265989
1358.5972 1127.8304 4481.3574 8608058
1406.7728 1145.4355 4551.3101 8081971
1414.3733 1129.9623 4489.8281 7950128
1454.7269 1140.7443 4532.6694 8344886
1503.9697 1157.9795 4601.1523 8476730
1529.0436 1156.3234 4594.5723 8542266
1554.5815 1155.0702 4589.5928 8213558
1580.8059 1154.3612 4586.7754 8279351
1604.5099 1151.8669 4576.8647 8148277
1598.9954 1128.8285 4485.3228 7424555
1631.516 1132.9556 4501.7217 7885105
1648.3187 1126.2107 4474.9214 7555885
1660.8904 1116.8344 4437.665 7292715
1701.2456 1126.1415 4474.6465 7029286
1699.975 1108.0316 4402.688 7226409
1726.0626 1108.0316 4402.688 7226410
1741.8081 1101.4913 4376.7007 6436894
1755.5601 1093.9008 4346.54 6963239
1779.0446 1092.5065 4341 6699810
1803.5537 1091.7722 4338.0825 6042137
1811.2107 1081.0005 4295.2817 6107931
1788.3146 1052.5447 4182.2148 6107931
1797.3278 1043.3911 4145.8433 6305053
1836.5145 1051.7644 4179.1143 6173724
1861.0029 1051.6093 4178.4976 5976345
1915.3168 1068.0907 4243.9854 6897705
1906.6057 1049.4539 4169.9336 7029290
1912.4767 1039.2179 4129.2612 6700325
1915.83 1027.8895 4084.2488 6437408
1934.7698 1025.1021 4073.1731 6305569
1954.4376 1022.7642 4063.884 5384210
1966.7167 1016.6639 4039.6448 5647382
1976.2445 1009.3051 4010.405 5581332
2002.2241 1010.4235 4014.8491 5055245
2004.5422 999.71521 3972.3003 5384466
2023.0515 997.23663 3962.4519 5384467
2045.1692 996.57318 3959.8157 5318674
2052.1807 988.64734 3928.3228 4989709
2068.3396 985.25671 3914.8503 5121294
2075.2852 977.6012 3884.4316 5384467
2060.3367 959.91309 3814.1492 5779225
2083.1587 960.01532 3814.5554 6173983
2080.0818 948.30774 3768.0364 6305312
2122.7771 957.49518 3804.5417 5055501
2101.543 937.95636 3726.9058 5186833
2108.1323 931.11298 3699.7141 4924688
2106.3809 920.76453 3658.595 4727821
2128.0481 920.75952 3658.5752 4793617
2138.4822 915.94342 3639.4385 7556923
2136.522 905.96777 3599.8013 4859408
2170.4927 911.27484 3620.8884 5122067
2125.8677 883.80273 3511.73 4069381
2158.3848 888.62329 3530.884 4924688
2167.98 884.00482 3512.533 6042912
2180.3694 880.6026 3499.0146 5648154
2190.2004 876.24109 3481.6841 5517337
2220.0752 879.90503 3496.2424 5846046
2233.3943 877.00018 3484.7004 6241061
2226.4846 866.27789 3442.0962 5714717
2235.3733 861.84143 3424.468 5846303
2250.8892 860.01678 3417.218 5780510
2240.5894 848.44897 3371.2542 4727822
2289.9744 859.48688 3415.1128 5122324
2296.4646 854.37299 3394.793 6043426
2304.5415 849.93311 3377.1514 5911842
2316.7483 847.07965 3365.8132 4727311
2308.0366 836.69171 3324.5376 4595723
2324.6438 835.58032 3320.1213 4727309
2338.3472 833.45251 3311.6667 5187603
2350.3394 830.75537 3300.9497 5056274
2348.7197 823.33112 3271.45 5253653
2354.7195 818.67749 3252.9592 5385751
2375.7158 819.27112 3255.3179 5187863
2368.4888 810.20062 3219.2769 5451290
2366.2952 802.98309 3190.5986 4332810
2374.4714 799.37109 3176.2466 4464396
2337.918 780.87579 3102.7568 4201225
2401.0913 795.71857 3161.7336 5056534
2415.4866 794.29175 3156.0642 4398604
2384.6411 778.12445 3091.8245 4003847
2388.6174 773.47955 3073.3684 4661519
2399.2146 771.03271 3063.646 4069641
2424.5544 773.32483 3072.7537 5122586
2410.6479 763.15839 3032.3579 4662035
2412.3901 758.05969 3012.0984 4267276
2405.3938 750.31006 2981.3059 3806726
2409.2104 746.02179 2964.2666 4662037
2404.4355 739.1543 2936.9792 4004107
2397.6826 731.78192 2907.6855 3806728
2429.8914 736.32111 2925.7217 3938314
2417.6904 727.43396 2890.4092 3082753
2409.2178 719.78577 2860.0198 3544072
2417.3643 717.17499 2849.6458 3083523
2451.1982 722.16833 2869.4868 3544325
2497.4844 730.73633 2903.531 3544325
2451.5276 712.38245 2830.603 4991254
2478.8657 715.43188 2842.7197 6241321
2482.533 711.65442 2827.7104 5583391
2492.1018 709.60815 2819.5796 5188632
2475.3682 700.1496 2781.9966 4793875
2463.0007 692.04291 2749.7852 5188122
2463.8108 687.72101 2732.6125 4399633
2462.8193 682.95593 2713.6787 4662805
2450.4023 675.10486 2682.4832 4333839
2446.8008 669.76807 2661.2778 4531221
2450.8889 666.59113 2648.6543 4991772
2465.5154 666.30249 2647.5076 4070670
2448.3994 657.49347 2612.5056 4794394
2462.885 657.22803 2611.4509 3149827
2459.6812 652.27496 2591.77 4465430
2459.5515 648.19354 2575.5527 3412999
0 0 0 0
0 0 0 0
0 0 0 0
0 0 0 0
0 0 0 0
0 0 0 0
-3393.363 971.57922 3771.7021 2048
-3377.5657 973.46735 3779.0322 199680
-3357.4285 974.12177 3781.5725 68096
-3351.4124 978.90942 3800.1582 199680
-3334.9397 980.68701 3807.0591 2304
-3317.7607 982.27972 3813.2419 1536
-3295.3347 982.33002 3813.4373 1536
-3264.7886 979.94385 3804.1738 1280
-3277.3867 990.56439 3845.4033 1280
-3229.7664 983.0058 3816.0605 1280
-3202.7271 981.64862 3810.7917 1280
-3191.5928 985.18188 3824.5081 1536
-3161.8848 982.99127 3816.0042 1536
-3144.2273 984.54248 3822.0261 1792
-3113.1924 981.89691 3811.7556 1792
-3091.188 982.08179 3812.4734 2048
-3071.0098 982.85376 3815.4705 2048
-3052.9429 984.31787 3821.1543 67840
-3035.3022 985.9425 3827.4607 2048
-3030.0981 991.66162 3849.6626 1280
-2988.9324 985.60901 3826.1663 1280
-2954.9275 981.84332 3811.5476 1536
-2929.1045 980.75903 3807.3386 1792
-2914.0913 983.3056 3817.2244 2048
-2909.2698 989.35785 3840.7192 2048
-2881.1609 987.52374 3833.5991 1792
-2856.9497 987.00708 3831.5938 2304
-2833.9211 986.89398 3831.1545 2048
-2816.3684 988.70129 3838.1707 67840
-2794.5627 989.03296 3839.458 199680
-2798.7117 998.6311 3876.7185 199680
-2794.6267 1005.4258 3903.0955 67840
-2748.083 996.93097 3870.1184 1536
-2739.0808 1002.0269 3889.9009 68096
-2715.7114 1001.9088 3889.4424 1024
-2691.9924 1001.6586 3888.4712 1280
-2680.4019 1005.9558 3905.1531 1280
-2658.7231 1006.5088 3907.2998 1280
-2645.9285 1010.4644 3922.6555 1024
-2629.9348 1013.2574 3933.4985 265728
-2608.4072 1013.9493 3936.1846 1536
-2596.896 1018.5825 3954.1704 1536
-2579.5774 1021.0014 3963.5605 1280
-2548.8931 1018.126 3952.3982 1280
-2530.1738 1020.0209 3959.7544 1024
-2502.9045 1018.4721 3953.7419 1024
-2488.5454 1022.197 3968.2024 1536
-2457.6948 1019.1544 3956.3904 2048
-2435.3232 1019.6031 3958.1323 2560
-2429.5649 1027.0836 3987.1721 199936
-2396.7532 1023.162 3971.9482 2560
-2377.6189 1025.0596 3979.3145 1536
-2348.8206 1022.7867 3970.4915 1792
-2329.488 1024.6316 3977.6533 1536
-2305.6521 1024.5132 3977.1934 1536
-2287.0979 1026.7633 3985.9285 1536
-2264.7041 1027.3188 3988.085 1536
-2291.0681 1050.2367 4077.0532 1536
-2264.6838 1049.2054 4073.0496 1792
-2226.1709 1042.4722 4046.9109 2560
-2201.7415 1042.2593 4046.0845 2048
-2176.6343 1041.7173 4043.9802 134144
-2155.6887 1043.177 4049.6472 134144
-2137.3291 1045.9352 4060.3547 397312
-2109.0144 1043.829 4052.178 134144
-2077.759 1040.2021 4038.0984 68352
-2062.0959 1044.3877 4054.3469 2304
-2034.4015 1042.5066 4047.0447 1536
-2021.514 1048.2589 4069.3752 1536
-1991.6439 1045.2373 4057.6453 1536
-1958.9637 1040.6492 4039.8337 1536
-1931.161 1038.5706 4031.7644 1792
-1901.3125 1035.3258 4019.1685 1280
-1874.2666 1033.5442 4012.2522 1280
-1862.4645 1040.231 4038.2104 1536
-1831.1987 1036.0792 4022.0935 1280
-1803.0195 1033.5875 4012.4204 67840
-1778.4497 1033.1259 4010.6284 199680
-1748.5345 1029.5045 3996.5703 528640
-1725.4095 1029.8367 3997.8594 265216
-1691.5249 1023.6664 3973.9065 528384
-1668.845 1024.1985 3975.9719 528640
-1650.3301 1027.3387 3988.1624 594688
-1624.6533 1026.047 3983.1477 923649
-1593.7858 1021.3907 3965.072 463104
-1576.6334 1025.516 3981.0867 331520
-1550.9694 1024.1461 3975.7688 199936
-1539.9144 1032.5295 4008.3135 68096
-1514.1428 1031.1534 4002.9709 2048
-1490.1245 1030.9465 4002.168 134400
-1470.288 1033.6727 4012.7515 134400
-1447.2083 1034.1711 4014.6863 660992
-1408.9569 1023.6635 3973.895 1516800
-1384.2207 1022.7847 3970.4834 1649153
-1356.9594 1019.9775 3959.5859 1847556
-1326.5526 1014.6656 3938.9653 2900236
-1310.781 1020.5583 3961.8406 3689748
-1292.8297 1024.9379 3978.842 4676898
-1264.9629 1021.4731 3965.3918 2702852
-1252.9758 1030.9431 4002.1548 3425803
-1220.9829 1024.0001 3975.2017 2636034
-1219.9098 1043.2256 4049.8354 2833669
-1170.2679 1020.8547 3962.9915 1649408
-1152.9077 1026.3047 3984.1479 1978624
-1124.1466 1021.6212 3965.9668 3229453
-1099.291 1020.363 3961.0823 1782016
-1073.2109 1017.8884 3951.4756 1848064
-1051.2269 1019.275 3956.8586 2439941
-1026.9785 1018.4791 3953.769 1913600
-1007.7693 1022.7603 3970.3889 2769163
-1011.2694 1050.8442 4079.4114 2111233
-961.43762 1023.5275 3973.3669 2637577
-948.27911 1034.861 4017.364 1716480
-912.04089 1020.9426 3963.3325 2374661
-859.22314 987.23883 3832.4932 2966542
-871.67871 1028.7394 3993.6001 2505221
-854.84045 1037.0195 4025.7437 2308354
-824.58386 1029.0297 3994.7268 2110464
-806.11005 1035.7063 4020.6455 1189632
-787.05664 1042.0222 4045.1643 860416
-756.86194 1033.5211 4012.1626 531200
-732.9671 1033.3503 4011.4995 399360
-701.25287 1021.7747 3966.5625 860160
-677.34753 1021.1687 3964.2102 532224
-653.12506 1020.0241 3959.7668 663552
-647.30493 1048.6051 4070.7192 1649921
-613.07336 1031.5919 4004.6736 2965264
-589.08002 1031.1296 4002.8789 2307077
-582.2561 1061.9431 4122.4976 2634760
-566.34479 1078.1553 4185.4341 2962440
-542.77386 1080.603 4194.936 2763271
-535.36121 1116.999 4336.2266 5851682
-496.18048 1087.4409 4221.481 7560242
0 0 0 0
0 0 0 0
0 0 0 0
-279.07043 766.10382 2974.04 8611876
-261.82077 767.19598 2978.2798 8611105
-244.77702 769.09302 2985.644 9268777
-227.52841 770.59174 2991.4622 9005860
-209.91956 771.02057 2993.127 8874275
-192.00806 770.31445 2990.3857 8874018
-173.35165 766.17236 2974.3062 8808482
-155.61713 765.62848 2972.1946 8873764
-138.19795 766.69513 2976.3354 8808227
-120.69946 767.56946 2979.7295 8874020
-102.76109 765.46686 2971.5671 8873764
-85.261879 766.44226 2975.3538 8676385
-67.629753 766.42004 2975.2676 8939813
-49.997059 766.37341 2975.0867 9400364
-32.377396 766.58472 2975.9067 9334572
-14.727198 765.71356 2972.5249 9334574
2.8869894 765.92157 2973.3325 9531952
20.484247 765.13977 2970.2974 9531952
38.123821 765.93066 2973.3677 9597745
55.7131 765.53058 2971.8147 9400107
73.340057 765.71606 2972.5347 9400365
90.975563 765.90161 2973.2551 9400364
108.49271 765.19226 2970.5012 9531179
126.21774 765.94238 2973.4133 9333801
143.91089 766.33899 2974.9529 9465387
161.64621 766.84912 2976.9333 9399850
179.35806 767.15851 2978.1343 9268264
196.77696 766.27161 2974.6914 9334057
214.47685 766.53479 2975.7131 9465387
232.65236 768.3288 2982.6772 9531436
249.36884 765.39117 2971.2734 9465389
267.69687 767.46118 2979.3093 9530926
286.09921 769.47498 2987.127 9399597
304.9877 772.48547 2998.8137 9465389
324.66049 777.04163 3016.5007 9464876
339.76205 770.75238 2992.0857 9399084
357.96371 771.77075 2996.0391 9399086
381.26968 783.17773 3040.3215 9464883
401.15875 786.85345 3054.5906 9990214
0 0 0 0
632.91626 1138.6832 4420.4053 9924684
653.9035 1129.6902 4385.4941 9990481
679.61621 1129.2363 4383.7324 9792848
709.98566 1136.2687 4411.0322 9990227
737.76025 1138.7963 4420.8442 9792848
766.39044 1142.4259 4434.9346 9661262
805.16632 1160.4373 4504.8555 9595726
829.18707 1156.7095 4490.3838 9793104
856.35535 1157.4675 4493.3267 9397577
868.67285 1138.7126 4420.5195 9200455
908.46954 1156.0228 4487.7183 9661775
932.24158 1152.5371 4474.1865 9727311
953.80219 1146.5857 4451.083 9529933
996.28931 1165.434 4524.2524 9332297
1021.4657 1163.5753 4517.0371 9858128
1051.0602 1166.7158 4529.229 9529419
1072.9973 1161.4116 4508.6377 9068868
1095.0793 1156.5181 4489.6411 8476730
1127.0625 1162.0656 4511.1763 8937280
1157.823 1166.1245 4526.9331 9200453
1179.3156 1160.8765 4506.5601 9660747
1192.8402 1148.1912 4457.3154 9134659
1211.8075 1141.1809 4430.1016 9200453
1244.6787 1147.2839 4453.7935 9002817
1262.2101 1139.2876 4422.7515 8739644
1290.3958 1141.0376 4429.5449 9134658
1304.2867 1130.3297 4387.9766 8805692
1338.0956 1136.9644 4413.7324 8344885
1369.394 1141.2526 4430.3794 8542521
1387.3894 1134.5009 4404.1694 8147762
1418.6754 1138.6661 4420.3394 8345144
1469.8339 1158.3414 4496.7192 8081972
1490.5415 1153.7458 4478.8789 8279094
1506.3103 1145.5549 4447.0815 8345144
1525.5729 1140.257 4426.5146 7818543
1532.2329 1125.8779 4370.6948 7686957
1564.6132 1130.5618 4388.8779 6963234
1607.2607 1142.3903 4434.7959 6831648
1618.1849 1131.6527 4393.1128 6897698
1644.5869 1131.9081 4394.104 7029029
1663.038 1126.7684 4374.1519 7095078
1692.0927 1128.8607 4382.2739 6634273
1714.7698 1126.6992 4373.8828 6568480
1711.2649 1107.6553 4299.9536 6502431
1722.379 1098.4937 4264.3882 7423533
1718.2026 1079.986 4192.541 6502688
1747.1858 1082.5516 4202.5005 7357997
1771.6324 1082.2738 4201.4224 6305309
1769.7627 1066.1499 4138.8286 6239516
1788.589 1062.7643 4125.6855 6107931
1795.5176 1052.4958 4085.823 6107930
1823.9636 1054.9457 4095.3337 6173724
1841.8134 1051.2831 4081.1152 5845015
1874.2656 1055.9424 4099.2026 6766117
1856.7729 1032.7039 4008.99 6239773
1896.8887 1041.6886 4043.8689 6240030
1898.0803 1029.3405 3995.9329 6305569
1908.6516 1022.3204 3968.6809 6502948
1941.5157 1027.2664 3987.8818 6436898
1949.6106 1019.1456 3956.3567 5713431
1959.8114 1012.3056 3929.8032 5713175
1981.9907 1011.7409 3927.6111 5778968
1998.0437 1008.0982 3913.4702 5383953
1992.4377 993.73669 3857.7183 5713175
1991.738 982.12012 3812.6223 5384210
2036.4648 992.91272 3854.5195 5516053
2035.6396 981.50256 3810.2249 5714202
2048.345 976.79492 3791.95 6043166
2057.6353 970.57874 3767.8184 6043167
2076.207 968.82684 3761.0176 5845018
2050.7458 946.78333 3675.4438 5779738
2083.8586 951.96124 3695.5444 5451286
2087.1135 943.53314 3662.8267 5385239
2080.5769 930.89783 3613.7756 5385238
2098.0571 929.15613 3607.0144 4990226
2111.3738 925.62421 3593.3032 5319447
2135.6602 926.92401 3598.3491 5319448
2148.7307 923.37811 3584.584 5253655
2137.8118 909.69366 3531.4604 4990482
2142.8145 902.98389 3505.4128 4661518
2151.5085 897.94348 3485.8459 5516827
2143.926 886.27057 3440.531 4924690
2163.4292 885.90881 3439.127 5187861
2177.9807 883.54517 3429.9509 5056018
2206.3423 886.77551 3442.4915 5714718
2186.8594 870.89337 3380.8364 5648924
2229.4443 879.79309 3415.3853 5977376
2241.5515 876.61334 3403.0417 5451032
2219.8828 860.39941 3340.0986 4661259
2252.6311 865.37701 3359.4219 4924689
2275.5149 866.51093 3363.8237 4398088
2266.7603 855.68195 3321.7852 4858895
2279.4541 853.06647 3311.6318 4661516
2297.9592 852.65167 3310.0217 5056273
2299.9851 846.18115 3284.9028 5056274
2320.6838 846.63159 3286.6511 5056017
2328.01 842.23639 3269.5891 4924688
2334.9185 837.76385 3252.2266 4792845
2357.1929 838.83282 3256.3762 4990481
2335.8728 824.49664 3200.7229 5253655
2345.0156 821.05743 3187.3718 4201224
2338.2034 812.13147 3152.7207 4595725
2351.3462 810.22314 3145.3125 4201224
2349.762 803.31 3118.4756 4398091
2359.1316 800.2204 3106.4817 4398604
2374.5037 799.19879 3102.5159 4530189
2368.1978 790.95276 3070.5046 4398350
2382.4023 789.63062 3065.3716 4595985
2378.1443 782.25531 3036.7407 4990486
2367.7986 773.00342 3000.8245 4793364
2382.0823 771.87006 2996.4248 4333070
2371.7893 762.84888 2961.4043 4069898
2369.8428 756.62506 2937.2432 4069898
2386.3716 756.34753 2936.1658 4069900
2376.4583 747.75403 2902.8054 4267280
2391.8933 747.20258 2900.6648 3412229
2424.3635 751.94269 2919.0659 3807243
2439.9399 751.4129 2917.0093 3149315
2400.2544 733.99164 2849.3794 3215365
2414.4048 733.16156 2846.157 3281415
2442.574 736.5705 2859.3906 3412998
2445.8672 732.48273 2843.5217 3149312
2452.3665 729.40442 2831.5718 3281153
2450.5774 723.91949 2810.2791 5188635
2480.0527 727.68207 2824.8855 5386012
2484.4763 724.0929 2810.9521 5450778
2457.4226 711.43866 2761.8281 5056533
2462.5989 708.22095 2749.3367 4793363
2455.6694 701.58679 2723.5828 4924949
2444.5332 693.84534 2693.53 4793622
2448.012 690.32556 2679.8665 4793366
2444.5215 684.89868 2658.7988 4398865
2441.2292 679.59637 2638.2153 4202255
2449.8093 677.64557 2630.6423 3938575
2413.7793 663.45782 2575.5649 3544072
2407.3206 657.52533 2552.5347 3544329
2410.4905 654.28046 2539.938 4070929
2425.7046 654.32465 2540.1096 4136722
0 0 0 0
0 0 0 0
0 0 0 0
0 0 0 0
0 0 0 0
0 0 0 0
-3335.0264 976.84106 3706.8613 1792
-3321.8994 979.44684 3716.7495 1792
-3301.4763 979.92169 3718.5518 2048
-3281.9028 980.65704 3721.3418 1792
-3259.8525 980.65704 3721.3418 1536
-3233.6279 979.39276 3716.5444 1280
-3213.8911 980.08954 3719.1887 1536
-3193.3992 980.56427 3720.99 1280
-3195.5593 988.04944 3749.3943 1280
-3166.0205 985.76959 3740.7429 1280
-3142.5452 985.35883 3739.1841 1792
-3148.8196 994.33667 3773.2527 2304
-3088.293 982.19763 3727.188 2304
-3068.1736 982.82721 3729.5771 67840
-3046.1477 982.85089 3729.6672 2304
-3023.0154 982.51526 3728.3936 67840
-3007.386 984.63123 3736.4231 133888
-2996.666 988.39789 3750.7166 1280
-2956.2041 982.33771 3727.7197 1536
-2936.3774 983.09485 3730.5928 1792
-2913.5417 982.84851 3729.658 1536
-2903.9597 987.10339 3745.8042 1536
-2871.6875 983.65173 3732.7063 2048
-2852.5334 984.67493 3736.5886 2048
-2840.7964 988.29419 3750.323 2048
-2823.1506 989.89886 3756.4124 133888
-2794.1714 987.52356 3747.3987 1024
-2787.064 992.90204 3767.8086 2048
-2766.605 993.57245 3770.3528 2304
-2751.1753 996.07465 3779.8479 2048
-2730.6384 996.75366 3782.4246 2560
-2711.5203 997.96613 3787.0256 68096
-2693.3359 999.54535 3793.0183 68096
-2674.9924 1001.0915 3798.8857 1536
-2658.9661 1003.5386 3808.1716 1280
-2645.7632 1007.1023 3821.6948 1280
-2629.2937 1009.4733 3830.6921 1792
-2611.0522 1011.1993 3837.2422 1792
-2580.0625 1007.9753 3825.0078 1280
-2579.7686 1016.7925 3858.4668 1280
-2536.5237 1008.6873 3827.7097 1280
-2525.4695 1013.3525 3845.4126 1280
-2504.0471 1013.9044 3847.5073 1792
-2472.9851 1010.5275 3834.6929 1024
-2453.3208 1011.7886 3839.4783 199680
-2433.6836 1013.0846 3844.3962 133888
-2412.636 1013.8124 3847.1582 2304
-2400.3342 1018.2642 3864.0518 2304
-2375.5728 1017.4653 3861.0198 1792
-2356.0845 1018.9312 3866.5828 2304
-2332.4885 1018.6322 3865.448 1536
-2311.5415 1019.4954 3868.7239 1536
-2303.1372 1025.9631 3893.2673 1536
-2274.3586 1023.3942 3883.5188 1792
-2257.2708 1026.087 3893.7368 1536
-2240.9084 1029.1683 3905.4299 1536
-2209.376 1025.2744 3890.6533 1536
-2241.7961 1051.2887 3989.3713 1792
-2206.7344 1045.8749 3968.8269 67584
-2183.2524 1045.8916 3968.8904 133632
-2157.3284 1044.7261 3964.4675 1536
-2137.7629 1046.6481 3971.7607 1536
-2105.1936 1042.1753 3954.7878 133632
-2080.2981 1041.4435 3952.011 1536
-2066.9475 1046.5404 3971.3525 1536
-2040.8118 1045.2069 3966.292 1536
-2012.3669 1042.6458 3956.5732 1536
-1992.1863 1044.3567 3963.0659 1792
-1966.9115 1043.406 3959.4583 1280
-1943.343 1043.3485 3959.24 1280
-1916.0651 1041.2738 3951.3669 1280
-1888.7043 1039.1021 3943.1257 1280
-1861.248 1036.8228 3934.4766 1280
-1834.5131 1034.8926 3927.1519 1536
-1812.671 1035.7085 3930.248 2304
-1784.778 1033.0432 3920.134 1792
-1769.9268 1037.9558 3938.7761 68096
-1748.2906 1038.9678 3942.6162 199680
-1716.9436 1034.158 3924.364 594432
-1687.9802 1030.6714 3911.1338 594944
-1657.9066 1026.4005 3894.927 528896
-1630.8228 1023.8862 3885.3853 792064
-1625.4397 1035.1194 3928.0127 726272
-1590.9633 1027.8824 3900.5503 660480
-1554.8542 1019.3618 3868.2168 660480
-1547.5289 1029.7391 3907.5959 660480
-1524.7877 1030.0181 3908.6543 68096
-1507.2841 1033.8982 3923.3784 1536
-1476.7812 1028.8436 3904.1978 67584
-1461.3657 1034.3064 3924.9277 68096
-1422.6741 1023.2054 3882.8022 68352
-1409.7361 1030.5664 3910.7351 199936
-1379.2699 1025.1454 3890.1641 1188096
-1348.6333 1019.4116 3868.4053 3030801
-1331.343 1023.7419 3884.8379 3557654
-1285.8937 1006.1907 3818.2356 5268267
-1275.8921 1016.2449 3856.3887 5531435
-1258.8678 1020.9701 3874.3198 4017937
-1223.5942 1010.7955 3835.71 4016652
-1227.9019 1033.5521 3922.0654 4672529
-1204.8107 1033.6797 3922.5493 2698496
-1180.3473 1032.6118 3918.4968 2568192
-1134.6123 1012.5184 3842.2476 2635521
-1123.6272 1023.2476 3882.9624 2373376
-1109.5535 1031.554 3914.4824 1452800
-1071.5726 1017.5139 3861.2041 2044928
-1050.1526 1018.9296 3866.5764 1782272
-1032.701 1024.345 3887.1262 2308872
-1020.6104 1035.446 3929.2524 2768910
-993.42914 1031.3983 3913.8918 2177027
-966.07312 1026.9711 3897.092 2242821
-948.57336 1033.0612 3920.2024 1979652
-904.22833 1009.4868 3830.7437 1978882
-908.24463 1040.0797 3946.8357 2373638
-890.13904 1046.287 3970.3909 1847296
-870.43317 1050.8993 3987.8936 992256
-845.63544 1049.45 3982.3938 1650432
-817.18323 1043.2521 3958.874 1452288
-788.81104 1036.7928 3934.363 1057792
-762.55975 1032.8127 3919.2598 333568
-732.13135 1022.7476 3881.0647 333568
-715.75861 1032.3011 3917.3181 465152
-689.19446 1027.304 3898.3552 267520
-663.70044 1023.6107 3884.3401 531712
-645.84576 1031.8573 3915.634 860928
-625.52008 1036.6234 3933.7202 1782019
-584.91211 1006.8455 3820.7202 2307848
-579.11389 1037.0023 3935.158 1912579
-575.07776 1072.9773 4071.6736 3226640
-556.20911 1083.2164 4110.5288 2632962
-543.7251 1107.397 4202.2876 8154435
-516.07794 1101.5341 4180.0391 8020537
-496.70706 1113.6354 4225.9609 8940355
0 0 0 0
0 0 0 0
-296.30859 782.7113 2970.1887 7887388
-278.80621 782.98425 2971.2244 8874279
-261.41077 783.61438 2973.6157 8742178
-244.40573 785.59076 2981.1155 9334571
-227.63669 788.6925 2992.8857 9005860
-209.99933 789.05585 2994.2646 9071397
-192.19064 788.78308 2993.2295 8940067
-174.22542 787.74695 2989.2979 8940068
-156.22841 786.31653 2983.8696 8874020
-138.37415 785.33105 2980.1299 8873764
-120.6763 785.07489 2979.158 8808228
-102.80276 783.39197 2972.7717 8874020
-85.256958 784.02722 2975.1821 8676385
-67.583374 783.51196 2973.2271 9005606
-49.962154 783.45465 2973.0095 9268522
-32.388229 784.48059 2976.9026 9334571
-14.739717 783.99286 2975.0518 9268781
2.8820753 782.20605 2968.2715 9400365
20.433496 780.8006 2962.9382 9466158
38.080536 782.65942 2969.9919 9531952
55.573093 781.17169 2964.3464 9662765
73.292496 782.82147 2970.6067 9531436
90.860085 782.52484 2969.481 9531436
108.24905 781.03558 2963.8298 9465387
126.06248 782.59711 2969.7556 9465644
143.72871 782.97443 2971.187 9465643
161.47348 783.65039 2973.7522 9334058
179.23608 784.27142 2976.1089 9465643
196.84749 784.17883 2975.7576 9531436
214.47708 784.16803 2975.7166 9399594
231.71843 782.84711 2970.7041 9465643
249.6801 783.97449 2974.9824 9531179
268.20926 786.61749 2985.012 9530923
286.42847 788.08081 2990.5647 9465130
307.0228 795.52777 3018.8237 9465130
321.49374 787.16193 2987.0776 9530924
340.08752 789.23694 2994.9517 9530669
358.04868 789.71075 2996.75 9399086
381.22665 801.10242 3039.9785 9596465
0 0 0 0
0 0 0 0
620.85437 1142.676 4336.1626 9661514
639.12207 1129.5521 4286.3604 9792846
651.47205 1107.3724 4202.1943 9727311
683.38855 1118.8605 4245.7886 9727055
697.77759 1101.8552 4181.2583 9661006
735.55365 1121.6802 4256.4888 9595726
782.77228 1154.1128 4379.562 9661519
793.48944 1132.3733 4297.0664 9727055
828.62128 1145.7441 4347.8052 10253399
865.94244 1161.2445 4406.625 9266761
892.08502 1161.2856 4406.7812 9398347
913.49701 1155.3414 4384.2241 9266761
947.08325 1164.6974 4419.728 9792592
966.04645 1156.0509 4386.9165 9463883
998.35223 1163.4058 4414.8267 9660749
1024.8732 1163.816 4416.3838 9660747
1041.5103 1153.2616 4376.332 9595210
1075.3069 1161.759 4408.5776 9266246
1103.4733 1163.9148 4416.7583 8871231
1110.7291 1144.4258 4342.8022 8871488
1154.3271 1162.416 4411.0708 8805695
1171.75 1153.8348 4378.5073 9200452
1187.6168 1144.1263 4341.666 9068866
1212.1713 1143.0215 4337.4731 8805694
1232.3947 1137.9633 4318.2788 8871231
1250.8639 1131.5242 4293.8442 8937024
1276.8751 1132.0281 4295.7563 8937281
1307.5892 1136.6003 4313.1069 9003074
1335.4106 1138.531 4320.4331 9002817
1368.52 1144.8125 4344.27 8213558
1392.1494 1143.0782 4337.689 8015922
1422.889 1147.1393 4353.0991 8279350
1443.7449 1143.2291 4338.2612 8147508
1469.6584 1143.3906 4338.874 8213557
1497.6221 1145.1141 4345.4146 8542266
1525.0756 1146.3959 4350.2783 7950129
1530.0126 1130.9907 4291.8198 7160869
1541.0221 1120.5048 4252.0283 6765855
1560.0087 1116.0631 4235.1733 6897698
1602.8356 1128.548 4282.5503 7094820
1616.803 1120.6406 4252.5439 7226662
1630.6254 1112.8768 4223.0825 6897700
1665.1456 1119.2604 4247.3062 6897700
1682.4 1114.021 4227.4238 6634273
1708.724 1114.8527 4230.5801 7029032
1701.0032 1093.769 4150.5732 6700067
1722.931 1092.0793 4144.1611 6634274
1696.0203 1059.9155 4022.1079 5910552
1736.0085 1069.8721 4059.8901 6371102
1752.4075 1065.2174 4042.2271 6963239
1766.2954 1059.1824 4019.3254 6239517
1786.8134 1057.231 4011.9204 6239260
1814.6226 1059.5881 4020.8655 5976857
1840.2552 1060.6299 4024.8186 6371616
1847.5352 1051.2028 3989.0449 6437153
1858.3809 1044.0168 3961.7764 6305824
1876.236 1040.899 3949.9448 6963498
1900.72 1041.4902 3952.1885 5647382
1911.4236 1034.608 3926.0723 5186832
1932.1748 1033.2645 3920.9741 5713175
1911.9158 1010.2827 3833.7634 5844504
1907.1517 995.93207 3779.3066 5910811
1933.1986 997.81744 3786.4612 6239775
1956.0038 998.00568 3787.1755 6108189
1981.0941 999.34229 3792.2478 5647638
2008.6324 1001.8699 3801.8396 6503720
1999.0811 986.04712 3741.7959 5648411
2019.9919 985.43207 3739.4622 5187860
2024.075 976.71014 3706.3645 6108963
2043.3114 975.40912 3701.4277 5450775
2063.3079 974.49487 3697.9583 5977374
2054.4041 960.09363 3643.3091 6437926
2061.8091 953.53424 3618.418 4398087
2083.0562 953.4458 3618.0823 4924688
2100.8276 951.7843 3611.7773 5187860
2105.3914 944.23291 3583.1218 4727054
2104.4714 934.39777 3545.7998 4990224
2096.9216 921.8421 3498.1545 5451032
2107.4053 917.38269 3481.2322 5714204
2118.2122 913.14899 3465.1663 4464137
2131.7073 910.14435 3453.7644 5517081
2137.7092 904.02808 3430.5547 5253653
2148.3794 899.98242 3415.2024 5845790
2179.4788 904.4906 3432.3101 5122066
2176.8032 895.02832 3396.4028 5451031
2194.3711 893.98645 3392.4492 5253653
2204.3364 889.89441 3376.9211 5516825
2204.3477 881.89374 3346.5605 4924688
2207.6062 875.32318 3321.6272 4858895
2219.1394 872.12067 3309.4744 4727311
2214.9023 862.83093 3274.2222 5056276
2234.7126 862.98889 3274.8218 4990224
2247.666 860.51904 3265.4492 4858638
2263.927 859.34692 3261.0012 4858895
2296.0701 864.17206 3279.3113 5385239
2317.7534 865.01263 3282.501 3805956
2301.2773 851.71613 3232.0442 6371879
2327.0518 854.14722 3241.2695 4727054
2335.2822 850.15161 3226.1074 5253398
2310.6248 834.3454 3166.127 4530189
2332.7812 835.56183 3170.7427 4661774
2338.2034 830.81256 3152.7207 4727312
2350.3801 828.51984 3144.0203 4530190
2364.1973 826.83673 3137.6335 5451036
2351.4377 815.9577 3096.3503 4727312
2345.4646 807.5838 3064.5735 4332811
2355.2622 804.72705 3053.7327 4661520
2356.1685 798.89911 3031.6172 4003848
2342.7483 788.33838 2991.542 4464143
2372.4304 792.33148 3006.6946 3806471
2358.9028 781.94153 2967.2676 4069899
2355.4084 775.00659 2940.9514 4201483
2346.5725 766.42896 2908.4014 3411973
2359.9768 765.18732 2903.6897 4135437
2379.376 765.89349 2906.3694 3544070
2358.7148 753.78711 2860.429 3675401
2373.2471 753.02026 2857.5188 3412485
2383.6118 750.95135 2849.6677 3347206
2387.8162 746.98425 2834.6135 3544585
2395.0464 744.01263 2823.3372 3281158
2399.0623 740.09064 2808.4541 2952448
2394.0066 733.44336 2783.2295 4070929
2394.7256 728.64417 2765.0178 3215365
2397.0085 724.38287 2748.8474 3083521
2442.2969 733.08771 2781.8799 3544326
2429.2644 724.28741 2748.4849 4661779
2460.3911 728.6828 2765.1643 4727570
2458.457 723.29327 2744.7124 4727313
2453.1724 716.99524 2720.8132 4661778
2431.0344 705.88605 2678.6565 4135692
2428.3694 700.53839 2658.3635 4333070
2422.6353 694.38 2634.9941 4530705
2416.2952 688.12799 2611.2693 4399378
2413.8425 683.05554 2592.0205 4597013
2407.8804 677.06036 2569.2705 4070669
2404.4739 671.85474 2549.5164 4925721
2398.1606 665.90686 2526.9458 4267790
2411.7615 665.52826 2525.509 4728086
0 0 0 0
0 0 0 0
0 0 0 0
0 0 0 0
0 0 0 0
0 0 0 0
-3289.967 985.31085 3656.7781 2048
-3250.6858 980.00098 3637.0713 1280
-3231.2766 980.65088 3639.4836 1280
-3211.3374 981.14771 3641.3274 1280
-3191.6458 981.7276 3643.4792 1536
-3167.2827 980.86841 3640.2908 1792
-3159.189 985.07062 3655.8862 67584
-3130.3923 982.83063 3647.5732 68096
-3111.8003 983.78589 3651.1184 2304
-3094.0452 985.02087 3655.7019 133632
-3081.9131 988.07611 3667.0405 2048
-3056.7222 986.95819 3662.8918 133888
-3032.7661 986.22589 3660.1738 68096
-3004.5571 984.09003 3652.2471 2048
-2981.5986 983.65533 3650.634 2304
-2968.3865 986.45337 3661.0181 68096
-2951.6252 988.10431 3667.1453 199680
-2927.4302 987.27271 3664.0591 1024
-2884.2092 979.96429 3636.9353 1280
-2870.1235 982.51965 3646.4189 1792
-2857.6123 985.65686 3658.062 68096
-2827.9851 982.89313 3647.8052 2304
-2799.0684 980.33563 3638.3137 1792
-2784.0623 982.64832 3646.8967 1536
-2764.1255 983.24329 3649.1047 2304
-2746.3359 984.61749 3654.2048 67840
-2730.4185 986.68988 3661.8962 2304
-2711.5032 987.70374 3665.6587 2048
-2687.9072 987.01495 3663.1025 1536
-2673.55 989.73529 3673.1985 1280
-2653.1924 990.26068 3675.1482 2304
-2644.5574 995.20618 3693.5024 2048
-2640.1594 1001.842 3718.1299 2048
-2611.5632 999.3299 3708.8069 1280
-2589.0293 999.11475 3708.0083 1280
-2574.7063 1002.0916 3719.0562 1792
-2552.8303 1002.1547 3719.2903 1536
-2532.8872 1002.9843 3722.3694 1280
-2518.2444 1005.9459 3733.3606 1280
-2494.0793 1005.1224 3730.3044 1536
-2476.623 1007.012 3737.3174 1536
-2461.0564 1009.711 3747.3342 1792
-2442.9807 1011.4203 3753.6777 1792
-2420.1306 1011.1663 3752.7351 2048
-2406.7222 1014.889 3766.551 1792
-2386.3113 1015.7007 3769.564 1792
-2363.2969 1015.4094 3768.4827 1792
-2336.1816 1013.3337 3760.7791 1536
-2316.4265 1014.4412 3764.8894 1536
-2306.3794 1019.8631 3785.0115 1536
-2292.9907 1023.8993 3799.991 1536
-2264.5525 1021.2288 3790.0801 1536
-2245.0305 1022.5661 3795.0432 1536
-2217.8044 1020.3857 3786.9512 1536
-2211.8186 1028.0331 3815.3328 1536
-2180.7703 1024.0693 3800.6221 1536
-2155.0825 1022.5663 3795.0442 1280
-2184.9104 1047.6511 3888.1409 1280
