# .PCD v0.7 - Point Cloud Data file format
VERSION 0.7
FIELDS x y z rgb
SIZE 4 4 4 4
TYPE F F F U
COUNT 1 1 1 1
WIDTH 1300
HEIGHT 1
VIEWPOINT 0 0 0 1 0 0 0
POINTS 1300
DATA ascii
-603.20496 1173.2904 4661.9897 1536
-573.3916 1168.8279 4644.2578 1536
-540.00372 1156.2616 4594.3267 199680
-514.77942 1160.769 4612.2368 660736
-488.66269 1163.6566 4623.7104 1449472
-463.38019 1168.9919 4644.9097 2040320
-440.3895 1181.1476 4693.2095 3813387
-414.87024 1187.7032 4719.2578 8741690
-385.66287 1183.8848 4704.0854 9332026
-356.871 1180.8464 4692.0127 10186565
-334.91595 1201.8281 4775.3818 9726014
-301.00122 1179.8051 4687.875 9923649
-273.3736 1180.4524 4690.4473 10317637
-249.76419 1200.561 4770.3472 10120000
-219.52361 1189.8596 4727.8262 10185791
-193.69785 1203.4569 4781.854 10185278
-164.42223 1196.6071 4754.6367 10185535
-137.18169 1204.7976 4787.1812 10316864
-108.13702 1197.2831 4757.3228 10316608
-80.701462 1208.5673 4802.1597 10316608
-52.533726 1215.2059 4828.5376 10119487
-23.922985 1215.2201 4828.5942 10316610
4.6409197 1202.9196 4779.7188 10382660
32.71505 1193.8829 4743.8125 10579782
60.310017 1183.7933 4703.7222 10711368
89.858955 1206.3129 4793.2021 10645832
117.61531 1199.7306 4767.0479 10514245
148.1362 1218.4363 4841.3735 10579782
174.40697 1201.7861 4775.2153 10316353
205.80406 1220.1776 4848.2925 10447680
233.24876 1213.5006 4821.7622 10382145
259.42337 1202.3942 4777.6313 10382143
291.95279 1220.0292 4847.7026 10710852
316.38086 1203.683 4782.752 10644802
343.64279 1199.9194 4767.7983 10381631
375.18192 1210.5282 4809.9517 10315838
403.92883 1211.2661 4812.8833 10381630
426.27075 1193.9664 4744.144 10645059
462.88611 1216.3132 4832.9375 10513473
484.55322 1199.0654 4764.4048 10513729
514.62305 1203.3651 4781.4893 10382144
546.35144 1210.8922 4811.3975 10184764
573.23944 1207.4767 4797.8262 10381887
602.39825 1208.9412 4803.6455 10250558
635.75623 1218.3206 4840.9141 10316351
664.66675 1218.7354 4842.5615 10447937
685.2038 1204.3975 4785.5913 10645059
715.63049 1207.8915 4799.4746 10645059
743.24457 1206.5527 4794.1548 10579269
771.90717 1206.9519 4795.7412 10316097
798.75867 1204.5916 4786.3623 10645062
825.59863 1202.3761 4777.5596 10513476
853.85748 1202.3055 4777.2793 10578757
880.20862 1199.6394 4766.6855 10315840
905.5918 1195.8611 4751.6724 10316097
943.00897 1207.7224 4798.8027 10250048
960.53613 1194.1617 4744.9204 10316099
994.56451 1201.3037 4773.2983 10118719
1017.2144 1194.6869 4747.0068 10250561
1039.8767 1188.4404 4722.187 10184512
1083.9393 1206.3383 4793.3027 10447683
1100.6467 1193.655 4742.9067 10119489
1127.6492 1192.4907 4738.2803 10316611
1158.0985 1194.9392 4748.0098 10513991
1178.1102 1186.7574 4715.5 10513993
1203.7247 1184.468 4706.4028 10316613
1245.0201 1197.3628 4757.6392 9790269
1277.9839 1201.8512 4775.4741 10185028
1298.5541 1194.7426 4747.228 10119235
1324.8943 1193.1313 4740.8262 10118979
1350.8948 1191.2876 4733.5 10184772
1377.3392 1189.9023 4727.9961 10316614
1407.8624 1192.0259 4736.4336 10250564
1429.2551 1186.4867 4714.4238 9856062
1478.1993 1203.593 4782.395 9461302
1488.7878 1189.4131 4726.0518 9461301
1520.5175 1192.3348 4737.6611 9395509
1529.2435 1177.4391 4678.4736 9263926
1563.356 1182.2717 4697.6763 9592634
1586.207 1178.5682 4682.9604 9395255
1613.5822 1178.2957 4681.8774 9066546
1630.7106 1170.6763 4651.6021 9001010
1655.9866 1169.0619 4645.188 9001266
1682.2704 1168.2004 4641.7646 8869681
1707.2869 1166.5005 4635.0103 8935473
1741.2924 1170.899 4652.4878 8869683
1769.7994 1171.5208 4654.958 9132854
1783.3164 1162.353 4618.5303 9132600
1816.3085 1165.9642 4632.8794 8869943
1835.6305 1160.8231 4612.4517 8213044
1854.6246 1155.6284 4591.811 8411965
1854.6906 1138.9604 4525.5815 7820601
1872.6754 1133.6146 4504.3403 8610630
1892.4227 1129.4709 4487.876 8412737
1919.2451 1129.6062 4488.4136 7357733
1934.7 1123.1388 4462.7153 7686182
1939.0514 1110.4868 4412.4438 7685925
1977.4423 1117.4064 4439.938 7225120
2000.9431 1115.8408 4433.7173 7619879
1982.3909 1091.1683 4335.6831 7488293
1962.9215 1066.6289 4238.1772 6764570
1997.2568 1071.5769 4257.8379 6567191
2021.4451 1071.0253 4255.646 6567190
2039.2194 1067.131 4240.1719 6566933
2066.8193 1068.4104 4245.2559 6369554
2060.5884 1052.381 4181.5645 6501140
2080.1726 1049.7603 4171.1509 7027228
2081.8611 1038.276 4125.519 6500884
2099.353 1034.8485 4111.8999 6764313
2105.4634 1025.9535 4076.5562 6961949
2096.3081 1009.9059 4012.7922 6501400
2106.2249 1003.3035 3986.5579 6369814
2123.4463 1000.2883 3974.5776 6369557
2141.4353 997.69696 3964.281 6632729
2167.6262 998.94171 3969.2268 6172178
2181.1846 994.40051 3951.1829 6764572
2191.0269 988.27966 3926.8621 6369814
2200.3958 982.07623 3902.2129 6698522
2185.8 965.41705 3836.019 6172178
2207.3818 964.91516 3834.0247 6698522
2188.7654 947.03052 3762.9614 6961950
2187.1636 936.79431 3722.2883 6632985
2209.6011 936.95618 3722.9314 6632985
2230.4883 936.46368 3720.9749 6567193
2238.0627 930.44647 3697.0654 6567194
2257.3882 929.38379 3692.8433 6304023
2273.4924 927.02808 3683.4829 6106644
2274.5959 918.65863 3650.2275 6304022
2288.1257 915.41833 3637.3523 6304023
2304.7959 913.48315 3629.6631 7027489
2288.3979 898.59882 3570.521 6501402
2296.2354 893.4165 3549.9294 6566938
2299.1033 886.41223 3522.0986 6106387
2300.3928 878.93103 3492.3726 6303766
2316.3232 877.12738 3485.2058 6764574
2323.8643 872.20673 3465.6541 6172436
2328.0039 866.10687 3441.4167 5580043
2338.5752 862.48499 3427.0251 6172180
2352.1836 860.03595 3417.2942 6435608
2341.9304 848.97858 3373.3584 6106643
2340.8687 841.41223 3343.2939 6896158
2377.252 847.31921 3366.7651 6369557
2367.0093 836.64752 3324.3618 6632988
2378.489 833.7666 3312.9146 6501145
2393.4866 832.15588 3306.5146 6238230
2393.8152 825.5127 3280.1184 6237973
2406.3501 823.15198 3270.7383 5909265
2397.5671 813.59497 3232.7642 7159331
2408.5972 810.85956 3221.8953 6237973
2408.8254 804.55927 3196.8613 6171927
2420.8152 802.25513 3187.7061 5975317
2439.7039 802.25513 3187.7061 5843731
2430.8452 793.20117 3151.7307 5843731
2439.429 789.93335 3138.7461 5975317
2461.5269 791.05798 3143.2148 5712145
2443.4216 779.34271 3096.665 5711888
2460.9702 779.08929 3095.6582 5711888
2453.1697 770.87408 3063.0156 5909524
2464.5488 768.76221 3054.6243 6041110
2489.2588 770.80902 3062.7571 6304282
2478.9971 762.0755 3028.0549 6370075
2485.8494 758.69067 3014.6057 6041110
2465.0122 746.96362 2968.009 5975061
2460.4653 740.30408 2941.5479 5711889
2470.5076 738.09692 2932.7778 5975061
2462.845 730.66809 2903.2598 5975064
2469.2793 727.49536 2890.6533 5712405
2464.282 721.02167 2864.9304 5843991
2479.4434 720.49445 2862.8354 5317390
2470.895 713.13141 2833.5791 5580818
2470.1921 708.11676 2813.6538 5712405
2449.0347 697.34509 2770.8533 5316878
2479.1514 701.2196 2786.2483 5909271
2499.0073 702.15985 2789.9844 5119498
2493.0864 695.89264 2765.082 5119498
2504.2896 694.45587 2759.373 5382927
2506.5581 690.57623 2743.9575 5317390
2506.2285 686.03534 2725.9148 5383182
2494.1318 678.35236 2695.3867 4922889
2512.4355 678.9826 2697.8911 4659717
2495.3936 670.11328 2662.6494 5317903
2507.3284 669.08795 2658.5752 5910553
2508.6562 665.26251 2643.3752 5778711
2513.0112 662.28241 2631.5339 5252367
0 0 0 0
0 0 0 0
0 0 0 0
0 0 0 0
0 0 0 0
-3992.1348 1135.5393 4408.2007 2048
-3947.7795 1130.3184 4387.9326 1792
-3924.2712 1131.0366 4390.7207 1536
-3915.2046 1135.9546 4409.8125 2048
-3911.5791 1142.5278 4435.3301 1792
-3883.0908 1141.8788 4432.8105 2048
-3873.2417 1146.7393 4451.6792 1792
-3824.4961 1140.0715 4425.7949 68352
-3771.45 1132.021 4394.542 2560
-3745.2893 1131.9843 4394.3999 397312
-3745.5208 1139.9797 4425.4385 68352
-3707.6494 1136.4093 4411.5781 2048
-3706.9172 1144.2523 4442.0249 1536
-3608.5811 1121.8636 4355.1113 1536
-3584.2737 1122.3328 4356.9326 1792
-3587.1238 1131.3743 4392.0317 1536
-3511.8276 1115.7206 4331.2637 1792
-3398.6611 1087.7161 4222.5493 2560
-3432.5869 1106.7213 4296.3281 1280
-3455.5168 1122.4387 4357.3438 1536
-3430.6157 1122.739 4358.5098 1536
-3433.6091 1132.2424 4395.4019 1536
-3406.0049 1131.7242 4393.3901 1536
-3358.8398 1124.6483 4365.9214 1792
-3354.8523 1132.0321 4394.5854 2304
-3424.0789 1164.4294 4520.353 1536
-3391.3948 1162.4075 4512.5034 1536
-3280.1917 1133.2268 4399.2236 1280
-3236.063 1126.9371 4374.8066 1792
-3175.0735 1114.6266 4327.0171 1536
-3168.2749 1121.2947 4352.9023 1792
-3095.405 1104.4966 4287.6919 2560
-3097.9011 1114.535 4326.6616 68096
-3090.2959 1121.0767 4352.0562 133632
-3120.9573 1141.7272 4432.2217 133632
-3072.3848 1133.4965 4400.27 133632
-3037.5559 1130.2386 4387.623 133632
-2995.2131 1124.1046 4363.8105 199424
-2996.863 1134.5178 4404.2354 331008
-2947.6375 1125.6852 4369.9468 331008
-2898.8962 1116.8826 4335.7744 1792
-2870.6899 1115.9049 4331.979 1536
-2880.3555 1129.764 4385.7808 1792
-2857.7661 1131.109 4391.002 199424
-2829.9231 1130.3802 4388.1729 1792
-2782.644 1121.8024 4354.8735 1280
-2794.5413 1137.1438 4414.4292 67584
-2752.6658 1130.6874 4389.3652 1792
-2739.2429 1135.9065 4409.626 1536
-2730.3018 1143.1024 4437.561 1792
-2692.8879 1138.4019 4419.313 1280
-2662.0464 1136.4146 4411.5981 1280
-2644.9536 1140.3152 4426.7407 1280
-2606.658 1135.0614 4406.3452 1536
-2573.7026 1132.05 4394.6553 1536
-2566.5898 1140.4603 4427.3042 1280
-2544.9785 1142.5355 4435.3599 1280
-2519.7097 1142.9948 4437.1431 1280
-2503.0171 1147.3951 4454.2251 1280
-2443.564 1132.0789 4394.7666 1536
-2424.7097 1135.444 4407.8306 1280
-2410.8201 1141.2327 4430.3027 1280
-2382.1936 1140.0961 4425.8901 1280
-2349.7031 1137.0642 4414.1201 1280
-2356.1448 1153.016 4476.0459 1280
-2319.2253 1147.8702 4456.0693 67328
-2299.2139 1151.0704 4468.4932 133888
-2293.4629 1161.5679 4509.2441 1280
-2262.9958 1159.6473 4501.7886 1280
-2215.2573 1148.7247 4459.3867 1280
-2223.3342 1166.8311 4529.6758 1280
-2196.5071 1166.8379 4529.7026 1280
-2221.5469 1194.7388 4638.0151 1024
-2193.8735 1194.6348 4637.6108 1280
-2146.9578 1183.9169 4596.0039 1792
-2063.8325 1152.6998 4474.8184 1024
-2062.0317 1166.6831 4529.1016 1536
-1967.7017 1127.9922 4378.9023 1536
-1928.7784 1120.4539 4349.6387 1536
-1903.2809 1120.6163 4350.269 1536
-1870.8557 1116.6483 4334.8652 1536
-1828.6458 1106.6483 4296.0449 1280
-1811.8684 1111.9745 4316.7212 1280
-1792.271 1115.6976 4331.1748 1280
-1761.4408 1112.4348 4318.5083 1280
-1733.2831 1110.7887 4312.1177 1280
-1702.2939 1107.2515 4298.3862 1280
-1678.9202 1108.6354 4303.7588 1024
-1646.1108 1103.7354 4284.7368 1280
-1618.4965 1102.2197 4278.853 1536
-1613.2296 1116.1171 4332.8027 1536
-1578.9489 1110.0658 4309.3115 1536
-1558.804 1113.9171 4324.2627 1536
-1521.1965 1105.2101 4290.4614 67072
-1502.6945 1110.3236 4310.3125 1280
-1471.532 1106.0977 4293.9072 1280
-1449.5442 1108.7406 4304.167 1024
-1430.4633 1113.7415 4323.5806 1024
-1407.2139 1115.62 4330.873 1792
-1373.6134 1109.2097 4305.9883 67584
-1355.7526 1115.5074 4330.436 1792
-1330.5643 1115.9026 4331.9702 331008
-1304.5876 1115.6393 4330.9478 199680
-1275.9176 1113.0156 4320.7632 265472
-1254.3365 1116.5953 4334.6597 462592
-1232.9852 1120.5334 4349.9473 396800
-1205.6782 1119.1116 4344.4277 67584
-1178.8353 1118.0679 4340.376 2048
-1149.8345 1114.8854 4328.021 1792
-1124.5966 1115.2892 4329.5889 1536
-1090.5215 1106.7434 4296.4141 1536
-1065.5906 1107.2911 4298.5405 1280
-1044.0597 1111.4854 4314.8223 1280
-1021.6879 1114.9724 4328.3589 1024
-999.38501 1118.7159 4342.8921 1536
-975.14825 1120.4355 4349.5674 1280
-951.98938 1123.5206 4361.5439 1280
-926.85529 1124.3818 4364.8867 1536
-904.49347 1128.7518 4381.8516 1280
-880.28601 1131.009 4390.6138 1280
-858.90491 1137.1456 4414.4365 1280
-837.85583 1144.1212 4441.5156 1280
-814.67609 1148.5452 4458.6895 1280
-790.97522 1152.5062 4474.0669 1280
-765.82068 1154.5508 4482.0039 1280
-740.62738 1156.6816 4490.2759 1280
-717.02911 1161.5551 4509.1948 1280
-689.07397 1159.4749 4501.1191 1280
-667.09778 1167.6926 4533.0205 1280
-641.21375 1169.4724 4539.9302 1280
-609.55646 1160.4177 4504.7793 1280
-589.57416 1173.7772 4556.6416 1536
-565.12781 1179.1052 4577.3247 2304
-528.27094 1157.7711 4494.5049 264960
-506.4343 1168.838 4537.4673 460800
-480.80624 1171.9049 4549.373 4339997
-461.72095 1192.2305 4628.2773 8544316
-435.04538 1194.2861 4636.2578 9135165
-409.5488 1200.0737 4658.7251 9463103
-376.1311 1181.8094 4587.8228 9988933
-346.2345 1172.6248 4552.1675 9989442
-321.14563 1179.5466 4579.0386 9857856
-297.0903 1191.8925 4626.9653 10054978
-268.92334 1188.5762 4614.0913 10054722
-242.66019 1193.8759 4634.665 10251329
-214.03282 1187.4121 4609.5723 10317121
-187.32147 1191.2418 4624.4395 10251071
-160.85571 1198.2133 4651.5029 10645829
-132.58476 1191.8406 4626.7637 10382658
-105.3775 1194.1998 4635.9224 10382401
-78.338997 1200.8092 4661.5806 10382658
-50.940533 1206.0955 4682.1021 10382402
-23.155754 1203.9408 4673.7373 10448196
4.5433221 1205.3486 4679.2026 10448196
31.930378 1192.6824 4630.0317 10382659
59.81786 1201.7771 4665.3379 10448452
87.257675 1198.9714 4654.4463 10645831
113.74277 1187.5457 4610.0908 10382659
143.96117 1211.9747 4704.9253 10579012
169.83322 1197.823 4649.9878 10447682
196.76143 1194.0312 4635.2681 10184764
226.89101 1208.2158 4690.3335 10184764
253.85071 1204.267 4675.0034 10316094
280.03384 1197.7736 4649.7959 10645059
305.4325 1189.3885 4617.2451 10381630
330.95978 1182.8418 4591.8306 10447424
361.46164 1193.7183 4634.0532 10381374
388.13672 1191.3134 4624.7173 10315837
414.76935 1189.1039 4616.1401 10711109
445.92615 1199.3357 4655.8604 10645315
474.42386 1201.6403 4664.8066 10711108
501.88486 1201.2098 4663.1357 10776645
521.31757 1182.6121 4590.9385 10316094
555.37 1197.3792 4648.2646 10382143
583.8927 1199.392 4656.0786 10579523
610.32098 1197.115 4647.2393 10513729
641.72986 1204.3821 4675.4502 10776645
665.41357 1197.1493 4647.3726 10447937
694.5517 1199.9144 4658.1069 10579266
718.96686 1194.6206 4637.5562 10381633
747.55658 1196.3977 4644.4546 10513476
775.35455 1196.8263 4646.1187 10776649
801.96692 1195.4583 4640.8081 10842441
829.67322 1195.7576 4641.9697 10710855
848.60938 1183.8033 4595.563 10513476
883.94531 1194.7587 4638.0923 10710855
906.92908 1188.8613 4615.1987 10644806
935.26166 1190.1157 4620.0679 10513479
958.21198 1184.6445 4598.8286 10710856
984.77325 1183.8167 4595.6147 10250304
1014.223 1186.4122 4605.6909 9920827
1029.911 1173.1956 4554.3833 10052156
1068.5203 1186.0972 4604.4678 10184512
1091.0839 1180.9886 4584.6362 10250048
1127.4596 1190.7152 4622.395 10382404
1138.6338 1173.9963 4557.4917 10119235
1171.7543 1180.1555 4581.4023 10579529
1207.4133 1188.5349 4613.9312 10119234
1222.7595 1176.9906 4569.1157 10316614
1259.8425 1186.4165 4605.7075 10185027
1283.8356 1183.3767 4593.9072 10316614
1312.7336 1184.8907 4599.7847 10250820
1338.0649 1183.1893 4593.1792 10185028
1367.561 1185.1648 4600.8486 9987649
1402.922 1192.0466 4627.564 9723960
1417.7437 1181.5469 4586.8037 9526325
1444.5331 1181.2288 4585.5684 9460532
1474.0859 1183.1403 4592.9888 9395252
1492.6334 1176.3092 4566.4707 9132337
1525.6278 1180.9042 4584.3086 9132337
1556.3931 1183.6429 4594.9404 8803629
1573.5348 1176.1051 4565.6782 8540457
1581.5801 1162.1379 4511.4575 9001008
1600.3165 1156.3605 4489.0288 8671532
1628.4813 1157.473 4493.3481 8868911
1661.4856 1161.9343 4510.667 9067059
1692.1492 1164.6434 4521.1836 8738610
1706.7101 1156.3579 4489.019 8869943
1731.0331 1154.8394 4483.124 8476212
1756.6636 1154.2258 4480.7422 8477245
1781.4155 1153.0619 4476.2236 8679265
1783.4811 1137.4631 4415.6689 8878708
1785.7025 1122.4136 4357.2461 9538183
1806.1855 1119.1078 4344.4126 9867405
1797.9133 1098.3285 4263.7471 10656918
1800.8573 1084.8822 4211.5479 10127745
1815.6895 1078.8672 4188.1978 7161642
1868.6249 1095.3496 4252.1831 7291939
1893.2004 1094.991 4250.7905 7554083
1906.2668 1088.0723 4223.9321 7619622
1945.0764 1095.8364 4254.0728 6961178
1950.0243 1084.5686 4210.3306 6632213
1978.7383 1086.6368 4218.3594 6632470
1984.5559 1076.2366 4177.9854 6764055
2011.8124 1077.5758 4183.1841 7026971
2031.5885 1074.9244 4172.8916 6632470
2035.5269 1064.0577 4130.707 6961434
2023.2147 1045.0554 4056.9392 6697752
2036.1989 1039.4124 4035.0327 6434836
2053.4253 1036.0406 4021.9434 7026973
2063.2495 1029.0543 3994.8225 6171663
2048.3286 1010.0248 3920.9492 6566676
2074.7588 1011.5836 3927.0005 6632729
2090.5999 1008.0021 3913.0969 6501400
2101.9695 1002.3669 3891.2212 6698779
2110.1848 995.36609 3864.0435 6567193
2123.043 990.68207 3845.8601 6698778
2161.9285 998.11383 3874.7104 6764572
2147.9426 981.23651 3809.1919 6304020
2165.2224 978.84442 3799.9058 6567193
2163.7029 968.09027 3758.158 7027487
2177.8032 964.4729 3744.1152 6829852
2141.4663 938.81683 3644.5173 6698010
2170.2734 941.9469 3656.6687 6106642
2186.1174 939.44446 3646.9541 6435350
2217.0215 943.39948 3662.3076 6698522
2234.6653 941.68988 3655.6709 6435608
2254.1362 940.77576 3652.1221 5975058
2257.864 933.37091 3623.3762 6369816
2261.0842 925.89777 3594.3655 6501402
2265.5493 919.06915 3567.8564 6698524
2282.4753 917.375 3561.2798 6370072
2255.9309 898.40039 3487.6196 6435609
2263.1685 893.10132 3467.0486 6501145
2259.2375 883.52997 3429.8921 6238486
2268.7925 879.35614 3413.6895 6238230
2303.7297 885.00714 3435.6265 6633245
2252.7722 857.85059 3330.2039 6040851
2289.99 864.45099 3355.8269 5975315
2317.9338 867.4671 3367.5356 6501145
2325.198 862.75854 3349.2568 6435609
2337.2786 859.90167 3338.1665 6764316
2338.6455 853.1842 3312.0891 6764572
2346.177 848.8089 3295.1038 6435352
2352.5554 844.09198 3276.7925 6106644
2378.5159 846.42078 3285.833 6238230
2360.2661 833.10681 3234.1479 6304022
2371.3044 830.2619 3223.1038 6435609
2362.95 820.72681 3186.0881 6830366
2380.1072 820.13354 3183.7852 6369559
2387.1001 816.07471 3168.0288 6171926
2376.0024 805.94305 3128.697 6041110
2398.6948 807.34094 3134.124 6238232
2411.2493 805.33154 3126.3232 5909524
2423.5317 803.26263 3118.2915 6041110
2426.9136 798.29724 3099.0159 6370075
2419.3813 789.84332 3066.1978 6040853
2437.5498 789.84332 3066.1978 6172696
2433.9915 782.85535 3039.0698 5909267
2456.1648 784.18524 3044.2327 5975317
2430.9927 770.48999 2991.0671 6501404
2422.3535 762.19507 2958.866 5909267
2437.8394 761.5556 2956.3838 5909524
2447.9431 759.25604 2947.4568 5646352
2450.4934 754.66296 2929.6262 6041111
2442.8438 747.01538 2899.938 5975061
2439.5432 740.79517 2875.791 5909268
2454.8469 740.27155 2873.7583 5843732
2451.605 734.20111 2850.1926 5186059
2439.0813 725.453 2816.2322 5580560
2455.7686 725.453 2816.2322 5514767
2444.2896 717.1886 2784.1497 5778195
2430.791 708.44641 2750.2122 5843732
2459.6321 712.07831 2764.3113 5909525
2483.6562 714.27686 2772.8459 6370076
2464.4275 704.08899 2733.2964 6107160
2472.7944 701.86694 2724.6702 5711891
2464.1819 694.88544 2697.5679 5843478
2477.9285 694.25854 2695.1343 4988172
2460.0452 684.83447 2658.5496 5843990
2461.5872 680.9035 2643.2896 5448976
2456.6025 675.22839 2621.2585 5515026
2443.5801 667.42908 2590.9814 6238749
2474.3225 671.60638 2607.1978 5120267
2501.5913 674.7948 2619.5754 5251854
0 0 0 0
0 0 0 0
0 0 0 0
0 0 0 0
0 0 0 0
-3838.7263 1117.0198 4238.8037 2560
-3849.6265 1127.5692 4278.8359 68352
-3829.1497 1129.0072 4284.293 68352
-3820.125 1133.8634 4302.7212 2816
-3809.5188 1138.3125 4319.604 2048
-3797.0146 1142.2507 4334.5488 1792
-3722.115 1127.3444 4277.9829 1792
-3690.9075 1125.5579 4271.2031 1280
-3654.9287 1122.2814 4258.77 1792
-3653.28 1129.5742 4286.4443 2560
-3616.0864 1125.9017 4272.5083 1792
-3591.2451 1126.0508 4273.0737 2304
-3580.7917 1130.7451 4290.8877 1792
-3496.1204 1111.9026 4219.3853 2560
-3446.2559 1103.9382 4189.1626 1280
-3413.1165 1101.2548 4178.9795 1280
-3444.0801 1119.3663 4247.708 1792
-3453.2234 1130.6003 4290.3384 1536
-3425.251 1129.7592 4287.1465 2048
-3379.8098 1123.1006 4261.8789 1792
-3351.5764 1122.1029 4258.0928 1536
-3323.7234 1121.2183 4254.7358 1792
-3292.9287 1119.3203 4247.5337 1280
-3296.6658 1129.2213 4285.1055 1280
-3416.2991 1179.2828 4475.0762 1792
-3355.489 1167.3523 4429.8027 1792
-3254.8809 1141.2792 4330.8618 68096
-3181.1252 1124.2817 4266.3608 1792
-3144.6011 1120.2759 4251.1597 133888
-3128.8105 1123.6515 4263.9692 2304
-3120.2954 1129.7162 4286.9829 1792
-3064.1626 1118.4987 4244.4155 1792
-2995.9585 1102.6527 4184.2842 463104
-2977.312 1104.9338 4192.9409 67840
-2953.1677 1105.1962 4193.936 133376
-2975.3862 1122.9609 4261.3486 1280
-2949.6958 1122.7933 4260.7129 1280
-2903.1833 1114.6285 4229.7295 1536
-2866.6592 1110.1899 4212.8862 1536
-2848.2776 1112.7611 4222.6431 1536
-2857.8594 1126.3994 4274.397 1536
-2844.3936 1131.1165 4292.2969 133376
-2774.3074 1113.1993 4224.3062 1792
-2775.6365 1123.8727 4264.8086 1792
-2771.7085 1132.5939 4297.9033 1280
-2766.9177 1141.1211 4330.2617 1280
-2728.489 1135.8052 4310.0894 1280
-2687.0886 1129.14 4284.7969 1280
-2675.6589 1135.0618 4307.2686 1280
-2647.8459 1134.0807 4303.5454 1280
-2598.5002 1123.7683 4264.4126 1280
-2602.9556 1136.7491 4313.6714 1280
-2578.7126 1137.3301 4315.876 1280
-2553.6477 1137.5565 4316.7354 1280
-2521.8274 1134.7478 4306.0771 1280
-2497.2134 1135.1575 4307.6318 1280
-2469.7712 1134.2767 4304.2896 1280
-2447.4915 1135.7733 4309.9683 1280
-2431.0679 1140.0476 4326.1885 1280
-2383.8032 1129.796 4287.2861 1280
-2353.9912 1127.6843 4279.2729 1280
-2331.8721 1129.2521 4285.2222 1536
-2304.324 1128.1964 4281.2158 1536
-2293.2544 1135.2747 4308.0762 1280
-2293.1389 1147.9963 4356.3516 1792
-2244.6455 1136.5128 4312.7749 1792
-2198.8638 1126.1534 4273.4639 1024
-2175.5601 1127.1992 4277.4321 1280
-2137.9219 1120.7551 4252.9785 1280
-2234.1365 1185.1633 4497.3911 1280
-2241.4478 1203.3959 4566.5791 1536
-2207.5571 1199.6832 4552.4902 67840
-2148.7363 1182.163 4486.0054 1536
-1993.9183 1110.7278 4214.9272 199424
-2059.1667 1161.6251 4408.0693 1536
-1968.4214 1124.6996 4267.9468 1280
-1921.884 1112.4012 4221.2773 1280
-1895.3417 1111.5043 4217.8735 1536
-1869.3196 1110.8923 4215.5518 1536
-1844.6273 1111.0649 4216.2065 1536
-1816.1891 1108.9551 4208.2002 1280
-1778.9309 1101.326 4179.25 1280
-1751.6458 1099.7429 4173.2427 1280
-1723.8467 1097.7874 4165.8213 1280
-1700.3547 1098.5575 4168.7441 1280
-1685.0197 1104.6981 4192.0464 1280
-1653.9679 1100.5646 4176.3604 1280
-1634.5294 1104.1504 4189.9673 1792
-1604.1946 1100.3723 4175.6309 1536
-1582.536 1102.5208 4183.7837 1536
-1557.0828 1102.0518 4182.0039 1280
-1533.135 1102.6504 4184.2754 1280
-1507.6017 1102.1095 4182.2231 1536
-1478.9718 1099.2491 4171.3687 1536
-1454.1895 1099.1997 4171.1812 67328
-1426.748 1097.104 4163.2285 1536
-1400.9182 1096.1956 4159.7808 1280
-1383.5092 1101.9615 4181.6616 1536
-1362.1643 1104.746 4192.2275 1280
-1341.5804 1108.2625 4205.5718 2304
-1311.1058 1103.5867 4187.8286 1536
-1290.8014 1107.4562 4202.5122 67840
-1270.3356 1111.3368 4217.2383 67840
-1243.4619 1109.6548 4210.8555 1024
-1207.8746 1099.9686 4174.0991 1792
-1191.1042 1107.3717 4202.1919 1536
-1166.8699 1108.0035 4204.5894 1280
-1140.9191 1106.9974 4200.7715 2304
-1113.4062 1104.3971 4190.9038 1536
-1089.1537 1104.9857 4193.1377 1536
-1066.8096 1107.5833 4202.9946 1280
-1036.9717 1102.3389 4183.0933 2048
-1013.8798 1104.1844 4190.0967 67840
-993.51819 1109.1708 4209.0186 1792
-971.74347 1112.7957 4222.7739 1280
-946.56421 1112.6104 4222.0708 1280
-926.79633 1118.9482 4246.1216 1792
-905.46967 1123.7056 4264.1743 67328
-879.51501 1122.8276 4260.8428 1280
-857.05481 1126.4907 4274.7432 1280
-837.80792 1134.729 4306.0059 1280
-818.61292 1143.5576 4339.5078 1024
-774.67731 1117.2765 4239.7778 1024
-763.49646 1138.0576 4318.6367 1280
-743.49487 1146.6759 4351.3413 1024
-724.15887 1156.9769 4390.4307 1536
-700.33301 1160.6047 4404.1978 1536
-674.67236 1161.3553 4407.0459 1536
-649.60962 1163.2369 4414.186 1536
-623.50848 1163.339 4414.5732 1536
-606.14191 1180.4606 4479.5449 1280
-582.33221 1186.0276 4500.6709 1024
-557.16254 1189.2263 4512.8091 132864
-525.93048 1179.1554 4474.5923 1907969
-513.43658 1212.2572 4600.2051 7493430
-475.79544 1186.3676 4501.9609 8476979
-442.96158 1170.1012 4440.2339 9528635
-417.50662 1172.5028 4449.3477 9857088
-388.34076 1164.1045 4417.478 9858113
-364.92862 1172.9861 4451.1816 9923393
-338.03845 1171.2014 4444.4092 10054465
-311.31186 1169.7296 4438.8242 10120258
-288.46979 1183.9291 4492.707 9988414
-262.48199 1186.7924 4503.5728 10120000
-235.22588 1183.9204 4492.6743 9987900
-209.45329 1188.735 4510.9443 10053693
-181.97403 1183.8551 4492.4263 10316608
-156.80287 1194.8914 4534.3062 10513988
-130.36702 1198.8615 4549.3721 10513990
-103.90922 1204.6472 4571.3271 10448196
-76.517555 1199.8689 4553.1948 10250817
-49.353249 1195.3931 4536.21 10251073
-22.380024 1190.3741 4517.1646 10251074
4.4023757 1194.8213 4534.0405 10316867
31.108469 1188.7104 4510.8516 10448452
57.968006 1191.4016 4521.0635 10119488
83.593216 1175.0409 4458.979 10251074
111.49443 1190.8481 4518.9634 10381633
137.29897 1182.4756 4487.1919 10381890
162.94576 1175.6818 4461.4106 10250047
191.75035 1190.3882 4517.2178 10053178
216.75179 1180.7738 4480.7339 10053178
243.00362 1179.326 4475.2397 9987129
268.72989 1175.8635 4462.1006 10118715
299.03525 1191.2628 4520.5371 10184253
326.66376 1194.3433 4532.2266 10315581
351.42581 1187.2715 4505.3911 10644548
379.59662 1191.9015 4522.9604 10513218
406.76086 1192.9688 4527.0103 10447683
432.52695 1190.0569 4515.9609 10645062
455.67596 1180.7035 4480.4668 10579267
488.47354 1196.0038 4538.5278 10513474
515.31104 1195.876 4538.0425 10710853
539.58539 1190.1074 4516.1528 10711108
566.80688 1191.0771 4519.8325 10579523
594.13715 1192.1777 4524.0088 10776645
624.28882 1198.6002 4548.3804 10579267
650.10175 1196.5055 4540.4316 10579523
676.96667 1196.4368 4540.1704 10645316
701.66321 1192.6873 4525.9424 10381889
729.00922 1193.5516 4529.2227 10381633
747.67456 1180.6472 4480.2534 10447683
773.97546 1180.2715 4478.8276 10513219
790.35571 1165.2937 4421.9907 10315841
827.69849 1181.1924 4482.3223 10579269
856.58246 1184.4064 4494.5186 10579269
880.74622 1181.0967 4481.959 10513220
905.74792 1179.0715 4474.2739 10711115
929.76233 1175.9128 4462.2876 10776907
948.68848 1166.6714 4427.2188 10513990
981.79126 1174.8923 4458.415 10447427
999.55255 1164.8046 4420.1348 10513477
1034.6233 1174.8881 4458.3989 10119231
1056.8319 1170.2271 4440.7119 10053438
1083.1057 1170.1849 4440.5518 10185025
1104.8037 1165.3181 4422.0835 10119235
1141.5166 1176.1472 4463.1772 10184771
1167.9323 1176.1165 4463.0605 10447943
1189.542 1171.3549 4444.9912 10316357
1222.9116 1178.1285 4470.6958 10184771
1239.1841 1168.4933 4434.1323 10316358
1272.0693 1174.5979 4457.2979 10250565
1297.2688 1173.5017 4453.1382 10250564
1321.5038 1171.5942 4445.8994 10185028
1353.1654 1176.2166 4463.4404 10185281
1368.7064 1166.918 4428.1543 9856316
1396.5056 1168.2235 4433.1084 9658937
1420.6353 1166.4677 4426.4458 9724730
1443.6971 1163.9148 4416.7583 9527351
1473.5221 1166.8081 4427.7378 9329972
1520.2614 1182.7595 4488.269 9856316
1517.4047 1160.2402 4402.8145 9132337
1537.775 1155.942 4386.5034 9329719
1560.9956 1153.8936 4378.73 9527097
1576.6313 1146.397 4350.2827 9592634
1605.3583 1148.5072 4358.2905 9198646
1638.3162 1153.5298 4377.3496 8409389
1671.1069 1158.2798 4395.375 9067579
1703.6447 1162.7114 4412.1919 9199165
1723.187 1158.274 4395.353 9068092
1749.5122 1158.4601 4396.0591 9134660
1794.8375 1171.0374 4443.7861 8214333
1756.7798 1129.6343 4286.6724 8084034
1794.5507 1137.4753 4316.4272 7951423
1791.0371 1119.2957 4247.4399 7884853
1797.4691 1107.7491 4203.624 7094306
1833.0913 1114.2618 4228.3379 7751721
1846.2 1107.0983 4201.1538 7422243
1861.4297 1101.3804 4179.4561 7290657
1887.698 1102.2582 4182.7871 7553570
1916.8937 1104.8004 4192.4346 7356190
1921.6078 1093.3481 4148.9761 7026971
1949.474 1095.192 4155.9727 7026971
1962.127 1088.5496 4130.7666 6895385
1988.7168 1089.7076 4135.1611 6763799
2006.5793 1086.1135 4121.5225 7027228
1996.52 1067.6743 4051.5503 6895385
1988.0853 1050.5316 3986.498 6895388
2009.6011 1049.432 3982.3252 7026973
2014.1602 1039.6056 3945.0366 6500630
2017.7424 1029.5063 3906.7126 6369300
2036.9819 1027.5343 3899.2292 6369300
2047.0867 1021.0502 3874.6238 6830365
2026.7745 999.70697 3793.6316 6172178
2056.5471 1003.2651 3807.1338 6369557
2080.8623 1004.1126 3810.3501 5909263
2117.5657 1010.8557 3835.938 6830365
2118.2217 1000.4305 3796.377 6961694
2090.3049 976.87122 3706.9758 6501143
2115.9573 978.57635 3713.4465 6304021
2131.3645 975.55719 3701.9895 6632216
2140.9558 969.96442 3680.7664 6435093
2137.9404 958.83069 3638.5166 6763545
2143.3093 951.64178 3611.2368 6368787
2170.3198 954.10919 3620.5999 6106128
2197.6384 956.66235 3630.2883 5909263
2195.3601 946.40692 3591.3716 6698781
2220.874 948.2146 3598.2312 6501401
2225.2178 941.03497 3570.9863 5909008
2221.8806 930.77301 3532.0449 6238230
2221.6755 922.00238 3498.7627 6303766
2220.8306 913.13086 3465.0974 6172436
2238.0881 911.79669 3460.0349 6106643
2238.5708 903.71497 3429.3665 6238230
2238.7612 895.66156 3398.8059 6567452
2243.4517 889.53601 3375.561 6106644
2237.2534 879.23944 3336.4883 6567452
2250.7263 876.78638 3327.1797 5843728
2271.5186 877.20245 3328.7583 6567452
2295.8677 878.97302 3335.4773 6369815
2310.9446 877.19397 3328.7261 6632987
2320.6057 873.40662 3314.354 6830110
2335.5671 871.66083 3307.7292 6172437
2330.0662 862.37103 3272.4768 6172180
2323.5869 852.87543 3236.4436 6435608
2321.1023 844.9895 3206.5186 6566938
2326.8069 840.18872 3188.3005 6369559
2331.561 835.12469 3169.0842 6172180
2339.9827 831.44482 3155.1199 5909008
2358.7043 831.4541 3155.155 5843215
2356.4497 824.12708 3127.3511 5974804
2349.5574 815.30524 3093.8745 6040597
2369.6123 815.89838 3096.125 5843474
2383.9573 814.53137 3090.9375 6304025
2386.4897 809.17999 3070.6306 6567454
2399.3999 807.40167 3063.8826 6238489
2427.313 810.66077 3076.2498 5448716
2424.7927 803.78302 3050.1506 6238232
2414.0874 794.31396 3014.2178 6172439
2399.1501 783.60156 2973.5671 6106903
2417.552 783.85529 2974.5298 5646352
2411.3269 776.1781 2945.3967 5843730
2410.4919 770.33386 2923.2195 5975060
2415.8274 766.53076 2908.7878 5712145
2418.0364 761.79669 2890.823 5843732
2418.3655 756.54102 2870.8792 5646096
2425.376 753.43439 2859.0903 5777938
2423.1516 747.52197 2836.6541 5777939
2410.2087 738.40723 2802.0659 6304540
2412.2498 733.97632 2785.252 5580817
2421.6167 731.81952 2777.0674 5449230
2429.321 729.19281 2767.0999 5515024
2435.4956 726.14526 2755.5349 5317646
2451.5415 726.06177 2755.2183 5251853
2459.1572 723.49927 2745.4941 5514767
2450.3662 716.17511 2717.7009 5580816
2432.8904 706.42487 2680.7014 5580817
2442.3047 704.55853 2673.6189 6106904
2435.7693 698.14459 2649.2795 5843477
2434.1819 693.22186 2630.5991 5712148
2397.4443 678.41522 2574.4119 5448976
2423.3335 681.40558 2585.7595 5712405
2389.6035 667.69965 2533.749 5975577
2441.9111 678.0553 2573.0459 5054218
2457.0823 678.03448 2572.967 5448976
0 0 0 0
0 0 0 0
0 0 0 0
0 0 0 0
0 0 0 0
0 0 0 0
-3745.7749 1121.8207 4163.4058 68352
-3858.6648 1163.2915 4317.3164 2560
-3751.0452 1138.394 4224.9146 1792
-3708.144 1132.9353 4204.6558 2048
-3719.6912 1144.1506 4246.2788 1536
-3739.1133 1157.9573 4297.5195 1536
-3617.7629 1128.0591 4186.5586 1536
-3538.6177 1110.9988 4123.2427 1536
-3553.6934 1123.489 4169.5977 1536
-3515.8381 1119.303 4154.062 1536
-3492.5046 1119.7137 4155.5864 1536
-3379.1624 1091.0681 4049.2742 1792
-3274.4172 1064.8085 3951.8171 1280
-3388.5642 1109.8647 4119.0342 1792
-3380.9954 1115.4197 4139.6504 2304
-3378.1619 1122.6298 4166.4087 2048
-3368.0942 1127.524 4184.5728 2304
-3352.7952 1130.7266 4196.4585 2560
-3282.9373 1115.4396 4139.7241 2304
-3314.4849 1134.6364 4210.9688 133376
-3236.4285 1116.3192 4142.9888 68352
-3231.927 1123.2869 4168.8477 2304
-3208.9094 1123.877 4171.0376 68096
-3188.342 1125.3408 4176.4702 134144
-3186.8411 1133.6099 4207.1592 199936
-3126.7571 1121.0062 4160.3833 199936
-3105.062 1122.0748 4164.3491 68352
-3092.8115 1126.6007 4181.146 199936
-3064.1189 1125.1621 4175.8071 134144
-3029.0122 1121.3257 4161.5688 134144
-2990.3079 1116.0835 4142.1138 67840
-2955.334 1112.1583 4127.5464 2048
-2945.8894 1117.8551 4148.689 2048
-2929.1079 1120.8402 4159.7676 1536
-2909.688 1122.8579 4167.2554 1280
-2894.3962 1126.5168 4180.835 1280
-2856.0718 1121.197 4161.0913 1536
-2793.9924 1106.3781 4106.0938 1536
-2769.6621 1106.3781 4106.0938 1536
-2740.6968 1104.51 4099.1611 1280
-2717.7354 1105.05 4101.165 1536
-2728.6531 1119.4993 4154.7905 1280
-2727.7151 1129.3033 4191.1768 1536
-2697.6079 1127.1003 4183.0005 1536
-2655.428 1119.7655 4155.7788 1536
-2641.6521 1124.3831 4172.916 1536
-2609.2773 1121.0968 4160.7197 1536
-2596.5244 1126.2589 4179.8779 1024
-2575.3 1127.8107 4185.6367 1792
-2540.8442 1123.5416 4169.793 67840
-2521.0918 1125.7543 4178.0049 1024
-2500.8801 1127.8038 4185.6113 2048
-2478.6992 1128.9974 4190.041 1280
-2458.6746 1131.2072 4198.2422 1280
-2437.7493 1133.0436 4205.0576 1536
-2420.2651 1136.5338 4218.0107 1536
-2369.7385 1124.4187 4173.0479 1792
-2343.6401 1123.7611 4170.6074 67840
-2327.1423 1127.7418 4185.3813 1280
-2306.8796 1129.9645 4193.6299 2048
-2282.6951 1130.2933 4194.8506 1024
-2269.5505 1136.1564 4216.6099 1280
-2245.7012 1136.7312 4218.7437 1024
-2197.239 1124.7203 4174.1675 2048
-2185.3972 1131.3944 4198.937 2048
-2175.0598 1139.0101 4227.2012 1536
-2151.6775 1139.8926 4230.4761 1280
-2193.8611 1175.9399 4364.2583 1280
-2185.7395 1185.5613 4399.9663 1280
-2164.2568 1188.0804 4409.3154 1536
-2098.1538 1165.8672 4326.8755 1280
-1968.9114 1107.5861 4110.5771 1792
-1942.1028 1106.1896 4105.3945 1280
-1918.031 1106.3363 4105.939 1280
-1908.5712 1115.0233 4138.1792 1536
-1877.2261 1110.9844 4123.1895 1536
-1868.7152 1120.5309 4158.6191 1536
-1817.0728 1104.1239 4097.7285 1536
-1781.9443 1097.4431 4072.9341 1536
-1756.931 1096.894 4070.896 1536
-1728.8846 1094.4097 4061.6758 1536
-1697.5242 1089.7278 4044.2998 1280
-1673.9528 1089.9834 4045.2488 1280
-1648.5016 1089.0048 4041.6165 1280
-1626.8629 1090.553 4047.3623 1280
-1615.5767 1099.1909 4079.4202 1280
-1585.3849 1095.0332 4063.9897 1280
-1570.1104 1101.2095 4086.9119 1536
-1538.3718 1095.8513 4067.0259 1536
-1520.0175 1100.0083 4082.4541 1536
-1489.6709 1095.4811 4065.6521 1536
-1465.0381 1095.0757 4064.1477 1280
-1436.1714 1091.4393 4050.6519 1536
-1411.6394 1091.0295 4049.1313 1280
-1385.4399 1089.2946 4042.6921 1280
-1363.9246 1091.2461 4049.9348 1280
-1347.1399 1097.1202 4071.7354 2304
-1313.9142 1089.5748 4043.7319 1280
-1283.7498 1084.3347 4024.2847 67840
-1263.4513 1087.3876 4035.6147 132864
-1228.5522 1077.7498 3999.8457 264192
-1223.1774 1094.1422 4060.6833 197888
-1199.0634 1094.094 4060.5042 592640
-1172.4099 1091.6793 4051.5427 724226
-1153.356 1096.3877 4069.0168 987396
-1130.5203 1097.6255 4073.6106 1184775
-1114.4698 1105.6488 4103.3877 461056
-1086.8347 1102.2806 4090.8875 1024
-1048.8627 1088.0359 4038.021 1024
-1035.0342 1098.756 4077.8064 1280
-1015.0885 1103.3397 4094.8176 1280
-987.36096 1099.4822 4080.5012 1280
-959.20801 1094.9454 4063.6641 1280
-944.64569 1106.0884 4105.0186 1280
-922.19879 1108.3441 4113.3906 1280
-900.80975 1112.0283 4127.064 1280
-885.79779 1124.0104 4171.5327 1280
-863.44849 1127.1023 4183.0078 1280
-866.6308 1164.6898 4322.5059 768
-814.35486 1127.7648 4185.4663 987397
-790.08905 1128.5287 4188.3013 3620389
-759.80084 1120.4608 4158.3594 1118987
-722.34662 1100.9307 4085.877 1024
-719.80524 1135.1019 4212.6963 1280
-706.79895 1154.6326 4285.1807 1536
-681.32349 1154.4902 4284.6523 1536
-655.13202 1153.0765 4279.4058 1536
-627.97107 1149.774 4267.1494 1280
-611.50519 1166.5979 4329.5874 1024
-596.3847 1187.5742 4407.4365 66048
-562.57513 1171.5521 4347.9741 985600
-547.2514 1194.3362 4432.5322 4797463
-523.90009 1201.0145 4457.3179 6439712
-497.36807 1200.7234 4456.2373 7951147
-466.60898 1189.6226 4415.0391 9528640
-434.89597 1174.6266 4359.3843 9659710
-408.55338 1173.158 4353.9336 9659963
-381.2164 1168.4434 4336.4365 9527609
-357.07031 1173.5343 4355.3306 9462070
-330.10657 1169.4368 4340.1235 9856828
-302.63196 1162.6842 4315.0625 9857085
-278.73508 1169.6989 4341.0962 9856828
-253.2709 1170.8942 4345.5322 10185537
-228.20622 1174.416 4358.603 10251330
-203.07751 1178.4652 4373.6304 10251330
-179.41316 1193.4398 4429.2056 10185794
-152.75598 1190.2268 4417.2812 10317380
-127.90282 1202.6479 4463.3799 10448453
-100.77592 1194.5922 4433.4824 10777417
-73.863403 1184.293 4395.2593 10382403
-47.933891 1187.1204 4405.7524 10448453
-21.861834 1188.9583 4412.5732 10580039
4.2573261 1181.4352 4384.6528 10777418
30.404408 1187.9308 4408.7603 10185025
55.815166 1172.949 4353.1582 10119231
82.145592 1180.6559 4381.7607 10316610
107.43174 1173.2565 4354.2993 10645832
133.32668 1174.0839 4357.3701 10513476
158.36339 1168.3114 4335.9468 9987131
186.29401 1182.5198 4388.6782 10316351
209.86815 1168.9814 4338.4336 10250301
238.28389 1182.4232 4388.3198 10052923
264.28644 1182.4232 4388.3198 10250047
291.08798 1185.6776 4400.3979 10118718
314.19989 1174.6036 4359.2993 10579268
340.96887 1177.8452 4371.3296 10447426
367.49533 1179.8505 4378.7715 10579269
394.00443 1181.5392 4385.0391 10710598
420.25143 1182.2815 4387.7939 10908233
446.14627 1182.0043 4386.7651 10315840
471.91351 1181.4384 4384.6646 10447682
497.43115 1180.3391 4380.585 10447426
525.13678 1184.2832 4395.2227 10447682
551.45032 1184.8635 4397.3765 10447426
578.63947 1187.1879 4406.0029 10710598
605.42688 1188.5229 4410.958 10579012
629.94763 1185.4819 4399.6719 10447426
655.68604 1184.8829 4397.4487 10579269
677.80872 1178.0458 4372.0737 10579269
704.74561 1179.771 4378.4766 10579268
731.75995 1181.4988 4384.8892 10579269
753.48431 1174.8597 4360.2495 10579013
778.97113 1174.333 4358.2949 10315841
806.84076 1177.317 4369.3691 10316098
827.59369 1170.0538 4342.4136 10447685
850.62683 1166.3553 4328.687 10513222
877.88055 1168.4908 4336.6128 10447429
909.36816 1175.9803 4364.4082 10513479
929.10242 1168.2765 4335.8174 10579013
951.02124 1163.6603 4318.6851 10118719
970.0575 1155.8514 4289.7041 10513220
996.77069 1157.3551 4295.2847 10119489
1024.6188 1160.0686 4305.3555 10711115
1051.9479 1162.0773 4312.8101 10514247
1068.401 1152.2607 4276.3779 10185028
1101.2089 1160.1289 4305.5791 10250564
1119.501 1152.6946 4277.9883 10250564
1170.5786 1178.5999 4374.1304 10184771
1184.5975 1166.8782 4330.6279 10250821
1209.7655 1166.4032 4328.8647 10513736
1228.5424 1159.9137 4304.7803 10053185
1265.4237 1170.4338 4343.8237 9855806
1287.4473 1167.0659 4331.3242 10053441
1304.0182 1158.9834 4301.3276 10250820
1349.0254 1175.9998 4364.4805 9856061
1355.9905 1159.837 4304.4961 9921854
1378.8934 1157.6517 4296.3857 9921854
1399.2953 1153.484 4280.918 9658681
1429.5648 1157.4541 4295.6519 9329716
1471.7534 1170.7667 4345.0591 9461559
1492.7277 1167.0359 4331.2129 9592888
1504.754 1156.5538 4292.311 9461305
1525.5066 1153.0157 4279.1802 9724989
1545.8894 1149.3185 4265.4585 9659196
1567.3595 1146.5355 4255.1299 9658940
1591.0405 1145.4323 4251.0356 9659198
1610.2026 1141.161 4235.1836 9329976
1640.4982 1144.79 4248.6519 9066804
1681.486 1155.658 4288.9858 8474667
1668.4409 1129.619 4192.3481 7750947
1695.6505 1131.1991 4198.2119 7948839
1722.21 1132.3058 4202.3193 8212012
1735.1094 1124.528 4173.4536 8870199
1766.884 1129.0298 4190.1611 8277805
1764.0796 1111.6173 4125.5381 8343341
1811.3082 1125.7776 4178.0913 7948327
1818.5328 1115.0277 4138.1953 8014120
1828.2283 1106.0587 4104.9087 7355935
1857.3438 1108.92 4115.5278 7224348
1886.074 1111.48 4125.0288 7290142
1879.4832 1093.4258 4058.0242 6895384
1899.6216 1091.1815 4049.6951 7224607
1912.338 1084.7831 4025.9485 6895642
1927.6672 1080.0061 4008.22 7158814
1951.3179 1079.951 4008.0154 7224350
1912.3097 1045.6359 3880.6616 6763799
1959.6516 1058.7905 3929.4829 6895131
1967.6591 1050.6338 3899.2107 6764572
1988.009 1049.1802 3893.8157 6698779
1998.3015 1042.5128 3869.0713 7224866
1993.5701 1028.2477 3816.1294 6698779
2021.3749 1030.896 3825.9578 5909263
2031.7062 1024.673 3802.8623 6435607
2042.1543 1018.6447 3780.4895 6764315
2059.928 1016.3616 3772.0161 6698779
2076.1885 1013.3889 3760.9841 7422501
2098.3657 1013.3366 3760.79 6764571
2114.2021 1010.2558 3749.356 6566936
2092.8586 989.65741 3672.9094 6501143
2097.2219 981.51398 3642.6868 6501143
2116.4548 980.42474 3638.644 7159073
2118.0879 971.28674 3604.7302 7027744
2130.6006 967.27026 3589.824 6501400
2149.2498 966.09174 3585.4502 6764571
2159.8225 961.34143 3567.8203 5843470
2176.9819 959.58649 3561.3071 6698780
2177.8772 950.76501 3528.5684 6567194
2171.1965 938.83545 3484.2942 6567194
2193.7695 939.66095 3487.3577 6238230
2196.3049 931.96826 3458.8081 6435608
2200.4922 925.11249 3433.364 6501145
2206.2141 919.02142 3410.7585 5843472
2210.405 912.409 3386.2178 6172180
2211.8257 904.78235 3357.9131 6896417
2223.741 901.54651 3345.9038 6369816
2235.439 898.2804 3333.7825 6172694
2245.0767 894.25098 3318.8279 7949105
2290.3997 904.38202 3356.4272 6370073
2268.6685 888.08972 3295.9619 6698781
2292.2922 889.67877 3301.8591 6237973
2296.0552 883.59753 3279.29 6632731
2280.833 870.37372 3230.2126 6501402
2289.7993 866.52362 3215.9236 6698524
2293.1785 860.64026 3194.0886 6632988
2299.5422 855.96399 3176.7339 6698780
2305.0071 851.03192 3158.4294 6106387
2305.5891 844.39099 3133.783 6106643
2317.8643 842.10425 3125.2964 6369559
2314.8108 834.32916 3096.4404 6238230
2321.366 830.11218 3080.7903 6106389
2335.8035 828.75775 3075.7634 6304025
2354.0288 828.75775 3075.7634 5712145
2364.2275 825.95374 3065.3569 6370074
2364.2673 819.67041 3042.0376 5712145
2390.7942 822.59552 3052.8936 6369818
2388.0938 815.49609 3026.5454 5777681
2388.7385 809.63623 3004.7979 5975060
2387.2827 803.15643 2980.7495 6369818
2389.0605 797.85168 2961.062 6238488
2420.8586 802.57678 2978.5981 6435867
2412.3457 793.96613 2946.6414 5975060
2403.7385 785.44836 2915.0295 5777681
2386.8296 774.35876 2873.8728 5580302
2397.4292 772.28772 2866.1865 5646353
2390.3684 764.59686 2837.6436 6041111
2393.9692 760.3999 2822.0674 5646097
2393.4841 754.97229 2801.9241 5909527
2392.2808 749.39453 2781.2231 5185548
2389.8057 743.49738 2759.3372 4791047
2384.6306 736.84619 2734.6526 5186061
2400.3379 736.69373 2734.0869 5251854
2404.1287 732.91052 2720.0461 5317646
2423.0576 733.7619 2723.2061 5515025
2416.2131 726.84894 2697.5498 5186061
2438.8223 728.82867 2704.8975 4396289
2430.8689 721.70898 2678.4739 6238490
2439.3542 719.53046 2670.3889 6172697
2391.2019 700.78137 2600.8054 7883314
2396.0471 697.70471 2589.3872 7291178
2393.7148 692.59064 2570.4072 5383439
2393.6077 688.18085 2554.0413 5975575
2382.3784 680.64893 2526.0881 6041370
2424.2422 688.2851 2554.428 6041113
2453.0862 692.15283 2568.7825 4725509
0 0 0 0
0 0 0 0
0 0 0 0
0 0 0 0
0 0 0 0
0 0 0 0
-3701.0706 1132.8075 4113.7173 2048
-3708.0237 1142.46 4148.7695 2304
-3608.0466 1119.0758 4063.8513 2048
-3618.6223 1129.8967 4103.147 2048
-3594.4971 1129.9558 4103.3613 2048
-3499.3711 1107.5439 4021.9739 2048
-3384.3958 1078.4994 3916.5005 1536
-3477.5537 1115.8372 4052.0906 2304
-3420.865 1105.2788 4013.7483 1280
-3396.4316 1105.0673 4012.98 1536
-3342.1567 1095.075 3976.6938 1792
-3338.6313 1101.687 4000.7051 1536
-3355.8523 1115.2888 4050.0989 1536
-3275.2205 1096.3315 3981.2571 1536
-3276.7229 1104.792 4011.9807 2304
-3249.9421 1103.7704 4008.2708 2048
-3270.187 1118.8225 4062.9312 134144
-3291.3169 1134.4027 4119.5103 2560
-3201.2263 1111.5958 4036.688 199680
-3156.9836 1104.4855 4010.8674 331520
-3135.8413 1105.4104 4014.2263 463104
-3095.1809 1099.4165 3992.4597 397312
-3110.4333 1113.3438 4043.0354 528896
-3037.9805 1095.8502 3979.509 528896
-3054.408 1110.3947 4032.3259 594688
-2988.1221 1094.8616 3975.9192 331520
-2973.0303 1097.9886 3987.2747 463104
-2966.4292 1104.3267 4010.2908 594688
-2952.2451 1107.9213 4023.3445 660480
-2912.1008 1101.7529 4000.9441 397312
-2882.9678 1099.6831 3993.4282 199168
-2850.5525 1096.317 3981.2039 1536
-2903.9294 1126.1654 4089.5967 1280
-2882.4192 1127.23 4093.4626 1280
-2857.7151 1127.0531 4092.8201 1280
-2819.4185 1121.4664 4072.5325 1280
-2757.438 1106.2814 4017.3892 1280
-2743.7456 1110.3738 4032.2505 1280
-2693.8469 1099.7568 3993.6956 1280
-2694.7192 1109.8627 4030.3943 1280
-2677.519 1112.6392 4040.4768 1280
-2663.0774 1116.6224 4054.9419 1280
-2628.6553 1112.224 4038.9695 1280
-2628.8059 1122.5077 4076.314 1536
-2577.0486 1110.6116 4033.114 1536
-2568.5156 1117.2953 4057.3855 1280
-2560.6501 1124.3983 4083.1794 1792
-2520.9062 1117.5054 4058.1482 1280
-2479.0759 1109.5458 4029.2437 1280
-2469.2283 1115.885 4052.2639 2048
-2445.908 1116.2003 4053.4089 2048
-2444.0518 1126.4142 4090.5002 1792
-2421.571 1127.2321 4093.4705 67840
-2408.5381 1132.509 4112.6333 199424
-2403.8711 1141.8678 4146.6187 2048
-2349.0918 1127.37 4093.9709 2048
-2309.4402 1119.9054 4066.8638 1792
-2279.6912 1117.1361 4056.8074 1280
-2265.9836 1122.2524 4075.3872 1536
-2226.2495 1114.4503 4047.054 1536
-2203.3364 1114.9904 4049.0151 1024
-2175.8196 1113.187 4042.4663 1280
-2165.3103 1120.1417 4067.7222 67584
-2147.9595 1123.674 4080.5493 133632
-2151.418 1138.2968 4133.6509 1280
-2118.563 1133.8218 4117.4004 1280
-2151.6499 1164.9448 4230.4219 67840
-2152.5427 1179.1655 4282.0635 199168
-2094.0237 1160.7915 4215.3394 1792
-1965.761 1102.8458 4004.9131 1792
-1924.3058 1092.7804 3968.3611 2048
-1905.0072 1095.2039 3977.1619 1280
-1895.5532 1103.4188 4006.9939 1280
-1882.0425 1109.4507 4028.8984 1280
-1861.4929 1111.4349 4036.1038 1280
-1821.373 1101.634 4000.5125 1792
-1775.4836 1088.0388 3951.1423 1536
-1756.1619 1090.5789 3960.3665 1280
-1735.7897 1092.5267 3967.4399 1280
-1705.0099 1087.8873 3950.5923 1280
-1684.9813 1090.0742 3958.5337 1536
-1664.8955 1092.2852 3966.5625 1536
-1635.8258 1088.5811 3953.1116 1280
-1609.6755 1086.7404 3946.427 1280
-1589.1176 1088.6764 3953.4578 1280
-1570.9418 1092.3269 3966.7144 1280
-1547.7297 1092.5333 3967.4641 1280
-1524.4806 1092.7194 3968.1399 1536
-1500.8771 1092.6534 3967.9004 1280
-1479.0422 1093.8934 3972.4033 1536
-1451.8687 1091.1611 3962.481 1280
-1421.702 1086.0527 3943.9299 1280
-1385.8157 1076.3309 3908.6262 1280
-1371.464 1083.2886 3933.8923 1280
-1346.6823 1082.106 3929.5977 1280
-1315.1353 1075.35 3905.0635 857090
-1243.0442 1034.6063 3757.1057 3554853
-1220.7151 1034.5498 3756.9006 3357472
-1199.2935 1035.2744 3759.532 3160345
-1182.4585 1040.0609 3776.9138 3293469
-1158.9536 1039.0522 3773.2507 3097114
-1150.5197 1051.7811 3819.4753 3230239
-1131.1432 1054.817 3830.4995 3165472
-1104.2435 1050.818 3815.9775 3231264
-1079.5099 1048.756 3808.4893 3692330
-1047.061 1038.9504 3772.8813 4085807
-1022.1591 1036.369 3763.5068 3820325
-969.56622 1004.9703 3649.4846 3950120
-986.21698 1045.5483 3796.8411 2699799
-980.74689 1064.022 3863.9268 461312
-991.09656 1100.9518 3998.0352 1536
-969.55908 1103.4015 4006.9309 1280
-946.66791 1104.3948 4010.5381 1280
-926.28552 1108.4415 4025.2336 1280
-905.16602 1111.7968 4037.4177 1536
-884.08984 1115.3887 4050.4617 1536
-864.24323 1120.7759 4070.0247 1280
-840.8009 1121.6752 4073.2908 1024
-823.80304 1131.4791 4108.8931 512
-801.85864 1134.8793 4121.2407 3158816
-771.27954 1125.8885 4088.5911 131840
-744.94989 1122.7188 4077.0806 768
-727.28723 1132.8365 4113.8228 768
-711.60327 1146.8452 4164.6938 1280
-690.03772 1152.0406 4183.561 1280
-668.84741 1158.2732 4206.1938 1280
-642.39722 1155.5269 4196.2207 1280
-628.11627 1175.3302 4268.1357 768
-601.85376 1173.4349 4261.2529 722689
-572.6604 1165.4092 4232.1079 2825220
-554.25476 1179.6075 4283.6685 4467214
-521.67773 1163.5607 4225.395 6175515
-514.85876 1206.2434 4380.395 6568728
-488.58978 1205.4702 4377.5869 8081193
-459.18463 1196.4388 4344.79 8607022
-428.60046 1183.0801 4296.2783 9790524
-400.22324 1174.5107 4265.1597 9856573
-374.5188 1173.1586 4260.2495 9527608
-345.41922 1160.2073 4213.2178 9659194
-325.61804 1178.903 4281.1099 10053695
-296.34344 1163.5615 4225.3979 9856315
-272.20721 1167.4253 4239.4292 10053695
-247.7543 1170.5786 4250.8804 10119487
-224.77988 1182.2218 4293.1616 10120000
-198.79436 1178.9788 4281.3853 10053952
-172.08347 1169.856 4248.2559 10185538
-147.15236 1171.7791 4255.2397 10119746
-122.22765 1174.5591 4265.335 10513990
-97.46521 1180.7543 4287.8325 10316611
-72.615326 1189.8855 4320.9922 10053696
