# .PCD v0.7 - Point Cloud Data file format
VERSION 0.7
FIELDS x y z rgb
SIZE 4 4 4 4
TYPE F F F U
COUNT 1 1 1 1
WIDTH 1274
HEIGHT 1
VIEWPOINT 0 0 0 1 0 0 0
POINTS 1274
DATA ascii
273.81564 1029.0729 3510.4036 5844758
292.98959 1023.3913 3491.0227 6041880
313.11029 1021.5479 3484.7344 6239259
332.03488 1016.2715 3466.7356 5581585
350.48395 1010.2395 3446.1589 5647122
369.15741 1005.4827 3429.9324 6042137
387.19995 999.59357 3409.8433 6041880
405.60666 995.18219 3394.7949 5976343
426.61877 997.27814 3401.9446 5450000
440.63889 983.57751 3355.2087 5778965
461.94705 986.62573 3365.6069 6436895
480.1734 983.112 3353.6206 5976088
499.07263 981.20032 3347.0996 5449231
515.07037 973.94836 3322.3616 5778452
532.78052 970.34924 3310.084 5647123
551.15906 968.17969 3302.6831 5186828
571.11896 968.84149 3304.9409 4857865
576.0957 944.88489 3223.2195 5449745
595.77472 945.80591 3226.3613 6173726
615.50726 946.75195 3229.5884 5383954
631.35364 941.84369 3212.845 5515796
652.95734 945.55994 3225.5222 5252624
668.94641 941.16541 3210.5315 5976088
679.36945 929.39954 3170.3953 5647380
693.78998 923.58826 3150.5715 6239260
714.27026 925.93707 3158.584 5252623
722.16492 912.26733 3111.9534 5054988
748.30408 921.75159 3144.3062 4726279
763.88013 918.07959 3131.7803 5318417
784.97961 921.06274 3141.9565 5515284
786.89349 901.91766 3076.6484 4989198
797.26508 893.11414 3046.6172 5581334
812.38147 889.89783 3035.6458 5252370
832.85498 892.56232 3044.7349 5384469
849.01025 890.5838 3037.9858 4726280
868.34937 891.95813 3042.6738 4923916
865.24371 870.69025 2970.1245 5845272
881.50739 869.37317 2965.6313 5516306
885.04706 855.80389 2919.3438 5910808
908.33472 861.48431 2938.7209 5976088
932.36108 867.63861 2959.7146 5778710
919.25153 839.64551 2864.2236 4989195
946.89734 849.21857 2896.8794 5449744
965.047 850.08582 2899.8379 6107930
973.94177 842.9129 2875.3694 4989452
992.89221 844.53979 2880.9192 5121038
1003.2308 838.91028 2861.7158 5384211
1014.5564 834.27991 2845.9202 5121041
1027.7915 831.34503 2835.9089 4463369
1039.6046 827.37317 2822.3599 4726796
1039.6597 814.3175 2777.824 5187861
1068.6108 823.94904 2810.6794 5516826
1076.2988 817.1416 2787.4575 5253654
1087.0402 812.82306 2772.7261 5582876
1086.4155 800.26074 2729.8733 5188118
1107.2484 803.64111 2741.4043 4858897
1109.3756 793.54327 2706.9585 5253912
1122.9199 791.78363 2700.9558 5977378
1133.0046 787.66833 2686.9177 4595727
1154.5203 791.50385 2700.0015 3806470
1161.2357 785.22662 2678.5884 5780257
1185.5795 790.87817 2697.8669 3413000
1183.658 779.09131 2657.6594 5056020
1181.9214 767.73413 2618.9175 4859154
1210.0406 775.81329 2646.4773 4200711
1217.8325 770.81964 2629.4429 4661774
1235.3368 772.02197 2633.5442 4727311
1260.0411 777.63776 2652.7009 4332296
1251.1501 762.63721 2601.5305 4727311
1276.3051 768.50183 2621.5361 4003845
1273.8784 757.8175 2585.0894 4924690
1291.6707 759.27203 2590.0513 4464139
1293.7471 751.56287 2563.7534 5582620
1307.4746 750.72229 2560.8862 4135174
1305.6965 741.10034 2528.0635 4266759
1326.0153 744.09631 2538.2834 3806212
1329.5354 737.70422 2516.4785 4595210
1335.6722 732.88971 2500.0552 6042396
1349.3469 732.27148 2497.9463 5055245
1373.7163 737.40765 2515.4668 5713432
1392.3652 739.39575 2522.2485 4200199
1408.7494 740.15167 2524.8274 4858636
1415.0259 735.63696 2509.4268 5714202
1436.5096 739.03992 2521.0349 5451286
1447.7976 737.18134 2514.6948 5386007
1469.5531 740.63617 2526.48 6241058
1455.2992 726.05597 2476.7437 5846303
1470.8868 726.50647 2478.2803 6175782
1485.5747 726.50787 2478.2852 5123100
1497.9968 725.41217 2474.5474 8413513
1496.2601 717.54773 2447.72 7229239
1516.3706 720.21069 2456.804 7360825
1540.1605 724.55389 2471.6196 7097909
1539.5466 717.44299 2447.3628 7558718
1562.4399 721.31708 2460.5781 8085062
1576.2346 720.95789 2459.353 8216906
1584.7142 718.19653 2449.9333 8414285
1594.7474 716.18298 2443.0647 8085319
1625.7917 723.55664 2468.2178 9795424
1634.7317 721.04895 2459.6636 9663836
1636.1134 715.28131 2439.9888 7755838
1641.8986 711.52295 2427.1682 6505258
1668.1289 716.61292 2444.5312 7557946
1676.6669 714.08014 2435.8914 7492152
1702.1055 718.72717 2451.7434 7228981
1707.3342 714.83392 2438.4626 7557945
1714.0308 711.6153 2427.4832 7952703
1756.1222 723.02301 2466.3975 6636846
1772.5463 723.7619 2468.918 7360312
1787.4135 723.85822 2469.2466 6505003
1803.3558 724.38489 2471.0432 7886912
1801.8674 717.9577 2449.1187 8084293
1840.9966 727.68811 2482.3113 7886659
1860.7861 729.68048 2489.1077 7031606
1874.6182 729.32379 2487.8909 7755329
1866.4967 720.49817 2457.7847 7031348
1875.7537 718.46564 2450.8513 7360312
1926.7059 732.31219 2498.085 6964784
1929.7623 727.88184 2482.9722 7754300
1950.8041 730.25104 2491.054 8346693
1989.4215 739.11444 2521.2891 7820350
1998.1093 736.80902 2513.4248 7754811
2009.7587 735.62177 2509.3748 7886397
2057.3618 747.51526 2549.9463 7952189
2081.322 750.70764 2560.8362 8017983
2097.5105 751.07086 2562.0752 8280642
2126.3992 755.94391 2578.6982 8149569
2145.7517 757.38141 2583.6018 8149311
2185.4722 765.93689 2612.7866 7886396
2209.3787 768.86865 2622.7876 7952189
2257.5125 780.13177 2661.2087 7425846
2302.8987 790.29578 2695.8804 7294003
2311.4309 787.75946 2687.2285 8083775
2372.135 802.91699 2738.9343 7886144
2375.2925 798.52246 2723.9436 7820350
2415.6653 806.61401 2751.5454 8478280
2434.4258 807.42871 2754.3247 8215108
2446.0745 805.88953 2749.0742 8609611
2481.5547 812.17035 2770.4995 8018758
2548.4753 828.59082 2826.5137 7295035
2584.7722 834.90527 2848.0537 7294777
2638.7407 846.80884 2888.6594 7622972
2721.7134 867.80682 2960.2883 6570030
2756.6313 873.31195 2979.0676 5057046
2770.0542 871.98059 2974.5261 3347208
2718.873 850.45807 2901.1079 4070409
2687.061 835.22656 2849.1497 3676424
2706.146 835.90698 2851.4707 9465686
2714.9695 833.42896 2843.0173 10057310
0 0 0 0
0 0 0 0
0 0 0 0
0 0 0 0
0 0 0 0
-4194.3618 1385.1663 4631.5039 3097352
-4107.0469 1365.2639 4564.9575 3097349
-4035.6448 1350.4222 4515.3325 2900227
-3970.9675 1337.6479 4472.6196 2900227
-3995.7412 1355.0366 4530.7612 2965764
-3900.1033 1331.5503 4452.2314 3097352
-3948.6431 1357.3036 4538.3413 2702338
-3942.0786 1364.3387 4561.8643 2439424
-3979.9041 1386.9402 4637.4355 2570241
-3963.1631 1390.7081 4650.0342 2636290
-3931.6492 1389.3086 4645.3545 2438912
-3900.7466 1388.1069 4641.3364 2176000
-3906.562 1400.0472 4681.2607 2044160
-3884.7366 1402.1815 4688.397 1912576
-3821.1936 1389.1802 4644.9253 1978112
-3734.1589 1367.3881 4572.0601 1847040
-3728.4062 1375.259 4598.3779 1978624
-3704.4666 1376.4882 4602.4873 1912832
-3698.3062 1384.3905 4628.9102 2899209
-3616.9084 1364.0371 4560.856 2766853
-3635.4797 1381.3622 4618.7847 2766593
-3663.7158 1402.6503 4689.9644 2701058
-3637.9265 1403.422 4692.5449 2832133
-3619.3198 1406.9978 4704.501 3226119
-3674.2175 1439.4257 4812.9282 2632192
-3637.5432 1436.2054 4802.1611 6375708
0 0 0 0
0 0 0 0
-2753.1692 1113.1525 3721.9866 9399336
-2734.7271 1114.6248 3726.9092 9531432
-2761.5857 1134.7351 3794.1509 9596711
-2742.9675 1136.3357 3799.5027 9531175
-2727.4031 1139.2383 3809.2083 9596709
-2709.7322 1141.3021 3816.1091 9596965
-2692.5405 1143.6044 3823.8069 9465379
-2678.3054 1147.212 3835.8694 9465379
-2659.5012 1148.9076 3841.5388 9268000
-2648.177 1153.8916 3858.2036 9202207
-2631.5479 1156.6309 3867.3628 9136417
-2628.7878 1165.5676 3897.2441 9465125
-2614.6853 1169.5891 3910.6904 9465125
-2611.6953 1178.6978 3941.1465 9399845
-2586.584 1177.897 3938.469 9464611
-2575.0676 1183.3289 3956.6316 9793320
-2561.8196 1188.0575 3972.4426 9727783
-2542.1074 1189.8484 3978.4307 9925162
-2535.6624 1197.9408 4005.4883 9859369
-2516.1982 1199.9771 4012.2971 9859369
-2506.3081 1206.6617 4034.6484 9859369
-2492.3928 1211.5184 4050.8875 9925162
-2471.1812 1212.8885 4055.4685 9925162
-2455.2688 1216.9121 4068.9219 9925162
-2428.5093 1215.5858 4064.4873 9990955
-2422.8069 1224.8788 4095.5596 9990955
-2403.9634 1227.6488 4104.8218 10122541
-2344.3789 1209.4574 4043.9961 10319664
-2361.2346 1230.7328 4115.1333 10385713
-2310.1157 1216.6523 4068.0535 10451251
-2327.8699 1238.9304 4142.5435 10319412
-2298.5369 1236.3558 4133.9346 10319672
-2283.9648 1241.7507 4151.9736 10122293
-2270.783 1248.0272 4172.96 9990196
-2269.4226 1261.0107 4216.3721 10253124
-2365.7393 1329.1619 4444.2451 10318665
-2447.4866 1390.5696 4649.5708 10252875
-2471.9551 1420.4613 4749.5181 10515538
-2474.7749 1438.4584 4809.6938 10450002
-2473.1018 1454.2328 4862.438 10318416
-2472.937 1471.2762 4919.4253 10384208
-2460.9172 1481.5892 4953.9082 10252366
-2448.4729 1491.8926 4988.3589 10449745
-2417.9885 1491.3212 4986.4482 10055243
-2373.8867 1482.2332 4956.061 10252622
-2357.8467 1490.6584 4984.2324 10318159
-2317.1323 1483.5001 4960.2974 10121036
-2286.0486 1482.403 4956.6289 9923400
-2250.1238 1478.0972 4942.2319 10186828
-2233.5393 1486.5498 4970.4946 10252622
-2200.0186 1483.8058 4961.3198 10318414
-2159.5088 1476.2098 4935.9214 10449744
-2135.6804 1479.9651 4948.4775 9792071
-2080.373 1461.707 4887.4292 9923657
-2044.4961 1456.7784 4870.9497 10054984
-2020.5707 1460.3464 4882.8799 9660226
-1993.5649 1461.7596 4887.605 9725506
-1947.141 1448.7665 4844.1606 9857092
-1936.9641 1462.7574 4890.9414 9594177
-1902.9105 1458.8683 4877.9375 9594434
-1871.0122 1456.5372 4870.1431 9528383
-1836.6105 1452.1534 4855.4854 9594176
-1822.4301 1463.8732 4894.6719 9265467
-1787.5131 1459.0459 4878.5312 9923142
-1748.369 1450.5527 4850.1333 9659971
-1712.6591 1444.6726 4830.4722 9857606
-1683.4347 1444.1564 4828.7461 9857608
-1657.3037 1446.3218 4835.9863 9989193
-1624.0455 1442.234 4822.3184 9725762
-1589.9896 1437.2788 4805.75 9659969
-1561.3812 1437.1569 4805.3423 9660226
-1539.5641 1443.3975 4826.2085 9199418
-1481.5972 1415.3412 4732.3984 9067834
-1446.2991 1408.2753 4708.7725 8804919
-1418.6991 1408.5745 4709.7729 8804919
-1386.412 1404.1387 4694.9409 8673590
-1345.1035 1390.1974 4648.3267 8410417
-1313.1777 1385.5732 4632.8647 8278832
-1287.1799 1387.1399 4638.103 8147246
-1252.5105 1379.2261 4611.6421 8146990
-1219.9554 1373.3394 4591.959 8147249
-1207.4344 1390.2515 4648.5073 8476213
-1171.1005 1379.8945 4613.8774 8739386
-1136.1349 1370.6937 4583.1128 7949613
-1105.7329 1366.6826 4569.7012 8081199
-1072.6814 1359.1132 4544.3916 7752234
-1041.0781 1353.0361 4524.0723 7620648
-1009.8419 1347.1274 4504.3159 7423269
-973.09497 1333.347 4458.2393 7620904
-939.96124 1323.8868 4426.6074 6962464
-914.56073 1325.0879 4430.623 6831134
-884.22528 1318.9983 4410.2617 6765085
-858.05048 1318.9333 4410.0449 7357222
-823.80145 1306.0634 4367.0122 7094307
-795.19855 1301.6003 4352.0894 6699549
-765.10718 1294.3203 4327.7476 7160100
-743.21533 1300.8873 4349.7051 6436377
-713.21802 1293.2291 4324.0986 6238998
-684.36823 1287.1581 4303.7998 6173208
-654.33661 1278.3086 4274.21 5778449
-629.159 1278.611 4275.2212 5843984
-587.79541 1244.6649 4161.7173 6371355
-559.58838 1236.8246 4135.5024 6371101
-529.44061 1223.7805 4091.8875 6173466
-505.45181 1224.4037 4093.9712 6305309
-478.14917 1216.6576 4068.071 6502431
-453.08575 1214.0894 4059.4836 5976344
-426.3714 1206.5612 4034.312 6239515
-400.5239 1200.7377 4014.8401 7028517
-372.15256 1186.1343 3966.0117 6436124
-349.423 1188.7561 3974.7783 6830882
-324.28903 1182.9857 3955.4841 6501917
-297.44955 1169.61 3910.7605 6172952
-273.11481 1164.6552 3894.1934 6436381
-244.24918 1137.6815 3804.0032 5844243
-222.34061 1140.923 3814.8413 5844244
-199.73615 1140.923 3814.8413 5778451
-174.93105 1126.7485 3767.447 6239259
-152.75252 1127.8198 3771.0291 5844501
-129.28754 1118.1326 3738.6384 6305309
-108.13464 1128.5697 3773.5366 5778708
-84.577721 1112.8179 3720.8674 6371102
-62.159298 1106.219 3698.8037 5976343
-40.256104 1106.5958 3700.0632 5712915
-18.268797 1102.796 3687.3582 5778708
3.5724471 1100.3833 3679.2908 6239259
25.17049 1091.5697 3649.8213 6436895
47.057846 1097.6506 3670.1538 5712916
67.791679 1081.4854 3616.103 5910551
88.593025 1073.9031 3590.7502 5910294
109.31989 1068.5293 3572.7825 6239002
127.24139 1041.9272 3483.8347 4857865
147.26891 1037.5901 3469.3328 5975573
168.43159 1041.3336 3481.8496 6107415
190.54018 1049.4698 3509.0547 6501917
209.6586 1041.1562 3481.2566 6107416
230.70401 1043.0441 3487.5691 6042137
251.59187 1043.9678 3490.6577 5515538
271.1449 1039.6332 3476.1641 5647379
289.68692 1032.3079 3451.6709 5778965
307.79703 1024.511 3425.6008 6305308
328.23175 1024.9376 3427.0276 5581586
349.57388 1027.9832 3437.2104 5910551
365.69836 1016.1945 3397.7935 5450000
381.9957 1006.0914 3364.0125 6370845
400.43509 1002.3524 3351.5105 5910550
419.46454 1000.374 3344.8953 5976344
437.78699 996.96399 3333.4934 6370845
459.47318 1001.1779 3347.5833 6436381
474.98557 992.14709 3317.3877 5910036
490.80814 984.45642 3291.6726 5646608
508.80957 981.55676 3281.9773 5975574
521.21643 968.4754 3238.2378 6106904
537.85413 963.90515 3222.9565 5647123
563.24652 974.80005 3259.385 5647123
576.83673 965.22375 3227.3655 6107930
588.74585 953.53943 3188.2971 6107931
606.94464 952.45166 3184.6602 5450002
623.76062 949.32495 3174.2056 5120781
642.38318 949.05029 3173.2871 4857867
659.28925 946.32758 3164.1831 6371618
668.05853 932.39886 3117.6108 5779479
683.24921 927.94092 3102.7051 5779479
707.74054 936.01709 3129.7087 5713688
727.38635 937.4361 3134.4534 5515539
736.05713 924.99231 3092.8457 5186831
745.37878 913.95105 3055.9277 5055244
761.85565 911.9989 3049.4006 4857612
783.36847 916.02606 3062.866 4923404
790.97961 903.98303 3022.5984 5186833
795.15759 888.63654 2971.2852 4923918
813.50415 889.44623 2973.9922 4857871
837.80585 896.59454 2997.8938 4989709
850.56476 891.34973 2980.3569 3936770
856.30707 879.11481 2939.4478 5187598
881.26868 886.70551 2964.8284 6371616
885.8681 873.91223 2922.052 4858633
897.35345 868.27216 2903.1936 5055755
911.83374 865.68756 2894.5518 4595205
927.97778 864.74884 2891.4131 5647636
934.52924 855.06732 2859.0413 4923659
951.67188 855.2486 2859.6475 4923148
970.44739 856.86517 2865.0527 4593927
984.69232 854.49469 2857.1267 3674631
991.58801 845.93457 2828.5049 5384212
1004.2621 842.50671 2817.0435 5516312
1010.7219 834.06293 2788.8103 4989967
1025.8912 832.9624 2785.1304 4726798
1044.2596 834.453 2790.1145 4792332
1059.2555 833.2442 2786.0728 6108961
1061.2214 821.98004 2748.4092 5451031
1072.4116 818.09314 2735.4128 5845533
1069.1104 803.4317 2686.3901 5253652
1092.1978 808.74036 2704.1406 5319447
1094.6614 798.84515 2671.0544 4924689
1110.4103 798.78894 2670.8665 5253654
1122.1183 795.86829 2661.1008 4003846
1137.3407 795.48657 2659.8245 4595725
1157.5856 798.58026 2670.1687 5714206
1164.5315 792.53961 2649.9709 4793361
1188.0989 797.82117 2667.6306 5122068
1181.671 783.08643 2618.363 5713949
1183.2307 773.95825 2587.8416 4595469
1210.8904 781.91736 2614.4541 4464396
1229.9291 784.17896 2622.0159 4924435
1249.6028 786.78381 2630.7256 4990228
1246.8557 775.38171 2592.6011 4398091
1259.3895 773.64423 2586.7915 5187606
1274.1443 773.29645 2585.6287 4463629
1279.9022 767.56152 2566.4531 3609094
1282.4308 760.0473 2541.3284 4134146
1298.9318 760.89233 2544.1538 5581334
1300.8793 753.29059 2518.7363 5779226
1309.5889 749.73267 2506.8398 5252881
1321.3478 747.98059 2500.9814 4726538
1328.6667 743.78192 2486.9426 5976602
1345.4532 744.91711 2490.7383 5252880
1361.9473 745.86749 2493.916 5450259
1380.8519 748.10345 2501.3923 4792584
1391.2937 745.75574 2493.5422 5187341
1392.8738 738.7572 2470.1418 6175005
1389.9758 729.55396 2439.3694 5648664
1422.052 738.70795 2469.9771 6175265
1420.8121 730.54517 2442.6836 4135687
1430.4614 728.08954 2434.4729 5715227
1442.0933 726.68195 2429.7664 6504742
1470.9807 733.91138 2453.939 6175777
1482.5328 732.435 2449.0024 8018497
1496.9816 732.4043 2448.8999 7163190
1500.9324 727.28748 2431.791 7361081
1509.6703 724.56549 2422.6897 7952964
1528.8801 726.87341 2430.4065 7493183
1540.4418 725.53601 2425.9348 6835254
1550.3018 723.42926 2418.8906 8085065
1563.9823 723.12775 2417.8823 7887685
1579.606 723.7218 2419.8687 8282699
1596.7087 724.97681 2424.0649 8216907
1610.8868 724.89337 2423.7861 8019527
1620.7957 722.90723 2417.145 7756098
1623.6981 717.85828 2400.2632 7756097
1645.9786 721.38989 2412.0715 7624253
1658.7976 720.74963 2409.9309 8018755
1694.3582 729.91724 2440.584 6637358
1679.5106 717.39801 2398.7241 8479050
1704.0291 721.76276 2413.3184 7031603
1716.7487 721.09894 2411.0989 7426362
1745.4037 727.08441 2431.1121 7492155
1781.7129 736.13428 2461.3716 7623484
1786.0836 731.94855 2447.376 8084292
1792.6058 728.7049 2436.5303 8150086
1781.9741 718.59552 2402.7283 6768690
1812.0422 724.92889 2423.9048 9465177
1843.2576 731.61798 2446.2708 7623229
1843.097 725.84637 2426.9724 6438954
1874.7089 732.57971 2449.4863 7228724
1880.2483 729.09949 2437.8499 7754557
1896.6136 729.83844 2440.3206 7096884
1934.8745 738.92804 2470.7129 7623227
1974.4594 748.38287 2502.3267 8346438
1976.0757 743.4129 2485.7087 8149569
1987.2148 742.07251 2481.2268 7425845
2012.7076 746.0722 2494.6006 8149312
2039.6428 750.54456 2509.5544 7294003
2062.8005 753.57214 2519.6777 7688247
2074.8167 752.51538 2516.144 7820089
2096.7158 755.03235 2524.5601 8149569
2102.1992 751.64435 2513.2317 8083519
2152.3792 764.17291 2555.1228 9136207
2179.73 768.47791 2569.5171 8609864
2212.5486 774.63745 2590.1125 9004877
2246.76 781.19641 2612.0435 9004367
2274.5559 785.4502 2626.2666 8478279
2279.0044 781.63867 2613.5222 8412487
2289.1167 779.80804 2607.4011 8215108
2356.5195 797.3877 2666.1812 8215107
2370.5151 796.78174 2664.155 7622970
2397.6399 800.56769 2676.814 8083522
2437.458 808.51428 2703.3845 8017983
2490.5999 820.74774 2744.2891 7689019
2583.4758 845.83154 2828.1604 7294519
2602.5063 846.5708 2830.6321 7492155
2633.2588 851.08923 2845.74 7689533
2724.1167 874.85303 2925.1978 7426363
2742.6609 875.23956 2926.4902 7096627
2720.3149 862.65424 2884.4094 5254168
2751.533 867.10614 2899.2949 6701354
2718.5903 851.40881 2846.8088 8214335
0 0 0 0
0 0 0 0
0 0 0 0
0 0 0 0
0 0 0 0
0 0 0 0
-4020.4319 1362.9501 4468.6855 3294729
-3938.3816 1343.9861 4406.5083 3689744
-3898.0266 1339.0927 4390.4644 2768645
-3890.7749 1345.5818 4411.7402 3558157
-3844.3728 1338.5275 4388.6113 3690001
-3842.3267 1346.926 4416.1475 3294730
-3865.6638 1364.3987 4473.4351 2965509
-3859.5933 1371.6616 4497.248 2768386
-3819.1223 1366.715 4481.0293 2833926
-3798.5706 1368.8772 4488.1187 1320448
-3844.908 1395.3445 4574.8965 1386496
-3781.4717 1382.0671 4531.3643 1255168
-3757.4146 1383.0952 4534.7349 991744
-3755.3333 1392.2856 4564.8677 1386752
-3710.5891 1385.6774 4543.2012 1254912
-3659.4248 1376.5576 4513.3003 1189376
-3600.311 1364.2913 4473.0825 1715712
-3602.1389 1375.1072 4508.5449 2241539
-3579.8306 1376.8019 4514.1011 2175488
-3550.5496 1375.8203 4510.8828 2636039
-3563.2732 1391.2239 4561.3862 3293199
-3611.1433 1420.6903 4657.9976 3489035
-3620.7144 1435.4269 4706.314 2827266
-3703.5703 1479.6714 4851.3779 9207111
0 0 0 0
0 0 0 0
-2771.033 1133.4927 3716.3665 9399849
-2756.8105 1136.7081 3726.9092 9399846
-2746.0623 1141.4197 3742.3567 9597226
-2758.7241 1156.0178 3790.2195 9596967
-2747.3323 1160.6932 3805.5486 9596968
-2731.7119 1163.6448 3815.2261 9530916
-2712.3899 1165.0557 3819.8521 9465123
-2694.9045 1167.2859 3827.1638 9268001
-2680.2424 1170.7872 3838.6438 9268000
-2661.0222 1172.3402 3843.7356 9136414
-2646.9375 1176.2023 3856.3979 9136415
-2628.8208 1178.3242 3863.3552 9202209
-2620.0623 1184.7148 3884.3081 9399332
-2612.0549 1191.5616 3906.7563 9465125
-2599.4856 1196.4309 3922.7214 9595684
-2588.7104 1202.2216 3941.707 9464355
-2577.1316 1207.7407 3959.8027 9661734
-2565.564 1213.3669 3978.249 9793576
-2538.0686 1211.4944 3972.1099 9859369
-2535.0874 1221.3979 4004.5803 9859369
-2519.8201 1225.5131 4018.0725 9925162
-2506.988 1230.9025 4035.7427 9925162
-2489.9675 1234.3193 4046.9458 9990955
-2481.5073 1242.0876 4072.4153 9925162
-2451.5837 1239.1595 4062.8149 9925162
-2432.7649 1241.8419 4071.6099 9925162
-2413.9255 1244.5676 4080.5466 10056748
-2403.8879 1251.9323 4104.6929 10319920
-2381.5554 1252.9789 4108.1245 10385457
-2365.8513 1257.5706 4123.1792 10451506
-2330.2239 1251.5573 4103.4634 10451507
-2340.9761 1270.5902 4165.8662 10582840
-2308.6897 1266.4203 4152.1943 10648633
-2266.5464 1256.6951 4120.3086 10385464
-2247.1257 1259.4941 4129.4858 9990452
-2235.0962 1266.5431 4152.5972 9989952
-2338.3721 1339.8152 4392.8335 10318665
-2375.0447 1376.146 4511.9507 10581839
-2387.8171 1399.298 4587.8589 10449745
-2414.1536 1431.0236 4691.877 10318415
-2428.2656 1456.1577 4774.2842 10252622
-2425.0063 1471.3445 4824.0767 10120780
-2390.311 1467.5928 4811.7759 10120524
-2390.3794 1485.3519 4870.0029 9988937
-2359.4167 1484.0275 4865.6602 10054475
-2314.8689 1474.0194 4832.8472 9989194
-2283.9426 1472.5433 4828.0073 10054987
-2253.8064 1471.5453 4824.7349 10186573
-2222.6816 1469.8682 4819.2363 10121036
-2189.7415 1466.931 4809.6064 10120779
-2164.3813 1469.0615 4816.5913 10055243
-2129.7969 1464.9042 4802.9609 10055243
-2095.6526 1460.941 4789.9673 10055242
-2064.3796 1458.8983 4783.2695 10054986
-2025.984 1451.6952 4759.6528 9989449
-1995.928 1450.3486 4755.2378 10186572
-1948.4094 1436.0924 4708.4961 9923399
-1940.0546 1450.7075 4756.4146 10317901
-1898.738 1440.7424 4723.7422 10120779
-1865.7695 1436.9082 4711.1709 9923143
-1836.9854 1436.2292 4708.9448 9923143
-1807.5881 1435.0425 4705.0537 9791557
-1781.8203 1436.745 4710.6357 9660228
-1752.7069 1435.7612 4707.4102 9594435
-1719.9943 1431.7495 4694.2573 9989193
-1695 1434.1365 4702.083 9923141
-1667.5973 1434.5312 4703.3774 10054983
-1633.2755 1428.8864 4684.8696 9989190
-1611.1177 1433.8719 4701.2158 9528383
-1566.8075 1418.9708 4652.3599 9660225
-1546.5991 1425.7545 4674.6016 9528383
-1514.0999 1421.2487 4659.8281 9002296
-1482.8906 1417.8086 4648.5493 8475952
-1445.2269 1407.9504 4616.2275 8410417
-1416.8514 1406.9351 4612.8984 8212782
-1376.9901 1394.25 4571.3081 8410418
-1353.9889 1398.4698 4585.1436 8344624
-1309.5295 1380.2456 4525.3921 8607540
-1277.6545 1374.8005 4507.5396 8870969
-1252.5864 1376.6039 4513.4521 8673334
-1215.2681 1364.729 4474.5181 8673591
-1187.3879 1363.1599 4469.3735 8279092
-1166.0485 1369.1995 4489.1753 8476213
-1142.5834 1372.9666 4501.5264 8147249
-1116.6384 1373.8628 4504.4648 8344628
-1083.8967 1366.2357 4479.458 8213042
-1050.9463 1357.9558 4452.311 8278578
-1021.0203 1353.2585 4436.9097 7686697
-987.83185 1343.8743 4406.1416 7160353
-955.9068 1335.746 4379.4917 6897182
-930.3634 1336.3303 4381.4077 7225893
-899.15784 1328.5819 4356.0029 6896927
-867.11523 1319.1022 4324.9219 7357479
-841.59393 1319.2678 4325.4648 7554601
-809.81763 1309.3303 4292.8833 6896671
-771.28967 1287.4783 4221.2373 6765086
-751.67358 1296.7883 4251.7617 6962464
-727.45734 1298.5325 4257.4805 6633757
-694.89624 1284.9712 4213.0171 6831135
-664.84338 1275.2101 4181.0137 6370330
-634.42975 1263.9745 4144.1758 6634271
-608.87878 1261.9124 4137.4146 6371099
-572.41016 1236.1006 4052.7859 5844758
-553.79773 1248.2769 4092.708 6502431
-520.22638 1226.3063 4020.6733 6568224
-497.08832 1228.0011 4026.23 6305309
-474.75906 1231.9656 4039.2283 5581329
-447.67639 1223.3613 4011.0178 5910294
-420.11426 1212.4087 3975.1072 6239515
-391.06659 1195.613 3920.04 6238745
-365.23959 1187.1648 3892.3408 6173209
-343.40793 1191.4392 3906.355 5909780
-317.4491 1180.9777 3872.0549 6436380
-292.991 1174.9038 3852.1409 6304795
-267.55185 1163.5376 3814.8745 6699553
-242.955 1154.0743 3783.8474 5844501
-221.04588 1156.752 3792.6267 5844758
-198.27704 1155.0277 3786.9731 5778451
-172.8884 1135.6547 3723.4551 6107673
-151.91411 1143.8518 3750.3311 5252621
-128.51576 1133.4786 3716.3208 5976087
-105.67657 1124.7671 3687.7583 6173722
-83.704765 1123.1521 3682.4631 5910551
-62.128635 1127.5795 3696.979 5910550
-40.364285 1131.5527 3710.0063 5844758
-18.118881 1115.416 3657.0991 6502687
3.5235109 1106.8125 3628.8909 6305308
24.817419 1097.5813 3598.6245 6239515
46.095711 1096.5107 3595.1145 5581586
67.471733 1097.7069 3599.0364 6173466
87.620361 1083.1556 3551.3271 5581585
106.38268 1060.4214 3476.7891 6305309
128.16689 1070.2991 3509.1746 6371102
147.5381 1060.0814 3475.6743 5317900
168.19221 1060.4556 3476.9009 5712657
188.04663 1056.2562 3463.1326 5712658
208.23564 1054.5778 3457.6294 5910037
228.74629 1054.6827 3457.9739 5975572
247.34372 1046.6746 3431.7175 5778965
268.12552 1048.4243 3437.4543 5581586
287.60812 1045.2057 3426.9016 5252621
304.42166 1033.3514 3388.0349 5778708
326.23242 1038.8774 3406.1531 5581586
343.93875 1031.4506 3381.8027 5712915
357.61301 1013.4152 3322.6704 5910551
377.84659 1014.8802 3327.4736 6173723
395.3176 1009.1478 3308.679 5976344
415.01898 1009.3816 3309.4453 6173466
430.90656 1000.737 3281.1025 6042137
456.1062 1013.5317 3323.0522 6042137
471.12613 1003.5827 3290.4326 5383951
489.5784 1001.4454 3283.425 5186830
505.65378 994.79529 3261.6216 5843989
518.03479 981.63434 3218.4707 5187086
534.82037 977.45789 3204.7776 5910293
555.03314 979.61682 3211.856 6699296
570.80438 974.05334 3193.615 6370332
589.43402 973.56793 3192.0237 5778196
592.64563 948.43866 3109.6326 5383439
619.61176 961.69397 3153.0925 5515280
634.93481 956.6311 3136.4932 5515795
653.97174 957.29272 3138.6624 5450263
666.63116 948.84045 3110.95 5647382
680.83734 942.98517 3091.7524 5581331
701.06274 945.5553 3100.179 5384208
718.19739 943.93195 3094.8564 4923658
737.25946 944.85956 3097.8977 5055245
745.86798 932.67041 3057.9336 5581589
754.01715 920.49872 3018.0264 6173725
775.14124 924.36377 3030.6985 5383953
777.9729 906.73376 2972.8953 5383954
789.06268 899.29626 2948.51 5055244
809.1001 902.15765 2957.8918 5121038
831.23273 907.18451 2974.3733 5581589
837.40143 894.94171 2934.2329 5713432
852.362 892.40179 2925.9053 5187087
861.48914 883.97754 2898.2847 5121038
882.9093 888.24982 2912.2922 4989453
886.96265 875.22144 2869.5764 4857609
902.03729 873.35413 2863.4539 4791816
920.04047 874.33856 2866.6816 5515795
935.53857 872.95013 2862.1294 5318417
949.08539 869.82257 2851.8752 5318416
963.46686 867.55621 2844.4443 4923404
977.70258 865.23865 2836.8457 4988941
978.24591 851.08691 2790.4468 5055247
991.16925 847.99725 2780.3169 4989710
1000.0154 841.57758 2759.2686 5713434
1015.1782 840.59467 2756.0461 4726538
1031.0892 840.25269 2754.9248 5055504
1042.3542 836.19434 2741.6187 4792331
1057.5381 835.3559 2738.8699 5384469
1067.5342 830.50708 2722.9719 6108449
1072.7859 822.1665 2695.6257 5187092
1081.1414 816.41443 2676.7666 4595468
1092.4888 813.05536 2665.7532 4398603
1104.421 810.22107 2656.4604 4924692
1120.0745 810.15802 2656.2539 4332811
1120.731 799.39972 2620.9807 3674371
1143.139 804.23834 2636.8452 5253143
1146.0752 795.43213 2607.9722 4661262
1155.1309 791.0509 2593.6077 4003589
1157.752 782.43622 2565.3628 3542530
1177.7649 785.64624 2575.8875 5779229
1192.698 785.42883 2575.1746 4726542
1205.0214 783.52002 2568.9163 5318421
1231.9413 791.03137 2593.5437 4134407
1239.0817 785.8136 2576.4363 5252885
1250.0554 783.12439 2567.6191 4792334
1264.4426 782.61261 2565.9412 4463625
1272.8368 778.44769 2552.2856 5714462
1269.788 767.46442 2516.2749 4858124
1270.3843 758.91351 2488.2393 6042142
1294.7174 764.57635 2506.8059 5516053
1299.0306 758.42249 2486.6292 5581845
1302.9783 752.19543 2466.2126 6305567
1327.314 757.74579 2484.4106 6108443
1332.0895 752.13025 2465.999 5976858
1348.5712 753.17444 2469.4226 5582100
1355.6182 748.98352 2455.6819 5450513
1370.2687 749.03796 2455.8604 5713942
1370.658 741.3775 2430.7441 6043164
1382.476 739.99377 2426.2073 5253648
1390.9948 736.89075 2416.0334 5911835
1410.5178 739.62109 2424.9854 6109214
1419.4709 736.80988 2415.7683 5385491
1432.7245 736.26477 2413.981 5780506
1445.5626 735.51898 2411.5359 6307362
1479.7773 745.55798 2444.4507 7623479
1489.1237 742.99438 2436.0454 8215874
1500.6312 741.54803 2431.3032 7820860
1511.1914 739.66541 2425.1306 7294260
1512.3894 733.27911 2404.1919 7360309
1517.8799 729.07373 2390.4038 6964783
1541.1539 733.40894 2404.6177 7097397
1554.0979 732.79388 2402.6011 7361081
1562.0001 729.83423 2392.8975 8940371
1574.5396 729.0752 2390.4087 8414284
1597.3439 733.04028 2403.4089 8611665
1607.2126 731.05139 2396.8882 8545872
1619.4688 730.17389 2394.011 8610895
1642.5068 734.13062 2406.9839 7163705
1645.4299 729.10608 2390.51 7886915
1665.7139 731.79443 2399.3242 8281930
1661.4902 723.76154 2372.9868 8347466
1666.1168 719.68634 2359.6255 6834481
1712.5392 733.58258 2405.187 7426105
1716.4113 729.17303 2390.7295 7952449
1737.2694 731.99274 2399.9744 7031603
1762.2892 736.50592 2414.7717 6307881
1760.4452 729.80969 2392.8169 6834225
1762.1466 724.67871 2375.9939 7030578
1774.4807 723.96692 2373.6602 6833456
1819.6016 736.53766 2414.8757 7754557
1847.173 741.86414 2432.3396 6306600
1860.4012 741.39215 2430.792 7030323
1879.8331 743.38068 2437.3118 7030576
1903.272 746.91132 2448.8877 8806989
1902.4915 740.95593 2429.3618 8215362
1916.051 740.633 2428.303 7623225
1946.7637 746.89581 2448.8369 7425846
1982.1523 754.8468 2474.9058 8478533
1979.99 748.48566 2454.0496 8215362
2007.9973 753.53912 2470.6182 8478277
2029.5555 756.1167 2479.0693 8280898
2032.46 751.75775 2464.7776 8149569
2057.0273 755.41632 2476.7729 7952190
2082.4197 759.32397 2489.585 7886397
2102.2834 761.1748 2495.6533 8149568
2132.0054 766.54431 2513.2581 8346947
2153.1045 768.76056 2520.5244 9399636
2205.3555 781.99231 2563.9072 7754810
2210.2893 778.37964 2552.0625 8478534
2238.1265 782.82703 2566.644 8543816
2258.8022 784.7265 2572.8718 8215107
2293.3694 791.39404 2594.7327 8346437
2295.1692 786.74072 2579.4758 8280645
2373.1553 808.09155 2649.4785 8675659
2393.0159 809.49921 2654.0938 8149058
2439.8386 819.94965 2688.3574 7951936
2452.5464 818.87384 2684.8303 7689017
2549.3867 845.72174 2772.8562 6767916
2570.8005 847.36444 2778.2419 8215105
2597.2749 850.64349 2788.9932 8280896
2606.1687 848.15979 2780.8496 7491637
2662.7063 861.11499 2823.3257 7425331
2690.7549 864.75281 2835.2529 6898730
2718.7788 868.33759 2847.0063 7293487
0 0 0 0
0 0 0 0
0 0 0 0
0 0 0 0
0 0 0 0
0 0 0 0
-3915.0381 1353.0055 4351.5405 3097865
-3864.7791 1344.4913 4324.1572 2834437
-3776.5259 1322.5577 4253.6143 2702854
-3839.1348 1353.517 4353.1855 2900488
-3754.3347 1332.5734 4285.8267 2768647
-3777.7327 1350.0101 4341.9067 2044928
-3789.4131 1363.4698 4385.1963 1913088
-3767.2866 1364.8673 4389.6909 1584384
-3753.1804 1369.2103 4403.6587 2439428
-3764.8821 1383.095 4448.3145 597248
-3705.7627 1370.9747 4409.3335 662272
-3720.2605 1386.1108 4458.0142 1188608
-3678.249 1380.2585 4439.1919 728320
-3639.8345 1375.6813 4424.4707 596480
-3609.4253 1374.0854 4419.3379 925952
-3569.5078 1368.8197 4402.4023 1057536
-3566.3652 1377.6829 4430.9077 1847297
-3554.749 1383.3796 4449.23 1846784
-3528.4285 1383.3965 4449.2842 2306563
-3534.1028 1396.0522 4489.9878 2767626
-3555.4932 1415.1554 4551.4272 3291401
-3559.0503 1427.3982 4590.8027 2563076
-3563.8845 1440.3458 4632.4448 7428394
0 0 0 0
0 0 0 0
0 0 0 0
-2789.9819 1163.4152 3741.7798 9333800
-2767.1641 1163.1436 3740.906 9333796
-2751.2017 1165.7723 3749.3606 9662762
-2763.248 1180.4089 3796.4348 9662504
-2741.95 1180.9246 3798.0933 9465126
-2724.5588 1183.1453 3805.2358 9399587
-2714.406 1188.5726 3822.6914 9333793
-2698.1418 1191.3928 3831.7615 9399586
-2680.5579 1193.6731 3839.0952 9202207
-2661.355 1195.2654 3844.2163 9136414
-2654.0898 1202.2931 3866.8186 9136415
-2628.2114 1200.9375 3862.4592 9202209
-2620.9446 1208.1376 3885.6162 9399589
-2622.1428 1219.4019 3921.8442 9465381
-2607.3572 1223.368 3934.6001 9465125
-2589.9111 1226.1461 3943.5352 9530404
-2582.8391 1233.9309 3968.5725 9859113
-2563.5068 1235.9478 3975.0591 9859369
-2552.1553 1241.8854 3994.1558 9859370
-2533.5151 1244.3542 4002.0962 9859369
-2521.8645 1250.3353 4021.3325 9924906
-2504.1431 1253.3918 4031.1628 9925163
-2491.6096 1259.129 4049.6147 9925162
-2475.1917 1262.9956 4062.0503 9990955
-2452.5413 1263.7266 4064.4016 9990954
-2438.1714 1268.7814 4080.6584 9990954
-2415.2417 1269.4382 4082.7712 9990955
-2393.7629 1270.8788 4087.4043 10451250
-2379.0703 1275.9884 4103.8379 10451506
-2362.5706 1280.2242 4117.4614 10385714
-2338.9673 1280.6593 4118.8604 10714423
-2318.3677 1282.7653 4125.6338 10780475
-2306.3232 1289.7002 4147.938 10714683
-2281.3784 1289.493 4147.2715 10319415
-2248.7454 1284.8884 4132.4624 9793072
-2243.3809 1295.9347 4167.9893 9989953
-2315.1152 1352.2601 4349.1436 9989698
-2323.4236 1372.3898 4413.8843 9989702
-2320.7939 1386.4431 4459.083 10186572
-2331.2874 1408.7505 4530.8276 10252623
-2332.2507 1425.7515 4585.5063 10186830
-2336.6709 1445.2914 4648.3506 10252879
-2324.0134 1454.6085 4678.3164 10383952
-2311.1509 1464.0206 4708.5879 10383439
-2294.8374 1471.4501 4732.4824 10054986
-2253.8638 1463.0557 4705.4844 9989192
-2221.188 1459.9048 4695.3506 9791813
-2191.3582 1458.5682 4691.0518 10186571
-2166.552 1460.5841 4697.5352 10054985
-2122.25 1449.3383 4661.3662 10252108
-2104.2017 1455.9617 4682.6685 9989193
-2069.9792 1451.4209 4668.0645 10055242
-2028.7712 1441.7927 4637.0986 10186828
-2000.4133 1441.158 4635.0566 10054729
-1969.5779 1438.6958 4627.1377 9791557
-1929.8618 1429.5853 4597.8369 9791813
-1900.0416 1427.6497 4591.6113 10054985
-1890.9493 1441.4585 4636.0234 9988936
-1851.7618 1432.3949 4606.873 9791813
-1829.6598 1436.4738 4619.9917 9857606
-1797.5326 1432.6865 4607.811 9791814
-1765.8075 1429.1077 4596.3008 9725764
-1726.3156 1419.0323 4563.8965 9660227
-1713.9559 1431.2942 4603.333 9594435
-1682.8601 1428.0533 4592.9097 9594434
-1654.2456 1426.8461 4589.0269 9265467
-1612.91 1414.4426 4549.1348 9331004
-1590.4187 1418.4241 4561.9399 9528639
-1564.2158 1419.1757 4564.3574 9331260
-1523.4512 1406.5096 4523.6211 9265211
-1504.3673 1413.7651 4546.9561 8739125
-1482.9381 1419.0409 4563.9238 8475952
-1445.702 1409.1058 4531.9707 8541489
-1414.9586 1405.2429 4519.5469 8475954
-1391.8412 1408.9507 4531.4717 8673333
-1349.7837 1393.2542 4480.9888 8542004
-1305.9069 1375.0123 4422.3188 9068347
-1275.9921 1371.0251 4409.4956 8739126
-1249.0996 1370.1865 4406.7983 8739126
-1218.1196 1364.7328 4389.2578 8476212
-1176.9161 1347.337 4333.3096 8146990
-1164.7463 1363.1445 4384.1499 8475954
-1134.9167 1358.5339 4369.3213 8738870
-1112.3158 1362.563 4382.2793 8213040
-1081.5802 1356.5817 4363.042 8344625
-1053.0642 1353.1594 4352.0356 8080940
-1030.7705 1357.7615 4366.8369 7687210
-994.77325 1344.0853 4322.8516 8016175
-972.06396 1348.1146 4335.8105 7884846
-933.29095 1329.4797 4275.877 7818798
-905.75366 1326.257 4265.5117 7358247
-878.51837 1323.304 4256.0142 6963489
-860.79187 1334.9229 4293.3828 6963489
-826.53223 1320.8286 4248.0532 7029028
-797.2597 1314.0692 4226.3135 7029027
-764.716 1301.3046 4185.2598 6568476
-739.24677 1300.1265 4181.4707 6305561
-711.34338 1294.4371 4163.1729 6436122
-678.43024 1278.8953 4113.187 6766369
-656.32666 1283.3313 4127.4541 6700320
-623.98767 1267.3226 4075.967 6305305
-602.51617 1272.9854 4094.1797 6634271
-578.97198 1274.5603 4099.2451 6700577
-551.15088 1266.4458 4073.147 6568735
-519.63788 1248.7161 4016.1248 6108183
-490.92493 1236.3363 3976.3088 6305052
-467.06689 1235.5513 3973.7837 5910551
-437.9574 1220.0532 3923.9392 5647379
-412.88077 1214.6821 3906.6646 5713172
-383.24496 1194.4633 3841.6365 6304538
-361.29117 1197.1451 3850.2622 6501917
-336.11118 1188.7784 3823.3528 5646865
-313.82874 1190.1909 3827.8958 5778194
-290.31207 1186.7781 3816.9197 6633503
-264.22424 1171.3899 3767.428 6502173
-240.25723 1163.4314 3741.8318 5843987
-217.32883 1159.3953 3728.8508 6370331
-194.91489 1157.501 3722.7583 5844500
-173.07245 1158.9501 3727.4189 5581586
-149.77142 1149.6271 3697.4343 6568224
-125.83912 1131.4333 3638.9197 6173466
-105.55532 1145.3029 3683.5269 6173466
-82.94323 1134.5554 3648.9607 6436894
-61.336136 1134.823 3649.8213 5318414
-39.438366 1127.075 3624.9021 5712914
-18.030689 1131.5511 3639.2986 5976086
3.4990687 1120.4883 3603.7178 6699810
24.691288 1113.2179 3580.335 5646865
45.590515 1105.5624 3555.7131 5186057
66.105484 1096.373 3526.1587 6304795
86.337524 1088.0322 3499.3328 5120264
106.57774 1083.0049 3483.1638 5515022
125.70207 1070.1093 3441.6887 6502430
145.29689 1064.2599 3422.8762 6041623
165.925 1066.4851 3430.033 6107159
186.26524 1066.5763 3430.3259 6041623
205.3022 1059.9209 3408.9211 6107416
227.12268 1067.5413 3433.4297 5515279
246.76004 1064.491 3423.6194 5581071
266.14047 1060.8801 3412.0059 6041623
283.56052 1050.5161 3378.6733 5910037
300.7442 1040.7013 3347.1069 5581585
318.63876 1034.4087 3326.8684 5778709
341.99731 1045.5538 3362.7134 5713173
358.87711 1036.7552 3334.4155 5647379
376.29697 1030.3538 3313.8269 6041880
396.60068 1032.092 3319.4177 5449743
414.2977 1027.203 3303.6936 5844758
427.3414 1011.7383 3253.9561 5778965
447.93805 1014.7188 3263.5417 6568482
460.68887 1000.4147 3217.5369 5383951
476.85364 994.36652 3198.0847 5647380
496.15747 995.07629 3200.3677 5778451
513.64813 992.2312 3191.217 5646610
529.13843 985.86127 3170.7302 5777939
548.79962 987.43262 3175.7839 6304540
562.53455 978.59033 3147.3455 6172953
579.06476 975.02234 3135.8699 5844502
592.87231 967.23431 3110.822 6107675
611.68121 967.82928 3112.7356 6107931
630.23224 967.99335 3113.2632 5647380
646.677 965.005 3103.6521 4989452
657.57959 954.14026 3068.709 5778966
673.79669 951.36407 3059.78 6173723
691.76154 951.13641 3059.0479 5844502
709.33655 950.39801 3056.6731 6305310
721.65332 942.82666 3032.322 5647125
725.61279 924.96973 2974.8906 5318417
737.10504 917.33447 2950.334 5252368
749.08191 910.64209 2928.8101 5252625
771.8894 917.12128 2949.6482 5252113
785.34521 912.4483 2934.6191 5054991
803.17975 912.95496 2936.2485 5384210
817.54926 909.5849 2925.4099 5450003
827.8114 901.88013 2900.6296 5515539
837.14978 893.50281 2873.6865 5712916
860.5318 900.1496 2895.064 4989451
869.37927 891.63 2867.6633 5252624
897.83093 903.15759 2904.7383 5318670
910.78558 898.95581 2891.2246 5778965
918.24817 889.5885 2861.0974 5121038
930.06732 884.70496 2845.3909 5186831
944.86572 882.77875 2839.1958 5318417
951.82446 873.72351 2810.0723 4726026
964.89062 870.48956 2799.6714 5186576
962.40985 853.57611 2745.2742 4726283
984.47632 858.6344 2761.5427 5121297
999.69672 857.65393 2758.3894 6108191
1010.9841 853.38513 2744.6599 4857868
1031.0892 856.57672 2754.9248 4989710
1035.9226 847.17969 2724.7019 5581848
1036.8639 834.93683 2685.3267 4463368
1072.3713 850.47791 2735.3098 4595211
1060.0599 828.19672 2663.6489 5516570
1068.7246 822.71674 2646.0242 4990226
1083.6364 822.13483 2644.1526 4990483
1092.6772 817.17877 2628.2131 5319191
1094.5585 807.08301 2595.7429 5253655
1109.7006 806.90936 2595.1843 4134918
1131.8682 811.77917 2610.8469 4201225
1138.2495 805.34845 2590.1643 6570286
1143.9559 798.61774 2568.5168 5057050
1150.0375 792.32208 2548.2688 4661775
1174.8722 798.94226 2569.5608 4529932
1190.5085 799.2179 2570.4473 4135430
1204.3213 798.27795 2567.4241 5187862
1212.9012 793.93604 2553.4597 5516056
1224.2379 791.48346 2545.5718 5318677
1219.4448 778.78943 2504.7449 5318677
1239.3541 781.98694 2515.0288 3477249
1247.9272 778.04077 2502.3372 6963502
1258.1296 775.19104 2493.1719 5712920
1265.5046 770.68573 2478.6819 5583649
1267.311 762.9314 2453.7424 5712921
1284.6199 764.57971 2459.0437 5252370
1305.2899 768.16913 2470.5879 4989452
1312.873 764.06262 2457.3806 5187343
1321.371 760.57275 2446.1565 6305053
1332.8124 758.83447 2440.5659 6436382
1348.4286 759.48499 2442.658 5186571
1357.746 756.61157 2433.4165 5187085
1368.5355 754.61029 2426.98 6042651
1381.021 753.57611 2423.6538 4332039
1391.027 751.22412 2416.0894 7030316
1401.2357 749.02844 2409.0276 5253906
1409.0237 745.59601 2397.9883 6174751
1436.2339 752.40698 2419.8938 5516823
1458.0166 756.26813 2432.312 6701609
1455.5737 747.6109 2404.4685 7161646
1464.1461 744.7243 2395.1848 6438181
1474.6497 742.86609 2389.2083 7359540
1475.6589 736.30573 2368.1089 6175267
1486.6755 734.81537 2363.3154 5846304
1503.4873 736.19037 2367.7378 8017472
1521.5923 738.16736 2374.0962 6043425
1530.4263 735.65173 2366.0054 6767147
1546.5702 736.66357 2369.2598 7031089
1559.9299 736.34302 2368.2288 7294775
1575.1852 736.91498 2370.0684 8940371
1579.3821 732.34912 2355.3835 9071959
1595.7756 733.46924 2358.9861 8611666
1629.8785 742.63898 2388.4778 8544845
1632.7466 737.54156 2372.0835 8610895
1657.1604 742.1806 2387.0037 7624000
1659.1239 736.77161 2369.6072 7755329
1666.8322 733.98297 2360.6384 7294778
1690.1595 738.06146 2373.7556 7557949
1685.7104 730.04327 2347.9675 6965812
1705.8102 732.70081 2356.5146 7623740
1730.4585 737.25311 2371.1558 6307881
1747.9528 738.70868 2375.8372 7557692
1750.856 734.02386 2360.77 7689279
1767.568 735.15662 2364.4131 7426106
1799.4447 742.52911 2388.1245 7755582
1808.691 740.52124 2381.6667 8873040
1841.0038 747.91522 2405.4473 7294007
1857.1083 748.6615 2407.8477 5583390
1870.0944 748.14893 2406.199 6767406
1893.4473 751.76001 2417.813 6833199
1903.0779 749.90955 2411.8616 7622714
1938.9093 758.33423 2438.957 8215361
1952.9366 758.16943 2438.427 7425589
1969.1686 758.85663 2440.6372 8741706
1968.1448 752.93256 2421.584 8938828
1974.036 749.7204 2411.2532 8149826
2000.2837 754.2301 2425.7573 7821118
2016.5999 754.95734 2428.0962 8215618
2070.2822 769.56403 2475.0742 6372388
2084.8147 769.51483 2474.916 7754298
2103.156 770.8623 2479.2498 8214592
2117.4114 770.70386 2478.7402 8872522
2131.3696 770.44031 2477.8926 7754298
2173.4333 780.27032 2509.5078 8017726
2184.8159 779.02679 2505.5085 7886140
2203.5188 780.3927 2509.9016 7754298
2245.9053 790.07184 2541.0315 7030831
2283.9485 798.10419 2566.8652 7688764
2285.5439 793.37842 2551.666 7688764
2342.8972 807.9425 2598.5073 9333332
2399.0193 821.89459 2643.3801 7622714
2403.0703 817.94226 2630.6685 7951936
2433.6543 823.01367 2646.979 7622715
2465.4287 828.4201 2664.3674 8083520
2532.0725 845.39984 2718.9775 6373157
2560.1296 849.3631 2731.7244 7754554
2562.7468 844.88959 2717.3367 7622712
2595.7922 850.44086 2735.1907 7622453
2640.7861 859.81354 2765.3352 7820088
0 0 0 0
0 0 0 0
0 0 0 0
0 0 0 0
0 0 0 0
0 0 0 0
-3875.7007 1364.9364 4307.8174 2176512
-3776.0225 1338.6484 4224.8511 1913344
-3764.4998 1343.4702 4240.0688 1650178
-3792.3684 1362.5093 4300.1572 1255424
-3680.8906 1331.4034 4201.9854 1518336
-3625.2234 1320.1981 4166.6211 1189632
-3599.2515 1319.7279 4165.1367 926208
-3595.4529 1327.4374 4189.4683 860160
-3574.7134 1328.9558 4194.2607 1189120
-3542.1233 1326.0591 4185.1187 662784
-3572.3772 1346.8145 4250.6235 530688
-3590.7241 1363.3434 4302.79 728064
-3607.2915 1379.4285 4353.5552 662272
-3563.9421 1372.6678 4332.2183 991488
-3536.7222 1372.0667 4330.3208 1518080
-3485.4597 1362.0613 4298.7432 1715968
-3519.1245 1385.3409 4372.2153 2241541
-3549.4578 1407.6447 4442.6074 2700809
-3530.1875 1410.4631 4451.5024 2567424
-3544.446 1426.8209 4503.1284 1644289
-3573.0742 1449.2552 4573.9326 5193493
-3565.6082 1457.2809 4599.2617 8348986
-3504.0051 1443.1334 4554.6118 9400641
-3176.4116 1318.3673 4160.8428 9531712
-3131.134 1309.7408 4133.6172 9399868
-2928.0715 1234.4572 3896.0176 8742190
-2829.2297 1202.2649 3794.417 9597223
-2773.9824 1188.2306 3750.1238 9399589
-2757.2974 1190.621 3757.6682 9662760
-2763.5615 1203.0408 3796.8655 9596711
-2745.6057 1205.0343 3803.1572 9531175
-2730.7224 1208.4205 3813.8442 9465123
-2715.3083 1211.6263 3823.9622 9333794
-2702.3728 1216.0013 3837.77 9267744
-2683.9473 1217.9595 3843.9497 9333537
-2670.022 1222.0106 3856.7356 9201951
-2654.4187 1225.3572 3867.2974 9201953
-2640.2126 1229.4126 3880.0967 9268002
-2623.1118 1232.1794 3888.8291 9465381
-2620.6196 1241.9186 3919.5662 9530404
-2605.8477 1245.9604 3932.3223 9530404
-2596.1877 1252.5413 3953.092 9595941
-2588.6233 1260.2623 3977.46 9859113
-2568.0298 1261.7238 3982.0725 9793576
-2544.8933 1261.9513 3982.7905 9859369
-2533.3213 1267.9714 4001.7903 9925162
-2516.3792 1271.392 4012.5857 9990955
-2504.2207 1277.3176 4031.2876 9990955
-2488.3354 1281.4384 4044.293 10122541
-2465.2651 1281.9032 4045.76 10056748
-2452.0166 1287.5345 4063.5325 10122285
-2435.9297 1291.772 4076.9065 10122541
-2413.2524 1292.5648 4079.4087 10188334
-2366.3843 1280.2856 4040.6545 10648885
-2371.0173 1295.9038 4089.9468 10648885
-2353.1553 1299.4227 4101.0527 10583350
-2330.3286 1300.2451 4103.6479 10583864
-2311.2131 1303.1771 4112.9019 10846267
-2308.7581 1315.666 4152.3174 9859119
-2269.6487 1307.311 4125.9487 9530156
-2253.7981 1312.317 4141.7476 9924661
-2257.365 1328.8638 4193.9702 9727031
-2285.1072 1360.1689 4292.771 9726011
-2286.342 1376.2233 4343.4395 10054980
-2282.1184 1389.3201 4384.7734 9989191
-2280.0945 1404.0731 4431.335 10054985
-2278.2217 1419.2639 4479.2783 10186572
-2298.7471 1448.9307 4572.9082 10384208
-2287.8635 1459.2719 4605.5454 10449744
-2254.0813 1455.0807 4592.3179 10186316
-2241.4033 1464.577 4622.2891 10186829
-2205.1057 1458.6841 4603.6904 10121036
-2175.585 1457.1823 4598.9507 10055242
-2135.7043 1448.6155 4571.9136 10318158
-2118.9321 1455.7041 4594.2856 10186829
-2080.0015 1447.5564 4568.5708 10186572
-2051.0369 1446.2207 4564.3555 10186572
-2019.2539 1442.8357 4553.6724 9923400
-1974.4388 1429.921 4512.9126 10186828
-1957.7587 1437.3071 4536.2236 10055243
-1943.928 1447.02 4566.8779 10121035
-1906.4974 1439.1918 4542.1719 9857863
-1871.3428 1432.8822 4522.2583 10054986
-1842.4592 1431.2606 4517.1406 10054986
-1794.7054 1414.7164 4464.9263 9726021
-1784.6433 1427.8331 4506.3232 9988936
-1748.7711 1420.3846 4482.8154 9988936
-1715.7113 1415.0261 4465.9033 9989192
-1696.4303 1421.0415 4484.8882 9989191
-1665.3621 1417.2175 4472.8198 10054727
-1644.8119 1422.3655 4489.0669 9791811
-1617.6145 1421.8401 4487.4087 9923397
-1583.3882 1415.0155 4465.8701 9725762
-1563.5737 1421.0573 4484.938 9989191
-1538.4652 1422.4131 4489.2173 9989192
-1500.7874 1411.9911 4456.3247 9265724
-1477.6212 1415.0934 4466.1157 9397567
-1446.9945 1411.0337 4453.3032 8871222
-1414.1113 1404.5819 4432.9409 9265724
-1381.0516 1397.7073 4411.2441 9397313
-1358.2701 1401.17 4422.1729 9397312
-1320.17 1388.6559 4382.6777 9002298
-1290.2596 1384.427 4369.3311 8476211
-1254.7543 1373.8987 4336.103 8870712
-1223.6252 1367.8221 4316.9253 8542004
-1197.1547 1366.8049 4313.7144 8344624
-1166.7937 1361.2046 4296.0396 9067835
-1138.3661 1357.6603 4284.8535 8805176
-1129.2623 1377.5262 4347.5518 9660486
-1079.261 1347.2665 4252.0503 8475955
-1053.4568 1346.488 4249.5933 8344625
-1024.7848 1341.916 4235.1641 8477239
-1002.5632 1345.7732 4247.3374 8411189
-974.65234 1341.9955 4235.4146 8674361
-943.74908 1333.7889 4209.5142 8213810
-913.91107 1326.6831 4187.0879 8345143
-887.32526 1324.0337 4178.7261 7884591
-868.09772 1332.5269 4205.5312 7292197
-851.41779 1345.5482 4246.6274 7621419
-818.26007 1332.5289 4205.5376 7621418
-789.76263 1326.5193 4186.5708 6897695
-750.11499 1300.7841 4105.3491 6437148
-720.36786 1291.0679 4074.6843 7884594
-694.9657 1288.7351 4067.3218 7291173
-668.53949 1284.2673 4053.2214 7160870
-636.47559 1268.2332 4002.6165 7160613
-614.60443 1272.0537 4014.6746 6700319
-587.83624 1265.6385 3994.4277 7489836
-572.44427 1284.2059 4053.0276 6766114
-540.0498 1264.5865 3991.1074 6568735
-514.52954 1260.0039 3976.6443 6107670
-487.36172 1250.7531 3947.4482 5712658
-459.52887 1238.7769 3909.6506 6173466
-429.83099 1220.2344 3851.1296 6239258
-411.13306 1232.5909 3890.1274 6305051
-382.85764 1215.9963 3837.7539 6304794
-361.10172 1219.3198 3848.2434 6173208
-336.14316 1211.5486 3823.7166 5778193
-309.38525 1195.6997 3773.697 6107415
-287.59146 1198.0612 3781.1497 5646864
-261.41269 1181.0112 3727.3391 5712658
-238.66092 1177.7258 3716.9702 5778194
-216.65956 1177.8519 3717.3679 5449486
-194.77425 1178.7087 3720.0723 6304794
-170.22456 1161.6028 3666.0847 5449743
-147.70155 1155.345 3646.335 5515792
-125.18535 1147.0052 3620.0144 6897962
-103.2409 1141.5387 3602.7615 6371615
-82.201462 1145.8372 3616.3279 6370845
-61.247238 1154.7734 3644.5312 6699810
-39.390594 1147.1627 3620.5115 5976344
-17.75211 1135.2996 3583.0703 5976087
3.4699273 1132.332 3573.7048 5844758
24.340406 1118.3118 3529.4561 6700067
45.100342 1114.5182 3517.4834 5844757
65.574509 1108.293 3497.8359 5910550
85.648315 1099.9161 3471.3984 5910550
106.0685 1098.3707 3466.521 5317643
125.31911 1087.1803 3431.2031 6239002
