# .PCD v0.7 - Point Cloud Data file format
VERSION 0.7
FIELDS x y z rgb
SIZE 4 4 4 4
TYPE F F F U
COUNT 1 1 1 1
WIDTH 1291
HEIGHT 1
VIEWPOINT 0 0 0 1 0 0 0
POINTS 1291
DATA ascii
1048.4646 1108.1215 3042.1648 9262893
1078.3666 1120.4611 3076.041 9855286
1085.2612 1108.8822 3044.2532 9394736
1113.3651 1118.9985 3072.0261 9460529
1132.4784 1119.8987 3074.4973 8604963
1116.088 1086.2169 2982.0295 8999978
1153.5272 1105.1573 3034.0276 9197354
1180.5769 1113.7156 3057.5225 8933926
1194.62 1109.9304 3047.1311 9197097
1219.9442 1116.5833 3065.3953 9197355
1233.5167 1112.4427 3054.0283 9328940
1248.3552 1109.5472 3046.0789 9197097
1269.6757 1112.4132 3053.9473 9065511
1286.7974 1111.5717 3051.6367 9262891
1302.3503 1109.4171 3045.7219 9065512
1331.5918 1118.8229 3071.5437 9262891
1338.3951 1109.3762 3045.6094 9197097
1352.08 1105.809 3035.8164 9460270
1370.5336 1106.1843 3036.8469 9328429
1387.8066 1105.6096 3035.269 9262380
1411.895 1110.4097 3048.4468 9722931
1425.9764 1107.3176 3039.958 9789237
1454.5692 1115.4308 3062.2312 9526065
1480.2291 1121.1224 3077.8569 9592115
1481.3567 1108.3212 3042.7131 9263151
1503.9232 1111.6749 3051.9204 9657652
1511.8583 1104.2623 3031.5701 9131309
1533.0009 1106.5571 3037.8704 9065772
1553.631 1108.4332 3043.0208 9394737
1576.163 1111.6075 3051.7354 8802600
1588.4044 1107.5345 3040.5537 8999979
1615.9861 1114.1292 3058.6582 9131309
1634.8188 1114.6127 3059.9854 9328945
1652.4269 1114.2595 3059.0159 9394225
1681.0442 1121.2572 3078.2271 8933673
1710.2125 1128.4685 3098.0242 8604709
1718.2578 1121.7365 3079.5427 8407073
1729.5579 1117.2488 3067.2222 8275743
1752.0048 1119.9799 3074.7202 8670243
1770.5634 1120.1947 3075.3098 9394479
1795.2357 1124.2339 3086.3989 9526321
1818.6254 1127.3965 3095.0811 9460531
1836.9651 1127.3965 3095.0811 9394735
1853.4203 1126.2513 3091.9375 9394736
1868.3141 1124.1892 3086.2764 9394736
1895.533 1129.5114 3100.8872 9592114
1916.665 1131.139 3105.3557 9723444
1958.0798 1144.5919 3142.2886 9986872
1971.2399 1141.4308 3133.6101 8999721
1977.1171 1134.1509 3113.6245 9328687
2003.969 1138.9264 3126.7346 8671013
2034.1787 1145.5051 3144.7954 8670757
2041.5016 1139.1932 3127.4673 10512961
2036.2222 1126.0259 3091.3184 9394736
2086.8408 1143.7291 3139.9197 9723701
2098.3987 1139.9008 3129.4099 11368271
2116.0193 1139.4041 3128.0461 9328433
2127.6287 1135.7074 3117.8975 9394482
2154.6042 1140.2059 3130.2476 8999724
2204.1567 1156.4733 3174.907 9065772
2232.9207 1161.6504 3189.1199 9657910
2243.4585 1157.3383 3177.2815 9657910
2265.0188 1158.7367 3181.1206 9065516
2282.8508 1158.2205 3179.7034 8933930
2299.9385 1157.3381 3177.2812 9131309
2313.208 1154.5645 3169.6665 9131566
2316.0566 1146.6761 3148.0103 9131566
2326.3208 1142.5559 3136.699 9131566
2354.668 1147.3119 3149.7559 9789753
2372.1072 1146.72 3148.1309 9000236
2396.6772 1149.5576 3155.9211 9526324
2407.895 1145.9967 3146.145 9197359
2435.9175 1150.4268 3158.3069 9197616
2464.9446 1155.2601 3171.5764 9657910
2480.55 1153.7776 3167.5061 9460788
2499.9451 1154.0668 3168.3 9460531
2525.4172 1157.136 3176.7263 9394738
2540.3833 1155.3817 3171.9102 9001007
2582.2188 1165.7837 3200.467 9002036
2631.3044 1179.2834 3237.5283 8345656
2651.7542 1179.8468 3239.075 8087374
2670.8586 1179.8077 3238.9678 7823950
2681.6929 1176.1421 3228.9043 7365716
2704.2195 1177.6201 3232.9622 7168852
2704.896 1169.6292 3211.0242 7037525
2719.3826 1167.6797 3205.6721 7234133
2735.9939 1166.6635 3202.8821 7759959
2751.1069 1165.0265 3198.3882 7889744
2739.9705 1152.3719 3163.6475 7690562
2771.1033 1157.5463 3177.8525 8346429
2781.4758 1154.0374 3168.2192 7950382
2779.2393 1145.3788 3144.4487 8475180
2812.8318 1151.5033 3161.2625 9197618
2834.0928 1152.5317 3164.0859 9921084
2874.0374 1161.095 3187.5947 8671272
2863.3645 1149.2305 3155.0229 9000237
2881.4153 1148.9738 3154.3181 8868651
2899.2908 1148.6508 3153.4314 9131567
2922.803 1150.5509 3158.6479 9066030
2930.8059 1146.3605 3147.1438 8934188
0 0 0 0
0 0 0 0
3013.7847 1156.7366 3175.6299 8474408
3038.4424 1158.9646 3181.7463 8605997
0 0 0 0
0 0 0 0
0 0 0 0
0 0 0 0
0 0 0 0
0 0 0 0
0 0 0 0
0 0 0 0
-2240.3879 934.11725 2523.416 1280
-2291.8904 962.01135 2598.7688 1280
-2267.7651 958.32373 2588.8071 1280
-2093.4043 890.6662 2406.0376 1280
-2402.5864 1029.2209 2780.3284 1280
-2385.397 1028.9126 2779.4954 1280
-2243.6768 974.51154 2632.5369 1280
-2349.3987 1027.5747 2775.8811 1280
-2219.9653 977.80914 2641.4448 1280
-2317.7231 1028.1162 2777.344 1280
-2200.7087 983.19098 2655.9834 1280
-2122.5142 955.08679 2580.063 1024
-2276.0305 1031.5962 2786.7449 1024
-2262.5149 1032.9645 2790.4412 1024
-2025.1296 931.39148 2516.0527 1024
-2137.623 990.42041 2675.5129 1024
-2225.4126 1038.7999 2806.2048 1024
-2204.9465 1036.9948 2801.3286 1024
-2195.1614 1040.2236 2810.0508 768
-2172.1025 1037.1638 2801.7849 768
-1987.8206 956.48102 2583.8293 512
-1975.8192 958.08551 2588.1636 512
-2134.0447 1042.9047 2817.2935 512
-2123.0273 1045.7006 2824.8462 256
-2104.6729 1044.8982 2822.6787 65536
-2089.9231 1045.887 2825.3499 0
-2077.5957 1048.1136 2831.365 459776
-2059.4421 1047.4136 2829.4736 1116417
-2025.731 1038.7246 2806.0012 1247747
-2009.1042 1038.7246 2806.0012 1313539
-2003.951 1044.7059 2822.1592 1444867
-1980.5044 1041.1709 2812.6099 1444867
-1970.9856 1044.9601 2822.8459 1510660
-1957.1079 1046.4834 2826.9609 1576453
-1932.2253 1042.0977 2815.1135 1510660
-1932.7047 1051.4331 2840.3323 1576453
-1917.467 1052.307 2842.6929 1443841
-1895.1715 1049.2888 2834.5396 1444097
-1869.8007 1044.4987 2821.5994 1575170
-1853.0575 1044.4851 2821.5627 1574657
-1821.4622 1036.0237 2798.7051 1706499
-1803.5536 1035.2629 2796.6501 1509377
-1805.2163 1045.8267 2825.1868 1509377
-1761.6166 1030.1204 2782.7578 1377792
-1753.9583 1035.333 2796.8394 1706499
-1749.3036 1042.4348 2816.0242 1640963
-1723.7445 1037.0963 2801.603 1640963
-1706.9225 1036.9618 2801.2395 1377792
-1684.1067 1033.1478 2790.9363 1640963
-1662.2322 1029.8411 2782.0037 1509378
-1674.4932 1047.8289 2830.5955 1509377
-1617.318 1022.2906 2761.6069 1443328
-1618.6069 1033.5627 2792.0574 1443584
-1608.9294 1037.9928 2804.0244 1640449
-1576.5664 1027.7268 2776.2922 1706242
-1573.7009 1036.676 2800.4675 1837828
-1545.2622 1028.7903 2779.1648 1837828
-1529.5809 1029.3193 2780.5942 1706242
-1520.9462 1034.6537 2795.0042 1837570
-1510.527 1038.8781 2806.416 1772034
-1492.9042 1038.1871 2804.5493 1903620
-1463.5103 1029.2026 2780.2788 1772034
-1451.9785 1032.7179 2789.7749 1640448
-1427.3718 1026.9076 2774.0791 1772034
-1414.391 1029.4236 2780.8755 1705984
-1397.395 1029.0419 2779.8447 1969413
-1384.1571 1031.4517 2786.3545 1771777
-1364.22 1028.8671 2779.3726 1837827
-1349.6234 1030.2965 2783.2339 1772290
-1328.3983 1026.6384 2773.3518 2034436
-1318.5378 1031.7817 2787.2461 1968900
-1307.1578 1035.8514 2798.2397 2100743
-1291.3352 1036.4597 2799.8833 1969413
-1278.8314 1039.7825 2808.8594 1837571
-1264.8224 1041.953 2814.7224 1705985
-1258.9548 1050.9778 2839.1021 1508608
-1252.7144 1059.9315 2863.2898 1706240
-1232.0872 1056.7914 2854.8069 1772035
-1217.6271 1058.9271 2860.5764 1640448
-1195.277 1054.1646 2847.7109 1640448
-1181.7578 1057.1656 2855.8179 1772034
-1161.1913 1053.8578 2846.8821 1837827
-1146.8306 1056.1677 2853.1221 1903620
-1126.865 1053.3079 2845.3962 1837827
-1107.4125 1050.8479 2838.751 1903107
-1089.8545 1050.1373 2836.8318 1902850
-1071.5461 1048.6705 2832.8691 2034693
-1053.4865 1047.4039 2829.4478 2034693
-1038.4219 1049.1227 2834.0906 2034693
-1020.3809 1047.8411 2830.6287 2034693
-1003.6469 1047.8816 2830.7378 1837315
-989.59509 1050.7712 2838.5439 1903107
-974.27936 1052.3954 2842.9316 2100229
-957.61267 1052.592 2843.4629 2231815
-938.86981 1050.4727 2837.7375 1771264
-919.44086 1047.4944 2829.6921 1902594
-911.69208 1057.9595 2857.9624 2166022
-886.01715 1047.6249 2830.0447 1968643
-870.27966 1048.8683 2833.4036 1771264
-853.81238 1049.2638 2834.4719 1837057
-837.18268 1049.4714 2835.0327 1902850
-821.86829 1051.3702 2840.1621 2034178
-803.40613 1049.2375 2834.4009 1968642
-786.44354 1049.0139 2833.7969 1902593
-771.72192 1051.8348 2841.4175 1705472
-752.37695 1048.3397 2831.9756 1836800
-737.23157 1050.6702 2838.271 1837057
-717.93054 1047.0487 2828.488 1837057
-697.69647 1041.8608 2814.4736 1968643
-682.44287 1044.0382 2820.3557 2034435
-668.30139 1048.0691 2831.2446 2034434
-653.19629 1050.7574 2838.5066 1968641
-633.81348 1046.5245 2827.072 2100227
-617.35767 1047.0261 2828.427 1771264
-603.58319 1052.2301 2842.4851 1639680
-584.03778 1047.3835 2829.3926 1837057
-568.75018 1050.1118 2836.7627 1837057
-550.70221 1047.7544 2830.3945 1967872
-537.8606 1055.4657 2851.2256 2099457
-519.05347 1051.5911 2840.7588 2296836
-501.39633 1049.8646 2836.095 2165250
-484.3002 1049.234 2834.3914 2033664
-466.55936 1047.111 2828.6562 2164994
-447.66202 1042.1375 2815.2209 2164993
-433.86884 1049.1211 2834.0864 2362372
-419.34155 1054.8207 2849.4832 2099458
-401.72046 1052.8896 2844.2666 2428165
-384.83255 1052.7953 2844.0117 2362629
-366.25101 1047.8467 2830.6438 2362629
-347.48904 1041.8823 2814.5317 2428422
-336.06204 1058.4178 2859.2004 2362629
-319.73306 1060.4507 2864.6921 2296836
-303.82028 1064.1693 2874.7373 2296836
-286.16721 1061.8721 2868.5317 2560008
-270.04294 1065.3157 2877.8345 2494215
-253.94234 1069.3234 2888.6606 2231043
-237.08347 1070.4865 2891.8027 2296836
-219.33376 1067.4952 2883.7222 2230787
-202.45227 1068.5811 2886.6553 2231043
-185.43198 1069.067 2887.968 2165250
-168.5105 1070.2794 2891.2434 2033665
-151.46791 1070.91 2892.9468 2164737
-134.58691 1072.9899 2898.5652 2296323
-117.85828 1077.0707 2909.5891 2625288
-100.52298 1076.0555 2906.8469 2625288
-83.386742 1077.1923 2909.9177 2230785
-66.163002 1077.4968 2910.7402 2296577
-49.074356 1080.9916 2920.1809 2559749
-31.902996 1085.479 2932.3032 2362370
-14.512513 1084.3276 2929.1931 2690565
2.8441961 1084.3523 2929.2595 2887687
20.309149 1090.1448 2944.9075 2887687
37.779018 1090.7253 2946.4758 2756358
55.238129 1090.7264 2946.4788 2953735
72.543419 1088.4192 2940.2461 2756356
90.594788 1096.0319 2960.8105 2756356
107.58829 1090.4524 2945.7383 2558977
125.15649 1091.4423 2948.4126 2821892
142.33015 1089.1707 2942.2759 2887428
160.34772 1093.1478 2953.0198 2821892
177.31244 1089.871 2944.1677 2953221
195.91301 1096.3356 2961.6311 2624513
213.95766 1098.882 2968.51 2755842
230.07658 1091.9022 2949.655 2953220
250.13937 1103.3037 2980.4546 2755585
266.94241 1099.7715 2970.9128 2689537
285.55319 1103.6632 2981.426 3017985
301.96817 1099.1093 2969.1238 2951681
322.02319 1107.5763 2991.9968 3345664
338.99585 1105.1113 2985.3379 4726024
356.60373 1104.859 2984.6562 6238227
375.03592 1107.0638 2990.6123 8277033
389.85486 1098.885 2968.5181 9066287
413.8067 1116.0439 3014.8711 8736807
427.95648 1106.4402 2988.9277 9460528
447.34143 1110.597 3000.1572 9262893
466.32254 1113.4719 3007.9231 9328942
482.9679 1110.7632 3000.6057 9526578
504.12576 1118.2565 3020.8479 9000491
523.07489 1120.5044 3026.9204 9724213
541.67114 1121.8724 3030.6162 9592371
558.43848 1119.4863 3024.1704 9526834
577.06995 1120.8694 3027.9065 9526578
590.07983 1111.5791 3002.8101 9395249
610.43304 1116.2611 3015.458 9723957
621.67413 1104.4878 2983.6536 9592114
641.08398 1107.4774 2991.7295 9526321
659.57404 1108.7596 2995.1936 9328686
680.19489 1113.4629 3007.8987 9526321
694.65991 1108.1064 2993.4287 9460272
709.06769 1102.9275 2979.4385 9657908
732.11102 1111.1062 3001.5325 9460529
747.82935 1108.0436 2993.259 9855030
766.13129 1108.8623 2995.4707 9131307
785.63391 1111.3425 3002.1707 9526065
799.97229 1106.5693 2989.2764 9723701
817.35681 1106.1251 2988.0767 9394735
841.23297 1114.2987 3010.1567 9394736
854.43604 1108.2889 2993.9219 9197356
872.17627 1108.2889 2993.9219 9394735
895.58685 1115.3508 3012.9988 9263148
914.01819 1116.0566 3014.9055 9526321
919.46307 1101.1824 2974.7244 9460528
936.33051 1100.2905 2972.3149 9263150
958.88007 1105.9854 2987.699 9197356
979.00958 1108.733 2995.1216 10052409
996.08972 1107.991 2993.1169 10052409
1011.4023 1105.343 2985.9639 9394736
1034.4006 1111.0414 3001.3574 9526321
1045.869 1104.3723 2983.3416 9394735
1063.8131 1104.649 2984.0894 9591858
1091.3912 1114.7572 3011.3953 9131307
1093.1967 1098.6392 2967.854 9328942
1111.9965 1099.8398 2971.0977 9263149
1129.8993 1100.1299 2971.8811 9526319
1152.6647 1105.0729 2985.2339 8407582
1168.1205 1102.9645 2979.5386 8868133
1181.8424 1099.306 2969.6555 9131563
1199.8961 1099.7252 2970.7881 9657393
1221.3464 1103.2003 2980.1755 9328427
1244.8788 1108.4301 2994.3032 8736547
1256.6095 1103.1525 2980.0464 8867876
1279.3239 1107.5299 2991.8713 9262891
1295.3887 1106.1097 2988.0349 9197097
1317.0295 1109.4249 2996.9907 8933672
1327.5991 1103.4498 2980.8496 9525552
1349.3866 1106.8331 2989.9893 9262636
1363.7747 1104.1382 2982.709 9328686
1378.0272 1101.4037 2975.322 9657651
1400.5363 1105.254 2985.7234 9920310
1424.4586 1110.1099 2998.8408 9328173
1440.8486 1109.0481 2995.9727 9262639
1463.0107 1112.401 3005.0303 9526067
1468.6245 1103.2422 2980.2886 9460273
1484.051 1101.5847 2975.8113 9592117
1506.7944 1105.3336 2985.9385 9394738
1536.0569 1113.7223 3008.5994 8934186
1546.0232 1108.088 2993.3792 9197359
1564.2692 1108.4487 2994.3535 10052411
1567.0765 1097.9843 2966.0847 9394737
1601.2072 1109.4552 2997.0725 9394738
1624.1534 1113.0101 3006.6755 9460531
1633.488 1107.2611 2991.1453 9723702
1652.8947 1108.3895 2994.1936 9657910
1674.1407 1110.7145 3000.4744 9525811
1706.8586 1120.5216 3026.967 8736807
1716.2206 1114.9514 3011.9199 8999723
1733.3792 1114.5089 3010.7246 8802600
1757.948 1118.7914 3022.293 8934187
1775.1581 1118.3516 3021.105 8868393
1792.3676 1117.92 3019.9392 9328686
1797.3997 1109.9769 2998.4819 9328686
1831.9923 1120.2657 3026.2761 9065770
1856.6709 1124.3514 3037.313 8999978
1871.6501 1122.5413 3032.4231 9394479
1896.6299 1126.7065 3043.675 9394479
1930.6599 1136.1189 3069.1016 9394736
1945.4841 1134.1593 3063.8079 9526066
1976.8412 1141.785 3084.4077 9328687
1992.9639 1140.5524 3081.0781 9065772
2016.1399 1143.3423 3088.6145 8144670
2030.0402 1140.8689 3081.9331 9263151
2024.6199 1127.6785 3046.3005 9591859
2044.7576 1128.8307 3049.4131 9920825
2078.2046 1137.246 3072.146 9262895
2087.2114 1132.257 3058.6687 9197102
2103.0081 1131.0052 3055.2876 9263151
2150.1702 1146.4995 3097.1438 9262895
2185.7524 1155.6094 3121.7529 9197102
2210.8923 1159.0916 3131.1597 9460274
2205.7466 1146.7705 3097.8755 9657910
2236.5974 1153.2128 3115.2788 8999979
2261.2021 1156.3556 3123.7686 9131309
2249.334 1140.9468 3082.1433 9197359
2277.343 1145.8506 3095.3904 9263152
2283.2312 1139.6346 3078.5989 9197616
2300.4868 1139.1464 3077.2798 9131822
2314.5835 1137.1138 3071.7888 9197616
2340.679 1140.9615 3082.1833 9394994
2363.9661 1143.3915 3088.7476 8999980
2387.1101 1145.7153 3095.0254 10052924
2387.5708 1137.1998 3072.0215 9921338
2416.7021 1142.3657 3085.9766 9526580
2442.1184 1145.7109 3095.0134 9329201
2458.8354 1144.9556 3092.9729 9460530
2493.864 1152.675 3113.8262 9066802
2511.7156 1152.4003 3113.0837 9198388
2576.7253 1173.6083 3170.375 8410160
2631.8127 1190.0227 3214.7168 7163697
2653.1602 1191.0548 3217.5049 6311223
2675.3657 1192.4546 3221.2861 7300183
2661.9866 1178.0862 3182.4717 7038553
2679.6714 1177.5709 3181.0796 7038299
2680.7129 1169.8 3160.0874 6840665
2681.5791 1162.061 3139.1814 6972251
2701.7224 1162.7249 3140.9746 7038044
2714.7 1160.3168 3134.4695 6972251
2711.2278 1150.9581 3109.1882 6840664
2726.9121 1149.8033 3106.0686 6840406
2763.6389 1157.4772 3126.7986 7167824
2759.6086 1148.0923 3101.4463 7428419
2771.55 1145.4325 3094.2612 8740669
2805.0161 1151.6449 3111.0432 8935730
2813.8647 1147.735 3100.4812 8277027
2817.8735 1141.9146 3084.7581 8539945
2824.0737 1137.0516 3071.6213 8671272
2846.4172 1138.7091 3076.0984 8934444
2846.6643 1131.5619 3056.7913 9065774
2891.644 1142.1741 3085.459 8671530
2969.0391 1165.3763 3148.1372 8540714
3034.0261 1183.449 3196.9585 8999982
3036.7166 1177.1488 3179.9392 8673077
0 0 0 0
0 0 0 0
0 0 0 0
0 0 0 0
0 0 0 0
0 0 0 0
0 0 0 0
0 0 0 0
-2430.6863 1029.6835 2737.7549 1280
-2414.4639 1029.6835 2737.7549 1280
-2394.4319 1028.0477 2733.4058 1280
-2381.4314 1029.4293 2737.0791 1280
-2369.2461 1031.1846 2741.7461 1280
-2354.4709 1031.8291 2743.46 1280
-2332.3804 1029.2544 2736.614 1024
-2167.394 963.14374 2560.8372 1280
-2305.4436 1031.7131 2743.1516 1024
-2075.1589 935.25195 2486.6775 1024
-2272.1555 1031.3593 2742.2107 1024
-2263.0952 1034.6458 2750.949 1024
-2130.1206 980.91748 2608.0945 1024
-2228.6782 1033.8033 2748.709 1024
-2010.7543 939.58276 2498.1924 768
-2211.4973 1041.0497 2767.9761 768
-1954.967 927.16583 2465.1777 768
-2160.1235 1032.1759 2744.3818 768
-2145.8132 1033.1155 2746.8799 512
-2145.2666 1040.7465 2767.1697 256
-2130.1108 1041.353 2768.7825 512
-2120.2651 1044.5852 2777.3762 256
-2112.9114 1049.1052 2789.394 65792
-2095.7776 1048.8022 2788.5884 459520
-2072.1116 1045.1993 2779.009 853248
-2052.802 1043.7539 2775.166 1181696
-2025.715 1038.2988 2760.6616 1379074
-2009.7028 1038.4774 2761.1365 1247488
-2010.314 1047.3195 2784.646 1509890
-1978.5736 1039.314 2763.3608 1509633
-1973.5609 1045.3317 2779.3608 1575683
-1961.7527 1047.821 2785.9797 1641476
-1941.2065 1045.6459 2780.1963 1509890
-1924.1099 1045.3075 2779.2966 1444097
-1918.9767 1051.5187 2795.8113 1444097
-1898.1379 1049.1572 2789.5325 1641477
-1880.736 1048.6704 2788.2383 1904135
-1851.0492 1041.2646 2768.5474 1575170
-1819.2255 1032.5135 2745.2798 1706499
-1803.3204 1032.7207 2745.8306 1837828
-1791.1023 1035.0623 2752.0564 1838342
-1770.7446 1032.7 2745.7754 1640963
-1751.5861 1030.9996 2741.2546 1509377
-1736.72 1031.8177 2743.4297 1640963
-1742.0525 1044.765 2777.8545 1706756
-1718.5076 1040.4755 2766.449 1772549
-1695.0466 1036.1544 2754.9602 1575170
-1677.8811 1035.6353 2753.5798 1640963
-1674.6334 1043.7806 2775.2371 1640963
-1630.6992 1026.4764 2729.2283 1443584
-1613.7317 1025.9706 2727.8831 1443840
-1593.1229 1023.1161 2720.2935 1575170
-1576.2321 1022.6152 2718.9614 1377792
-1560.1403 1022.6276 2718.9949 1443072
-1566.8943 1037.7716 2759.26 1443072
-1565.2415 1047.6083 2785.4138 1508864
-1512.2985 1022.9603 2719.8792 1574656
-1498.0767 1024.2556 2723.3232 1772035
-1522.425 1052.2373 2797.7219 1574656
-1493.5498 1043.6442 2774.874 1837570
-1478.6743 1044.7512 2777.8174 1837827
-1451.4993 1037.095 2757.4609 1903620
-1415.9659 1023.2246 2720.582 1903620
-1400.8445 1023.9548 2722.5234 1837827
-1385.5348 1024.563 2724.1404 1640449
-1380.2321 1032.6724 2745.7021 1772035
-1351.4612 1023.2074 2720.5364 1969413
-1342.7899 1028.9153 2735.7126 1640448
-1330.6583 1032.0786 2744.1233 1969413
-1321.4193 1037.5916 2758.7815 1968900
-1294.6654 1029.3176 2736.7822 1969157
-1294.5889 1042.3124 2771.3333 1706241
-1279.3788 1043.3 2773.9592 1377280
-1262.9204 1043.2822 2773.9119 1311488
-1262.3646 1056.5742 2809.2529 1574400
-1250.1758 1060.3545 2819.3042 1969414
-1227.0326 1054.8203 2804.5898 1706242
-1205.9647 1050.9427 2794.2798 1837827
-1195.842 1056.6283 2809.3967 1574656
-1170.0741 1048.4553 2787.666 1706241
-1159.4312 1053.7949 2801.8633 1772034
-1136.875 1048.3048 2787.2661 1837827
-1119.5055 1047.5059 2785.1418 1706241
-1103.4678 1047.9479 2786.3171 1706241
-1083.2516 1044.3748 2776.8167 1771521
-1069.545 1047.0641 2783.9673 1968900
-1053.9653 1047.9755 2786.3904 2100486
-1038.1471 1048.6747 2788.2495 2034693
-1021.624 1048.6731 2788.2451 2034693
-1006.7151 1050.3555 2792.7185 1903107
-986.9259 1046.9174 2783.5769 1903107
-971.77789 1048.3691 2787.4373 1903107
-955.87134 1049.0387 2789.2175 1837057
-940.69293 1050.545 2793.2227 1902594
-919.46179 1045.2247 2779.0767 1968643
-901.88733 1043.9431 2775.6689 1968643
-884.17322 1042.4491 2771.6965 1771265
-873.05682 1048.8245 2788.6477 1771264
-854.10681 1045.8538 2780.749 1771265
-840.71393 1049.7046 2790.9878 1771265
-823.21771 1048.4838 2787.7419 1771264
-806.29321 1047.9561 2786.3386 1968643
-789.72144 1047.8743 2786.1213 1968643
-771.49463 1045.5461 2779.9312 1771265
-757.60046 1049.1162 2789.4233 1705472
-737.92792 1044.6652 2777.5889 1837057
-722.61627 1046.3257 2782.0037 1968640
-707.59741 1048.4973 2787.7778 1968641
-688.03601 1043.881 2775.5037 2034434
-672.25836 1044.9198 2778.2656 1705216
-654.08917 1042.2002 2771.0349 1837056
-641.93439 1049.1704 2789.5674 1837056
-622.35541 1044.0543 2775.9646 1837056
-605.3772 1043.1417 2773.5383 1771264
-589.18195 1043.5652 2774.6643 1902592
-576.26349 1049.9835 2791.7295 1902848
-558.09277 1046.9286 2783.6067 1771264
-543.12543 1049.8795 2791.4529 2231043
-526.97845 1050.6641 2793.5388 2231043
-510.3024 1050.4105 2792.8645 2164994
-492.94754 1048.6957 2788.3054 2165250
-475.86276 1047.4565 2785.0107 1967872
-463.28436 1056.4041 2808.8005 2033664
-445.23398 1053.0759 2799.9517 2099458
-425.64709 1045.7153 2780.3811 1902080
-410.54742 1049.23 2789.7258 2164995
-394.13257 1049.5374 2790.543 2231043
-378.11716 1050.9816 2794.3833 2428422
-362.72867 1054.3807 2803.4209 2296579
-346.39334 1055.2217 2805.657 2231043
-330.56067 1057.756 2812.395 2164994
-315.24374 1062.2972 2824.4695 2165250
-297.92389 1060.2198 2818.946 2296836
-281.12299 1059.8522 2817.9688 2494215
-265.55188 1064.3673 2829.9734 2231043
-248.32698 1062.4156 2824.7844 2231043
-232.86296 1068.26 2840.3235 2296579
-215.98218 1068.0092 2839.6567 2428165
-198.56885 1064.86 2831.2834 2296836
-181.735 1064.5242 2830.3904 2296836
-166.09148 1071.801 2849.7385 2296836
-149.62431 1074.8087 2857.7354 2296066
-132.72147 1075.0548 2858.3896 2493445
-115.84569 1075.6241 2859.9036 2296323
-98.785957 1074.3882 2856.6172 2493702
-82.170654 1078.4739 2867.4802 2230785
-65.025253 1075.9187 2860.6865 2230784
-48.328369 1081.5995 2875.791 2230785
-31.284859 1081.4857 2875.4883 2231040
-14.2415 1081.111 2874.4919 2295808
2.7994764 1084.387 2883.2021 2558979
19.975031 1089.3728 2896.459 2756358
37.103916 1088.3815 2893.823 2887944
54.492603 1093.2288 2906.7114 2756356
71.82225 1094.848 2911.0166 2690562
89.198555 1096.4136 2915.179 2558720
106.02275 1091.7856 2902.8743 2558978
123.50774 1094.3046 2909.5715 2953478
139.61336 1085.4819 2886.1138 3282443
157.63876 1091.8822 2903.1309 2756099
174.58984 1090.3137 2898.9607 2887685
192.98079 1097.2128 2917.3042 2821379
210.10638 1096.3749 2915.0762 2558465
227.63809 1097.6222 2918.3928 2755841
244.65233 1096.3745 2915.0754 3019013
262.39484 1098.34 2920.301 3150341
281.38049 1104.9437 2937.8594 2952450
298.30847 1103.1685 2933.1394 3215621
315.00388 1100.7762 2926.7786 3083266
332.12363 1100.0389 2924.8184 3740935
349.37778 1099.798 2924.1775 4857354
368.41422 1104.9249 2937.8093 6237972
385.22754 1103.2228 2933.2837 7618590
400.9816 1098.765 2921.4312 7881501
422.83133 1110.6882 2953.1328 8539429
441.28934 1113.1084 2959.5679 8933928
458.95276 1113.416 2960.3857 9394736
474.67062 1109.1549 2949.0562 9263663
496.73285 1119.4945 2976.5476 9329456
515.73975 1122.4756 2984.4736 9263663
529.09589 1113.368 2960.2583 9263662
545.21216 1110.4668 2952.5444 9329456
563.41559 1111.8649 2956.2615 9263150
575.54053 1101.5448 2928.822 9460785
592.34265 1100.5186 2926.0935 9394992
613.3775 1107.1912 2943.835 9657907
632.17236 1109.5631 2950.1416 9920823
646.94714 1104.9415 2937.8535 9723444
664.42505 1105.0579 2938.1628 9131564
683.427 1107.6384 2945.0239 9394480
699.659 1105.7128 2939.9041 9131565
715.15692 1102.7487 2932.0232 9394992
732.17175 1102.209 2930.5881 9657907
751.71021 1105.4052 2939.0862 9394735
769.44708 1105.8676 2940.3154 9855030
787.12396 1106.2249 2941.2656 9526066
806.76019 1109.2609 2949.3379 9460272
821.86707 1106.0725 2940.8606 9263151
835.43628 1100.9901 2927.3472 9328689
853.16785 1101.4882 2928.6716 9263152
883.79681 1118.2859 2973.3337 9263152
894.34778 1109.5183 2950.0225 9657909
906.47302 1103.0024 2932.698 9197102
934.2066 1115.3668 2965.5728 9131566
941.6687 1103.5192 2934.0715 9065772
955.45667 1099.3795 2923.0652 8605222
971.97046 1098.4681 2920.6418 8934187
992.61615 1102.1764 2930.5017 8933930
1014.5881 1107.2046 2943.8706 9197357
1029.8486 1104.8625 2937.6436 9460272
1041.0115 1098.2753 2920.1289 9394479
1061.2394 1101.3105 2928.1992 9197356
1078.9886 1101.7174 2929.2812 9328686
1091.0795 1096.4254 2915.2104 10118458
1116.0366 1104.026 2935.4192 9197356
1129.3685 1100.0697 2924.9001 9065514
1149.9485 1103.1864 2933.187 9526322
1161.1958 1097.3903 2917.7761 9197357
1180.8145 1099.5597 2923.5442 9065257
1200.5559 1101.7791 2929.4451 9328428
1219.7543 1103.4438 2933.8713 9131050
1234.6628 1101.2356 2928 9065255
1250.4874 1099.8943 2924.4336 9460270
1277.7828 1108.541 2947.4241 9657392
1287.0625 1101.5359 2928.7986 9591600
1304.4672 1101.5785 2928.9116 9657395
1329.6986 1108.1426 2946.3645 9525553
1339.297 1101.677 2929.1738 9262380
1361.5239 1105.6321 2939.6895 9788981
1384.4967 1110.0853 2951.5298 9196843
1399.4369 1108.067 2946.1638 9394222
1421.8881 1111.9725 2956.5479 9393966
1436.5588 1109.7726 2950.6982 9328174
1460.2301 1114.4946 2963.2537 9525553
1474.7986 1112.2397 2957.2583 8802342
1489.3041 1109.9908 2951.2788 8998952
1505.8361 1109.287 2949.4072 9065257
1533.2451 1116.5199 2968.6384 8539170
1544.8351 1112.2 2957.1523 9460272
1537.1581 1094.2614 2909.4565 9591858
1581.1353 1113.0839 2959.5024 9262893
1597.5826 1112.3257 2957.4868 9328942
1615.021 1112.2665 2957.3293 9526321
1634.6472 1113.6992 2961.1387 9657907
1655.8033 1116.1327 2967.6089 9065516
1659.8542 1107.1062 2943.6089 9328944
1664.8903 1098.9175 2921.8367 8671015
1698.3916 1109.4927 2949.9541 9526324
1712.3167 1107.1942 2943.843 9657653
1739.6624 1113.5326 2960.6956 9592117
1750.5403 1109.3087 2949.4651 9394735
1765.0393 1107.4404 2944.4976 9394479
1787.1217 1110.3201 2952.1541 9328686
1798.0953 1106.3091 2941.4895 9263150
1838.8345 1120.5131 2979.2556 9460528
1862.6193 1124.2137 2989.0952 9460271
1875.3022 1121.2074 2981.1016 9526323
1910.4889 1131.5859 3008.6963 9328689
1918.7733 1125.9856 2993.8062 9460531
1940.0033 1128.0151 2999.2024 9263152
1986.4391 1144.5308 3043.1145 9460530
2001.4994 1142.8341 3038.6035 9263151
2006.4602 1135.4525 3018.9771 9526067
2020.554 1133.324 3013.3176 9460274
2043.8585 1136.3538 3021.3733 9460531
2051.0027 1130.4241 3005.6072 8868394
2069.4146 1130.7532 3006.4824 9394481
2120.134 1148.5793 3053.8792 9789496
2136.2913 1147.5382 3051.1111 9526324
2147.5908 1143.9271 3041.5095 9460274
2155.8181 1138.7532 3027.7529 9526323
2181.0344 1142.5646 3037.887 9262895
2202.8667 1144.5554 3043.1802 9197358
2205.5312 1136.6357 3022.123 8999980
2215.1602 1132.4036 3010.8706 9328944
2237.0024 1134.433 3016.2664 9460787
2252.5532 1133.2649 3013.1606 9460531
2271.563 1133.8418 3014.6943 9723703
2301.166 1139.6558 3030.1531 9197615
2313.4854 1136.8865 3022.7896 9131822
2332.6096 1137.4779 3024.3623 8934187
2345.416 1135.0031 3017.7822 9065773
2357.1677 1132.0592 3009.9548 9000237
2394.429 1141.3186 3034.5742 9197616
2415.5098 1142.7852 3038.4734 9394995
2430.2288 1141.2424 3034.3716 9198387
2453.1482 1143.545 3040.4937 9066804
2482.1677 1148.637 3054.0322 9198137
2538.7422 1166.314 3101.0327 8804662
2609.8999 1190.3885 3165.0427 8542780
2635.8481 1193.6464 3173.7048 7230268
2629.5723 1182.3688 3143.7195 5588534
2636.4326 1177.1149 3129.7502 7036755
2633.7661 1167.7103 3104.7454 6840152
2644.9321 1164.5269 3096.2808 6643542
2666.0059 1165.7192 3099.4512 6512473
2682.8708 1165.0676 3097.7188 6578009
2686.6174 1158.7667 3080.9656 6512473
2700.2563 1156.7887 3075.7065 6577751
2712.0488 1154.0516 3068.429 6577752
2747.949 1161.5411 3088.3423 6839892
2752.7747 1155.8834 3073.2996 7035983
2765.5903 1153.6331 3067.3159 7100482
2769.2344 1147.6112 3051.3049 8542777
2759.5745 1136.1898 3020.9375 8475692
2756.1484 1127.4658 2997.7419 8803630
2598.4424 1056.1459 2808.114 8540457
2765.3083 1116.8175 2969.4299 8539173
2791.8467 1120.4067 2978.9727 8211495
2432.979 970.2536 2579.741 8146220
0 0 0 0
0 0 0 0
0 0 0 0
0 0 0 0
0 0 0 0
0 0 0 0
0 0 0 0
0 0 0 0
0 0 0 0
0 0 0 0
-2398.2446 1031.9463 2701.2148 1024
-2382.9834 1032.2688 2702.0591 1024
-2374.2222 1035.4305 2710.335 1024
-2238.1272 982.72498 2572.3735 1024
-2342.9141 1035.7893 2711.2742 1024
-2329.4233 1036.9354 2714.2742 1024
-2315.9558 1038.1078 2717.343 1024
-1937.6396 874.61133 2289.376 1024
-1944.3607 883.83282 2313.5142 1024
-2267.3669 1037.9774 2717.0017 1024
-2243.7402 1034.5067 2707.917 1024
-2243.1836 1041.6996 2726.7449 1024
-2115.8596 989.70093 2590.6335 768
-2202.1147 1037.5747 2715.9475 768
-1998.2578 948.45428 2482.6667 768
-2110.7209 1009.2639 2641.8413 256
-2159.4968 1040.3019 2723.0862 256
-2142.3743 1039.8228 2721.832 256
-2126.8799 1040.1326 2722.6431 0
-2119.1584 1044.2775 2733.4927 131072
-2110.1895 1047.8667 2742.8879 722944
-2088.2866 1045.0393 2735.4868 853248
-2078.3398 1048.1974 2743.7537 1247744
-2062.1653 1048.2399 2743.8647 1181696
-2036.2811 1043.308 2730.9551 1313281
-2016.5396 1041.4697 2726.1431 1379074
-2011.1278 1047.0621 2740.782 1444867
-1994.3676 1046.7892 2740.0676 1379074
-1977.3285 1046.3644 2738.9553 1575685
-1956.8997 1044.1235 2733.0898 1509634
-1942.5259 1045.1033 2735.6543 1378304
-1922.4727 1043.0181 2730.1963 1378305
-1905.0936 1042.3606 2728.4753 1378304
-1892.5009 1044.3333 2733.6387 1312512
-1884.9275 1049.1334 2746.2039 1575683
-1864.6658 1046.8938 2740.3411 1641476
-1836.189 1039.9619 2722.1963 1574914
-1816.6654 1038.0228 2717.1208 1575170
-1808.9542 1042.859 2729.7798 1640963
-1788.4177 1040.322 2723.1389 1575170
-1778.3846 1043.9042 2732.5156 1706756
-1753.8259 1038.9474 2719.5408 1640963
-1733.2988 1036.3091 2712.6348 1509377
-1720.9927 1038.5826 2718.5859 1969414
-1707.8475 1040.3881 2723.3118 1837828
-1694.2445 1041.9462 2727.3904 1771778
-1679.0767 1042.5626 2729.0042 1443072
-1662.5409 1042.3336 2728.4045 1443073
-1649.6737 1044.4227 2733.873 1508608
-1606.1387 1026.9446 2688.1223 1443328
-1586.7837 1024.7317 2682.3298 1574913
-1575.8676 1027.9789 2690.8296 1443072
-1570.2239 1034.7667 2708.5974 1509120
-1549.5334 1031.6769 2700.5095 1640449
-1531.863 1030.5542 2697.5708 1574656
-1513.7777 1029.1257 2693.8318 1574656
-1530.802 1051.79 2753.1577 1508864
-1488.7224 1033.896 2706.3184 1705986
-1498.8796 1052.2849 2754.4531 1837827
-1458.7424 1035.381 2710.2053 1903620
-1432.6447 1028.1764 2691.3467 1903620
-1418.8945 1029.771 2695.5208 1837827
-1403.4999 1030.1948 2696.6301 1772034
-1390.0673 1032.0851 2701.5781 1969413
-1378.4958 1035.4175 2710.3008 1903620
-1353.8109 1028.8624 2693.1426 1706241
-1339.9873 1030.5039 2697.4392 2035207
-1354.3934 1054.1567 2759.3525 1837827
-1308.7455 1031.075 2698.9341 1837570
-1303.2852 1039.4751 2720.9221 1772034
-1294.556 1045.4459 2736.5513 1574656
-1288.5537 1053.7981 2758.4138 1377024
-1281.5012 1061.495 2778.5613 1508864
-1273.0741 1068.2388 2796.2139 1574656
-1244.1536 1057.7378 2768.7263 1706242
-1235.7203 1064.6062 2786.7053 1903622
-1208.5004 1055.2565 2762.2312 1968900
-1182.4972 1046.7271 2739.9045 1706241
-1166.0116 1046.5021 2739.3159 1969413
-1154.3442 1050.6562 2750.1899 1969413
-1141.3871 1053.7388 2758.2585 2035206
-1123.9286 1052.6947 2755.5256 1772034
-1103.9845 1049.2573 2746.5281 2034949
-1086.4254 1048.0181 2743.2842 2034693
-1068.188 1046.0767 2738.2024 1968900
-1053.9135 1048.0164 2743.2795 1903107
-1039.6514 1050.0292 2748.5483 1968900
-1021.6542 1048.2737 2743.9531 1837314
-1006.9095 1049.8524 2748.0859 1903107
-991.94122 1051.2463 2751.7344 1968643
-972.90668 1048.3054 2744.0364 1837314
-963.31995 1055.6176 2763.1765 1705728
-941.28699 1049.308 2746.6606 1771264
-932.25909 1057.5289 2768.1797 2034436
-911.36896 1052.3473 2754.6162 1771265
-888.58081 1044.745 2734.7166 1837057
-871.92572 1044.2051 2733.3032 1771265
-855.2312 1043.5966 2731.7104 1968643
-841.72809 1046.9342 2740.447 1771264
-825.96851 1047.5413 2742.0361 1705472
-807.65485 1044.8684 2735.0398 1705472
-790.91101 1044.1587 2733.1819 1902850
-779.19373 1050.194 2748.98 1837057
-764.20898 1051.9893 2753.679 1902850
-745.92902 1049.2277 2746.4502 2100229
-727.47614 1046.0941 2738.248 2034437
-714.97827 1051.5762 2752.5979 1902850
-700.5246 1054.3706 2759.9124 2034434
-683.61847 1053.519 2757.6836 2231556
-666.39752 1052.1288 2754.0444 2034434
-648.03192 1048.8162 2745.3733 1968641
-633.71667 1052.0571 2753.8567 1968641
-615.11176 1048.1597 2743.6548 1968641
-598.69275 1047.8766 2742.9138 2100227
-583.15509 1049.1633 2746.2817 1837056
-566.78265 1048.9789 2745.7993 1968641
-551.58868 1051.0292 2751.166 1837056
-535.2135 1050.885 2750.7886 2230786
-518.34796 1049.7388 2747.7883 1902080
-500.01807 1045.4564 2736.5789 2033408
-485.48584 1049.0935 2746.0991 2033665
-470.71432 1052.4478 2754.8792 2033665
-455.47702 1054.9641 2761.4661 2231043
-439.21677 1055.2106 2762.1111 2230787
-422.30438 1053.8486 2758.5461 2033665
-405.85349 1053.575 2757.8298 1967872
-391.74847 1059.6237 2773.6628 2033664
-374.44464 1057.1709 2767.2424 2231043
-357.86209 1056.623 2765.8086 2428165
-342.6012 1060.1124 2774.9421 2428422
-325.74576 1058.7706 2771.4299 2560008
-310.35727 1062.3076 2780.6885 2362629
-292.86273 1058.6284 2771.0576 2296579
-277.34933 1062.0988 2780.1416 2165249
-261.40268 1064.2435 2785.7556 2165251
-245.52353 1066.9708 2792.8945 2362372
-229.64841 1070.111 2801.1143 2428422
-212.74127 1068.5569 2797.0461 2560008
-196.58647 1070.8383 2803.0181 2362629
-180.2184 1072.2717 2806.7705 2231043
-164.37791 1077.4551 2820.3381 2362629
-147.50874 1076.3055 2817.3291 2559238
-130.72101 1075.5328 2815.3064 2427909
-114.2942 1077.9377 2821.6018 2362116
-97.717857 1079.5153 2825.7307 2362116
-80.768318 1076.7694 2818.5435 2362114
-64.183853 1078.728 2823.6704 2427907
-47.536865 1080.6466 2828.6924 2362370
-30.809048 1081.8165 2831.7549 2164736
-14.114071 1088.3176 2848.7717 2230528
2.7777011 1092.9034 2860.7759 2624772
19.683033 1090.36 2854.1182 2690565
36.665409 1092.463 2859.6228 2887944
53.784836 1096.0294 2868.9583 2690564
70.191109 1086.8403 2844.905 2492928
88.068726 1099.5807 2878.2539 2558978
104.90348 1097.2789 2872.229 2558977
121.857 1096.6886 2870.6838 2821892
138.46954 1093.55 2862.4683 2821892
155.92705 1097.0414 2871.6072 2821636
172.24924 1092.6439 2860.0964 2821892
191.1727 1104.0571 2889.9714 2821636
207.15697 1098.0146 2874.155 2887429
224.44521 1099.2771 2877.4592 3084807
240.37146 1094.1613 2864.0681 2821634
257.37912 1094.3181 2864.479 3019269
278.08899 1109.2228 2903.4932 3215622
295.68259 1110.6848 2907.3203 3150085
311.38019 1105.2562 2893.1101 3478795
327.58725 1102.1078 2884.8691 3675400
346.91837 1109.2609 2903.593 3740421
365.75656 1114.2365 2916.6169 4331784
380.23212 1106.0723 2895.2463 4660234
396.48495 1103.5598 2888.6699 4856838
416.30475 1110.7726 2907.5498 5579529
433.27185 1110.1031 2905.7976 6828818
453.50589 1117.5352 2925.2517 8605479
463.73114 1100.6643 2881.0906 8934442
485.66391 1111.7926 2910.22 8737065
504.38922 1115.0669 2918.7905 8802602
519.38531 1110.1531 2905.9282 8736808
536.20544 1109.3284 2903.7693 9066030
555.3587 1113.2317 2913.9868 9131566
573.30701 1114.557 2917.4561 9855289
591.04279 1115.4038 2919.6726 9395248
606.38116 1111.8068 2910.2568 9460272
623.65411 1111.8575 2910.3899 9526064
637.58722 1106.1117 2895.3494 9526065
654.74701 1106.1178 2895.3655 9197356
669.35773 1101.9272 2884.3965 9592114
690.21375 1107.9707 2900.2158 9131563
710.3194 1112.5454 2912.1904 9723444
721.82477 1103.7522 2889.1733 9986616
740.89197 1106.6614 2896.7886 9657907
761.59839 1111.8319 2910.3228 9460529
776.54883 1108.5565 2901.7493 9394735
797.7334 1114.1299 2916.3379 9131822
812.41272 1110.5741 2907.0303 9197357
830.23248 1111.3698 2909.113 9065772
853.16785 1118.8417 2928.6716 9131564
865.68359 1112.6239 2912.3958 9263150
880.81476 1109.9449 2905.3833 9131307
889.77759 1099.7448 2878.6833 8933928
901.05389 1092.7339 2860.3318 8736806
929.24091 1106.1115 2895.3489 9460273
945.45355 1105.0087 2892.4624 9789496
964.71057 1107.4401 2898.8267 9065771
983.78369 1109.579 2904.4255 9263149
997.82098 1106.0623 2895.2202 9065770
1015.1705 1106.2738 2895.7739 9461042
1020.9648 1094.0956 2863.8962 8605478
1044.8007 1101.3331 2882.8411 9066030
1059.9281 1099.3059 2877.5349 9131566
1081.9763 1104.4072 2890.8879 9262894
1102.3352 1107.6521 2899.3816 8933927
1107.5111 1095.7751 2868.2927 8934185
1127.3383 1098.5343 2875.5149 9328686
1147.5557 1101.5857 2883.5022 9197100
1161.3395 1098.4623 2875.3267 9394735
1178.377 1098.4623 2875.3267 9986617
1207.7897 1109.834 2905.093 9657908
1215.4087 1101.1411 2882.3389 9328942
1238.1659 1106.2142 2895.6179 9657138
1257.241 1107.9039 2900.0408 9723185
1277.483 1110.5624 2906.9998 9526064
1293.2147 1109.2814 2903.6465 9328427
1319.2495 1116.7557 2923.2112 10315323
1336.5361 1116.7267 2923.1355 9262380
1352.7916 1115.8481 2920.8354 9460270
1376.6892 1121.2155 2934.8853 9460014
1378.4172 1108.6189 2901.9124 9986359
1400.9065 1112.8243 2912.9207 9591604
1424.3774 1117.6978 2925.6772 9657140
1446.3466 1121.2898 2935.0798 9328175
1464.6381 1121.9794 2936.8845 9065260
1482.7747 1122.5353 2938.3398 9130796
1492.4526 1116.749 2923.1938 9131307
1519.7593 1124.1351 2942.5276 9196845
1534.1248 1121.8899 2936.6504 8209949
1547.3177 1118.8472 2928.686 8144158
1561.9635 1116.9109 2923.6174 8341279
1581.8964 1118.7562 2928.4478 8341792
1598.5433 1118.2629 2927.1565 8802599
1592.332 1101.9613 2884.4856 9460529
1634.1766 1118.9094 2928.8489 8802342
1648.0962 1116.5822 2922.7568 8999980
1652.6249 1108.0072 2900.3113 9328945
1664.0913 1104.2123 2890.3777 9197359
1693.062 1111.9913 2910.74 9592116
1701.3083 1106.1393 2895.4216 8736807
1737.2372 1118.2225 2927.0508 8802599
1753.9897 1117.8456 2926.0642 9065514
1770.3228 1117.2113 2924.4038 9723700
1776.854 1110.4636 2906.7412 9460528
1799.9818 1114.118 2916.3071 9591858
1849.708 1134.0099 2968.3755 9065771
1849.3774 1123.1274 2939.8899 9328686
1873.4138 1127.108 2950.3093 9263150
1901.7729 1133.5917 2967.281 9065771
1921.6552 1134.9501 2970.8367 9065773
1943.1853 1137.2482 2976.8521 8802344
1981.749 1149.3842 3008.6194 9131566
1960.0264 1126.6503 2949.1113 9197359
2002.1008 1140.6656 2985.7976 9131566
2023.6195 1142.8267 2991.4543 9328688
2041.1288 1142.7057 2991.1377 9197358
2043.3616 1134.1079 2968.6321 9197358
2074.3931 1141.5044 2987.9932 9328944
2080.825 1135.3533 2971.8923 9460530
2130.9795 1152.9618 3017.9839 9328688
2140.6223 1148.5405 3006.4111 9855289
2130.186 1133.5081 2967.062 9328944
2174.4934 1147.6133 3003.9836 8473635
2182.946 1142.7202 2991.1755 9262895
2187.0657 1135.656 2972.6846 9394481
2201.7961 1134.1704 2968.7959 9526324
2216.4202 1132.6541 2964.8267 9263409
2228.7073 1129.9767 2957.8184 9328945
2245.7075 1129.7122 2957.126 9263409
2269.0796 1132.6322 2964.7693 9855545
2286.3267 1132.4735 2964.354 9263152
2295.1467 1128.1749 2953.1021 9197616
2321.5007 1132.495 2964.4102 9394994
2351.9658 1138.7406 2980.7588 9131566
2354.2983 1131.3739 2961.4756 9000236
2393.5557 1141.7292 2988.5818 9066800
2423.3547 1147.4541 3003.5671 9066804
2439.4541 1146.656 3001.478 9330234
2485.8171 1159.9917 3036.3855 9133112
2507.4558 1161.6814 3040.8083 8804149
2513.2915 1156.0776 3026.1399 8870198
2548.4062 1163.9258 3046.6833 8673077
2567.1301 1164.2301 3047.48 8213556
2576.4785 1160.308 3037.2134 8082746
2601.2825 1163.3524 3045.1824 7886656
2628.9065 1167.6073 3056.3201 7887947
2630.0674 1160.131 3036.75 7494478
2636.8853 1155.2349 3023.9338 7101009
2649.0679 1152.739 3017.4009 6839633
2673.05 1155.3768 3024.3057 6905681
2669.0222 1145.9534 2999.6389 6905167
2709.1611 1155.4923 3024.6079 7364694
2705.0205 1146.144 3000.1379 7230529
2717.1418 1143.7633 2993.9062 7951669
2705.9089 1131.6465 2962.1892 8410676
2736.4463 1137.042 2976.3125 8935732
2630.2397 1085.9128 2842.4773 8934958
2527.219 1036.7412 2713.7659 8605223
2531.0603 1031.7522 2700.7068 8540200
0 0 0 0
0 0 0 0
2373.3491 949.45441 2485.2847 2492416
0 0 0 0
0 0 0 0
0 0 0 0
0 0 0 0
0 0 0 0
0 0 0 0
0 0 0 0
0 0 0 0
-2279.0483 995.86731 2566.9604 1024
-2343.7292 1031.0116 2657.5488 1024
-2339.2156 1035.9867 2670.3726 1024
-2312.9236 1031.3186 2658.3401 1024
-2301.2222 1033.137 2663.0271 768
-2009.1156 908.22308 2341.0474 768
-2281.8635 1038.6906 2677.342 768
-2255.4841 1033.8706 2664.9182 768
-2251.2 1039.1823 2678.6096 768
-2225.1887 1034.4685 2666.4592 768
-2220.0447 1039.4578 2679.3196 512
-2210.9221 1042.6426 2687.5288 512
-1989.7791 945.16211 2436.262 512
-2174.2644 1040.3419 2681.5986 512
-2156.2244 1039.3053 2678.9268 512
-2141.1614 1039.699 2679.9414 512
-1939.2155 948.67438 2445.3154 256
-2127.1631 1048.4532 2702.5066 789253
-2104.1558 1044.9799 2693.5535 920066
-2093.8127 1047.7909 2700.7993 1577225
-2060.7625 1039.1946 2678.6414 1247748
-2055.5957 1044.6349 2692.6643 1576196
-2031.0389 1040.2294 2681.3088 1313025
-2026.8226 1046.2544 2696.8386 1444867
-2009.0343 1045.3134 2694.4131 1379074
-1998.2518 1048.0317 2701.4202 1313538
-1983.7961 1048.8519 2703.5342 1445123
-1968.4178 1049.1936 2704.415 1576196
-1951.412 1048.6665 2703.0562 1641476
-1930.144 1045.821 2695.7219 1575427
-1910.9703 1044.0725 2691.2148 1575170
-1890.9464 1041.826 2685.4243 1509377
-1878.74 1043.8851 2690.7317 1509121
-1857.4637 1040.8967 2683.0291 1706756
-1841.4753 1040.8458 2682.8975 1575170
-1813.5503 1033.988 2665.2209 1509121
-1814.7146 1043.741 2690.3601 1377536
-1810.9374 1050.7992 2708.5535 1574914
-1783.2185 1043.9674 2690.9438 1509377
-1761.5278 1040.5732 2682.1951 1640963
-1733.3959 1033.2776 2663.3896 1312256
-1719.1428 1034.1973 2665.7603 1706242
-1700.6393 1032.5531 2661.5222 1772035
-1697.1287 1040.0665 2680.8889 1508864
-1684.3573 1041.9929 2685.8542 1640706
-1651.2791 1031.2737 2658.2246 1706499
-1629.338 1027.3707 2648.1641 1443072
-1623.285 1033.5072 2663.9817 1377536
-1612.0031 1036.4026 2671.4446 1575170
-1588.955 1031.7153 2659.3628 1180672
-1565.8275 1026.8823 2646.905 1575170
-1550.5248 1027.1348 2647.5559 1509120
-1532.8112 1025.7792 2644.0615 1706242
-1516.2903 1025.2019 2642.5737 1706243
-1534.0392 1048.025 2701.4028 1903621
-1502.0044 1036.9596 2672.8806 1640449
-1476.2737 1030.057 2655.0881 1903364
-1472.7236 1038.6488 2677.2346 1903621
-1447.745 1032.1504 2660.4841 1772034
-1432.4336 1032.4769 2661.3259 1772034
-1415.3088 1031.4891 2658.7798 1968644
-1402.2755 1033.4945 2663.949 1968900
-1390.5055 1036.4873 2671.6631 1837314
-1370.3259 1033.2083 2663.2109 2100230
-1349.3743 1029.264 2653.0442 1903107
-1337.2317 1032.0251 2660.1614 1903620
-1324.4021 1034.3158 2666.0657 1903621
-1309.3279 1034.8875 2667.5391 1772035
-1309.859 1047.9581 2701.2305 1574656
-1284.8988 1040.7056 2682.5361 1245696
-1276.8167 1047.113 2699.052 1508864
-1256.7264 1043.7101 2690.2808 1705984
-1265.4794 1064.4821 2743.8225 1706242
-1247.7168 1063.2001 2740.5183 1772034
-1225.3673 1057.9243 2726.9194 1772034
-1201.5206 1051.1976 2709.5806 1772035
-1182.6105 1048.6661 2703.0554 1903620
-1166.8029 1048.8541 2703.54 1969413
-1157.3196 1054.8115 2718.8958 1969156
-1138.0337 1051.8766 2711.3306 2034693
-1122.064 1051.9666 2711.5625 1837571
-1101.5117 1047.7004 2700.5662 1903107
-1085.5215 1047.7118 2700.5955 1902850
-1069.5417 1047.7336 2700.6519 1903107
-1054.168 1048.3589 2702.2634 1837314
-1038.3704 1048.5754 2702.8215 1903107
-1020.1424 1046.306 2696.9719 1903107
-1005.4473 1047.6455 2700.4246 1837057
-991.39709 1049.7112 2705.749 1639937
-970.87994 1044.8849 2693.3086 1837314
-955.74341 1045.7847 2695.6282 1903107
-937.07233 1042.782 2687.8882 1968900
-928.22473 1050.7959 2708.5452 1902593
-907.31372 1045.1953 2694.1089 1771264
-892.25226 1046.2533 2696.8359 1902850
-875.46698 1045.2916 2694.3569 1968386
-857.65863 1043.0499 2688.5789 1902850
-845.80127 1048.0978 2701.5903 1771008
-829.58417 1047.8336 2700.9097 1705472
-813.96289 1048.3265 2702.1799 1771264
-796.67249 1046.6464 2697.8491 1837057
-780.81464 1046.8179 2698.2913 1968643
-768.59064 1051.9705 2711.5725 2100229
-750.16693 1048.6761 2703.0811 2363401
-736.18298 1051.58 2710.5662 2100229
-718.00311 1048.486 2702.5911 1902848
-703.39209 1050.5814 2707.9924 1902849
-687.65448 1051.0527 2709.207 2165763
-668.91272 1046.8451 2698.3613 2166020
-657.17969 1053.6686 2715.9497 1968641
-636.77307 1046.579 2697.6755 2034434
-620.61017 1046.2787 2696.9016 2034434
-604.41382 1045.9048 2695.9375 1968641
-589.72156 1048.184 2701.8123 1968641
-572.49652 1045.9628 2696.0869 2034434
-557.29437 1047.416 2699.833 2429192
-543.5423 1051.761 2711.0327 1573888
-527.84979 1052.5018 2712.9421 1705472
-510.92105 1050.7465 2708.4177 1771264
-494.84009 1050.6776 2708.24 1902592
-476.75546 1046.2069 2696.7166 2099201
-464.14569 1053.8572 2716.436 1967872
-446.58636 1050.4153 2707.564 2099457
-431.81812 1053.5264 2715.5833 2230786
-416.49115 1055.4624 2720.5732 2296836
-400.03427 1054.5756 2718.2876 2165250
-382.73492 1051.3002 2709.845 2296836
-367.10825 1052.5338 2713.0247 2165250
-352.16183 1055.92 2721.7532 2165250
-336.25421 1056.611 2723.5339 2230786
-319.47141 1054.4827 2718.0481 2231043
-304.6796 1059.049 2729.8184 2362629
-289.54962 1062.8862 2739.7092 2428422
-273.05612 1061.8765 2737.1064 2164994
-257.47607 1064.516 2743.9102 2231043
-241.79166 1067.0505 2750.4434 2099457
-225.8782 1068.8679 2755.1277 2296836
-208.35251 1062.7448 2739.3445 2428422
-193.03665 1067.8109 2752.4031 2428422
-177.34789 1071.559 2762.0642 2099200
-161.24242 1073.2955 2766.5403 2296836
-144.68224 1072.0558 2763.3447 2098945
-128.81113 1076.2568 2774.1736 2296066
-112.59874 1078.4186 2779.7456 2230530
-95.759483 1074.2885 2769.0999 2691081
-79.334625 1074.0607 2768.5127 2756872
-63.260166 1079.6943 2783.0342 2428163
-46.521324 1073.9636 2768.2625 2164992
-30.287722 1080.0063 2783.8384 2625542
-13.798976 1080.5242 2785.1731 2492929
2.7132394 1084.0985 2794.3862 2558979
19.147913 1077.1685 2776.5234 2690565
35.787025 1082.8296 2791.1155 2690308
52.439594 1085.1906 2797.2012 2558722
69.447075 1091.9983 2814.7488 2690563
86.165649 1092.5061 2816.0579 2690563
103.07066 1094.8296 2822.0469 2690563
119.8 1094.8988 2822.2253 2821892
135.95038 1090.308 2810.3918 2690306
153.52461 1096.892 2827.363 2624513
169.6163 1092.6302 2816.3779 2295552
187.14926 1097.5848 2829.1487 2492672
204.58389 1101.1954 2838.4556 2360832
221.07066 1099.5432 2834.1965 2887171
237.10806 1096.0468 2825.1843 3019014
255.06061 1101.2806 2838.6753 2821122
271.88089 1101.2806 2838.6753 2952707
289.4614 1104.1807 2846.1501 3347722
308.33939 1111.4381 2864.8572 3478794
322.31583 1101.192 2838.4468 3347205
339.28198 1101.67 2839.679 2885888
359.92587 1113.4805 2870.1216 3609865
375.15024 1108.2156 2856.5508 3214851
391.67133 1107.0704 2853.5991 3411456
407.78024 1104.9034 2848.0134 3936768
419.48779 1091.4567 2813.3528 6435608
440.85895 1103.2203 2843.675 7290136
454.38284 1095.2037 2823.0112 9460531
473.27179 1100.2285 2835.9631 8737065
489.60852 1099.1791 2833.2581 9789496
510.56696 1108.2308 2856.5901 9000236
527.75555 1108.7817 2858.01 9592374
547.40308 1114.3036 2872.2434 9921338
559.78314 1105.1449 2848.6357 9131823
578.66901 1108.9902 2858.5476 9657910
600.44299 1117.9946 2881.7573 9263409
610.39624 1105.0999 2848.5195 9394994
632.33356 1114.0121 2871.4919 9328945
644.40631 1105.5337 2849.6377 9460531
665.66522 1112.8455 2868.4846 9723958
680.86047 1109.9083 2860.9141 9263662
699.10315 1111.9612 2866.2056 9921593
713.01453 1107.1908 2853.9094 9986873
730.58722 1108.1952 2856.4983 9657907
746.84796 1107.2091 2853.9565 9855286
766.37781 1111.0059 2863.7429 9394736
783.10309 1110.6605 2862.8528 9855286
800.07013 1110.6653 2862.8652 9263150
819.62323 1114.1853 2871.9385 9723702
834.78796 1111.7181 2865.5791 9065516
848.84949 1107.9094 2855.7615 8999723
861.19397 1102.0522 2840.6641 9197359
877.62067 1101.5433 2839.3523 9460530
899.02423 1107.1829 2853.8889 8736807
913.84393 1104.6556 2847.3745 9197358
940.50104 1116.2697 2877.311 8868394
954.53589 1112.7556 2868.2532 9065773
972.41858 1113.7717 2870.8723 9065773
990.10071 1114.5271 2872.8196 8671015
996.97809 1103.2999 2843.8801 8736806
1010.9685 1100.1868 2835.8557 9131563
1027.0969 1099.464 2833.9927 8868649
1044.2307 1099.8235 2834.9192 8934957
1050.427 1088.8341 2806.5928 8474406
1078.7379 1100.7532 2837.3154 7815962
1090.0903 1095.2675 2823.1755 9855285
1106.5651 1095.0164 2822.5283 9591857
1127.017 1098.6498 2831.894 9460529
1147.0499 1101.7744 2839.9478 9855030
