# .PCD v0.7 - Point Cloud Data file format
VERSION 0.7
FIELDS x y z rgb
SIZE 4 4 4 4
TYPE F F F U
COUNT 1 1 1 1
WIDTH 1289
HEIGHT 1
VIEWPOINT 0 0 0 1 0 0 0
POINTS 1289
DATA ascii
-2450.626 904.11066 3509.7869 2163456
-2447.1299 910.54816 3534.7773 2031872
-2414.1482 906.03076 3517.2407 2163200
-2395.3669 906.81042 3520.2676 2097408
-2386.0579 911.22131 3537.3906 2097408
-2376.3728 915.56555 3554.2551 2228736
-2339.3809 909.37256 3530.2139 2557952
-2328.5498 913.3288 3545.5723 2360064
-2309.3794 914.05664 3548.3975 2425344
-2300.8628 919.0531 3567.7942 2425600
-2272.0862 915.97479 3555.844 2820096
-2253.908 917.15143 3560.4116 2622720
-2246.4861 922.76862 3582.2178 2622464
-2228.3679 924.05737 3587.2209 3280384
-2217.4363 928.37976 3604.0007 3543552
-2204.9417 932.12555 3618.5417 3017216
-2183.9277 932.30798 3619.25 3214336
-2169.0261 935.12921 3630.2019 3411968
-2128.2688 926.74817 3597.6667 2951424
-2098.489 923.02612 3583.2173 3016960
-2089.1636 928.31683 3603.7561 2885632
-2067.8928 928.35394 3603.9004 3214336
-2046.217 928.20831 3603.335 3083008
-2026.1523 928.7981 3605.6243 3083008
-1995.5017 924.49597 3588.9236 3148800
-1985.7595 929.89227 3609.8721 3017472
-1964.0793 929.75488 3609.3386 3017472
-1944.4503 930.59619 3612.6045 2885632
-1923.4537 930.79431 3613.3738 2885632
-1912.0718 935.70203 3632.4255 2754048
-1892.8723 936.85236 3636.8914 2359552
-1873.3134 937.84912 3640.7607 2294016
-1862.8872 943.49463 3662.677 2885632
-1844.9512 945.42487 3670.1702 2819840
-1827.4142 947.60815 3678.6458 2951424
-1809.4771 949.63409 3686.5105 2820096
-1789.108 950.41766 3689.5522 2688768
-1764.1963 948.77753 3683.1853 2754560
-1745.4 950.42633 3689.5862 2556928
-1731.5316 954.83447 3706.6987 2623232
-1707.8594 953.88043 3702.9946 2623744
-1684.2209 952.92029 3699.2676 2557696
-1655.6776 949.12323 3684.5273 2820864
-1636.2997 950.54901 3690.0623 2557440
-1609.0039 947.35156 3677.6497 1966336
-1585.1832 946.14056 3672.9482 2557696
-1570.6356 950.50739 3689.9006 2163200
-1524.9323 935.87689 3633.1047 2163200
-1523.9337 948.65631 3682.7146 1900544
-1494.7717 944.02045 3664.7183 2360576
-1467.4666 940.43799 3650.8108 2557696
-1452.0681 944.4928 3666.552 2228992
-1443.3795 953.10168 3699.9717 2557952
-1418.5287 951.1391 3692.353 2097664
-1395.307 950.22455 3688.8025 2294528
-1369.9067 947.77356 3679.2876 2294528
-1356.6432 953.77588 3702.5891 2031616
-1333.7028 953.06049 3699.8118 1835008
-1314.0684 954.72308 3706.2664 2689536
-1291.8335 954.52087 3705.4812 2886912
-1269.203 954.01416 3703.5142 2426368
-1249.0092 955.35352 3708.7136 2622976
-1223.7914 952.82928 3698.9143 2360064
-1204.6479 955.02844 3707.4517 2228736
-1184.2517 956.29785 3712.3794 2360064
-1162.0604 956.13824 3711.7598 2162688
-1140.1161 956.17963 3711.9207 2688768
-1118.4978 956.50146 3713.1699 2228736
-1098.4528 958.20856 3719.7966 2294272
-1076.7924 958.54767 3721.1133 2162944
-1055.8788 959.57953 3725.1191 2425856
-1038.0565 963.5249 3740.4351 2557440
-1012.3676 960.1814 3727.4556 2425856
-988.78955 958.73523 3721.8416 2491648
-970.51837 962.48633 3736.4031 2557696
-946.27734 960.3537 3728.1243 2557696
-924.57782 960.76007 3729.7019 2689280
-902.06543 960.32104 3727.9976 2360320
-884.34766 965.09235 3746.52 3083776
-861.80524 964.7085 3745.03 2754816
-840.3764 965.58411 3748.429 2689280
-818.16547 965.58411 3748.429 2294528
-794.67505 964.03198 3742.4036 2623232
-777.75433 970.58929 3767.8594 2755328
-755.26837 970.38385 3767.0618 2360576
-733.87689 971.61493 3771.8408 2557952
-708.90424 968.0332 3757.9365 2689536
-685.76508 966.80396 3753.1646 1966592
-660.50726 962.4054 3736.0891 2492160
-638.44189 962.51465 3736.5132 2361088
-617.94775 965.08563 3746.4939 2163456
-597.55231 968.00806 3757.8389 2163456
-576.88232 970.69482 3768.269 2426368
-552.92468 967.84314 3757.1987 2886912
-531.01404 968.48566 3759.6929 2623488
-510.80127 972.41663 3774.9531 2755328
-486.18646 967.94373 3757.5891 1835008
-465.69977 971.65448 3771.9944 2360576
-442.15686 969.04138 3761.8501 2426368
-419.24557 967.60864 3756.2881 2492160
-402.73627 981.61914 3810.6775 2097408
-379.61252 980.21454 3805.2249 2557696
-356.59821 978.93311 3800.25 2228480
-335.61679 983.43555 3817.7288 2754816
-312.70706 982.53027 3814.2144 2557952
-290.51898 983.92786 3819.6399 1966080
-269.89511 991.30688 3848.2856 2952192
-244.72855 981.823 3811.469 2425856
-222.56769 983.69537 3818.7375 2163200
-199.94012 983.69537 3818.7375 2360320
-178.90852 992.54938 3853.1089 2425344
-157.4809 1001.4753 3887.7598 3083008
-134.26453 1000.1357 3882.5596 3214080
-111.59393 1003.1483 3894.2544 3674368
-88.496193 1002.8908 3893.2549 3608832
-65.142067 998.52173 3876.2939 3411200
-42.707058 1011.1553 3925.3379 3674112
-19.392439 1008.2741 3914.1528 3674112
3.8266122 1015.2046 3941.0574 4726795
27.313929 1020.246 3960.6284 3476480
50.692135 1018.4358 3953.6008 3937025
74.199081 1019.5388 3957.8826 3805696
98.066208 1023.8724 3974.7061 3278848
121.02716 1018.8988 3955.3984 3607809
144.80864 1021.3261 3964.8213 4134402
169.30602 1027.4202 3988.4785 4002048
195.70815 1042.1642 4045.7153 4396544
224.22009 1063.6995 4129.3159 5580301
247.59866 1059.0404 4111.229 5646094
274.29993 1068.1548 4146.6113 5251593
301.63705 1078.0432 4184.999 5317900
322.44846 1064.8783 4133.8921 5383436
345.99811 1061.9768 4122.6284 5580816
372.03271 1066.5822 4140.5063 5514766
420.76541 1131.6649 4393.1602 5448973
579.22437 1467.0834 5695.2651 5843218
611.36169 1463.2314 5680.312 6106387
648.06378 1470.1366 5707.1182 5974288
706.00293 1522.1442 5909.0132 6039824
742.23029 1524.6379 5918.6943 5974285
773.37384 1516.9352 5888.792 5842443
799.57019 1500.6127 5825.4272 5778188
843.18243 1516.9742 5888.9434 7227427
869.12225 1501.5044 5828.8887 10254675
869.57349 1444.8656 5609.0156 5386001
894.46771 1431.5159 5557.1909 1769472
900.55023 1390.0767 5396.3228 1835008
915.43567 1364.6013 5297.4268 2425856
956.22491 1378.1488 5350.0186 2097152
990.63715 1381.931 5364.7012 2031616
1013.3853 1369.7124 5317.2681 2752512
1058.9642 1388.1591 5388.8784 4593152
1123.938 1430.2054 5552.104 4199942
1157.3955 1430.8965 5554.7866 7420957
1201.1624 1443.9426 5605.4321 8408104
1230.3339 1439.2133 5587.0728 9132079
1260.9196 1436.3427 5575.9292 9855806
1292.1185 1434.2996 5567.9976 8277032
1382.9741 1496.9303 5811.1323 5908490
1381.9337 1459.4664 5665.6963 5776650
1396.3596 1439.7263 5589.0645 5579016
1445.5752 1455.9397 5652.0054 5710603
1458.1185 1435.3201 5571.9595 5776139
1473.8929 1418.724 5507.5327 5776395
1511.1674 1423.0936 5524.4956 5513482
1554.6869 1433.0343 5563.0859 4527362
1543.3074 1393.0096 5407.709 4132353
1612.3953 1425.7668 5534.8735 3344897
1657.1965 1436.1708 5575.2617 4528133
1634.5135 1388.8273 5391.4727 5316611
1681.5662 1401.4165 5440.3447 5447682
1732.2047 1416.4645 5498.7612 5907976
1762.8154 1414.882 5492.6182 5973512
1776.4164 1399.9519 5434.6587 5316353
1829.8271 1416.368 5498.3867 5579270
1821.8777 1385.5452 5378.7314 5645321
1845.2778 1379.2137 5354.1523 5580045
1886.1326 1385.9218 5380.1934 5579789
1877.6685 1356.77 5267.0254 4987909
1892.1964 1344.9135 5220.998 5250824
1921.5903 1343.8347 5216.8101 5776652
1956.9222 1346.877 5228.6201 5513480
2001.2914 1355.9474 5263.832 5711116
2002.562 1335.9869 5186.3447 5842444
2048.1252 1345.7323 5224.1768 5710856
2061.6853 1334.4729 5180.4673 5644549
2100.1902 1339.453 5199.7998 5447683
2110.6174 1326.6407 5150.0625 5776391
2168.9854 1343.8975 5217.0537 5382403
2156.343 1317.2899 5113.7622 5842697
2157.3838 1299.6627 5045.333 5513991
2220.8293 1319.5979 5122.7217 5645834
2243.0098 1314.8066 5104.1221 5711885
2270.7305 1313.347 5098.4561 5448714
2250.8826 1284.7744 4987.5361 5645838
2303.666 1297.8622 5038.3433 5185288
2320.105 1290.4008 5009.3779 5514509
2335.9336 1282.7928 4979.8438 5383180
2368.1965 1284.2872 4985.6445 5316617
2401.9885 1286.5636 4994.4819 5382410
2420.8264 1280.8722 4972.3877 5251081
2437.533 1274.2037 4946.5005 5382666
2497.772 1290.1796 5008.519 5514253
2512.2822 1282.4371 4978.4629 4922116
2519.676 1271.2841 4935.166 4724737
2542.0105 1267.8385 4921.79 5185031
2570.012 1267.2654 4919.5654 4987652
2612.4185 1273.7286 4944.6558 5251081
2614.5828 1260.6453 4893.8662 5316874
2640.6929 1259.2682 4888.52 5316617
2698.5869 1272.9131 4941.4902 5053956
2591.8765 1209.4553 4695.145 4724481
2598.1536 1199.5092 4656.5337 4989192
0 0 0 0
0 0 0 0
2134.7166 955.12115 3707.8113 1638400
2155.7312 954.69794 3706.1685 1572864
2250.353 986.55267 3829.8296 1572864
2263.7708 982.52686 3814.2012 1179648
2275.8501 978.00537 3796.6489 1179648
2285.2595 972.43646 3775.03 1114112
2294.2737 966.8089 3753.1836 917504
2307.9036 963.21576 3739.2351 983040
2324.283 960.82764 3729.9644 983040
2343.1855 959.51776 3724.8792 983040
2310.6338 937.35864 3638.8567 983040
2316.6003 931.09064 3614.5242 983040
2329.075 927.52924 3600.6987 983040
2348.303 926.69751 3597.47 983040
2359.3213 922.67023 3581.8359 983040
2346.3652 909.42242 3530.4075 983040
2405.8364 924.23273 3587.9016 983040
2421.8757 922.24475 3580.1843 983040
2442.1436 921.8877 3578.7979 1048576
2452.1357 917.6911 3562.5066 1245184
2465.6172 914.86078 3551.5193 1245696
0 0 0 0
0 0 0 0
0 0 0 0
3286.0317 1179.0214 4576.9995 5251340
3321.9231 1182.1426 4589.1157 5251339
3370.49 1189.6871 4618.4043 4988425
3405.6631 1192.4208 4629.0161 4725253
3431.8386 1191.9855 4627.3262 5185805
3469.897 1195.6516 4641.5586 5120268
3461.2505 1183.2932 4593.5825 4593924
3476.0676 1179.0864 4577.252 4725253
3507.5718 1180.5614 4582.978 4856583
3587.7236 1198.2615 4651.6899 5053705
3555.5005 1178.4457 4574.7646 4922120
3600.3184 1184.2714 4597.3799 4790790
3588.9065 1171.6523 4548.3926 4659717
3598.1626 1165.9187 4526.1343 4659460
3619.8533 1164.2692 4519.731 4528130
3625.6492 1157.5691 4493.7212 4462082
3673.5842 1164.3225 4519.938 4330498
3668.0496 1154.1539 4480.4634 4264960
3745.5059 1170.0571 4542.1997 4264705
3714.6594 1152.142 4472.6523 4791303
3769.8413 1160.9741 4506.9395 4725254
3737.0674 1142.7856 4436.3311 4725254
3768.7842 1144.4343 4442.7314 4659717
3801.9221 1146.4888 4450.707 4528133
3782.6172 1132.8096 4397.6035 4988684
3793.6794 1128.3495 4380.2896 4988681
3816.3088 1127.3672 4376.4761 5120011
3827.6831 1123.0956 4359.8936 4988682
3852.7896 1122.8835 4359.0703 5186061
3882.0198 1123.8682 4362.8926 4659718
3914.9292 1125.8978 4370.772 4725253
3912.7004 1117.8617 4339.5757 5186061
3904.8059 1108.3226 4302.5444 4857096
3917.5195 1104.7185 4288.5532 4791302
3915.9954 1097.1718 4259.2563 4791046
3926.7295 1093.1342 4243.5825 4725510
3923.2324 1085.2114 4212.8262 4725509
3931.1328 1080.5219 4194.6206 4659460
3936.2725 1075.1367 4173.7158 4922632
3947.3303 1071.4254 4159.3086 4988425
3957.2979 1067.4662 4143.9385 4857096
0 0 0 0
0 0 0 0
0 0 0 0
0 0 0 0
0 0 0 0
0 0 0 0
0 0 0 0
-3095.3552 912.65125 3463.2776 2819840
-3071.0776 911.53638 3459.0469 2820096
-3057.4617 913.59229 3466.8484 2622720
-3040.8416 914.77228 3471.3262 2622976
-3004.5813 910.01978 3453.2915 2491136
-2999.2993 914.64899 3470.8582 1703936
-2966.7632 910.97345 3456.9106 2097664
-2949.7361 912.04218 3460.9661 2426112
-2943.6379 916.52869 3477.9915 2623488
-2902.5244 910.0993 3453.5935 2821120
-2892.198 913.30048 3465.7412 2886656
-2867.1099 911.85266 3460.2471 2491904
-2847.1914 912.0401 3460.9583 2228736
-2832.7012 913.98151 3468.3257 2623232
-2816.127 915.27417 3473.2307 2557696
-2796.7251 915.65997 3474.6948 2820352
-2793.5518 921.4043 3496.4929 2688512
-2765.908 919.10291 3487.7598 2491136
-2751.085 921.05914 3495.1833 2622720
-2735.1833 922.68134 3501.3391 2425344
-2716.8445 923.49988 3504.4451 2622720
-2696.4133 923.61426 3504.8794 2557440
-2675.4846 923.55884 3504.6689 2426368
-2654.1353 923.35608 3503.8994 2491904
-2630.9211 922.49615 3500.6365 2294272
-2608.5979 921.93756 3498.5168 2360320
-2586.2244 921.35217 3496.2954 2689280
-2553.7405 917.12622 3480.259 2491648
-2538.4836 919.06879 3487.6304 2820864
-2518.1038 919.1731 3488.0261 2689536
-2496.3938 918.78955 3486.5708 2820608
-2488.189 923.41162 3504.1104 1966336
-2461.4729 921.18384 3495.6565 2294784
-2440.8667 921.22424 3495.8096 2623744
-2429.144 924.64667 3508.7971 2360576
-2407.7566 924.41785 3507.9285 1572864
-2377.5627 920.77435 3494.1025 2163200
-2360.604 922.23749 3499.6545 2360320
-2342.5994 923.31433 3503.7412 2557440
-2325.3005 924.69116 3508.9658 2557696
-2313.5813 928.33167 3522.7805 2688768
-2288.2483 926.52618 3515.9292 2951680
-2269.6384 927.43469 3519.377 2754048
-2281.4114 940.89038 3570.4377 2754560
-2222.2173 925.05621 3510.3511 3477504
-2213.2039 930.00909 3529.146 3280128
-2211.4653 938.1427 3560.011 3280384
-2179.9238 933.66821 3543.0315 3280384
-2158.3298 933.40881 3542.0469 3477504
-2167.0396 946.37817 3591.2625 3017216
-2135.8289 941.99823 3574.6416 3674880
-2114.0093 941.71368 3573.562 2951168
-2092.0608 941.3656 3572.241 3082752
-2072.6143 942.14764 3575.2087 3083008
-2056.2776 944.37415 3583.6575 2754048
-2038.1946 945.83667 3589.2075 3148800
-2003.4022 939.4942 3565.1394 3214592
-1989.1918 942.77118 3577.575 3214592
-1963.009 940.38354 3568.5144 3017472
-1954.5795 946.54114 3591.8809 2622720
-1931.4198 945.6225 3588.395 2754304
-1917.7258 949.36938 3602.6135 2819840
-1894.8325 948.59521 3599.6758 2688512
-1882.5642 953.18304 3617.0854 2556928
-1866.2363 955.79755 3627.0066 2491136
-1847.3076 957.12537 3632.0454 2491136
-1832.6407 960.71869 3645.6812 2754304
-1817.4504 964.11993 3658.5881 2885888
-1796.9784 964.76776 3661.0464 2622720
-1776.1406 965.23267 3662.8103 2491904
-1757.8285 967.09857 3669.8911 2163456
-1739.5446 969.02686 3677.2085 2294528
-1731.5316 976.79822 3706.6987 2557440
-1693.0522 967.36163 3670.8894 2689024
-1668.4329 965.70166 3664.5903 2689280
-1645.2107 964.81732 3661.2344 2623232
-1627.1436 966.97296 3669.4143 2294784
-1608.218 968.66986 3675.8535 2032128
-1573.8442 960.98059 3646.675 2557696
-1555.752 963.15717 3654.9346 2163200
-1532.0303 961.8609 3650.0154 2031616
-1504.4568 958.07458 3635.6472 2492160
-1483.787 958.63849 3637.7874 2294784
-1463.4221 959.41901 3640.749 2097408
-1449.3392 964.40289 3659.6616 2294784
-1429.9082 965.92535 3665.4392 2360576
-1407.9766 965.7796 3664.8862 2097152
-1384.4296 964.50409 3660.0457 2031872
-1365.6642 966.57208 3667.8931 2755072
-1340.0042 963.74817 3657.1772 2426368
-1327.1527 970.19507 3681.6416 2294784
-1304.6556 969.68829 3679.7183 1900544
-1281.2819 968.50153 3675.2151 2492160
-1257.9392 967.29773 3670.647 3149824
-1239.2767 969.71362 3679.8147 2360064
-1219.4336 971.27582 3685.7427 2491904
-1196.6285 970.49274 3682.771 2557696
-1175.4651 971.03674 3684.8354 2491648
-1153.4349 970.87158 3684.2087 2360320
-1132.2635 971.43707 3686.3547 2623488
-1113.1727 973.84491 3695.4917 2032128
-1092.1725 974.64545 3698.5295 2360320
-1070.5317 974.89551 3699.4783 2294528
-1045.8539 972.33221 3689.7515 2689024
-1027.3024 975.47699 3701.6851 2228736
-1004.2346 974.37671 3697.51 2557440
-982.70441 974.75293 3698.9373 2754560
-961.685 975.66412 3702.3953 2491904
-940.52771 976.47491 3705.4719 2294784
-919.28864 977.23743 3708.3655 2360320
-898.62671 978.66589 3713.7861 2820608
-878.65399 980.93561 3722.3989 2952192
-853.48828 977.37518 3708.8882 2557696
-833.46826 979.67505 3717.6157 2491904
-809.44928 977.27179 3708.4958 2097152
-794.42657 985.8988 3741.2332 2557952
-768.3493 980.90845 3722.2961 2952704
-745.92462 980.42401 3720.4578 2755328
-725.64398 982.81396 3729.5271 2492160
-703.3703 982.56989 3728.6008 2361344
-681.43445 982.79712 3729.4631 2032128
-659.31781 982.77026 3729.3611 2032128
-640.7926 988.28052 3750.271 2624256
-614.28662 981.43573 3724.2971 2032128
-593.69299 983.87903 3733.5688 2032128
-570.55408 982.13 3726.9316 1769472
-549.69958 984.33093 3735.2837 2229504
-528.96942 986.94849 3745.2163 2229760
-504.06909 981.67389 3725.2007 2624256
-485.70267 989.22369 3753.8501 1966848
-463.88431 990.13019 3757.29 2229504
-441.22836 989.25012 3753.9507 1769984
-418.45819 988.00702 3749.2334 2295040
-398.04944 992.51263 3766.3308 2032128
-377.62598 997.51453 3785.3118 2294528
-353.21338 991.94519 3764.1777 2491904
-330.77148 991.53271 3762.6123 2360064
-309.07388 993.45282 3769.8987 2294528
-286.22949 991.69891 3763.2432 2426368
-265.44287 997.38062 3784.8037 2492160
-243.01642 997.38062 3784.8037 2492416
-219.711 993.40662 3769.7234 2754560
-197.54738 994.27991 3773.0371 2623232
-177.04227 1004.7888 3812.9158 2886144
-154.96426 1008.1396 3825.6311 2556672
-133.51418 1017.4235 3860.8613 2754048
-110.95745 1020.3702 3872.0432 2951168
-88.041748 1020.6913 3873.262 2819328
-64.30349 1008.3406 3826.394 4069381
-41.711632 1010.3042 3833.8455 2950656
-19.134277 1017.7357 3862.0459 3740416
3.7199044 1009.596 3831.1582 2688256
27.157915 1037.7528 3938.0056 7293492
50.175205 1031.238 3913.2842 3806464
73.061241 1026.9966 3897.1887 4068098
95.426003 1019.2248 3867.6968 3081472
120.04742 1033.8983 3923.3789 4726029
142.87553 1030.8717 3911.8936 3673856
167.21367 1038.0642 3939.1873 3410432
195.11453 1062.9031 4033.4446 3673344
218.09799 1058.4559 4016.5688 3541762
244.74274 1070.9045 4063.8081 3672832
266.1918 1060.4248 4024.0405 3672832
290.36682 1061.6349 4028.6326 4396289
315.53918 1066.0305 4045.3127 4527617
347.164 1090.0658 4136.52 4659201
371.2562 1088.8389 4131.8643 5514509
397.0513 1092.4491 4145.564 5514509
497.69604 1289.5818 4893.6323 5580046
447.84888 1096.5363 4161.0742 5185031
536.9364 1246.0618 4728.4849 5381895
609.62494 1344.5864 5102.3608 5974289
700.79553 1472.6384 5588.2852 5513994
768.77051 1542.5917 5853.7402 6171410
766.95758 1472.5162 5587.8218 6237459
808.6861 1488.3784 5648.0146 5316617
813.51965 1437.7737 5455.9824 5448973
874.00543 1485.6346 5637.6025 4792074
876.16675 1434.4816 5443.4897 1835008
900.09265 1421.3295 5393.5811 1638400
924.7774 1410.2365 5351.4858 1966336
946.6579 1395.7443 5296.4917 2426368
987.54883 1409.3116 5347.9766 1638400
1011.6261 1398.7871 5308.0381 1966080
1050.3069 1408.4806 5344.8228 2622720
1078.679 1404.1871 5328.5303 3016192
1131.4462 1430.9916 5430.2461 2818304
1169.265 1437.9303 5456.5771 3539968
1216.0194 1455.1891 5522.0693 4001792
1247.505 1453.75 5516.6084 5249794
1292.165 1467.3451 5568.1982 5381377
1283.0044 1420.6674 5391.0684 6170636
1345.3364 1453.4983 5515.6533 6039309
1373.255 1448.4736 5496.5859 5776139
1393.175 1435.4403 5447.1279 6039568
1431.9758 1442.0105 5472.0601 5776396
1436.0997 1414.1428 5366.3096 5776139
1463.5786 1409.9823 5350.5215 5907725
1540.1195 1452.2615 5510.96 5908236
1543.2704 1425.0184 5407.5796 5776650
1558.7123 1410.002 5350.5957 5514248
1569.8785 1391.7935 5281.4995 5316869
1607.5659 1397.3501 5302.5854 5317124
1639.6842 1397.9453 5304.8442 5316355
1683.8134 1408.566 5345.147 5710855
1682.4515 1381.442 5242.2183 5513220
1717.1281 1384.356 5253.2759 5447942
1733.0283 1372.298 5207.519 5579528
1761.141 1370.1633 5199.4185 5382148
1799.2385 1375.7365 5220.5674 5579530
1809.7502 1360.3851 5162.313 5645322
1859.2831 1374.3887 5215.4526 5777165
1847.5702 1343.4015 5097.8643 5776652
1871.3892 1338.8314 5080.522 5316100
1894.7251 1334.0659 5062.438 5579273
1916.731 1328.5271 5041.4199 5381894
1930.4181 1317.4808 4999.502 5447685
1968.2931 1323.0269 5020.5479 5381891
2014.304 1333.795 5061.4102 5579270
2027.5778 1322.8881 5020.021 5447426
2051.23 1318.9698 5005.1523 5447683
2074.2812 1314.7826 4989.2627 5447939
2114.7563 1321.6018 5015.1396 5579525
2136.9534 1316.9674 4997.5537 5382148
2150.6938 1307.3195 4960.9419 5645321
2188.0935 1312.1193 4979.1562 5579272
2218.344 1312.5613 4980.8335 5776908
2230.8596 1302.636 4943.1694 5579276
2252.1904 1298.0485 4925.7612 5382666
2264.5654 1288.4828 4889.4619 5711632
2283.6565 1282.9318 4868.397 5185288
2306.8325 1279.7855 4856.458 5185544
2325.0642 1274.0077 4834.5322 5250824
2353.6152 1273.9559 4834.3359 5513996
2383.1206 1274.4158 4836.0811 5514252
2349.4387 1241.4757 4711.082 5579789
2460.917 1285.1133 4876.6753 5185544
2422.5129 1250.3763 4744.8574 5580046
2496.4087 1273.7347 4833.4966 6040853
2548.3931 1285.5104 4878.1821 5580044
2577.2983 1285.5104 4878.1821 5382921
2556.1438 1260.8184 4784.4824 5514507
2563.8271 1250.7365 4746.2241 5580300
2584.3208 1247.0547 4732.2529 5843472
2536.6045 1210.8909 4595.0205 5317128
2477.0449 1169.9017 4439.4771 5186314
2273.5676 1062.5162 4031.9768 4990218
0 0 0 0
2130.469 975.14722 3700.4336 1703936
2146.0872 972.28925 3689.5884 1572864
2162.6963 969.93323 3680.6479 1572864
2166.3501 961.87219 3650.0583 1376256
2212.9502 972.85022 3691.717 1179648
2231.4285 971.37164 3686.1064 1114112
2247.2285 968.76721 3676.2231 917504
2253.2122 962.02142 3650.6248 983040
2270.1724 960.04596 3643.1284 983040
2282.0476 955.97772 3627.6904 983040
2290.679 950.63904 3607.4314 983040
2300.8911 946.04907 3590.0137 983040
2316.7988 943.86353 3581.72 983040
2336.8391 943.38599 3579.908 983040
2359.5559 943.98785 3582.1919 983040
2366.6377 938.37964 3560.9102 983040
2391.9714 940.04358 3567.2244 917504
2408.5911 938.28375 3560.5461 983040
2425.8767 936.81165 3554.96 1114112
2399.9163 918.80804 3486.6411 1114112
2478.6812 940.86377 3570.3369 1245184
0 0 0 0
0 0 0 0
0 0 0 0
3170.2668 1163.6503 4415.7544 4988680
3229.0618 1175.5289 4460.8311 5120008
3300.6582 1191.8375 4522.7178 4659203
3332.5684 1193.6682 4529.665 4593411
3325.5125 1181.6243 4483.9609 4724997
3364.4912 1185.9985 4500.5605 4527362
3384.1179 1183.5361 4491.2163 4790533
3421.4629 1187.2605 4505.3491 4724740
3446.6621 1186.7451 4503.3936 4593411
3454.438 1180.2847 4478.8774 4790534
3461.3633 1173.6343 4453.6411 4461572
3484.5386 1172.5526 4449.5366 5053705
3470.4724 1159.0496 4398.2959 4528131
3501.9497 1160.8447 4405.1079 4856839
3517.4258 1157.3484 4391.8403 4791046
3555.0618 1161.1412 4406.2334 4791303
3566.9766 1156.5392 4388.7695 4922632
3592.9819 1156.5392 4388.7695 4725253
3614.6116 1155.1409 4383.4634 4330752
3643.8142 1156.1654 4387.3511 4659716
3659.812 1153.0151 4375.397 4791303
3687.6965 1153.6279 4377.7222 4593154
3711.3826 1152.9277 4375.0654 4856839
3680.137 1135.2914 4308.1396 5054218
3667.2603 1123.5256 4263.4917 4199170
3711.5659 1129.3198 4285.479 4396290
3726.9453 1126.2937 4273.9956 4527875
3733.7473 1120.7336 4252.897 4593668
3785.0444 1128.5144 4282.4229 4396806
3763.4795 1114.6124 4229.6685 4462340
3790.2935 1115.1278 4231.624 4462083
3824.5408 1117.8088 4241.7979 4462338
3805.948 1105.1121 4193.6167 4330754
3808.5374 1098.6906 4169.249 4462340
3816.5078 1093.8943 4151.0483 4198913
3823.6904 1088.9349 4132.229 4725511
3842.4958 1087.3279 4126.1304 4725510
3849.0225 1082.2882 4107.0063 4922632
3851.8513 1076.2789 4084.2024 4725510
3830.6311 1063.6667 4036.3425 4922889
3858.5657 1064.7754 4040.5496 4791046
0 0 0 0
0 0 0 0
0 0 0 0
0 0 0 0
0 0 0 0
0 0 0 0
0 0 0 0
-3081.5396 929.00751 3447.8198 2162944
-3041.1289 922.9436 3425.3147 2623488
-3045.5701 930.50153 3453.3645 2755328
-2990.696 919.91681 3414.0815 2294784
-2980.7144 923.09052 3425.8601 1966336
-2969.196 925.82874 3436.0222 2031616
-2939.0637 922.76038 3424.6348 2162688
-2912.2263 920.69122 3416.9556 2820608
-2901.6846 923.78094 3428.4224 2952192
-2888.1882 925.96686 3436.5352 2031616
-2859.71 923.34662 3426.8105 2623232
-2836.7322 922.47754 3423.585 2294528
-2815.936 922.31049 3422.9651 2426112
-2816.3887 929.15112 3448.3528 2228736
-2805.5864 932.35156 3460.2307 2755072
-2780.1921 930.71429 3454.1541 2754304
-2773.9441 935.50964 3471.9512 2491136
-2755.116 936.10242 3474.1511 2754304
-2738.8826 937.59229 3479.6804 2754304
-2717.6853 937.3927 3478.9397 2885632
-2441.4136 848.5365 3149.1682 3017472
-2682.4431 939.48926 3486.7207 2952448
-2661.783 939.48926 3486.7207 2886656
-2631.4517 936.04913 3473.9534 2689280
-2613.1541 936.86902 3476.9961 2557696
-2591.8481 936.61499 3476.0532 2491904
-2574.6689 937.85986 3480.6736 1966080
-2540.6338 932.93542 3462.3972 2162944
-2524.1135 934.41455 3467.887 2294784
-2505.3521 935.0816 3470.3625 2952704
-2487.1748 935.97955 3473.6953 2097664
-2458.5732 932.93689 3462.4028 2097408
-2436.3484 932.28296 3459.9761 2492160
-2416.5566 932.55701 3460.9929 2426368
-2403.7097 935.53857 3472.0586 2360576
-2387.4873 937.24658 3478.3975 2426112
-2356.406 933.10046 3463.01 2623488
-2342.4443 935.72028 3472.7327 2491904
-2324.5732 936.81079 3476.78 2557696
-2309.2026 938.93768 3484.6736 2820864
-2296.1104 942.03766 3496.1785 2491904
-2279.6934 943.81757 3502.7842 2755072
-2262.731 945.40234 3508.6658 1572864
-2260.8472 953.37506 3538.2549 1703936
-2225.1653 947.11127 3515.0081 2885888
-2193.0623 942.26672 3497.0286 2557184
-2184.7549 947.65143 3517.0129 2885376
-2156.7139 944.49774 3505.3086 3214592
-2126.707 940.41333 3490.1501 2754048
-2136.9199 954.20844 3541.3477 3543552
-2112.1765 952.513 3535.0557 3280384
-2080.7219 947.72687 3517.2927 2819840
-2070.144 952.44885 3534.8176 2885632
-2059.5957 957.28131 3552.7522 2688256
-2030.1898 953.35815 3538.1921 3017216
-2018.2773 957.65356 3554.1338 3214592
-2006.4376 962.07452 3570.541 3016960
-1984.152 961.52753 3568.511 3016960
-1958.1749 959.16052 3559.7263 2688512
-1930.4612 955.8822 3547.5596 2688512
-1924.5691 963.45575 3575.6672 2556928
-1895.6705 959.55243 3561.1807 2491136
-1884.8309 964.80518 3580.6755 2359808
-1864.299 965.15967 3581.9912 2754304
-1852.389 970.03766 3600.0947 2622720
-1835.9468 972.62811 3609.7087 2754304
-1814.095 972.38007 3608.7881 2951424
-1806.6641 979.948 3636.8748 3083264
-1775.6384 974.74634 3617.5698 2951680
-1765.9205 981.25745 3641.7344 2689280
-1745.1508 981.71246 3643.4233 2557696
-1730.4191 985.61816 3657.9185 2491904
-1706.4535 984.29663 3653.0139 2162944
-1682.36 982.86652 3647.7063 2623232
-1654.6886 979.28168 3634.4019 2886144
-1637.5303 981.90619 3644.1423 3280640
-1621.4874 985.27875 3656.6587 2491392
-1594.0031 981.69611 3643.3625 2163200
-1567.3545 978.53693 3631.6379 2557952
-1541.6989 975.91827 3621.9194 2886656
-1520.1693 975.87445 3621.7568 2492160
-1503.9066 979.25897 3634.3176 2557952
-1476.7233 975.52747 3620.469 2228736
-1461.8434 979.93353 3636.8213 2492416
-1444.6753 982.91467 3647.885 2163200
-1416.5981 978.45135 3631.3203 2491904
-1396.8013 979.65778 3635.7979 2886912
-1361.0977 969.57098 3598.3625 2426368
-1355.4165 980.88971 3640.3696 2163200
-1333.4298 980.5838 3639.2344 2360320
-1318.5162 985.55463 3657.6829 2294784
-1293.4495 982.97577 3648.1121 2294784
-1274.8396 985.29956 3656.7361 2097664
-1249.165 982.14911 3645.0439 2097408
-1237.323 989.95502 3674.0137 2557696
-1212.3673 987.3606 3664.385 2162944
-1188.1851 985.31281 3656.7852 2294528
-1168.1147 986.66223 3661.7932 2360320
-1149.4003 989.22968 3671.322 2491904
-1127.1086 988.75818 3669.5718 2360320
-1106.4912 989.76544 3673.3103 2491904
-1086.4302 991.32104 3679.0837 2623488
-1064.6301 991.32104 3679.0837 3347200
-1040.9265 989.51154 3672.3679 2360064
-1021.7967 992.06543 3681.8462 2228736
-999.98029 992.06543 3681.8462 2228992
-979.76636 993.6908 3687.8782 2228736
-955.96588 991.66956 3680.3772 2031616
-934.742 992.28943 3682.6775 2097664
-912.84644 992.2088 3682.3782 2623744
-892.6947 994.06592 3689.2708 2295040
-865.63306 988.12866 3667.2358 2820608
-844.21448 988.49316 3668.5884 2755073
-815.41119 980.00159 3637.0737 2491904
-802.14172 990.22504 3675.0161 2557440
-782.24951 992.61542 3683.8872 2228992
-757.09784 988.27753 3667.7883 2360576
-739.49658 993.83051 3688.3967 2886656
-720.6803 998.03888 3704.0156 2689280
-697.33081 996.03687 3696.5852 2295296
-675.72559 996.47699 3698.219 2032128
-654.02136 996.79584 3699.4023 2426880
-632.03241 996.68793 3699.0015 2558464
-604.10938 986.87811 3662.5945 1900800
-588.54877 997.2851 3701.218 1966592
-568.55487 1000.6949 3713.8728 2426880
-545.15887 998.15027 3704.429 1769728
-522.7309 997.23877 3701.0461 2558464
-501.09561 997.82617 3703.2258 2558464
-479.77667 999.12585 3708.0496 2492416
-458.97461 1001.6785 3717.5232 2229504
-436.28287 1000.1565 3711.8745 2624256
-414.25757 1000.0818 3711.5972 2557952
-392.26486 1000.0818 3711.5972 2755584
-369.41107 997.75598 3702.9656 2491904
-350.22049 1005.6555 3732.2827 2492160
-326.41064 1000.4615 3713.0066 2360832
-303.82141 998.5285 3705.8325 2426368
-283.30295 1003.6301 3724.7659 2623744
-261.89737 1006.1856 3734.2502 2623745
-239.25568 1004.0254 3726.2332 2557952
-219.63637 1015.3987 3768.4431 2623232
-197.30684 1015.3987 3768.4431 2820608
-174.56612 1013.0127 3759.5876 2557184
-153.25397 1019.4312 3783.4084 2031616
-129.46323 1008.7368 3743.7188 3280640
-107.78479 1013.4816 3761.3279 2688256
-86.105591 1020.691 3788.084 2951168
-63.694416 1021.248 3790.1511 3082752
-41.289616 1022.5697 3795.0564 3082496
-18.851341 1025.2323 3804.9382 3279616
3.6882887 1023.5237 3798.5969 3148288
26.145636 1021.5362 3791.2209 2556928
48.754391 1024.5676 3802.4714 3411456
72.536606 1042.5486 3869.2041 4134149
94.132912 1028.0208 3815.2866 3608064
117.62888 1035.848 3844.3359 3871232
140.37788 1035.6249 3843.5083 4068611
164.38057 1043.4221 3872.4458 3673856
188.77554 1051.4941 3902.4033 3739392
212.63377 1055.141 3915.9382 3936513
235.67114 1054.3976 3913.1792 4067840
261.23129 1064.0635 3949.052 4068096
286.60184 1071.4312 3976.396 4725511
307.5253 1062.3174 3942.572 3936000
331.33273 1063.7498 3947.8879 3935744
362.39502 1086.7489 4033.2444 4462339
390.16986 1097.6538 4073.7158 4856580
412.95197 1094.0605 4060.3799 4922376
442.34387 1107.4105 4109.9258 4527105
542.80878 1288.0143 4780.1992 4198144
479.383 1081.0997 4012.2786 4921860
505.12183 1085.3207 4027.9436 5448202
543.81842 1115.7458 4140.8608 4724227
637.48944 1251.4653 4644.5557 5316616
678.23267 1276.3483 4736.9033 5712145
803.10986 1451.2909 5386.167 6173464
823.78656 1431.7582 5313.6753 4135174
868.48694 1453.8801 5395.7764 2426369
893.18585 1442.137 5352.1938 1442304
916.37982 1428.8523 5302.8906 1441792
947.13269 1427.8439 5299.1479 1638400
976.0954 1424.2881 5285.9517 2622464
1001.7863 1416.3276 5256.4077 3608576
1047.46 1436.2472 5330.335 4265473
1076.46 1432.8073 5317.5684 4659716
1125.7196 1455.7625 5402.7622 5119752
1155.738 1453.2538 5393.4517 5251078
1177.0062 1440.1733 5344.9062 5184770
1205.0596 1435.8632 5328.9102 5645063
1228.2262 1426.0991 5292.6729 5381633
1272.3688 1440.5701 5346.3789 5645061
1296.2698 1431.9774 5314.4888 5907979
1326.6024 1430.7286 5309.854 6039821
1358.6764 1431.3723 5312.2432 5710856
1382.8512 1423.8534 5284.3384 5644809
1413.512 1423.1979 5281.9053 5710602
1447.061 1425.4158 5290.1367 5841933
1472.4093 1419.6328 5268.6743 5513735
1476.8245 1394.3263 5174.7544 5447685
1503.2594 1390.4161 5160.2427 5513478
1540.2938 1396.2701 5181.9688 5513735
1566.91 1392.636 5168.4814 5776907
1589.6525 1385.7643 5142.978 5908493
1623.4506 1388.6072 5153.5293 5974286
1635.269 1372.8923 5095.2065 5645064
1681.3708 1386.0081 5143.8828 5382148
1697.2959 1374.2238 5100.1479 5711113
1701.8676 1353.8204 5024.4253 5645323
1728.3502 1351.2489 5014.8818 5645323
1747.1302 1342.8442 4983.6895 5381894
1763.0627 1332.5665 4945.5459 5250565
1797.3141 1336.2445 4959.1958 6302996
1802.7573 1318.7308 4894.1973 5447687
1841.3136 1325.6105 4919.73 5645322
1869.7587 1325.1099 4917.8721 5447944
1892.9458 1320.9557 4902.4546 5513736
1922.3241 1321.182 4903.2944 5250309
1944.3464 1316.4211 4885.6255 5776910
1980.9225 1321.509 4904.5083 5382151
2017.7845 1326.6381 4923.5435 5382151
2019.3722 1308.7592 4857.1899 5316357
2055.1816 1313.2505 4873.8584 4724224
2071.0259 1305.0365 4843.3735 5118979
2080.5962 1293.1475 4799.25 5447687
2111.948 1294.9344 4805.8818 5513736
2143.7346 1296.9368 4813.313 5447944
2185.5518 1304.8752 4842.7754 5382153
2170.9614 1279.3667 4748.1055 5316617
2193.5229 1276.1245 4736.0728 5711374
2216.5708 1273.2438 4725.3813 5251081
2242 1271.7854 4719.9692 5514252
2249.0867 1260.0865 4676.5513 5448203
2290.0393 1267.4154 4703.751 5382667
2337.7395 1278.2574 4743.9888 5316617
2350.4377 1269.9305 4713.0854 5448460
2365.4688 1263.0448 4687.5303 5580045
2418.4595 1276.3523 4736.918 4921860
2462.0906 1284.4714 4767.0508 5119495
2458.6851 1268.1458 4706.4614 5053445
2481.1682 1265.3894 4696.2319 4987909
2478.8296 1250.1757 4639.769 4988163
2486.5977 1240.337 4603.2549 4988163
2470.543 1218.9576 4523.9102 5185285
2451.9338 1196.7905 4441.6411 5251078
2449.5049 1182.908 4390.1187 5186057
2434.543 1163.3281 4317.4526 4989963
0 0 0 0
2126.1433 995.04944 3692.9207 1638400
2128.9116 986.19513 3660.0598 1441792
2143.0271 982.72284 3647.1733 1376256
2157.7649 979.6026 3635.5928 1310720
2210.2424 993.508 3687.2 1179648
2221.616 988.84583 3669.8972 1114112
2239.4053 987.10193 3663.425 917504
2246.2881 980.63019 3639.4065 983040
2260.4519 977.42987 3627.5295 983040
2277.3752 975.47192 3620.2629 983040
2284.5447 969.41156 3597.771 983040
2298.6646 966.38525 3586.5396 983040
2316.5642 964.98895 3581.3574 983040
2329.313 961.49176 3568.3784 983040
2354.573 963.17542 3574.627 983040
2353.7798 954.2666 3541.5637 983040
2376.7148 955.05023 3544.4719 1048576
2392.8857 953.12573 3537.3296 1114112
2374.4634 937.57526 3479.6172 1179648
2396.6929 938.20605 3481.9583 1114112
2409.8406 935.30133 3471.1777 1376256
2488.7163 957.73987 3554.4541 4070924
2433.9192 928.79199 3447.02 4201224
0 0 0 0
3098.4114 1162.8478 4315.6694 4396546
3077.74 1145.6344 4251.7856 4724995
3166.1162 1168.9622 4338.3618 4527874
3194.3074 1169.8721 4341.7388 4264192
3254.8137 1182.5079 4388.6343 4395776
3260.22 1175.0837 4361.0811 4396033
3313.0435 1184.7324 4396.8901 4396033
3329.6279 1181.3729 4384.4219 4593154
3351.1052 1179.788 4378.5396 4658947
3349.936 1170.3156 4343.3848 5053705
3386.7048 1174.1403 4357.5796 5580306
3393.0457 1167.4381 4332.7056 4987912
3377.2234 1153.2682 4280.1167 4922632
3394.3052 1150.4618 4269.7017 4857096
3425.574 1152.4701 4277.1548 4856839
3406.0715 1137.4932 4221.5713 5449232
3464.7063 1148.639 4262.937 4659460
3515.7307 1157.1189 4294.4082 4528131
3552.0928 1160.6858 4307.646 4593667
3546.4316 1150.5684 4270.0972 4528131
3566.8188 1148.9851 4264.2212 4725510
3607.8655 1154.0325 4282.9531 5120268
3592.1965 1140.9946 4234.5659 4922631
3623.5437 1142.9678 4241.8892 4988682
3615.5828 1132.6002 4203.4121 4857096
3641.1208 1132.7966 4204.1411 4922889
3655.3203 1129.4867 4191.8569 4791303
3682.7893 1130.2942 4194.8535 4988682
3693.1831 1125.8851 4178.4907 4988682
3686.2957 1116.3018 4142.9238 4593667
3696.2937 1111.9247 4126.6792 4659717
3715.7178 1110.4221 4121.1025 4856839
3687.1462 1094.6896 4062.7144 4791302
3694.7456 1089.8302 4044.6799 4725253
3652.6934 1070.4824 3972.8745 6041369
3641.7266 1060.4341 3935.5825 6435870
3719.2134 1076.1066 3993.7478 5448974
3672.8398 1055.9701 3919.0151 5449231
3752.8958 1072.2076 3979.2776 5186060
3744.7922 1063.2125 3945.894 4659717
3766.8926 1062.8511 3944.5527 5120267
0 0 0 0
0 0 0 0
0 0 0 0
0 0 0 0
0 0 0 0
0 0 0 0
0 0 0 0
-3052.7766 940.57526 3415.6382 2754816
-3030.7578 940.02319 3413.6333 2097152
-2992.9802 934.54315 3393.7329 2360320
-2986.7087 938.89313 3409.5295 2360576
-2945.3474 932.19647 3385.2112 2425856
-2934.6182 935.16956 3396.0078 2426112
-2912.7595 934.61255 3393.9849 2491904
-2884.251 931.89929 3384.1318 2360320
-2880.177 937.09802 3403.0105 2228736
-2858.4775 936.59491 3401.1836 2228736
-2844.501 938.63312 3408.5854 2228480
-2816.9451 936.1875 3399.7043 2097408
-2798.0459 936.60455 3401.2185 2294528
-2789.9678 940.67584 3416.0034 2755072
-2787.73 946.79041 3438.2078 2557696
-2772.3125 948.48572 3444.3643 2622464
-2752.9233 948.83722 3445.6409 2688512
-2734.0471 949.37219 3447.5837 2556672
-2717.1714 950.61511 3452.0972 2556672
-2699.6631 951.65387 3455.8694 2688512
-2682.3679 952.78412 3459.9739 2491136
-2662.061 952.854 3460.2275 2031616
-2645.2937 954.2016 3465.1211 2031616
-2617.8491 951.68866 3455.9956 2294528
-2583.864 946.73962 3438.0237 2294528
-2578.4126 952.24988 3458.0339 2097408
-2540.5483 945.78204 3434.5461 2228992
-2534.5398 951.16455 3454.0923 2032128
-2499.4609 945.63629 3434.0168 1900544
-2497.9087 952.80566 3460.0522 1966080
-2470.4861 950.14417 3450.387 1638400
-2438.1621 945.53735 3433.6577 2360832
-2418.6777 945.87415 3434.8809 2360576
-2394.5256 944.37585 3429.4399 2623744
-2384.7224 948.55951 3444.6323 2163200
-2357.8633 945.97241 3435.2373 1900544
-2346.9485 949.79279 3449.1111 2426112
-2326.511 949.79279 3449.1111 2623488
-2313.5679 952.87939 3460.3198 2228992
-2293.647 953.1217 3461.1997 2689280
-2268.6736 951.24969 3454.4016 3018240
-2260.3167 956.37445 3473.0117 2623488
-2240.8647 956.85571 3474.7595 2032384
-2213.6208 953.98779 3464.345 1966080
-2190.8318 953.00421 3460.7729 2754304
-2160.8174 948.8291 3445.6113 3149056
-2154.6885 955.16272 3468.6116 3214592
-2136.5703 956.2525 3472.5691 3017216
-2125.0828 960.3598 3487.4846 2819840
-2104.418 960.3598 3487.4846 2819840
-2085.752 961.28094 3490.8296 2754048
-2068.7886 963.01318 3497.1201 2951424
-2053.6274 965.62787 3506.615 2688256
-2047.5853 972.62775 3532.0344 3148800
-2022.5653 970.66418 3524.9041 3346176
-2009.2246 974.3233 3538.1921 3280128
-1980.1143 970.33185 3523.6973 3083008
-1957.2726 969.35999 3520.168 3017216
-1944.7472 973.53156 3535.3167 3083008
-1926.1801 974.73651 3539.6924 3017216
-1910.6029 977.49756 3549.7192 2885888
-1887.2482 976.29675 3545.3584 2885888
-1868.3097 977.37927 3549.2896 2556928
-1850.9103 979.30066 3556.2668 2754048
-1837.5781 983.44305 3571.3098 2556928
-1817.144 983.83691 3572.74 2951680
-1799.9054 985.99042 3580.5603 2820096
-1786.679 990.41949 3596.644 3543552
-1762.8505 989.00739 3591.5164 2556928
-1744.4969 990.67004 3597.554 2755072
-1728.2618 993.59161 3608.1636 2755072
-1715.6257 998.68146 3626.647 2228736
-1690.175 996.34619 3618.1665 2754304
-1663.4133 993.16833 3606.6262 3149056
-1643.6202 994.1225 3610.0913 3083520
-1633.2842 1000.8972 3634.6934 2492416
-1591.9471 988.60132 3590.0415 2886656
-1574.1104 990.76373 3597.8943 2228992
-1548.3362 987.9212 3587.5718 2228992
-1529.2616 989.33356 3592.7007 2491904
-1498.5078 983.12347 3570.1492 2689536
-1493.1716 993.65002 3608.3757 2228992
-1464.5308 988.74872 3590.5769 2557952
-1452.0553 994.77753 3612.4702 2097664
-1430.8146 994.89197 3612.8857 2492160
-1407.4843 993.53485 3607.9575 2163456
-1396.2289 1000.791 3634.3076 4202758
-1369.0637 996.69208 3619.4226 2491904
-1346.5126 995.87512 3616.4558 2557952
-1326.5194 996.95416 3620.3745 2163200
-1309.818 1000.5832 3633.5532 2360832
-1284.7168 997.80988 3623.4817 2360320
-1268.3336 1001.8282 3638.0742 2031872
-1244.3992 999.91791 3631.137 2294784
-1221.9514 999.15601 3628.3704 2294784
-1200.4519 999.15601 3628.3704 2425856
-1180.0203 1000.0612 3631.6572 2360576
-1158.8977 1000.4033 3632.8999 1835264
-1141.9011 1004.3877 3647.3689 1572864
-1121.4242 1005.4054 3651.0645 2228992
-1098.9563 1004.6431 3648.2961 2294784
-1078.6398 1005.8564 3652.7026 2228736
-1056.9961 1005.8564 3652.7026 2755072
-1039.1613 1009.5569 3666.1404 2491904
-1015.725 1007.8572 3659.968 2557696
-993.25726 1007.0654 3657.0928 2689280
-973.82031 1009.3796 3665.4968 2426112
-950.10779 1007.2668 3657.824 2557952
-929.72882 1008.6719 3662.9265 2031616
-906.29413 1006.7498 3655.9465 2097408
-884.50385 1006.6048 3655.4202 2163200
-863.99677 1007.9496 3660.3037 2557696
-840.4696 1005.7496 3652.3147 2360576
-813.83374 999.61505 3630.0374 2031872
-793.31036 1000.8591 3634.5552 2097408
-775.46094 1005.6403 3651.9175 1900800
-749.03845 999.25897 3628.7441 2755072
-733.83014 1007.903 3660.1343 2360320
-718.34119 1016.6761 3691.9937 1639681
-690.84381 1008.471 3662.1973 2492160
-669.5105 1009.0237 3664.2041 2229248
-649.65045 1011.9081 3674.679 1703936
-627.9845 1012.0821 3675.3105 2032128
-605.80176 1011.4059 3672.8552 2031872
-584.34479 1011.9361 3674.7803 2426880
-564.36249 1015.16 3686.4878 2426880
-541.98749 1014.1662 3682.8789 1901056
-520.16492 1014.1662 3682.8789 2163456
-497.87183 1013.2085 3679.4011 2492672
-476.03394 1013.132 3679.1233 2492672
-455.37234 1015.6718 3688.3462 2032384
-430.61066 1008.8616 3663.6157 2492928
-409.04468 1009.2131 3664.8918 2361344
-386.59473 1007.3005 3657.9465 2821376
-366.32773 1011.1865 3672.0583 2229760
-344.15912 1009.9828 3667.6873 2228736
-322.34509 1009.7274 3666.7598 2360320
-301.15143 1011.519 3673.2656 2426112
-279.60455 1012.3108 3676.1411 2294784
-258.33524 1014.3262 3683.4597 2295808
-237.61507 1019.0687 3700.6819 2492160
-216.05783 1020.8205 3707.0435 2294528
-194.7605 1024.3358 3719.8093 2886400
-171.42993 1016.6901 3692.0444 3741444
-149.24359 1014.5862 3684.4041 3609344
-127.38683 1014.3855 3683.6753 3412224
-107.64832 1034.4576 3756.5657 3016960
-85.150223 1031.5629 3746.0537 3082752
-62.884342 1030.4323 3741.9478 3016960
-41.03904 1038.7147 3772.0251 2688256
-18.718178 1040.3767 3778.0605 2885376
3.6579618 1037.4309 3767.363 3214336
25.803339 1030.3328 3741.5869 3016704
48.303993 1037.4257 3767.3438 3082752
70.535294 1036.0782 3762.4509 2753536
92.93576 1037.2662 3766.7651 3148032
115.09583 1035.8304 3761.5513 3674628
138.63028 1045.223 3795.6597 3477248
161.41345 1047.1196 3802.5471 2425344
185.10567 1053.7264 3826.5391 3411200
207.03358 1049.9437 3812.8027 3739648
229.5146 1049.4346 3810.9536 4989713
252.95238 1052.9994 3823.8992 4002048
282.53503 1079.4552 3919.9717 3541760
303.10669 1070.0796 3885.9246 3804929
325.79184 1068.9623 3881.8672 3607552
352.74844 1081.0833 3925.8835 4594439
379.49878 1091.1115 3962.3005 3541504
400.55789 1084.5614 3938.5144 4067584
423.43039 1083.3723 3934.1963 4922378
448.67154 1088.0513 3951.1877 4198656
473.81558 1092.0424 3965.6809 4198916
494.84778 1086.6273 3946.0164 3935488
538.46576 1129.0587 4100.1035 4264193
555.48346 1114.4589 4047.0852 4593412
569.8374 1095.9443 3979.8506 5119752
606.29413 1119.7213 4066.1953 4988679
621.1076 1103.2371 4006.334 4659972
649.40302 1111.0322 4034.6416 5120264
681.61658 1124.7391 4084.4175 5120519
706.2735 1125.4644 4087.0508 5514764
743.94373 1146.1912 4162.3188 5515022
778.47498 1160.9066 4215.7573 5777935
934.45117 1350.1821 4903.0986 5317127
0 0 0 0
1010.1082 1374.0573 4989.7998 5645322
1058.0945 1398.4011 5078.2031 6039825
1116.0494 1434.2092 5208.2378 6829337
1140.4554 1426.1375 5178.9258 5973771
1175.9407 1431.9801 5200.1431 6038537
1219.0148 1446.5298 5252.979 5579270
1242.8212 1438.0603 5222.2227 5579014
1270.2811 1434.1271 5207.9395 5579271
1295.887 1428.3368 5186.9126 5907981
1310.3335 1410.7999 5123.2285 5973518
1343.4785 1413.7336 5133.8818 5447431
1371.2817 1411.0406 5124.1025 4986627
1390.1587 1399.4783 5082.1147 5644553
1417.3732 1396.6216 5071.7407 5447685
1462.6777 1411.3387 5125.1851 5908493
1480.8356 1399.796 5083.2686 5711114
1471.3541 1363.1077 4950.0371 5579527
1522.8528 1383.2432 5023.1577 5710857
1539.6724 1371.7104 4981.2778 5645320
1569.9646 1372.389 4983.7417 5645320
1600.8265 1373.5312 4987.8896 5776906
1625.8424 1369.707 4974.0024 5711114
1645.7964 1361.8304 4945.3989 5513736
1664.4647 1353.1842 4914.001 5711629
1676.7522 1339.7371 4865.168 5513993
1702.4335 1337.2651 4856.1914 5579788
1711.3778 1321.9471 4800.5654 5580042
1752.1246 1331.2939 4834.5078 5711372
1772.9546 1325.4504 4813.2876 5645323
1779.1458 1309.0214 4753.6265 5579530
1808.4185 1309.8221 4756.5342 5710859
1826.6716 1302.7395 4730.814 5447943
1854.407 1302.5312 4730.0576 5579273
1882.4664 1302.5532 4730.1377 5447431
1917.0924 1307.0518 4746.4736 5447944
1931.0548 1297.5356 4711.9165 4987393
1968.481 1303.8319 4734.7812 4987394
1971.791 1287.6721 4676.0977 4987140
2016.483 1298.61 4715.8179 5052931
2052.2898 1303.6047 4733.9561 5316358
2045.5182 1281.7843 4654.7163 5645322
2053.5071 1269.6705 4610.7261 5513737
2089.3865 1274.8929 4629.6909 5316103
2131.2346 1283.5748 4661.2188 5447946
2144.728 1275.1759 4630.7188 5250567
2145.5271 1259.5371 4573.9272 5382153
2180.2871 1263.9764 4590.0483 5513996
2189.5376 1253.7 4552.73 5382666
2225.2007 1258.613 4570.5718 5316874
2272.6697 1270.0054 4611.9424 4593153
2292.0803 1265.6338 4596.0674 4856323
2339.4453 1276.6195 4635.9609 4790532
2353.9038 1269.6017 4610.4761 5053446
2377.6362 1267.6895 4603.5317 5053445
2414.3989 1272.6891 4621.688 5448460
2414.4646 1258.4497 4569.9785 5316873
2425.4832 1250.1716 4539.9175 5382152
2387.4998 1217.0952 4419.8022 5118468
2410.3789 1215.4261 4413.7412 5250567
2411.3047 1202.8418 4368.042 5250569
2422.4712 1195.579 4341.6675 4791046
2344.97 1145.1677 4158.6025 4858376
0 0 0 0
2112.2278 1010.2756 3668.7505 1703936
2127.72 1007.3183 3658.011 1376256
2140.2246 1003.0205 3642.4041 1376256
2182.1296 1012.4496 3676.645 1245184
2200.0698 1010.683 3670.23 1114112
2212.0833 1006.2549 3654.1497 1114112
2230.5732 1004.8305 3648.9768 983040
2241.1489 999.90228 3631.0803 983040
2250.6941 994.61237 3611.8704 983040
2265.7483 991.8338 3601.78 983040
2278.2061 987.98102 3587.7888 983040
2292.2793 984.89337 3576.5767 983040
2303.0637 980.46252 3560.4861 983040
2315.8105 976.93982 3547.6936 983040
2340.9976 978.68127 3554.0176 983040
2346.9846 972.43646 3531.3398 983040
2367.3123 972.19116 3530.4495 983040
2381.28 969.36145 3520.1731 1114112
2368.5786 955.81866 3470.9937 1179648
2413.4104 965.52625 3506.2458 1114112
2393.8386 949.52216 3448.1282 1376256
2478.3965 974.74274 3539.7151 3939595
2697.5093 1052.0159 3820.3274 4662288
0 0 0 0
3032.344 1163.0791 4223.6465 5121037
3029.4006 1152.4387 4185.0068 4659203
3081.4797 1162.7328 4222.3887 5054215
3107.9114 1163.2614 4224.3081 5251595
3157.5725 1172.4066 4257.5186 5185546
3220.6279 1186.3409 4308.1201 4725250
3231.2 1180.8752 4288.272 5251340
3221.6956 1168.2151 4242.2974 5119498
3261.5139 1173.4973 4261.4795 5053705
3275.76 1169.5682 4247.2114 4987912
3289.0129 1165.347 4231.8823 5053962
3311.8513 1164.5604 4229.0259 5119498
3338.6438 1165.1655 4231.2231 5514256
3362.7488 1164.8306 4230.0068 5646356
3362.5879 1156.1575 4198.5107 4264707
3405.1443 1162.1912 4220.4219 3804929
3406.749 1154.2618 4191.627 4857096
3424.4944 1151.8765 4182.9648 5646611
3438.1187 1148.1492 4169.4292 5515282
3477.8164 1153.12 4187.4805 4857096
3479.0637 1145.3619 4159.3076 4791303
3520.9192 1150.9879 4179.7378 4593923
3547.7002 1151.6417 4182.1123 4988681
3542.6233 1142.0167 4147.1597 5251853
3527.8367 1129.4158 4101.4004 5054218
3573.552 1136.2241 4126.124 5449233
3552.5781 1121.8799 4074.0342 5712405
3600.5059 1129.3411 4101.1289 5251854
3595.4866 1120.2062 4067.9561 4725510
3610.5161 1117.3977 4057.7573 4462084
3617.4751 1112.1451 4038.6829 4462338
3603.4111 1100.5409 3996.5432 4528131
3600.9709 1092.6151 3967.761 4856839
3611.2622 1088.6302 3953.29 5054218
3595.9197 1077.0189 3911.1243 5120011
3570.7478 1062.6311 3858.876 4593924
3569.1863 1055.4082 3832.6462 4264705
3614.686 1062.1045 3856.9636 4462338
3595.0774 1049.7061 3811.9395 4922889
3651.0151 1059.3829 3847.0806 4725510
3701.4958 1067.3663 3876.0718 5120011
0 0 0 0
0 0 0 0
0 0 0 0
0 0 0 0
0 0 0 0
0 0 0 0
0 0 0 0
-3026.5798 952.56934 3386.3276 2360064
-3001.4656 950.96967 3380.6409 2425600
-2975.4629 949.06506 3373.8704 2163200
-2954.9104 948.88483 3373.2297 2294528
-2935.2522 948.99146 3373.6086 2689024
-2921.9368 951.16418 3381.3325 2491648
-2897.78 949.81348 3376.5308 1966080
-2877.3379 949.66992 3376.0205 1703936
-2834.3054 942.01617 3348.8118 2689280
-2833.9907 948.55243 3372.0479 2623232
-2817.6694 949.78607 3376.4333 2228736
-2792.8052 948.1369 3370.5708 1900800
-2783.1431 951.66217 3383.103 2754816
-2758.7236 950.15601 3377.7485 2689280
-2744.103 952.02734 3384.4011 2623488
-2740.3154 957.71228 3404.6106 2490880
-2717.0615 956.62775 3400.7554 2228992
-2701.8086 958.36517 3406.9316 2426112
-2697.6108 964.07953 3427.2458 2294528
-2681.5957 965.62531 3432.741 2031616
-2658.8442 964.75049 3429.6309 2097152
0 0 0 0
-2617.9636 964.66327 3429.3208 2162944
-2600.4692 965.71271 3433.0515 1703936
-2578.8188 965.22302 3431.3108 1835008
-2541.804 958.92902 3408.9363 2162688
-2541.3933 966.45441 3435.6885 1769472
-2509.187 961.91229 3419.5413 1900544
-2479.6394 958.32361 3406.7839 1900544
-2461.7844 959.23218 3410.0137 1703936
-2439.0647 958.24445 3406.5024 2360320
-2417.4165 957.66467 3404.4417 2360320
-2396.6147 957.41345 3403.5483 2163200
-2377.7854 957.95245 3405.4646 2294784
-2359.8079 958.84692 3408.644 2360576
-2335.4253 957.13177 3402.5469 2689536
-2320.095 959.12903 3409.647 2557696
-2308.9219 962.89496 3423.0347 2491904
-2281.7563 959.99921 3412.7407 2689024
-2282.2383 968.78778 3443.9834 2491648
-2262.2559 968.9696 3444.6299 3149056
-2240.3977 968.34406 3442.4058 2820352
