# .PCD v0.7 - Point Cloud Data file format
VERSION 0.7
FIELDS x y z rgb
SIZE 4 4 4 4
TYPE F F F U
COUNT 1 1 1 1
WIDTH 1267
HEIGHT 1
VIEWPOINT 0 0 0 1 0 0 0
POINTS 1267
DATA ascii
-1240.7875 1091.3656 3963.2236 4332553
-1220.6801 1094.3926 3974.2158 4398346
-1191.8933 1089.6041 3956.8269 4134919
-1154.623 1076.7125 3910.0117 3937539
-1137.8624 1082.8103 3932.1555 4727054
-1111.4301 1079.7668 3921.1033 4660491
-1076.3987 1068.0609 3878.5942 4528905
-1045.087 1059.6157 3847.9258 4726540
-1022.9852 1060.3398 3850.5554 4594954
-997.83362 1057.8639 3841.5642 4397574
-965.15942 1047.1108 3802.5154 5055247
-940.98273 1045.2833 3795.8787 5121297
-923.17822 1050.6179 3815.251 4923918
-895.50342 1044.7057 3793.781 5252881
-867.8197 1038.4783 3771.1665 4529159
-848.20892 1041.8374 3783.3652 4660488
-818.59528 1032.7592 3750.3979 4265474
-787.83063 1021.6817 3710.1709 4792073
-767.80157 1024.2899 3719.6426 4857866
-733.47809 1007.4194 3658.3782 5054988
-709.20184 1003.7411 3645.0208 5515540
-697.29633 1017.8903 3696.4026 4463108
-674.72333 1016.88 3692.7339 4923659
-651.36633 1014.5809 3684.3845 4989452
-632.4657 1019.3043 3701.5374 5055244
-607.56329 1014.3468 3683.5347 4792073
-583.28937 1010.1084 3668.1433 4660230
-564.13879 1014.7576 3685.0264 4726023
-538.60175 1007.8308 3659.8723 4726026
-515.57867 1005.2244 3650.4072 4199682
-497.17358 1011.7876 3674.241 4002306
-472.80548 1006.261 3654.1716 4857355
-451.15778 1006.2715 3654.2097 5581079
-425.0112 995.7428 3615.9756 4199939
-400.60751 988.39655 3589.2979 4594694
-377.97556 984.84265 3576.3923 4463108
-357.47678 986.755 3583.3367 5252624
-336.44431 987.34265 3585.4707 4792073
-313.52252 982.09125 3566.4006 4923915
-291.89005 980.4115 3560.3008 4989452
-270.13074 978.01074 3551.5828 4726025
-248.08832 974.09271 3537.3545 4988942
-226.20253 970.12329 3522.9399 4594440
-205.25974 969.80212 3521.7737 4726282
-184.39182 969.80212 3521.7737 4397318
-162.60356 964.34399 3501.9529 5121040
-140.82491 957.35437 3476.5703 4792589
-119.78762 953.87274 3463.927 4923917
-99.774124 958.78967 3481.7825 4528904
-78.462082 950.53857 3451.8193 4858638
-57.675766 945.08368 3432.01 4464138
-37.309895 944.32855 3429.2678 4200965
-16.966021 942.98987 3424.4067 4398346
3.3280909 943.87659 3427.6265 4332296
23.699997 946.34589 3436.5938 4595725
43.84494 941.65845 3419.5715 4792076
64.313309 944.68475 3430.5615 4529677
84.497185 943.08228 3424.7422 4397835
105.1296 946.13708 3435.8357 4069126
124.26793 936.93597 3402.4224 2688768
144.26743 935.89008 3398.624 4200712
164.6936 937.52924 3404.5769 4134662
184.50569 935.69666 3397.9216 4398345
204.37212 934.47284 3393.4778 4529675
225.19162 937.43591 3404.2378 4727054
243.69626 931.06763 3381.1116 4069381
264.61713 934.19696 3392.4758 4266759
283.58783 930.48578 3378.9988 4661261
301.95554 925.41608 3360.5886 4464139
320.95773 922.79785 3351.0806 3872005
338.0741 915.37854 3324.1379 4398345
352.17331 901.05664 3272.1289 4530189
372.80042 904.05988 3283.0349 3740416
393.33597 906.55432 3292.0933 4464140
411.62872 903.888 3282.4106 4398346
432.67825 907.2428 3294.5933 4660747
446.56262 895.93237 3253.5205 3673856
463.23999 890.92993 3235.3542 4397579
481.10654 888.52136 3226.6077 4003076
507.56189 901.55255 3273.9294 3871748
523.68646 895.94977 3253.5837 5121556
543.46503 896.7746 3256.5789 4397577
566.14557 902.16711 3276.1614 4265478
581.34674 895.67853 3252.5986 4397320
600.26495 895.1496 3250.6777 3411456
609.68677 880.93213 3199.0481 4003588
629.90576 882.70245 3205.4768 4069382
652.37915 887.43579 3222.6658 4135175
658.78851 870.66943 3161.7798 4398346
684.10846 879.1319 3192.5105 4200968
695.97284 870.31268 3160.4841 3411456
708.64471 862.93909 3133.7073 4200712
727.2132 862.93909 3133.7073 3542529
743.61725 860.43457 3124.6125 3608322
760.40765 858.48804 3117.5437 3345152
778.17957 857.7157 3114.7388 3674626
799.38446 860.67511 3125.4861 4463885
818.34033 861.13416 3127.1531 4463884
835.25537 859.47266 3121.1194 4463883
850.92896 856.63354 3110.8091 3016960
866.08783 853.40753 3099.094 4068872
880.59344 849.68518 3085.5767 3542788
895.04846 846.06641 3072.4353 4003334
905.98767 839.33478 3047.99 3608577
921.8902 837.37463 3040.8716 4463626
933.99921 832.1098 3021.7529 3937539
963.45569 842.20752 3058.4221 4990227
981.25122 841.92719 3057.4038 4463627
1001.4395 843.67267 3063.7424 4726285
1016.3367 840.97778 3053.9565 4331528
1028.9562 836.52551 3037.7883 4068102
1037.8307 829.23413 3011.3098 4331271
1064.4437 836.12274 3036.3257 4002820
1077.4991 832.31006 3022.48 4002817
1085.2736 824.60925 2994.5151 4200198
1112.9146 832.00842 3021.3848 4989714
1135.0621 835.13147 3032.7258 4857868
1140.9343 826.36908 3000.9058 4923659
1147.6188 818.4549 2972.1658 5186831
1166.5671 819.39398 2975.5762 4594951
1183.6116 818.98779 2974.1011 4989452
1195.6593 815.18683 2960.2981 5252624
1207.0189 811.03339 2945.2153 5712916
1232.2465 816.18378 2963.9187 4857866
1236.4004 807.42755 2932.1206 4989453
1257.2897 809.69128 2940.3416 5383953
1284.9379 816.18646 2963.9285 4594695
1297.8564 813.27643 2953.3608 5713174
1304.7748 806.73401 2929.6023 5450001
1321.8348 806.55157 2928.9397 5581844
1343.3879 809.07977 2938.1208 4923914
1369.5455 814.28107 2957.009 4134148
1376.6504 808.16595 2934.8025 6042394
1392.3776 807.20209 2931.302 6436895
1413.0331 809.08386 2938.1355 5976345
1439.8553 814.40784 2957.4692 6238490
1453.1804 812.06128 2948.948 5515024
1486.3938 820.75226 2980.5088 5909270
1484.0659 809.8446 2940.8984 6371102
1500.6705 809.40173 2939.2898 6239260
1514.7181 807.60547 2932.7668 5384208
1522.7838 802.69684 2914.9414 6173466
1558.8313 812.48273 2950.4785 6371101
1580.8024 814.79614 2958.8794 7621425
1645.4299 838.8042 3046.063 7292715
1670.4973 842.34308 3058.9143 7161642
1721.5449 858.76587 3118.5525 7359021
1718.9382 848.35944 3080.7625 7227435
1772.3134 865.51056 3143.0454 8543037
1750.3196 845.88104 3071.7625 7621679
1822.5826 871.73877 3165.6628 7884852
1853.4067 877.45123 3186.4075 7818287
1891.9409 886.66193 3219.8552 8081715
1890.9214 877.33673 3185.9915 7029284
2006.64 921.82391 3347.5437 7160867
2071.1941 942.16595 3421.4146 7687211
2187.0862 985.2403 3577.8364 6897182
2213.5669 987.59631 3586.3921 6896926
2271.3384 1003.7354 3644.9998 6765342
2284.1406 999.88501 3631.0176 7949873
2376.5544 1030.6313 3742.6707 6568477
2396.573 1029.704 3739.3032 7029028
2404.9351 1023.8312 3717.9768 6897443
2441.0835 1029.787 3739.6045 6699553
2481.9773 1037.6193 3768.0474 6699552
2516.5186 1042.6802 3786.4253 6896164
2548.0046 1046.3967 3799.9219 6305312
2575.7776 1048.5366 3807.6929 5713693
2607.4583 1052.2163 3821.0554 4924949
2604.0046 1041.7767 3783.1445 3740937
2605.9421 1033.6536 3753.646 3412999
2609.7229 1026.3928 3727.2793 2624002
2637.0876 1028.4517 3734.7556 2886658
2655.6628 1027.0769 3729.7632 2821379
2689.8374 1031.708 3746.5808 2886913
2723.0718 1035.9058 3761.8247 2296832
2732.0068 1030.8663 3743.5244 2755073
2735.925 1024.0304 3718.7002 2624259
2790.0149 1035.9325 3761.9216 3281411
2757.4556 1015.7281 3688.5508 4004360
2804.6633 1024.993 3722.1958 3280131
2844.9678 1031.6102 3746.2258 3280129
2862.1472 1029.8047 3739.6689 3083009
2915.0076 1040.7661 3779.4749 3213569
2912.8591 1032.0701 3747.8955 3016960
2962.1975 1041.6101 3782.5398 3936772
2962.4187 1033.8652 3754.4148 6040600
2999.7278 1039.0829 3773.3621 4592645
3007.0317 1033.9066 3754.5649 4066561
2993.625 1021.7377 3710.3745 5581586
2960.5801 1003.0925 3642.6655 8343086
3000.751 1009.3445 3665.3689 7882023
3039.8127 1015.1362 3686.4011 9987911
3046.9954 1010.2751 3668.7485 8607026
3014.0103 992.25916 3603.3247 6830367
3080.1321 1006.8946 3656.4727 6896419
3102.5669 1007.1442 3657.3789 6961955
3098.3213 998.78937 3627.0391 6962212
3099.6772 992.34314 3603.6296 6764832
3107.4851 988.03644 3587.9902 6896163
3086.5815 974.72131 3539.6375 6698783
3079.1687 965.81757 3507.304 6370074
3144.9824 979.84753 3558.2529 6765345
3186.3027 986.11041 3580.9961 6436381
3191.3406 981.13574 3562.9309 6765345
3221.2705 983.82898 3572.7109 6633759
3249.8923 986.09003 3580.9221 6633503
3258.0464 982.15179 3566.6206 6371358
3252.5845 974.1861 3537.6936 7094825
3228.1938 960.68945 3488.6814 7489840
3220.3525 952.25793 3458.063 7753781
3174.3411 932.71765 3387.1038 4990225
2922.4473 853.30859 3098.7349 3017984
3213.0078 932.29034 3385.552 2820609
3256.1375 938.94238 3409.7085 9201997
0 0 0 0
0 0 0 0
0 0 0 0
0 0 0 0
-5978.9341 1845.0801 6559.1509 8015913
-6360.2891 1975.6072 7023.167 7620386
-5787.5625 1809.549 6432.8398 7620643
-5576.6396 1755.1611 6239.4941 7489056
-5493.7358 1740.6082 6187.7593 7225884
-5305.9541 1692.4075 6016.4087 6831128
-5210.6152 1673.2399 5948.269 7028508
-5131.1582 1658.9462 5897.4556 7094044
-5058.4165 1646.6422 5853.7158 7094301
-4963.5439 1626.9146 5783.585 6896667
-4859.1357 1603.7653 5701.291 6699031
-4785.355 1590.4714 5654.0322 6962203
-4731.396 1583.6245 5629.6919 6633494
-4609.9663 1553.9371 5524.1548 6567701
-4592.8071 1559.2242 5542.9502 6633495
-4489.1143 1534.9985 5456.8291 6370066
-4240.2632 1460.4259 5191.728 6238480
-4194.1304 1455.0936 5172.772 6369809
-4049.4316 1415.235 5031.0771 6370066
-4291.1538 1510.837 5370.9365 6238736
-4247.1899 1506.5311 5355.6294 6304275
-4191.4771 1497.9614 5325.1646 6633239
-4109.7568 1479.8971 5260.9468 6172946
-4088.8508 1483.6223 5274.1899 6238739
-4041.3569 1477.6835 5253.0776 5975566
-3974.7012 1464.5919 5206.5376 6041360
-3976.7874 1476.8234 5250.02 6238739
-3894.3665 1457.6178 5181.7451 6041103
-3826.6033 1443.6366 5132.043 5712140
-3603.5596 1370.3806 4871.6221 5580298
-3702.6221 1419.4229 5045.9644 5711883
-3536.76 1366.8765 4859.165 5646092
-3729.2273 1453.0902 5165.6499 5975057
-3683.9951 1447.3448 5145.2256 5909775
-3646.3584 1444.5128 5135.1577 5843726
-3628.8855 1449.6881 5153.5557 6304533
-3559.7632 1434.1429 5098.2935 5909775
-3478.0293 1413.2074 5023.8687 6041361
-3490.8782 1430.6732 5085.959 5843982
-3416.9873 1412.5851 5021.6567 5909520
-3388.8169 1413.246 5024.0059 6172691
-3346.7173 1408.0582 5005.564 6238740
-3315.4277 1407.3666 5003.105 6304277
-3255.3916 1394.3496 4956.8306 6436119
-3221.7568 1392.5068 4950.2793 6435863
-3182.0083 1387.9634 4934.1279 6238484
-3153.3303 1388.2092 4935.002 5843726
-3104.6135 1379.5554 4904.2383 5909519
-3052.4612 1369.1971 4867.415 5909520
-3009.7114 1362.8989 4845.0254 5711886
-2988.7205 1366.4276 4857.5693 5711886
-2953.2678 1363.3485 4846.6235 5580300
-2911.6313 1357.3264 4825.2153 5580300
-2878.2698 1355.0806 4817.2314 5975058
-2827.241 1344.3887 4779.2227 5383178
-2797.1287 1343.5275 4776.1606 5580556
-2761.4431 1339.944 4763.4219 5514764
-2735.1506 1340.8915 4766.79 5777679
-2716.4539 1345.6213 4783.6045 5843729
-2674.0859 1338.6016 4758.6494 5975828
-2582.3357 1306.4489 4644.3486 6107414
-2548.626 1303.2834 4633.0957 6041364
-2522.5706 1304.0059 4635.6641 5778192
-2472.3127 1292.0953 4593.3228 5515277
-2411.8804 1274.5431 4530.9253 5251850
-2382.4077 1273.1403 4525.9385 4857349
-2348.688 1269.41 4512.6777 5054727
-2317.4985 1266.9771 4504.0288 4922886
-2279.3733 1260.6517 4481.5425 4725251
-2243.4651 1255.4178 4462.936 4988679
-2200.9797 1246.3345 4430.6455 5186059
-2171.6365 1244.5637 4424.3506 5251851
-2140.8291 1241.9001 4414.8818 5515023
-2102.6167 1234.8221 4389.7197 5186058
-2049.2488 1218.5546 4331.8896 5054473
-2004.4526 1207.0361 4290.9424 4988680
-1974.8075 1204.4625 4281.7935 5054218
-1964.6891 1213.8866 4315.2954 4659973
-1942.0713 1215.7345 4321.8647 4792073
-1912.0697 1212.948 4311.9585 4989452
-1879.9572 1208.7286 4296.959 4528644
-1842.3271 1200.7971 4268.7632 4858122
-1800.8268 1190.0873 4230.6899 4726280
-1760.7455 1180.0259 4194.9224 4792073
-1729.6123 1175.7592 4179.7544 4726536
-1701.0891 1173.1685 4170.5449 4792330
-1656.8276 1159.4874 4121.9092 5187088
-1625.6256 1154.673 4104.7944 5581846
-1595.5015 1150.4895 4089.9224 4726537
-1575.0743 1153.2772 4099.8325 4397574
-1524.6382 1133.8353 4030.7178 4463366
-1502.511 1135.1625 4035.4353 4660746
-1484.1031 1139.3878 4050.4563 5121040
-1460.0437 1139.3419 4050.293 4134404
-1426.5457 1131.8059 4023.5029 5187089
-1391.8376 1123.0375 3992.332 5449747
-1364.2343 1119.7976 3980.8142 5055245
-1345.9591 1124.2351 3996.5894 4989195
-1323.4667 1125.246 4000.1831 4792073
-1291.0708 1117.7201 3973.429 5252880
-1264.4548 1115.0112 3963.7993 4594951
-1230.8629 1105.932 3931.5232 4529159
-1199.1112 1098.1879 3903.9932 4528903
-1171.5981 1094.0973 3889.4517 4857871
-1136.7637 1082.8683 3849.533 3871748
-1120.9128 1089.6333 3873.582 4792076
-1094.9563 1086.6521 3862.9841 4660491
-1065.7729 1080.2728 3840.3062 4857869
-1034.2897 1071.2332 3808.1707 4331783
-1013.2046 1072.8 3813.741 4858125
-985.8501 1067.6488 3795.4287 5055504
-960.86237 1064.8801 3785.5859 4660746
-935.7818 1061.8737 3774.8982 4660746
-906.88214 1054.2802 3747.9038 4529160
-880.01276 1048.725 3728.1553 4529160
-855.54565 1045.8202 3717.8291 4660230
-832.92621 1045.0801 3715.198 4660486
-803.85217 1035.9813 3682.8525 8476223
-778.01178 1030.6586 3663.9307 4660230
-758.29425 1033.3741 3673.5842 5054217
-735.6637 1032.1632 3669.2793 5054475
-710.64172 1027.4211 3652.4214 4265473
-696.5722 1038.7131 3692.5637 4594694
-670.39166 1032.092 3669.0266 4528901
-651.15869 1036.0819 3683.21 4923659
-629.8465 1036.9253 3686.2083 4660230
-603.82263 1029.7937 3660.856 4791816
-578.52075 1023.408 3638.1548 4792073
-569.73932 1046.8838 3721.6099 5515539
-532.50073 1017.8552 3618.415 4660233
-507.39255 1010.5506 3592.4475 4857612
-490.74747 1020.1998 3626.7502 4462853
-465.09671 1011.1539 3594.5928 4594440
-445.28088 1014.5342 3606.6091 4594183
-421.26257 1008.1976 3584.0828 4528901
-398.00232 1003.0986 3565.9563 4660486
-375.02234 998.17389 3548.4492 4791816
-353.92969 997.98584 3547.7808 4660487
-330.9129 992.00604 3526.5227 4594439
-310.1911 992.56354 3528.5049 4923402
-290.60669 997.10437 3544.6472 4857867
-267.59857 989.69019 3518.2903 4528903
-246.75127 989.69019 3518.2903 4463110
-223.15387 977.64191 3475.4592 4792331
-203.60529 982.68506 3493.3875 4792332
-183.70226 986.96545 3508.6038 4397832
-161.95024 981.13654 3487.8826 4069123
-140.40845 975.06232 3466.2891 4266244
-119.05973 968.47699 3442.8787 4463623
-98.567253 967.57355 3439.6667 4332038
-77.687851 961.41064 3417.7583 4069379
-57.303883 959.19476 3409.8809 4398087
-37.015675 957.04126 3402.2251 4398344
-16.89629 959.32178 3410.3323 4332553
3.294127 954.34686 3392.6467 4464139
23.263638 948.91028 3373.3201 4727309
43.36216 951.32898 3381.9182 4990481
63.859852 958.20825 3406.3738 4135174
84.272026 960.80823 3415.6165 4661262
104.52006 960.89209 3415.9148 4793360
123.18208 948.73364 3372.6921 4595214
142.04636 941.30975 3346.3008 4068869
162.09454 942.58917 3350.8489 3805953
180.45876 934.86554 3323.3916 4069126
199.06845 929.80817 3305.4133 4661518
218.9156 930.91919 3309.3628 3805953
240.88551 940.1322 3342.1145 4266760
259.24966 934.94202 3323.6636 4595725
279.83398 937.9259 3334.2712 4069383
299.45416 937.49786 3332.7495 4266760
320.1449 940.26697 3342.5938 3543040
334.13812 924.18896 3285.4373 3740417
352.85715 922.23267 3278.4827 4266504
367.00397 909.15411 3231.9893 4595725
389.33484 916.64117 3258.6052 4529932
407.55551 914.20074 3249.9299 4332296
427.56985 915.82263 3255.6956 4003587
442.01022 905.88104 3220.3535 3608833
457.72144 899.25873 3196.8118 4464139
476.89886 899.70215 3198.3882 4398091
498.71463 904.89893 3216.8621 3542784
518.81622 906.71716 3223.3259 3213824
533.02356 898.47076 3194.0107 3937284
554.55237 902.70801 3209.0737 4266505
573.28351 902.26129 3207.4856 4135174
587.55499 895.0495 3181.8481 4857870
607.04944 895.99506 3185.2097 4858124
625.24219 895.02051 3181.7451 4660490
645.07373 896.38 3186.5781 4792589
660.48804 891.69879 3169.9365 4529675
673.12939 883.63635 3141.2749 4529676
690.98785 882.672 3137.8469 5055503
703.65619 875.30206 3111.6472 4858897
726.935 881.17035 3132.5085 4464139
739.61267 874.21576 3107.7856 2885376
755.15979 870.90851 3096.0283 3345664
774.4964 872.02478 3099.9966 3674883
790.22369 869.11957 3089.6687 3345921
804.14087 864.40027 3072.8918 3148545
830.48651 872.95386 3103.2996 4200712
854.33319 878.56708 3123.2542 4332554
865.12653 870.80328 3095.6543 4135432
887.80884 875.08032 3110.8591 3148544
888.61176 858.0564 3050.3398 4464398
906.86902 858.22943 3050.9548 4464397
925.0498 858.32458 3051.2935 2950656
933.28595 849.36578 3019.4453 4858642
954.2179 852.08087 3029.0974 3213825
974.61414 854.2262 3036.7236 5845535
995.86816 857.03186 3046.6978 3543043
1006.7612 850.97986 3025.1833 7029553
1026.4722 852.46283 3030.4548 4266247
1022.0312 834.18182 2965.4673 4397834
1038.7882 833.5282 2963.1436 4200966
1052.2767 830.31726 2951.729 4069124
1077.6847 836.46277 2973.5757 4266247
1108.1925 846.30518 3008.5652 4265735
1107.8798 832.67157 2960.0984 4989712
1127.1571 833.95721 2964.6687 4791819
1140.2849 830.72327 2953.1721 4923405
1156.7474 829.9798 2950.5291 5384470
1174.5491 830.20496 2951.3296 4528395
1185.6157 825.73285 2935.4316 5186576
1198.281 822.48743 2923.894 4133891
1221.0389 826.16309 2936.9612 4068098
1228.6208 819.61176 2913.6714 4989197
1246.2107 819.82562 2914.4316 5383954
1270.7196 824.52325 2931.1316 5120783
1266.6732 810.81555 2882.4014 5055245
1290.5605 815.11536 2897.687 4922890
1318.6592 821.92725 2921.9031 5580818
1326.2036 815.91718 2900.5374 5646867
1345.1036 816.9577 2904.2363 5120524
1364.6777 818.3761 2909.2788 6172953
1388.425 822.23059 2922.9812 5909782
1393.6754 815.17102 2897.8848 5909781
1416.2007 818.26465 2908.8823 5844758
1435.6812 819.54572 2913.4365 6371102
1447.4972 816.47314 2902.5137 6699811
1472.7804 820.97974 2918.5347 6107930
1473.6235 811.9162 2886.3142 5976345
1493.057 813.18573 2890.8271 5646610
1513.574 815.00989 2897.312 5778709
1533.4164 816.43396 2902.3745 5779222
1583.4935 833.74567 2963.9167 7095595
1620.8029 844.02881 3000.4727 6766886
1634.0337 841.6861 2992.1443 7095338
1674.9668 853.50983 3034.177 6963753
1689.8258 851.93701 3028.5857 7161384
1713.7139 854.90149 3039.1243 6305050
1720.8916 849.55493 3020.1174 7226408
1743.2268 851.72418 3027.8291 7292458
1782.9828 862.27405 3065.3335 7291688
1801.7883 862.58154 3066.4265 7160870
1840.1742 872.16309 3100.4883 7226662
1890.9989 887.3924 3154.6277 7226406
1937.6504 900.38428 3200.8132 7095077
2073.5215 954.18103 3392.0571 7489835
2091.0537 953.01093 3387.8977 7489835
2129.2124 961.17456 3416.9189 7226662
2176.5598 973.29321 3460 6634525
2307.4497 1022.1948 3633.8423 7029027
2324.4595 1020.2101 3626.7866 7357225
2353.7783 1023.6146 3638.8896 7357224
2371.4534 1021.9396 3632.9351 7357480
2428.7698 1037.2239 3687.2698 7489324
2426.4294 1026.9861 3650.8748 7225639
2458.4978 1031.3638 3666.4373 7160359
2497.5376 1038.5638 3692.0332 6765861
2494.7358 1028.3906 3655.8682 6436382
2492.9856 1018.8225 3621.854 6567712
2522.5715 1022.1146 3633.5574 6041625
2522.4519 1013.4167 3602.6365 6567969
2567.6755 1022.9287 3636.4514 6239516
2586.7332 1021.945 3632.9543 6305052
2608.8064 1022.1592 3633.7156 6173466
2643.1887 1027.1532 3651.469 6436895
2666.3599 1027.7448 3653.572 6502688
2685.2144 1026.6764 3649.7739 6304795
2698.717 1023.5951 3638.8201 6042137
2703.9067 1017.4347 3616.9202 6568225
2732.95 1020.2763 3627.022 6239260
2735.9937 1013.443 3602.73 6502688
2773.3711 1019.3346 3623.6743 6634274
2814.4832 1026.4978 3649.1392 6107930
2835.3828 1026.2361 3648.209 6370845
2904.8833 1043.4359 3709.353 5910039
2869.4365 1022.9633 3636.574 6106904
2860.75 1012.2649 3598.5417 6435869
2913.5115 1023.3069 3637.7959 7028005
2947.7637 1027.7336 3653.5327 6764319
2967.9451 1027.2258 3651.7273 6435868
2948.7017 1013.179 3601.7915 6764063
2993.3445 1021.1276 3630.0483 6632990
2949.04 998.83661 3550.8052 7159334
2990.9639 1005.8598 3575.7722 6895649
3005.6414 1003.6858 3568.0437 6896419
3020.5708 1001.6256 3560.72 6699040
3017.7395 993.74542 3532.7063 7159847
2983.29 975.63367 3468.3201 6370076
3027.428 983.29449 3495.554 6106904
3039.2681 980.43231 3485.3792 6238489
3082.0535 987.52399 3510.5896 6435868
3096.1267 985.38269 3502.9773 6765090
3107.8147 982.51562 3492.7852 7159848
3116.0295 978.59589 3478.8506 6699553
3125.1194 975.00055 3466.0696 7357482
3170.9465 982.83905 3493.9348 6435869
3165.4114 974.75928 3465.2117 6567712
3156.4785 965.74408 3433.1633 5910297
3220.0977 978.89984 3479.9314 6239262
3160.0688 954.53894 3393.3296 4200198
3129.7844 939.41388 3339.561 4003073
3113.6812 928.70856 3301.5042 4200451
3152.0601 934.28583 3321.3311 4070661
3182.5088 937.45789 3332.6074 6043425
0 0 0 0
0 0 0 0
0 0 0 0
0 0 0 0
-5421.394 1708.2662 5947.5049 8279083
-5739.646 1820.38 6337.8403 8080935
-5465.3706 1744.8073 6074.7261 7949606
-5406.6113 1737.4916 6049.2559 7883813
-5249.7227 1698.3326 5912.9199 7949608
-5154.8989 1678.8611 5845.1274 7620643
-5042.3027 1653.2985 5756.1289 7423007
-4950.7188 1634.3245 5690.0688 7423010
-4933.2759 1639.7334 5708.9004 7357472
-4793.4854 1604.27 5585.4312 7291679
-4690.438 1580.696 5503.356 7291680
-4636.0117 1573.2921 5477.5786 7160094
-4573.5815 1563.0487 5441.915 6831128
-4500.1206 1548.8632 5392.5264 6896667
-4448.2114 1541.9452 5368.4409 6699288
-4408.0913 1539.0441 5358.3403 6896410
-4325.145 1521.0397 5295.6562 6633495
-4286.9902 1518.6394 5287.2993 6304273
-4097.707 1462.2734 5091.0552 6567188
-4206.9985 1512.4082 5265.605 6699288
-4163.8921 1508.0963 5250.5923 6830617
-4118.4688 1502.8738 5232.4097 6699031
-4072.0671 1497.2124 5212.6992 6567445
-4014.2559 1487.2374 5177.9702 6699033
-3958.6587 1477.9353 5145.584 6172946
-3927.4438 1477.6626 5144.6343 6304530
-3927.9868 1489.4275 5185.5952 6370324
-3849.4646 1471.1613 5121.9995 6830618
-3867.4126 1489.7662 5186.7744 5909771
-3793.7224 1473.0863 5128.7017 6370325
-3757.6287 1470.8536 5120.9282 6699290
-3733.7141 1473.3905 5129.7607 6238741
-3597.8938 1431.4469 4983.7295 6107155
-3579.6641 1435.98 4999.5122 6238740
-3571.6106 1444.7053 5029.8901 6633499
-3532.3132 1440.833 5016.4087 6238741
-3501.5042 1440.3868 5014.855 5843982
-3464.7292 1437.4578 5004.6572 5975569
-3396.6345 1421.3719 4948.6528 6304533
-3363.6101 1419.8094 4943.2129 6238484
-3335.4241 1420.2798 4944.8501 5975312
-3296.3794 1416.0935 4930.2754 6172948
-3251.3101 1409.2213 4906.3491 6370069
-3235.1853 1414.8835 4926.063 6633496
-3176.3948 1401.8198 4880.5801 6370324
-3127.1948 1392.7874 4849.1323 6370325
-3087.4863 1387.8536 4831.9556 6304534
-2993.6497 1358.2689 4728.9531 6435863
-3016.6016 1381.6146 4810.2339 5580556
-2926.9719 1353.3512 4711.8315 5843729
-2935.1626 1370.2084 4770.5215 6238230
-2906.4666 1370.0062 4769.8179 6304024
-2878.6992 1370.2423 4770.6396 5185542
-2812.4993 1352.0078 4707.1543 5580556
-2798.1016 1358.5594 4729.9648 5646350
-2757.239 1352.2644 4708.0479 6172694
-2706.2788 1340.8378 4668.2646 5580557
-2677.8801 1340.4686 4666.9795 5646350
-2639.2051 1334.894 4647.5713 6173206
-2584.8975 1321.2119 4599.9351 6370586
-2542.5916 1313.4377 4572.8687 5449483
-2531.1289 1321.6005 4601.2881 5844242
-2489.1252 1313.8208 4574.2021 5778451
-2432.4438 1298.0372 4519.25 5975830
-2388.1406 1288.5813 4486.3281 4462595
-2368.2085 1292.2103 4498.9634 4462081
-2322.9421 1281.9414 4463.2109 4660228
-2286.8159 1276.5378 4444.3979 4725510
-2262.7036 1277.793 4448.7676 4791301
-2232.3801 1275.5286 4440.8843 4659716
-2190.5952 1266.5836 4409.7412 5251851
-2159.782 1263.8428 4400.1987 5383181
-2126.5952 1259.6292 4385.5283 5317388
-2079.98 1247.2588 4342.46 4725509
-2043.0107 1240.4353 4318.7031 5054216
-2017.317 1240.3716 4318.4814 5186058
-1980.2501 1233.2234 4293.5942 5318417
-1907.8669 1203.6094 4190.4897 4923402
-1903.6857 1216.8079 4236.4419 4923658
-1891.463 1225.1505 4265.4878 4726280
-1846.1541 1211.9982 4219.6963 4791817
-1833.8221 1220.4312 4249.0566 5120781
-1785.1357 1204.5677 4193.8267 4792073
-1744.2632 1193.6036 4155.6538 4660744
-1714.6012 1190.1067 4143.479 5121295
-1638.585 1153.8662 4017.304 4726537
-1635.2222 1168.4729 4068.1587 4923915
-1609.0895 1167.0026 4063.0396 5384467
-1599.4651 1177.6423 4100.083 5450260
-1546.9629 1156.5536 4026.6604 4726537
-1521.3905 1155.2529 4022.1321 4792332
-1490.0458 1149.458 4001.9563 5252882
-1477.3396 1158.0864 4031.9971 4792332
-1461.6895 1164.6528 4054.8584 4858122
-1416.6821 1147.6564 3995.6836 4397571
-1389.0996 1144.4377 3984.478 4923659
-1361.9398 1141.4624 3974.1189 4792073
-1330.3663 1134.618 3950.2896 4792075
-1300.4189 1128.9402 3930.5215 4660746
-1278.5527 1130.1987 3934.9031 4068610
-1243.0691 1119.2429 3896.7595 4463110
-1209.8182 1109.9209 3864.304 4923920
-1178.0543 1101.6299 3835.4375 4792590
-1166.9702 1112.7311 3874.0879 4661517
-1144.9247 1113.6162 3877.1694 4200965
-1108.7305 1100.494 3831.4832 5319189
-1085.5106 1099.9702 3829.6597 4726282
-1064.3029 1101.5067 3835.009 4594953
-1035.3823 1094.9536 3812.1938 6371106
-1007.0771 1088.7736 3790.6772 5910813
-969.68158 1072.2594 3733.1814 5121295
-947.78375 1072.5114 3734.0588 4594696
-916.03882 1061.3663 3695.2561 4528646
-894.42255 1061.6981 3696.4114 4397060
-869.73663 1058.3115 3684.6206 4528647
-849.49078 1060.2922 3691.5168 4462854
-822.64673 1053.9247 3669.3472 4529159
-796.02771 1047.5073 3647.0046 5121294
-781.86768 1057.5845 3682.0891 4857096
-754.91809 1050.4438 3657.2283 4792072
-729.72308 1045.3947 3639.6494 4660486
-712.74469 1052.1675 3663.2297 5252623
-681.67786 1037.915 3613.6082 4857866
-663.47968 1042.9672 3631.1975 4660231
-652.89795 1060.7321 3693.0479 4133889
-623.94476 1048.8467 3651.668 4199682
-602.13568 1048.5481 3650.6284 4462598
-569.35535 1028.4102 3580.5161 4133635
-554.94952 1041.1874 3625.0012 5186577
-535.67902 1045.499 3640.0122 4725769
-508.64447 1034.3832 3601.3115 4067841
-482.4444 1024.0652 3565.3884 4594183
-464.2948 1030.6732 3588.395 4725769
-437.98578 1018.9333 3547.5215 4594184
-418.6037 1022.9371 3561.4612 4199683
-391.72614 1008.0769 3509.7236 4528646
-369.96481 1005.455 3500.595 4265729
-348.85956 1004.4104 3496.958 4660230
-329.12292 1007.4231 3507.4473 4463107
-307.79407 1005.6397 3501.238 4857866
-287.34091 1006.6666 3504.8132 4331522
-264.69714 999.58081 3480.1436 4397061
-243.34296 996.5791 3469.6929 4397061
-222.28432 994.34564 3461.9165 4989198
-200.50543 988.1084 3440.2012 4068354
-179.56357 985.05115 3429.5571 5515798
-160.13486 990.57391 3448.7852 4660489
-138.71057 983.56232 3424.3733 4002818
-117.80492 978.45538 3406.593 4200195
-97.565201 977.91113 3404.6982 4660745
-76.921478 971.97845 3384.043 4397574
-56.685951 968.83844 3373.1108 4265988
-36.558598 965.13422 3360.2141 4134147
-16.559019 959.97681 3342.2581 4199941
3.217912 951.90411 3314.1521 3936771
23.035328 959.38971 3340.2141 4726284
42.860241 960.12457 3342.7725 4529162
62.54285 958.21466 3336.123 4002818
83.176277 968.29095 3371.2046 4331783
102.72276 964.2616 3357.176 4397576
121.7101 957.14233 3332.3896 4397575
140.94888 953.71198 3320.4465 4463369
160.34401 952.05048 3314.6616 4069124
179.29556 948.40503 3301.97 3740419
194.93674 929.68921 3236.8086 4858898
218.66597 949.44458 3305.5891 4463882
241.0842 960.72729 3344.8711 4003589
257.75644 949.13739 3304.5195 4332553
278.1163 951.80438 3313.8049 4069380
296.73599 948.5567 3302.4978 4661518
314.29932 942.54309 3281.5608 4661518
330.91946 934.56653 3253.7896 4003587
351.15726 937.12256 3262.6885 4200455
364.67932 922.42493 3211.5173 4463370
383.98926 923.09906 3213.8643 4068611
401.3089 919.15082 3200.1182 4135174
418.70975 915.73657 3188.2312 3937538
438.5925 917.81073 3195.4526 3806211
455.31512 913.37408 3180.0059 3806467
474.00726 913.0838 3178.9954 4003846
491.83975 911.22314 3172.5171 3477505
511.21875 912.25909 3176.1238 3806469
528.49927 909.6098 3166.9001 3345920
545.23608 906.23853 3155.1626 3411712
563.65472 905.79346 3153.613 4134919
580.38666 902.75323 3143.0286 3937540
602.20178 907.56305 3159.7742 3937796
619.2677 905.14111 3151.3418 3937796
633.91248 899.42566 3131.4431 3609861
650.72211 897.01959 3123.0662 3806210
667.46887 894.66241 3114.8591 3872006
683.82489 891.9223 3105.3193 4266762
699.96484 889.05139 3095.324 4595724
718.24323 888.97382 3095.054 5187862
731.8172 883.22241 3075.0298 3543040
751.99304 885.5246 3083.0452 3543040
773.34998 889.0755 3095.408 3345920
791.59106 888.96271 3095.0151 3740676
806.79242 885.51855 3083.0242 3280130
826.77905 887.36304 3089.4458 4003848
831.3056 872.89404 3039.0706 3477507
864.13104 888.12317 3092.0923 4529934
872.77765 878.3858 3058.1904 3543297
885.73077 873.29053 3040.4507 4069128
901.6178 871.23328 3033.2883 3279872
912.03107 864.07068 3008.3508 2097408
936.85309 870.57214 3030.9863 3871748
952.34369 868.32068 3023.1477 4463884
952.78076 852.68048 2968.6948 4266503
964.17188 847.23279 2949.7283 5055505
985.2431 850.33374 2960.5244 3937029
1017.5222 862.83002 3004.0317 5976609
1016.8965 847.47418 2950.5686 4331527
1035.0992 848.06366 2952.6208 4134405
1043.7839 840.96484 2927.9058 3871748
1066.0011 844.82294 2941.3379 4332554
1083.788 845.10236 2942.3108 3805700
1103.0498 846.5047 2947.1934 5121042
1112.2517 840.26361 2925.4644 3673856
1115.6638 829.9071 2889.407 5055247
1138.667 834.21661 2904.4111 4068353
1145.0961 826.43604 2877.322 6041883
1158.62 823.92896 2868.5935 5121038
1182.2916 828.60651 2884.8787 5450002
1199.6047 828.75787 2885.4058 5318417
1211.7426 825.37976 2873.6445 5712664
1236.6602 830.67963 2892.0967 4396805
1229.5669 814.62634 2836.2056 5186575
1282.168 838.02222 2917.6606 5186831
1294.0914 834.56244 2905.615 5383696
1302.1361 828.72491 2885.291 5317391
1318.4309 828.22125 2883.5376 5515026
1336.2273 828.66174 2885.0713 5317647
1354.116 829.14758 2886.7627 5317644
1379.438 834.11609 2904.061 5712403
1388.6577 829.3454 2887.4514 6238746
1402.7629 827.57318 2881.2812 5843988
1408.5378 820.9881 2858.3545 6172952
1431.5658 824.49609 2870.5681 6304283
1437.0538 817.93848 2847.7371 6502689
1461.8993 822.42303 2863.3506 4331527
1476.2008 820.94098 2858.1904 5844759
1502.8662 826.29041 2876.8149 5844759
1525.5184 829.33801 2887.4255 5778965
1522.0316 818.26526 2848.8748 6700580
1549.5375 823.91479 2868.5442 6568993
1601.3125 842.20612 2932.2273 7621936
1624.5996 845.28235 2942.9375 7556657
1657.1313 853.05219 2969.989 7951670
1674.9651 853.17218 2970.4067 7950901
1680.1776 846.92755 2948.6655 7227434
1714.8538 855.51038 2978.5476 6634527
1727.5388 853.05914 2970.0132 6634014
1744.0306 852.51819 2968.1299 7621423
1768.5237 855.86011 2979.7651 7358248
1815.1694 869.75055 3028.126 6897698
1857.1621 881.1615 3067.8542 7424555
1862.0917 874.9364 3046.1809 7950899
1942.3433 903.88232 3146.9592 7555882
1967.152 906.72247 3156.8474 8081715
2045.2181 933.82581 3251.2107 9068610
2180.0261 986.08942 3433.1719 6700063
2209.2444 990.06689 3447.02 7357222
2235.5571 992.68134 3456.1223 7028513
2287.4663 1006.5109 3504.2715 7423271
2315.4358 1009.6529 3515.2104 7225894
2355.76 1018.0781 3544.5435 6896930
2372.064 1016.0652 3537.5359 7423017
2393.6211 1016.3182 3538.4165 7225894
2442.5647 1028.094 3579.4153 6962466
2466.0552 1029.0458 3582.7288 7028516
2483.1917 1027.3527 3576.834 6831138
2523.02 1034.9967 3603.4478 6896930
2540.2544 1033.3219 3597.6165 6567965
2558.5938 1032.1205 3593.4338 6699295
2585.3313 1034.299 3601.0181 6436381
2586.4858 1026.2905 3573.136 6699296
2608.8486 1026.759 3574.7673 6765089
2620.3176 1022.9672 3561.5654 6567967
2623.9377 1016.1961 3537.9915 6502431
2691.5278 1034.1104 3600.3616 7095081
2666.4617 1016.4233 3538.7822 6897701
2691.1765 1017.8401 3543.7151 7883828
2718.6531 1020.2715 3552.1802 7094311
2697.8911 1004.7013 3497.9709 6370588
2731.4128 1009.4299 3514.4338 6370589
2772.7236 1016.9434 3540.5933 6764834
2799.6145 1019.0953 3548.0852 6633247
2802.0564 1012.3817 3524.7112 6698784
2843.4653 1019.742 3550.3367 6370075
2827.5984 1006.6044 3504.5969 6041110
2849.3186 1006.9415 3505.7708 6764576
2869.3276 1006.6735 3504.8374 6764576
2889.1003 1006.327 3503.6309 8014900
2890.1204 999.50018 3479.8625 7356970
2905.2244 997.60614 3473.2686 6830626
2953.6455 1007.0988 3506.3184 6765089
2980.386 1009.1183 3513.3494 6896674
2961.8889 995.89899 3467.325 6962213
2974.1851 993.14441 3457.7346 7159592
2989.0332 991.27393 3451.2222 7225385
3014.6465 992.97473 3457.1438 6830884
3051.9182 998.46667 3476.2644 7028006
3054.1582 992.50085 3455.4939 6764834
3057.3127 986.90973 3436.0276 6962470
3062.8076 982.14301 3419.4319 7094055
3083.5229 982.2876 3419.9353 6764835
3073.0684 972.56549 3386.0869 7159849
3084.9275 969.98566 3377.105 6765091
3144.2351 982.26215 3419.8467 6699041
3100.301 962.33502 3350.4685 6239775
3096.0332 954.89557 3324.5674 6502691
3130.6504 959.46753 3340.4849 6831913
3145.1528 957.85608 3334.8745 6042142
3138.3633 949.82074 3306.8987 4923918
3177.8604 955.8067 3327.7395 4397573
0 0 0 0
0 0 0 0
0 0 0 0
0 0 0 0
-5277.2715 1697.1583 5789.3965 8015142
-5170.6396 1673.7457 5709.5312 7883813
-5104.7329 1663.2944 5673.8794 7883812
-5063.1851 1660.6942 5665.0093 8278570
-4984.8423 1645.91 5614.5771 8278314
-4926.2578 1637.4951 5585.8716 8146984
-4860.6299 1626.6093 5548.7373 8080936
-4781.9922 1611.1917 5496.1445 8212780
-4735.0464 1606.3136 5479.5044 7817765
-4651.5796 1588.8934 5420.0806 7818021
-4569.5029 1571.7092 5361.4614 7554852
-4494.3438 1556.6804 5310.1943 7225887
-4456.0767 1554.3076 5302.1006 6962715
-4383.9404 1540.0038 5253.3066 7159582
-4341 1535.8246 5239.0503 7094045
-4297.2305 1531.2898 5223.5811 6896667
-4254.0801 1526.9113 5208.645 6830873
-4220.127 1525.7942 5204.8345 6962460
-4185.335 1524.3551 5199.9253 7027739
-4130.9058 1515.6895 5170.3647 7093789
-4092.4417 1512.7959 5160.4941 6961946
-4049.0195 1508.0123 5144.1763 6830617
-4013.7964 1506.2328 5138.106 6633238
-3946.449 1492.2789 5090.5063 6699031
-3912.563 1490.8605 5085.6675 6567444
-3882.2939 1490.8088 5085.4912 6633238
-3735.0281 1445.478 4930.8574 6633237
-3798.9268 1481.7986 5054.7554 7093789
-3794.292 1491.752 5088.7085 6699288
-3739.7603 1482.0903 5055.7505 6699033
-3710.8601 1482.5128 5057.1914 6633496
-3678.1575 1481.4105 5053.4316 6238738
-3617.3813 1468.8906 5010.7231 6370326
-3563.3167 1458.9111 4976.6807 6238741
-3520.531 1453.4216 4957.9551 6041105
-3483.9065 1450.4049 4947.6641 6238484
-3451.9441 1449.2941 4943.875 5712396
-3429.4561 1452.1763 4953.7065 5711627
-3351.8293 1431.5585 4883.3745 5843726
-3306.0427 1424.2988 4858.6104 5975312
-3284.7959 1427.5768 4869.7925 5975567
-3241.8838 1421.4137 4848.7686 5909773
-3195.0298 1413.3966 4821.4204 6172689
-3158.1265 1409.6763 4808.7295 6435861
-3124.7749 1407.4883 4801.2656 6238739
-3089.6121 1404.4365 4790.8555 6370325
-3044.5637 1396.7928 4764.7812 6107152
-3040.0852 1407.7931 4802.3057 5843980
-3000.0742 1402.3915 4783.8794 6041361
-2911.9993 1374.2048 4687.7285 6633241
-2894.8083 1379.2487 4704.9336 6436120
-2848.4045 1370.3363 4674.5317 6172948
-2829.8462 1374.7767 4689.6792 6370326
-2796.3794 1371.9907 4680.1753 5843730
-2744.71 1360.1287 4639.7109 5383178
-2705.4893 1354.2578 4619.6841 6106645
-2688.8228 1359.672 4638.1533 5975571
-2646.9485 1352.3195 4613.0723 5843985
-2597.1162 1340.7052 4573.4536 6436378
-2537.4912 1323.7377 4515.5732 6436379
-2514.3159 1325.626 4522.0146 5317900
-2472.4958 1317.6188 4494.7002 5054727
-2438.2874 1313.5377 4480.7788 5186314
-2387.9443 1300.5792 4436.5742 5843987
-2362.0857 1300.8159 4437.3818 5383436
-2320.979 1292.5663 4409.2402 4791301
-2282.9768 1285.8773 4386.4229 5054473
-2265.9873 1291.0059 4403.9175 5448974
-2238.5933 1290.2571 4401.3633 5317388
-2217.6702 1293.2644 4411.6216 5580816
-2151.8867 1269.8704 4331.8193 5186057
-2125.5183 1269.4519 4330.3921 5910036
-2116.5447 1279.5391 4364.8018 5449486
-2055.3301 1257.9034 4290.9976 5384208
-2000.3932 1239.6158 4228.6143 5318415
-1970.7069 1236.7103 4218.7026 5450001
-1925.8213 1224.0692 4175.5811 4857866
-1911.5428 1230.8064 4198.5635 5186831
-1885.1418 1229.8131 4195.1748 4989195
-1862.5144 1231.2877 4200.2051 4989452
-1825.5366 1223.187 4172.5718 5186831
-1812.5026 1231.1273 4199.6582 4792073
-1766.0089 1216.2454 4148.8921 4858122
-1731.8816 1209.58 4126.1548 4331522
-1664.1877 1178.9446 4021.6506 4726023
-1640.3578 1178.9446 4021.6506 4792073
-1614.5736 1177.5192 4016.7883 5252367
-1586.5089 1174.3632 4006.0227 5383951
-1568.144 1178.4004 4019.7944 5515539
-1538.8579 1174.2286 4005.5635 4660487
-1509.6924 1170.0195 3991.2053 4199681
-1484.0786 1168.473 3985.9297 4726280
-1488.1212 1190.6036 4061.4224 5450003
-1440.592 1171.5226 3996.3325 4594694
-1411.3358 1166.9119 3980.6045 4989708
-1379.2827 1159.7927 3956.3193 5121038
-1349.079 1154.0094 3936.5911 4857866
-1322.8617 1151.4927 3928.0059 5252624
-1291.0341 1143.9146 3902.1555 4791818
-1259.8132 1136.6077 3877.2297 4594952
-1233.5172 1133.5549 3866.8164 5384468
-1190.6833 1114.9015 3803.1848 5055504
-1167.9059 1114.6705 3802.397 4528903
-1148.1912 1117.4109 3811.7454 4134659
-1116.0543 1107.9297 3779.4026 4726539
-1096.2942 1110.5985 3788.5066 4726538
-1072.2173 1108.9143 3782.7612 4923918
-1044.8389 1103.6707 3764.874 4989709
-1026.5964 1108.0592 3779.8445 4463364
-991.6991 1094.2662 3732.7935 4068096
-978.8042 1104.6758 3768.3027 5186831
-930.54004 1074.7218 3666.1228 4923662
-905.875 1071.2429 3654.2556 4528647
-883.69299 1070.6019 3652.0691 4528904
-856.60492 1063.8358 3628.9885 4463110
-831.36816 1059.0797 3612.7639 4857866
-815.79395 1066.7065 3638.781 5055245
-791.86346 1063.5245 3627.9263 4989452
-773.41943 1067.7391 3642.3035 4594694
-748.55286 1063.0746 3626.3916 4594693
-723.15082 1057.3514 3606.8687 5055244
-698.88477 1052.9912 3591.9951 4002304
-674.51538 1048.1967 3575.6396 4265730
-654.99207 1050.8661 3584.7454 4791816
-635.04077 1053.0046 3592.0408 4726280
-612.74371 1051.2671 3586.1133 4660230
-585.83179 1041.2026 3551.7812 4857609
-568.46979 1047.9937 3574.947 4791816
-546.52802 1046.5408 3569.9907 4528901
-522.72632 1041.2659 3551.9968 4726027
-496.94821 1031.446 3518.4993 4331268
-476.1561 1031.5684 3518.9165 4462853
-454.62363 1030.0243 3513.6494 4594440
-432.92633 1027.9407 3506.5417 4528390
-410.37601 1023.5195 3491.4602 4791816
-389.25607 1022.3858 3487.5928 4791816
-365.21002 1013.0087 3455.6052 4528904
-346.63617 1018.5977 3474.6709 4923402
-325.64911 1017.3537 3470.427 4265731
-303.87326 1013.3115 3456.6379 4528901
-283.28754 1012.9404 3455.3726 4331521
-260.14401 1002.6533 3420.2808 4726026
-241.44444 1009.203 3442.6233 4528903
-218.28951 996.62012 3399.7002 4528390
-198.16881 996.7403 3400.1101 4726283
-177.79604 995.47638 3395.7983 4594953
-158.2007 998.7981 3407.1296 4397574
-137.83769 997.53601 3402.8242 4594953
-116.88577 990.84906 3380.0137 4397574
-96.623779 988.45477 3371.8462 4397574
-76.315788 984.21881 3357.3965 4397574
-56.047066 977.68091 3335.094 4792075
-36.130833 973.51892 3320.8967 4528903
-16.260874 962.13995 3282.0803 4726541
3.2134099 970.18256 3309.5156 4463626
22.899023 973.38794 3320.4497 4989969
42.390881 969.20062 3306.166 4661004
62.206264 972.71936 3318.1692 3542528
81.60981 969.65466 3307.7146 4989199
100.88906 966.58606 3297.2468 4660491
119.7152 960.87634 3277.7698 4266503
139.75578 965.14758 3292.3398 4266760
159.65236 967.49976 3300.3638 4003333
177.80736 959.9361 3274.5625 4068867
197.44464 961.07605 3278.4512 4332296
214.5455 950.77148 3243.2998 4003077
237.1667 964.61365 3290.5186 4003334
255.86615 961.61389 3280.2856 4200196
273.36514 954.84448 3257.1938 4002820
293.89273 958.84906 3270.8542 3871236
307.77472 942.01764 3213.4385 4464140
327.03827 942.65936 3215.6274 4990226
343.48853 935.56775 3191.4365 2754304
361.88293 934.23529 3186.8911 3871490
381.05063 934.93225 3189.2688 3476736
396.52612 926.9325 3161.9795 3805954
416.28339 929.2121 3169.7559 4332296
433.98175 926.89752 3161.8601 3609092
450.9003 923.17786 3149.1716 2622464
472.80023 929.54755 3170.9001 4924948
490.72339 927.91058 3165.3159 3411456
508.83313 926.73401 3161.3025 4464140
527.78046 927.11224 3162.5928 3148544
540.17017 916.34027 3125.8472 3280128
559.03223 916.89819 3127.7502 5516315
576.33746 914.94885 3121.1006 4990227
589.64349 906.96918 3093.8801 3937540
607.18195 905.78467 3089.8394 4200712
626.41992 907.13055 3094.4307 4266504
646.1496 909.0918 3101.1208 3411200
659.62561 902.38934 3078.2571 4068869
674.94891 898.50659 3065.0125 3542786
695.32153 901.37311 3074.7905 4003333
710.02905 896.93683 3059.6575 4200968
726.54254 894.94598 3052.8662 4858642
748.63141 899.75269 3069.2632 3872260
761.66821 893.71008 3048.6504 3806212
782.02979 896.34302 3057.6318 3872261
802.23755 898.68427 3065.6184 3872008
820.03973 898.28693 3064.2629 2819840
833.90558 893.68805 3048.5752 4595984
843.5589 884.86548 3018.4795 3806210
846.88776 869.9129 2967.4727 4266504
874.43329 879.93768 3001.6694 4069125
897.85797 885.4986 3020.6392 4003845
911.28461 881.17462 3005.8889 4727056
916.96674 869.67108 2966.6479 3609089
940.47937 875.1933 2985.4854 3477249
942.8963 861.24268 2937.8965 4332298
963.89777 864.46527 2948.8894 4857871
971.784 856.02026 2920.0815 3673857
992.90973 859.32898 2931.3684 3937027
1011.9969 860.78992 2936.3523 4463369
1020.2265 853.12238 2910.1963 3871747
1033.7506 850.06329 2899.7612 2688512
1050.9921 850.11127 2899.9248 4924178
1079.2024 858.88721 2929.8616 2951424
1089.8163 853.60278 2911.8352 3740161
1095.4449 844.63922 2881.2585 4003333
1115.9425 847.23969 2890.1289 2885888
1139.7689 852.25043 2907.2219 4792332
1141.3971 840.76062 2868.0276 5384210
1151.2196 835.55542 2850.2712 5318160
1164.1547 832.72705 2840.6233 5318417
1189.7991 838.94092 2861.8201 5186575
1213.0667 843.32776 2876.7847 5515540
1228.8461 842.45935 2873.8223 5712919
1247.5408 843.58612 2877.6658 4659975
1255.8085 837.72662 2857.678 4002562
1234.6842 812.67719 2772.2285 5515541
1282.6644 833.17328 2842.1455 4857096
1301.9163 834.71912 2847.4185 5515025
1321.1776 836.23138 2852.5771 4593669
1337.1451 835.64691 2850.5835 4725511
1347.0139 831.31317 2835.8003 4462339
1369.5607 834.81421 2847.7429 5449231
1380.728 831.37799 2836.0212 6041111
1402.6038 834.39478 2846.3123 6304283
1433.5219 842.65527 2874.4905 5580817
1441.8181 837.58014 2857.1782 5252622
1445.2679 829.84015 2830.7754 5713173
1453.2203 824.83337 2813.696 5186572
1481.7472 831.48566 2836.3884 6305310
1487.9181 825.58423 2816.2573 5186829
1494.1256 819.83386 2796.6416 5449744
1525.0947 827.6474 2823.2954 5910552
1544.41 829.03564 2828.031 6042394
1587.9301 843.24762 2876.5112 6173466
1591.5704 836.2052 2852.4878 6305565
1619.9196 842.15619 2872.7881 5121292
1661.2993 854.68726 2915.5344 7160361
1688.8396 859.9137 2933.3633 6832165
1676.8286 845.1004 2882.8315 6831653
1726.1008 861.16016 2937.6152 6765858
1744.2601 861.53198 2938.8835 7292457
1772.5289 866.84052 2956.9919 7423787
1784.9298 864.3609 2948.5334 7292201
1832.5247 878.80695 2997.8123 7160872
1852.3134 879.76892 3001.0938 7029285
1867.4524 878.52521 2996.8513 7424043
1926.2146 897.63379 3062.0349 7753007
2041.9873 942.70526 3215.7842 8016179
2109.4001 964.82385 3291.2358 8081972
2160.717 979.24243 3340.4209 7292200
2232.5142 1002.5969 3420.0879 8146997
2242.3879 997.97198 3404.3115 7423274
2269.3887 1000.984 3414.5864 7423274
2321.7878 1015.0466 3462.5574 7225638
2341.072 1014.5125 3460.7349 7094308
2413.3252 1036.7424 3536.5664 7883825
2401.3857 1022.7327 3488.7759 7225638
2422.9653 1023.1158 3490.0828 7094824
2460.0752 1029.9945 3513.5479 7292200
2498.6746 1037.3763 3538.729 7554603
2499.2869 1028.9955 3510.1401 6765343
2531.7942 1033.7762 3526.448 6765346
2551.4619 1033.2789 3524.7517 6436380
2582.2617 1037.2614 3538.3367 6962468
2595.6252 1034.2321 3528.0032 6436381
2598.3267 1027.0367 3503.4585 6502172
2609.9563 1023.4567 3491.2461 7225639
2630.8206 1023.5257 3491.4812 7028260
2645.6277 1021.2554 3483.7368 7423019
2654.8123 1016.8667 3468.7659 7291690
2674.9373 1016.7036 3468.2097 7291690
2689.6167 1014.4892 3460.6558 6896932
2704.7488 1012.4777 3453.7939 6765346
2749.6348 1021.5505 3484.7434 6830627
2747.6292 1013.1967 3456.2468 6764833
2760.8667 1010.546 3447.2046 6501660
2789.2573 1013.4399 3457.0762 6830626
2795.7141 1008.3802 3439.8164 6238232
2828.4048 1012.7875 3454.8508 6435868
2831.0315 1006.4436 3433.2104 6830626
2853.8042 1007.3013 3436.136 7028005
2831.7571 992.43866 3385.4363 6633247
2873.675 1000.0454 3411.3845 6962212
2881.5872 995.79419 3396.8826 6961955
2930.2903 1005.6005 3430.3342 6633248
2914.8306 993.4043 3388.7302 6370333
2923.9695 989.70111 3376.0979 7094056
2948.7058 991.29181 3381.5239 6830628
2926.459 977.17285 3333.3611 6567712
2963.4858 982.90265 3352.9065 6962213
2987.2922 984.20038 3357.3335 6567711
2972.9263 972.98785 3319.085 6962213
2983.5398 970.04437 3309.0439 6830627
3020.8638 975.76691 3328.5649 7159848
3030.9431 972.67206 3318.0078 7225641
3048.7397 972.07776 3315.9805 7357228
3043.394 964.15948 3288.9695 6436125
3059.8091 963.19202 3285.6692 6107931
3058.1543 956.58459 3263.1296 6239518
3089.9485 960.45721 3276.3401 6502434
3049.0991 941.84241 3212.8408 6173982
3115.2639 956.30933 3262.1909 6502947
0 0 0 0
0 0 0 0
0 0 0 0
0 0 0 0
0 0 0 0
-4950.8477 1634.9918 5466.832 9002293
-4888.6416 1625.0814 5433.6948 8936501
-4912.9824 1644.0001 5496.9526 8738865
-4818.791 1623.2432 5427.5488 8475949
-4710.9688 1597.5847 5341.7559 8278571
-4663.3291 1592.1265 5323.5054 8278314
-4623.5127 1589.2827 5313.9971 8410159
-4554.7026 1576.3657 5270.8071 8015401
-4485.3735 1563.0891 5226.415 7949351
-4427.9624 1553.8103 5195.3896 7818022
-4406.8145 1557.2156 5206.7759 7883558
-4330.2056 1540.9326 5152.3315 7883816
-4282.9917 1534.9535 5132.3394 7357473
-4165.8716 1503.6561 5027.6919 7291679
-4208.1265 1529.8483 5115.269 7225886
-4154.2144 1521.2054 5086.3706 7159837
-4115.416 1518.0112 5075.6904 7159838
-4074.9302 1514.1432 5062.7568 7290910
-4036.928 1511.1473 5052.7397 7159325
-4025.6016 1518.1667 5076.2104 6633237
-3962.0461 1505.4467 5033.6787 6830361
-3935.0566 1506.5328 5037.3105 6633238
-3894.7957 1502.5159 5023.8794 6962202
-3874.6604 1506.2607 5036.4009 6896666
-3837.3096 1503.3193 5026.5659 7160094
-3782.6655 1493.504 4993.7471 7291680
-3760.4653 1496.4447 5003.5796 7028251
-3706.9978 1486.8906 4971.6343 6699287
-3687.5776 1490.9495 4985.2056 6436115
-3626.094 1477.9294 4941.6714 7159838
-3606.1299 1481.7581 4954.4727 6896410
-3573.1082 1480.24 4949.397 6699290
-3535.8044 1476.9082 4938.2563 6041103
-3492.7073 1471.0806 4918.771 6369557
-3430.6833 1457.1162 4872.0791 6369557
-3411.2952 1461.1772 4885.6577 6237971
-3359.5664 1451.3365 4852.7539 6172178
-3308.9873 1441.8268 4820.9565 6237971
-3290.3628 1446.1964 4835.5674 5909516
-3257.7952 1444.4606 4829.7632 5975312
-3173.8147 1419.6962 4746.96 5580553
-3168.9207 1430.182 4782.0205 6370324
-3122.5188 1421.9547 4754.5117 6501654
-3090.7451 1420.2998 4748.978 6172946
-3050.4407 1414.6582 4730.1147 6172946
-3033.2327 1419.7225 4747.0479 6304531
-2988.5398 1411.8967 4720.8813 6238739
-2949.6658 1406.6981 4703.499 6370325
-2849.8271 1372.0488 4587.644 7949357
-2815.0278 1368.347 4575.2666 6896669
-2784.9858 1366.9081 4570.4551 6567704
-2741.0137 1358.5366 4542.4639 5843983
-2728.2195 1365.6052 4566.0991 6172438
-2708.3022 1369.2144 4578.1665 5844242
-2663.3032 1360.0878 4547.6504 6304791
-2645.2542 1364.678 4562.9985 7357222
-2584.6367 1347.1754 4504.4761 6896672
-2573.0254 1355.1171 4531.0303 5449228
-2510.1699 1335.9535 4466.9541 4725768
-2476.3652 1332.0074 4453.7598 5251850
-2428.322 1320.2351 4414.3975 5120264
-2400.3823 1319.2554 4411.1216 5317644
-2356.2373 1309.2495 4377.6655 5054473
-2314.0854 1300.1407 4347.209 5054473
-2308.3293 1311.5056 4385.209 4659715
-2257.3052 1297.1169 4337.0981 5317899
-2217.896 1289.1478 4310.4526 5186057
-2179.3755 1281.5157 4284.9336 5317899
-2150.4995 1279.4418 4277.999 5252107
-2126.9971 1280.5535 4281.7158 5317899
-2092.009 1274.6936 4262.1226 4922885
-2064.95 1273.5807 4258.4014 5449486
-2027.8844 1266.1924 4233.6978 4988937
-1967.7061 1244.0068 4159.5171 5318158
-1957.5518 1253.2855 4190.5415 4989450
-1926.296 1249.119 4176.6104 4594694
-1897.0045 1246.1345 4166.6313 5581333
-1856.1589 1235.3813 4130.6763 5252623
-1838.5303 1239.9994 4146.1177 5384208
-1819.8275 1244.0084 4159.5225 5450002
-1791.494 1241.4537 4150.9805 5121293
-1749.2393 1229.0465 4109.4951 5121295
-1704.4551 1214.4867 4060.8123 4331522
-1667.4674 1205.1449 4029.5764 4331779
-1639.9901 1202.5048 4020.749 4331524
-1600.2562 1190.6674 3981.1689 5318674
-1576.3121 1190.4001 3980.2754 4989452
