# .PCD v0.7 - Point Cloud Data file format
VERSION 0.7
FIELDS x y z rgb
SIZE 4 4 4 4
TYPE F F F U
COUNT 1 1 1 1
WIDTH 1297
HEIGHT 1
VIEWPOINT 0 0 0 1 0 0 0
POINTS 1297
DATA ascii
1562.656 1432.0739 5971.4326 7566447
1607.0156 1440.118 6004.9751 7632240
1654.6791 1450.7104 6049.1431 7631727
1695.2927 1454.8037 6066.2114 7697519
1725.5741 1450.0447 6046.3672 7500141
1738.1862 1430.9332 5966.6768 7171176
1785.8466 1440.8616 6008.0757 7565678
1820.173 1439.8538 6003.8735 7434861
1875.7064 1455.3391 6068.4438 7500654
1896.6667 1443.9215 6020.835 7632240
1935.4398 1446.2357 6030.4849 7632240
1942.285 1425.0409 5942.1069 7566447
2022.9858 1457.8234 6078.8027 7698033
2040.4209 1444.6653 6023.9365 7829619
2101.3184 1462.2029 6097.0645 7763826
2120.8049 1450.819 6049.5962 7763313
2139.8896 1439.5432 6002.5786 7763313
2190.0535 1449.2018 6042.8525 7829106
2223.9299 1447.9453 6037.6133 7763313
2225.5161 1426.038 5946.2646 7763313
2280.1675 1438.2861 5997.3369 7697520
2321.707 1442.0146 6012.8838 7697520
2332.2917 1426.6948 5949.0034 7763313
2390.6138 1440.598 6006.9771 7763313
2414.5542 1433.6788 5978.125 7763312
2462.168 1440.8125 6007.8711 7697519
2490.1948 1436.4447 5989.6582 7763312
2528.8237 1438.2292 5997.0991 7631983
2579.1033 1446.4987 6031.5811 7894384
2591.9854 1433.8542 5978.8564 7960177
2656.2524 1449.593 6044.4839 7960176
2698.2646 1452.9294 6058.396 7828335
2722.7705 1446.8755 6033.1523 7894129
2758.2495 1446.7339 6032.562 7959922
2800.6697 1450.1901 6046.9736 7959922
2855.0784 1459.6884 6086.5791 7894642
2913.8357 1471.145 6134.3511 7894898
2973.4949 1482.7693 6182.8213 7894898
2969.4109 1462.7111 6099.1831 7960691
3002.6792 1461.3134 6093.355 7894898
3065.7507 1474.281 6147.4272 7960691
3118.1638 1481.8787 6179.1079 7894898
3072.7188 1443.3336 6018.3838 8223349
3107.679 1443.0081 6017.0259 7762798
3218.4678 1477.5005 6160.8516 7828848
3264.5918 1481.8665 6179.0571 7763312
3298.9409 1480.8502 6174.8193 7960691
3345.9954 1485.4967 6194.1943 7960691
3389.1323 1488.3221 6205.9756 7829105
3415.6428 1483.8638 6187.3853 7697521
3478.2 1494.9938 6233.7949 7631727
3500.1924 1488.6375 6207.2905 7631727
3545.5676 1492.2548 6222.374 7697520
3600.3748 1499.7263 6253.5288 7697520
3636.813 1499.4722 6252.4688 7697520
3666.9265 1496.6418 6240.667 7763313
3733.7458 1508.6996 6290.9453 7763313
3771.7622 1508.9956 6292.1797 7763313
3838.5774 1520.6948 6340.9624 7763313
3850.6499 1510.6906 6299.2471 7763312
3931.675 1527.6703 6370.0488 7828847
3974.0049 1529.4347 6377.4062 7894127
4000.8071 1525.2463 6359.9414 7959920
4074.8149 1538.9645 6417.1431 7827822
0 0 0 0
0 0 0 0
0 0 0 0
0 0 0 0
0 0 0 0
0 0 0 0
0 0 0 0
0 0 0 0
0 0 0 0
0 0 0 0
0 0 0 0
0 0 0 0
0 0 0 0
0 0 0 0
0 0 0 0
0 0 0 0
0 0 0 0
0 0 0 0
0 0 0 0
7617.3223 2424.4189 10109.294 7696752
6500.9253 2052.9514 8560.3555 8091253
6666.958 2089.0833 8711.0176 8551291
6615.271 2056.9622 8577.0791 8879742
6419.7095 1980.9351 8260.0635 9471623
6149.9487 1883.3361 7853.0972 10261139
6150.5566 1869.3779 7794.8945 10919068
6137.9692 1851.6471 7720.9609 11116959
6055.0903 1813.1305 7560.3555 10787993
6085.0801 1808.729 7542.002 11051424
6048.8521 1784.8527 7442.4424 12893628
6122.0835 1793.3864 7478.0264 12828347
6202.4824 1803.8821 7521.7915 12894910
6252.8008 1805.5421 7528.7129 10985885
6151.7773 1763.7869 7354.6035 13224131
6408.7856 1824.5493 7607.9692 13553353
6498.0244 1837.0332 7660.0239 11645873
6568.8892 1844.1855 7689.8477 13750991
6652.0845 1854.6771 7733.5957 13685455
6796.3647 1881.9398 7847.2744 13619662
6929.5083 1905.7693 7946.6387 13685198
6828.3247 1865.2666 7777.7515 13619918
6901.2017 1872.536 7808.063 13619662
6983.8662 1882.3464 7848.9702 13553869
6972.1636 1866.7607 7783.9814 13553869
7016.5176 1866.29 7782.019 13422283
7096.5913 1875.2646 7819.4404 13488076
7059.2642 1853.3008 7727.8564 13488076
7110.1807 1854.6379 7733.4316 13619662
7126.0264 1846.8684 7701.0352 13619662
7022.3799 1808.4259 7540.7378 13619662
6945.5156 1777.3228 7411.0449 13159111
7019.8589 1785.0605 7443.3101 13553869
7120.2285 1799.2787 7502.5967 13619406
7118.3242 1787.6362 7454.0498 13619149
0 0 0 0
0 0 0 0
0 0 0 0
0 0 0 0
0 0 0 0
0 0 0 0
-3569.3115 974.94116 3967.2681 2237993
-4174.1553 1147.7102 4670.3066 2237993
-3525.7468 975.89612 3971.1545 2172200
-3495.6436 974.06464 3963.7017 2237993
-4187.645 1174.7848 4780.4795 2303786
-4191.2832 1183.813 4817.2178 2303786
-4183.8496 1189.8164 4841.647 2303530
-4120.5454 1179.9044 4801.3125 2368809
-4409.6694 1271.4728 5173.9263 2434345
-4298.5161 1248.1003 5078.8184 2368809
-4336.5498 1268.0212 5159.8809 2368809
-4267.0571 1256.5604 5113.2446 2368809
-4230.5562 1254.7209 5105.7588 2237993
-4227.9517 1262.9802 5139.3682 2172200
-4064.5386 1222.9739 4976.5728 2237993
-3286.6851 996.15363 4053.5869 2303786
-3270.8032 998.63812 4063.697 2303786
-3645.9478 1121.4326 4563.377 2303786
-3853.5637 1194.1481 4859.2739 2303786
-3710.6121 1158.5062 4714.2383 2369579
-3802.219 1196.1116 4867.2637 2369579
-3866.0593 1225.4902 4986.8125 2237993
-3755.8167 1199.7144 4881.9238 2237993
-3130.4026 1007.7007 4100.5747 2303786
-3570.1562 1158.2509 4713.1992 2303786
-3686.6157 1205.463 4905.3169 2303786
-3703.6067 1220.6426 4967.0864 2303786
-3673.6245 1220.4597 4966.3423 2303786
-3606.9548 1207.9872 4915.5884 2172200
-3601.2832 1215.9064 4947.8135 2237993
-3558.1648 1211.2086 4928.6973 2303786
-3542.2959 1215.7858 4947.3223 2303786
-3514.2769 1216.2343 4949.1475 2500138
-3477.2041 1213.5305 4938.1455 2434602
-3476.8401 1223.7008 4979.5308 2566188
-3427.4929 1216.6578 4950.8711 2500395
-3405.1375 1219.157 4961.041 2500395
-3392.5117 1225.2136 4985.6865 2631979
-3319.6892 1209.4454 4921.5225 2631979
-3305.5645 1214.9727 4944.0137 2500393
-3212.1509 1191.1948 4847.2563 2566186
-3245.3196 1214.3535 4941.4941 2566186
-3221.26 1216.325 4949.5166 2566186
-3198.7966 1218.9407 4960.1606 2566186
-3161.1055 1215.7483 4947.1704 2566186
-3163.7344 1228.1484 4997.6294 2500394
-3121.4878 1223.1978 4977.4839 2697772
-3108.3042 1229.65 5003.7397 2631981
-3077.2192 1229.0767 5001.4062 2631981
-3024.5508 1219.7875 4963.6064 2566188
-3018.1277 1229.1495 5001.7031 2566188
-2991.7686 1230.4979 5007.1895 2631981
-2951.9048 1226.2631 4989.957 2697772
-2934.699 1231.4502 5011.0649 2631979
-2865.0481 1214.5116 4942.1377 2631979
-2873.137 1230.5178 5007.271 2631979
-2839.0088 1228.5886 4999.4204 2566186
-2806.124 1227.1625 4993.6167 2697772
-2758.3416 1219.1213 4960.896 2697772
-2719.0325 1214.6926 4942.874 2697772
-2686.229 1213.1051 4936.4146 2631979
-2661.8157 1215.3136 4945.4014 2631979
-2638.9146 1218.2693 4957.4287 2566186
-2602.8386 1215.1409 4944.6982 2631979
-2582.4973 1219.3706 4961.9102 2697772
-2544.5317 1215.2802 4945.2651 2697775
-2518.1868 1216.7092 4951.0806 2697774
-2468.8457 1206.9301 4911.2866 2698031
-2450.9253 1212.4613 4933.7944 2763823
-2421.0571 1212.144 4932.5034 2632238
-2397.6558 1215.0964 4944.5176 2631981
-2367.3525 1214.5808 4942.4194 2697773
-2346.8911 1219.165 4961.0732 2631981
-2318.4512 1219.6681 4963.1206 2631980
-2306.3362 1228.8827 5000.6167 2697772
-2262.7563 1221.3534 4969.9785 2763566
-2235.4902 1222.5472 4974.8364 2631979
-2216.5186 1228.3695 4998.5288 2631979
-2183.5786 1226.5039 4990.937 2697773
-2151.1555 1224.8812 4984.334 2631981
-2126.8667 1227.9095 4996.6567 2631981
-2112.2192 1236.6682 5032.2979 2566188
-2046.6368 1215.4291 4945.8711 2631981
-2025.2181 1220.1813 4965.209 2631981
-1992.1641 1217.9601 4956.1704 2566188
-1988.1934 1233.7191 5020.2979 2500395
-1952.0698 1229.7025 5003.9531 2631981
-1925.4832 1231.6622 5011.9277 2697774
-1897.7063 1232.9102 5017.0059 2697774
-1869.0573 1233.6222 5019.9033 2631981
-1847.2025 1238.9142 5041.4375 2631981
-1820.4874 1241.0665 5050.1963 2631981
-1801.7472 1248.8186 5081.7412 2631981
-1771.465 1248.698 5081.2505 2697774
-1725.4677 1237.3046 5034.8877 2763567
-1666.061 1215.7252 4947.0762 2829360
-1500.3555 1114.4174 4534.8301 2829359
-1487.1324 1124.7393 4576.8325 2763565
-1458.4589 1123.5421 4571.9609 2697773
-1437.184 1128.1072 4590.5371 2829357
-1414.5234 1131.7397 4605.3193 2697772
-1381.7944 1127.301 4587.2573 2763565
-1365.1349 1136.0574 4622.8887 2829358
-1346.2556 1143.287 4652.3076 2895151
-1316.6073 1141.4824 4644.9644 2895151
-1297.4008 1148.8468 4674.9321 2960944
-1274.8108 1153.4713 4693.75 2960944
-1248.2554 1154.6339 4698.481 2960944
-1222.6641 1156.7617 4707.1396 2960944
-1204.9832 1166.6478 4747.3682 2960944
-1174.719 1164.5321 4738.7593 2960944
-1148.1588 1166.0748 4745.0366 2895151
-1130.1202 1176.5665 4787.73 2960944
-1100.4827 1175.2122 4782.2188 2960945
-1081.1429 1185.0737 4822.3481 2960944
-1054.1404 1186.8433 4829.5488 2960944
-1026.2343 1187.6661 4832.897 3092530
-992.84778 1182.0115 4809.8872 3289909
-962.33148 1179.5409 4799.8335 4079681
-924.17645 1167.2716 4749.9067 4540230
-882.34387 1149.4407 4677.3486 5461332
-859.47943 1155.9647 4703.8965 6053469
-824.8645 1146.5924 4665.7583 6448227
-794.88409 1143.2357 4652.0991 6908777
-774.78003 1154.3527 4697.3364 7632499
-754.815 1166.5129 4746.8198 7764084
-728.81409 1169.9257 4760.7065 7961462
-765.5672 1278.4047 5202.1338 8027257
-752.02832 1308.4808 5324.521 8027255
-713.66034 1296.0985 5274.1343 8027255
-678.79224 1289.2291 5246.1812 8027255
-642.9209 1279.7036 5207.4194 8093048
-610.62738 1276.6982 5195.1899 8093048
-550.46228 1212.0062 4931.9424 8093048
-554.98328 1290.4707 5251.2334 8027255
-495.20132 1219.8555 4963.8833 8224124
-488.40533 1279.0874 5204.9121 8158584
-434.3266 1214.1285 4940.5791 8158584
-433.24643 1298.6412 5284.4814 8092791
-397.05112 1282.8656 5220.2861 8158584
-376.67761 1319.8632 5370.8384 8158584
-340.60672 1303.6102 5304.7017 8092791
-307.14182 1295.0408 5269.8301 8092791
-276.72763 1298.8506 5285.333 8092790
-238.98328 1264.837 5146.9238 8092790
-202.86137 1230.7156 5008.0757 8026997
-182.38559 1296.0869 5274.0874 8224376
-150.37848 1289.6035 5247.7046 8158326
-118.19543 1277.8379 5199.8271 7961204
-88.216866 1290.0116 5249.3652 7895411
-58.016216 1310.4293 5332.4497 7895412
-25.037327 1241.8815 5053.5122 7763826
4.8917747 1238.0881 5038.0762 7763826
36.586372 1303.7252 5305.1694 7829619
74.903137 1435.6187 5841.875 8026998
94.095459 1233.4452 5019.1831 7961461
132.62447 1320.9797 5375.3818 8026998
165.61916 1330.1628 5412.75 8092791
198.11261 1332.9937 5424.2695 7961205
249.23843 1442.9015 5871.5107 8026998
264.79681 1345.1974 5473.9297 8092791
291.08347 1317.3705 5360.6948 7961205
318.75104 1300.6541 5292.6719 7895412
351.92224 1307.3781 5320.0337 8092791
384.17526 1309.8661 5330.1577 8092791
417.15805 1314.2751 5348.0991 8026998
451.16962 1321.074 5375.7651 7961205
483.51758 1322.4261 5381.2676 8026997
514.24481 1319.4526 5369.1675 8026738
543.64368 1313.6157 5345.416 8355700
570.41742 1302.4275 5299.8887 7170657
618.68799 1338.9293 5448.4229 8289138
687.45264 1413.9631 5753.7534 8091759
690.49072 1353.1063 5506.1128 8157551
774.19904 1448.6924 5895.0752 8025968
820.76013 1469.5159 5979.811 7960175
802.47443 1377.3169 5604.6313 8091761
834.13824 1374.769 5594.2632 7960945
857.40369 1359.1034 5530.5161 7829620
921.67584 1407.1996 5726.231 7895412
916.01855 1348.9041 5489.0127 7829619
976.16064 1388.1783 5648.8291 7698033
998.52563 1372.9075 5586.6885 7763826
1041.1777 1385.6151 5638.3989 7698033
1049.4614 1353.2167 5506.5615 6842724
1069.304 1337.2269 5441.4956 7763826
1134.4749 1377.1997 5604.1543 7829619
1159.5676 1367.6296 5565.2114 7632240
1184.0989 1357.9451 5525.8027 7632240
1227.3303 1369.6501 5573.4331 7698033
1334.4989 1450.2234 5901.3052 7698033
1300.4941 1377.1837 5604.0894 7698033
1322.7866 1365.9139 5558.23 7698033
1380.1392 1390.5154 5658.3389 7763826
1406.6995 1383.6619 5630.4502 7829618
1426.9976 1371.1089 5579.3696 8092789
1470.3214 1380.7474 5618.5908 7698032
1535.9479 1410.4393 5739.4146 7632239
1586.0867 1424.9309 5798.3838 7697263
1625.0883 1429.0144 5815.0005 7763313
1659.293 1428.798 5814.1196 7894899
1683.1445 1419.8564 5777.7349 7829362
1715.8011 1418.5511 5772.4233 7763569
1743.3055 1413.1205 5750.3247 7632239
1785.9894 1419.9668 5778.1836 7566447
1821.4596 1420.9279 5782.0947 7566447
1852.8224 1418.7086 5773.064 7500654
1878.099 1411.994 5745.7407 7763825
1932.7355 1427.1989 5807.6128 7566447
1964.4358 1425.2312 5799.606 7434861
1965.1919 1401.2665 5702.0879 7566191
2022.5409 1417.7831 5769.2979 7565934
2024.4551 1395.5375 5678.7749 7631727
2082.3501 1411.9779 5745.6753 7631727
2112.7341 1409.535 5735.7349 7565934
2119.3694 1391.5763 5662.6562 7631727
2152.9231 1391.5763 5662.6562 7631727
2210.0234 1406.5627 5723.6396 7631727
2229.99 1397.8196 5688.0615 7697520
2261.811 1396.6569 5683.3301 7631727
2335.2 1420.8193 5781.6533 7697519
2352.926 1410.9059 5741.313 7697520
2390.8972 1413.2417 5750.8179 7829106
2446.2158 1425.6218 5801.1953 7763313
2475.439 1422.6611 5789.1479 7697263
2524.0337 1430.7626 5822.1143 7828850
2576.8008 1440.9786 5863.686 7697264
2613.45 1442.0294 5867.9619 7631471
2620.4431 1426.9041 5806.4136 7697263
2694.2202 1448.0653 5892.5234 7697263
2725.1057 1445.927 5883.8223 7762800
2767.8186 1450.0389 5900.5547 7762800
2804.75 1451.0573 5904.6982 7631726
2831.6392 1446.9191 5887.8594 7763312
2881.9556 1454.7068 5919.5493 7697519
2904.1541 1448.2849 5893.417 7763312
2945.9919 1451.6934 5907.2871 7631726
3009.8855 1465.7626 5964.5381 7631726
2969.3992 1429.264 5816.0166 7697519
3021.3142 1437.5681 5849.8081 7697519
3097.2971 1457.0059 5928.9048 7631726
3082.1921 1433.6393 5833.8203 7697519
3161.6907 1454.3064 5917.9199 7763312
3196.1743 1454.0414 5916.8413 7763312
3256.3323 1465.3356 5962.8003 7829104
3304.2998 1470.9604 5985.689 7829106
3355.5054 1477.892 6013.8955 7697520
3398.9185 1481.2819 6027.6895 7631727
3404.8162 1468.4218 5975.3584 7763313
3492.3743 1490.6821 6065.9414 7039589
3488.7456 1473.9635 5997.9092 7631726
3520.3921 1472.335 5991.2827 7631727
3581.4482 1482.9164 6034.3408 7697520
3615.2041 1482.0963 6031.0039 7763313
3647.2061 1480.5807 6024.8359 7763313
3693.5464 1484.8583 6042.2432 7763313
3750.3047 1493.2019 6076.1948 7829106
3768.6118 1486.2227 6047.7949 7828849
3780.697 1476.9446 6010.04 7763057
3842.9666 1487.2614 6052.0215 7565163
3819.2969 1464.4355 5959.1377 7104868
4086.762 1552.6355 6318.0444 7433833
3976.5823 1497.0621 6091.9033 7828591
3962.3508 1478.2855 6015.4971 7828592
0 0 0 0
3986.5413 1461.0247 5945.2578 7829106
3998.0559 1452.41 5910.2031 7763313
4044.1082 1456.3829 5926.3696 7763313
4100.251 1463.8899 5956.9175 7763313
0 0 0 0
0 0 0 0
0 0 0 0
0 0 0 0
0 0 0 0
0 0 0 0
0 0 0 0
0 0 0 0
0 0 0 0
0 0 0 0
0 0 0 0
0 0 0 0
0 0 0 0
0 0 0 0
4792.4434 1515.3459 6166.3047 7829106
4876.3232 1530.2021 6226.7578 7894900
5024.6968 1564.9214 6368.0386 7960692
5082.4912 1571.1228 6393.2739 7697264
5180.9473 1589.709 6468.9053 7828594
5320.7925 1620.6287 6594.7246 7631729
5752.2588 1739.2729 7077.5171 7302764
5885.2822 1766.6147 7188.7773 7040105
6103.1699 1818.8547 7401.3545 7039848
6200.2817 1834.6127 7465.4771 7500143
6192.6948 1819.3876 7403.522 7170921
6261.1274 1826.5536 7432.6821 7039079
6300.4077 1825.1741 7427.0688 7630191
6308.2417 1814.7673 7384.7217 7300969
6613.5688 1889.4978 7688.8174 8089973
6922.9385 1964.3528 7993.4209 8878719
6974.6309 1965.5725 7998.3843 9076097
7220.689 2021.1819 8224.6719 9339526
7068.0825 1965.2014 7996.8735 10063762
7088.9365 1957.8738 7967.0557 10459032
7038.6216 1931.1174 7858.1777 10919583
7081.9854 1930.2455 7854.6294 10920351
7063.7778 1912.7128 7783.2847 10262676
7081.4272 1905.0538 7752.1191 10789533
7062.2363 1887.6466 7681.2852 12829373
7076.6821 1879.3955 7647.709 13290441
7090.1245 1870.9846 7613.4829 13619149
7083.1841 1857.3353 7557.9409 13685198
7010.2383 1826.6586 7433.1094 13816785
7062.4785 1828.7808 7441.7456 13817040
7105.3262 1828.4597 7440.439 13355977
0 0 0 0
0 0 0 0
0 0 0 0
0 0 0 0
0 0 0 0
0 0 0 0
-3497.3608 978.32184 3887.2952 2303786
-3771.0981 1061.8884 4219.3413 2303786
-3484.6194 987.76862 3924.8313 2303786
-3469.2334 990.01453 3933.7551 2303786
-4089.0889 1174.7959 4667.9712 2303786
-4020.564 1162.9752 4621.0029 2303786
-4101.2637 1194.4528 4746.0767 2435372
-3400.335 997.15167 3962.114 2369579
-3957.5247 1168.6166 4643.4185 2566188
-4019.7451 1195.2998 4749.4424 2434602
-3956.1836 1184.6935 4707.2988 2303272
-3265.136 984.69928 3912.6353 2434345
-3241.6995 984.6225 3912.3306 2303786
-3243.3982 992.23425 3942.575 2237993
-3227.8132 994.63049 3952.0964 2237993
-3678.8745 1141.9066 4537.2881 2435372
-3215.5439 1005.4386 3995.042 2369579
-3182.5703 1002.5087 3983.3999 2435372
-3680.9407 1168.1588 4641.5991 2435372
-3131.9595 1001.4202 3979.075 2435372
-3156.1833 1016.8202 4040.2659 2435372
-3127.9458 1015.4252 4034.7229 2435372
-3634.0146 1188.7965 4723.6021 2369579
-3647.6243 1202.5105 4778.0933 2369579
-3620.3767 1202.8641 4779.4985 2106407
-3635.2097 1217.3148 4836.9175 2172200
-3586.707 1210.6176 4810.3066 2237993
-3558.5417 1210.7325 4810.7632 2106407
-3508.4111 1203.3154 4781.292 2106407
-3510.5049 1213.8357 4823.0933 2172200
-3452.0913 1203.4349 4781.7666 2172200
-3435.0171 1207.3926 4797.4922 2172200
-3426.5334 1214.4612 4825.5786 2500138
-3390.3962 1211.7649 4814.8652 2566188
-3319.2419 1196.4012 4753.8188 2434602
-3314.3052 1204.8467 4787.376 2434602
-3282.8403 1203.7107 4782.8623 2303016
-3232.0481 1195.4067 4749.8672 2368809
-3203.6536 1195.3136 4749.4971 2368809
-3204.0864 1206.0698 4792.2363 2500393
-3180.9756 1208.077 4800.2114 2566186
-3153.9565 1208.6227 4802.3799 2566186
-3143.8247 1215.7087 4830.5356 2500393
-3111.1799 1214.139 4824.2988 2500393
-3073.8196 1210.6831 4810.5669 2500393
-3073.6389 1221.9435 4855.3091 2500393
-3014.1362 1209.61 4806.3027 2566186
-2995.4954 1213.5959 4822.1406 2631981
-2971.7065 1215.5529 4829.9165 2566188
-2964.8828 1224.5548 4865.6851 2500395
-2934.6985 1223.9904 4863.4424 2500395
-2894.1169 1219.0354 4843.7539 2500395
-2814.0654 1197.1895 4756.9507 2237221
-2838.7847 1219.925 4847.2891 2500393
-2808.4924 1219.2434 4844.5806 2566186
-2771.2207 1215.4865 4829.6523 2566186
-2746.0063 1216.9948 4835.6455 2500393
-2704.4011 1211.194 4812.5967 2566186
-2678.366 1212.3171 4817.0596 2566186
-2653.9404 1214.2009 4824.5449 2566186
-2618.1553 1210.8721 4811.3174 2697772
-2584.7661 1208.5901 4802.2505 2697772
-2570.052 1215.0868 4828.0645 2631979
-2522.9465 1206.243 4792.9248 2631979
-2500.167 1208.9609 4803.7236 2697772
-2479.2205 1212.6378 4818.3335 2631981
-2453.469 1214.0228 4823.8369 2631981
-2419.4629 1211.3079 4813.0493 2631981
-2387.0117 1209.3158 4805.1343 2697774
-2357.1038 1208.5797 4802.209 2631981
-2313.7632 1200.854 4771.5117 2631981
-2300.0574 1208.5082 4801.9248 2631981
-2278.6223 1212.2419 4816.7607 2566188
-2254.6726 1214.7157 4826.5898 2566186
-2228.6301 1216.1108 4832.1333 2631978
-2213.4685 1223.5571 4861.7212 2631979
-2177.4429 1219.5145 4845.6582 2697771
-2154.8599 1222.9934 4859.481 2566186
-2120.9846 1220.0707 4847.8677 2566188
-2085.5576 1216.1628 4832.3403 2500395
-2053.78 1214.3041 4824.9541 2500395
-2028.6874 1216.4008 4833.2856 2434602
-2008.2079 1221.3634 4853.0044 2434602
-1984.9121 1224.7324 4866.3911 2500395
-1951.7968 1222.0527 4855.7432 2434602
-1928.7673 1225.7021 4870.2437 2500395
-1901.9408 1227.0128 4875.4517 2434602
-1879.5219 1231.2512 4892.293 2500395
-1854.0988 1233.6237 4901.7197 2566188
-1829.4149 1236.5714 4913.4321 2500395
-1807.3666 1241.4246 4932.7158 2434602
-1780.3195 1242.9475 4938.7671 2500395
-1756.5758 1246.8661 4954.3374 2500395
-1538.5446 1110.6632 4413.1445 2566188
-1510.7982 1109.4906 4408.4854 2500395
-1485.8403 1110.3606 4411.9424 2434601
-1464.4268 1113.9578 4426.2354 2566185
-1440.4716 1115.7177 4433.228 2631979
-1417.8134 1118.566 4444.5459 2566186
-1394.2319 1120.78 4453.3433 2500393
-1373.2505 1125.2101 4470.9453 2434600
-1348.9382 1127.0312 4478.1821 2566186
-1324.8333 1129.1023 4486.4111 2566186
-1306.6389 1136.3987 4515.4028 2566186
-1278.5991 1135.2584 4510.8721 2631979
-1260.4429 1143.0323 4541.7612 2697772
-1247.894 1156.3416 4594.6445 2631979
-1222.8649 1158.4219 4602.9102 2566186
-1202.0005 1164.6322 4627.5869 2697772
-1181.6041 1171.5967 4655.2598 2763565
-1157.7961 1175.4305 4670.4932 2829358
-1125.5701 1170.6965 4651.6826 2895151
-1109.2861 1182.7224 4699.4668 3026737
-1084.9232 1186.5319 4714.6035 3092785
-1056.9275 1186.4647 4714.3369 3158577
-1034.2881 1192.5701 4738.5957 3684921
-990.97064 1174.5082 4666.8281 4277313
-966.09851 1177.8984 4680.2993 5198158
-929.79291 1167.1372 4637.54 6053469
-889.0083 1149.9268 4569.1558 6579813
-866.62842 1156.1895 4594.04 7171948
-838.07086 1154.3492 4586.728 7303534
-817.66864 1163.9954 4625.0562 7895669
-797.69879 1174.9471 4668.5723 8027255
-772.86053 1179.2574 4685.6992 8093048
-814.09424 1288.4606 5119.6104 8027255
-783.56262 1288.1385 5118.3311 8027255
-759.69403 1299.1854 5162.2246 8093048
-728.10284 1297.3982 5155.1235 7961462
-699.2196 1300.4912 5167.4131 7961462
-659.18536 1282.1776 5094.6455 8027255
-629.74231 1283.6959 5100.6782 7961462
-606.73193 1299.1407 5162.0474 8093048
-575.14484 1296.8861 5153.0889 8158841
-537.66663 1280.3502 5087.3843 8093048
-517.03046 1304.338 5182.6982 8158074
-475.22522 1274.5789 5064.4521 8224377
-450.66229 1290.1698 5126.4019 8092791
-421.05988 1292.5446 5135.8374 8158584
-390.71317 1292.8263 5136.957 8290170
-364.62152 1308.4248 5198.937 8290170
-330.01474 1293.5266 5139.7397 8158584
-299.70593 1294.1578 5142.248 8158584
-267.83087 1287.4034 5115.4102 8092791
-233.27411 1264.39 5023.9673 8158582
-208.11087 1293.006 5137.6709 8224377
-171.41171 1247.4741 4956.7534 8290170
-147.05678 1291.5255 5131.7886 8290170
-115.82239 1282.3749 5095.4292 8224377
-86.626701 1297.3022 5154.7422 8158584
-53.495739 1237.459 4916.959 8224377
-24.558504 1247.5028 4956.8672 8290170
4.7679515 1235.8461 4910.5498 8290170
33.825043 1234.3903 4904.7656 8355963
62.68148 1230.3416 4888.6782 8290426
95.756355 1285.4828 5107.7778 8224376
126.61367 1291.5181 5131.7588 8026998
169.94424 1397.8098 5554.1021 8092791
184.42326 1270.8055 5049.459 8158584
214.94225 1274.3564 5063.5684 8158584
245.71805 1278.3734 5079.5298 8092791
275.1763 1275.4071 5067.7432 8092791
305.84128 1278.0671 5078.313 8026998
338.46176 1287.6906 5116.5508 8026998
405.18582 1414.8132 5621.6641 8026998
402.7464 1299.4653 5163.3369 8026998
434.6662 1303.4386 5179.1245 8026998
516.60498 1446.9888 5749.5112 7961204
495.65799 1302.4269 5175.1045 7895411
532.24396 1317.08 5233.3271 8092532
560.68207 1311.067 5209.4355 8092532
589.39795 1306.2971 5190.4824 7960945
632.75134 1332.8331 5295.9214 7961202
668.66504 1341.9307 5332.0703 8026738
759.7558 1455.9449 5785.0981 7960691
732.93188 1343.9065 5339.9209 7895411
793.46661 1394.6935 5541.7192 7829619
800.24268 1350.7061 5366.9385 7829619
837.92328 1360.2502 5404.8618 7829620
866.87067 1355.4365 5385.7349 7895413
929.73413 1402.1128 5571.1997 7829365
929.09119 1353.0995 5376.4487 7697779
963.27344 1356.3728 5389.4546 7829365
1000.3465 1363.3757 5417.2808 7829619
1026.8792 1356.0247 5388.0713 7764082
1053.8146 1349.6324 5362.6724 7829619
1096.6711 1363.4082 5417.4097 7698033
1123.4131 1356.9359 5391.6924 7763826
1158.6658 1360.8173 5407.1147 7763572
1189.2799 1359.1884 5400.6421 7763570
1226.6969 1365.2161 5424.5928 7763826
1253.0743 1358.9635 5399.7485 7829363
1281.7979 1355.5031 5385.999 7961205
1346.2778 1389.1047 5519.5132 7895412
1373.4642 1383.5453 5497.4229 7895412
1385.7136 1363.5454 5417.9546 7895412
1433.5947 1378.719 5478.2461 7895412
1484.2603 1395.8392 5546.272 7895412
1523.9241 1402.0957 5571.1313 7828849
1554.1914 1399.6245 5561.313 7829106
1586.4226 1398.988 5558.7837 7829105
1632.787 1410.5873 5604.8726 7763313
1662.7471 1407.8347 5593.9351 7697519
1681.5653 1395.9403 5546.6733 7566446
1721.1582 1401.4172 5568.436 7566447
1763.4437 1408.8395 5597.9277 7566446
1791.1106 1404.5242 5580.7808 7566447
1820.0428 1401.3395 5568.127 7566447
1887.9495 1427.7423 5673.0366 7632240
1895.4241 1408.3198 5595.8628 7632240
1933.0471 1411.5804 5608.8188 7632240
1928.6776 1384.5848 5501.5532 7697520
1953.4149 1379.0347 5479.5005 7697520
2007.3306 1393.9282 5538.6787 7632240
2045.7642 1397.7644 5553.9219 7632240
2083.2295 1400.8281 5566.0952 7697776
2112.8386 1398.5959 5557.2256 7697520
2154.3518 1404.1912 5579.458 7631727
2205.0054 1415.485 5624.333 7631727
2244.9639 1419.6788 5640.9971 7697520
2272.3215 1415.8982 5625.9751 7631727
2302.0354 1413.6737 5617.1362 7565934
2343.332 1418.5243 5636.4097 7697519
2357.7395 1407.1901 5591.3735 7500141
2390.6633 1407.068 5590.8887 7565421
2427.05 1408.9596 5598.4048 7696750
2478.699 1419.5409 5640.4487 7696750
2528.5891 1428.8466 5677.4248 7696750
2577.6931 1437.4697 5711.688 7565934
2619.792 1442.0133 5729.7417 7565934
2664.2107 1447.7014 5752.3428 7565934
2692.5762 1444.6328 5740.1499 7565934
2728.6719 1445.7365 5744.5352 7565934
2787.4021 1458.6576 5795.8765 7565934
2794.2715 1444.4556 5739.4458 7565934
2845.7559 1453.3809 5774.9097 7631727
2877.9683 1452.3683 5770.8867 7631727
2913.8674 1453.2184 5774.2642 7631726
2944.3848 1451.3958 5767.022 7565934
2979.407 1451.8099 5768.668 7631727
3015.7395 1452.8462 5772.7856 7697520
3043.6072 1449.827 5760.7886 7631727
3081.979 1451.8228 5768.7188 7697520
3076.7266 1433.4502 5695.7168 7631727
3164.3618 1458.2833 5794.3892 7500140
3193.1287 1455.7451 5784.3042 7631727
3214.7021 1450.0164 5761.5415 7631727
3265.8792 1457.6206 5791.7559 7631727
3290.3215 1453.2584 5774.4233 7631727
3391.9702 1482.7356 5891.5488 7697520
3385.1016 1464.6589 5819.7222 7565934
3415.2651 1462.8083 5812.3691 7565934
3456.0007 1465.4777 5822.9756 7565934
3500.959 1469.8672 5840.417 7697521
3557.1411 1478.8368 5876.0571 7697520
3569.4976 1469.589 5839.312 7763313
3599.0471 1467.5295 5831.1289 7697520
3621.7029 1462.7251 5812.0386 7763313
3689.5808 1476.1034 5865.1963 7763313
3712.0718 1471.2432 5845.8843 7894129
4028.738 1581.9883 6285.9229 7763054
3838.0532 1493.3051 5933.5459 7828590
3823.6858 1474.2103 5857.6743 7762798
3885.8669 1484.7069 5899.3818 7828591
3914.6519 1482.37 5890.0962 7893873
3958.7935 1485.8381 5903.8765 7763313
3974.7039 1478.7424 5875.6826 7631727
3978.2268 1467.2015 5829.8252 7697519
4021.6086 1470.4329 5842.6646 7631727
4064.3552 1473.3788 5854.3701 7565933
4129.0879 1484.1776 5897.2788 7500141
4173.2124 1487.4501 5910.2812 7565934
4226.9868 1494.0786 5936.6196 7697520
4242.0249 1487.0192 5908.5693 7631727
4336.6016 1507.7286 5990.8569 7631727
4325.0801 1491.5138 5926.4287 7631727
4389.9253 1501.6832 5966.8359 7763313
4441.0142 1507.0222 5988.0498 7763313
4449.5957 1497.9662 5952.0664 7763313
4527.8691 1512.3302 6009.1406 7763316
4576.73 1516.7224 6026.5933 7763313
4614.3174 1517.3398 6029.0464 7763313
4672.7285 1524.7428 6058.4614 7763313
4719.9766 1528.4178 6073.064 7763313
4793.4434 1540.4631 6120.9253 7763313
4806.5923 1533.0889 6091.624 7763313
4846.5103 1534.2991 6096.4326 7697520
4939.7002 1552.2313 6167.6855 7763313
4977.6309 1552.6632 6169.4014 7829106
5046.2222 1562.583 6208.8174 7763313
4710.813 1448.1642 5754.1816 7829106
4733.7749 1444.7661 5740.6797 7763313
5114.9697 1549.9706 6158.7021 7763313
5308.8486 1597.3247 6346.8613 7763313
5902.0439 1763.314 7006.4082 7697520
6066.6943 1799.8452 7151.562 7697523
5397.5449 1590.2167 6318.6177 7697522
6494.8408 1900.3187 7550.7871 7697522
6590.4014 1915.0859 7609.4634 7631729
6596.043 1903.7012 7564.2266 7697779
6726.9248 1928.3716 7662.2529 7631986
6849.5596 1950.3632 7749.6348 7566193
6857.0449 1939.4923 7706.4399 7566193
6871.2017 1930.6393 7671.2637 7500400
6952.3071 1940.5903 7710.8032 7237227
7008.3726 1943.4677 7722.2363 7434606
7062.7231 1945.8352 7731.6436 7566193
7058.3169 1932.0885 7677.022 7631728
7094.9497 1929.6796 7667.4507 7631729
7080.3823 1913.4647 7603.022 7565936
7227.7041 1940.9286 7712.1475 7434094
6984.4775 1863.8284 7405.7949 7170408
6936.3433 1839.4269 7308.8369 6906981
6868.3062 1810.0828 7192.2402 7367788
0 0 0 0
0 0 0 0
0 0 0 0
0 0 0 0
0 0 0 0
0 0 0 0
-3925.4958 1123.9381 4363.1646 2303786
-3976.1448 1145.9874 4448.7603 2172200
-3968.7107 1151.4786 4470.0776 2237993
-3932.1306 1148.5306 4458.6333 2172200
-3351.3723 985.51929 3825.8179 2369579
-3328.3999 985.42957 3825.4697 2237993
-3871.8274 1154.1809 4480.5679 2237993
-3891.2419 1167.9772 4534.1255 2303786
-3877.3472 1171.8978 4549.3452 2303786
-3871.3982 1178.2916 4574.1665 2237993
-3802.2209 1165.396 4524.105 2237993
-3770.9866 1164.0293 4518.7998 2434345
-3756.2654 1167.777 4533.3481 2303786
-3748.8804 1173.8757 4557.0239 2369579
-3743.8984 1180.8208 4583.9849 2303786
-3712.0408 1179.329 4578.1934 2237993
-3634.3872 1163.1586 4515.4194 2237993
-3648.3875 1176.2988 4566.4307 2369579
-3641.96 1183.0002 4592.4453 2435372
-3600.0166 1178.1791 4573.7295 2435372
-3582.1289 1181.2173 4585.5239 2435372
-3569.0498 1185.8995 4603.7007 2369579
-3569.9697 1195.3414 4640.3545 2435372
-3528.9185 1190.7675 4622.5981 2501165
-3481.7942 1184.0566 4596.5464 2435372
-2977.0454 1020.3884 3961.1809 2237993
-3408.4868 1177.5498 4571.2866 1974821
-3419.103 1190.6796 4622.2568 2106407
-3292.8005 1155.9554 4487.4565 2040614
-3270.0312 1157.3077 4492.7061 1909028
-2853.2703 1018.0985 3952.2917 1909028
-2847.6968 1024.5189 3977.2156 2172200
-3148.7051 1142.266 4434.3135 2500395
-3114.8167 1139.4807 4423.5015 2500395
-3091.5779 1140.5773 4427.7583 2434602
-3135.688 1166.7524 4529.3711 2368809
-3068.5439 1151.6256 4470.6479 2368809
-3113.3035 1178.5986 4575.3579 2303017
-3127.2451 1194.2764 4636.2197 2434601
-3129.5679 1205.7554 4680.7817 2566188
-3072.3142 1194.281 4636.2378 2566186
-3046.8701 1195.0762 4639.3247 2500393
-2929.1296 1159.3549 4500.6533 2303015
-3001.3247 1198.8446 4653.9541 2434858
-2958.0537 1192.5176 4629.3921 2434856
-2950.873 1200.7577 4661.3804 2631979
-2925.731 1201.7756 4665.3325 2500393
-2874.3796 1191.9448 4627.1685 2500396
-2849.9695 1193.2041 4632.0571 2500395
-2837.1355 1199.3816 4656.0386 2500395
-2820.2852 1203.9658 4673.8345 2566188
-2781.4304 1199.1543 4655.1558 2631981
-2731.4834 1189.4161 4617.3521 2500393
-2711.772 1192.7802 4630.4116 2697772
-2702.9495 1201.0516 4662.5215 2763565
-2656.7456 1192.7119 4630.1465 2566186
-2629.5476 1192.8196 4630.5645 2434600
-2609.2656 1196.0999 4643.2988 2566186
-2596.8616 1203.1001 4670.4736 2566186
-2546.9375 1192.6809 4630.0264 2500393
-2527.7268 1196.574 4645.1392 2368807
-2498.9541 1195.9764 4642.8198 2434600
-2467.073 1193.8616 4634.6094 2566186
-2439.2512 1193.6854 4633.9258 2566186
-2417.7512 1196.6342 4645.373 2631979
-2379.7993 1191.4144 4625.1099 2566188
-2357.9519 1194.2296 4636.0381 2631981
-2337.2068 1197.6759 4649.417 2631981
-2300.0554 1192.6969 4630.0884 2631981
-2280.5671 1196.8674 4646.2783 2697774
-2253.4299 1197.0768 4647.0908 2763567
-2231.6584 1200.1769 4659.1255 2566188
-2208.946 1202.842 4669.4722 2500395
-2180.5596 1202.4463 4667.9355 2566188
-2165.5251 1209.4976 4695.3091 2566188
-2120.0786 1199.5255 4656.5972 2631981
-2091.6812 1199.0638 4654.8052 2697774
-2066.0903 1200.2203 4659.2944 2631982
-2040.2869 1201.283 4663.4194 2631981
-2015.073 1202.7267 4669.0239 2631981
-1978.8823 1197.5676 4648.9966 2500395
-1955.7458 1200.2745 4659.5049 2500395
-1933.2411 1203.4521 4671.8408 2566188
-1913.9924 1208.7787 4692.5181 2631981
-1888.9092 1210.5228 4699.2891 2566188
-1869.2002 1215.8151 4719.8335 2566188
-1850.6753 1222.0499 4744.0376 2566188
-1833.5226 1229.3971 4772.5596 2631981
-1805.8496 1229.8101 4774.1626 2631981
-1799.007 1244.6476 4831.7622 2566188
-1572.11 1105.2578 4290.647 2566188
-1548.8494 1106.8037 4296.6479 2500395
-1524.7722 1107.8079 4300.5464 2500395
-1498.2971 1107.0746 4297.6992 2566188
-1472.7532 1107.0156 4297.4707 2566188
-1447.2633 1106.996 4297.3945 2500396
-1422.3354 1107.4132 4299.0142 2566186
-1401.2697 1110.9075 4312.5791 2631979
-1381.5706 1115.6351 4330.9321 2631979
-1360.9181 1119.7574 4346.9351 2631979
-1338.6537 1122.6869 4358.3071 2566186
-1319.8817 1128.7181 4381.7207 2631979
-1295.918 1130.4626 4388.4927 2631979
-1274.0015 1134.1007 4402.6162 2697772
-1248.8098 1134.9148 4405.7764 2631979
-1234.9713 1146.3014 4449.9795 2631979
-1208.3491 1146.0603 4449.0435 2631979
-1191.2389 1155.0312 4483.8691 2697772
-1172.4662 1162.7627 4513.8828 2763565
-1151.1305 1168.2542 4535.2007 2829358
-1131.0948 1175.3589 4562.7812 2829358
-1105.7098 1177.1168 4569.606 3092530
-1095.995 1196.064 4643.1592 3685178
-1049.9413 1175.3088 4562.5874 4342851
-1016.3407 1167.7654 4533.3032 4737609
-1001.1735 1181.5669 4586.8813 5527125
-960.71191 1165.4539 4524.3296 6316641
-924.2572 1153.4158 4477.5977 6974569
-885.59784 1137.8339 4417.1079 7237741
-866.2627 1146.887 4452.2524 7500913
-913.65686 1247.63 4843.3403 7632499
-824.03162 1161.7347 4509.8921 7698291
-868.34277 1265.2363 4911.6885 7961462
-850.88849 1282.7991 4979.8677 7961462
-820.38184 1281.239 4973.8115 7961462
-798.07465 1292.8453 5018.8677 7961463
-758.86871 1276.9154 4957.0273 7829878
-730.11273 1277.9943 4961.2153 7961464
-701.82916 1280.0254 4969.1006 7764083
-666.54388 1268.9052 4925.9312 7829876
-639.05493 1272.288 4939.0635 7895669
-577.00769 1203.8918 4673.5474 7895669
-598.10773 1310.827 5088.6729 8027255
-550.84692 1271.3413 4935.3882 7961462
-509.06934 1240.7926 4816.7974 7829876
-488.59204 1261.6155 4897.6323 8026488
-466.73022 1281.2672 4973.9214 8092791
-431.55807 1264.5659 4909.0859 8290170
-407.23129 1279.5266 4967.1641 8290170
-378.12146 1280.6195 4971.4062 8290170
-350.06097 1285.7507 4991.3262 8224377
-322.15289 1292.4407 5017.2969 8224377
-290.71848 1284.9054 4988.0444 8224377
-262.38138 1290.9031 5011.3276 8092790
-231.38341 1283.6698 4983.2476 8224376
-201.64299 1282.3171 4977.9971 8355963
-172.26067 1283.1687 4981.3027 8421755
-141.01657 1267.6365 4921.0059 8553342
-113.02644 1280.882 4972.4253 8553342
-82.768211 1268.7018 4925.1416 8487549
-54.200954 1283.291 4981.7778 8487549
-24.793697 1289.1025 5004.3384 8421756
4.8121762 1276.6758 4956.0972 8553341
33.950047 1268.1223 4922.8921 8487549
63.09433 1267.6034 4920.8774 8487805
90.928665 1249.4131 4850.2622 8487549
116.61639 1217.548 4726.561 8421756
144.97939 1220.5469 4738.2026 8355963
180.67615 1274.2974 4946.8643 8355963
209.12605 1269.0649 4926.5513 8355963
238.42091 1269.6138 4928.6821 8355963
267.32913 1268.2086 4923.2271 8421756
297.59277 1272.8774 4941.3516 8421756
328.8476 1280.5695 4971.2124 8421756
358.64548 1281.7898 4975.9497 8355963
387.33386 1279.1606 4965.7437 8553342
406.60281 1247.9916 4844.7441 8487549
445.8374 1278.173 4961.9092 8092790
482.86758 1298.6912 5041.5615 8158583
514.78528 1303.8694 5061.6636 8158581
535.49231 1281.6458 4975.3906 8224119
590.27039 1339.0319 5198.1655 8092277
619.45282 1335.5419 5184.6172 8158070
653.65045 1342.6833 5212.3408 8092277
730.93585 1433.6952 5565.6514 8158071
712.12958 1336.5063 5188.3613 8158327
740.36365 1331.9924 5170.8379 8092791
780.47314 1348.3531 5234.3511 8026998
804.33502 1336.4667 5188.207 7961205
849.58344 1359.6825 5278.332 7829619
873.52539 1348.3616 5234.3833 7829619
918.70917 1369.4811 5316.3701 7829619
946.29523 1363.8379 5294.4629 7895157
954.33655 1331.2919 5168.1187 8026999
1004.1349 1357.2095 5268.7314 7895157
1036.0845 1358.1666 5272.4473 7961205
1063.252 1352.9827 5252.3228 8026998
1098.3651 1357.9169 5271.4775 7829620
1126.9536 1354.7346 5259.124 7829619
1151.4764 1346.9679 5228.9731 7829619
1190.4132 1356.0273 5264.1421 7895412
1222.7836 1357.3352 5269.2192 7763826
1266.759 1371.1393 5322.8071 7764082
1291.1145 1363.5519 5293.353 7829619
1293.5873 1333.7622 5177.708 7763826
1364.5627 1374.3466 5335.2578 7895412
1352.4574 1331.311 5168.1929 7763825
1432.0353 1378.4331 5351.1221 7763828
1462.0599 1376.8483 5344.9697 7960693
1458.2194 1344.1154 5217.8994 7829363
1532.2738 1383.0507 5369.0479 7894899
1561.4479 1380.7167 5359.9868 7894900
1535.8646 1331.0212 5167.0679 7894900
1573.0754 1336.624 5188.8179 7763827
1666.4076 1388.7834 5391.3022 7829364
1707.2972 1396.0972 5419.6948 7829618
1731.509 1389.7548 5395.0732 7698289
1758.9718 1386.2042 5381.29 7698033
1755.5065 1358.8406 5275.0635 7829619
1841.9464 1400.8075 5437.9805 7698033
1853.8356 1385.61 5378.9829 7763826
1855.199 1363.192 5291.9556 7829619
1891.3673 1366.6685 5305.4517 7764083
1942.4031 1380.5988 5359.5293 7764082
1978.3673 1383.5408 5370.9502 7632240
2008.7687 1382.5609 5367.1465 7632240
2045.2787 1385.7505 5379.5283 7763313
2085.1772 1391.1027 5400.3057 7697777
2109.7412 1386.2174 5381.3413 7763313
2076.728 1344.2097 5218.2656 7631727
2096.8174 1337.3019 5191.4492 7697520
2125.6812 1336.1091 5186.8188 7565934
2231.0012 1382.3224 5366.2207 7631727
2189.8279 1337.7454 5193.1714 7697520
2234.0986 1345.8778 5224.7412 7631727
2270.0383 1348.8375 5236.231 7697520
2397.1013 1405.1318 5454.7676 7565934
2431.5642 1406.3702 5459.5752 7631727
2468.2202 1408.8279 5469.1157 7631726
2524.5959 1422.3318 5521.5386 7631727
2549.3599 1417.9083 5504.3662 7697520
2593.481 1424.2268 5528.8945 7631727
2620.8616 1421.3088 5517.5674 7631727
2661.0029 1425.298 5533.0532 7500141
2706.5076 1432.0277 5559.1782 7631727
2734.2983 1429.3357 5548.728 7565933
2769.5024 1430.5371 5553.3916 7631727
2798.8381 1428.7146 5546.3164 7565934
2836.7085 1431.2405 5556.1221 7500141
2856.2358 1424.5594 5530.1865 7500141
2915.6743 1437.7104 5581.2388 7631727
2940.2959 1433.5908 5565.2461 7434348
2978.9778 1436.3417 5575.9253 7434348
2993.8564 1427.6813 5542.3052 7434348
3019.9651 1424.5061 5529.979 7500141
3052.4365 1424.3679 5529.4429 7500141
3083.155 1423.4235 5525.7764 7565934
3132.7583 1431.1261 5555.6777 7565934
3161.4692 1429.2231 5548.291 7631727
3224.3335 1442.6409 5600.3789 7565934
3252.3315 1440.3439 5591.4619 7565934
3307.8506 1450.1586 5629.5625 7565934
3357.5417 1457.2477 5657.083 7565934
3447.7949 1481.6276 5751.7266 7631727
3393.332 1443.9497 5605.46 7631727
3423.8352 1442.8071 5601.0244 7565933
3444.7444 1437.6824 5581.1299 7631726
3487.2876 1441.5984 5596.332 7697520
3547.0947 1452.51 5638.6909 7763313
3596.2258 1458.887 5663.4468 7763313
3644.2625 1464.7061 5686.0366 7697520
3662.9121 1458.7157 5662.7817 7763313
3688.9421 1455.7463 5651.2549 7763313
3719.093 1454.4423 5646.1919 7631470
3783.9211 1466.6016 5693.395 7630957
3807.9556 1462.8748 5678.9272 7631727
3902.6995 1486.1393 5769.2407 7631727
3843.5728 1450.9148 5632.4985 7631727
3882.2886 1452.9137 5640.2583 7565934
3935.1282 1460.1189 5668.229 7631727
3963.262 1458.1128 5660.4414 7631727
4005.4907 1461.2826 5672.7466 7565934
4047.5847 1464.3507 5684.6572 7500141
4101.4209 1471.5814 5712.7271 7500141
4124.7134 1467.8242 5698.1411 7434348
4162.8726 1469.3756 5704.1641 7434348
4223.5537 1478.7877 5740.7021 7631727
4265.3467 1481.4889 5751.188 7631727
4277.3257 1473.874 5721.627 7565934
4339.8867 1483.6714 5759.6606 7631730
4375.5771 1484.2013 5761.7178 7631726
4418.6431 1487.2053 5773.3794 7631727
4488.9692 1499.2679 5820.207 7631727
4517.3398 1497.2406 5812.3369 7565934
4581.9819 1507.1749 5850.9023 7565934
4631.2998 1511.9574 5869.4678 7631727
4694.4976 1521.1659 5905.2158 7565934
4758.2578 1530.4192 5941.1372 7500141
4756.2275 1518.5315 5894.9888 7565934
4808.6455 1524.0741 5916.5054 7565934
4630.4478 1456.9731 5656.0171 7631727
4664.104 1457.0176 5656.1895 7565934
4965.8896 1540.2245 5979.2017 7631727
4940.9839 1521.6436 5907.0698 7631727
5006.9702 1531.1185 5943.8521 7697520
5080.458 1542.7391 5988.9634 7763315
5123.6929 1545.0756 5998.0337 7631986
5250.6099 1572.4407 6104.2656 7631986
5262.2378 1565.1411 6075.9287 7697779
5323.7231 1572.6689 6105.1523 7697779
5369.3936 1575.4548 6115.9673 7631986
5406.2769 1575.6425 6116.6953 7631986
5430.9414 1572.2902 6103.6816 7566192
5453.7109 1568.4374 6088.7251 7500655
5498.4619 1570.915 6098.3438 7500400
5569.7236 1580.8853 6137.0483 7434607
5583.9697 1574.6482 6112.8354 7500400
5615.8906 1573.4431 6108.1577 7500400
5664.5122 1576.9031 6121.5894 7500399
5716.9136 1581.3645 6138.9082 7500400
5746.105 1579.3899 6131.2427 7500400
5781.4297 1579.1151 6130.1763 7434607
6790.313 1843.0974 7154.9644 7434606
5848.7983 1577.6913 6124.6489 7500399
0 0 0 0
0 0 0 0
0 0 0 0
0 0 0 0
0 0 0 0
0 0 0 0
-3921.8625 1148.7274 4359.126 2303786
-3908.7563 1152.4789 4373.3618 2172200
-3907.9182 1159.9218 4401.6055 2106407
-3826.0486 1143.2517 4338.3472 2106407
-3813.5945 1147.2384 4353.4756 2106407
-3825.6069 1158.6898 4396.9307 2237993
-3798.8545 1158.4767 4396.1221 2303786
-3774.792 1159.0865 4398.436 2237993
-3750.5708 1159.6559 4400.5967 2172200
-3722.344 1158.986 4398.0547 2303786
-3678.1304 1153.2938 4376.4546 2304042
-3656.4631 1154.6407 4381.5654 2368809
-3646.2256 1159.6418 4400.5435 2303786
-3609.0454 1156.0846 4387.0444 2303786
-3588.0173 1157.6871 4393.126 2369579
-3581.3716 1163.9877 4417.0347 2303786
-3561.1216 1165.9268 4424.3931 2237993
-3528.1755 1163.707 4415.9697 2303786
-3419.7019 1136.3564 4312.1816 2369579
-3481.8923 1165.7325 4423.6558 2501165
-3468.8845 1170.1868 4440.5586 2369579
-3419.571 1162.3682 4410.8892 2369579
-3418.9377 1171.1038 4444.0386 2369579
-3385.2549 1168.5667 4434.4106 2435372
-3345.1436 1163.7532 4416.145 2435372
-3337.0774 1170.1002 4440.23 2369579
-3212.6475 1135.4225 4308.6372 2369579
-3200.4893 1140.1863 4326.7148 2303786
-3194.0088 1147.0663 4352.8223 2237993
-3104.1523 1123.8715 4264.8042 2237993
-3067.1768 1119.5989 4248.5908 2237993
-2970.4001 1093.2461 4148.5884 2238250
-3023.1235 1121.9355 4257.4575 2434602
-3025.7144 1132.3459 4296.9629 2434602
-3051.0171 1151.5052 4369.667 2500395
-3086.4868 1174.8624 4458.3018 2500395
-3117.2002 1196.7966 4541.5366 2500395
-3039.4907 1177.1235 4466.8818 2434858
-2994.5771 1169.9171 4439.5356 2500391
-2650.5942 1044.7079 3964.3982 2500641
-2638.3508 1049.1804 3981.3706 5066549
-2607.2705 1046.1753 3969.967 7302714
-2603.7334 1054.2679 4000.6768 7171125
-2541.7219 1038.6152 3941.2786 6316584
-2510.884 1035.5287 3929.5657 4604712
-2513.1172 1046.151 3969.8745 2697763
-2825.1438 1187.1522 4504.938 2566441
-2779.7329 1179.2119 4474.8066 2566188
-2757.1731 1180.9059 4481.2349 2566188
-2710.3652 1172.1465 4447.9951 2631980
-2707.292 1182.3142 4486.5796 2566187
-2680.0298 1182.0156 4485.4463 2566188
-2677.731 1192.8311 4526.4883 2500393
-2356.0396 1060.1481 4022.9905 2237221
-2335.0374 1061.4371 4027.8818 1974049
-2562.2561 1176.7518 4465.4712 2434600
-2547.0818 1181.9889 4485.3447 2566186
-2528.3638 1185.6746 4499.3311 2631979
-2497.5408 1183.7017 4491.8442 2631979
-2462.2361 1179.5393 4476.0493 2434600
-2223.3413 1076.6941 4085.7778 2039842
-2391.2798 1170.7698 4442.771 2368807
-2375.3516 1175.9167 4462.3027 2697772
-2358.6887 1180.8119 4480.8784 2631979
-2336.3867 1182.9633 4489.0425 2631979
-2308.0928 1182.0953 4485.749 2631981
-2287.938 1185.4244 4498.3818 2631981
-2260.491 1185.0092 4496.8057 2631981
-2234.0571 1185.1213 4497.2314 2631981
-2211.3103 1187.2157 4505.1792 2697774
-2184.0034 1186.8832 4503.9175 2631981
-2154.7715 1185.4834 4498.6055 2500395
-2127.9822 1185.4092 4498.3237 2500395
-2092.7961 1180.5961 4480.0596 2631981
-2070.75 1183.1675 4489.8169 2697774
-2047.3451 1185.019 4496.8433 2631981
-2022.1234 1185.854 4500.0122 2566188
-1999.8406 1188.4579 4509.8931 2631981
-1963.8225 1182.8593 4488.6475 2631981
-1945.7682 1188.0753 4508.4414 2697774
-1929.2092 1194.3624 4532.2993 2434602
-1908.8632 1198.4495 4547.8081 2500395
-1890.1222 1203.6755 4567.6401 2434602
-1869.4349 1207.7961 4583.2769 2500395
-1846.7706 1210.7421 4594.4556 2566188
-1824.3263 1213.9226 4606.5249 2500395
-1767.8354 1194.2006 4531.6851 2500395
-1757.2933 1205.3882 4574.1392 2500395
-1594.2693 1110.6952 4214.8032 2566188
-1559.6852 1103.8936 4188.9932 2631981
-1532.1869 1101.9685 4181.688 2631981
-1509.5605 1103.5415 4187.6572 2763567
-1493.9067 1110.3495 4213.4917 2697774
-1461.3114 1104.5831 4191.6099 2697774
-1438.3492 1106.0248 4197.0806 2566188
-1407.661 1101.4716 4179.8022 2566187
-1391.2921 1108.1606 4205.1855 2631979
-1370.1672 1111.2365 4216.8574 2697772
-1354.7744 1119.1617 4246.9321 2566186
-1324.3832 1114.7627 4230.2383 2631979
-1305.1707 1119.7847 4249.2954 2631979
-1281.6793 1121.2607 4254.897 2763565
-1266.1769 1129.9254 4287.7773 2763565
-1239.2861 1128.574 4282.6489 2763565
-1220.1276 1134.3549 4304.5859 2829358
-1194.1934 1133.9486 4303.0444 2763565
-1179.1663 1144.1074 4341.5942 2763565
-1171.2374 1161.7604 4408.5825 2895151
-1148.1807 1164.8707 4420.3857 3158577
-1125.5793 1168.5991 4434.5342 3553079
-1098.0802 1167.2994 4429.6021 4145473
-1081.0139 1177.2981 4467.5444 4737609
-1060.5353 1183.9891 4492.9351 5790297
-1042.0419 1193.2981 4528.2603 6316641
-996.15277 1170.8977 4443.2563 6974570
-952.67841 1150.1964 4364.7007 7106155
-919.05286 1140.5625 4328.1421 7435120
-892.51111 1139.4189 4323.8027 7632499
-873.35938 1147.921 4356.0659 7829878
-848.41693 1149.0979 4360.5322 7764085
-917.87292 1282.2184 4865.6899 7764083
-887.70819 1280.2949 4858.3911 7764083
-849.49152 1266.2406 4805.0586 7829876
-829.35345 1279.0936 4853.8325 7829876
-794.22058 1268.9133 4815.2007 7895669
-764.86981 1267.5564 4810.0518 7895669
-732.7218 1261.2794 4786.2319 7698290
-701.96552 1256.9893 4769.9517 7764085
-677.31537 1263.7317 4795.5376 7764083
-646.32947 1258.7257 4776.5415 7764083
-617.21735 1257.0775 4770.2871 7698290
-580.22455 1238.4506 4699.6025 7698290
-568.43298 1274.4476 4836.2017 7829876
-528.48077 1247.7775 4734.9956 7829876
-504.18094 1257.1451 4770.5435 7764083
-475.70425 1256.5923 4768.4453 7895158
-448.02493 1258.2089 4774.5801 7895412
-425.93781 1276.8068 4845.1543 7829619
-391.38367 1258.0203 4773.8643 8026998
-367.33481 1272.7045 4829.5869 7895412
-334.86435 1258.2262 4774.646 8092791
-305.77164 1254.9387 4762.1704 8224377
-280.28345 1267.2804 4809.0044 8158584
-236.25877 1189.119 4512.4019 8158584
-211.41423 1199.864 4553.1763 8224376
-192.73781 1253.88 4758.1533 8158584
-166.62248 1269.7201 4818.2622 8355964
-140.90889 1295.8051 4917.248 8421756
-111.25944 1289.8604 4894.689 8224377
-82.236191 1289.5427 4893.4839 8421755
-57.557316 1394.105 5290.271 8487548
-26.30084 1398.9191 5308.5391 8684927
5.1476994 1397.1049 5301.6548 8487549
36.420288 1391.6846 5281.0864 8487549
63.325642 1301.5156 4938.918 8487549
90.953514 1278.5021 4851.5874 8355963
117.76071 1257.777 4772.9414 8421756
146.70776 1263.5083 4794.6899 8487549
174.66968 1260.2719 4782.4087 8487549
199.60158 1239.1285 4702.1753 8553342
228.38091 1244.1244 4721.1328 8487549
252.11685 1223.5536 4643.0723 8619135
280.09494 1225.5928 4650.8101 8553342
318.67371 1269.4963 4817.4131 8487549
337.0701 1232.3907 4676.6069 8750721
375.45862 1268.4648 4813.499 8684928
398.12006 1250.0635 4743.6704 8684928
434.71814 1274.9633 4838.1587 8619135
469.06812 1290.5966 4897.4829 8553342
498.9949 1292.9473 4906.4033 8487548
531.59631 1301.5879 4939.1924 8421755
556.39453 1291.2179 4899.8408 8421755
585.13147 1290.5637 4897.3584 8356218
608.51636 1278.7249 4852.4326 8421755
658.92023 1322.1696 5017.2944 8290170
698.34009 1340.7745 5087.8955 8290170
726.633 1337.3606 5074.9404 8487549
738.83612 1305.7816 4955.1064 8553342
782.95673 1330.87 5050.3105 8355963
813.40216 1331.7219 5053.5435 8224377
859.52106 1357.2632 5150.4658 8092791
882.15076 1345.233 5104.8145 8092536
913.06299 1346.2123 5108.5303 8092536
935.6734 1335.2812 5067.0498 8092792
969.4859 1340.5193 5086.9268 8092536
998.6416 1339.1965 5081.9072 7961205
1029.358 1339.9828 5084.8911 8158584
1057.4255 1337.3744 5074.9927 8092791
1084.1073 1333.2058 5059.1743 8224377
1112.4794 1331.2845 5051.8838 8158584
1154.1647 1344.9781 5103.8472 8158584
1168.1956 1326.5687 5033.9883 8224377
1224.731 1356.1414 5146.209 8026998
1249.0488 1349.4695 5120.8906 7895412
1285.8348 1356.265 5146.6777 7895412
1289.0892 1328.1968 5040.1665 7829619
1303.8157 1312.9521 4982.3169 7500654
1379.1396 1358.0536 5153.4653 7697779
1408.5646 1356.983 5149.4023 7697522
1424.314 1343.0621 5096.5767 7763315
1485.0295 1371.2401 5203.5049 7894899
1508.892 1364.9348 5179.5776 7960692
1524.2737 1351.3621 5128.0728 8026229
1529.7601 1329.7186 5045.9414 7961205
1601.0723 1365.026 5179.9238 7829619
1638.5554 1370.7062 5201.4785 7895412
1664.6807 1366.8506 5186.8477 7829620
1678.2063 1352.9772 5134.2012 7960949
1734.3087 1373.3119 5211.3667 7895668
1765.2766 1373.3807 5211.6279 7829619
1790.6116 1369.1401 5195.5356 7895412
1823.792 1370.9403 5202.3667 7961205
1838.1273 1358.7504 5156.1089 7961205
