# .PCD v0.7 - Point Cloud Data file format
VERSION 0.7
FIELDS x y z rgb
SIZE 4 4 4 4
TYPE F F F U
COUNT 1 1 1 1
WIDTH 1281
HEIGHT 1
VIEWPOINT 0 0 0 1 0 0 0
POINTS 1281
DATA ascii
-1053.8927 1047.282 3075.2424 2626570
-1036.0913 1047.7072 3076.4912 2822923
-1022.1629 1052.1344 3089.4912 2823180
-998.88892 1046.928 3074.2031 2560008
-987.8985 1054.6417 3096.8535 2822923
-966.95673 1051.8225 3088.5754 2888713
-943.37921 1045.9722 3071.3965 2954507
-927.53033 1048.6294 3079.1992 2757128
-909.57916 1048.9689 3080.196 2887942
-897.88507 1056.6859 3102.8564 3150598
-873.38104 1049.335 3081.2708 3807752
-848.8985 1041.6964 3058.8411 5386009
-816.53839 1023.847 3006.428 6635043
-813.26245 1042.4832 3061.1511 7884848
-796.11639 1043.7843 3064.9719 8608568
-772.06403 1035.8801 3041.7622 8871996
-757.1734 1040.1842 3054.4006 8016943
-737.1217 1037.4353 3046.3289 8213809
-719.93231 1038.678 3049.9778 8410931
-700.5838 1036.7893 3044.4321 8608310
-680.87036 1034.2466 3036.9656 8871482
-659.69775 1029.2892 3022.4084 9133884
-640.81183 1027.7224 3017.8079 8871226
-620.46887 1023.6618 3005.8843 8937788
-604.18726 1026.2596 3013.5125 9003325
-584.15125 1022.4445 3002.3096 8871738
-566.77667 1023.1942 3004.511 9200704
-548.32111 1021.9778 3000.9395 8871739
-529.88812 1020.7234 2997.2559 8870712
-514.7749 1025.9987 3012.7461 9134397
-496.07822 1024.254 3007.6233 9003068
-477.87961 1023.4461 3005.251 9200703
-458.29413 1019.4905 2993.6357 9134910
-441.26108 1021.123 2998.4294 9069118
-426.10184 1027.4105 3016.8921 9002811
-406.22784 1022.3829 3002.1287 9396800
-390.84439 1028.7137 3020.7188 9397056
-372.8815 1028.5375 3020.2012 9134140
-353.58328 1024.4744 3008.2703 9068347
-336.18481 1025.7765 3012.0938 9002555
-318.14288 1025.1511 3010.2576 8805175
-303.32446 1035.4556 3040.5156 9133884
-282.46234 1025.1272 3010.1875 8936762
-263.79996 1021.9281 3000.7935 8805175
-243.66237 1012.1389 2972.0483 9002554
-228.94257 1025.0823 3010.0552 8870969
-210.59097 1022.5776 3002.7004 9068348
-194.55035 1031.8678 3029.9802 9265726
-176.71858 1032.5812 3032.075 8739126
-157.58127 1024.9642 3009.7085 9594948
-140.35588 1029.4259 3022.8101 8871739
-122.84691 1032.809 3032.7439 9200447
-104.49537 1029.0538 3021.7175 9726791
-85.68956 1018.3472 2990.2783 9069118
-68.079445 1019.9725 2995.051 8871739
-50.431545 1021.9783 3000.9409 9068862
-32.50351 1017.4005 2987.4983 8411188
-14.844768 1020.3825 2996.2549 8805946
2.9207284 1024.4098 3008.0806 8542773
20.866396 1030.4136 3025.7104 8476725
38.495586 1022.4626 3002.3628 7818795
56.097553 1019.0431 2992.3218 8280116
73.144409 1009.604 2964.6047 8674360
91.603073 1019.5339 2993.7632 9200703
109.6568 1022.4662 3002.3735 9134910
126.71168 1016.5664 2985.0493 8805947
144.1227 1014.6192 2979.3315 8280115
162.42868 1018.71 2991.3435 8740667
181.46573 1026.1295 3013.1306 8740410
199.59639 1027.5538 3017.313 9464389
214.45021 1013.2612 2975.3438 8411444
234.39507 1023.3673 3005.0195 8542517
249.88646 1013.9755 2977.4412 9332032
266.44708 1009.8748 2965.3999 8937785
285.39841 1014.782 2979.8098 9266751
303.60349 1016.6188 2985.2031 9200958
319.11267 1009.7231 2964.9543 9069115
339.69348 1018.757 2991.4817 9398335
359.96765 1026.0208 3012.8113 9529920
375.79688 1020.5274 2996.6804 9200699
392.40958 1017.5613 2987.9707 9003576
408.45798 1013.4512 2975.9019 9002806
426.19983 1013.7091 2976.6592 9002807
445.26038 1016.9583 2986.2002 9199929
465.32877 1022.1732 3001.5129 8805429
485.57388 1027.3779 3016.7961 9265724
500.01868 1020.3766 2996.2373 9002552
513.92926 1012.8025 2973.9968 9791812
530.38605 1010.582 2967.4766 9133882
546.22333 1007.3616 2958.0203 9463105
566.38947 1012.0767 2971.8655 9068859
587.71588 1018.5182 2990.7805 9135166
606.54718 1020.385 2996.2622 8082222
626.25616 1023.5801 3005.6445 8543031
636.99695 1012.3459 2972.6565 8476980
654.71124 1012.5008 2973.1111 9003066
675.14844 1016.7482 2985.583 8871993
689.6908 1012.1279 2972.0159 9530177
703.96857 1007.3588 2958.0122 9004089
724.20142 1011.1363 2969.1042 8017708
731.34344 996.89038 2927.2727 7359783
746.99036 994.62903 2920.6323 9135682
766.40582 997.37433 2928.6936 8674617
790.89722 1006.4575 2955.3655 8937789
808.56299 1006.6492 2955.9285 8871742
827.4068 1008.2684 2960.6831 9134911
843.89117 1007.0049 2956.9729 8937533
862.00482 1007.6974 2959.0063 8936506
873.12292 1000.3474 2937.4238 9068349
894.71509 1005.0505 2951.2339 9265728
911.55878 1004.3414 2949.1519 9265471
920.58594 995.20898 2922.3352 9265728
939.4118 996.81104 2927.0396 8804920
956.39594 996.43616 2925.9387 8476212
977.85876 1000.6578 2938.3354 9265471
992.56177 997.93542 2930.3411 9265471
988.60315 976.86652 2868.4744 8739384
1014.1899 985.21088 2892.9768 8936506
1039.9766 993.46893 2917.2258 8739127
1056.5852 992.8327 2915.3574 8673334
1070.5974 989.81641 2906.5005 8936763
1096.1765 997.42047 2928.8291 8475955
1123.6366 1006.4724 2955.4089 7883818
1134.0985 1000.2543 2937.1504 8344626
1154.0383 1002.4572 2943.6189 8080684
1166.6387 998.31396 2931.4529 8080941
1184.7322 998.92401 2933.2441 8080941
1197.5062 995.09601 2922.0037 7685926
1217.674 997.43359 2928.8677 7883304
1227.7196 991.5307 2911.5342 7686181
1242.8334 989.82758 2906.5334 8607284
1261.1721 990.70465 2909.1086 8739127
1281.7111 993.263 2916.6211 8015660
1293.6696 989.19226 2904.6677 8476468
1310.704 989.05878 2904.2759 8410418
1325.6025 987.33789 2899.2227 8475955
1343.1176 987.5849 2899.948 8672821
1354.7875 983.58221 2888.1943 8541492
1380.7565 989.93103 2906.8369 8278320
1400.9563 992.03802 2913.0242 8870713
1418.7981 992.4444 2914.2173 8344625
1439.8525 995.06128 2921.9016 8936506
1444.2769 986.25964 2896.0564 8212783
1447.8591 977.09644 2869.1494 8607797
1484.7272 990.34827 2908.0623 8476212
1493.2756 984.62299 2891.2505 8607541
1499.2732 977.36462 2869.937 8936762
1523.4874 982.01123 2883.5813 8541748
1551.7506 989.13568 2904.5017 8805177
1555.5374 980.67291 2879.6516 8475955
1587.6737 990.07269 2907.2529 8739383
1598.1715 985.92145 2895.0635 8147247
1629.262 994.42737 2920.0403 8410421
1637.244 988.79852 2903.5115 9068348
1662.0172 993.32202 2916.7944 9002555
1680.4635 994.01001 2918.8147 9134142
1675.7147 981.10364 2880.9163 8739384
1716.6974 994.96259 2921.6118 9133885
1712.1562 982.42365 2884.7922 9002556
1732.7574 984.41638 2890.6438 9002556
1754.2864 986.89203 2897.9133 9002556
1766.8951 984.35022 2890.4495 8805176
1781.1396 982.7597 2885.7791 8805177
1793.8901 980.38306 2878.8003 8739384
1809.991 979.86469 2877.2783 8344625
1825.1304 978.84058 2874.271 8607798
1844.4969 980.08148 2877.915 8607541
1861.6133 980.11493 2878.0132 8739383
1878.2094 979.87646 2877.3127 8739384
1891.6602 978.01593 2871.8496 8936763
1939.3451 993.73041 2917.9937 8344626
1954.4183 992.60437 2914.6873 8870970
1959.4612 986.44861 2896.6113 8805177
1976.5013 986.38696 2896.4304 9002299
1999.5525 989.30054 2904.9856 8673334
2019.0869 990.43903 2908.3289 8673591
2037.6506 991.08636 2910.2295 8541494
2060.6477 993.86096 2918.377 8542264
2042.9962 977.14752 2869.2996 8345142
2076.9753 985.20062 2892.9465 8805693
2114.5989 994.83649 2921.2415 8345142
2108.7253 984.01837 2889.4751 8344885
2130.1292 986.00055 2895.2957 8608057
2138.988 982.19067 2884.1084 8476728
2154.0349 981.26031 2881.3762 8673850
2197.0146 992.96899 2915.7578 8410935
2221.5559 996.22656 2925.3232 8015663
2216.8342 986.41272 2896.5059 8410163
2240.1936 989.14868 2904.5398 9002301
2276.4709 997.50342 2929.0725 8739385
2278.9963 991.05408 2910.1348 7752490
2294.2227 990.18329 2907.5779 7949869
2317.4673 992.76056 2915.1458 8213042
2326.9053 989.42883 2905.3623 6831389
2363.2896 997.51978 2929.1208 8476728
2320.8704 972.47321 2855.5737 7687212
2360.0728 981.742 2882.7908 9003071
2362.1609 975.5498 2864.6079 8279605
2416.9663 991.06238 2910.1592 8476983
2418.2725 984.57355 2891.1052 8477237
2447.55 989.48413 2905.5247 8081966
2455.1519 985.62427 2894.1907 8740153
2472.4514 985.68427 2894.3667 8278578
2456.3408 972.51562 2855.6982 5843986
2504.9824 984.9884 2892.3235 2820869
2501.2417 976.83441 2868.3801 3083524
2543.374 986.58472 2897.011 2686976
2542.1296 979.49121 2876.1814 2360578
2564.4617 981.51562 2882.126 2492672
2595.6392 986.87646 2897.8677 2755584
2651.9741 1001.6689 2941.3042 4925455
2616.1665 981.69257 2882.6458 5319436
2610.3337 973.15027 2857.562 7423007
2555.874 946.70642 2779.9121 7818275
2536.5298 933.5249 2741.2058 10252365
2552.1799 933.30817 2740.5693 9594949
2522.5034 916.62341 2691.5764 8081197
2519.2788 909.70007 2671.2466 7555623
2533.7102 909.19879 2669.7747 8805946
2541.2676 906.25238 2661.1228 8410932
0 0 0 0
0 0 0 0
0 0 0 0
0 0 0 0
0 0 0 0
0 0 0 0
0 0 0 0
-2431.3479 942.53973 2720.3447 1536
-2437.8809 951.37952 2745.8582 1536
-2441.2913 959.11151 2768.1741 1536
-2535.252 1002.7634 2894.1614 1536
-2534.1052 1009.1358 2912.5535 1536
-2516.8608 1009.1414 2912.5693 1280
-2497.7446 1008.3911 2910.4041 1280
-2365.7285 961.73358 2775.7419 1536
-2347.7952 961.12531 2773.9863 1536
-2424.8408 999.66449 2885.2175 1280
-2421.2764 1005.2826 2901.4324 1280
-2447.3784 1023.3864 2953.6833 1280
-2408.1174 1014.2221 2927.2334 1280
-2386.2109 1012.287 2921.6484 1280
-2377.6707 1016.0353 2932.4668 1280
-2362.9153 1017.1635 2935.7229 1280
-2335.9458 1013.0115 2923.7393 768
-2298.7046 1004.3098 2898.6245 1024
-2318.2859 1020.4898 2945.3232 768
-2398.9148 1063.9918 3070.8779 133120
-2393.177 1069.5597 3086.948 1024
-2355.6475 1060.8955 3061.9417 768
-2297.55 1042.762 3009.605 768
-2350.1606 1074.9835 3102.6023 512
-2332.8096 1075.4598 3103.9768 658178
-2313.2971 1074.9395 3102.4749 920580
-2304.9221 1079.6273 3116.0051 1249030
-2297.2251 1084.7111 3130.6777 1314310
-2276.5688 1083.7089 3127.7849 1379846
-2250.9316 1080.2993 3117.9446 1511432
-2239.738 1083.8229 3128.1143 1511689
-2224.2634 1085.3163 3132.4246 1445639
-2196.7864 1080.9292 3119.7625 1445639
-2161.1323 1072.4098 3095.1741 1576455
-2144.4836 1073.2563 3097.6172 1642249
-2122.0286 1071.1865 3091.6433 1642249
-2102.1755 1070.4054 3089.3889 1641478
-2099.0747 1078.2158 3111.9312 1510149
-2063.2527 1069.2078 3085.9324 1510149
-2044.1224 1068.7661 3084.6577 1773321
-2031.9506 1071.9873 3093.9548 1838857
-2018.009 1074.3253 3100.7024 1838857
-1995.8813 1072.3079 3094.8799 1904650
-1987.196 1077.5422 3109.9871 1970443
-1961.6757 1073.6604 3098.7837 1904649
-1943.6289 1073.8344 3099.2854 1575685
-1923.8953 1073.0708 3097.0815 1838857
-1900.0853 1069.9969 3088.21 2036235
-1885.0786 1071.8689 3093.6125 1838857
-1858.0333 1066.8651 3079.1709 2036236
-1844.71 1069.7192 3087.4084 1970186
-1820.9069 1066.4928 3078.0962 1838344
-1799.2869 1064.4924 3072.323 1969930
-1773.8297 1060.158 3059.8127 2298638
-1748.7697 1055.9736 3047.7361 1903881
-1744.1997 1064.2039 3071.4902 1772549
-1724.1497 1063.0631 3068.1975 2101257
-1711.2745 1066.3689 3077.7388 2101514
-1691.7189 1065.5383 3075.3416 1969928
-1677.0314 1067.7892 3081.8381 1969928
-1656.6482 1066.4231 3077.8953 2167307
-1629.4889 1060.6163 3061.1357 2035721
-1623.1432 1068.3784 3083.5386 2035464
-1596.7214 1062.9526 3067.8787 2101514
-1574.5273 1060.2484 3060.074 2167050
-1551.8162 1057.1292 3051.071 2232843
-1531.3044 1055.4523 3046.2314 2298379
-1519.5299 1059.8292 3058.8643 2298635
-1507.459 1064.1029 3071.1985 2364174
-1490.236 1064.7994 3073.2092 2100745
-1472.1693 1064.9032 3073.5085 2429710
-1446.0524 1059.1133 3056.7979 2429966
-1430.8849 1061.2979 3063.1028 2298379
-1408.9574 1058.4601 3054.9126 2363915
-1393.6887 1060.6161 3061.135 2101000
-1375.5503 1060.6161 3061.135 2232585
-1346.2888 1051.925 3036.0513 2429451
-1327.8885 1051.6001 3035.1133 2561037
-1306.2101 1048.6343 3026.5535 2692366
-1290.1837 1050.1866 3031.0339 2626830
-1284.6625 1060.4547 3060.6692 2758416
-1255.333 1051.0822 3033.6184 2494987
-1233.5682 1047.8633 3024.3281 2626316
-1212.0554 1044.7666 3015.3906 2626573
-1194.9556 1045.4382 3017.3289 2429194
-1183.3789 1051.0355 3033.4839 2363398
-1163.7281 1049.5239 3029.1211 2626571
-1132.3547 1037.2271 2993.6299 2758157
-1115.5781 1038.1221 2996.2134 2363399
-1097.0284 1037.3695 2994.0413 2560778
-1087.1716 1044.9474 3015.9124 2231813
-1071.1417 1046.746 3021.1035 2494472
-1053.205 1046.7107 3021.0017 2888716
-1037.2355 1048.6631 3026.6367 2757387
-1010.6411 1039.7534 3000.9214 2757387
-1000.1396 1047.3774 3022.9258 2691337
-977.16925 1041.9835 3007.3582 2691594
-954.83624 1037.0815 2993.2102 2625801
-940.5412 1040.8896 3004.2009 2691334
-922.79901 1040.9561 3004.3926 2822665
-902.73114 1038.3501 2996.8713 2823177
-890.15015 1044.424 3014.4016 2953735
-875.99005 1048.8558 3027.1929 3216390
-859.56744 1050.7074 3032.5369 3873288
-836.35175 1044.1571 3013.6313 5320216
-799.00781 1019.2975 2941.8821 7096107
-795.30157 1037.1978 2993.5454 7621933
-775.26154 1034.1271 2984.6829 8674618
-756.59839 1032.7924 2980.8308 8806459
-738.45416 1032.1193 2978.8882 7951149
-728.17279 1042.672 3009.3452 8279602
-705.19891 1035.1239 2987.5601 8805946
-685.26825 1031.7692 2977.8774 8937531
-662.71332 1024.1813 2955.9775 9200703
-644.95343 1023.7931 2954.8572 9068604
-630.71503 1029.1293 2970.2583 8410675
-612.20099 1027.595 2965.8301 8542773
-594.08282 1026.6542 2963.1147 8805945
-574.30688 1022.7039 2951.7136 9003324
-558.27686 1025.3855 2959.4531 8673847
-539.18616 1022.4374 2950.9443 8410931
-522.75348 1024.5007 2956.8994 8213552
-502.76514 1019.4972 2942.4583 8410674
-488.01965 1025.1473 2958.7656 8608310
-467.35007 1018.3106 2939.0337 9134911
-450.17932 1018.8633 2940.6287 8871739
-433.11533 1019.7119 2943.0779 8608567
-416.95453 1022.8473 2952.1272 8542774
-400.47775 1025.4482 2959.634 8608310
-382.06137 1023.0934 2952.8376 9332289
-365.33606 1025.2583 2959.0859 9002553
-347.95056 1025.6953 2960.3474 8936760
-328.04541 1018.3571 2939.1677 8607795
-313.32822 1027.2039 2964.7014 9265725
-293.17981 1018.2386 2938.8259 8936761
-278.36115 1027.8207 2966.4814 8805175
-259.96881 1024.6095 2957.2134 8344625
-241.45505 1020.4211 2945.1248 8739896
-225.04689 1025.1718 2958.8362 9529412
-207.17183 1023.4784 2953.949 8937276
-190.90823 1030.1682 2973.2568 8542518
-172.81491 1027.3411 2965.0972 8871225
-154.85152 1024.7336 2957.5718 8608309
-137.24403 1024.1167 2955.791 8739639
-119.52209 1022.3401 2950.6636 8871738
-101.94489 1021.405 2947.9646 8805946
-84.534927 1022.1052 2949.9856 8805946
-67.048294 1022.0018 2949.687 9068861
-49.360237 1017.6727 2937.1926 9003068
-32.174217 1024.6158 2957.2319 8805689
-14.614151 1022.0089 2949.7075 9134654
2.8484185 1016.4307 2933.6079 9595718
20.207399 1015.2339 2930.1536 8280114
37.601849 1016.1016 2932.658 8476980
55.023945 1016.9318 2935.054 7819565
71.991463 1010.9796 2917.875 7687722
88.879089 1006.428 2904.7383 8411445
107.3516 1018.3883 2939.2578 8674617
123.84589 1010.8628 2917.5378 8477752
142.27304 1019.0249 2941.0952 8345655
160.02409 1021.0915 2947.0598 9727819
177.51537 1021.257 2947.5374 9200964
193.72964 1014.7042 2928.6248 8345912
211.44051 1016.4231 2933.5859 8411959
229.71722 1020.3944 2945.0479 7359015
244.8376 1010.7744 2917.283 8674617
263.56912 1016.3483 2933.3701 8871482
281.14108 1017.0377 2935.3599 9200957
299.20111 1019.3094 2941.9165 8805686
314.91827 1013.7889 2925.9832 9002552
332.88962 1015.7225 2931.564 9199929
349.99246 1014.9457 2929.322 9134906
370.66174 1024.0962 2955.7317 9134906
387.51874 1022.363 2950.7297 8937014
404.31662 1020.6304 2945.729 9594944
420.92969 1018.5941 2939.8516 9199929
439.08411 1020.301 2944.7783 9068343
458.16211 1023.9416 2955.2859 9134393
472.19128 1016.446 2933.6521 9199932
487.84735 1012.8605 2923.3035 9265982
507.62036 1017.7753 2937.4885 9199675
524.49786 1016.7512 2934.533 9265725
539.95667 1013.1308 2924.0837 9134139
562.57001 1022.7426 2951.825 8739382
577.80023 1018.7568 2940.3213 8937274
596.53741 1021.0069 2946.8154 9068860
612.37872 1018.3133 2939.0415 8410930
625.63104 1011.5827 2919.6157 8410671
642.13342 1010.3278 2915.9939 9594689
656.66852 1006.1246 2903.8625 9331772
675.41766 1008.4277 2910.5098 8936760
688.64575 1002.5783 2893.6274 8936761
703.3031 999.04327 2883.4246 8674104
717.48358 995.01471 2871.7974 9068864
736.64093 997.91473 2880.1675 8871485
756.99323 1002.2657 2892.7249 8871741
774.14282 1002.2774 2892.7588 9200450
786.73749 996.5191 2876.1394 8871739
809.47113 1003.5752 2896.5044 9069118
817.33441 992.28497 2863.9187 8476982
842.66138 1002.2245 2892.606 8673334
864.15289 1007.2969 2907.2461 8607798
881.44629 1007.3733 2907.4666 8936506
896.73877 1005.2037 2901.2048 9331264
912.67291 1003.8217 2897.2158 9594693
916.98712 989.94598 2857.1682 9462850
931.13263 986.99463 2848.6499 9265727
950.37183 989.45142 2855.7407 8739383
973.74817 996.05426 2874.7976 8870970
982.10614 987.33173 2849.6228 8739127
997.85645 986.21014 2846.3857 8870970
1013.0977 984.63104 2841.8281 9068092
1028.5228 983.27936 2837.927 9528899
1043.3655 981.42334 2832.5701 8739127
1067.0918 987.84998 2851.1187 8673591
1084.4683 988.28961 2852.3875 8673591
1103.4597 990.16498 2857.8 8542005
1115.8306 986.13263 2846.1621 8541748
1134.5533 987.75031 2850.8308 8080940
1156.5258 992.10815 2863.4084 8409905
1168.7571 988.10468 2851.8538 8870200
1181.4768 984.62219 2841.8027 7949354
1201.3687 987.1308 2849.043 8343856
1221.3226 989.62012 2856.2275 8146990
1236.593 988.29828 2852.4126 8081454
1241.7512 979.03937 2825.6897 8805177
1259.1316 979.53497 2827.1201 7686439
1272.4092 976.86761 2819.4216 7423524
1297.7805 983.43402 2838.3733 9002300
1317.7875 985.81915 2845.2573 9133628
1337.1099 987.63855 2850.5083 7159839
1351.9618 986.15173 2846.217 8014891
1379.8434 994.08844 2869.1238 8080941
1386.5009 986.72742 2847.8787 8278063
1410.5255 991.75458 2862.3879 8475699
1423.0996 988.70685 2853.5918 8278833
1439.9968 988.69897 2853.5691 7752489
1457.802 989.30743 2855.3252 8344625
1472.9454 988.11633 2851.8875 8739127
1483.281 983.76361 2839.3245 8804920
1506.121 987.70868 2850.7109 8475955
1505.2428 976.18463 2817.4502 8739127
1537.3933 986.09821 2846.0627 8476212
1549.8618 983.30945 2838.0139 8805177
1562.4569 980.6601 2830.3672 7555111
1614.8015 1002.7504 2894.1238 8607544
1601.812 984.23181 2840.6758 8739127
1622.7798 986.74658 2847.9338 9134142
1636.0127 984.55457 2841.6074 8739384
1656.0997 986.49023 2847.1941 8870970
1678.015 989.46478 2855.7791 9265471
1686.2205 984.3764 2841.0933 8344369
1707.8062 987.12256 2849.019 8147247
1720.2184 984.56451 2841.6362 8213040
1743.0219 987.94592 2851.3955 8344626
1757.2552 986.45142 2847.082 9068092
1772.332 985.45428 2844.2041 9068349
1780.4567 980.64685 2830.3289 8344626
1799.2539 981.7525 2833.52 9068092
1809.3031 978.10852 2823.0029 8870713
1826.2627 978.23285 2823.3618 8739384
1852.9668 983.52722 2838.6423 8673334
1872.7637 985.09308 2843.1619 8739127
1892.9668 986.84265 2848.2114 8542004
1907.0979 985.42401 2844.1167 8278833
1938.4127 992.83148 2865.4961 8541748
1947.9991 989.07782 2854.6624 8081197
1974.9963 994.15283 2869.3098 7949612
1978.0348 987.18414 2849.1968 8212785
1996.0414 987.7403 2850.802 8476213
1979.8359 971.49939 2803.9277 7884591
2021.6852 983.77905 2839.3691 8805692
2026.1166 977.79828 2822.1074 8542521
2049.5894 981.02942 2831.4331 8673850
2067.7825 981.70154 2833.373 8147763
2088.7786 983.68292 2839.0918 8410935
2106.9292 984.30316 2840.8818 8410935
2122.8171 983.86505 2839.6174 8345142
2146.8228 987.1665 2849.146 8674107
2168.9507 989.55975 2856.0532 9397572
2172.5266 983.51733 2838.6138 8081712
2196.071 986.53809 2847.3323 8673592
2204.7319 982.87775 2836.7678 9068607
2239.4714 990.81085 2859.6641 8870715
2242.5681 984.7301 2842.114 8147248
2251.4585 981.26501 2832.1133 8279091
2263.7122 979.30621 2826.4597 7950127
2299.2322 987.36761 2849.7266 7489576
2298.8289 979.99725 2828.4541 8016435
2335.1846 988.29059 2852.3904 7950641
2354.2129 989.1842 2854.9695 7950643
2373.0435 989.98248 2857.2734 7687725
2355.365 975.64673 2815.8977 8016690
2373.4229 976.21136 2817.5273 8213555
2408.3491 983.65759 2839.0186 7621419
2401.999 974.25885 2811.8921 7555626
2423.8506 976.34943 2817.9258 8213297
2406.3689 962.6759 2778.4617 7687212
2472.7598 982.51379 2835.7173 8082233
2558.1182 1009.5696 2913.8054 3741452
2615.4438 1025.2733 2959.1294 1180160
2619.9944 1020.2176 2944.5376 1245184
2646.2852 1023.6384 2954.4106 1245184
2615.4729 1005.0707 2900.8208 1310720
2604.3796 994.27356 2869.6582 1376256
2584.1438 980.1488 2828.8916 1572864
2544.1079 958.74451 2767.1147 1703936
2400.8052 898.94739 2594.5293 5976854
2517.0342 936.47101 2702.8293 9923909
2538.8616 938.61969 2709.031 9462846
2505.905 920.61511 2657.0662 8475951
2533.8201 925.05841 2669.8904 9199163
2533.7422 919.29034 2653.2427 8015403
0 0 0 0
0 0 0 0
0 0 0 0
0 0 0 0
0 0 0 0
0 0 0 0
0 0 0 0
-2457.8892 969.12378 2750.0405 1536
-2546.7043 1010.8444 2868.4294 1536
-2595.6628 1037.1995 2943.2158 1536
-2573.0042 1035.0999 2937.2581 1280
-2473.0994 1001.6845 2842.4368 1280
-2482.0518 1012.2039 2872.2874 1280
-2472.2339 1015.1612 2880.679 1280
-2462.2952 1018.1094 2889.0452 1280
-2317.9177 965.12207 2738.6853 1280
-2306.6272 967.19238 2744.5601 1280
-2422.8845 1023.1539 2903.3596 1280
-2420.2595 1029.3542 2920.9541 1280
-2366.0706 1013.5555 2876.1226 1280
-2358.4504 1017.621 2887.6589 1280
-2356.2446 1024.0989 2906.0413 768
-2359.3843 1033.0127 2931.3357 768
-2412.7261 1064.202 3019.8401 1024
-2394.9136 1064.2382 3019.9426 132608
-2392.4763 1071.1586 3039.5803 264704
-2382.4395 1074.7556 3049.7876 256
-2374.6511 1079.4299 3063.0518 256
-2356.7043 1079.5229 3063.3154 256
-2346.2371 1083.0701 3073.3811 656900
-2335.406 1086.5034 3083.1238 919811
-2316.6628 1086.2809 3082.4924 1379845
-2313.9827 1093.6467 3103.394 1379076
-2290.9038 1091.4124 3097.0537 1642505
-2272.4099 1091.344 3096.8596 1708298
-2245.5378 1087.2179 3085.1511 1708298
-2227.7249 1087.4462 3085.7991 1839884
-2198.1182 1081.8737 3069.9863 1839884
-2181.7441 1082.7754 3072.5449 1379077
-2158.7312 1080.3696 3065.7183 1510406
-2132.4092 1076.2531 3054.0366 1641992
-2103.6807 1070.8409 3038.6792 1642248
-2104.0535 1080.2769 3065.4548 1576199
-2055.0295 1064.2946 3020.1025 1641992
-2047.9426 1069.9414 3036.1265 1707785
-2032.6165 1071.3456 3040.1111 1641992
-2008.6149 1068.1614 3031.0754 1773835
-1984.3837 1064.7965 3021.5271 1970186
-1970.2573 1066.8419 3027.3311 1641478
-1954.3915 1067.9742 3030.5444 1838857
-1949.1467 1074.9855 3050.4397 1838857
-1929.6842 1074.213 3048.2478 1970443
-1879.1622 1055.9725 2996.4878 2496530
-1885.4205 1069.5956 3035.145 1970443
-1862.583 1066.8158 3027.2571 1773064
-1845.0812 1067.068 3027.9727 1773064
-1822.915 1064.601 3020.9722 2035722
-1806.4457 1065.4451 3023.3674 1904137
-1786.1252 1064.0118 3019.3005 2035723
-1768.7357 1064.3134 3020.1562 1969673
-1746.0796 1061.4196 3011.9443 1838344
-1728.1207 1061.351 3011.7495 1838344
-1715.8561 1064.8145 3021.5779 2035721
-1690.8976 1060.3904 3009.0242 2101514
-1678.7285 1063.978 3019.2046 1969928
-1662.9816 1065.351 3023.1006 2035721
-1646.0045 1065.9572 3024.8206 2298635
-1628.6483 1066.3284 3025.874 2232586
-1601.5281 1060.2441 3008.6089 2232586
-1583.4873 1060.101 3008.2029 2101000
-1572.8909 1064.9954 3022.0913 2035978
-1550.465 1061.9005 3013.3091 2298893
-1527.4514 1058.3263 3003.1667 2232843
-1512.3439 1060.2103 3008.5129 2035721
-1491.5811 1058.1274 3002.6023 2364172
-1478.4093 1061.4442 3012.0144 2298123
-1464.5616 1064.3511 3020.2629 2429710
-1441.7164 1060.71 3009.9307 2232330
-1423.7583 1060.6183 3009.6707 2166793
-1400.4268 1056.4706 2997.9009 2363915
-1383.3097 1056.9648 2999.3032 2298379
-1361.2703 1053.6616 2989.9302 2232585
-1343.0905 1053.2983 2988.8992 2232585
-1333.2079 1059.5193 3006.552 2363914
-1308.4852 1053.9553 2990.7634 2166279
-1292.772 1055.5952 2995.4167 2100486
-1280.0414 1059.7499 3007.2065 2626830
-1249.0908 1048.7247 2975.9207 2100486
-1224.8207 1043.0729 2959.8828 2100229
-1213.5251 1048.4668 2975.1887 2231815
-1195.0308 1047.7081 2973.0361 2429194
-1172.7439 1043.5522 2961.2432 2560780
-1155.5859 1043.9032 2962.239 2692365
-1133.4761 1039.7228 2950.3765 4008224
-1106.1121 1030.5165 2924.252 2758157
-1095.3215 1036.7034 2941.8083 2560778
-1078.8762 1037.6517 2944.4995 2626314
-1059.2013 1035.4741 2938.3201 2758157
-1050.4121 1044.0433 2962.6367 2494985
-1030.1261 1041.2826 2954.8025 2692364
-1018.4087 1047.2374 2971.7004 2757900
-997.63165 1043.9219 2962.292 2625801
-974.94135 1038.4498 2946.7639 2888973
-959.61182 1040.7611 2953.323 2954509
-939.24744 1037.5966 2944.3428 2823180
-920.00879 1035.5791 2938.6179 2691081
-910.24835 1044.3585 2963.531 2756874
-885.57721 1036.0393 2939.9241 2691335
-866.9939 1034.6514 2935.9854 2888714
-857.1272 1043.8217 2962.0078 3150857
-839.04956 1043.1671 2960.1501 3808009
-822.82458 1044.837 2964.8889 4596493
-792.9975 1028.9308 2919.7524 6174237
-774.14447 1026.8717 2913.9094 6963234
-761.32764 1032.9081 2931.0386 7819052
-743.21466 1031.8732 2928.1018 8213552
-729.44318 1036.9607 2942.5383 8608564
-706.69373 1029.2217 2920.5779 8608566
-688.48145 1027.8682 2916.7368 8279345
-674.06732 1032.2612 2929.2031 8805689
-653.49109 1027.2004 2914.8425 8805689
-640.15826 1033.5599 2932.8882 8674359
-619.23309 1027.674 2916.186 8805945
-602.18634 1028.0714 2917.3137 9068861
-585.63934 1029.3707 2921.001 9069117
-567.74371 1028.3066 2917.9812 9003068
-549.48853 1026.504 2912.866 9068861
-532.08093 1026.2191 2912.0576 8740152
-514.82227 1026.2119 2912.0374 8871739
-492.19769 1015.1375 2880.6118 8607797
-476.54236 1018.1574 2889.1812 8740153
-461.69531 1023.1936 2903.4724 8674359
-444.34564 1022.8588 2902.5222 8740153
-427.42291 1023.5196 2904.3972 9134911
-407.24164 1016.1053 2883.3579 8937531
-397.13779 1034.2867 2934.9507 9200704
-377.31555 1027.6643 2916.1584 8871482
-357.36664 1020.0446 2894.5366 8936761
-340.70044 1021.499 2898.6636 8870712
-323.3656 1020.9968 2897.2383 8936505
-308.14072 1027.4736 2915.6174 8212782
-288.64346 1019.6277 2893.3535 9265984
-272.77228 1024.4089 2906.9209 9003068
-254.94186 1021.9808 2900.0305 9134654
-236.56599 1016.8569 2885.4907 9068604
-219.21016 1015.6609 2882.0969 9002299
-201.44006 1012.1812 2872.2227 9265727
-185.21547 1016.5416 2884.5962 9726278
-169.08675 1022.3683 2901.1304 9331520
-150.86096 1015.3992 2881.3545 9397826
-134.73267 1022.5706 2901.7041 8674360
-117.59405 1023.0503 2903.0657 9003324
-99.934837 1018.3894 2889.8396 9003325
-82.86142 1019.0048 2891.5857 9924173
-65.617287 1017.2943 2886.7322 9266753
-48.42815 1015.5311 2881.7285 9135164
-31.299372 1013.8019 2876.822 8871738
-14.427329 1026.1986 2911.9995 8674360
2.7835352 1010.2646 2866.7844 8871738
19.974566 1020.6983 2896.3914 8871995
36.840836 1012.5624 2873.3047 8674616
54.106323 1017.074 2886.1069 8411958
70.595787 1008.3344 2861.3069 8740666
87.769501 1010.8604 2868.4749 8674873
104.45055 1007.8131 2859.8276 7753771
122.28091 1015.1581 2880.6704 9003839
141.02345 1027.3488 2915.2632 8674617
155.54752 1009.501 2864.6174 8740666
173.45822 1014.9821 2880.1709 8082482
189.26483 1008.272 2861.1299 8214324
206.237 1008.3642 2861.3914 8477494
223.96146 1011.8408 2871.2571 8609081
241.47942 1013.9598 2877.2698 8477494
258.2554 1012.8891 2874.2314 8608820
276.38028 1016.9139 2885.6526 9069372
292.29593 1012.8149 2874.021 9003065
310.01288 1015.065 2880.406 9200188
326.77621 1014.1208 2877.7268 8739892
343.6467 1013.5863 2876.2102 8739892
361.76526 1016.6097 2884.7893 8674098
381.85571 1024.6515 2907.6091 7950119
397.13208 1019.6387 2893.3848 9002806
412.89963 1016.2497 2883.7678 8871221
429.11633 1014.1917 2877.928 8871221
449.4057 1021.5487 2898.8044 9397565
464.98227 1018.0455 2888.8638 8608051
479.31271 1012.1597 2872.1619 9397566
496.43399 1012.3688 2872.7554 9199675
511.79111 1009.0858 2863.4392 9199674
528.75812 1009.0858 2863.4392 9134394
546.48419 1010.4894 2867.4219 9068348
571.4729 1024.8325 2908.1228 9068347
579.86914 1009.4513 2864.4763 8476210
601.32068 1017.0256 2885.9697 9858117
615.89795 1012.8759 2874.1943 9068342
634.07794 1014.7151 2879.4131 9265722
643.22272 1002.3777 2844.4038 11239263
664.17468 1008.6003 2862.0615 8805427
683.80426 1012.5551 2873.2837 8542256
697.81451 1008.1989 2860.9224 9002808
712.34515 1004.7833 2851.2302 9134139
725.84967 1000.1121 2837.9751 8870969
745.89032 1004.4545 2850.2969 9199678
757.47333 997.46722 2830.4695 9068348
775.11749 998.59119 2833.6589 9265728
795.15558 1002.6863 2845.2795 8739383
811.70715 1002.3062 2844.2009 8344624
832.83112 1007.4726 2858.8616 8344368
846.66907 1003.795 2848.4258 8476212
862.16266 1002.1857 2843.8591 8738871
887.42603 1011.7769 2871.0754 8936506
889.34686 994.89435 2823.1687 9199935
903.16638 991.70038 2814.1052 8804920
924.57062 996.79938 2828.5745 9331520
942.81964 998.37561 2833.0474 9002556
953.51239 992.03516 2815.0554 8805177
966.69147 988.4552 2804.8965 8673334
981.12732 986.25958 2798.666 9199678
996.58301 985.14484 2795.5029 8936763
1012.485 984.50067 2793.675 8870970
1019.6884 975.55505 2768.2905 9331521
1040.0984 979.32788 2778.9963 9726278
1058.1083 980.75824 2783.0552 9002556
1079.8687 985.56763 2796.7026 8805177
1089.3306 979.17694 2778.5681 9199678
1121.411 993.00507 2817.8076 8739384
1128.3754 984.51361 2793.7117 8804407
1150.1775 989.02655 2806.5178 8738870
1171.0966 992.66235 2816.835 9133885
1177.3386 983.93005 2792.0557 8673334
1198.2404 987.52142 2802.2468 8804920
1212.5264 985.63678 2796.8989 8410418
1227.299 984.19318 2792.8025 8213040
1231.5251 974.4433 2765.1355 8607798
1245.7305 972.74152 2760.3066 8673591
1254.8451 967.16046 2744.4692 8410162
1278.3235 972.65112 2760.05 8542004
1297.288 974.612 2765.6143 8542004
1324.3435 982.52667 2788.0735 8344625
1336.9252 979.6405 2779.8835 8344112
1361.2274 985.30835 2795.967 7817769
1390.3584 994.29321 2821.4629 8278320
1409.6924 996.1416 2826.7078 8213040
1407.123 982.65045 2788.4248 8410162
1415.4182 976.97162 2772.3101 8476212
1440.5217 982.89172 2789.1094 8476212
1465.0265 988.27368 2804.3813 8476212
1482.5502 988.87842 2806.0974 8673334
1490.5343 983.17719 2789.9194 8278832
1498.0984 977.32715 2773.3188 8673590
1522.6604 982.57275 2788.2043 8805177
1555.4336 992.94757 2817.6445 8936506
1562.323 986.75409 2800.0693 7949870
1578.9146 986.75409 2800.0693 9002556
1587.1281 981.57257 2785.366 8870970
1597.1157 977.58374 2774.0471 9331521
1618.3328 980.47943 2782.2642 8607798
1640.631 983.96533 2792.156 8542005
1641.7712 974.81885 2766.2012 8015661
1678.3113 986.66443 2799.8149 8673334
1686.4888 981.76709 2785.918 9068349
1718.6655 990.80029 2811.551 8607798
1730.6283 988.11859 2803.9414 8673334
1741.1761 984.68768 2794.2056 8739384
1739.1957 974.30316 2764.7378 8213039
1784.1628 990.16711 2809.7544 9068349
1785.4374 981.71356 2785.7661 8541748
1802.5842 982.06219 2786.7554 8541748
1819.8641 982.4765 2787.9309 8410162
1837.3317 982.98364 2789.3701 8673590
1857.9861 985.17151 2795.5786 8805176
1863.1775 979.19415 2778.6169 9002299
1903.2531 991.49432 2813.5205 9199934
1909.6144 986.17004 2798.4121 8936506
1938.8469 992.64697 2816.7915 8541749
1949.838 989.75378 2808.5815 8607799
1943.4402 978.15759 2775.6755 8410420
1955.124 975.78033 2768.9297 7884591
1985.9982 982.94067 2789.2483 9134401
1993.1003 978.31427 2776.1201 8871229
2008.5306 977.81799 2774.7119 8674107
2022.1678 976.46405 2770.8699 8739900
2032.1263 973.36969 2762.0891 9003072
2051.8005 974.94153 2766.5493 8147762
2080.6606 980.81848 2783.2261 8081970
2128.8818 995.65802 2825.3357 8476471
2137.6311 991.94946 2814.812 8345141
2133.5374 982.38464 2787.6704 9002300
2163.4758 988.5166 2805.0708 8146993
2189.9829 992.99915 2817.7908 8278835
2195.2136 987.8396 2803.1497 8607799
2219.5242 991.27887 2812.9092 8673592
2236.9963 991.6355 2813.9211 7884077
2243.5667 987.18994 2801.3062 8542264
2251.2107 983.27875 2790.2075 8739899
2274.793 986.33514 2798.8806 8148276
2270.3333 977.27649 2773.1753 8213812
2295.6135 981.05792 2783.9055 8345400
2313.6948 981.73071 2785.8147 8148275
2322.0686 978.30408 2776.0911 8411449
2340.8269 979.27002 2778.832 7029027
2358.7031 979.85596 2780.4949 8081970
2353.2705 970.81787 2754.8479 7489576
2356.1506 965.31012 2739.2188 7357989
2316.136 942.42413 2674.2761 7357992
2392.1936 966.75732 2743.3254 8082487
2350.4307 943.46875 2677.2405 7951160
2368.854 944.48932 2680.1365 7819574
2577.1335 1020.6899 2896.3677 5911836
2557.3296 1006.1462 2855.0974 4530966
2569.7917 1004.4047 2850.1558 2627086
2560.4207 994.20825 2821.2217 1245184
2549.509 983.54974 2790.9766 1310720
2549.5618 977.2312 2773.0466 1507328
2536.1382 965.86121 2740.7825 1376256
2443.6121 924.70227 2623.9875 6044953
2505.3459 942.06915 2673.2688 10188621
2518.9612 941.23773 2670.9097 9003578
2547.2683 945.87225 2684.0608 7029017
2537.8032 936.51044 2657.4951 8475954
0 0 0 0
0 0 0 0
0 0 0 0
0 0 0 0
0 0 0 0
0 0 0 0
0 0 0 0
-2524.8882 1012.2802 2825.0034 1536
-2580.5107 1041.4851 2906.5066 1536
-2563.6799 1041.6442 2906.9504 1536
-2547.4771 1042.0623 2908.1172 1280
-2450.7722 1009.3319 2816.7754 1280
-2438.4092 1011.1263 2821.7832 1280
-2429.1953 1014.2604 2830.5298 1280
-2311.95 972.01825 2712.6431 1280
-2280.2441 965.39984 2694.1729 1280
-2272.645 968.96631 2704.126 1280
-2268.0898 973.8905 2717.8679 1024
-2266.854 980.32056 2735.8127 768
-2338.4426 1018.5637 2842.5388 768
-2363.0342 1036.7426 2893.2712 512
-2371.7266 1048.1605 2925.1357 768
-2398.114 1067.6243 2979.4541 396032
-2389.3574 1071.615 2990.5911 66304
-2377.8032 1074.4012 2998.3667 512
-2373.085 1080.3414 3014.9441 256
-2363.9058 1084.3256 3026.0627 65536
-2357.4407 1089.6249 3040.8518 920581
-2337.5398 1088.748 3038.4048 1248776
-2331.2537 1094.2482 3053.7542 1445641
-2295.7112 1085.9945 3030.7202 1643018
-2273.1113 1083.7814 3024.5439 1708811
-2262.6846 1087.3832 3034.5957 1774091
-2241.8201 1085.9865 3030.698 1839884
-2218.7134 1083.4722 3023.6812 1774091
-2208.8792 1087.4513 3034.7856 1576712
-2184.5464 1084.2992 3025.989 1445126
-2162.9019 1082.4404 3020.8018 1379333
-2145.855 1082.8706 3022.0022 1576712
-2096.7847 1067.012 2977.7451 1642249
-2087.9783 1071.5477 2990.4031 1510662
-2072.8315 1072.8792 2994.1189 1510663
-2048.2344 1069.3 2984.1306 1773578
-2013.4836 1060.3115 2959.0461 2826266
-2010.6293 1068.1096 2980.8083 1904907
-1987.8473 1065.366 2973.1514 1904650
-1974.2544 1067.5419 2979.2241 2102029
-1947.0267 1062.318 2964.6455 2036236
-1933.4854 1064.5342 2970.8303 1904650
-1915.9958 1064.5974 2971.0068 1838601
-1896.8372 1063.7258 2968.5745 1903880
-1878.9995 1063.5856 2968.1831 1772295
-1859.1927 1062.3176 2964.6445 1772808
-1847.2634 1065.5695 2973.7197 1773064
-1821.1727 1060.6366 2959.9531 1904650
-1804.853 1061.3536 2961.9541 1773064
-1790.2227 1063.0878 2966.7937 1904137
-1770.1604 1061.5989 2962.6384 2035723
-1754.9426 1063.0144 2966.5891 2298895
-1731.4417 1059.3905 2956.4756 2101516
-1711.6711 1057.9983 2952.5906 1969930
-1700.4553 1061.9198 2963.5344 1838087
-1666.2181 1051.3965 2934.1665 1838342
-1658.6375 1057.649 2951.616 2167307
-1638.0698 1055.6654 2946.0798 2166793
-1624.4934 1058.193 2953.1338 2101000
-1614.8685 1063.3778 2967.603 2166536
-1591.4131 1059.4689 2956.6946 2298379
-1571.5017 1057.8589 2952.2014 2364172
-1558.219 1060.725 2960.2 2364172
-1535.2657 1056.9983 2949.7998 2364172
-1518.0785 1057.2013 2950.3665 2364172
-1500.2524 1056.9591 2949.6902 2035207
-1480.5676 1055.3861 2945.3003 2166536
-1466.4069 1057.7601 2951.9258 2364172
-1448.3145 1057.3213 2950.7012 2364173
-1437.7416 1062.4285 2964.9539 2429966
-1420.173 1062.4285 2964.9539 2429966
-1393.8916 1055.8287 2946.5356 2298123
-1373.0219 1053.2128 2939.2351 2166536
-1359.9578 1056.5939 2948.6711 2166792
-1337.3973 1052.5892 2937.4951 1903107
-1319.3458 1052.0743 2936.0583 2100486
-1286.8684 1039.8885 2902.0508 2232072
-1287.0358 1054.1093 2941.7371 2100486
-1269.3658 1053.9108 2941.1833 2166279
-1251.3611 1053.4252 2939.8279 1837314
-1228.9275 1049.1447 2927.8823 2232072
-1216.2579 1053.1967 2939.1902 2428937
-1191.9688 1047.1583 2922.3391 2166022
-1167.9464 1041.1801 2905.655 2297608
-1150.3846 1040.8682 2904.7847 2429194
-1135.1661 1042.6992 2909.8948 2034437
-1102.8295 1028.6206 2870.605 1771522
-1083.2112 1026.1493 2863.7083 2429192
-1068.028 1027.8674 2868.5032 2823950
-1059.8527 1036.4948 2892.5798 2363399
-1042.6157 1036.3981 2892.3101 2626571
-1024.2882 1035.196 2888.9556 2692364
-1005.6094 1033.5922 2884.4792 2560778
-993.87207 1039.1906 2900.103 2626058
-974.43793 1036.7966 2893.4224 2428165
-954.23767 1033.4874 2884.187 2823180
-939.5802 1036.1699 2891.6733 2954766
-920.50439 1033.9891 2885.5872 2954766
-906.92853 1038.0206 2896.8381 3020302
-889.48389 1037.6943 2895.9275 2691594
-871.93164 1037.2272 2894.6238 2691334
-855.83582 1038.5085 2898.1997 2559236
-842.03381 1042.6829 2909.8491 3216649
-820.9494 1037.8254 2896.2932 3807500
-800.15393 1033.1335 2883.1995 4135944
-782.68109 1032.6206 2881.7683 6240800
-761.06689 1026.4991 2864.6848 7621934
-740.06305 1020.9405 2849.1719 8016687
-726.37585 1025.4514 2861.7607 8082737
-714.68341 1033.0614 2882.998 8740409
-689.79675 1021.505 2850.7473 8937275
-676.40552 1026.8191 2865.5774 8937531
-659.32086 1026.6556 2865.1213 9200704
-636.49866 1017.3132 2839.0493 8805946
-628.45776 1031.7299 2879.2822 8937275
-609.45905 1028.4597 2870.1562 8410931
-592.45221 1028.4597 2870.1562 8740153
-575.12946 1027.8951 2868.5806 9003325
-558.81909 1029.1606 2872.1123 8871482
-539.04932 1023.9345 2857.5273 8608567
-521.55743 1022.8364 2854.4631 8542774
-505.97217 1025.5292 2861.9778 8871482
-487.83145 1023.0497 2855.0581 8936762
-470.22205 1021.5462 2850.8623 8344368
-453.04788 1020.9115 2849.0911 8475952
-436.96799 1022.7889 2854.3306 8673588
-420.13953 1022.9951 2854.9055 8608051
-401.98465 1019.8531 2846.1372 8608308
-387.26016 1025.5201 2861.9526 9003066
-368.22397 1019.7653 2845.8923 8937785
-351.57678 1020.3918 2847.6409 9529152
-335.86676 1023.9387 2857.5391 9529152
-316.27036 1015.3848 2833.6675 8739382
-301.83624 1023.3745 2855.9646 9199933
-283.4975 1018.2884 2841.7708 9134141
-267.23331 1020.482 2847.8926 9199934
-249.51801 1017.0565 2838.3328 9726277
-230.80698 1008.7838 2815.2458 9660228
-216.28362 1018.951 2843.6199 9265727
-198.67332 1015.0643 2832.7732 9068348
-182.21838 1016.9081 2837.9187 8936761
-164.68039 1012.4681 2825.5278 9331263
-148.35063 1015.2921 2833.4087 9857864
-132.76163 1024.5533 2859.2544 9331776
-115.35332 1020.4304 2847.7485 9266497
-98.632698 1022.0202 2852.1851 9069119
-81.029922 1013.2368 2827.6729 9069118
-64.269279 1013.1492 2827.4287 9266498
-47.689308 1016.8525 2837.7634 9003326
-30.726068 1011.9666 2824.1282 9332546
-13.940281 1008.2277 2813.6941 9200960
2.7319648 1008.2197 2813.6716 8871738
19.54748 1015.6697 2834.4624 8608567
35.952431 1004.7599 2804.0161 8937533
53.044884 1013.8871 2829.488 8805947
69.62133 1011.1365 2821.8115 8543032
85.913605 1006.1231 2807.8206 7885101
103.60394 1016.4528 2836.6479 8805946
120.21963 1014.827 2832.1108 8542775
134.93289 999.50751 2789.3582 9069118
154.10507 1016.9563 2838.0532 9134397
171.04597 1017.6958 2840.1169 8805946
187.72098 1016.8625 2837.7915 9924170
207.11517 1029.6849 2873.5752 9200704
221.15724 1015.9719 2835.3062 9398082
238.8073 1019.6 2845.4309 9726791
254.25111 1013.9509 2829.666 8674358
277.3382 1037.5964 2895.6543 8740151
289.30392 1019.3029 2844.6018 8740408
306.53784 1020.563 2848.1187 9595459
317.99875 1003.4744 2800.429 9265981
336.49866 1009.1913 2816.3833 8344879
347.9841 994.32513 2774.8958 9265981
372.14969 1015.3976 2833.7034 9463360
389.87204 1017.8295 2840.49 8870966
403.77704 1010.5068 2820.0542 9002808
420.07867 1009.5255 2817.3157 8937015
444.35129 1027.0427 2866.2017 8936758
457.82059 1019.2196 2844.3694 9134395
477.97849 1026.3136 2864.167 9133882
488.61517 1013.1783 2827.5098 9265724
506.1058 1014.6548 2831.6304 8870710
520.31525 1009.6694 2817.7175 9528899
542.4505 1019.8959 2846.2568 8936761
559.70691 1020.6092 2848.2476 9002298
570.0545 1009.0515 2815.9932 9068091
590.57147 1015.64 2834.3799 9463360
608.33783 1017.2647 2838.9138 8410415
620.77917 1010.137 2819.0222 9068344
635.40997 1006.8521 2809.855 9068342
655.42603 1012.0504 2824.3621 9068599
676.54315 1018.6476 2842.7732 9200188
687.89374 1010.5765 2820.2488 9002808
700.57629 1004.7986 2804.1243 9331520
716.09906 1003.2676 2799.8516 9528899
735.90802 1007.6749 2812.1514 9134141
749.8692 1004.0571 2802.0549 9068092
767.617 1005.5564 2806.239 9265728
780.94922 1001.3304 2794.4456 9265727
795.26221 998.51129 2786.5781 8805177
821.3858 1010.3345 2819.5735 8542004
835.26941 1006.9306 2810.0742 8739127
848.80865 1003.253 2799.8108 8739127
861.64771 998.90448 2787.6753 8476212
871.96985 991.85669 2768.0068 8673590
897.39154 1001.9276 2796.1118 8146989
908.50269 995.94537 2779.4172 8607797
918.98676 989.50104 2761.4329 8410418
936.10986 990.30554 2763.678 8344625
948.37494 986.03156 2751.7505 8607798
967.83142 989.25244 2760.7393 8804920
979.15808 984.19476 2746.6245 9134141
992.25922 981.05701 2737.8677 9134142
1001.8167 974.57263 2719.7717 8805177
1021.2762 977.77405 2728.7058 8870200
1039.943 980.12848 2735.2764 9396544
1068.5737 991.65741 2767.4507 9264958
1080.2211 987.31506 2755.3323 8804664
1099.9945 990.41864 2763.9937 8805176
1115.1663 989.34875 2761.0078 9002299
1136.4175 993.62531 2772.9426 8541748
1149.3718 990.62891 2764.5806 8936506
1160.9131 986.51605 2753.1025 9989451
1176.2222 985.67462 2750.7544 8542004
1195.2806 987.95514 2757.1187 8673590
1206.5956 983.86017 2745.6907 8278833
1223.4862 984.35992 2747.0854 8607797
1238.7548 983.55878 2744.8496 8476212
1243.9297 974.86798 2720.5959 8344626
1262.5267 976.78394 2725.9429 8410418
1278.7461 976.83521 2726.0859 8804920
1296.8684 978.32068 2730.2314 8805177
1315.1086 979.85736 2734.52 8936249
1340.8088 986.84729 2754.0271 8607285
1353.3353 984.08978 2746.3315 7949354
1375.1052 988.03931 2757.3535 8344112
1393.7729 989.69336 2761.9695 8146990
1404.934 986.04053 2751.7754 8409649
1413.3884 980.59357 2736.5745 8673078
1439.5502 987.41595 2755.614 8147247
1444.6012 979.76764 2734.2695 8344369
1454.6143 975.61682 2722.6858 8212783
1474.8481 978.33722 2730.2776 9068349
1484.943 974.3457 2719.1384 8673590
1495.9979 971.06317 2709.9775 8278833
1526.4464 980.30511 2735.7695 8081456
1543.6245 980.91998 2737.4854 7818282
1560.0289 981.03552 2737.8079 8278833
1568.6968 976.3335 2724.6858 8213040
1585.4425 976.70374 2725.719 8541748
1608.8904 981.15356 2738.1372 8805176
1635.3201 987.31488 2755.3318 9331264
1642.203 981.6698 2739.5779 8607798
1661.5913 983.53741 2744.79 8739127
1661.7161 974.07678 2718.3879 8739384
1699.4524 986.63361 2753.4307 9068349
1710.9297 983.85156 2745.6667 9068348
1734.1481 987.81 2756.7136 8278833
1745.8092 985.17273 2749.3538 8541748
1760.4861 984.27032 2746.8352 8936763
1764.1136 977.26343 2727.281 8804920
1795.5544 985.65155 2750.6899 8475955
1806.9246 982.97021 2743.207 8475955
1832.0382 987.74658 2756.5366 8936762
1829.5889 977.70923 2728.5251 8805177
1851.6504 980.83136 2737.238 8213042
1875.7253 984.95636 2748.7498 8673592
1885.7683 981.70551 2739.6777 8278834
1912.0293 986.8811 2754.1213 8278578
1931.0264 988.25153 2757.9458 8607543
1937.4193 983.20264 2743.8557 8345142
1951.2775 981.99469 2740.4846 8476471
1954.7952 975.64563 2722.7661 8410678
1976.5977 978.4519 2730.5977 8542521
1988.1812 976.19507 2724.2996 8410934
1981.1776 964.92194 2692.8391 9661001
2014.8865 973.49921 2716.7761 8608314
2045.3258 980.37335 2735.96 7950383
2046.4071 973.17804 2715.8796 9265987
2077.7659 980.38123 2735.9819 8213299
2118.9141 992.05621 2768.5637 8542007
2119.6538 984.77832 2748.2529 8542007
2142.9556 988.01367 2757.282 7950127
2155.1294 986.10822 2751.9644 8279091
2175.229 987.83081 2756.7717 8410421
2191.6565 987.8725 2756.8879 8410935
2204.0449 986.10651 2751.9597 8608313
2224.1667 987.80103 2756.6885 8608057
2236.4861 986.03082 2751.7483 8213813
2262.9082 990.45886 2764.1057 8279862
2254.8635 979.84589 2734.4878 8476986
2269.8455 979.31897 2733.0176 6635039
2288.8604 980.5274 2736.3899 7753520
2307.4968 981.5578 2739.2654 7490348
2296.043 969.86334 2706.6294 7819311
2299.481 964.57806 2691.8794 7490346
2288.624 953.41046 2660.7136 8608313
2312.167 956.62811 2669.6934 8016179
2324.0491 955.01038 2665.1787 7885106
2332.6863 952.09003 2657.0286 7621936
2356.7756 955.47333 2666.4707 8016436
2375.2407 956.54663 2669.4661 7293485
2389.3137 955.84875 2667.5183 7227949
2452.3457 974.61725 2719.8962 6570019
2505.9563 989.42108 2761.2097 7294001
2536.8171 995.10876 2777.0825 6834483
2557.9031 996.91351 2782.1191 5122842
2534.0264 981.28363 2738.5002 1902593
2549.967 981.17352 2738.1931 1442048
2542.2529 972.02063 2712.6497 5192223
2515.2527 955.65497 2666.9775 9794386
2524.3274 953.11456 2659.8879 8346423
2528.3774 948.7204 2647.625 7622186
0 0 0 0
0 0 0 0
0 0 0 0
0 0 0 0
0 0 0 0
0 0 0 0
0 0 0 0
-2375.8826 968.29211 2658.2864 1280
-2465.3257 1011.4503 2776.7703 1280
-2454.3755 1013.7233 2783.0105 1024
-2357.4326 980.26965 2691.1687 1280
-2351.7886 984.58258 2703.0093 1280
-2333.2126 983.50372 2700.0474 1024
-2305.4995 978.53174 2686.3977 1024
-2246.1042 959.95026 2635.3853 1024
-2238.6997 963.48407 2645.0869 768
-2249.7297 975.05762 2676.8599 768
-2243.9922 979.47668 2688.9917 768
-2304.7976 1013.2117 2781.6057 768
-2353.7437 1042.1819 2861.1384 768
-2343.3518 1045.108 2869.1721 768
-2350.9194 1056.1455 2899.4734 256
-2364.3257 1069.9877 2937.4751 256
-2365.9883 1078.6812 2961.3416 256
-2355.1348 1081.7556 2969.782 197376
-2329.6116 1078.0879 2959.7124 986118
-2314.8879 1079.3998 2963.3142 1051397
-2297.3247 1079.3977 2963.3086 1445898
-2271.7925 1075.6226 2952.9446 1511431
-2263.9446 1080.2268 2965.5847 1576968
-2234.6472 1074.5884 2950.1055 1642505
-2226.927 1079.319 2963.0923 1708298
-2212.0437 1080.6254 2966.679 1576456
-2183.9788 1075.4615 2952.5027 1773578
-2167.3115 1075.8724 2953.6306 1576199
-2149.0535 1075.4938 2952.5911 1510150
-2137.9429 1078.7152 2961.4348 1575942
-2114.0293 1075.4767 2952.5439 1641992
-2093.9143 1074.1327 2948.8545 1510406
-2068.6001 1070.0765 2937.7188 1773063
-2051.1272 1070.0422 2937.6248 1904650
-2028.3894 1067.2373 2929.9241 1904907
-2014.1251 1068.8807 2934.4358 1970443
-1977.6459 1058.6606 2906.3784 1772807
-1966.8779 1062.1458 2915.946 1904650
-1950.4534 1062.6107 2917.2227 1904650
-1933.8843 1063.0046 2918.304 1838857
-1912.2665 1060.6056 2911.7178 1838857
-1898.0563 1062.3086 2916.3931 1904650
-1880.7754 1062.3086 2916.3931 1838857
-1869.207 1065.5648 2925.3328 1904393
-1851.6923 1065.4607 2925.0469 1838857
-1844.0552 1071.0919 2940.5066 1773064
-1814.6738 1064.0803 2921.2571 1707271
-1792.1598 1060.9991 2912.7983 2036492
-1786.5887 1067.9863 2931.9805 2036236
-1750.0009 1056.3873 2900.1375 1706758
-1733.5828 1056.8545 2901.4199 2035466
-1726.2617 1062.9325 2918.106 2035466
-1699.0083 1056.7362 2901.0952 1969930
-1679.4729 1055.2626 2897.0493 2167309
-1663.0812 1055.7542 2898.3992 1969929
-1644.6521 1054.9493 2896.1895 1969928
-1626.0726 1054.0299 2893.6653 1904135
-1613.6276 1057.1097 2902.1204 2101514
-1589.2207 1052.3348 2889.012 2167050
-1575.0687 1054.3208 2894.4639 2232586
-1556.76 1053.5371 2892.3125 2364172
-1539.4824 1053.4417 2892.0505 2429965
-1526.8037 1056.5264 2900.5193 2166792
-1510.5931 1057.2097 2902.395 2298122
-1498.6129 1060.9033 2912.5354 2100999
-1474.5365 1056.0201 2899.1294 2166793
-1457.0824 1055.8204 2898.5811 1903621
-1434.6921 1051.9965 2888.083 2364173
-1416.2419 1051.0043 2885.3589 2298378
-1401.9331 1053.0985 2891.1086 2429965
-1386.8156 1054.6298 2895.312 2429965
-1362.448 1049.0767 2880.0671 2298379
-1344.7485 1048.5825 2878.7104 2100999
-1333.9561 1053.5305 2892.2942 2034950
-1311.2927 1049.1099 2880.1582 1969414
-1296.9409 1051.3101 2886.1985 2035206
-1285.6466 1056.0806 2899.2954 1969157
-1258.6252 1047.8867 2876.8003 2166022
-1243.8126 1049.7717 2881.9753 2100229
-1226.6757 1049.7203 2881.8342 2166279
-1199.4889 1040.9459 2857.7456 2297608
-1183.5903 1041.8569 2860.2463 2428937
-1165.1843 1040.5548 2856.6719 2626573
-1151.6549 1043.6337 2865.1243 2494987
-1129.3546 1038.7375 2851.6826 2494730
-1112.1879 1038.486 2850.9922 2560779
-1094.5363 1037.767 2849.0183 2297606
-1080.8591 1040.8528 2857.4897 2231813
-1058.2192 1035.2686 2842.1592 2757900
-1039.6147 1033.5153 2837.3459 2626571
-1023.3483 1034.067 2838.8606 2692364
-1006.2066 1033.7379 2837.9573 2494986
-995.34351 1039.9576 2855.0325 2626572
-970.31256 1031.3336 2831.3567 2757644
