# .PCD v0.7 - Point Cloud Data file format
VERSION 0.7
FIELDS x y z rgb
SIZE 4 4 4 4
TYPE F F F U
COUNT 1 1 1 1
WIDTH 1313
HEIGHT 1
VIEWPOINT 0 0 0 1 0 0 0
POINTS 1313
DATA ascii
490.74329 1032.6633 2745.678 851968
507.28033 1033.2087 2747.1282 1048576
522.93805 1031.9851 2743.8745 1179904
538.45752 1030.5704 2740.1133 1179904
554.05933 1029.3917 2736.9792 1114112
569.8363 1028.5962 2734.864 917504
585.01019 1026.7861 2730.0515 983040
600.90509 1026.3049 2728.772 917504
616.54773 1025.4293 2726.4441 983040
633.11615 1026.0989 2728.2244 983040
650.14423 1027.4615 2731.8474 1048576
666.20642 1027.2687 2731.3345 917504
681.5813 1026.0503 2728.095 1114112
695.39441 1022.5917 2718.8992 1114112
712.13867 1023.5025 2721.3208 1310976
727.37616 1022.2553 2718.0046 1179648
744.6864 1023.912 2722.4097 1048576
759.99274 1022.8017 2719.4575 1310976
774.55664 1020.759 2714.0264 1245184
791.19452 1021.4772 2715.9358 1245184
804.24365 1017.6256 2705.6951 1179648
817.91162 1014.6924 2697.8962 1376512
835.00055 1016.0342 2701.4641 1310976
851.91998 1017.1234 2704.3599 1376256
865.62885 1014.4099 2697.145 1179648
882.17047 1015.0541 2698.8579 1114112
897.22864 1013.9991 2696.0527 1179648
912.02826 1012.6937 2692.582 1114112
924.08594 1008.4409 2681.2747 1114112
939.31104 1007.7303 2679.385 1704704
955.54315 1008.1054 2680.3826 1704448
971.2995 1007.9747 2680.0349 1638656
985.35059 1006.107 2675.0691 1573120
1000.7719 1005.6754 2673.9214 1573120
1014.3588 1003.4425 2667.9846 1770496
1029.5094 1002.8011 2666.2795 1770496
1040.1327 997.83612 2653.0784 2033664
1055.7164 997.70691 2652.7346 1901824
1079.1562 1004.8968 2671.8516 2032640
1092.2778 1002.4096 2665.2385 2164224
1108.2693 1002.5895 2665.7168 1901056
1116.4971 995.83972 2647.7703 1966336
1125.2754 989.76111 2631.6082 2689024
1141.6738 990.45959 2633.4653 2425344
1154.1564 987.78784 2626.3616 4068611
1156.3502 976.4986 2596.3455 5580046
1188.1267 990.15948 2632.6675 6434321
1215.7778 1000.0728 2659.0251 8144420
1235.2684 1003.1057 2667.0891 8144417
1249.1157 1001.5371 2662.9185 8078622
1254.2133 993.07971 2640.4319 7486485
1277.9137 999.37891 2657.1802 8078366
1300.0498 1004.3162 2670.3079 8144415
1294.8357 988.26031 2627.6179 7289107
1302.672 982.42804 2612.1108 7815452
1329.5115 990.896 2634.6257 8078623
1348.1619 993.13489 2640.5784 7947036
1360.5377 990.75323 2634.2461 8868394
1377.0289 991.38837 2635.9348 8802858
1389.1302 988.88416 2629.2766 8999723
1416.7275 997.34442 2651.771 8736808
1426.9965 993.55414 2641.6931 8671015
1436.3943 989.24615 2630.239 8276001
1453.7069 990.4231 2633.3682 8473381
1462.2561 985.66779 2620.7246 8144416
1497.8234 999.03314 2656.261 6960144
1509.5938 996.41339 2649.2954 7223315
1523.3044 995.11511 2645.8435 8933933
1542.7086 997.52472 2652.2502 8341795
1563.3269 1000.6627 2660.5938 8209952
1573.3573 997.02869 2650.9314 8407587
1583.0331 993.24408 2640.8687 8999468
1602.3647 995.53247 2646.9531 7552279
1623.79 999.06476 2656.345 7947550
1625.8804 990.74725 2634.2302 7881758
1644.5876 992.61737 2639.2024 8407844
1661.2969 993.25769 2640.9048 8276002
1669.3569 988.76294 2628.9543 7683608
1679.0048 985.28326 2619.7024 7815194
1708.9884 993.69159 2642.0586 7880987
1724.9009 993.83972 2642.4526 7947036
1729.8422 987.72083 2626.1833 7684121
1759.1692 995.51086 2646.8958 8210208
1771.301 993.51855 2641.5986 7683865
1788.2816 994.2569 2643.5618 7749916
1807.1951 996.04779 2648.3235 7618073
1815.2461 991.87244 2637.2217 8210467
1807.4214 979.16772 2603.4421 8210208
1847.3044 992.30499 2638.3718 7880987
1846.7467 983.68073 2615.4414 7815453
1864.2389 984.73425 2618.2427 7552281
1873.0978 981.2478 2608.9727 7552280
1897.3685 985.82617 2621.1458 7684123
1911.2208 984.96082 2618.845 8407846
1932.061 987.6817 2626.0793 7881503
1951.1866 989.48956 2630.8862 7749919
1968.3813 990.29736 2633.0339 7683869
2000.2683 998.42609 2654.647 7420439
1987.9363 984.52844 2617.6953 6630926
2013.9884 989.70862 2631.4685 7223064
2025.7561 987.84344 2626.5093 7223576
2035.9155 985.22845 2619.5566 7618078
2029.866 974.86847 2592.011 8144419
2046.3778 975.41803 2593.4724 7947297
2078.8467 983.50891 2614.9846 8013090
2100.2688 986.29236 2622.3853 8013091
2089.6726 974.10956 2589.9932 7749662
2117.1472 979.72162 2604.9148 7420954
2133.0339 979.92914 2605.4666 7881248
2154.2256 982.55322 2612.4436 7025940
2175.5234 985.18793 2619.4487 7749663
2173.0105 977.07892 2597.8884 7815711
2178.8799 972.8266 2586.582 8078883
2213.8196 981.52222 2609.7024 8276006
2215.0459 975.25391 2593.0359 8670764
2222.0105 971.58081 2583.2698 7947041
2247.4697 975.98956 2594.9919 7420953
2251.4299 971.06561 2581.9001 7947556
2262.9548 969.44891 2577.6016 7421726
2273.8044 967.56653 2572.5964 7882276
2279.9651 963.72723 2562.3884 6960918
2245.304 942.79779 2506.7405 7816227
2270.699 947.19507 2518.4321 7684641
2310.8289 957.64117 2546.2068 7882020
2318.0698 954.41071 2537.6174 7619104
2340.6147 957.48224 2545.7839 7487262
2362.7625 960.35291 2553.4167 7553311
2374.249 958.88147 2549.5044 8013351
2376.0967 953.56042 2535.3567 7026969
2403.5732 958.52673 2548.5613 6369295
2435.311 965.11987 2566.0913 5447942
2391.1565 941.74146 2503.9321 7158813
0 0 0 0
0 0 0 0
0 0 0 0
0 0 0 0
0 0 0 0
0 0 0 0
0 0 0 0
0 0 0 0
-2432.29 1046.5958 2739.5613 1024
-2416.0571 1046.5958 2739.5613 1024
-2400.1018 1046.7169 2739.8782 1280
-2383.9404 1046.7493 2739.9629 768
-2368.7122 1047.1946 2741.1284 1024
-2356.2515 1048.8778 2745.5347 1024
-2335.179 1046.7244 2739.8977 1280
-2319.4319 1046.9447 2740.4744 1024
-2301.3457 1046.1047 2738.2759 1280
-2273.655 1040.856 2724.5366 1280
-2252.0171 1038.323 2717.9065 1280
-2241.071 1040.7185 2724.1768 1280
-2243.554 1049.4303 2746.9807 1024
-2228.6951 1050.0985 2748.7297 1024
-2203.5259 1045.8829 2737.6951 1024
-2184.7512 1044.6622 2734.4998 1024
-2165.7407 1043.3098 2730.9597 1024
-2145.9185 1041.5428 2726.3347 1024
-2137.1821 1045.1708 2735.8311 1024
-2119.5566 1044.4738 2734.0066 1280
-2076.6963 1031.2349 2699.3525 1024
-2064.9192 1033.3455 2704.8772 1280
-2037.1111 1027.4039 2689.325 1280
-2032.0723 1032.9429 2703.8235 1280
-2006.0519 1027.8198 2690.4133 1280
-1994.5248 1030.0999 2696.3816 1280
-1947.4503 1013.9094 2654.0017 1280
-1961.1505 1029.3546 2694.4307 1280
-1946.85 1030.2356 2696.7368 1280
-1931.2545 1030.4404 2697.2729 1280
-1912.9449 1029.1884 2693.9956 1280
-1906.8409 1034.5372 2707.9968 1280
-1882.0864 1029.7723 2695.5244 1024
-1875.6537 1035.0364 2709.3035 1024
-1863.7917 1037.3696 2715.4106 1024
-1847.9907 1037.5317 2715.8352 1280
-1832.9526 1038.1289 2717.3982 1280
-1816.4366 1037.8922 2716.7788 1280
-1795.7379 1035.2399 2709.8359 1280
-1783.9224 1037.7069 2716.2939 1024
-1766.5707 1036.9695 2714.3633 1280
-1750.0933 1036.7362 2713.7529 1024
-1733.3257 1036.3252 2712.677 1024
-1719.3816 1037.6104 2716.0408 1024
-1706.0323 1039.2822 2720.4172 1024
-1680.7346 1033.6377 2705.6421 1024
-1665.5404 1034.158 2707.0039 1024
-1655.0754 1037.6532 2716.1531 1024
-1633.5232 1034.1978 2707.1082 1024
-1618.2488 1034.6877 2708.3906 1024
-1601.5211 1034.2489 2707.2422 1024
-1591.191 1037.9746 2716.9946 1024
-1568.1686 1033.4125 2705.0525 1024
-1557.0907 1036.7085 2713.6802 1280
-1540.6533 1036.4678 2713.0503 1280
-1524.4866 1036.406 2712.8887 1280
-1508.6221 1036.5507 2713.2671 1280
-1493.0299 1036.8875 2714.1489 1280
-1479.951 1038.9961 2719.6685 1280
-1465.7112 1040.3271 2723.1523 1280
-1450.1993 1040.775 2724.3247 1280
-1434.8181 1041.3275 2725.7712 1280
-1419.2463 1041.7531 2726.8848 1024
-1406.1678 1044.0393 2732.8694 1024
-1390.6875 1044.5748 2734.2712 1024
-1377.2228 1046.6549 2739.7158 1024
-1365.139 1049.8466 2748.0703 1024
-1346.8704 1048.3013 2744.0256 1024
-1329.6309 1047.5293 2742.0046 1024
-1315.5044 1049.2209 2746.4329 1024
-1300.9777 1050.6317 2750.1257 1024
-1287.5187 1052.9515 2756.198 1024
-1270.1638 1052.1039 2753.9792 1280
-1257.0516 1054.7943 2761.0217 1280
-1241.2059 1055.2317 2762.1665 1280
-1226.1942 1056.3994 2765.2229 1024
-1214.4298 1060.434 2775.7839 1024
-1198.9268 1061.2701 2777.9727 768
-1182.9843 1061.7352 2779.1899 768
-1168.0507 1063.1315 2782.845 512
-1153.6266 1065.0385 2787.8364 65792
-1144.964 1072.3969 2807.0979 460032
-1128.8606 1072.9004 2808.4158 525312
-1111.9 1072.5922 2807.6089 656128
-1098.5775 1075.8372 2816.1033 524544
-1084.0084 1077.9429 2821.615 393216
-1068.5997 1079.2664 2825.0793 458752
-1053.3204 1080.765 2829.0022 524288
-1042.4758 1086.9357 2845.1545 524288
-1024.5192 1085.7721 2842.1086 458752
-1007.9394 1086.0531 2842.8445 524288
-992.24329 1087.3121 2846.1399 524288
-976.92273 1089.0332 2850.645 589824
-961.32178 1090.4968 2854.4763 458752
-942.02509 1087.7455 2847.2744 524288
-923.84558 1086.2073 2843.248 655360
-907.44385 1086.7411 2844.645 852480
-892.12866 1088.6208 2849.5654 918016
-875.16266 1088.5199 2849.3013 851968
-861.00751 1091.9797 2858.3579 852224
-842.84839 1090.3986 2854.219 786432
-825.34625 1089.6201 2852.1812 851968
-807.26654 1088.0305 2848.0203 720896
-788.86603 1085.9314 2842.5259 655360
-770.26453 1083.458 2836.0515 589824
-753.69257 1083.7928 2836.9277 720896
-737.20825 1084.2717 2838.1814 786432
-719.41583 1082.8041 2834.3398 917760
-701.81281 1081.5582 2831.0786 917760
-683.73511 1079.5018 2825.696 851968
-666.90253 1079.3575 2825.3181 786432
-650.53186 1079.9727 2826.9282 720896
-632.05829 1077.0369 2819.2434 720896
-613.29816 1073.4401 2809.8284 917504
-595.74573 1071.8152 2805.5754 655360
-578.46948 1070.6085 2802.4167 655360
-560.65668 1068.3079 2796.3945 786432
-545.43823 1070.9612 2803.3398 655360
-528.01886 1069.3239 2799.0542 589824
-509.44839 1065.1737 2788.1907 589824
-491.83237 1062.8079 2781.9976 655360
-475.12384 1062.3068 2780.686 917504
-457.82504 1060.4026 2775.7019 851968
-441.6965 1061.1681 2777.7056 917504
-424.53592 1059.4172 2773.1226 917504
-408.31055 1059.9534 2774.5259 851968
-392.07294 1060.5013 2775.9602 720896
-375.28458 1059.5422 2773.4497 983040
-358.22958 1057.7081 2768.6489 851968
-342.15753 1058.7395 2771.3486 851968
-325.99191 1059.5707 2773.5242 851968
-309.15167 1058.181 2769.8867 655360
-292.52826 1057.4193 2767.8928 851968
-275.91364 1056.6007 2765.7502 983040
-260.09473 1058.9185 2771.8171 917504
-243.80869 1059.5186 2773.3877 720896
-226.81085 1056.8885 2766.5037 983040
-210.24248 1056.0059 2764.1931 1114624
-193.48735 1053.9568 2758.8293 851968
-176.78957 1051.8707 2753.3689 786432
-161.27135 1057.0922 2767.0366 720896
-144.56381 1054.8176 2761.0828 720896
-127.94093 1052.6591 2755.4324 655360
-110.99841 1046.8544 2740.238 720896
-94.738594 1046.6024 2739.5786 655360
-77.987206 1039.6929 2721.4919 655360
-61.865822 1039.7693 2721.6921 720896
-45.905872 1043.5695 2731.6396 720896
-29.742432 1044.3639 2733.719 720896
-13.506604 1041.4766 2726.1611 720896
2.6467409 1041.3763 2725.8989 720896
18.751354 1038.7488 2719.021 917504
34.842716 1038.155 2717.4666 917504
50.997391 1039.2268 2720.2722 983296
67.030319 1037.8986 2716.7954 851968
82.891731 1034.9434 2709.0601 917504
98.862709 1034.0931 2706.8342 1048832
115.00457 1035.0182 2709.2556 1179904
131.47073 1038.2777 2717.7876 1179904
147.02409 1034.4037 2707.6472 1377280
163.34665 1036.1713 2712.2742 1377280
179.65231 1037.5248 2715.8169 1048576
195.55688 1036.5297 2713.2122 1114112
211.89845 1037.8262 2716.6057 1114112
227.86337 1037.225 2715.0322 1245440
243.31699 1034.5291 2707.9756 1179904
259.39148 1034.6434 2708.2749 1179904
275.51566 1034.9309 2709.0273 1114112
292.09219 1036.7927 2713.9006 851968
308.52274 1037.9688 2716.9792 1311232
324.39157 1037.2322 2715.051 1179904
339.72476 1034.9335 2709.0339 1311488
356.93198 1038.2936 2717.8293 1245696
373.37973 1039.2498 2720.3323 1245952
389.70694 1039.8052 2721.7859 1179904
405.23553 1038.2701 2717.7681 1179904
420.4201 1036.0048 2711.8384 1114112
436.91269 1037.0109 2714.4717 1311488
453.07138 1037.181 2714.9172 917504
468.68069 1036.1251 2712.1533 851968
484.90689 1036.4578 2713.0239 1048576
500.05829 1034.5454 2708.0181 851968
516.09973 1034.536 2707.9937 983040
532.20013 1034.6417 2708.2705 1114112
547.0791 1032.4364 2702.4978 1048576
562.64764 1031.6208 2700.3628 1179904
578.21173 1030.8424 2698.3252 1179904
593.41644 1029.4824 2694.7654 983040
609.64166 1029.9176 2695.9045 1048576
624.53632 1028.1403 2691.252 1179648
641.19299 1029.2798 2694.2351 1114112
655.84088 1027.2177 2688.8374 1114112
672.1347 1027.7704 2690.2839 1048576
688.17468 1027.9182 2690.6709 1179648
704.20032 1028.0385 2690.9856 1114112
718.33026 1025.4471 2684.2026 1179648
733.04529 1023.7852 2679.8523 1310720
749.68262 1024.8215 2682.5652 983040
764.40497 1023.2515 2678.4553 1114112
779.88831 1022.7432 2677.1248 1179648
794.49451 1021.1279 2672.8965 1048576
810.76514 1021.6729 2674.3232 1245184
825.45587 1020.2446 2670.5845 1508096
841.82715 1020.908 2672.321 1442304
857.45081 1020.6568 2671.6636 1376512
870.85254 1017.818 2664.2327 1179648
884.552 1015.422 2657.9609 1376768
898.21191 1013.0652 2651.792 1507584
914.8056 1014.0416 2654.3477 1507584
927.93555 1011.2103 2646.9363 1376512
941.82556 1009.2877 2641.9036 1573888
953.2674 1004.8472 2630.2803 1573888
967.85474 1003.8119 2627.5706 1639680
987.52509 1007.9979 2638.5278 1442304
999.58868 1004.4099 2629.1357 1836800
1012.701 1001.9698 2622.7485 1770240
1023.1606 997.01843 2609.7878 1967872
1045.4867 1003.6055 2627.0303 1704704
1060.6211 1003.1971 2625.9612 1967360
1075.406 1002.4746 2624.0701 1704192
1088.9087 1000.5945 2619.1487 2164481
1099.5936 996.21454 2607.6836 2230016
1122.8295 1003.1693 2625.8882 2295808
1123.951 990.44635 2592.5847 2163456
1140.6456 991.60468 2595.6169 2557696
1158.6371 993.84467 2601.4802 2885632
1174.4609 994.19092 2602.3865 3870721
1202.8704 1005.0438 2630.7952 4987912
1219.9067 1006.2382 2633.9214 5907207
1214.4579 989.08972 2589.0337 7815194
1230.6295 989.75769 2590.7822 8078365
1260.801 1001.5302 2621.5977 8078108
1260.7299 989.28485 2589.5444 7880987
1276.5276 989.63647 2590.4651 7946780
1294.0732 991.31897 2594.8689 8407588
1313.2025 994.16052 2602.3071 7880987
1338.3251 1001.4209 2621.3118 7815450
1347.3408 996.60071 2608.6943 8078366
1365.6509 998.68665 2614.1545 8210207
1373.0342 992.82495 2598.811 8539173
1392.767 995.92383 2606.9226 8473635
1409.793 997.04059 2609.8457 8539428
1412.4131 988.05524 2586.3259 7947036
1435.9523 993.73987 2601.2058 7683865
1460.1278 999.73938 2616.9102 8144160
1467.1108 993.9649 2601.7949 7552279
1476.7068 990.06232 2591.5796 7617818
1495.0056 992.01501 2596.6909 6499597
1492.7144 980.40436 2566.2991 8472869
1549.7762 1007.6176 2637.5322 8144162
1566.0037 1008.0031 2638.5413 7815450
1565.3274 997.60822 2611.3315 7289108
1587.9927 1002.1468 2623.2119 8539944
1588.1863 992.55383 2598.1013 7947551
1616.9691 1000.8404 2619.7922 7421207
1621.8811 994.3349 2602.7634 7552793
1625.1255 986.93915 2583.4043 8079136
1650.9941 993.29291 2600.0361 8144672
1673.8615 997.7403 2611.6775 8210721
1694.2853 1000.663 2619.3279 9526325
1706.3416 998.6355 2614.0208 7223826
1714.3651 994.3056 2602.6868 8276258
1739.7662 1000.0418 2617.7017 8407588
1759.75 1002.5901 2624.3721 8013085
1773.849 1001.7703 2622.2263 7815451
1786.1406 999.953 2617.4695 7881244
1805.2997 1001.9786 2622.7715 7946782
1799.6854 990.33716 2592.2991 8210208
1817.4392 991.64319 2595.7175 7881243
1823.7373 986.729 2582.8542 7354902
1838.3228 986.3432 2581.8445 7552281
1855.3545 987.2655 2584.2588 7354901
1860.3192 981.80426 2569.9634 8539176
1880.0112 984.14105 2576.0801 8275747
1903.8193 988.57745 2587.6929 8144674
1917.8695 987.91663 2585.9631 7421208
1943.4662 993.16675 2599.7058 7749918
1961.3995 994.44904 2603.0623 7684127
1969.5272 990.7785 2593.4543 7420700
1987.5812 992.11963 2596.9648 6894355
2004.5598 992.90753 2599.0271 7026198
2021.348 993.58966 2600.8127 6960405
2023.3948 987.07031 2583.7478 7091991
2022.9303 979.43298 2563.7563 8539691
2017.9801 969.75391 2538.4204 8276264
2064.7561 984.89136 2578.0442 8868915
2086.614 988.00793 2586.2021 8145192
2091.6023 983.1496 2573.4849 6698004
2103.7041 981.68109 2569.6409 7618078
2124.0151 984.03674 2575.8071 8276264
2146.6094 987.40912 2584.6345 7420698
2153.2405 983.44299 2574.2529 6828817
2183.3208 990.16718 2591.8542 7486491
2201.1875 991.29712 2594.8118 7684126
2197.0562 982.57324 2571.9763 7749661
2208.5315 980.90118 2567.5994 8012834
2233.5273 985.21594 2578.8938 8013347
2238.5627 980.72729 2567.1443 7882274
2250.8118 979.43835 2563.7703 8210983
2267.0427 979.88757 2564.9463 8605740
2260.3765 970.49994 2540.3733 7750432
2241.5232 956.03864 2502.5195 7618849
2262.2458 958.53601 2509.0566 7816484
2293.8254 965.57104 2527.4714 8013606
2282.7673 954.68323 2498.9714 8671792
2296.0261 954.03967 2497.2869 8145449
2338.7454 965.56744 2527.4619 7421982
2346.1262 962.4516 2519.3059 8342829
2364.0535 963.67419 2522.5061 7421984
2359.2432 955.67096 2501.5571 7553315
2412.7498 971.24304 2542.3184 7026970
2427.636 971.17181 2542.1321 7421986
0 0 0 0
0 0 0 0
0 0 0 0
0 0 0 0
0 0 0 0
0 0 0 0
0 0 0 0
0 0 0 0
-2388.7703 1043.8121 2690.5437 1024
-2373.3723 1044.0516 2691.1609 1024
-2357.8135 1044.2234 2691.6035 1024
-2340.3506 1043.5481 2689.863 1280
-2324.8701 1043.7538 2690.3933 1024
-2318.1301 1047.9133 2701.115 1024
-2293.3848 1043.9349 2690.8601 1280
-2277.5684 1043.9935 2691.0112 1024
-2262.7285 1044.5039 2692.3267 1280
-2240.1135 1041.4069 2684.3438 1280
-2217.1277 1038.0919 2675.7991 1280
-2203.9089 1039.3352 2679.0037 1280
-2190.7368 1040.6187 2682.312 1024
-2187.8074 1046.8218 2698.3015 1024
-2163.2644 1042.6986 2687.6736 1024
-2132.2788 1035.3859 2668.824 1024
-2118.4856 1036.3743 2671.3718 1024
-2089.675 1029.976 2654.8792 1024
-2081.7991 1033.877 2664.9346 1024
-2068.6072 1035.1775 2668.2869 1024
-2056.8472 1037.2202 2673.552 1024
-2044.8807 1039.1896 2678.6287 1024
-2015.2252 1032.1301 2660.4319 1024
-1991.7382 1028.1436 2650.156 1280
-1974.7462 1027.473 2648.4277 1024
-1958.7281 1027.3025 2647.9883 1024
-1941.9598 1026.7327 2646.5193 1024
-1925.824 1026.4906 2645.8953 1024
-1909.5353 1026.1624 2645.0493 1280
-1902.407 1030.7922 2656.9834 1280
-1887.3052 1031.1429 2657.8872 1024
-1865.35 1027.7236 2649.0735 1024
-1853.8287 1030.0436 2655.0537 1024
-1839.2117 1030.6686 2656.6648 1024
-1825.8423 1032.0095 2660.1211 1280
-1813.2789 1033.8335 2664.8225 1280
-1797.1285 1033.6262 2664.2883 1280
-1780.5233 1033.1515 2663.0645 1280
-1764.2074 1032.8375 2662.2554 1024
-1748.4214 1032.8309 2662.2383 1024
-1734.3961 1033.8739 2664.9268 1024
-1710.876 1029.224 2652.9412 1024
-1703.8451 1034.4996 2666.5396 1024
-1687.6588 1034.2631 2665.9297 1024
-1667.8534 1031.7831 2659.5374 1024
-1650.0654 1030.5159 2656.271 1024
-1631.8588 1028.9602 2652.261 1024
-1619.1841 1030.8964 2657.2517 1024
-1603.4785 1030.9219 2657.3174 1024
-1590.7272 1032.8662 2662.3291 1024
-1576.6466 1033.9775 2665.1938 1024
-1562.8524 1035.3013 2668.606 1024
-1547.0188 1035.2871 2668.5693 1024
-1531.1511 1035.2496 2668.4729 1280
-1518.1514 1037.1709 2673.425 1280
-1502.5167 1037.3134 2673.7925 1280
-1487.5421 1037.9196 2675.3547 1280
-1470.6355 1037.1761 2673.4385 1280
-1455.3679 1037.5851 2674.4927 1280
-1441.4503 1038.9761 2678.0781 1280
-1429.8601 1042.0942 2686.1157 1280
-1415.1293 1042.968 2688.3677 1280
-1399.7751 1043.397 2689.4736 1280
-1383.7164 1043.3046 2689.2354 1280
-1368.4795 1043.8369 2690.6074 1280
-1351.8239 1043.2869 2689.1897 1280
-1338.4994 1045.3253 2694.4438 1280
-1325.1029 1047.356 2699.6782 1280
-1310.455 1048.4351 2702.4595 1280
-1292.5446 1046.8983 2698.4985 1280
-1279.4462 1049.2694 2704.6104 1280
-1264.6143 1050.261 2707.1663 1280
-1252.4725 1053.541 2715.6208 1280
-1239.9502 1056.582 2723.4595 1280
-1225.7645 1058.2672 2727.8032 1024
-1206.3245 1055.4005 2720.4138 1024
-1192.9105 1057.7997 2726.5981 1024
-1178.0312 1058.9476 2729.5569 768
-1170.3453 1066.6835 2749.4971 768
-1155.7151 1068.2194 2753.4561 256
-1143.1965 1071.7788 2762.6311 65536
-1128.3947 1073.2703 2766.4751 328192
-1112.8035 1074.0436 2768.4685 262400
-1095.6366 1073.2965 2766.543 327680
-1082.5417 1076.5763 2774.9971 393216
-1068.1429 1078.6406 2780.3181 458752
-1051.9537 1078.9332 2781.0723 524288
-1037.0637 1080.5889 2785.3396 458752
-1022.1758 1082.3003 2789.7512 458752
-1006.0291 1082.7133 2790.8157 458752
-991.32123 1084.7144 2795.9739 589824
-976.21198 1086.3368 2800.1558 655360
-959.45288 1086.1478 2799.6685 524288
-942.74554 1086.0117 2799.3176 524288
-927.80243 1087.9393 2804.2864 655360
-912.77411 1089.8356 2809.1743 524288
-895.1817 1088.684 2806.2058 786432
-876.53253 1086.1792 2799.7495 851968
-859.7641 1085.9535 2799.1677 1049344
-843.07355 1085.819 2798.821 983552
-826.40491 1085.708 2798.5349 852224
-810.01508 1085.9663 2799.2007 720896
-792.59161 1084.8206 2796.2476 1049344
-776.76166 1085.8534 2798.9099 1049344
-759.65021 1085.1011 2796.9705 917760
-740.85803 1081.8606 2788.6179 917760
-722.83643 1079.6234 2782.8513 851968
-705.87164 1078.897 2780.9788 786432
-689.08063 1078.4078 2779.7178 589824
-672.1051 1077.5988 2777.6323 786432
-653.23615 1073.6371 2767.4209 720896
-635.81805 1071.9175 2762.9883 720896
-619.78906 1072.5106 2764.5173 720896
-603.8075 1073.2205 2766.3469 720896
-585.90295 1070.4565 2759.2227 720896
-569.29431 1069.9695 2757.967 655360
-551.17731 1066.5349 2749.1143 655360
-534.59912 1065.9596 2747.6311 655360
-518.43591 1066.2015 2748.2546 655360
-500.5376 1062.7749 2739.4221 655360
-484.64355 1063.5168 2741.3347 655360
-467.86743 1062.3076 2738.2178 655360
-450.94403 1060.6649 2733.9836 851968
-434.27579 1059.5223 2731.0386 720896
-417.47128 1057.946 2726.9756 720896
-400.19531 1055.0001 2719.3818 786432
-384.74136 1056.8115 2724.051 720896
-368.60547 1056.8265 2724.0896 786432
-351.0415 1052.5608 2713.0942 983040
-335.93307 1055.6017 2720.9326 917504
-319.52051 1054.6448 2718.4658 917504
-304.51688 1058.4835 2728.3606 983040
-288.42395 1058.754 2729.0579 851968
-270.62115 1052.4072 2712.6985 1114624
-255.1835 1055.0375 2719.4783 983040
-239.15649 1055.4214 2720.4678 983040
-222.03174 1050.6661 2708.2107 1048832
-205.95175 1050.4991 2707.7803 1049088
-189.82008 1050.0179 2706.5398 1048576
-173.43124 1047.8942 2701.0654 720896
-157.62064 1049.1874 2704.3989 851968
-141.43488 1047.9937 2701.322 720896
-125.34431 1047.2905 2699.5098 851968
-109.14045 1045.2966 2694.3701 851968
-93.430618 1048.1619 2701.7556 917504
-77.340324 1047.0612 2698.9182 720896
-61.31332 1046.4666 2697.3857 851968
-45.337006 1046.6232 2697.7893 983040
-29.240818 1042.6757 2687.6143 1048832
-13.317927 1042.856 2688.0789 1048832
2.6113334 1043.381 2689.4324 851968
18.516134 1041.6277 2684.9131 917504
34.340626 1039.0649 2678.3074 917504
50.14502 1037.7064 2674.8054 1114368
65.972588 1037.3647 2673.9248 1048832
81.583664 1034.4105 2666.3098 983296
97.201904 1032.4908 2661.3618 917504
112.88774 1031.725 2659.3877 1048576
128.98657 1034.4589 2666.4346 1114368
144.72873 1034.0479 2665.375 1048576
160.43448 1033.483 2663.9192 1048576
176.46048 1034.8977 2667.5657 1114112
192.33084 1035.2419 2668.4531 1114112
207.65355 1032.8101 2662.1846 983040
223.67596 1033.9561 2665.1384 1048576
239.8779 1035.7261 2669.7007 1114368
254.85953 1032.334 2660.9573 983040
270.6402 1032.3853 2661.0894 917504
286.77902 1033.7217 2664.5344 1048576
302.95651 1035.051 2667.9607 983040
319.59482 1037.7445 2674.9038 917504
334.25128 1034.0526 2665.3872 983040
350.78241 1036.2316 2671.0039 1179904
366.41702 1035.6885 2669.604 1048576
382.59525 1036.6632 2672.1165 1245696
398.12976 1035.8856 2670.1123 1311488
413.31967 1034.3052 2666.0383 1179904
428.98099 1033.9773 2665.1931 1179904
444.88266 1034.2314 2665.8484 1245696
460.87842 1034.6794 2667.0032 1048576
476.5434 1034.3796 2666.2305 1245696
491.94794 1033.552 2664.0972 1311232
507.43985 1032.9537 2662.5549 1114112
522.91302 1032.3545 2661.0103 917504
538.99158 1032.9504 2662.5464 1048576
553.8573 1031.2544 2658.1746 983040
568.87195 1029.9218 2654.7395 917504
584.15656 1029.1364 2652.7151 983040
599.88422 1029.1522 2652.7561 917504
616.26788 1030.2639 2655.6216 1245440
631.67505 1029.7286 2654.2417 1179904
644.97339 1025.865 2644.2827 1048576
660.66223 1025.8966 2644.3643 1048576
676.70636 1026.4657 2645.8313 983040
691.85254 1025.6779 2643.8005 917504
707.48663 1025.6322 2643.6829 917504
722.35687 1024.5051 2640.7778 1179648
738.10352 1024.6427 2641.1321 1179648
752.73047 1023.2523 2637.5481 1048576
767.53485 1022.1547 2634.719 1048576
784.14264 1023.4547 2638.0701 917504
798.99115 1022.4525 2635.4868 983040
811.28143 1018.2778 2624.7261 1179648
827.31732 1018.8731 2626.2605 1442304
842.37415 1018.2629 2624.6875 1376768
855.39105 1015.2537 2616.9309 1442304
868.8717 1012.8922 2610.8438 1376512
884.8045 1013.4219 2612.2092 1442304
900.39465 1013.5477 2612.5337 1770240
906.35834 1003.0161 2585.3872 1507328
925.28467 1006.9413 2595.5049 1310720
940.42328 1006.6835 2594.8403 1507328
954.67706 1005.5022 2591.7954 1639168
969.00562 1004.4357 2589.0464 1573632
980.67407 1000.688 2579.3862 1639168
1001.7642 1006.5218 2594.4236 1245184
1013.6989 1003.1194 2585.6536 1638912
1026.7643 1000.9205 2579.9856 1836288
1050.2744 1008.8187 2600.344 2098944
1049.8916 993.8703 2561.813 1967360
1071.8148 1000.1631 2578.0332 2032896
1092.786 1005.4028 2591.5393 2098432
1103.9159 1001.5687 2581.6562 1835520
1121.2745 1003.4133 2586.4109 2361088
1134.0239 1001.139 2580.5488 2295552
1148.5931 1000.5104 2578.9287 2295040
1155.9999 993.74121 2561.4802 2163456
1177.4635 999.07477 2575.228 2491648
1193.1409 999.42505 2576.1309 2885120
1212.2554 1002.6091 2584.3381 4527874
1225.0679 1000.5667 2579.0735 6697751
1225.8026 988.83167 2548.8252 7617562
1232.0361 981.76404 2530.6077 8276002
1262.4462 993.90009 2561.8896 8144415
1283.7073 998.63049 2574.083 8407331
1291.2819 992.72791 2558.8682 8670503
1316.5266 1000.3892 2578.616 7683864
1334.1641 1002.1605 2583.1819 8078366
1349.7701 1002.3829 2583.7554 7881244
1364.0699 1001.6414 2581.8438 8275745
1379.2241 1001.5366 2581.5737 8276001
1389.1118 997.65179 2571.5601 8210208
1403.4176 996.98993 2569.854 8144159
1429.0485 1004.3012 2588.6997 8341538
1434.389 997.34906 2570.7798 7420693
1442.0959 992.17108 2557.4331 7354900
1455.7024 991.11755 2554.7175 7288852
1473.7032 993.04694 2559.6907 7683607
1489.0746 993.18304 2560.0415 7880988
1507.4399 995.29333 2565.481 7815196
1529.8574 1000.0101 2577.6389 7157266
1531.8618 991.42224 2555.5029 7684123
1554.59 996.28375 2568.0339 6170630
1565.8035 993.74329 2561.4854 6565392
1558.3766 979.53473 2524.8613 7091732
1605.2662 999.41315 2576.1001 7487000
1605.0583 989.87103 2551.5044 7684123
1625.9496 993.39795 2560.5952 8013345
1645.1431 995.83179 2566.8689 7947550
1670.1344 1001.6985 2581.991 8210465
1682.682 1000.0632 2577.7756 8144415
1695.349 998.5274 2573.8171 7683608
1713.4634 1000.199 2578.1257 7749401
1728.8333 1000.2531 2578.2651 7947038
1743.3715 999.82922 2577.1726 8144160
1759.871 1000.5276 2578.9729 7749402
1774.0396 999.90039 2577.3562 7815452
1778.7446 993.99554 2562.1357 7749146
1798.8352 996.71552 2569.1467 7354132
1812.8193 996.03473 2567.3918 7223059
1819.1874 991.21545 2554.9697 7223315
1827.9888 987.79071 2546.1421 7223316
1850.4553 991.74573 2556.3367 7618073
1848.9637 982.90063 2533.5374 8276002
1875.287 988.86511 2548.9114 8407590
1906.4822 997.28278 2570.6089 7881759
1904.5125 988.3559 2547.5989 7750172
1917.3757 987.20654 2544.6362 7881505
1940.5383 991.33661 2555.282 7815455
1945.7001 986.27808 2542.2432 7947041
1973.3054 992.58649 2558.5039 7420954
1965.1217 980.93396 2528.468 8605228
1986.1987 983.95331 2536.2507 8210469
2021.1453 993.74652 2561.4939 7683869
2027.6073 989.49316 2550.5303 6105094
2024.6542 980.742 2527.9731 7618332
2055.7502 988.4917 2547.949 8013090
2054.4561 980.66718 2527.7805 7947297
2069.6472 980.76819 2528.0408 7684895
2081.864 979.46832 2524.6902 8802606
2098.4019 980.20551 2526.5903 8210471
2146.377 995.51312 2566.0474 7749921
2159.1147 994.37689 2563.1187 5775879
2175.5647 994.95428 2564.6069 6828562
2187.5002 993.47327 2560.7896 7223064
2199.3799 991.98761 2556.96 7485979
2217.2119 993.1886 2560.0557 7354905
2215.9583 985.8819 2541.2219 6894612
2223.5137 982.56665 2532.6765 7420956
2240.0088 983.21985 2534.3601 8276009
2232.2131 973.27313 2508.7214 8277035
2229.8542 965.81287 2489.4917 8079655
2239.1101 963.44824 2483.3967 7487518
2253.9644 963.50781 2483.55 7618849
2254.0598 957.29852 2467.5449 7355422
2286.2639 964.71777 2486.6689 8276779
2314.8188 970.51215 2501.6047 6434319
2316.3708 964.98352 2487.354 6434320
2307.6211 955.26038 2462.2915 7356191
2323.7388 955.88873 2463.9111 7553313
2320.3545 948.53711 2444.9614 7487519
2354.6499 956.58417 2465.7036 7158811
0 0 0 0
0 0 0 0
0 0 0 0
0 0 0 0
0 0 0 0
0 0 0 0
0 0 0 0
0 0 0 0
-2347.0344 1041.239 2643.5354 1024
-2332.7607 1041.86 2645.1118 1024
-2317.5105 1042.0502 2645.5947 1024
-2301.1902 1041.7584 2644.8542 1280
-2285.0139 1041.5287 2644.2708 1280
-2271.5471 1042.5391 2646.8359 1280
-2253.7542 1041.5641 2644.3608 1280
-2238.6411 1041.8229 2645.0178 1024
-2224.9614 1042.7571 2647.3894 1280
-2194.2629 1035.6716 2629.4006 1280
-2194.3096 1043.1002 2648.2605 1280
-2178.6248 1043.1036 2648.2693 1280
-2159.6577 1041.5242 2644.2593 1024
-2143.6824 1041.375 2643.8806 1024
-2123.1987 1039.0175 2637.8953 1024
-2105.3809 1037.9392 2635.1577 1024
-2085.624 1035.8817 2629.9338 1024
-2049.2009 1025.4531 2603.4575 1024
-2040.5094 1028.849 2612.0793 1024
-2023.3008 1027.9696 2609.8464 1024
-1997.0303 1022.437 2595.8003 1024
-1984.3159 1023.8129 2599.2935 1024
-1978.3816 1028.736 2611.7922 1024
-1962.7526 1028.6559 2611.5886 1024
-1954.5048 1032.4735 2621.281 1024
-1920.4791 1022.6259 2596.2798 1024
-1909.4358 1024.9559 2602.1953 1024
-1904.3676 1030.5574 2616.4163 1024
-1888.1981 1030.194 2615.4937 1024
-1876.5295 1032.3003 2620.8416 1024
-1849.3315 1025.8279 2604.4089 1024
-1833.6909 1025.7113 2604.113 1024
-1829.3009 1031.9393 2619.925 1024
-1813.7686 1031.9346 2619.9131 1024
-1800.2281 1033.0729 2622.803 1280
-1778.8628 1029.7017 2614.2439 1280
-1732.4784 1011.6614 2568.4426 1024
-1752.3116 1032.3113 2620.8691 1024
-1739.1479 1033.7177 2624.4397 1024
-1724.5186 1034.2701 2625.8425 1024
-1705.0737 1031.9186 2619.8723 1024
-1692.4083 1033.6644 2624.3047 1024
-1679.493 1035.2885 2628.428 1024
-1657.9979 1031.6047 2619.0754 1024
-1641.0768 1030.7241 2616.8398 1024
-1618.9894 1026.5509 2606.2446 1024
-1609.4951 1030.3593 2615.9136 1024
-1598.4391 1033.2321 2623.207 1024
-1582.5316 1032.9944 2622.6038 1024
-1566.21 1032.4791 2621.2954 1024
-1549.6578 1031.8 2619.5715 1024
-1534.7272 1032.1979 2620.5813 1024
-1520.8884 1033.3455 2623.4951 1024
-1505.2278 1033.2665 2623.2942 1280
-1490.3638 1033.738 2624.4917 1280
-1475.074 1033.9213 2624.9568 1280
-1462.9558 1036.3551 2631.136 1280
-1450.9565 1038.9266 2637.6646 1280
-1435.8306 1039.2909 2638.5894 1280
-1421.0105 1039.8871 2640.103 1280
-1405.1869 1039.7539 2639.7649 1280
-1390.0464 1040.129 2640.717 1280
-1375.5059 1040.9666 2642.8435 1280
-1361.8751 1042.5198 2646.7871 1280
-1348.1445 1044.032 2650.6262 1280
-1331.2614 1043.1096 2648.2847 1280
-1315.1956 1042.8134 2647.5325 1280
-1302.2749 1045.0339 2653.1699 1280
-1289.4614 1047.3956 2659.166 1280
-1273.7939 1047.4689 2659.3521 1280
-1266.7012 1054.6836 2677.6689 1280
-1245.8787 1050.5045 2667.0591 1280
-1228.6711 1049.3054 2664.0146 1280
-1220.3793 1055.7882 2680.4734 1280
-1204.7579 1056.0175 2681.0554 1024
-1187.8132 1055.0774 2678.6687 1024
-1175.8002 1058.5516 2687.4893 768
-1162.4346 1060.8871 2693.4185 512
-1147.4792 1061.8163 2695.7776 512
-1135.4335 1065.5022 2705.1355 65792
-1123.5593 1069.457 2715.1763 196608
-1112.0076 1073.8381 2726.2991 262144
-1092.7888 1070.8353 2718.6755 262144
-1078.0869 1072.235 2722.229 393216
-1063.8776 1074.1744 2727.1531 458752
-1050.7423 1077.275 2735.0249 458752
-1035.5214 1078.3009 2737.6294 458752
-1019.7083 1078.733 2738.7266 524288
-1004.5396 1079.8717 2741.6177 458752
-987.82831 1079.3627 2740.325 393216
-972.85736 1080.7697 2743.8972 589824
-958.64404 1083.0806 2749.7642 589824
-943.6814 1084.6101 2753.6475 655360
-927.58429 1084.8667 2754.2988 720896
-911.55255 1085.2102 2755.1711 786688
-892.16504 1081.4984 2745.7473 720896
-872.92426 1077.8298 2736.4333 918528
-861.99493 1084.479 2753.3147 851968
-842.51001 1080.4133 2742.9927 720896
-824.18658 1077.7065 2736.1206 655360
-810.71289 1081.3597 2745.3955 786432
-796.26276 1083.8337 2751.6763 720896
-779.15021 1082.7112 2748.8264 983296
-761.11096 1080.2255 2742.5156 852224
-744.08136 1079.0957 2739.6472 786432
-729.23132 1081.1467 2744.8545 851968
-712.62335 1080.6256 2743.5317 917760
-694.80579 1078.2032 2737.3816 851968
-677.37219 1076.2751 2732.4863 786432
-661.12354 1076.1814 2732.2485 1049344
-645.09113 1076.444 2732.9148 851968
-626.94354 1073.0994 2724.4236 720896
-610.84589 1073.1796 2724.6272 655360
-593.59125 1071.1763 2719.541 786432
-577.02649 1070.3408 2717.4202 655360
-559.73413 1068.069 2711.6523 720896
-541.42999 1063.6753 2700.4976 720896
-525.61237 1064.0476 2701.4426 655360
-509.26599 1063.3392 2699.6443 720896
-492.32074 1061.2939 2694.4517 655360
-476.61417 1061.8713 2695.9175 589824
-460.58511 1061.7454 2695.5977 655360
-443.52264 1059.1425 2688.9893 786432
-427.70294 1059.424 2689.7039 720896
-411.75858 1059.4065 2689.6594 720896
-394.41177 1055.634 2680.0818 786432
-378.6073 1055.8462 2680.6206 720896
-362.72021 1055.8364 2680.5959 720896
-347.14703 1056.7815 2682.9951 720896
-331.30328 1056.954 2683.4331 720896
-315.18692 1056.2303 2681.5959 720896
-299.41934 1056.6606 2682.6885 851968
-283.55505 1056.7789 2682.9885 851968
-267.57751 1056.464 2682.1892 655360
-251.76524 1056.8031 2683.05 917504
-236.25215 1058.5283 2687.4302 1048832
-218.84032 1051.3806 2669.2834 917504
-203.27997 1052.7078 2672.6526 983040
-186.90417 1049.6792 2664.9636 983040
-170.87816 1048.2373 2661.303 720896
-154.50372 1044.1478 2650.9202 720896
-138.69528 1043.3904 2648.9973 851968
-123.16328 1044.7848 2652.5374 786432
-106.94778 1039.9408 2640.2395 917504
-91.581917 1043.1141 2648.2961 720896
-75.837128 1042.3916 2646.4614 851968
-59.995438 1039.613 2639.4075 983040
-44.394493 1040.5181 2641.7048 786432
-28.724489 1039.9082 2640.1567 851968
-13.033067 1036.1372 2630.5828 851968
2.5628974 1039.6683 2639.5479 851968
18.166876 1037.5892 2634.2693 851968
33.75449 1036.9292 2632.5933 917504
49.125942 1032.1447 2620.4463 983040
64.709305 1033.0413 2622.7227 786432
80.31765 1033.9124 2624.9341 720896
95.817543 1033.3312 2623.4585 1048832
110.95425 1029.542 2613.8386 1179904
126.96606 1033.8069 2624.6663 1114368
142.23523 1031.7538 2619.4539 1179904
157.95866 1033.0756 2622.8098 1048576
173.62877 1033.8431 2624.7585 1443072
189.04292 1033.0858 2622.8357 851968
204.34196 1031.8621 2619.729 851968
220.27298 1033.7773 2624.5913 1048832
235.96347 1034.3854 2626.1353 851968
251.46643 1034.1472 2625.5303 1048576
267.37729 1035.5165 2629.0066 1180160
282.79779 1034.9402 2627.5437 1114112
298.27475 1034.6202 2626.7312 983040
314.00653 1035.1718 2628.1316 1048576
329.86169 1036.0588 2630.3838 786432
345.3006 1035.6174 2629.2632 1179904
360.61832 1034.8665 2627.3564 983040
375.8952 1034.0653 2625.3223 1179904
392.07608 1035.7157 2629.5125 1179904
408.2034 1037.1039 2633.0369 1179904
422.85776 1034.7854 2627.1506 1443584
438.48587 1034.9298 2627.5173 1180416
453.92529 1034.6342 2626.7668 1246208
468.1199 1031.615 2619.1016 1312000
484.56873 1033.5979 2624.1357 1179904
499.71588 1032.7672 2622.0269 1179904
515.02533 1032.3121 2620.8713 851968
529.9953 1031.2229 2618.1062 851968
545.89648 1031.9561 2619.9675 983040
561.33563 1031.7996 2619.5701 1114112
574.76587 1028.058 2610.071 851968
590.06293 1027.7643 2609.3252 851968
607.2854 1030.7537 2616.9146 1245696
622.18488 1029.7491 2614.3645 1377024
635.86066 1026.8177 2606.9221 1179904
650.30286 1025.2334 2602.8999 1114112
664.20422 1022.8898 2596.9497 983040
681.23486 1025.3622 2603.2268 851968
696.73499 1025.4725 2603.5068 1179648
709.7561 1022.0084 2594.7122 851968
726.31647 1023.6796 2598.9548 983040
740.45386 1021.9373 2594.5312 983040
756.28931 1022.5616 2596.1165 983040
773.11676 1024.4756 2600.9758 917504
786.69855 1022.098 2594.9395 917504
800.20874 1019.7203 2588.9028 983040
814.02527 1017.8151 2584.0659 1179648
830.34302 1019.0498 2587.2007 1310976
843.40222 1016.3132 2580.2529 1508096
855.09436 1012.0561 2569.4446 1114112
874.5752 1017.005 2582.0093 1245184
884.22223 1010.545 2565.6084 1573888
896.43243 1007.1833 2557.0737 1507840
911.55371 1007.1498 2556.9883 1179648
930.1098 1010.8503 2566.3833 1245184
943.73907 1009.1633 2562.1003 1245184
959.95508 1010.2521 2564.8645 1507328
967.6192 1002.4471 2545.0491 1114112
983.33685 1003.0972 2546.6995 1836288
995.88593 1000.5441 2540.2178 2099456
1014.649 1004.2172 2549.5432 1376256
1028.933 1003.4146 2547.5051 1769984
1044.0179 1003.405 2547.481 1901312
1058.6465 1002.9632 2546.3594 2033152
1060.9314 991.00378 2515.9963 1967104
1087.0171 1001.2998 2542.1362 2032896
1103.0294 1002.162 2544.3254 2361344
1116.2087 1000.4619 2540.009 2361344
1117.3158 988.13062 2508.7019 2229248
1141.2416 996.03851 2528.7788 2163456
1158.1686 997.71234 2533.0283 1900544
1173.7679 998.21417 2534.3022 2097664
1189.595 998.89459 2536.0298 2162944
1197.7467 993.19348 2521.5557 2884608
1210.8622 991.69818 2517.7593 3804674
1225.4982 991.46948 2517.1787 5710856
1252.9568 1001.4954 2542.6328 8012833
1265.6929 999.65515 2537.9607 8539430
1283.6639 1001.9442 2543.7722 8341794
1294.8995 998.98383 2536.2563 8407587
1307.6432 997.24139 2531.8325 7881244
1328.7449 1001.8403 2543.5085 8078366
1341.4346 1000.0648 2539.0007 7617815
1346.9456 993.03613 2521.156 7946780
1368.2953 997.71069 2533.0242 8012573
1378.3328 994.12482 2523.9202 8209952
1394.7653 995.17889 2526.5962 7552792
1423.4381 1004.8514 2551.1531 8342309
1413.6704 987.46936 2507.0229 7947295
1425.7181 985.52869 2502.0959 7749916
1446.5315 989.62494 2512.4956 7289108
1469.0262 994.77631 2525.5742 7947038
1478.1539 990.86334 2515.6396 7880989
1511.3435 1002.997 2546.4451 7354646
1510.7812 992.71301 2520.3357 7355669
1519.7501 988.83173 2510.4819 7026195
1538.0773 991.05573 2516.1282 7488030
1554.3118 991.90155 2518.2756 7489839
1567.647 990.89868 2515.7295 7289110
1581.2095 990.05713 2513.5928 7421465
1594.2832 988.92786 2510.7258 7881502
1620.5256 995.9126 2528.459 7947294
1627.8926 991.27545 2516.686 8144672
1639.9706 989.56519 2512.344 7355413
1657.0632 990.88434 2515.6931 8670759
1687.667 1000.1873 2539.3115 7749401
1684.2135 989.32025 2511.7222 7881243
1715.5143 998.87976 2535.9922 7683609
1728.2163 997.5379 2532.5854 7880989
1736.9563 993.95184 2523.481 7552280
1751.5619 993.755 2522.9812 7552279
1768.5731 994.91473 2525.9255 7815452
1778.4208 992.0589 2518.675 7880733
1796.1312 993.60022 2522.5884 8012832
1803.8258 989.62115 2512.4861 7683610
1817.1219 988.75531 2510.2878 7748633
1832.5637 989.06146 2511.0652 7617560
1850.1626 990.51764 2514.762 7091473
1859.3672 987.49231 2507.0813 7618330
1887.5845 994.53235 2524.9548 8144673
1896.5398 991.39276 2516.9839 8144676
1902.7373 986.87183 2505.5061 7223575
1923.6633 990.00079 2513.45 7749919
1936.8253 989.11676 2511.2053 7223575
1952.2882 989.41205 2511.9553 8473387
1963.0874 987.35754 2506.739 7486493
1974.0011 985.39075 2501.7458 8013091
1996.1165 989.00348 2510.918 7947297
2014.0006 990.48187 2514.6714 6434059
2012.256 982.35602 2494.041 8276517
2035.2513 986.33826 2504.1514 8013090
2049.1746 985.89801 2503.0337 7420699
2108.3704 1007.0891 2556.8345 6171409
2117.4519 1004.2111 2549.5276 7947041
2142.6846 1008.9791 2561.6328 7947300
2165.0813 1012.3542 2570.2017 8802352
2149.8821 998.22565 2534.3315 8078629
2154.2637 993.32184 2521.8813 7618335
2157.0667 987.76257 2507.7676 7683871
2171.5735 987.60217 2507.3601 7091991
2178.2949 983.92737 2498.0305 6960150
2200.2544 987.13855 2506.1831 5775620
2207.9314 983.94189 2498.0674 7223064
2205.7483 976.42303 2478.9783 7288856
2205.7034 969.94391 2462.5288 6499341
2200.9719 961.50269 2441.0979 7749664
2236.6816 970.72314 2464.5071 6698003
2242.8496 967.086 2455.2729 7158298
2271.5176 973.13489 2470.6301 7487263
2287.0825 973.52875 2471.6301 7224092
2266.5166 958.63599 2433.8198 6171409
2258.6511 949.26923 2410.0391 8144937
2268.814 947.54968 2405.6733 8539694
2283.7786 947.8443 2406.4214 7487007
2298.6226 948.08557 2407.0339 7684386
0 0 0 0
0 0 0 0
0 0 0 0
0 0 0 0
0 0 0 0
0 0 0 0
0 0 0 0
0 0 0 0
-2306.822 1038.7948 2598.2427 1024
-2292.0823 1039.092 2598.9863 1024
-2276.6086 1039.0585 2598.9023 1280
-2261.3308 1039.1144 2599.0425 1280
-2245.8674 1039.0853 2598.9695 1280
-2231.9255 1039.7645 2600.6682 1280
-2215.6609 1039.3635 2599.6655 1024
-2200.4839 1039.4709 2599.9341 1280
-2186.7417 1040.2622 2601.9131 1280
-2166.7698 1038.0801 2596.4553 1280
-2147.6555 1036.2808 2591.9548 1280
-2132.5103 1036.3843 2592.2139 1280
-2134.8806 1045.0636 2613.9226 1024
-2116.8403 1043.8054 2610.7754 1024
-2097.7834 1042.0237 2606.3188 1024
-2079.2815 1040.4932 2602.4907 1024
-2062.0354 1039.5729 2600.1892 1024
-2044.2073 1038.3433 2597.1133 1024
-2025.7246 1036.7599 2593.1531 1024
-1981.4308 1021.8411 2555.8384 1024
-1966.6091 1022.009 2556.2581 1024
-1952.7922 1022.7054 2558 1024
-1937.3864 1022.5742 2557.6719 1024
-1920.1282 1021.4556 2554.8738 1024
-1919.2808 1029.1184 2574.0403 1024
-1898.326 1026.0364 2566.3313 1024
-1882.0394 1025.4478 2564.8591 1024
-1867.2322 1025.6624 2565.3958 1024
-1850.6907 1024.9199 2563.5391 1024
-1813.8041 1012.8048 2533.2366 1024
-1798.5195 1012.6505 2532.8506 1024
-1801.092 1022.6326 2557.8179 1024
-1758.2153 1006.7596 2518.1162 1024
-1777.2178 1026.3505 2567.1169 1024
-1732.3054 1009.0499 2523.8447 1024
-1749.1597 1027.7396 2570.5916 1024
-1732.8656 1027.11 2569.0166 1024
-1718.2035 1027.4451 2569.855 768
-1703.691 1027.8765 2570.9338 768
-1691.0118 1029.4316 2574.8235 768
-1678.2223 1030.9471 2578.6145 1024
-1662.0706 1030.4065 2577.262 1024
-1643.2638 1028.1943 2571.729 1024
-1625.7102 1026.7322 2568.0718 1024
-1616.1433 1030.3342 2577.0811 1024
-1603.4904 1032.0187 2581.2944 1024
-1586.8354 1031.1353 2579.0847 1024
-1571.8153 1031.3071 2579.5146 1024
-1552.7898 1028.8285 2573.3152 1024
-1541.4303 1031.4304 2579.823 1024
-1526.0944 1031.397 2579.7395 1024
-1513.286 1033.0884 2583.97 1024
-1497.7357 1032.9235 2583.5574 1024
-1483.2439 1033.4927 2584.981 1280
-1469.0657 1034.2943 2586.9863 1280
-1455.7365 1035.717 2590.5449 1280
-1442.1285 1036.9697 2593.678 1280
-1426.6205 1036.8684 2593.4246 1280
-1411.9814 1037.4033 2594.7625 1280
-1398.3481 1038.697 2597.9985 1280
-1383.531 1039.1304 2599.0823 1280
-1366.6169 1037.981 2596.2073 1280
-1350.5115 1037.4264 2594.8201 1280
-1336.5161 1038.4987 2597.5022 1280
-1326.1715 1042.4657 2607.4246 1280
-1311.8286 1043.3462 2609.627 1280
-1295.2407 1042.441 2607.3628 1024
-1280.9535 1043.3878 2609.731 1024
-1268.9727 1046.2594 2616.9136 1024
-1253.2084 1046.0441 2616.3748 1024
-1240.2969 1048.2343 2621.853 1024
-1231.8986 1054.3428 2637.1318 1280
-1214.9688 1053.2126 2634.3049 1280
-1203.6737 1057.0012 2643.781 1024
-1188.1316 1057.111 2644.0554 1024
-1173.5273 1058.0692 2646.4524 768
-1160.6626 1060.6429 2652.8899 768
-1146.7438 1062.3112 2657.0623 512
-1131.5483 1062.8264 2658.3511 512
-1116.8975 1063.8751 2660.9741 65792
-1105.7119 1068.302 2672.0464 262656
-1092.0383 1070.4185 2677.3403 327936
-1079.3893 1073.6167 2685.3396 393728
-1063.8356 1073.9781 2686.2437 524544
-1046.2487 1072.2667 2681.9631 393216
-1039.0804 1081.3451 2704.6699 589824
-1014.0258 1071.8022 2680.8013 393216
-1003.4325 1077.4841 2695.0132 393216
-985.27197 1075.093 2689.0322 524544
-973.58563 1079.8036 2700.8145 590080
-959.25116 1081.6854 2705.5215 655616
-940.5238 1078.5938 2697.7883 458752
-926.81079 1081.2448 2704.4192 589824
-910.92261 1081.407 2704.825 655360
-896.65021 1083.5275 2710.1287 786688
-879.44946 1082.1222 2706.6138 852993
-852.65143 1068.6362 2672.8823 1181701
-845.98395 1080.347 2702.1738 589824
-831.15527 1081.8867 2706.0247 786432
-815.38727 1082.2401 2706.9087 524288
-798.05121 1080.4847 2702.5183 655360
-782.43439 1081.0327 2703.8889 655360
-765.73328 1080.0743 2701.4917 786432
-747.9278 1077.484 2695.0127 917760
-729.99182 1074.5885 2687.7705 851968
-714.78192 1075.6664 2690.4666 786432
-702.26788 1080.9429 2703.6641 851968
-683.27936 1076.2676 2691.97 786432
-665.99976 1074.1248 2686.6106 917760
-649.54657 1073.2426 2684.4038 786432
-631.98425 1070.4374 2677.3877 786432
-615.74902 1069.7935 2675.7771 720896
-599.09967 1068.377 2672.2341 655360
-583.271 1068.387 2672.259 655360
-567.13733 1067.823 2670.8486 786432
-550.34729 1065.9556 2666.1777 655360
-534.07361 1065.0073 2663.8059 655360
-517.2417 1062.8542 2658.4207 655360
-500.47272 1060.6993 2653.0305 655360
-484.75812 1060.7118 2653.0618 655360
-469.05746 1060.7565 2653.1738 720896
-452.98593 1059.9365 2651.1228 720896
-435.75705 1056.2523 2641.908 720896
-419.57645 1054.9293 2638.5986 786432
-403.93472 1054.911 2638.553 720896
-387.50098 1052.7397 2633.1221 720896
-371.5325 1051.7032 2630.5295 720896
-355.75906 1051.1522 2629.1514 720896
-339.75076 1049.8248 2625.8315 720896
-325.08441 1052.7159 2633.0625 786432
-308.46191 1049.2445 2624.3799 720896
-293.80975 1052.4624 2632.4285 720896
-278.21863 1052.4891 2632.4954 917504
-262.12485 1050.5048 2627.532 786432
-247.57909 1054.8651 2638.4382 720896
-231.03221 1050.7126 2628.052 655360
-214.77005 1047.3483 2619.637 720896
-199.2583 1047.4043 2619.7769 720896
-183.43941 1045.7188 2615.5613 720896
-168.04929 1046.3921 2617.2454 720896
-152.25153 1044.4061 2612.2778 720896
-136.57355 1042.885 2608.4734 720896
-121.07928 1042.5577 2607.6548 720896
-105.62418 1042.5212 2607.5635 720896
-90.101151 1041.6869 2605.4766 720896
-74.589813 1040.6705 2602.9343 720896
-59.236408 1041.9021 2606.0151 720896
-43.810528 1042.2782 2606.9558 720896
-28.433939 1044.8752 2613.4514 720896
-12.9191 1042.5277 2607.5798 720896
2.5366447 1044.4989 2612.51 655360
17.974236 1042.0304 2606.3357 720896
33.357262 1040.1421 2601.6125 720896
48.67741 1038.1063 2596.521 917504
63.976681 1036.7103 2593.0291 851968
79.096268 1033.507 2585.0168 983040
94.427483 1033.6598 2585.3989 1180416
109.50242 1031.3561 2579.637 1245952
124.80872 1031.5288 2580.0691 1048576
140.06189 1031.2727 2579.4287 1245952
155.44225 1031.9115 2581.0264 1245696
171.09978 1034.1108 2586.5276 983040
186.34113 1033.6403 2585.3501 851968
201.70079 1033.8474 2585.8684 1114112
216.81384 1032.8506 2583.3752 851968
231.97363 1032.1931 2581.7307 786432
247.36734 1032.5935 2582.7322 851968
262.64374 1032.4861 2582.4636 786432
277.89801 1032.3082 2582.0188 1114112
293.11267 1032.0096 2581.2717 917504
308.85477 1033.5055 2585.0132 1048576
324.11349 1033.319 2584.5466 1114112
339.86334 1034.6443 2587.8616 720896
355.22159 1034.7146 2588.0374 786432
370.30219 1034.0038 2586.2595 1048576
384.97983 1032.2689 2581.9204 1048576
400.6889 1033.3267 2584.5662 1311488
415.50806 1032.0961 2581.488 1179904
430.31396 1030.9211 2578.5491 1179648
446.38971 1032.7646 2583.1602 1114368
460.83347 1030.8352 2578.3345 1377536
476.45419 1031.578 2580.1921 1245952
489.16449 1026.1691 2566.6633 1245952
506.091 1029.6644 2575.406 983040
521.20312 1029.3718 2574.6741 851968
535.69733 1027.91 2571.0178 851968
551.52496 1029.017 2573.7866 1245696
565.40027 1026.52 2567.541 1114112
580.42303 1026.1824 2566.6965 983040
594.79596 1024.7424 2563.095 1114112
611.43042 1027.1735 2569.1755 983040
626.10754 1026.278 2566.9358 1114112
641.89264 1027.1981 2569.2373 1114112
654.51904 1023.1379 2559.0818 1048576
669.37677 1022.6707 2557.9131 1114112
685.2655 1023.7644 2560.6487 983040
700.75616 1024.2288 2561.8103 1114112
714.23529 1021.7959 2555.7251 1179648
728.57709 1020.6725 2552.9153 1114112
745.31677 1022.8857 2558.4509 1245184
759.18951 1021.1545 2554.1206 983040
776.0636 1023.449 2559.8599 1179648
789.66779 1021.426 2554.7998 917504
803.33282 1019.5563 2550.1233 1245184
814.72089 1014.9192 2538.5249 1179648
829.71039 1014.8551 2538.3647 1442304
843.62396 1013.501 2534.9778 1114112
862.59747 1018.1666 2546.6475 1114112
872.03162 1011.6056 2530.2371 1179648
885.19464 1009.5189 2525.0178 1310720
900.50116 1009.9055 2525.9849 1310720
916.4292 1010.9651 2528.6353 1245184
923.26691 1002.1241 2506.5217 1508096
