# .PCD v0.7 - Point Cloud Data file format
VERSION 0.7
FIELDS x y z rgb
SIZE 4 4 4 4
TYPE F F F U
COUNT 1 1 1 1
WIDTH 1272
HEIGHT 1
VIEWPOINT 0 0 0 1 0 0 0
POINTS 1272
DATA ascii
-3669.001 1210.9595 4304.8896 1909802
-3663.9832 1217.7698 4329.0996 2041388
-3637.4885 1217.4877 4328.0967 2107181
-3579.8635 1206.708 4289.7759 2238253
-3569.2556 1211.7361 4307.6504 2304046
-3537.073 1209.4595 4299.5571 2238253
-3504.9192 1207.1597 4291.3813 2238253
-3457.1882 1199.422 4263.8745 2172460
-3424.3706 1196.7826 4254.4917 2172460
-3390.3992 1193.6978 4243.5249 2238253
-3361.3076 1192.2976 4238.5479 2304046
-3330.8625 1190.3929 4231.7764 2238253
-3284.5964 1182.762 4204.6489 2238253
-3269.5002 1186.3245 4217.3135 2304046
-3215.8169 1175.8328 4180.0161 2238253
-3192.6479 1176.422 4182.1108 2304046
-3165.7888 1175.6503 4179.3672 2172460
-3142.2505 1176.1091 4180.9985 2238253
-3118.4443 1176.4744 4182.2969 2238253
-3089.6785 1174.9592 4176.9106 2238510
-3056.874 1171.8713 4165.9336 2304560
-3035.072 1172.9856 4169.8945 2238767
-3015.2749 1174.8992 4176.6973 2238767
-3006.479 1181.1666 4198.9775 2238767
-2982.3411 1181.4608 4200.0234 2172974
-2943.3113 1175.8109 4179.9385 2238767
-2928.2983 1179.7408 4193.9092 2304560
-2907.3979 1181.3461 4199.6152 2172974
-2888.8303 1183.9348 4208.8184 2107181
-2874.5527 1188.3422 4224.4863 2107181
-2845.2966 1186.5804 4218.2236 2041388
-2743.7319 1154.3654 4103.7007 2107181
-2796.0051 1186.8767 4219.2769 2172974
-2794.5032 1196.9419 4255.0576 2238767
-2778.603 1200.9669 4269.3667 2238767
-2690.0054 1173.3562 4171.2119 2172974
-2699.3931 1188.3699 4224.585 2172974
-2656.6025 1180.4789 4196.5327 2238767
-2668.1384 1196.8073 4254.5791 2304303
-2655.8208 1202.6454 4275.3335 2304046
-2648.7705 1211.0042 4305.0483 2304046
-2631.2097 1214.6735 4318.0923 2304046
-2610.3054 1216.8561 4325.8516 2304046
-2584.2625 1216.6628 4325.1646 2369839
-2556.7168 1215.7511 4321.9233 2369839
-2532.094 1216.225 4323.6079 2238767
-2498.9155 1212.5568 4310.5679 2304304
-2476.5393 1214.1088 4316.085 2370096
-2451.3047 1214.2772 4316.6836 2304560
-2417.4565 1210.1373 4301.9668 2304560
-2386.1689 1207.2046 4291.541 2370353
-2356.5747 1205.0747 4283.9697 2370353
-2314.9629 1196.686 4254.1484 2370353
-2292.4587 1198.0989 4259.1709 2436146
-2253.9792 1191.1012 4234.2944 2370353
-2236.2292 1195.0236 4248.2383 2238767
-2208.3396 1193.5551 4243.0176 2238767
-2185.7163 1194.9319 4247.9121 2238767
-2181.8962 1206.7401 4289.8896 2238767
-2136.1072 1195.3414 4249.3682 2238767
-2109.957 1194.7916 4247.4136 2304560
-2107.0923 1207.5734 4292.8521 2304560
-2068.3164 1199.8354 4265.3442 2304560
-2064.2524 1212.2914 4309.6245 2304560
-2029.4286 1206.7688 4289.9917 2370353
-2014.5743 1213.1312 4312.6099 2567732
-2000.4263 1220.0879 4337.3403 2633525
-1971.2218 1217.9229 4329.644 2567732
-1953.4453 1222.8546 4347.1763 2633525
-1930.8134 1224.8384 4354.228 2567988
-1922.1152 1235.8345 4393.3184 2699573
-1900.6879 1238.8357 4403.9878 3160123
-1893.9274 1251.6133 4449.4116 3883845
-1873.3076 1255.4634 4463.0981 4541775
-1856.2554 1261.8489 4485.7983 5396571
-1819.6525 1254.9366 4461.2256 6054498
-1790.7657 1253.2205 4455.125 6844014
-1759.1051 1249.4828 4441.8374 7304562
-1759.7858 1268.9523 4511.0503 7435636
-1713.4445 1254.5927 4460.0029 7435636
-1696.6564 1261.761 4485.4858 7567222
-1674.797 1265.3263 4498.1602 7501429
-1657.3628 1272.4041 4523.3213 7567222
-1622.3951 1266.0325 4500.6704 7633015
-1597.7612 1267.6465 4506.4082 7435636
-1572.2346 1268.5951 4509.7808 7435636
-1550.2692 1272.4996 4523.6611 7435636
-1556.8062 1300.3486 4622.6626 7435636
-1511.0629 1284.7452 4567.1934 7501429
-1503.5887 1301.7034 4627.479 7633015
-1435.0571 1265.4504 4498.6016 7633015
-1408.046 1265.1313 4497.4673 7567222
-1357.0416 1242.826 4418.1733 7698808
-1424.0242 1329.8254 4727.4512 7633015
-1398.2482 1331.9556 4735.0234 7567222
-1383.7645 1345.1499 4781.9287 7304050
-1355.1311 1344.8536 4780.8755 7369843
-1237.6179 1254.4558 4459.5161 7435379
-1310.7092 1357.526 4825.9248 7435379
-1296.5618 1372.824 4880.3081 7369843
-1264.8774 1369.8279 4869.6572 7369843
-1149.7391 1274.2036 4529.7188 7304050
-1208.144 1370.9353 4873.5942 7238514
-1174.772 1365.7108 4855.0215 7238514
-1141.7999 1360.7008 4837.2109 7172464
-1037.5234 1268.27 4508.625 7304050
-1079.619 1354.6078 4815.5508 7238514
-1055.2194 1359.9359 4834.4922 7304050
-990.35791 1311.9607 4663.9429 7369840
-996.40192 1357.858 4827.1055 7304048
-923.328 1295.4631 4605.2949 7369070
-888.60303 1284.7114 4567.0732 7500912
-864.57574 1289.2362 4583.1587 7303534
-869.14459 1338.0795 4756.7935 7500913
-798.16809 1269.9938 4514.7529 7632499
-771.41638 1269.9938 4514.7529 7500913
-745.15955 1270.8378 4517.7534 7632499
-718.24652 1270.584 4516.8511 7566706
-688.4895 1265.0846 4497.3013 7566706
-663.14166 1267.5704 4506.1382 7566706
-636.70477 1268.0958 4508.0059 7632499
-609.1076 1266.2551 4501.4624 7632499
-581.38702 1263.9775 4493.3657 7566706
-553.05945 1260.0983 4479.5752 7500913
-534.05707 1278.146 4543.7334 7566706
-514.04266 1295.5588 4605.6353 7698292
-466.97067 1242.907 4418.4609 7566706
-445.32288 1255.6898 4463.9033 7500913
-416.72122 1249.241 4440.978 7500913
-384.13379 1229.1688 4369.6226 7632499
-362.93768 1245.2802 4426.8975 7632499
-335.90866 1242.3292 4416.4072 7764085
-304.27737 1220.4207 4338.5234 7698292
-278.29227 1219.2045 4334.1997 7961464
-256.16766 1236.3733 4395.2339 7435120
-230.68285 1239.375 4405.9053 7303534
-205.19035 1243.0964 4419.1343 7237741
-179.30353 1245.1681 4426.499 7435120
-153.49998 1248.627 4438.7954 7632499
-127.38483 1250.4578 4445.3037 7632499
-102.36396 1266.785 4503.3462 7632499
-74.735802 1250.9832 4447.1714 7632499
-48.506943 1254.1483 4458.4233 7369327
-22.152077 1257.7299 4471.1558 7435120
4.3628516 1263.9688 4493.3345 7566706
31.150625 1270.616 4516.9648 7632499
57.381718 1258.9061 4475.3369 7698292
84.007309 1260.5179 4481.0669 7698292
110.45477 1259.3246 4476.8247 7566706
137.43144 1263.4589 4491.5215 7566706
163.93524 1262.6096 4488.5024 7632499
189.91684 1258.5369 4474.0244 7632499
220.00357 1279.3335 4547.9551 7566706
247.28654 1281.0664 4554.1157 7698292
271.57083 1268.4521 4509.2725 7698292
299.81689 1274.9448 4532.3535 7764085
327.49411 1278.1498 4543.7471 7764085
353.69022 1275.5265 4534.4214 7698292
381.09741 1277.3328 4540.8428 7698292
408.04691 1277.468 4541.3232 7829878
437.16577 1283.9579 4564.3945 7829878
463.96262 1283.269 4561.9458 7500913
491.22894 1283.8832 4564.1289 7698293
519.43555 1286.7626 4574.3647 7698294
545.92267 1285.308 4569.1938 7829880
575.85864 1291.7269 4592.0132 7698294
603.21594 1292.0436 4593.1387 7632502
629.50885 1290.1512 4586.4116 7632499
658.61237 1293.9375 4599.8716 7764085
685.16162 1292.604 4595.1309 7698292
715.75909 1298.7179 4616.8652 7764085
739.38483 1292.1971 4593.6846 7764085
764.58459 1288.7928 4581.5825 7698292
791.16406 1287.8679 4578.2944 7632499
818.47009 1288.1477 4579.2891 7698292
845.35065 1287.7615 4577.916 7764085
874.55585 1290.8303 4588.8257 7698292
901.54382 1290.5403 4587.7944 7632499
929.72516 1291.9253 4592.7183 7566706
954.37268 1288.4609 4580.4023 7632499
978.44635 1284.4347 4566.0894 7500913
1011.2858 1291.8225 4592.353 7566706
1031.5773 1283.2144 4561.7515 7632499
1063.8195 1289.5322 4584.2109 7698292
1099.322 1299.3892 4619.252 7566706
1124.1288 1296.432 4608.7393 7566706
1156.0764 1301.6552 4627.3071 7566708
1178.1254 1295.7493 4606.3125 7566708
1219.8467 1311.2576 4661.4434 7698294
1244.318 1307.9469 4649.6738 7632501
1277.1666 1313.3945 4669.04 7829881
1303.5498 1312.1034 4664.4502 7961464
1328.3069 1309.2632 4654.353 7764085
1359.0089 1312.2788 4665.0737 7698292
1392.0745 1317.411 4683.3184 7829878
1421.4083 1318.8801 4688.541 7764085
1440.8988 1311.3346 4661.7173 7698292
1447.3021 1292.3866 4594.3584 7698292
1483.7065 1300.4336 4622.9648 7698292
1520.2482 1308.3068 4650.9536 7632499
1552.49 1312.2651 4665.0254 7764085
1577.2562 1309.877 4656.5352 7764085
1593.6274 1300.7186 4623.978 7764085
1615.7478 1296.483 4608.9209 7435120
1642.0632 1295.6985 4606.1318 7632499
1669.9569 1296.1646 4607.7886 7632499
1692.9177 1292.8485 4596.0005 7764085
1711.6465 1286.4567 4573.2778 7764085
1736.1632 1284.5466 4566.4873 7632499
1763.9297 1285.0625 4568.3213 7632499
1787.4833 1282.5402 4559.3545 7632499
1824.0936 1289.3217 4583.4624 7632501
1839.7987 1281.3445 4555.104 7698294
1864.7582 1279.9502 4550.1475 7698294
1896.2253 1282.9989 4560.9854 7829880
1941.9324 1295.4612 4605.2881 7829367
1974.2391 1298.7627 4617.0249 7566708
1966.4882 1275.9819 4536.0405 7500915
2011.0455 1287.2988 4576.2715 7698294
2028.9933 1281.5079 4555.6851 7764087
2064.885 1287.0538 4575.4004 7829880
2095.1079 1288.9684 4582.2065 7764087
2129.5327 1293.3859 4597.9102 7895673
2160.2139 1295.4468 4605.2368 7764087
2203.4866 1304.913 4638.8887 7764087
2220.239 1298.6342 4616.5679 7764087
2262.3213 1307.1436 4646.8179 7764087
2275.2681 1298.8163 4617.2153 7764087
2298.625 1296.5591 4609.1909 8027259
2344.2759 1306.7821 4645.5332 7895673
2379.1064 1310.8064 4659.8394 7895673
2413.7747 1314.6497 4673.502 7961466
2440.2424 1313.9904 4671.1582 7895673
2463.4695 1311.6204 4662.7329 7961466
2500.321 1316.4764 4679.9961 7961466
2538.3511 1321.8397 4699.062 7961466
2568.6663 1323.1127 4703.5874 7961466
2600.1228 1324.9399 4710.083 7961466
2623.2378 1322.5228 4701.4907 7698294
2656.311 1325.1245 4710.7393 7698294
2673.4968 1319.8289 4691.9136 7698294
2705.1125 1321.6924 4698.5386 7698294
2736.1943 1323.2598 4704.1104 7960953
2729.3142 1306.6218 4644.9634 7961466
2774.8076 1315.1389 4675.2412 7895673
2808.8411 1318.1097 4685.8022 7764087
2861.3501 1329.6077 4726.6768 7764087
2879.3914 1325.0215 4710.373 7698294
2908.8284 1325.717 4712.8457 7632501
2925.1826 1320.4934 4694.2764 7566708
2975.5867 1330.5944 4730.1846 7632501
2989.5293 1324.3546 4708.0024 7566708
3014.2668 1322.968 4703.0732 7566708
3045.7126 1324.524 4708.605 7566708
3072.1187 1323.8801 4706.3154 7566708
3100.3914 1324.0449 4706.9014 7566708
3123.9507 1322.2118 4700.3848 7697782
3157.5964 1324.6425 4709.0259 7566965
3204.6401 1332.6019 4737.3213 7566708
3226.0652 1329.8624 4727.5825 7566708
3254.0872 1329.8663 4727.5962 7566708
3289.394 1332.8215 4738.1021 7698294
3304.2703 1327.5188 4719.251 7632501
3332.5613 1327.6494 4719.7153 7632501
3355.5715 1325.6915 4712.7549 7632501
3385.6882 1326.55 4715.8071 7632501
3405.4226 1323.3604 4704.4678 7632501
3428.626 1321.5592 4698.0649 7632501
3468.1184 1326.0151 4713.9058 7764087
3486.9358 1322.5583 4701.6167 7632501
3515.2422 1322.7266 4702.2148 7698294
3529.6748 1317.7129 4684.3916 7764087
3572.7083 1323.3716 4704.5078 7764087
3584.3242 1317.3951 4683.2622 7764087
3612.6399 1317.6014 4683.9956 7764087
3647.7703 1320.271 4693.4854 7764087
3669.1208 1317.9506 4685.2363 7830136
3677.7734 1311.1379 4661.0181 7829881
3705.1096 1311.0381 4660.6631 7764087
3748.5378 1316.5917 4680.4058 7632501
3771.9556 1315.0872 4675.0571 7764087
3812.0142 1319.3639 4690.2607 7698294
3839.6094 1319.2964 4690.021 7829880
3854.5056 1314.8978 4674.3843 7632501
3874.5413 1312.3026 4665.1587 7632501
3897.3169 1310.6659 4659.3398 7566708
3939.0339 1315.3772 4676.0884 7500915
3968.6052 1315.9951 4678.2852 7500915
4010.4463 1320.645 4694.8149 7500915
4011.4888 1311.8883 4663.6855 7632501
4010.8206 1302.6958 4631.0068 7566708
4042.8223 1304.1672 4636.2373 7566708
4132.5908 1324.1279 4707.1968 7500915
4078.478 1298.0287 4614.4155 7566195
4095.7798 1294.8545 4603.1313 7697781
4128.1104 1296.442 4608.7749 7697781
4244.6719 1324.2878 4707.7651 7763574
4234.5225 1312.4958 4665.8452 7763574
4271.2896 1315.3042 4675.8291 7697781
4299.5591 1315.4767 4676.4419 7763574
4263.7524 1296.1678 4607.8003 7631988
4291.2827 1296.2366 4608.0444 7566195
4294.1626 1288.9053 4581.9824 7631988
4349.1533 1297.2092 4611.5024 7631988
4393.7358 1302.3246 4629.687 7566195
4441.7495 1308.387 4651.2383 7631990
0 0 0 0
0 0 0 0
0 0 0 0
0 0 0 0
0 0 0 0
0 0 0 0
-3759.8584 1200.3263 4179.0596 1975597
-3736.1013 1200.6494 4180.1846 1975597
-3712.4089 1200.9978 4181.3975 1975597
-3692.9036 1202.7146 4187.3745 1975597
-3658.9385 1199.7133 4176.9253 1975597
-3645.636 1203.4924 4190.0825 1975598
-3615.0938 1201.593 4183.4697 1909802
-3582.4885 1198.9769 4174.3618 1909802
-3566.554 1201.9427 4184.6875 2041388
-3529.7029 1197.8517 4170.4438 2107181
-3517.6584 1202.1807 4185.5156 2172717
-3477.2793 1196.8188 4166.8481 2369839
-3461.5696 1199.932 4177.6865 2304303
-3419.4014 1193.8522 4156.519 2238510
-3366.6357 1183.9572 4122.0688 2238253
-3366.9375 1192.7166 4152.5654 2172460
-3329.8413 1188.2592 4137.0469 2238253
-3302.9065 1187.3889 4134.0166 2303789
-3265.0081 1182.5345 4117.1157 2238510
-3223.4351 1176.2662 4095.2922 2304046
-3191.373 1173.4 4085.313 2238510
-3148.2373 1166.3871 4060.8967 2238253
-3121.6279 1165.4363 4057.5864 2238253
-3087.1382 1161.5056 4043.9016 2238253
-3069.2271 1163.8 4051.8896 2304046
-3042.2485 1162.6652 4047.9385 2369839
-3027.5356 1166.2371 4060.3745 2369839
-3000.0254 1164.8972 4055.7095 2238767
-2985.1572 1168.484 4068.1973 2238767
-2956.5735 1166.7169 4062.0452 2172974
-2928.7278 1165.2145 4056.8142 2107181
-2881.0864 1155.7461 4023.8489 2172974
-2882.3218 1165.8901 4059.1667 2041388
-2865.0081 1168.6388 4068.7363 2041388
-2844.1494 1169.9758 4073.3914 2304560
-2828.8518 1173.6429 4086.1584 2238767
-2801.6873 1172.4075 4081.8572 2107181
-2795.5054 1180.0074 4108.3174 2107181
-2764.4055 1177.1305 4098.3008 2238767
-2714.6421 1166.1847 4060.1919 2304560
-2720.3645 1179.0927 4105.1323 2238767
-2699.573 1180.6377 4110.5117 2238767
-2690.2019 1187.2511 4133.5371 2238767
-2665.5608 1187.1852 4133.3071 2370353
-2651.5083 1191.8776 4149.6445 2238767
-2623.7859 1190.4554 4144.6934 2238767
-2603.9265 1192.608 4152.1875 2304303
-2574.0115 1190.152 4143.6367 2369840
-2561.7112 1195.8718 4163.5508 2501425
-2540.1128 1197.3199 4168.5928 2435632
-2513.6699 1196.4907 4165.7056 2304046
-2489.8027 1196.8832 4167.0718 2435632
-2465.8054 1197.2202 4168.2451 2435889
-2442.9468 1198.1224 4171.3867 2501425
-2417.8271 1197.9231 4170.6924 2633011
-2399.7603 1201.25 4182.2754 2567475
-2370.969 1199.2218 4175.2144 2501939
-2339.8975 1195.9856 4163.9468 2436146
-2317.4155 1197.1174 4167.8877 2436147
-2269.7761 1185.1381 4126.1802 2501939
-2252.0317 1188.677 4138.5015 2567732
-2235.8923 1193.1504 4154.0762 2501939
-2208.905 1191.8701 4149.6187 2370354
-2178.075 1188.4642 4137.7607 2304560
-2142.9211 1182.5947 4117.3252 2304560
-2130.6279 1189.3512 4140.8486 2370353
-2105.7581 1189.1627 4140.1924 2370353
-2083.7307 1190.5939 4145.1753 2436146
-2094.0171 1210.7429 4215.3262 2436146
-2076.3403 1215.015 4230.2002 2436146
-2047.0083 1212.488 4221.4019 2370354
-2024.6682 1214.0912 4226.9834 2436146
-1992.9131 1210.0181 4212.8022 2501939
-1977.5035 1215.8917 4233.2524 2501939
-1960.428 1220.8789 4250.6157 2436146
-1935.9043 1221.2972 4252.0718 2633526
-1921.2843 1228.0566 4275.6055 3094075
-1908.9438 1236.4734 4304.9092 3489090
-1869.8196 1227.5344 4273.7876 4147018
-1870.7737 1245.0228 4334.6753 5068119
-1828.1382 1233.5848 4294.8525 5594463
-1796.5948 1229.4143 4280.3325 6054757
-1800.7463 1249.9003 4351.6562 6580843
-1786.3939 1257.951 4379.686 6975600
-1753.9391 1253.3038 4363.5063 7238772
-1756.0173 1273.5631 4434.041 7370100
-1718.6244 1265.3761 4405.5371 7435893
-1685.0237 1259.7717 4386.0249 7435636
-1654.4597 1256.2977 4373.9297 7435636
-1639.1139 1264.4529 4402.3228 7369843
-1600.4347 1254.5807 4367.9517 7106671
-1553.7892 1238.0365 4310.3516 7304050
-1555.8307 1260.3807 4388.145 7304050
-1528.5404 1259.319 4384.4487 7435636
-1502.1619 1258.9846 4383.2847 7369843
-1475.6469 1258.5221 4381.6743 7501429
-1446.8165 1256.033 4373.0083 7369843
-1415.7471 1251.4739 4357.1353 7369843
-1398.8645 1259.519 4385.145 7435122
-1368.6436 1255.6317 4371.6108 7435379
-1334.5159 1247.9412 4344.8354 7369329
-1330.577 1268.7335 4417.2266 7369843
-1298.5746 1263.0645 4397.4888 7369843
-1265.4299 1256.0294 4372.9956 7304050
-1243.127 1259.6862 4385.7271 7172464
-1209.3547 1251.629 4357.6753 7238257
-1180.8535 1248.7947 4347.8071 7238257
-1166.714 1261.3605 4391.5562 7304050
-1155.2585 1277.4677 4447.6353 7238257
-1130.8273 1279.6433 4455.21 7238514
-1102.6731 1277.6096 4448.1294 7303793
-1081.0293 1283.2041 4467.6074 7303793
-1043.1082 1269.2732 4419.1055 7303536
-1084.8231 1354.0226 4714.1689 7303536
-997.60364 1278.0687 4449.728 7303793
-935.84283 1231.4926 4287.5684 7434866
-910.48407 1231.5559 4287.7886 7435120
-898.20294 1249.8199 4351.377 7500913
-867.64313 1242.9777 4327.5547 7171948
-851.67194 1257.2548 4377.2617 7435120
-821.72852 1251.1545 4356.0234 7369327
-798.15723 1254.6758 4368.2827 7435120
-776.4259 1261.422 4391.7705 7369327
-748.12567 1257.594 4378.4429 7500913
-724.72522 1262.0233 4393.8643 7500913
-700.18982 1264.7328 4403.2974 7303534
-670.88831 1258.71 4382.3281 7369327
-644.20581 1257.3135 4377.4663 7435120
-616.21637 1253.1422 4362.9438 7369327
-590.51056 1253.453 4364.0254 7303534
-554.36902 1230.626 4284.5513 7895671
-531.05914 1235.46 4301.3809 7435120
-519.44037 1269.3506 4419.375 7435119
-498.40228 1282.5999 4465.5034 7500913
-456.79105 1241.423 4322.1421 7500913
-430.93326 1240.7108 4319.6621 7500912
-397.1207 1215.5597 4232.0962 7435120
-376.14273 1228.9518 4278.7222 7435120
-345.52084 1210.4933 4214.457 7435120
-319.97034 1208.3101 4206.856 7500913
-294.49896 1206.0819 4199.0981 8093050
-272.38126 1218.4445 4242.1396 7303534
-246.11873 1212.8947 4222.8179 7237741
-221.54507 1215.3536 4231.3789 7237741
-197.64911 1222.6323 4256.7202 7369327
-172.27354 1221.549 4252.9482 7303534
-148.05745 1229.7245 4281.4126 7303534
-124.44892 1247.371 4342.8501 7566706
-98.829788 1248.8114 4347.8652 7566706
-73.011703 1247.8673 4344.5786 7171948
-47.20129 1246.0977 4338.417 7303534
-21.516808 1247.3949 4342.9336 7435120
4.2579498 1259.5621 4385.2954 7435120
29.957621 1247.6937 4343.9741 7237741
56.002289 1254.5234 4367.7524 7435120
81.702576 1251.7594 4358.1294 7237741
107.1965 1247.9208 4344.7646 7435376
132.64699 1245.1613 4335.1567 7171948
157.35854 1237.4857 4308.4341 7435120
185.00841 1251.8351 4358.3926 7435120
211.74922 1257.2715 4377.3198 7500913
237.44182 1255.9766 4372.8115 7435120
262.91309 1253.8811 4365.5161 7566706
289.43692 1256.731 4375.4385 7566706
315.64651 1257.8602 4379.3701 7500913
341.88162 1258.9119 4383.0312 7435120
369.53595 1264.6721 4403.0859 7566706
395.22961 1263.4049 4398.6743 7829878
423.09567 1268.8093 4417.4902 7566706
450.66373 1272.7424 4431.1836 7632499
477.83224 1275.1763 4439.6572 7764086
505.88464 1279.5916 4455.0298 7698294
530.1925 1274.5674 4437.5376 7764087
557.50238 1276.8937 4445.6367 7698294
584.32782 1277.9506 4449.3164 7698294
611.76367 1280.1936 4457.126 7632499
639.47711 1282.8079 4466.2275 7632499
665.10895 1281.2043 4460.645 7632499
692.80219 1283.5427 4468.7861 7698292
718.17035 1281.5598 4461.8823 7500913
744.47559 1281.3306 4461.0845 7369327
769.53699 1279.0497 4453.1431 7500913
795.16833 1277.8358 4448.917 7829878
814.83667 1267.4249 4412.6704 8027257
853.01416 1285.5559 4475.7954 7764085
871.81177 1274.2675 4436.4932 7829878
905.97955 1285.4475 4475.418 7698292
934.25342 1287.8672 4483.8423 7566706
949.11047 1272.1693 4429.1885 7632499
975.23029 1272.0063 4428.6211 7566706
1003.1701 1274.1637 4436.1318 7698292
1032.5238 1277.9608 4449.3521 7698292
1055.1128 1273.4044 4433.4888 7632499
1084.1066 1276.6117 4444.6548 7566706
1111.6492 1277.9984 4449.4829 7566708
1151.739 1293.4116 4503.1455 7566708
1176.5507 1291.3577 4495.9946 7632501
1205.6133 1293.9572 4505.0449 7566708
1238.8468 1300.8237 4528.9517 7829880
1264.3934 1299.4987 4524.3384 7698292
1295.4718 1303.7958 4539.2993 7698292
1318.1293 1299.6157 4524.7461 7698292
1346.8879 1301.4979 4531.2988 7764085
1372.9259 1300.7288 4528.6211 7632499
1392.1327 1293.6412 4503.9453 7632499
1418.0037 1292.8966 4501.3525 7632499
1442.5353 1290.9807 4494.6821 7500913
1479.245 1299.8356 4525.5112 7632499
1524.7299 1315.9486 4581.6104 7764085
1517.1532 1286.5031 4479.0928 7632499
1551.4594 1292.975 4501.6255 7698292
1573.6665 1289.3153 4488.8838 7764085
1590.6859 1281.5977 4462.0142 7829878
1598.8685 1267.1289 4411.6396 7764085
1625.4543 1267.476 4412.8481 7764085
1644.1184 1261.7328 4392.8525 7764085
1671.4991 1262.7537 4396.4067 7895671
1709.0245 1271.2894 4426.125 7895671
1739.8379 1274.6499 4437.8247 7566706
1743.2518 1258.1356 4380.3286 7632502
1777.3705 1263.9408 4400.54 7698294
1805.4799 1265.3666 4405.5039 7764087
1831.98 1265.64 4406.4561 7895673
1849.9458 1260.0925 4387.1421 7763831
1892.6681 1271.3281 4426.2598 7500915
1901.4082 1259.7422 4385.9224 7829880
1955.8702 1278.3527 4450.7163 7698294
1979.1969 1276.3885 4443.8779 7632501
2027.0077 1290.0585 4491.4712 7632501
2046.3154 1285.4689 4475.4922 7698294
2079.4333 1289.5613 4489.7402 7632501
2096.655 1283.8165 4469.7393 7632501
2126.791 1286.0243 4477.4258 7632501
2163.7659 1292.2618 4499.1426 7698294
2165.8657 1277.7728 4448.6978 7632501
2207.1555 1286.4747 4478.9941 7698294
2207.0674 1271.1387 4425.6001 8027259
2277.9956 1296.5835 4514.189 7829880
2310.7122 1299.941 4525.8784 7829880
2335.5647 1298.8483 4522.0737 7764087
2368.6147 1302.2871 4534.0469 7829880
2403.4795 1306.6356 4549.1865 7764087
2433.8572 1308.4755 4555.5918 7895673
2445.3379 1300.2268 4526.8735 7764087
2476.4202 1302.4667 4534.6719 7829880
2551.6541 1327.6306 4622.2827 7698294
2551.282 1313.34 4572.5283 7764087
2572.3542 1310.2727 4561.8491 7435122
2611.8352 1316.5485 4583.6987 7632501
2629.5247 1311.8236 4567.249 7566708
2669.6233 1318.2607 4589.6606 7565938
2693.7319 1316.7517 4584.4067 7961466
2718.5181 1315.6007 4580.3994 7829880
2730.7197 1308.4425 4555.4775 7632501
2780.5632 1319.2844 4593.2246 7632501
2793.8989 1312.7622 4570.5166 7566708
2817.3528 1311.0737 4564.6382 7500915
2844.7708 1311.2445 4565.2329 7435122
2870.374 1310.5837 4562.9321 7435122
2870.6252 1298.4677 4520.7485 7237743
2890.2576 1295.2611 4509.585 7500915
2952.4338 1311.0048 4564.3979 7632501
2971.5054 1307.496 4552.1816 7500915
3032.0908 1322.1525 4603.21 7369329
2957.8123 1278.2642 4450.4082 7369072
2977.3899 1275.3545 4440.2778 7435379
3082.8757 1308.9718 4557.3203 7435122
3119.269 1312.924 4571.0801 7369329
3147.0093 1313.1973 4572.0312 7369329
3154.1099 1304.9266 4543.2363 7369329
3196.8281 1311.4072 4565.7993 7500915
3233.032 1315.129 4578.7573 7500915
3229.9531 1302.9426 4536.3291 7500915
3293.9834 1317.8053 4588.0747 7500915
3324.4678 1319.1139 4592.6309 7500915
3326.6326 1309.2559 4558.3091 7566708
3353.7581 1309.3009 4558.4658 7500915
3368.1746 1304.4233 4541.4844 7566708
3402.283 1307.1891 4551.1133 7632501
3435.2563 1309.4785 4559.0845 7632501
3462.7969 1309.6776 4559.7773 7764087
3485.4377 1308.0347 4554.0576 7698294
3514.1343 1308.6721 4556.2769 7764087
3538.0854 1307.5463 4552.3569 7698294
3560.0391 1305.7048 4545.9458 7829879
3589.251 1306.533 4548.8291 7763832
3612.3821 1305.152 4544.021 7829880
3637.7271 1304.5853 4542.0479 7632501
3670.0867 1306.5242 4548.7983 7698294
3685.0044 1302.2706 4533.9893 7632501
3711.0291 1301.9756 4532.9619 7566708
3746.26 1304.8916 4543.1143 7435122
3770.6553 1304.0184 4540.0742 7435122
3802.738 1305.7975 4546.2686 7369329
3832.2395 1306.6714 4549.311 7435122
3870.355 1310.4497 4562.4653 7435122
3880.2344 1304.6816 4542.3833 7303536
3896.9556 1301.2775 4530.5312 7500915
3893.644 1291.2762 4495.7114 7566708
3942.5649 1298.6156 4521.2642 7435122
3956.8713 1294.5315 4507.0444 7303793
3973.3591 1291.2108 4495.4834 7434865
3994.0076 1289.2776 4488.7524 7434609
4017.3213 1288.2245 4485.0859 7434609
4045.7549 1288.8163 4487.1465 7500402
4061.6584 1285.4348 4475.3735 7434609
4095.1184 1287.6174 4482.9727 7566195
4082.7122 1275.4432 4440.5869 7566195
4152.436 1288.9183 4487.502 7500402
4157.4126 1282.2521 4464.2925 7500402
4197.2832 1286.3643 4478.6099 7500402
4234.6147 1289.6515 4490.0547 7566195
4206.5742 1273.113 4432.4741 7566195
4346.8345 1307.3999 4551.8472 7566197
0 0 0 0
0 0 0 0
0 0 0 0
0 0 0 0
0 0 0 0
0 0 0 0
-3638.6062 1185.5808 4044.2883 1844011
-3613.2566 1185.1265 4042.7383 1910061
-3587.8682 1184.6531 4041.1235 1975597
-3563.6917 1184.5762 4040.8613 1975597
-3523.4248 1179.1136 4022.2273 1844011
-3527.9055 1188.6536 4054.77 1909804
-3483.7612 1181.8286 4031.4888 1778473
-3464.5698 1183.433 4036.9614 1975595
-3439.427 1183.0126 4035.5273 1975595
-3415.6099 1183.0454 4035.6396 1909802
-3405.2778 1187.7826 4051.7991 1844009
-3376.2493 1186.019 4045.7832 2040874
-3309.3291 1170.8245 3993.9509 2106667
-3275.2549 1167.1156 3981.2993 2106667
-3267.0269 1172.6296 4000.1089 2238253
-3236.8132 1170.2755 3992.0784 2304046
-3197.6504 1164.6271 3972.8105 2172974
-3172.1104 1163.8936 3970.3081 2172974
-3142.4578 1161.6285 3962.582 2238510
-3115.8872 1160.4775 3958.6553 2238510
-3088.8823 1159.146 3954.1133 2172460
-3056.0139 1155.5769 3941.9382 2106924
-3027.105 1153.4617 3934.7227 2238253
-3005.0605 1153.9495 3936.3867 2172460
-2975.9949 1151.7277 3928.8074 2172460
-2951.7156 1151.3379 3927.4778 2238253
-2921.033 1148.4242 3917.5388 2238253
-2903.5698 1150.703 3925.312 2041645
-2866.0659 1145.012 3905.8987 2107181
-2841.2017 1144.3192 3903.5354 2172974
-2828.3381 1148.488 3917.7563 2238767
-2801.6414 1147.0623 3912.8926 2238767
-2787.0474 1150.609 3924.9917 2172974
-2774.176 1154.9329 3939.7412 2238767
-2755.3489 1156.8296 3946.2112 2238767
-2730.8323 1156.3495 3944.5735 2172974
-2711.4653 1158.0605 3950.4104 2107181
-2684.8694 1156.6869 3945.7246 2238767
-2648.7422 1151.147 3926.8267 2436146
-2636.2031 1155.8512 3942.8735 2370353
-2572.4573 1137.9869 3881.9346 2567732
-2572.4487 1148.2505 3916.946 2501939
-2592.3511 1167.6691 3983.1875 2501939
-2588.0273 1176.4325 4013.0813 2436146
-2563.1279 1175.9186 4011.3281 2370354
-2549.5415 1180.6335 4027.4124 2436146
-2529.0793 1182.2239 4032.8372 2633011
-2479.7522 1170.2228 3991.8987 2567732
-2480.5127 1181.8551 4031.5789 2370354
-2462.0342 1184.4578 4040.4575 2370353
-2444.1675 1187.4091 4050.5247 2436403
-2429.5129 1191.9946 4066.1672 2567732
-2390.241 1184.473 4040.5095 2501939
-2366.7673 1184.7073 4041.3086 2567732
-2339.6714 1183.1146 4035.8755 2501939
-2317.1648 1183.8337 4038.3289 2567732
-2294.3357 1184.4014 4040.2651 2370353
-2266.6299 1182.437 4033.5642 2304560
-2251.2896 1186.9502 4048.96 2304560
-2222.6875 1184.4933 4040.5786 2304560
-2197.2644 1183.6954 4037.8569 2501939
-2173.8389 1183.968 4038.7866 2501939
-2149.5898 1183.7931 4038.1902 2501939
-2131.4172 1186.9982 4049.1233 2304560
-2094.6033 1179.7766 4024.489 2238767
-2112.3391 1203.4677 4105.3047 2238767
-2085.2715 1201.8872 4099.9131 2238767
-2070.5759 1207.4844 4119.0063 2304560
-2045.0935 1206.8497 4116.8413 2304560
-2026.1373 1210.0974 4127.9199 2304560
-2005.4181 1212.3585 4135.6333 2370353
-1988.3059 1216.8833 4151.0684 2304560
-1963.7092 1216.8833 4151.0684 2370353
-1957.6312 1228.5046 4190.7114 2501940
-1932.7996 1228.5046 4190.7114 2699575
-1907.0735 1227.9287 4188.7471 3620417
-1871.4313 1220.8687 4164.6631 4409933
-1856.3578 1227.2177 4186.3213 5002325
-1833.4596 1228.4957 4190.6812 5528412
-1781.9858 1210.399 4128.9492 6120547
-1773.0287 1221.0798 4165.3838 6580840
-1736.293 1212.6609 4136.665 6909806
-1743.7064 1235.2772 4213.814 7172464
-1754.6879 1261.115 4301.9526 7172464
-1717.2764 1252.4211 4272.2959 7172464
-1671.2245 1237.0713 4219.9341 6975085
-1639.5503 1232.0594 4202.8379 6843499
-1612.0975 1230.1143 4196.2021 6843499
-1591.0924 1233.105 4206.4043 6843499
-1568.6711 1235.0759 4213.1279 6777706
-1538.2363 1230.6995 4198.1982 6777706
-1508.9081 1227.0787 4185.8472 6580327
-1491.489 1233.1837 4206.6729 6777706
-1465.8114 1232.552 4204.5176 6975085
-1439.8563 1231.6608 4201.478 7106671
-1408.5815 1226.1079 4182.5356 7238257
-1394.4261 1235.5247 4214.6582 7172464
-1371.8774 1237.7123 4222.1211 7172464
-1364.252 1253.6952 4276.6421 7172464
-1314.0343 1230.4017 4197.1826 7303793
-1293.2721 1234.3223 4210.5566 7369586
-1240.5767 1207.3198 4118.4453 7303536
-1234.5076 1225.5206 4180.5322 7171950
-1263.9507 1280.4426 4367.8838 7040878
-1245.355 1287.9775 4393.5874 7106671
-1222.2998 1291.124 4404.3203 7172464
-1195.7253 1290.6091 4402.564 7106671
-1125.276 1241.6584 4235.582 7106671
-1105.8428 1248.0513 4257.3892 7040878
-1129.5618 1304.5808 4450.2246 7106928
-1048.4495 1239.8445 4229.394 7040878
-994.79523 1205.2032 4111.2251 7040878
-1002.6041 1245.1554 4247.5107 7106671
-978.53821 1246.5594 4252.3008 7040878
-973.35431 1272.7275 4341.5659 7040878
-914.28058 1227.9386 4188.7808 7040364
-889.38025 1227.8282 4188.4038 7040362
-874.35632 1241.7373 4235.8511 6974569
-852.49261 1246.4679 4251.9883 6974569
-835.11639 1258.2478 4292.1724 6974569
-813.81494 1264.6681 4314.0732 7040362
-775.81183 1244.7086 4245.9868 7106155
-758.76233 1258.1558 4291.8584 7303534
-730.4184 1253.1583 4274.8105 7237741
-703.95801 1251.149 4267.9565 7237741
-682.50189 1258.2158 4292.063 7106155
-658.11145 1260.2106 4298.8677 6908776
-613.9433 1222.9692 4171.8286 7040362
-598.51294 1242.2499 4237.5996 6974569
-579.61749 1255.7123 4283.5229 7237741
-545.78937 1236.5753 4218.2422 7237741
-520.98602 1237.0297 4219.7925 7171948
-493.93707 1231.9294 4202.394 7171948
-468.54529 1230.64 4197.9956 7303534
-437.53568 1213.6234 4139.9482 7303534
-412.47711 1212.0729 4134.6587 7237741
-387.20889 1209.6711 4126.4663 7303534
-360.66446 1202.6903 4102.6528 7369327
-335.28824 1198.8773 4089.6458 7369327
-310.70901 1197.5422 4085.0913 7369327
-287.89655 1203.3661 4104.958 7829878
-262.52414 1198.5774 4088.6226 7500912
-238.04118 1197.2886 4084.2263 7500913
-215.75922 1208.0314 4120.8726 7369327
-192.15355 1213.1589 4138.3638 7171948
-167.21927 1210.1714 4128.1724 7303534
-143.21867 1214.0748 4141.4883 7237741
-119.26941 1220.1179 4162.1025 7303534
-94.719345 1221.5632 4167.0327 7040362
-70.098846 1222.7991 4171.2485 7237741
-45.381512 1222.7719 4171.1553 7237741
-20.647381 1221.6853 4167.4492 7303534
4.0571198 1224.9128 4178.459 7303790
28.86904 1227.1603 4186.1255 7303534
53.551609 1224.3732 4176.6182 7171948
78.512543 1227.7006 4187.9688 7040362
103.57824 1230.6746 4198.1138 7237741
128.73241 1233.3442 4207.2207 7303534
152.63782 1225.1249 4179.1821 7303534
178.40604 1232.0645 4202.855 7303534
204.02669 1236.4099 4217.6782 7237741
227.93701 1230.5731 4197.7676 7632499
254.60281 1239.2976 4227.5288 7961464
276.45193 1225.1135 4179.1436 7435120
304.50006 1238.4746 4224.7212 7632499
329.89352 1239.8285 4229.3398 7632499
356.71893 1245.9932 4250.3687 7500913
383.86771 1252.3998 4272.2231 7500913
413.80154 1266.5377 4320.4512 7500913
436.1279 1257.1006 4288.2588 7500913
462.45667 1259.6041 4296.7988 7500914
489.78961 1264.4387 4313.2905 7435122
516.46014 1267.1683 4322.6021 7566708
540.3634 1263.1711 4308.9668 7435122
564.84601 1260.828 4300.9736 7566708
593.67731 1267.975 4325.354 7566706
617.35175 1263.9723 4311.6997 7500913
644.08844 1266.3082 4319.668 7566706
671.5965 1269.9242 4332.0029 7500913
692.14758 1260.6031 4300.207 7632499
718.7063 1262.4973 4306.6685 7698292
745.91327 1265.3612 4316.4375 7632499
776.40039 1273.4152 4343.9116 7632499
792.72247 1258.4648 4292.9126 7764085
813.78876 1251.7417 4269.978 7961464
837.20691 1248.9325 4260.3955 8027257
865.32935 1253.1001 4274.6118 8093050
886.3399 1247.0244 4253.8867 7961464
916.7348 1254.123 4278.1016 7961464
942.95764 1255.2858 4282.0679 7829878
966.25171 1252.5907 4272.8745 7764085
998.38257 1261.1964 4302.2305 7566706
1026.6008 1264.5541 4313.6841 7764085
1054.0892 1266.8713 4321.5889 7698292
1086.1659 1274.4624 4347.4839 7764087
1118.8417 1282.3883 4374.521 7632501
1140.1201 1277.1879 4356.7812 7632501
1169.924 1281.5566 4371.6841 7698294
1199.1521 1285.1191 4383.8364 7632501
1228.5044 1288.6606 4395.9175 7764085
1253.5372 1287.6184 4392.3618 7632499
1274.8907 1282.9159 4376.3208 7632499
1299.0568 1281.1749 4370.3818 7566706
1328.931 1285.0214 4383.5029 7566706
1351.1411 1281.4517 4371.3257 7632499
1380.014 1284.2163 4380.7568 7500913
1404.0463 1282.4576 4374.7573 7632499
1430.3555 1282.8047 4375.9414 7632499
1442.9175 1271.0299 4335.7749 7435120
1468.9634 1271.3369 4336.8223 7500913
1483.9303 1262.2097 4305.687 7500913
1492.0282 1247.6471 4256.0107 7500913
1519.5442 1249.5363 4262.4551 7500913
1545.3651 1249.9926 4264.0117 7566706
1568.1257 1247.9987 4257.21 7764085
1595.072 1249.3463 4261.8071 7698292
1622.978 1251.3921 4268.7856 7500913
1640.8574 1245.7626 4249.582 7566706
1666.3259 1245.978 4250.3169 7566706
1689.7899 1244.7103 4245.9927 7632502
1710.9897 1241.8367 4236.1899 7566708
1737.327 1242.7208 4239.2061 7632501
1774.6609 1251.3336 4268.5864 7566708
1813.0778 1260.4574 4299.7095 7566451
1838.0356 1260.1013 4298.4946 7566964
1879.2506 1270.7477 4334.812 7698294
1905.5764 1271.1747 4336.269 7698294
1917.0583 1261.8202 4304.3584 7566708
1938.8727 1259.4229 4296.1807 7632501
1974.5531 1265.9778 4318.541 7435122
2013.0717 1274.1615 4346.4575 7369329
2043.1125 1276.8402 4355.5952 7566708
2039.9332 1258.9503 4294.5684 7632501
2071.8584 1262.8989 4308.0381 7698294
2077.7361 1251.0677 4267.6792 7698294
2128.9048 1266.464 4320.1992 7829880
2139.5823 1257.6929 4290.2793 7895673
2165.1677 1257.788 4290.6035 7698294
2193.7224 1259.5858 4296.7363 7500915
2267.6199 1287.0786 4390.5205 7566708
2255.4214 1265.6345 4317.3701 7764087
2282.3223 1266.3662 4319.8662 7764087
2300.1433 1262.0996 4305.3115 7829880
2368.4321 1285.3147 4384.5034 7698294
2412.2004 1294.8635 4417.0767 7632501
2436.0381 1293.6233 4412.8462 7698294
2437.8486 1280.8365 4369.2275 7566708
2480.3201 1289.4572 4398.6343 7500915
2527.8862 1300.5194 4436.3706 7435122
2544.0842 1295.3823 4418.8467 7435122
2570.0171 1295.2561 4418.416 7368559
2566.3706 1280.375 4367.6533 7369329
2576.0901 1272.3928 4340.4243 7435122
2620.2434 1281.4081 4371.1772 7500915
2644.7544 1280.7351 4368.8813 7435122
2665.7412 1278.385 4360.8647 7500915
2720.7996 1292.2625 4408.2041 7369329
2696.4355 1268.5126 4327.1875 7435122
2763.0903 1287.6256 4392.3867 7303536
2768.0237 1277.8877 4359.1685 7040364
2815.582 1287.8262 4393.0708 7106157
2815.2449 1275.8762 4352.3066 6974571
2853.4333 1281.4446 4371.3018 6974571
2832.4194 1260.5648 4300.0762 6908778
2861.0591 1261.9586 4304.8306 6974315
2883.7786 1260.7396 4300.6724 7238000
2961.6421 1283.4388 4378.1045 7303536
2944.4714 1264.918 4314.9258 7237999
2976.7686 1267.7841 4324.7026 7237743
3024.1506 1276.9709 4356.041 7237743
3088.801 1293.2322 4411.5117 7171950
3122.3403 1296.3042 4421.9912 7171950
3158.4695 1300.3912 4435.9331 7106157
3124.1614 1275.6501 4351.5356 7237743
3173.8806 1285.3431 4384.6006 7435122
3230.6462 1297.7091 4426.7837 7369329
3251.834 1295.6998 4419.9297 7303536
3277.7559 1295.594 4419.5684 7172206
3311.4558 1298.5397 4429.6172 7369329
3330.2964 1295.6582 4419.7876 7303536
3383.4285 1306.0586 4455.2656 7435122
3402.6711 1303.3175 4445.915 7632501
3425.0996 1301.8292 4440.8384 7829880
3449.7676 1301.2086 4438.7212 7632501
3455.9963 1293.6948 4413.0898 7566708
3510.3391 1304.1692 4448.8203 7632247
3516.5022 1296.7212 4423.4136 7632501
3555.3657 1301.3524 4439.2119 7698294
3596.7051 1306.8153 4457.8472 7435122
3625.1218 1307.5375 4460.3105 7369329
3662.5193 1311.465 4473.708 7303536
3684.835 1309.9745 4468.6235 7237743
3696.6143 1304.7863 4450.9253 7435122
3722.4766 1304.6069 4450.314 7369329
3750.5815 1305.2107 4452.3735 7500915
3765.78 1301.3462 4439.1904 7566708
3815.5945 1309.4143 4466.7129 7369329
3808.8911 1298.1095 4428.1494 7369329
3830.7976 1296.6432 4423.1475 7369586
3860.8264 1297.9272 4427.5278 7435122
3870.4956 1292.3958 4408.6587 7500915
3901.0679 1293.8713 4413.6924 7566452
3922.9316 1292.4584 4408.8726 7434609
3956.5166 1294.9001 4417.2017 7434609
3972.3853 1291.5496 4405.772 7303023
3986.8906 1287.8025 4392.9897 7434609
4005.0627 1285.2808 4384.3877 7303023
4009.0742 1278.2764 4360.4941 7434609
4027.9836 1276.0814 4353.0068 7368816
4059.5945 1277.9127 4359.2539 7434609
4125.8604 1290.561 4402.3999 7566195
4121.6899 1281.1564 4370.3184 7697781
4143.2319 1279.8114 4365.7305 7631988
4290.3428 1317.0297 4492.6904 7697781
0 0 0 0
0 0 0 0
0 0 0 0
0 0 0 0
0 0 0 0
0 0 0 0
-3530.6177 1173.6473 3924.2598 1580838
-3515.1777 1176.2617 3933.0015 1515045
-3487.9758 1174.9489 3928.6118 1515045
-3466.8318 1175.6729 3931.0322 1515047
-3445.2444 1176.2551 3932.9792 1515047
-3421.0962 1175.9651 3932.0095 1646631
-3377.3088 1168.874 3908.2996 1712423
-3363.9641 1172.2938 3919.7344 1778216
-3322.8638 1166.0216 3898.7622 1844009
-3299.7361 1166.0125 3898.7317 1844009
-3270.9854 1164.0022 3892.0098 1909545
-3249.3047 1164.4971 3893.6646 1975081
-3222.6416 1163.2007 3889.3298 2041131
-3194.8442 1161.4734 3883.5544 2106667
-3163.9956 1158.6035 3873.9585 2172460
-3131.915 1155.2374 3862.7036 2106667
-3085.698 1146.569 3833.7195 2106667
-3063.5657 1146.7875 3834.4502 2106667
-3039.697 1146.3546 3833.0027 2106667
-3004.2927 1141.532 3816.8774 1909288
-2979.9016 1140.8525 3814.6057 1975081
-2958.125 1141.1715 3815.6721 2106667
-2930.1123 1139.0709 3808.6484 2106667
-2897.7888 1135.2489 3795.8691 2172460
-2877.9739 1136.3059 3799.4036 2172460
-2856.2981 1136.639 3800.5173 2172460
-2843.6213 1140.5872 3813.7183 2238253
-2813.8582 1137.6899 3804.0312 2041388
-2792.2463 1138.0686 3805.2971 2041388
-2780.2893 1142.4204 3819.8479 2107181
-2752.3362 1140.2169 3812.4802 2107181
-2730.4675 1140.5183 3813.4883 1909802
-2708.2458 1140.6761 3814.0159 2107181
-2686.9951 1141.2491 3815.9316 2107181
-2670.969 1144.0696 3825.3623 2172974
-2663.8479 1150.7853 3847.8174 2172974
-2649.3982 1154.4237 3859.9829 2304560
-2616.0027 1149.7982 3844.5171 2304560
-2605.1599 1155.0912 3862.2148 2304561
-2582.9041 1155.3728 3863.1562 2436146
-2558.5701 1154.7216 3860.9785 2567732
-2554.8281 1163.4357 3890.1157 2501939
-2529.7632 1162.51 3887.0205 2436146
-2499.3086 1159.0677 3875.5112 2501939
-2480.6936 1161.1034 3882.3171 2501939
-2459.21 1161.8218 3884.7195 2501939
-2447.4878 1167.209 3902.7322 2501425
-2429.814 1169.8337 3911.5083 2435632
-2412.6699 1172.7664 3921.314 2435632
-2381.8376 1169.0377 3908.8467 2435632
-2355.7439 1167.5844 3903.9873 2501425
-2330.8503 1166.7028 3901.0398 2566961
-2311.5383 1168.6256 3907.4688 2435632
-2287.7664 1168.3097 3906.4126 2238510
-2278.3059 1175.3706 3930.022 2304303
-2241.6606 1168.408 3906.7412 2238510
-2226.9607 1172.8577 3921.6196 2172974
-2207.5542 1174.8966 3928.4368 2238767
-2219.488 1193.8362 3991.7644 2107181
-2155.343 1171.8213 3918.1543 1975595
-2134.1072 1172.9102 3921.7947 2041388
-2147.261 1193.1315 3989.4077 2041388
-2115.8301 1188.7534 3974.7693 2304560
-2102.885 1194.78 3994.9199 2238767
-2087.0688 1199.2938 4010.0127 2304560
-2065.4238 1200.5237 4014.1248 2304560
-2047.4432 1203.9371 4025.5381 2370353
-2053.1062 1221.4974 4084.2537 2238767
-2015.7113 1213.5541 4057.6938 2304560
-1993.2444 1214.5148 4060.906 2238767
-1974.0524 1217.5187 4070.95 2238767
-1955.6588 1221.0955 4082.9094 2699318
-1935.3398 1223.5446 4091.0984 3225661
-1894.5256 1212.9342 4055.6211 4212811
-1876.9889 1217.1455 4069.7024 5330777
-1860.6476 1222.2517 4086.7759 5462620
-1805.4196 1201.6113 4017.7615 5857120
-1770.3406 1194.0088 3992.3413 6515306
-1739.1984 1188.8915 3975.2307 6712427
-1729.799 1198.7008 4008.0298 6909805
-1667.5962 1171.6826 3917.6907 7172977
-1692.15 1205.719 4031.4958 7238770
-1680.1836 1214.3352 4060.3057 7303793
-1593.866 1168.6847 3907.6667 7172464
-1577.306 1173.5914 3924.073 7040878
-1597.1545 1206.1399 4032.9033 7172464
-1565.3047 1200.0424 4012.5156 7238257
-1548.1541 1205.2001 4029.761 7172464
-1528.1146 1208.235 4039.9087 7238257
-1481.4768 1190.0013 3978.9419 7304050
-1468.2399 1198.4413 4007.1619 7369843
-1446.2531 1199.899 4012.0364 7304050
-1428.1287 1204.6638 4027.968 7172464
-1423.3939 1221.0769 4082.8477 7106671
-1380.6632 1204.8988 4028.7534 7106671
-1363.3019 1210.6805 4048.0857 7040878
-1336.9006 1208.4977 4040.7871 7040878
-1309.1025 1204.9496 4028.9233 7040878
-1313.354 1231.3174 4117.0879 6909549
-1249.9586 1194.0615 3992.5173 6777449
-1226.1188 1193.8835 3991.9226 7040621
-1200.6879 1192.1193 3986.0232 7106671
-1196.2482 1211.5436 4050.9712 6975085
-1165.1697 1204.2314 4026.522 7106671
-1148.8281 1212.163 4053.0427 7040878
-1116.5753 1203.2865 4023.3628 7040878
-1090.413 1200.7292 4014.812 7040878
-1089.0719 1225.9999 4099.3081 7040878
-1061.172 1221.8435 4085.4109 6975085
-1026.0953 1209.0367 4042.5894 7106414
-1045.8754 1261.7997 4219.0103 7237743
-979.77661 1211.001 4049.1572 7303536
-965.43939 1223.2349 4090.0632 7040621
-950.32269 1235.0859 4129.6885 6974828
-909.57739 1213.3748 4057.0942 6974828
-885.91095 1213.8865 4058.8052 6974571
-850.39624 1197.7391 4004.8142 7171948
-825.65009 1196.267 3999.8921 7106155
-805.73285 1201.9113 4018.7644 7237741
-776.34076 1193.3351 3990.0886 7237741
-754.59448 1196.3419 4000.1426 7171948
-745.25153 1219.8458 4078.7314 7040362
-730.58319 1235.9166 4132.4663 7237741
-708.06158 1239.3558 4143.9658 7237741
-673.86682 1221.8761 4085.5198 7237741
-636.95355 1197.9807 4005.6221 7040362
-625.55457 1222.0802 4086.2021 7171948
-601.1601 1221.7101 4084.9648 7171948
-571.30286 1209.7417 4044.9463 7237741
-547.27002 1209.5981 4044.4666 7303534
-522.66736 1208.1244 4039.5388 7369327
-494.98535 1199.0499 4009.197 7500913
-472.22684 1201.5883 4017.6841 7435120
-448.45258 1201.6743 4017.9722 7435120
-422.02216 1194.2535 3993.1597 7369327
-396.87039 1189.7847 3978.2173 7369327
-373.1918 1189.4467 3977.0872 7303534
-349.27026 1188.2365 3973.0405 7303534
-325.57651 1187.6824 3971.188 7171948
-301.31177 1184.7968 3961.5396 7106155
-279.39359 1191.4301 3983.719 7106155
-252.90822 1178.0144 3938.8616 7566706
-231.84935 1189.7164 3977.989 7369327
-209.29544 1195.5272 3997.4182 7237997
-184.47043 1188.1926 3972.8943 7303534
-160.60121 1185.7693 3964.7913 7237741
-138.7403 1199.884 4011.9861 7171948
-115.39522 1204.3463 4026.9062 7369327
-91.136986 1199.1202 4009.4324 7237741
-67.270729 1197.1847 4002.9604 7303534
-44.613552 1226.3772 4100.5698 7237741
-19.959167 1204.8352 4028.5413 7369327
3.8951533 1199.7831 4011.6484 7369327
27.569178 1195.5936 3997.6404 7303534
51.280197 1196.1393 3999.4648 7237741
75.981567 1212.1392 4052.9629 7369327
99.459755 1205.6268 4031.188 7369327
123.82279 1210.2856 4046.7651 7237741
149.26404 1222.2617 4086.8091 7435120
171.61758 1209.1398 4042.9338 7303534
197.44489 1220.7092 4081.6179 7369327
220.95798 1217.0071 4069.2393 7500913
246.60579 1224.6345 4094.7429 7632499
271.51434 1227.553 4104.5015 7632499
295.79849 1227.401 4103.9932 7435120
319.47452 1224.9403 4095.7654 7500913
346.99789 1236.5371 4134.541 7500913
370.84436 1234.3657 4127.2808 7237741
397.78 1242.1094 4153.1724 7303534
429.06152 1261.7303 4218.7783 7698292
450.06747 1250.6376 4181.688 7566707
477.02826 1256.386 4200.9087 7500915
499.09473 1249.3131 4177.2593 7369329
523.58972 1248.7003 4175.2104 7435122
547.48828 1246.7845 4168.8047 7566708
575.6712 1254.3698 4194.167 7303534
600.48358 1254.2867 4193.8892 7303534
624.96143 1253.5393 4191.3901 7303790
653.37213 1260.4359 4214.4502 7303534
678.05066 1259.8901 4212.625 7237741
701.77521 1257.6733 4205.2129 7106155
726.17139 1256.771 4202.1958 7237741
749.8009 1254.6456 4195.0894 7566705
771.01337 1248.7418 4175.3491 7566706
795.5658 1248.4465 4174.3618 7500913
818.99817 1246.4645 4167.7344 7369326
848.12622 1253.0131 4189.6304 7500913
872.99115 1253.0699 4189.8208 7698292
888.88623 1240.6047 4148.1416 7764085
918.64178 1247.6346 4171.647 7632499
945.38922 1250.3177 4180.6182 7566706
966.04431 1245.0121 4162.8784 7435120
991.49164 1245.993 4166.1582 7698292
1021.1196 1252.0525 4186.4189 7500913
1047.2936 1253.6898 4191.8936 7632501
1073.1733 1254.9072 4195.9644 7632501
1099.858 1256.9894 4202.9263 7500915
1132.1331 1265.2271 4230.4697 7632501
1156.149 1264.0776 4226.6265 7566708
1181.4362 1264.3372 4227.4946 7500913
1211.4106 1269.4983 4244.7515 7566706
1231.7495 1264.5571 4228.23 7632499
1254.9932 1262.7357 4222.1396 7435120
1275.6425 1258.4261 4207.73 7237741
1300.6245 1258.474 4207.8901 7369327
1321.552 1254.6708 4195.1733 7566706
1338.5222 1247.3203 4170.5962 7698292
1370.2933 1253.7788 4192.1909 7435120
1385.2705 1244.9148 4162.5532 7500913
1413.1354 1247.7405 4172.001 7698292
1427.4191 1238.6833 4141.7173 7435120
1452.2565 1238.936 4142.562 7435120
1474.6814 1237.1564 4136.6113 7566706
1493.8226 1232.725 4121.7944 7632499
1528.3589 1240.9362 4149.2495 7632499
1541.8669 1232.0839 4119.6509 7566706
1574.3113 1238.4034 4140.7812 7698292
1591.0305 1232.3491 4120.5376 7566706
1625.8102 1240.2551 4146.9727 7369327
1644.3696 1235.7365 4131.8638 7435122
1670.2565 1236.7759 4135.3394 7435122
1692.6282 1235.2202 4130.1377 7435122
1724.4154 1240.4819 4147.731 7566708
1744.5493 1237.3307 4137.1943 7434865
1767.7456 1236.4087 4134.1118 7566708
1804.2659 1244.7037 4161.8472 7500915
1828.8141 1244.6272 4161.5913 7369329
1862.1643 1250.4634 4181.1055 7566708
1883.1643 1247.9619 4172.7412 7369329
1913.5729 1251.6794 4185.1714 7500915
1932.1621 1247.6697 4171.7642 7500915
1960.528 1249.9946 4179.5381 7632501
1988.1354 1251.7839 4185.521 7500915
2000.7555 1244.2091 4160.1934 7435122
2039.5918 1252.9232 4189.3301 7303536
2071.4504 1257.193 4203.6069 7500915
2078.6855 1246.5944 4168.1689 7829880
2115.4424 1253.7413 4192.0654 7698294
2132.4758 1249.1686 4176.7759 7632501
2157.8943 1249.5562 4178.0718 7632501
2183.2034 1249.8723 4179.1294 7764087
2205.73 1248.6063 4174.896 7698294
2252.291 1260.8228 4215.7437 7698294
2277.2532 1260.8129 4215.7104 7764087
2303.4692 1261.49 4217.9746 7829880
2331.0171 1262.874 4222.6021 7698294
2394.1763 1283.3169 4290.9561 7764087
2416.3757 1281.6057 4285.2344 7764087
2453.8748 1287.9604 4306.4824 7764087
2484.3291 1290.525 4315.0571 7435122
2476.3557 1273.2786 4257.3916 7434609
2516.2234 1280.7307 4282.3086 7435122
2495.9617 1257.7344 4205.417 7369329
2545.271 1269.9033 4246.106 7435122
2577.772 1273.5303 4258.2329 7435122
2646.0957 1294.6132 4328.7266 7435122
2635.7285 1277.161 4270.373 7632501
2651.0752 1272.3821 4254.394 7106157
2654.7258 1262.1328 4220.1235 7106157
2677.417 1261.0424 4216.478 7106157
2841.0193 1325.7268 4432.7598 7106157
2752.1995 1272.5155 4254.8398 7106414
2772.9397 1270.4668 4247.9897 6974571
2770.2156 1257.8011 4205.6406 6908778
2798.7688 1259.436 4211.1069 6974571
2845.0691 1268.9578 4242.9438 7171950
2900.9028 1282.5271 4288.3154 6974571
2897.5767 1269.9329 4246.2046 7040364
2900.6001 1260.3143 4214.0435 7106157
2932.5625 1263.3267 4224.1157 7237743
2957.0938 1263.1138 4223.4038 7237743
3016.9646 1277.8729 4272.7534 6908778
3053.261 1282.4844 4288.1724 6777192
3070.9939 1279.2867 4277.4805 7303536
3106.4976 1283.4835 4291.5132 7171950
3138.115 1286.0198 4299.9932 7171950
3175.8975 1291.021 4316.7158 7237743
3210.123 1294.5082 4328.3755 7106157
3262.9666 1305.3883 4364.7549 7106157
3272.5256 1298.917 4343.1172 7303536
3293.6438 1297.0989 4337.0381 7171950
3322.0298 1298.149 4340.5493 6974571
3353.3997 1300.3401 4347.8755 7106157
3392.4087 1305.4374 4364.9189 7106157
3417.4812 1305.135 4363.9082 7172206
3453.2559 1308.894 4376.4766 7040620
3465.9541 1303.9152 4359.8291 7435122
3513.946 1312.1895 4387.4956 8093052
3521.6631 1305.4133 4364.8384 7698551
3566.6733 1312.4587 4388.396 7303536
3580.2229 1307.9094 4373.1846 7171951
3610.3176 1309.426 4378.2559 7435123
3633.793 1308.5376 4375.2847 7632501
3681.7139 1316.4021 4401.5811 7434866
3692.0215 1310.8019 4382.856 7435122
3705.4438 1306.3781 4368.0645 7566450
3733.1768 1307.0259 4370.2305 7763573
3766.7266 1309.6874 4379.1294 7829109
3791.8953 1309.4182 4378.2295 7566451
3833.1125 1314.657 4395.7461 7697781
3788.3345 1290.5299 4315.0737 7631986
3868.3218 1308.9438 4376.6436 7631987
3864.9055 1299.0789 4343.6582 7698035
3866.2837 1290.9452 4316.4624 7829622
3871.51 1284.1948 4293.8916 7829107
3920.9109 1292.0898 4320.2896 8420987
3837.8215 1256.505 4201.3066 8750210
3961.3713 1288.5967 4308.6099 9209731
3949.5349 1276.5195 4268.228 9472132
3958.7642 1271.3613 4250.981 9538439
3970.1213 1266.9474 4236.2222 9340547
3958.1438 1255.1891 4196.9067 9077375
4029.989 1269.9932 4246.4062 8683386
4030.2834 1262.2052 4220.3662 8552055
0 0 0 0
0 0 0 0
0 0 0 0
0 0 0 0
0 0 0 0
0 0 0 0
