# .PCD v0.7 - Point Cloud Data file format
VERSION 0.7
FIELDS x y z rgb
SIZE 4 4 4 4
TYPE F F F U
COUNT 1 1 1 1
WIDTH 1288
HEIGHT 1
VIEWPOINT 0 0 0 1 0 0 0
POINTS 1288
DATA ascii
1126.6229 1099.8596 2671.7834 8605221
1156.0336 1112.9326 2703.5405 8013085
1171.7609 1112.655 2702.8662 7815706
1190.8522 1115.5363 2709.8655 7749400
1208.661 1117.1554 2713.7986 7289362
1215.0388 1108.3053 2692.2998 8605220
1231.6188 1108.8698 2693.6709 8802342
1243.2432 1105.0153 2684.3076 8407584
1258.3463 1104.311 2682.5969 8407841
1266.6941 1097.7698 2666.707 8671013
1295.949 1109.2858 2694.6814 8604965
1292.5665 1092.9247 2654.9373 8605222
1312.9189 1096.7849 2664.3145 8473378
1327.6857 1095.9425 2662.2683 8276256
1339.0472 1092.3423 2653.5225 8407587
1352.783 1090.7397 2649.6296 8473379
1367.5775 1090.0179 2647.8762 8078621
1395.5426 1099.691 2671.374 8209950
1398.8927 1089.9679 2647.7546 7617814
1415.3213 1090.5377 2649.1389 7156237
1437.3862 1095.3905 2660.927 7024908
1473.4153 1110.6639 2698.0295 7551509
1476.9459 1101.3751 2675.4651 8078366
1493.2865 1101.7347 2676.3386 8933675
1511.6855 1103.5896 2680.8445 8407587
1519.3398 1097.6433 2666.3997 9131565
1534.7742 1097.3822 2665.7654 8802601
1555.1874 1100.6501 2673.7039 9065772
1562.7384 1094.8409 2659.592 9328944
1582.5448 1097.6482 2666.4114 8934186
1603.8994 1101.463 2675.6785 9197103
1618.9747 1100.9331 2674.3914 8802089
1620.3175 1091.1658 2650.6643 8670503
1636.0275 1091.1682 2650.6704 9723446
1661.8059 1097.8221 2666.834 8670758
1677.1858 1097.5459 2666.1628 9065772
1696.9044 1100.0875 2672.3372 9197359
1707.2023 1096.5311 2663.698 9197359
1727.8438 1099.6229 2671.2085 9328945
1739.0481 1096.707 2664.1252 9394737
1764.1683 1102.5405 2678.2961 9328944
1777.1755 1100.7675 2673.9888 9131824
1784.9718 1095.8265 2661.9863 9065774
1799.0933 1094.8212 2659.5442 8539430
1816.3066 1095.6987 2661.6758 9460275
1842.0981 1101.6912 2676.2329 9460276
1865.3712 1106.0884 2686.9143 9526069
1872.0908 1100.6783 2673.7725 9263153
1885.0586 1099.002 2669.7002 9460019
1908.097 1103.176 2679.8396 9131823
1929.0514 1106.0859 2686.9084 8671529
1950.6044 1109.2888 2694.689 9197617
1948.0364 1098.8337 2669.2913 8539430
1964.7539 1099.3378 2670.5159 8605223
1985.4827 1102.0602 2677.1292 8737065
1991.5652 1096.6746 2664.0464 8671016
2010.0013 1098.1227 2667.564 9000237
2031.7472 1101.3422 2675.385 9000237
2046.9514 1100.9933 2674.5376 9131567
2051.7493 1095.0956 2660.2107 8605995
2073.374 1098.2006 2667.7532 8934961
2069.0259 1087.6055 2642.0159 8803375
2115.594 1103.7333 2681.1934 8342823
2117.3213 1096.401 2663.3818 8210981
2126.6636 1093.0912 2655.3418 9000753
2157.584 1100.8397 2674.1643 8869166
2155.3208 1091.6676 2651.8833 8737835
2171.4578 1091.8805 2652.4006 9395765
2197.5769 1097.0737 2665.0161 8869165
2217.157 1098.9517 2669.5779 9132081
2239.1616 1101.9963 2676.9739 9132593
2251.7639 1100.4032 2673.104 8869422
2262.301 1097.8302 2666.8535 9001008
2274.0461 1095.8751 2662.1042 8935214
2294.8359 1098.2756 2667.9355 9329972
2315.2954 1100.4862 2673.3057 9527098
2322.1484 1096.2434 2662.999 8539946
2322.3806 1088.9534 2645.29 8079395
2334.6819 1087.3824 2641.4739 7487258
2345.7954 1085.2827 2636.3733 8079395
2355.855 1082.7266 2630.1638 8342567
2351.8511 1073.7828 2608.4377 8737325
2370.3708 1075.1726 2611.8137 8868911
2431.2822 1095.6478 2661.5522 8737327
2389.9836 1070.0955 2599.4805 8671532
2400.7576 1068.0361 2594.4778 8474411
2423.4229 1071.2595 2602.3081 8342824
2438.8579 1071.2664 2602.3245 8671790
2432.9199 1061.9438 2579.6782 8540457
2456.0017 1065.3254 2587.8931 8474413
2484.0591 1070.8101 2601.2163 8277293
0 0 0 0
0 0 0 0
0 0 0 0
0 0 0 0
0 0 0 0
0 0 0 0
0 0 0 0
0 0 0 0
-2510.2429 1180.6578 2827.3618 1280
-2493.9705 1180.8855 2827.907 1536
-2473.762 1179.2399 2823.9663 1536
-2458.6462 1180.0161 2825.8252 1536
-2441.2603 1179.7061 2825.0825 1536
-2428.448 1181.6169 2829.6587 1536
-2412.8999 1182.2142 2831.0891 1536
-2391.2219 1179.7953 2825.2964 1536
-2378.0483 1181.568 2829.5413 1536
-2363.7246 1182.7899 2832.4678 1536
-2350.0786 1184.3713 2836.2546 1536
-2332.688 1184.0745 2835.5437 1536
-2066.5383 1056.5869 2530.2451 1280
-2089.3052 1076.0338 2576.8152 1280
-2048.6367 1062.8561 2545.2581 1280
-2269.4956 1186.1727 2840.5686 1280
-1911.3079 1006.4267 2410.1245 1280
-2236.4915 1186.5222 2841.4055 1280
-2215.6577 1184.3856 2836.2888 1280
-2204.2012 1187.267 2843.189 1536
-2188.8328 1188.0696 2845.1111 1280
-1983.0375 1084.7212 2597.6189 1280
-1974.4619 1088.4789 2606.6177 1280
-1933.658 1074.3889 2572.876 1280
-2025.7769 1134.5173 2716.8674 1024
-2018.7113 1139.6167 2729.0791 1024
-2109.446 1200.4551 2874.771 1024
-2086.7483 1197.2057 2866.9897 1024
-2067.9258 1196.1447 2864.4485 1024
-2054.864 1198.4257 2869.9111 768
-2039.9473 1199.6539 2872.8525 768
-2020.4342 1198.1772 2869.3162 512
-2005.537 1199.4359 2872.3303 256
-1989.9841 1200.3207 2874.4492 65792
-1988.215 1209.6067 2896.6865 788995
-1970.6693 1209.3724 2896.1257 1183235
-1957.2605 1211.6952 2901.688 1248258
-1944.8254 1214.6671 2908.8052 1248258
-1937.1484 1220.6906 2923.2297 1247745
-1930.8771 1227.7167 2940.0552 1313281
-1898.7072 1218.2533 2917.3931 1313538
-1882.9008 1219.2118 2919.6885 1313281
-1863.6151 1217.9144 2916.5815 1181696
-1850.4314 1220.6178 2923.0554 1379074
-1831.3801 1219.4652 2920.2952 1509890
-1833.4464 1232.4863 2951.4773 1575683
-1810.3977 1228.7126 2942.4404 1378560
-1784.8693 1223.1664 2929.1584 1509634
-1763.3501 1220.2856 2922.2598 1575426
-1745.3599 1219.8141 2921.1306 1706754
-1710.0741 1207.1244 2890.7422 1641218
-1692.2843 1206.6531 2889.6138 1443585
-1690.4437 1217.6606 2915.9739 1114368
-1645.5962 1197.597 2867.9268 1180416
-1610.4833 1184.2729 2836.019 1246208
-1633.1693 1213.6188 2906.2944 1312256
-1597.5662 1199.8132 2873.2339 1180928
-1598.8031 1213.6761 2906.4319 1311488
-1580.5507 1212.8851 2904.5378 1508864
-1560.3741 1210.5841 2899.0273 1640448
-1521.3217 1193.4243 2857.9341 1574400
-1509.7432 1197.6731 2868.1089 1706241
-1508.8905 1210.6243 2899.1235 1772034
-1484.5397 1204.8033 2885.1841 1640448
-1475.0049 1211.0112 2900.0503 1837827
-1458.0547 1211.2054 2900.5151 1508864
-1417.1309 1191.2518 2852.7317 1640192
-1398.9723 1190.1841 2850.1748 1706241
-1371.6475 1181.1969 2828.6526 1837827
-1382.8456 1205.5715 2887.0237 2034950
-1360.0841 1200.5801 2875.0703 1903620
-1340.9877 1198.7382 2870.6594 1969413
-1304.5566 1181.1541 2828.55 1903620
-1307.5222 1199.2465 2871.8767 1705985
-1272.261 1182.2924 2831.2761 1706241
-1265.7338 1191.9441 2854.3894 2034693
-1251.2084 1194.2234 2859.8477 2297608
-1236.8207 1196.6985 2865.7749 1903107
-1213.2367 1190.2205 2850.262 1639681
-1192.338 1186.2314 2840.709 1837314
-1173.9105 1184.6217 2836.8542 2034693
-1152.9551 1180.3771 2826.6897 2100486
-1135.9812 1180.1438 2826.1309 2232072
-1115.6631 1176.3772 2817.1108 2166279
-1105.4921 1183.358 2833.8281 2429705
-1086.8813 1181.3807 2829.093 2232326
-1076.8308 1188.7917 2846.8403 2034947
-1045.7788 1172.8844 2808.7466 2034947
-1030.1794 1174.0739 2811.595 2100227
-1013.7256 1174.3126 2812.1665 2166020
-996.98584 1174.2223 2811.9504 2034178
-977.43085 1170.757 2803.6519 2100227
-959.01941 1168.5654 2798.4036 2166022
-940.14856 1165.7269 2791.6062 2166020
-924.42303 1166.7566 2794.072 2166020
-906.57098 1165.0909 2790.0833 2100227
-889.67792 1164.6188 2788.9526 2100227
-871.80804 1162.8258 2784.6589 2034435
-856.95331 1165.0631 2790.0166 2166020
-838.40247 1162.2643 2783.3142 1902849
-817.3363 1155.7963 2767.825 2034434
-804.36884 1160.7502 2779.6885 1968642
-785.37384 1157.0316 2770.7832 2231557
-762.93005 1147.9647 2749.0706 1968641
-750.38 1153.7139 2762.8384 1902336
-731.75385 1150.1692 2754.3496 2165250
-714.62262 1148.866 2751.2288 2231043
-699.49445 1150.7974 2755.854 2033922
-683.47552 1151.3207 2757.1069 1902336
-667.70441 1152.2972 2759.4456 1902336
-649.84583 1149.6298 2753.0579 1902593
-632.37024 1147.52 2748.0056 2165508
-615.16394 1145.8004 2743.8875 1902593
-597.42896 1142.976 2737.1235 2297093
-586.0769 1152.5461 2760.0417 2099714
-566.05823 1145.1332 2742.2898 1836800
-550.59161 1146.7631 2746.1929 2099715
-533.10388 1144.1545 2739.946 1968642
-516.6369 1143.6416 2738.7178 1968386
-502.1127 1147.5355 2748.0427 2165250
-484.7402 1144.9628 2741.8816 2164993
-468.58118 1145.1771 2742.3948 2164993
-451.06958 1141.9825 2734.7449 2165250
-436.6763 1146.7389 2746.135 2428422
-420.48969 1146.9717 2746.6924 2362629
-404.50482 1147.7954 2748.6653 2033408
-386.91556 1143.9452 2739.4448 2362116
-371.13571 1145.3416 2742.7886 2361859
-354.64511 1144.5719 2740.9456 2361859
-337.39127 1141.1469 2732.7434 2296067
-322.91403 1147.2412 2747.3379 2296323
-306.17664 1145.5264 2743.2314 2296323
-289.04675 1142.0686 2734.9509 2099457
-271.49637 1136.4399 2721.4717 2099201
-255.22035 1135.7715 2719.8708 2231043
-239.68356 1138.5243 2726.4634 2362372
-223.94954 1140.6704 2731.6028 2362116
-207.81497 1140.9521 2732.2771 2362116
-190.16975 1132.2866 2711.5256 2098945
-174.5363 1135.1053 2718.2759 2427908
-159.81148 1145.0073 2741.9885 2493957
-142.6463 1137.6876 2724.4595 2690565
-126.9174 1141.4163 2733.3889 2624772
-110.86617 1142.9131 2736.9731 2756358
-94.299088 1138.6937 2726.8691 2822151
-78.463959 1143.3958 2738.1292 2887431
-62.297024 1144.4536 2740.6624 2755845
-46.297543 1150.4183 2754.9463 2887430
-29.633926 1137.3895 2723.7458 2624516
-13.588239 1145.2787 2742.6384 2887685
2.6256566 1129.2209 2704.1841 2558721
18.821327 1139.6534 2729.1672 2690306
34.987595 1139.486 2728.7661 2690562
51.371525 1144.2726 2740.2288 2689794
67.365479 1140.1598 2730.3799 2821379
83.266212 1136.3678 2721.2988 3084551
99.539963 1138.0709 2725.3774 2821378
116.85484 1149.5403 2752.8438 3017987
132.50253 1143.8085 2739.1172 2820352
148.7045 1143.59 2738.5942 3149314
165.97752 1150.8409 2755.9583 3543043
182.46687 1151.8458 2758.3647 4331527
196.89993 1140.772 2731.8459 5185801
213.47868 1142.8678 2736.8647 6698003
230.21028 1145.4281 2742.9958 8079648
246.10141 1143.7448 2738.9648 9330227
263.41492 1148.4712 2750.2832 10316351
278.27322 1142.5658 2736.1416 9066026
295.60507 1146.9078 2746.5396 9132076
314.30814 1155.8392 2767.9277 9132075
330.49875 1155.1035 2766.166 9263662
343.3313 1143.2555 2737.7932 9263663
359.37552 1142.6886 2736.4355 9197869
378.12332 1150.3959 2754.8926 9658421
393.54544 1147.766 2748.5947 9395249
413.05841 1156.8019 2770.2332 9461041
424.29977 1142.8673 2736.8635 9066027
442.81549 1148.8311 2751.145 9394736
461.46671 1154.7102 2765.2241 9263406
477.17688 1153.0795 2761.3188 9197613
492.20264 1149.9576 2753.843 9065770
507.05875 1146.6525 2745.9282 8934185
519.78265 1138.8812 2727.3181 9394735
540.78607 1149.1726 2751.9629 9394479
558.02087 1151.0875 2756.5488 9197100
573.85107 1150.0784 2754.1323 9197870
581.85889 1133.8816 2715.3452 9790006
600.81525 1139.3181 2728.364 9723957
618.66864 1142.4327 2735.8228 8671525
635.59344 1143.7174 2738.8994 9658421
654.53442 1148.4758 2750.2944 9329455
670.35645 1147.6633 2748.3489 9658420
687.81256 1149.6207 2753.0361 9658164
694.63574 1134.1271 2715.9329 9328943
717.04645 1144.2083 2740.075 9394735
731.90186 1142.054 2734.9158 9921080
745.56409 1138.1715 2725.6184 8736549
758.24542 1132.9879 2713.2051 9394738
773.69336 1132.0677 2711.0015 9526065
784.24255 1124.163 2692.0715 9986872
807.15601 1133.9432 2715.4929 9065771
821.06085 1130.9331 2708.2842 9065771
838.43524 1132.7255 2712.5764 9460528
853.88123 1131.894 2710.5857 9197357
873.59314 1136.644 2721.9604 8868136
893.36816 1141.3022 2733.1157 8736807
893.14423 1120.7003 2683.7793 8407842
909.4563 1121.2053 2684.9888 9131309
917.78418 1112.0189 2662.9897 10118461
941.13116 1121.0333 2684.5769 9263151
953.39557 1116.7662 2674.3584 8933930
969.23083 1116.7531 2674.3269 9591857
981.31439 1112.4872 2664.1113 9460528
1005.1628 1121.4828 2685.6533 9197357
1010.9479 1110.3583 2659.0132 9197357
1033.1814 1117.364 2675.7898 9394736
1046.6635 1114.8363 2669.7366 9394736
1061.9683 1114.2964 2668.4438 9263150
1074.9026 1111.3217 2661.3201 9262893
1085.0325 1105.5753 2647.5591 9328942
1104.3739 1109.2451 2656.3474 9394479
1120.5118 1109.6393 2657.2913 9065771
1141.0206 1114.2909 2668.4307 9986874
1157.3844 1114.8228 2669.7043 9197101
1167.2393 1109.1555 2656.1326 9328688
1176.376 1102.9655 2641.3093 8671525
1188.7725 1099.9543 2634.0984 8999977
1217.3406 1111.7906 2662.4431 8933928
1227.9089 1107.0953 2651.1992 8999721
1229.6105 1094.6251 2621.3364 9197357
1246.2242 1095.5758 2623.613 8407584
1275.3397 1107.3579 2651.8281 8605220
1289.4961 1106.0228 2648.6306 8539428
1301.8801 1103.2177 2641.9131 8407843
1317.5344 1103.2177 2641.9131 9263151
1307.7008 1082.1261 2591.4045 9065516
1326.2994 1084.7791 2597.7578 8999979
1352.7021 1093.6808 2619.075 8342049
1369.381 1094.6079 2621.2949 8342049
1378.119 1089.2379 2608.4353 7026190
1406.1245 1099.0468 2631.9248 7749144
1425.1478 1101.6968 2638.271 7222801
1446.0232 1105.7054 2647.8708 7880474
1452.0403 1098.3887 2630.3491 7354387
1459.9209 1092.6219 2616.5393 7748888
1465.3046 1085.1274 2598.5918 8473635
1481.3153 1085.5765 2599.6675 8605222
1494.5533 1084.0056 2595.9053 9263152
1526.8729 1096.1655 2625.0251 8999980
1548.2192 1100.2817 2634.8823 8736807
1555.9243 1094.718 2621.5588 9460274
1583.2743 1102.9496 2641.271 8868137
1586.6104 1094.4548 2620.9285 9197102
1598.2183 1091.7755 2614.5122 8934187
1620.9845 1096.697 2626.2981 9262896
1641.5341 1100.0393 2634.302 8934186
1644.0646 1091.3575 2613.5112 9263151
1670.6294 1098.6431 2630.9583 9657909
1674.9255 1091.285 2613.3376 8999723
1703.4398 1099.6963 2633.4805 9328945
1722.9666 1102.2054 2639.4893 9460531
1727.7345 1095.313 2622.9836 9262896
1742.9154 1095.0859 2622.4399 9131566
1754.3038 1092.5012 2616.25 9460788
1785.035 1101.902 2638.7625 9921083
1788.3477 1094.3611 2620.7039 8868395
1806.5288 1095.9701 2624.5574 9460789
1845.439 1110.0201 2658.2034 9526582
1853.2908 1105.3091 2646.9216 9329203
1874.7488 1108.7238 2655.0989 9197361
1888.4318 1107.5219 2652.2205 9263411
1902.1211 1106.3434 2649.3984 9723960
1907.5264 1100.4053 2635.1782 8802602
1932.936 1106.01 2648.6001 8868651
1943.3083 1102.9895 2641.3669 8539687
1955.9923 1101.3188 2637.366 8605481
1969.2343 1099.9863 2634.1748 9065775
1985.7891 1100.5107 2635.4309 8671018
1999.2377 1099.319 2632.5769 8671532
2013.7014 1098.6995 2631.0933 8605738
2014.918 1090.9172 2612.457 8605996
2032.649 1092.1268 2615.3535 8211494
2032.7511 1083.9178 2595.6951 8079652
2061.2146 1090.8417 2612.2759 7750687
2106.3218 1106.4048 2649.5454 8803118
2068.5061 1078.5023 2582.7266 9263925
2109.531 1091.8148 2614.6062 8474409
2102.8787 1080.4368 2587.3591 8803118
2123.3293 1083.0481 2593.6125 8934961
2157.21 1092.4229 2616.0625 8868911
2168.2932 1090.2017 2610.7434 8671789
2184.239 1090.4393 2611.3125 8408873
2219.6973 1100.3463 2635.0371 8277285
2223.5366 1094.5504 2621.1572 8540457
2254.2354 1101.9648 2638.9128 8540455
2236.3623 1085.6967 2599.9551 8343077
2265.7258 1092.4264 2616.071 8934190
2285.5835 1094.5126 2621.0669 8869167
2298.6038 1093.3185 2618.2073 8737325
2288.449 1081.1912 2589.1655 8605996
2303.7053 1081.1511 2589.0696 8737325
2311.3342 1077.5554 2580.459 8605996
2318.0713 1073.5942 2570.9729 8474153
2330.1274 1072.1318 2567.4709 8474409
2341.2122 1070.2446 2562.9517 9263669
2342.4482 1063.9086 2547.7783 9000753
2375.6245 1072.0675 2567.3167 9000753
2385.3499 1069.6071 2561.4248 9001010
2365.0361 1053.7931 2523.5547 8737842
2414.5232 1069.0839 2560.1719 8476211
2430.386 1069.3887 2560.9019 8477241
2445.1731 1069.2194 2560.4963 7556139
0 0 0 0
0 0 0 0
0 0 0 0
0 0 0 0
0 0 0 0
0 0 0 0
0 0 0 0
0 0 0 0
-2475.7083 1180.9377 2788.4644 1280
-2461.5671 1182.0814 2791.165 1536
-2441.1438 1180.2034 2786.7305 1536
-2426.0461 1180.892 2788.3564 1280
-2407.0916 1179.7 2785.5417 1536
-2395.1042 1181.9296 2790.8064 1280
-2381.8911 1183.5811 2794.7058 1536
-2362.4551 1182.1417 2791.3074 1536
-2348.2449 1183.3157 2794.0793 1536
-2331.571 1183.2559 2793.938 1280
-2108.374 1077.6366 2544.5469 1280
-2304.4924 1186.361 2801.27 1280
-1985.4843 1029.55 2431.0034 1280
-2049.6848 1070.6078 2527.9502 1280
-1966.9032 1034.9319 2443.7112 1280
-2029.5734 1075.8273 2540.2747 1280
-2034.1735 1086.3224 2565.0559 1280
-1985.2295 1068.1655 2522.1836 1280
-1891.5117 1025.4598 2421.3455 1280
-1884.9771 1029.7279 2431.4233 1280
-1874.1782 1031.7141 2436.1135 1024
-1891.8353 1049.5177 2478.1516 1024
-2048.1426 1145.119 2703.8884 768
-1981.1578 1116.4009 2636.0781 768
-2100.8135 1193.2355 2817.5024 1024
-2091.835 1197.6534 2827.9341 1024
-2071.1853 1195.4065 2822.6287 768
-2057.1177 1196.953 2826.2803 768
-2036.0996 1194.4474 2820.3638 768
-2026.4429 1198.6204 2830.217 512
-2009.7775 1198.6829 2830.3647 512
-1994.7618 1199.7385 2832.8574 256
-1996.3137 1210.8613 2859.1208 789249
-1988.5457 1216.473 2872.3713 1248771
-1965.7101 1212.8846 2863.8984 1380101
-1943.4326 1209.5811 2856.0981 1906444
-1939.9152 1217.9983 2875.9729 1313538
-1916.1205 1213.7205 2865.8721 1379331
-1898.4105 1213.2549 2864.7727 1510917
-1887.8213 1217.3728 2874.4961 1379074
-1874.7806 1219.9705 2880.6296 1444610
-1855.8217 1218.7292 2877.6987 1444354
-1847.9259 1224.7976 2892.0278 1378818
-1832.1747 1225.7244 2894.2158 1575427
-1789.4036 1208.4214 2853.3596 1641476
-1768.4847 1205.6865 2846.9021 1641220
-1760.0151 1211.4681 2860.5537 1444097
-1721.6665 1196.5956 2825.4363 1509121
-1719.3029 1206.6869 2849.2639 1509632
-1709.0736 1211.4031 2860.4001 1378048
-1687.1588 1207.848 2852.0059 1443840
-1637.1 1183.8688 2795.3853 1641217
-1652.338 1207.1012 2850.2424 1575169
-1622.0859 1197.238 2826.9531 1378048
-1586.3524 1183.0809 2793.5251 1312256
-1592.8787 1200.4745 2834.5952 1640705
-1573.515 1198.5188 2829.9775 1574912
-1563.7803 1203.9343 2842.7646 1640448
-1546.3792 1203.5011 2841.7417 1574400
-1532.8062 1206.0704 2847.8086 1508864
-1508.9226 1200.494 2834.6414 1640192
-1497.7125 1204.9884 2845.2537 2035206
-1483.5453 1207.1791 2850.4263 1903620
-1452.9382 1195.8887 2823.7671 1837827
-1435.6287 1195.4078 2822.6316 1705984
-1404.8011 1183.5267 2794.5776 1837827
-1392.0178 1186.7456 2802.1782 1837827
-1376.2174 1187.439 2803.8154 1837827
-1368.7657 1195.4409 2822.7097 1903619
-1355.697 1198.6744 2830.3447 1114368
-1331.4513 1191.9824 2814.5435 1640448
-1310.8446 1188.42 2806.1318 2232328
-1291.858 1186.2539 2801.0171 1969156
-1275.179 1186.1775 2800.8369 1969156
-1254.5936 1182.4177 2791.9592 1837570
-1241.9346 1186.1277 2800.7192 1837314
-1224.3077 1185.1294 2798.3618 1771521
-1205.0797 1182.5322 2792.2295 1837057
-1186.2998 1180.3086 2786.979 1837057
-1174.1949 1184.7573 2797.4836 1903107
-1149.8348 1176.791 2778.6731 2166279
-1129.5219 1172.7954 2769.2385 2100486
-1115.6732 1175.4928 2775.6079 2232072
-1099.478 1175.7618 2776.2429 2166279
-1090.7826 1184.1807 2796.1218 1969154
-1059.8237 1168.3167 2758.6633 2232326
-1044.8628 1169.8678 2762.3257 2166533
-1035.6938 1178.0562 2781.6604 2232326
-1008.9196 1166.1605 2753.572 2100227
-992.61816 1166.1776 2753.6125 2166020
-975.02521 1164.6526 2750.0115 2165763
-961.00275 1167.4132 2756.5298 2231812
-941.2829 1163.2284 2746.6487 2100228
-928.18256 1167.2207 2756.0754 2231556
-908.33276 1162.7162 2745.4392 2100227
-893.16534 1164.1505 2748.8259 2034434
-873.6261 1159.834 2738.6338 2034434
-855.33051 1157.0364 2732.0278 2166020
-841.1604 1159.8191 2738.5986 2100227
-821.50714 1155.0024 2727.2253 2034434
-808.08997 1158.9359 2736.5132 1968641
-789.16986 1154.9769 2727.165 1968642
-771.39807 1152.568 2721.4771 1771264
-753.84155 1150.3848 2716.322 1902849
-738.81488 1152.051 2720.2563 2099970
-718.14105 1144.7896 2703.1104 2033921
-703.18066 1146.5125 2707.1785 1837056
-686.28119 1145.0802 2703.7966 2034434
-670.30066 1145.1495 2703.9602 2166020
-653.32092 1143.4734 2700.0024 1902848
-636.33893 1141.7089 2695.8362 2034434
-618.96783 1139.1376 2689.7646 2034178
-603.42224 1139.8787 2691.5146 1968641
-589.4024 1143.6205 2700.3499 1837058
-571.57587 1139.9789 2691.7512 2034436
-555.40491 1139.525 2690.6794 2429192
-537.39099 1135.1512 2680.3521 2034433
-522.45758 1137.2163 2685.2283 2362886
-507.60419 1139.5908 2690.835 2230787
-492.34024 1141.1677 2694.5583 2231043
-475.01828 1137.9203 2686.8904 2296836
-459.8045 1139.673 2691.0288 2231043
-444.1427 1140.4012 2692.7485 1902080
-428.56357 1141.4039 2695.116 2231043
-413.56799 1144.0986 2701.4788 2231299
-397.52148 1143.986 2701.2129 2427909
-380.62811 1141.3243 2694.9282 2362116
-365.35043 1143.4867 2700.0339 2296323
-348.05374 1139.2384 2690.0027 2427909
-333.18054 1142.8955 2698.6382 2428165
-316.78195 1141.4252 2695.1663 2231043
-298.44083 1132.4276 2673.9211 2362372
-282.49289 1132.0115 2672.9385 2428422
-266.51501 1131.4187 2671.5386 2362629
-251.14479 1133.4935 2676.4377 2362372
-236.39427 1138.8335 2689.0466 2296836
-220.23808 1137.6841 2686.3328 2231043
-202.798 1129.2068 2666.3157 2230273
-188.47975 1138.1483 2687.429 2427909
-172.38713 1137.0367 2684.8042 2296066
-156.30507 1135.7759 2681.8269 2296323
-140.29475 1134.8099 2679.5461 2230016
-124.8399 1138.6638 2688.6462 2558723
-108.86868 1138.2466 2687.6609 2427137
-92.52832 1133.1655 2675.6633 2756101
-76.552071 1131.3645 2671.4106 2361600
-61.30954 1142.2948 2697.2195 2690563
-45.361263 1143.1473 2699.2327 3019528
-29.272589 1139.4634 2690.5342 2690563
-13.35253 1141.3813 2695.063 2690050
2.6050851 1136.2714 2682.9971 2887685
18.59067 1141.6602 2695.7212 2690306
34.491737 1139.2766 2690.093 2755842
50.220184 1134.5002 2678.8149 2887684
66.516495 1141.7655 2695.9697 2952965
82.664543 1144.1648 2701.635 2952965
99.123627 1149.3921 2713.978 3084295
115.09897 1148.334 2711.4795 2821379
130.80989 1145.22 2704.1267 3215365
147.30586 1148.9086 2712.8364 3544587
162.69611 1144.0958 2701.4722 3412487
178.70341 1144.0958 2701.4722 3674883
194.80202 1144.6323 2702.739 4528134
210.57924 1143.3423 2699.6929 6501914
225.49614 1137.8931 2686.8262 7290651
243.8781 1149.4948 2714.2205 8737835
257.10355 1136.86 2684.3867 8868394
274.40921 1142.6881 2698.1484 9394995
289.59161 1139.5198 2690.667 9000237
305.53491 1139.5198 2690.667 9724213
320.01144 1134.3207 2678.3909 9526834
338.47397 1143.0742 2699.0601 9592628
354.93237 1144.575 2702.6038 9394992
373.17801 1151.4607 2718.8625 8934441
387.828 1147.1411 2708.6631 9263662
405.35297 1151.3308 2718.5557 8934697
421.85187 1152.3972 2721.0737 9592627
437.09558 1150.0824 2715.6079 9592627
448.38708 1137.9022 2686.8477 9526834
466.76334 1143.9203 2701.0576 9329199
484.89917 1148.9696 2712.9805 9329456
499.86618 1146.4274 2706.9775 9526065
517.2821 1149.485 2714.1975 9855287
531.39124 1145.2318 2704.1545 9131307
550.37891 1151.4337 2718.7986 9131563
563.1369 1144.6205 2702.7112 9329199
579.75507 1145.8131 2705.5273 9394994
593.72845 1141.8552 2696.1819 9526324
606.73163 1136.288 2683.0361 9197359
625.61731 1141.7404 2695.9104 9526580
643.59991 1145.314 2704.3486 9263409
655.42535 1138.0234 2687.134 9329202
670.57361 1136.7113 2684.0356 9263408
682.76483 1130.5635 2669.5193 9328688
699.74194 1132.4392 2673.9485 9131309
715.15216 1131.7524 2672.3267 9131309
728.26428 1127.5374 2662.374 8934185
740.80054 1122.6283 2650.7827 8868394
761.83398 1130.5326 2669.4465 9921080
777.65155 1130.5326 2669.4465 8736805
791.92694 1128.3356 2664.2585 9065515
809.33807 1130.6046 2669.6165 9328688
827.63507 1134.0006 2677.635 9328944
837.52942 1125.9722 2658.678 9197358
855.12518 1128.4027 2664.4172 9263150
866.12695 1122.2019 2649.7756 9328687
872.02155 1109.7224 2620.3086 8934186
891.13733 1114.2103 2630.9058 9855289
910.68201 1119.0709 2642.3828 8999723
928.66284 1121.8779 2649.0107 9328945
946.78522 1124.7599 2655.8157 9723702
960.43658 1122.323 2650.0618 9328687
966.94684 1111.7539 2625.1057 9723445
991.18652 1121.5814 2648.3105 9526323
1004.3855 1118.804 2641.7524 9591859
1020.6784 1119.5054 2643.4087 9328943
1036.5178 1119.6957 2643.8579 9460272
1046.7327 1113.8949 2630.1609 9263150
1054.1759 1105.358 2610.0034 9460529
1077.139 1113.1062 2628.2988 9131563
1087.0026 1107.2894 2614.564 9262893
1098.8545 1103.6333 2605.9309 9263149
1109.8534 1099.2335 2595.542 9526065
1142.5807 1116.1802 2635.5571 9328942
1155.4581 1113.5404 2629.3237 8999978
1164.7339 1107.5459 2615.1694 9065770
1170.578 1098.4884 2593.7827 8736550
1185.9409 1098.4827 2593.769 8999979
1201.5675 1098.718 2594.325 9263150
1223.0988 1104.2786 2607.4546 9197100
1231.3221 1097.8352 2592.2402 8933928
1254.5377 1104.7528 2608.5745 8999979
1259.3706 1095.5111 2586.7527 9263151
1278.7405 1098.9852 2594.9558 8802344
1286.5111 1092.5265 2579.7053 9394481
1301.4677 1092.2501 2579.0527 9131565
1316.4281 1091.9835 2578.4231 9394738
1338.4712 1097.5306 2591.5212 9723702
1351.7875 1095.8773 2587.6172 8671015
1361.4729 1091.3503 2576.9282 7881242
1377.4969 1091.9487 2578.3411 8078621
1400.7814 1098.226 2593.1631 8342050
1420.1074 1101.2975 2600.4155 8012573
1433.475 1099.7317 2596.7183 6894348
1433.6141 1088.1583 2569.3911 7881244
1454.6737 1092.5406 2579.7388 8012573
1457.4041 1083.2087 2557.7039 9000237
1480.4153 1088.9875 2571.3489 9328945
1494.09 1087.8503 2568.6641 8736551
1514.3447 1091.479 2577.2319 8802601
1529.2861 1091.2438 2576.6765 8999979
1538.1716 1086.7345 2566.0291 9065516
1556.6188 1089.0029 2571.3853 8999980
1569.9095 1087.6549 2568.2024 9065772
1591.6169 1092.108 2578.717 9263152
1597.6803 1085.8441 2563.9265 8868394
1628.1976 1096.1614 2588.2881 8999979
1644.72 1096.9521 2590.1553 9328944
1653.3574 1092.5182 2579.6855 8868137
1667.8518 1092.0001 2578.4624 8934187
1678.1823 1088.7898 2570.8821 9131309
1698.8224 1092.266 2579.0903 9065773
1714.417 1092.4652 2579.5605 9065516
1730.5784 1093.0187 2580.8674 9658166
1743.7655 1091.7006 2577.7549 9263410
1754.7179 1089.0183 2571.4216 9131567
1777.9673 1093.9482 2583.0625 9131311
1798.9006 1097.3813 2591.1687 9525812
1834.3375 1109.5289 2619.8521 9394226
1850.8948 1110.1489 2621.3159 9394226
1842.8632 1096.1332 2588.2214 9328433
1861.7578 1098.2322 2593.1777 9526325
1873.389 1096.0474 2588.0188 9592375
1894.1261 1099.1821 2595.4209 8605223
1898.0104 1092.5653 2579.7971 8473893
1913.8401 1092.8757 2580.5298 8868653
1928.2538 1092.379 2579.3569 8473894
1942.5416 1091.8192 2578.0352 8868651
1959.9174 1092.9901 2580.8 9066031
1989.9366 1101.1395 2600.0425 8671273
1997.382 1096.7681 2589.7205 9526583
2007.4463 1093.8904 2582.9258 8671275
2015.375 1089.9015 2573.5071 8671531
2030.0155 1089.5748 2572.7358 8277031
2050.7666 1092.5084 2579.6626 8671532
2022.1476 1069.292 2524.8435 9066290
2048.8828 1075.4725 2539.437 8342823
2068.696 1077.9561 2545.3013 8210981
2101.707 1087.231 2567.2012 8737579
2120.821 1089.2351 2571.9336 9395509
2156.5613 1099.6888 2596.6172 8737835
2156.5625 1091.8993 2578.2244 8737835
2171.0403 1091.4974 2577.2756 8342822
2188.719 1092.6995 2580.1135 8145443
2184.7546 1083.1543 2557.5754 8605995
2218.5854 1092.3499 2579.2881 8539947
2232.6858 1091.7714 2577.9221 8474152
2241.616 1088.6897 2570.6458 8408617
2249.866 1085.3215 2562.6929 8869167
2262.9192 1084.3002 2560.281 9263925
2283.3137 1086.7865 2566.1519 7948065
2283.156 1079.5226 2549 8540202
2308.3684 1084.2706 2560.2112 9197876
2307.7522 1076.9039 2542.8169 9000753
2302.7947 1067.6201 2520.8955 9263925
2314.637 1066.1943 2517.5291 9329462
2421.9177 1108.4674 2617.3455 8934704
2389.0281 1086.4573 2565.3745 8605996
2450.6514 1107.4353 2614.9082 8737327
2339.8359 1050.7152 2480.9792 8080683
2377.3093 1060.8776 2504.9749 8147249
2353.5291 1043.7489 2464.53 7885364
0 0 0 0
0 0 0 0
0 0 0 0
0 0 0 0
0 0 0 0
0 0 0 0
0 0 0 0
0 0 0 0
-2442.6509 1181.4712 2751.231 1280
-2429.9946 1183.2465 2755.365 1280
-2345.2676 1149.7148 2677.2815 1280
-2398.1477 1183.6445 2756.292 1280
-2382.3647 1183.9174 2756.9272 1280
-2378.9478 1190.3817 2771.9805 1280
-2362.7578 1190.5002 2772.2563 1280
-2335.2188 1184.8621 2759.127 1280
-2317.8657 1184.349 2757.9324 1280
-1971.8236 1014.6873 2362.8501 1280
-1969.6248 1020.8041 2377.0938 1280
-2264.5308 1182.0994 2752.6938 1280
-2039.4702 1072.3402 2497.1033 1280
-2244.0005 1188.5034 2767.6067 1280
-2225.9209 1187.6069 2765.519 1280
-2212.0742 1188.9722 2768.6982 1280
-2196.219 1189.2703 2769.3921 1280
-2002.7621 1092.676 2544.4583 1280
-2163.0283 1189.0662 2768.917 1024
-2147.6436 1189.6324 2770.2358 1024
-1942.255 1084.1489 2524.6018 768
-1927.0974 1084.0374 2524.342 768
-2111.9707 1197.3264 2788.1521 132608
-2083.5977 1190.5542 2772.3821 527872
-2092.6179 1205.2103 2806.5112 659715
-2074.6729 1204.4468 2804.7329 512
-2061.3264 1206.3619 2809.1929 768
-2033.0577 1199.5045 2793.2241 256
-2017.1061 1199.8611 2794.0544 131328
-2010.2578 1205.6832 2807.6123 591619
-2004.5106 1212.2686 2822.9473 1182467
-2016.7943 1229.9612 2864.147 1116160
-1974.109 1214.1461 2827.3193 1313539
-1956.9302 1213.882 2826.7041 1247745
-1944.7407 1216.7349 2833.3477 1313538
-1936.173 1221.9231 2845.4292 1115904
-1925.5239 1225.8774 2854.6375 1379074
-1879.7264 1207.3265 2811.439 1510403
-1866.3591 1209.4596 2816.406 1378049
-1853.0195 1211.6493 2821.5051 1378304
-1844.8011 1217.2579 2834.5657 1575683
-1820.9478 1212.5583 2823.6221 1641476
-1791.2861 1203.8682 2803.3857 1575683
-1777.2812 1205.6362 2807.5027 1641476
-1755.4895 1202.1053 2799.2808 1641476
-1729.8855 1195.8718 2784.7649 1706756
-1722.962 1202.5564 2800.3311 1772549
-1708.2053 1203.8507 2803.345 1575170
-1677.1528 1193.5731 2779.4121 1641218
-1655.5422 1189.8778 2770.8071 1443840
-1636.256 1187.7958 2765.9587 1640961
-1637.5743 1200.7804 2796.1953 1311744
-1619.5505 1199.7024 2793.6851 1311744
-1599.5321 1197.1094 2787.6467 1574912
-1562.2954 1181.4413 2751.1614 1640961
-1548.6385 1183.4626 2755.8682 1575425
-1533.5587 1184.4279 2758.116 1707012
-1530.0504 1194.4473 2781.4478 1640449
-1482.0756 1169.5939 2723.5728 1574656
-1481.3516 1181.892 2752.2109 1443072
-1480.2128 1194.1294 2780.7075 1377280
-1463.332 1193.7999 2779.9402 1837826
-1450.1144 1196.4852 2786.1934 1574656
-1432.2725 1195.373 2783.6035 1574656
-1407.163 1188.0988 2766.6643 1706241
-1374.166 1173.9149 2733.635 1903620
-1361.5387 1177.0016 2740.8228 1903363
-1357.28 1187.4844 2765.2336 1903620
-1345.7473 1191.7816 2775.2405 1771778
-1308.6849 1173.2968 2732.1956 1706241
-1289.6956 1170.7549 2726.2764 1640448
-1279.9521 1176.6484 2740.0005 1640193
-1273.4105 1185.6746 2761.019 1640448
-1253.3749 1182.2076 2752.9458 1903620
-1237.8345 1182.9452 2754.6636 1837827
-1218.0696 1179.6116 2746.9006 1903107
-1200.4275 1178.2712 2743.7793 1968643
-1184.1512 1178.2531 2743.7371 2034693
-1158.989 1169.2695 2722.8176 1837314
-1141.5822 1167.9672 2719.7847 2034436
-1129.3635 1172.0115 2729.2026 2166279
-1112.2892 1171.061 2726.9893 2232072
-1095.729 1170.632 2725.9902 2100486
-1079.1584 1170.1787 2724.9348 2166279
-1064.0873 1171.3623 2727.6909 2166276
-1043.6443 1166.5776 2716.5493 1969154
-1027.5071 1166.5316 2716.4419 1969154
-1011.7561 1166.9296 2717.3687 2298376
-993.09637 1163.9313 2710.3867 2231813
-978.17578 1165.2888 2713.5479 2100227
-958.61359 1161.0698 2703.7234 2034434
-944.12878 1162.9617 2708.1287 1771264
-928.43481 1163.4037 2709.1582 1837057
-906.6994 1156.1577 2692.2847 1705472
-892.83875 1158.8734 2698.6086 1902593
-875.05182 1156.4989 2693.0793 1902849
-858.00983 1155.0389 2689.6797 2034434
-839.56042 1151.5935 2681.6565 2034434
-825.38995 1153.9974 2687.2542 2231813
-807.10773 1150.6343 2679.4226 2100227
-790.45642 1149.5077 2676.7991 1639936
-772.76227 1146.7874 2670.4646 1574144
-759.47333 1150.6274 2679.4067 1705728
-739.56555 1144.3896 2664.8811 1639936
-724.74768 1145.9275 2668.4622 1771264
-706.52942 1142.0376 2659.4038 2100227
-693.69775 1146.8756 2670.6702 2165763
-671.93683 1136.8324 2647.283 1837056
-655.65375 1135.7985 2644.8752 1771264
-641.81708 1139.0555 2652.46 1968643
-624.91962 1136.9078 2647.4585 1837057
-611.76154 1141.6276 2658.4492 1902850
-595.27563 1140.2225 2655.1772 1968643
-579.46326 1140.0663 2654.8137 1968643
-560.69525 1133.9241 2640.5105 1705472
-545.32996 1134.5083 2641.8708 2034436
-529.01117 1133.0847 2638.5559 2100229
-512.38037 1130.8857 2633.4353 1836032
-498.22174 1134.1765 2641.0981 2165252
-483.85956 1137.202 2648.1438 2165250
-468.71658 1138.5341 2651.2456 2230786
-452.69522 1137.7507 2649.4214 2296579
-438.14743 1140.7478 2656.4004 2296836
-421.14468 1137.3381 2648.4607 2231043
-406.69141 1140.8164 2656.5603 2362372
-389.03085 1135.2155 2643.5176 2427909
-375.50671 1141.7214 2658.6677 2559238
-358.02722 1136.2444 2645.9136 2361859
-342.09659 1135.4062 2643.9619 2427909
-328.87057 1143.8949 2663.729 2296836
-311.60779 1138.4908 2651.1448 2296579
-294.34875 1132.5273 2637.2581 2428165
-279.24338 1134.6461 2642.1917 2296836
-263.25006 1133.1942 2638.8108 2296836
-246.23846 1126.8989 2624.1514 2296579
-231.90541 1132.8395 2637.9849 2099201
-216.22253 1132.5684 2637.3535 2230786
-201.30469 1136.5745 2646.6821 2164737
-183.75574 1125.147 2620.0718 2296323
-169.94199 1136.5919 2646.7229 2164480
-153.82394 1133.3857 2639.2568 2362116
-138.57962 1136.62 2646.7883 2230530
-122.83167 1136.0219 2645.3955 2164737
-107.23171 1136.8179 2647.249 1902080
-91.514648 1136.4321 2646.3508 2493186
-75.812347 1136.1084 2645.5969 2624772
-59.985359 1133.26 2638.9641 2492418
-44.490776 1136.8972 2647.4341 2689795
-28.757019 1135.0562 2643.1467 2756099
-13.174017 1141.8778 2659.032 2887685
2.5788856 1140.5818 2656.0142 2887685
18.194603 1132.9706 2638.29 2558721
33.883099 1134.8317 2642.6238 2887428
49.446167 1132.6432 2637.5278 2624259
65.432236 1138.8684 2652.0239 2755843
81.220238 1139.9026 2654.4324 2624257
96.76918 1137.7904 2649.5139 2952965
112.90276 1142.1826 2659.7417 2755586
128.64557 1142.0297 2659.3855 3149572
144.12978 1139.8649 2654.3445 3215365
160.85309 1146.9615 2670.8701 3280645
176.9191 1148.5198 2674.4988 3280386
192.75952 1148.4777 2674.4006 3542016
207.88197 1144.4894 2665.1133 5186319
222.23032 1137.103 2647.9133 6763802
239.76624 1145.9258 2668.458 8145444
254.35759 1140.4541 2655.7166 8803627
271.19183 1145.0906 2666.5132 8802601
285.82352 1140.4285 2655.6567 9329202
298.93011 1130.4852 2632.5027 8605476
316.67715 1138.207 2650.4841 9789495
334.79703 1146.4758 2669.7393 9329200
350.41357 1145.813 2668.1956 9329199
367.33832 1149.3003 2676.3164 9132077
383.5448 1150.3447 2678.7483 9263407
399.05228 1149.293 2676.2993 9329201
414.13403 1147.1425 2671.2915 9394994
429.99399 1147.2263 2671.4868 9197358
444.00403 1142.5441 2660.5835 9658164
457.61169 1137.1829 2648.0991 9394992
475.6069 1142.719 2660.9907 9197869
489.71561 1138.8616 2652.0081 9262893
505.11475 1138.1516 2650.355 9197100
521.1955 1138.974 2652.27 9065771
537.28693 1139.7709 2654.1257 9328943
553.75464 1141.2981 2657.6819 9394736
570.5318 1143.3608 2662.4854 9263406
586.27759 1143.3014 2662.3469 9592627
595.9624 1131.7352 2635.4133 9263408
616.70435 1141.2209 2657.5024 9197616
631.22699 1139.0122 2652.3589 9526325
645.23029 1135.9963 2645.3359 9526581
659.02026 1132.7568 2637.7922 9723960
676.59772 1136.0266 2645.4065 9328945
689.86218 1132.0708 2636.1948 9328944
705.48273 1132.0708 2636.1948 9328945
721.68958 1132.9913 2638.3384 9723702
735.59247 1130.3324 2632.1467 9986618
750.04816 1128.6158 2628.1494 9328945
770.45776 1135.7458 2644.7527 9592116
787.06213 1137.0939 2647.8918 9394737
794.8653 1125.9225 2621.8777 10842184
812.20935 1128.4349 2627.7283 9657653
817.78247 1114.8066 2595.9927 9986618
834.96814 1117.2196 2601.6118 9460531
849.47736 1116.0287 2598.8386 9526067
862.35815 1112.7792 2591.2715 9263150
877.92206 1113.0448 2591.8901 9460272
898.96045 1120.1227 2608.3721 8539426
909.45581 1114.0466 2594.2229 10381374
928.58392 1118.5715 2604.7598 9460529
942.7099 1117.0214 2601.1499 8868392
955.0719 1113.4645 2592.8672 9592115
969.79633 1112.7308 2591.1589 9526322
986.54437 1114.3058 2594.8264 9263151
1003.4286 1115.9839 2598.7341 9657908
1022.428 1119.9281 2607.9187 9723444
1037.064 1119.0465 2605.866 9394735
1044.6898 1110.7377 2586.5173 9131307
1059.5122 1110.2097 2585.2881 9723444
1069.5339 1104.7383 2572.5469 9394479
1088.0547 1108.0758 2580.3191 9526065
1101.9163 1106.642 2576.98 9394736
1117.6785 1107.1298 2578.116 8868137
1137.3901 1111.4641 2588.209 9197358
1149.4717 1108.3259 2580.9014 9197102
1160.298 1104.0757 2571.0042 9263152
1167.5243 1096.5546 2553.49 9460530
1192.7628 1105.9269 2575.3147 9460531
1205.568 1103.6796 2570.0815 9263150
1224.9448 1107.4297 2578.8145 8802598
1233.9491 1101.8254 2565.7642 9263150
1239.2106 1093.0564 2545.344 9986874
1259.8214 1097.8744 2556.5632 9657653
1269.3108 1093.0011 2545.2153 9263151
1292.9191 1100.2573 2562.1123 9723446
1305.6239 1098.1741 2557.2615 9723703
1316.524 1094.6382 2549.0276 9197359
1307.9951 1075.2112 2503.7888 8934443
1350.0023 1097.2963 2555.2173 9065772
1352.9886 1087.5267 2532.4673 8604965
1359.8907 1081.0844 2517.4653 7947037
1392.1733 1094.7399 2549.2642 7420435
1411.4841 1098.0114 2556.8823 7683608
1422.4781 1094.8121 2549.4326 7749657
1434.2733 1092.2905 2543.5605 8012829
1453.1079 1095.1265 2550.1643 8144672
1473.1499 1098.8046 2558.7295 6368269
1477.6775 1090.9536 2540.4475 8737065
1476.7213 1079.2533 2513.2014 8802858
1503.1925 1087.6316 2532.7117 8671016
1522.7703 1090.9059 2540.3362 8999468
1543.0531 1094.6161 2548.9761 8934186
1549.5647 1088.5802 2534.9204 9131309
1560.8224 1085.9623 2528.8242 9197359
1590.8074 1096.2999 2552.897 9328944
1596.5074 1089.8646 2537.9114 9394481
1598.1077 1080.7767 2516.7488 8736553
1607.5441 1077.1074 2508.2043 8539172
1620.6116 1075.9159 2505.4299 8933931
1658.4343 1091.0317 2540.6294 9066030
1669.7119 1088.5696 2534.8958 8737065
1695.792 1095.7158 2551.5369 8934444
1699.9091 1088.6699 2535.1294 8868651
1711.4103 1086.4349 2529.925 9066029
1742.9598 1096.8556 2554.1909 9197360
1751.2908 1092.6108 2544.3064 8934445
1773.1635 1096.8149 2554.0964 8737066
1788.9565 1097.2191 2555.0376 9263410
1804.6138 1097.5339 2555.7708 9065774
1826.8613 1101.8182 2565.7473 9197616
1831.3116 1095.3866 2550.7703 9263153
1829.2546 1085.1997 2527.0486 8539430
1854.2148 1091.0762 2540.7327 9855546
1857.3042 1084.0919 2524.469 8802602
1892.0161 1095.5297 2551.1035 8342308
1900.7576 1091.8677 2542.5759 9197362
1929.7439 1099.8013 2561.0505 8407844
1943.1431 1098.797 2558.7119 8539686
1959.2731 1099.3405 2559.9775 10118719
1967.0577 1095.2291 2550.4036 9723704
1985.3947 1097.0109 2554.5527 9394995
1989.5284 1090.9773 2540.5024 9329203
2001.9414 1089.5402 2537.156 9460791
1999.2855 1079.9845 2514.9043 9329462
2023.5461 1085.0026 2526.5896 8737582
2018.2053 1074.1917 2501.4146 8408615
2045.0872 1080.5638 2516.2532 8737581
2082.1125 1092.1644 2543.2671 8474410
2106.1772 1096.8486 2554.1748 8211237
2105.4812 1088.6633 2535.114 9066545
2096.5791 1076.381 2506.5127 8474406
2109.4753 1075.3839 2504.1909 8408871
2130.0776 1078.3018 2510.9856 8408614
2149.0037 1080.3365 2515.7239 8343077
2158.1875 1077.4794 2509.0706 9066543
2174.6289 1078.2598 2510.8879 8605737
2196.4255 1081.6671 2518.8223 8540203
2194.6882 1073.5167 2499.843 8539946
2198.28 1068.0651 2487.1479 8408360
2220.6064 1071.7278 2495.677 8342567
2240.6543 1074.2495 2501.5493 8671789
2289.0112 1090.2214 2538.7424 9263925
2250.3093 1064.7906 2479.5229 8342567
2296.9631 1079.8159 2514.5117 9198133
2286.7908 1068.1055 2487.2422 9395511
2337.3164 1084.714 2525.9175 9132339
2334.1223 1076.3392 2506.4158 8934704
2292.3213 1050.3802 2445.9663 8737584
2288.248 1041.9261 2426.2795 8935218
2351.2354 1063.9221 2477.5005 8475441
2361.4458 1061.9121 2472.8201 8541492
0 0 0 0
0 0 0 0
0 0 0 0
0 0 0 0
0 0 0 0
0 0 0 0
0 0 0 0
0 0 0 0
-2412.0588 1182.7723 2716.7742 1280
-2030.8849 1002.5516 2302.8154 1280
-1998.1282 993.05322 2280.9983 1280
-2004.4087 1002.9589 2303.751 1280
-2367.5857 1192.8075 2739.8247 1280
-2351.3511 1192.8075 2739.8247 1280
-2325.2668 1187.7761 2728.2678 1280
-1960.8649 1008.6473 2316.8171 1280
-1971.1448 1021.084 2345.3835 1280
-1894.3225 988.25635 2269.98 1280
-1936.0599 1017.2535 2336.5852 1280
-2236.844 1183.7582 2719.0388 1024
-2217.6216 1182.0997 2715.2295 1280
-1909.3232 1025.1997 2354.8372 1280
-2196.6226 1188.1464 2729.1182 1280
-2183.0417 1189.5577 2732.3601 1280
-1846.397 1013.6348 2328.2729 1280
-2024.3898 1119.7156 2571.9358 1024
-1893.7686 1055.4125 2424.2346 1024
-2121.8159 1191.5432 2736.9207 512
-2110.2388 1194.1691 2742.9521 198656
-2103.5088 1199.5999 2755.4265 857094
-2086.8162 1199.3899 2754.9441 263680
-2076.2324 1202.7151 2762.582 256
-2065.1545 1205.8049 2769.679 256
-2050.4094 1206.7854 2771.9314 256
-2026.1781 1202.1538 2761.2927 0
-2021.5304 1209.1605 2777.3867 656897
-1998.41 1205.1422 2768.1567 1050625
-2014.9141 1225.1506 2814.1155 1445125
-1976.0284 1211.5328 2782.8359 1379075
-1960.2943 1211.9998 2783.9084 1379074
-1947.1283 1214.076 2788.6775 1313024
-1929.5875 1213.4366 2787.209 1247489
-1892.8813 1200.6299 2757.7922 1181952
-1899.1328 1215.0848 2790.9946 1181696
-1866.7322 1204.8464 2767.4775 1379074
-1851.1667 1205.3887 2768.7231 1444611
-1833.5844 1204.6158 2766.9478 1575683
-1820.8539 1207.0452 2772.5278 1641220
-1810.2163 1210.9188 2781.4255 1509634
-1770.4235 1195.1815 2745.2776 1575170
-1761.199 1199.9796 2756.2988 1575170
-1749.4907 1203.1598 2763.6033 1838341
-1699.9131 1180.1101 2710.6594 1509377
-1686.1252 1181.7039 2714.3201 1575170
-1681.7151 1189.9636 2733.2925 1772549
-1672.2887 1194.8002 2744.4019 1378048
-1642.6024 1185.1146 2722.1543 1706498
-1631.1284 1188.5071 2729.9468 1903364
-1616.9172 1189.953 2733.2681 1771777
-1574.9729 1170.8119 2689.3018 1706498
-1585.2817 1190.5206 2734.572 1443840
-1567.0586 1188.9882 2731.052 1641218
-1524.4978 1168.7653 2684.6008 1575425
-1510.1198 1169.9501 2687.3223 1509633
-1517.7466 1188.3899 2729.6777 1509376
-1500.2584 1187.3502 2727.2896 1705984
-1483.9727 1187.2498 2727.0588 1574400
-1471.5154 1190.2439 2733.936 1706241
-1454.4014 1189.4961 2732.2185 1574656
-1433.355 1185.4791 2722.9917 1640449
-1402.2632 1172.9679 2694.2539 1772034
-1392.5016 1178.2163 2706.3093 1969413
-1372.9872 1175.2388 2699.4702 2035206
-1356.8328 1175.1012 2699.1541 2100999
-1341.989 1176.1088 2701.4685 2100999
-1325.7493 1175.9026 2700.9949 1772034
-1304.8059 1171.4685 2690.8098 1508864
-1290.7333 1173.1696 2694.717 1443072
-1281.8611 1179.6991 2709.7153 1245696
-1264.1547 1178.161 2706.1824 1377280
-1247.3369 1177.4224 2704.4858 1837827
-1229.7803 1175.958 2701.1221 1837827
-1213.406 1175.6005 2700.3008 2035206
-1197.3168 1175.5133 2700.1006 2100229
-1173.6384 1167.8718 2682.5486 1968900
-1159.1959 1169.3372 2685.9143 2034693
-1138.777 1164.7307 2675.3335 1968900
-1124.563 1166.4301 2679.2371 1837314
-1109.0208 1166.7809 2680.0425 2034436
-1092.8236 1166.4427 2679.2659 1968900
-1074.3745 1163.6554 2672.8638 1968900
-1057.1289 1162.1078 2669.3088 2100486
-1043.6833 1164.754 2675.3872 2166276
-1025.1333 1161.6975 2668.3665 2166533
-1011.1754 1163.8303 2673.2654 1903361
-993.18451 1161.3157 2667.4893 2100740
-976.16766 1159.877 2664.1846 2099970
-962.85199 1162.8607 2671.0383 1902593
-941.00024 1155.4629 2654.0459 1968641
-930.78754 1162.348 2669.8608 2100226
-909.68152 1155.6329 2654.4363 2034179
-888.02704 1147.9724 2636.8406 2100227
-873.29504 1149.1466 2639.5376 1968385
-860.48413 1152.9376 2648.2454 2034434
-842.34534 1149.5983 2640.575 1902849
-826.13965 1148.8207 2638.7888 2363399
-809.552 1147.4716 2635.6899 2231556
-794.00824 1147.5781 2635.9351 2231813
-779.23492 1148.825 2638.7988 2166020
-760.00659 1143.4202 2626.3843 2100226
-744.92365 1144.1565 2628.0757 2166020
-726.29053 1139.3552 2617.0471 2099970
-711.51776 1140.5321 2619.7505 2100227
-695.68097 1140.0181 2618.5698 2034434
-680.73206 1140.9688 2620.7534 2165763
-664.01038 1138.923 2616.0544 2100227
-646.09924 1134.6906 2606.3328 2034434
-630.5495 1134.4996 2605.894 2034435
-614.51959 1133.4135 2603.3992 2034436
-599.31708 1133.8364 2604.3708 1837056
-583.79193 1133.6555 2603.9553 2100228
-565.73938 1128.4236 2591.9377 1837057
-553.87213 1135.5811 2608.3782 1771265
-536.69952 1131.96 2600.0605 1902850
-520.87744 1131.0574 2597.9873 1705472
-506.75848 1133.9105 2604.541 1771264
-492.12885 1135.7645 2608.7996 2100229
-475.69882 1133.449 2603.4807 1968643
-459.81366 1132.3198 2600.8872 2100484
-444.58255 1132.7788 2601.9417 2164993
-430.76425 1137 2611.6375 2296836
-416.25534 1139.6451 2617.7131 2231043
-397.42682 1130.2107 2596.0427 2296836
-383.88437 1135.6544 2608.5466 2296836
-367.73416 1133.5167 2603.6365 2296836
-352.29102 1133.4667 2603.5215 2361859
-337.50433 1135.6208 2608.4695 2493702
-321.61392 1134.0898 2604.9529 2428422
-305.73889 1132.4613 2601.2124 2494215
-290.46872 1133.0194 2602.4941 2428422
-273.93536 1128.4365 2591.9675 2296836
-257.70584 1124.635 2583.2356 2823180
-241.99474 1122.7589 2578.9263 2230787
-228.56195 1131.9127 2599.9521 2560008
-212.1244 1126.4336 2587.3669 2165250
-198.27708 1134.9271 2606.8762 2230530
-182.31593 1131.7344 2599.5425 2296323
-167.34566 1134.6707 2606.2869 2362116
-151.33188 1130.4092 2596.4988 2033152
-135.48329 1126.557 2587.6501 2098944
-120.95338 1134.0857 2604.9434 2361860
-105.46095 1133.472 2603.5337 2427908
-90.35247 1137.4817 2612.7439 2296577
-74.887634 1137.7358 2613.3274 2427393
-59.692844 1143.2944 2626.0955 2558720
-43.933178 1138.1392 2614.2542 2295808
-28.242174 1130.1162 2595.8257 2690306
-13.058477 1147.481 2635.7117 2887942
2.5524251 1144.4554 2628.7622 3019528
18.096598 1142.4164 2624.0786 2624513
33.427021 1135.0043 2607.0532 2361601
48.660973 1130.0372 2595.6443 2492928
64.534164 1138.7357 2615.6243 2690049
80.032463 1138.7311 2615.6135 2953221
94.666771 1128.4291 2591.9504 2887685
111.39867 1142.5165 2624.3086 2821378
126.74493 1140.6821 2620.095 2558208
141.93604 1138.0042 2613.9438 2887172
157.51822 1138.6802 2615.4966 3281931
172.66867 1136.3937 2610.2446 3346952
187.55476 1132.8864 2602.1885 3412485
203.53967 1136.0449 2609.4436 3608578
218.60631 1133.994 2604.7327 5581073
232.88411 1128.3914 2591.8638 6763800
248.04532 1127.4977 2589.8108 7882017
264.33414 1131.5349 2599.0845 8869420
280.93985 1136.4097 2610.2812 8935213
295.26343 1132.0259 2600.2122 9329455
313.83099 1143.5414 2626.6626 8539939
329.98068 1145.5746 2631.3328 9132076
344.84692 1143.1697 2625.8088 9263406
360.07239 1142.1118 2623.3789 9329199
375.39716 1141.4435 2621.8438 9329199
393.31116 1148.3883 2637.7957 8934698
407.08859 1143.1859 2625.8462 9263406
422.18311 1141.929 2622.959 9592117
437.5159 1141.3831 2621.7051 9526323
450.53378 1135.0425 2607.1409 8605222
459.7294 1119.8119 2572.1572 9394995
474.93527 1119.729 2571.9668 9789753
495.91141 1132.8324 2602.0647 9197615
513.21838 1137.0168 2611.676 9460788
527.07166 1133.5284 2603.6636 8999980
543.98242 1136.6273 2610.7812 9526321
561.19647 1140.1709 2618.9207 9263406
570.80505 1128.4874 2592.0845 8803112
591.88873 1139.5084 2617.3992 9197614
603.92542 1132.9939 2602.4355 9394738
618.46722 1131.3865 2598.7434 9328945
632.9317 1129.7192 2594.9138 9592117
646.75977 1127.022 2588.7183 9657910
661.77966 1126.4784 2587.4697 9592117
676.22296 1125.0004 2584.0747 9394737
694.70349 1130.1554 2595.9158 8868137
706.06604 1123.7584 2581.2222 9657653
721.06 1123.2899 2580.1458 9855289
742.28406 1132.3446 2600.9441 9657653
752.65125 1124.8058 2583.6279 9789495
772.70776 1131.7594 2599.5999 9263152
785.85974 1128.5259 2592.1726 9131309
796.06909 1121.2715 2575.5098 10118460
806.70642 1114.8816 2560.8325 9657653
824.36133 1118.2471 2568.5627 10644548
835.31866 1112.5698 2555.5225 9394479
850.88843 1113.1288 2556.8064 9460272
868.51019 1116.3057 2564.1035 9855287
885.98828 1119.1918 2570.7327 9460528
901.00165 1118.9196 2570.1074 9131563
916.51587 1119.2679 2570.9075 9131307
930.83319 1118.1671 2568.3792 9328943
945.39081 1117.3859 2566.5845 9526065
958.75385 1115.2397 2561.655 9460272
969.49921 1110.163 2549.9939 9920825
985.12988 1110.7504 2551.343 9394735
1004.8453 1115.8558 2563.0703 9657908
1015.5624 1110.9659 2551.8384 9460528
1034.3003 1114.865 2560.7942 9131563
1046.5784 1111.7888 2553.7285 9591860
1049.3899 1098.8873 2524.0945 9131309
1066.5106 1101.1219 2529.2273 9131309
1085.9305 1105.6357 2539.5952 9789239
1098.6163 1103.2634 2534.146 9460273
1116.6819 1106.2847 2541.0857 9591858
1134.252 1108.7413 2546.7285 9328686
1132.7844 1092.7682 2510.0391 9131308
1155.7982 1100.5198 2527.844 8934187
1168.4598 1098.3419 2522.8416 9460273
