# .PCD v0.7 - Point Cloud Data file format
VERSION 0.7
FIELDS x y z rgb
SIZE 4 4 4 4
TYPE F F F U
COUNT 1 1 1 1
WIDTH 1289
HEIGHT 1
VIEWPOINT 0 0 0 1 0 0 0
POINTS 1289
DATA ascii
2448.3984 883.64355 2788.8298 6569511
2534.6443 908.63763 2867.7124 6503718
2477.3494 882.18396 2784.2231 6898221
2557.8579 904.82745 2855.6873 6832684
2589.5408 910.01495 2872.0593 6898220
2590.0137 904.23859 2853.8289 6898220
2619.5557 908.62024 2867.6575 7030062
2700.0625 930.50903 2936.7397 6175012
2700.9492 924.85406 2918.8923 6305570
2706.0361 920.7002 2905.7825 6831656
2706.644 915.08447 2888.0591 6765863
2745.5901 922.41968 2911.2092 6239776
2800.1475 934.87543 2950.5203 6568998
2796.1252 927.74005 2928.0007 6964012
0 0 0 0
0 0 0 0
0 0 0 0
0 0 0 0
0 0 0 0
0 0 0 0
0 0 0 0
-3108.2942 1122.5372 3477.7546 8939814
-3077.1504 1118.7065 3465.8867 8874020
-3040.8716 1112.9451 3448.0369 8808228
-2990.7263 1101.9962 3414.116 8808227
-2944.8032 1092.4645 3384.5857 8742434
-2902.2153 1084.048 3358.5103 8807973
-2875.7417 1081.5758 3350.8513 8807461
-3003.8103 1137.5972 3524.4124 8873004
0 0 0 0
-3902.0305 1498.6072 4642.8643 9003574
-3962.7593 1532.7369 4748.6025 9135162
-3865.271 1505.7212 4664.9043 9069371
-3722.0469 1460.3715 4524.4058 9134908
-3774.1733 1491.5671 4621.0532 8937786
-3718.8076 1480.4266 4586.5391 9069371
-3692.0823 1480.6079 4587.1006 9135164
-3690.6602 1491.0142 4619.3403 9266496
-3652.1445 1486.4785 4605.2881 9332289
-3663.0581 1502.1442 4653.8223 9332289
-3626.6257 1498.4847 4642.4849 9135164
-3587.8577 1493.7969 4627.9614 9134908
-3562.6743 1494.7362 4630.8716 9069372
-3528.4021 1491.8474 4621.9219 8805943
0 0 0 0
0 0 0 0
0 0 0 0
0 0 0 0
0 0 0 0
-3347.4978 1484.493 4599.1372 8871993
-3289.7922 1470.8771 4556.9531 8674613
-3235.5725 1458.6072 4518.9395 8740150
-3220.1616 1463.7736 4534.9458 8740406
-3176.8159 1456.2219 4511.5498 8740150
-3145.1929 1453.9611 4504.5454 9003579
-3133.759 1461.0748 4526.5845 9069371
-3103.0266 1459.2357 4520.8867 8805689
-3102.9124 1471.8887 4560.0874 8806202
-3059.0474 1463.8281 4535.1147 8937788
-2998.551 1447.5956 4484.8242 9003581
-3019.0632 1470.5306 4555.8799 9135167
-2968.408 1458.9023 4519.854 8674616
-2939.7634 1457.9786 4516.9922 8280115
-2927.8396 1465.4067 4540.0054 8214321
-2895.4629 1462.641 4531.4365 8082736
-2831.1975 1443.5638 4472.3335 8082735
-2782.019 1431.8915 4436.1714 7885356
-2775.1685 1441.9905 4467.459 7885100
-2747.4507 1441.3365 4465.4331 7950893
-2698.9258 1429.6484 4429.2217 7556135
-2649.1128 1417.0415 4390.1641 7556134
-2606.417 1408.0294 4362.2437 7621416
-2580.2649 1407.8635 4361.7295 7555879
-2559.4292 1410.6244 4370.2832 7621416
-2556.8137 1423.5863 4410.4409 7753002
-2509.2253 1411.5175 4373.0498 7226658
-2514.4456 1429.213 4427.873 7161122
-2474.47 1421.3217 4403.4243 7292707
-2445.7698 1419.8076 4398.7339 7621672
-2415.0303 1417.0643 4390.2349 7621416
-2401.1343 1424.2521 4412.5034 7424039
-2346.5974 1407.2263 4359.7554 7160867
-2320.8438 1407.2747 4359.9053 6963487
-2273.116 1393.8499 4318.3135 6963232
-2242.0327 1390.4415 4307.7544 7095075
-2176.2354 1365.1783 4229.4858 7161126
-2151.5288 1365.4036 4230.1836 7884849
-2133.5422 1369.9491 4244.2661 7095589
-2090.2935 1358.1885 4207.8301 7029796
-2068.7285 1360.4034 4214.6924 6832418
-2034.3768 1354.1611 4195.353 6964003
-2001.1816 1348.5436 4177.9492 6634783
-1985.7242 1354.8883 4197.606 7227178
-1954.0605 1350.1957 4183.0679 6371612
-1916.0836 1340.9644 4154.4678 6568991
-1891.4971 1340.9858 4154.5347 6437406
-1859.6475 1335.7909 4138.4399 5582099
-1837.547 1337.5533 4143.9004 6108443
-1798.2396 1326.6692 4110.1797 6305822
-1755.5444 1312.9524 4067.6836 5845014
-1732.6844 1313.8947 4070.6028 5582099
-1698.7416 1306.3407 4047.1997 5187084
-1658.1899 1293.4156 4007.1562 6305565
-1634.7815 1293.681 4007.9788 5845271
-1621.8011 1302.3285 4034.7693 6042393
-1581.0466 1288.5978 3992.23 6240029
-1557.5725 1288.7479 3992.6951 5713685
-1536.6866 1291.0773 3999.9116 5582100
-1507.1824 1286.1251 3984.5696 5713429
-1483.6134 1286.1608 3984.6802 5845271
-1453.8643 1280.7535 3967.9275 5581844
-1405.7609 1258.7338 3899.7075 5450003
-1365.3228 1242.9562 3850.8271 5516053
-1337.7894 1238.5902 3837.3005 5582358
-1314.3871 1237.9641 3835.3608 5517076
-1298.2909 1244.3184 3855.0469 5846042
-1262.1661 1231.3605 3814.9021 5845785
-1235.496 1227.322 3802.3904 5648149
-1198.5262 1212.712 3757.127 5582356
-1179.0916 1215.6274 3766.1592 6042397
-1150.4287 1208.9579 3745.4958 5516053
-1128.1288 1208.8438 3745.1426 5121039
-1085.3542 1186.3455 3675.4402 5384723
-1075.144 1199.249 3715.417 5252624
-1044.9969 1189.989 3686.7285 4661001
-1013.6688 1178.9601 3652.5591 4529928
-1000.6745 1189.2383 3684.4023 5319444
-973.7334 1183.0304 3665.1697 5187857
-943.51251 1172.4637 3632.4329 4858893
-919.32941 1169.0818 3621.9553 4661256
-901.01752 1173.1827 3634.6606 5121295
-871.65289 1162.7408 3602.3103 4989710
-850.5412 1163.0602 3603.2996 4923661
-821.00214 1151.5753 3567.718 5647898
-796.87097 1147.269 3554.3767 4661516
-772.06128 1141.7256 3537.2026 4727055
-749.62665 1139.4829 3530.2546 4529932
-728.32751 1138.8873 3528.4092 4661261
-712.59619 1147.2201 3554.2253 4069382
-680.28442 1128.5544 3496.3967 4200967
-657.23682 1124.5675 3484.0447 4003331
-634.7439 1121.3021 3473.928 4793101
-609.95892 1113.6329 3450.168 5121810
-589.31909 1113.2622 3449.0195 4793102
-570.57892 1116.5824 3459.3059 4661259
-547.90112 1112.1575 3445.5967 4793101
-525.23242 1107.4088 3430.885 4069123
-501.25143 1099.3997 3406.0718 5713949
-478.83438 1094.2927 3390.2498 4397830
-458.76895 1094.348 3390.4209 4594697
-438.68793 1094.3694 3390.4873 5976091
-419.36017 1096.3622 3396.6611 5056015
-397.95688 1092.8561 3385.7988 4990479
-375.8678 1086.9945 3367.6389 4003586
-355.10443 1084.5245 3359.9866 4069122
-334.26047 1081.5002 3350.6172 4398345
-314.31677 1081.1909 3349.6587 4398087
-291.7312 1071.1396 3318.5188 4990224
-272.43982 1072.605 3323.0586 4793358
-252.95908 1073.4949 3325.8157 3412999
-230.97079 1062.9948 3293.2849 3608833
-212.02934 1065.8732 3302.2026 4858897
-192.69193 1067.144 3306.1399 4858896
-172.20497 1061.6157 3289.0125 4069124
-152.49773 1060.0967 3284.3062 4727054
-132.57086 1056.3831 3272.801 5056275
-112.78723 1052.7338 3261.4951 4595465
-92.590813 1042.9258 3231.1089 5056017
-72.873726 1034.8109 3205.968 6043168
-53.641838 1030.2927 3191.9702 4200965
-34.678429 1028.8181 3187.4016 4529930
-15.774903 1027.7178 3183.9927 4661260
3.0774102 1023.0234 3169.4487 4924690
21.975803 1028.5526 3186.5789 4332809
40.634209 1022.9299 3169.1589 5188119
59.539082 1025.105 3175.8979 4859153
77.988289 1020.2742 3160.9314 4398601
96.785789 1020.9885 3163.1443 4069638
114.56393 1012.4625 3136.7297 3674882
133.45184 1014.7551 3143.8328 5056276
152.08742 1014.8026 3143.9797 4069383
169.84949 1009.6472 3128.0076 4858897
187.81131 1006.5768 3118.4954 4661518
205.39305 1002.2018 3104.9414 4135431
224.7334 1006.4219 3118.0156 4332554
242.72931 1004.4373 3111.8669 4266760
260.71597 1002.6974 3106.4768 4135174
277.06549 995.30591 3083.5769 3938052
296.6889 999.86218 3097.6926 4003589
316.0954 1003.1992 3108.031 4924947
325.2868 975.53357 3022.3198 4267017
345.72287 982.71832 3044.5789 4135945
364.77451 985.45032 3053.043 3478018
379.73508 977.39423 3028.0842 4267531
398.02335 978.24377 3030.7163 4004617
411.33994 967.32837 2996.8989 2622976
429.20605 967.57245 2997.655 3609347
448.1442 970.11774 3005.541 4267021
457.20657 951.90717 2949.1223 3740935
479.61035 961.79163 2979.7456 4069641
495.32794 958.04218 2968.1292 4069898
512.36566 957.0155 2964.9485 3411972
527.09875 951.89502 2949.0847 3806727
543.0592 949.24841 2940.8853 3477506
558.30792 945.56116 2929.4614 3806728
576.40753 946.77881 2933.2341 4135434
590.44238 941.44409 2916.7065 4135691
605.63391 938.20465 2906.6704 4004105
626.27466 943.35254 2922.6191 4267277
635.55975 931.5788 2886.1423 4333070
655.48102 935.60339 2898.6113 3740676
666.10699 926.49377 2870.3884 3740932
680.51031 922.96082 2859.4431 4003848
697.65698 923.2298 2860.2764 4069898
713.1651 921.3692 2854.512 3411969
723.85889 913.51904 2830.1914 4004105
739.30157 911.8819 2825.1191 4135691
749.24255 903.6814 2799.7131 4069641
760.73053 897.66174 2781.0635 2885632
782.27954 903.51764 2799.2058 4004103
789.21924 892.60724 2765.4038 3214849
809.66333 897.10339 2779.3337 3806980
818.96472 889.32037 2755.2209 4333324
832.69342 886.55536 2746.6545 5056790
850.32965 887.97668 2751.0581 3872518
856.4765 877.57233 2718.8242 3280641
873.00061 877.98871 2720.114 4267275
889.50024 878.36591 2721.2825 4201995
900.75513 873.64258 2706.6492 4070409
919.91443 876.61694 2715.8643 3807239
939.57184 879.95563 2726.2078 4201997
947.5871 872.46216 2702.9922 2688768
957.67072 867.0907 2686.3506 1966336
969.64606 863.57953 2675.4727 4070154
980.19189 858.92871 2661.064 4859667
998.70447 861.29584 2668.3975 4201481
1017.8206 864.1015 2677.0898 3675394
1027.9932 859.34473 2662.3528 3872517
1037.8922 854.50659 2647.3638 3806725
1041.8557 844.99854 2617.9065 3543301
1054.6357 842.81512 2611.1421 3741190
1075.8782 847.3598 2625.2222 3411970
1084.2125 841.75348 2607.853 3807752
1089.2488 833.78021 2583.1509 3281155
1118.9896 844.67627 2616.9082 2820608
1123.2379 836.29431 2590.9399 3083522
1131.2585 830.90918 2574.2559 3017729
1138.1473 824.84711 2555.4749 3412741
1149.3306 822.0155 2546.7024 3609862
1166.3889 823.40491 2551.0068 3412226
1165.8344 812.48401 2517.1729 3675399
1208.3992 831.51001 2576.1174 4267278
1217.3934 827.24908 2562.9167 3214593
1230.9083 826.12738 2559.4414 4069900
1240.9381 822.72235 2548.8923 3543556
1257.6793 823.79517 2552.2161 4201229
1266.203 819.52405 2538.9836 3543558
1288.2155 823.98096 2552.7915 3872522
1302.7229 823.58972 2551.5793 2361088
1315.441 822.08917 2546.9307 5188381
1326.2668 819.45349 2538.7649 3083009
1320.2626 806.59485 2498.9272 4201227
1332.5724 805.08606 2494.2529 4003847
1352.757 808.3158 2504.259 4069381
1370.491 810.0271 2509.5608 3608832
1390.9231 813.27924 2519.6362 3674884
1391.2694 804.84265 2493.4988 3345921
1390.3048 795.83307 2465.5862 4201224
1418.3956 803.46973 2489.2454 4398090
1427.9722 800.56946 2480.2598 4858897
1429.3239 793.16406 2457.3171 4135174
1455.785 799.70135 2477.5706 4332810
1468.3582 798.55518 2474.0195 3543302
1482.1958 798.11261 2472.6484 6503467
1500.3926 800.00299 2478.5051 5253400
1510.3827 797.52344 2470.823 4463885
1532.5559 801.46259 2483.0271 4397834
1539.3468 797.35919 2470.314 3805697
1562.3376 801.6452 2483.5928 4398347
1572.8257 799.49585 2476.9338 3674626
1567.2943 789.31866 2445.4038 3609349
1575.861 786.36292 2436.2463 4332810
1598.7615 790.54858 2449.2141 3806472
1592.7311 780.48193 2418.0264 4990740
1610.7822 782.29022 2423.6287 5450776
1614.7936 777.30823 2408.1938 5516568
1641.2113 783.10468 2426.1521 5516825
1651.9275 781.37366 2420.7891 5714460
1661.7451 779.25116 2414.2131 6109218
1682.4308 782.21753 2423.4036 5977632
1694.1689 781.00903 2419.6594 6306853
1697.3264 775.89838 2403.8259 5385752
1718.1647 778.88782 2413.0876 5451290
1735.7975 780.38684 2417.7319 5319449
1744.8459 778.03357 2410.4412 4464398
1764.2916 780.31708 2417.5156 4661776
1773.1381 777.91357 2410.0693 4464395
1776.054 772.96741 2394.7456 5451035
1814.8231 783.58002 2427.6245 4793104
1804.7161 773.0885 2395.1206 5648156
1826.5647 776.34271 2405.2026 5582363
1833.5717 773.28729 2395.7366 6371879
1864.1162 780.12927 2416.9338 5319190
1889.3212 784.64935 2430.9375 6042913
1915.7157 789.59131 2446.2483 6833197
1949.9075 797.64868 2471.2109 6833198
1972.9033 801.04016 2481.7183 6570026
2007.7351 809.15155 2506.8481 6833198
2056.2461 822.61621 2548.5635 5911841
2064.1406 819.75415 2539.6963 5648414
2092.5977 825.04053 2556.0742 6108965
2089.1208 817.75104 2533.4907 6503722
2116.7817 822.66699 2548.7207 5056019
2122.7444 819.14008 2537.7939 6437927
2147.7173 822.94708 2549.5884 6964014
2188.9387 832.88342 2580.3726 6306341
2207.6758 834.18597 2584.408 6569511
2218.584 832.53284 2579.2864 7227440
2273.999 847.48944 2625.6238 6964269
2311.1646 855.48755 2650.4028 7029805
2354.6519 865.70203 2682.0483 7161648
2406.6499 878.88757 2722.8989 6964012
2439.9153 885.10205 2742.1521 7161649
2440.7078 879.53235 2724.8965 7293235
2486.7302 890.22778 2758.0322 6898478
2514.8804 894.42725 2771.0427 6766892
2527.6462 893.13635 2767.0432 6503720
2586.5654 908.06494 2813.2937 6569513
2615.9758 912.50909 2827.0623 7094830
2628.8584 911.16809 2822.9077 6700071
2658.4028 915.5827 2836.5847 6305570
2680.8079 917.49823 2842.5193 6239775
2709.4507 921.51141 2854.9526 6831656
2700.8677 912.89258 2828.2502 7094828
0 0 0 0
0 0 0 0
0 0 0 0
0 0 0 0
0 0 0 0
0 0 0 0
0 0 0 0
-3164.1541 1163.688 3540.2539 8874020
-3077.4546 1139.3561 3466.2295 8742435
-3032.3762 1130.2096 3438.4038 8874020
-2991.1489 1122.3849 3414.5986 8873764
-2949.5642 1114.3182 3390.0579 8742434
-2903.2778 1104.3527 3359.7397 8742694
-2894.6848 1108.6863 3372.9241 8806952
-3094.509 1193.4607 3630.8306 9004592
-3675.5581 1427.4784 4342.7759 9333305
-3801.1907 1486.6786 4522.8789 9266747
-3844.7603 1514.3961 4607.2031 9135162
-3554.4893 1410.0747 4289.8291 9135166
-3602.333 1439.3477 4378.8853 9200958
-3609.7542 1452.7767 4419.7402 9134908
-3621.5789 1468.1873 4466.6235 8937786
-3617.1633 1477.1926 4494.02 8937785
-3579.1277 1472.4998 4479.7432 8937786
-3499.9458 1450.6821 4413.3682 8871736
-3495.4434 1459.7225 4440.8716 8608564
-3529.1111 1484.9615 4517.6553 8740407
-3535.5427 1499.0383 4560.4805 8937529
-3457.99 1477.449 4494.7998 8674613
-3420.6411 1472.8352 4480.7637 8871992
0 0 0 0
0 0 0 0
0 0 0 0
0 0 0 0
-3218.1311 1441.5864 4385.6963 8805943
-3176.8804 1434.6934 4364.7256 8608821
-3171.0601 1443.8188 4392.4878 8608821
-3171.1882 1455.8262 4429.0176 8477234
-3145.3472 1456.0126 4429.5845 8542771
-3140.9473 1466.2109 4460.6108 8345649
-3122.8855 1470.1509 4472.5972 8148013
-3074.4321 1459.7284 4440.8892 8214063
-3039.3005 1455.5056 4428.0425 8213809
-3012.7402 1455.35 4427.5688 9200703
-2976.9475 1450.6925 4413.3994 9003324
-2944.9285 1447.8077 4404.623 8476724
-2935.2773 1455.9663 4429.4438 8410931
-2907.9839 1455.4421 4427.8491 8213809
-2892.7698 1461.0093 4444.7856 8016943
-2850.0566 1452.6625 4419.3926 8016943
-2818.8022 1450.0554 4411.4614 7950893
-2779.8474 1443.4014 4391.2178 7687721
-2733.1145 1432.5447 4358.189 7819050
-2680.4861 1418.3615 4315.0396 8082735
-2647.9011 1414.6128 4303.6353 7753770
-2612.2395 1409.1318 4286.9604 7753770
-2587.2441 1409.3533 4287.6343 7951149
-2523.396 1388.2047 4223.2949 8016430
-2524.1836 1402.5472 4266.9287 7687209
-2503.0686 1404.8867 4274.0459 7753258
-2490.6926 1412.2292 4296.3838 7687467
-2469.8496 1414.8728 4304.4263 8082480
-2454.1812 1420.5668 4321.749 8280115
-2428.999 1420.8159 4322.5068 8082736
-2405.6372 1422.1466 4326.5552 7687721
-2352.0381 1405.4379 4275.7227 7424550
-2339.1125 1412.9338 4298.5273 7621672
-2263.3577 1382.2253 4205.104 7424293
-2215.4141 1368.0065 4161.8462 7423783
-2196.9033 1371.8469 4173.5298 7226661
-2151.4937 1358.7864 4133.7964 6897697
-2128.968 1360.0441 4137.6226 6963490
-2114.6948 1366.6643 4157.7632 6766112
-2089.1558 1366.0742 4155.9678 6831904
-2040.0652 1349.8861 4106.7192 6831905
-2008.6537 1345.1465 4092.2998 6831904
-1981.1169 1342.9176 4085.5188 7095333
-1950.4542 1338.4883 4072.0437 7227175
-1946.5093 1352.5126 4114.7095 6635039
-1928.9834 1357.3364 4129.3848 6766369
-1884.4102 1343.0077 4085.7932 7226919
-1853.6058 1338.2467 4071.3091 6898211
-1826.3148 1335.9303 4064.2617 6766626
-1776.0356 1316.5116 4005.1846 6503454
-1752.3032 1316.5116 4005.1846 6371612
-1714.4794 1305.7791 3972.5337 6108696
-1677.8669 1295.6833 3941.8196 6108696
-1670.172 1307.9486 3979.134 6437405
-1637.3781 1300.6281 3956.8628 6766370
-1609.7124 1297.2275 3946.5173 6569247
-1588.1841 1298.7455 3951.1357 6371613
-1557.8335 1292.9865 3933.6152 6305563
-1545.9519 1302.6147 3962.9067 5778965
-1518.7742 1299.4525 3953.2864 6371358
-1495.6843 1299.7437 3954.1721 6239772
-1461.447 1290.2028 3925.1462 5779478
-1430.8815 1283.6471 3905.2021 5779478
-1400.8765 1277.3872 3886.1577 5845271
-1354.3704 1255.62 3819.936 5846042
-1325.6 1249.835 3802.3364 6702122
-1311.3447 1257.772 3826.4832 5191456
-1278.2642 1247.6144 3795.5811 4929318
-1245.6028 1237.5095 3764.8391 4337703
-1202.0466 1216.0146 3699.4458 4862752
-1191.4849 1227.719 3735.0537 5319955
-1159.0347 1216.8855 3702.0952 5713685
-1137.8964 1217.7395 3704.6936 5582100
-1110.4316 1211.7238 3686.3918 5647893
-1080.2018 1202.3887 3657.9919 5976858
-1052.4032 1195.4329 3636.8306 5713686
-1031.075 1195.6897 3637.6118 5581843
-1003.9448 1189.0856 3617.5203 5713429
-984.80664 1191.8657 3625.9783 5648149
-962.88977 1191.3318 3624.354 5121806
-931.02917 1178.1901 3584.3733 5187342
-903.35553 1169.8569 3559.0217 5516563
-884.13812 1172.3381 3566.5701 5056526
-857.85974 1165.3489 3545.3069 5713175
-840.35962 1170.2328 3560.1653 5911581
-818.58759 1169.2664 3557.2249 5252624
-785.22894 1151.2612 3502.4485 4726539
-763.57135 1149.8995 3498.3059 5055247
-741.79767 1148.2822 3493.3853 4660489
-719.41266 1145.5985 3485.2209 4924687
-696.25128 1141.4834 3472.7014 4200964
-674.34192 1139.2328 3465.8547 5187860
-649.21039 1131.2262 3441.4963 4529930
-628.96442 1131.4894 3442.2971 4727052
-606.31787 1127.3068 3429.5728 4924687
-585.69879 1126.7345 3427.8318 4858894
-562.87207 1121.7217 3412.5811 4661516
-541.72644 1119.8102 3406.7659 4529930
-521.93805 1120.6647 3409.3657 4398344
-496.70554 1109.4285 3375.1819 4332553
-471.86032 1098.1506 3340.8718 5056017
-450.79663 1095.0713 3331.5034 4463110
-434.78198 1104.5365 3360.2993 5450259
-411.65652 1095.9789 3334.2644 5976857
-393.51999 1100.5103 3348.05 5977628
-371.66745 1094.5789 3330.0054 4529928
-349.56976 1087.22 3307.6177 4266501
-333.39502 1098.5024 3341.9419 4200965
-312.87314 1095.9821 3334.2739 4661259
-291.60779 1090.3418 3317.115 5187860
-269.22208 1079.3945 3283.8103 4727309
-249.06895 1076.3899 3274.6697 4595723
-228.0887 1069.0011 3252.1909 4332294
-208.97516 1069.8048 3254.636 4463882
-190.59856 1074.9282 3270.2227 4661517
-171.46893 1076.4835 3274.9546 4727053
-151.06969 1069.4481 3253.5508 6372134
-129.56116 1051.3528 3198.5 4924686
-110.30248 1048.4415 3189.6433 4858891
-91.934647 1054.5449 3208.2112 5713943
-72.556946 1049.2268 3192.032 6568997
-53.774506 1051.8014 3199.8647 5056272
-34.467258 1041.325 3167.9927 4793102
-15.702393 1041.7736 3169.3572 5122067
3.0729582 1040.2965 3164.8635 4990740
21.687822 1033.7084 3144.8208 4530189
40.291847 1032.9315 3142.4575 3872260
58.900372 1032.7246 3141.8281 4201222
78.154968 1041.2245 3167.6868 3937795
95.80294 1029.173 3131.0229 3806211
113.55095 1021.9321 3108.9941 4332810
131.92725 1021.5779 3107.9167 5845793
149.74725 1017.5305 3095.6033 5122069
167.15327 1011.8604 3078.3533 4266505
187.26357 1022.0656 3109.4004 4595468
207.38716 1030.5087 3135.0867 4661775
223.71022 1020.2312 3103.8196 4661518
241.30034 1016.8547 3093.5471 4595725
259.79251 1017.4877 3095.4734 4661518
275.32083 1007.1949 3064.1597 4924690
291.49478 1000.3914 3043.4614 4463882
312.70013 1010.642 3074.6465 3543300
326.19589 996.21844 3030.7664 4003846
345.15872 999.12567 3039.6108 3806981
362.77289 998.03418 3036.2903 3280640
374.85062 982.53406 2989.1348 3938565
390.3176 976.91547 2972.0415 3609346
408.125 977.38696 2973.4758 3938054
424.5773 974.70837 2965.3269 3543555
440.16437 970.33545 2952.0232 3411969
456.02942 966.88611 2941.5293 4332813
471.89102 963.68359 2931.7866 4333070
488.11691 961.42615 2924.9187 4135434
507.36618 965.07434 2936.0176 4596241
520.39972 957.0495 2911.6038 3280129
533.90906 950.38666 2891.3335 3938313
554.80646 956.88031 2911.0891 2886913
570.38245 954.08124 2902.5735 3806726
588.48096 955.54193 2907.0173 3609347
605.38245 955.03125 2905.4636 3938312
624.06287 957.27753 2912.2974 3872263
631.81439 943.0896 2869.134 3740933
650.57953 945.65417 2876.9363 4135691
662.07898 937.79657 2853.031 3740676
675.71252 933.27753 2839.283 3674626
689.76935 929.54858 2827.9385 3740936
703.73547 925.87714 2816.769 3740933
718.81561 923.80762 2810.4729 3740676
729.9292 916.84943 2789.3042 3872519
741.78009 911.10504 2771.8281 3806470
757.0365 909.70172 2767.5591 3740676
773.99402 910.35876 2769.5579 3214592
788.17841 907.79456 2761.7568 4596243
799.46631 902.06628 2744.3301 3346177
813.26453 899.34253 2736.0437 4662032
828.32672 898.09583 2732.2507 4135944
845.00781 898.61847 2733.8406 3872518
856.45618 893.66119 2718.7595 5385499
872.29297 893.38177 2717.9092 4924690
883.4892 888.44574 2702.8926 5057046
899.10229 888.04797 2701.6826 3543811
913.53156 886.5155 2697.0203 4136202
936.75256 893.42065 2718.0276 3807751
951.51312 892.15967 2714.1914 2820608
952.1662 877.93298 2670.9099 3741446
965.23291 875.43024 2663.2959 4070153
967.7597 863.60254 2627.3127 3938566
980.29022 860.93481 2619.197 4595982
995.52429 860.68793 2618.4458 3938565
1007.2917 857.49725 2608.739 5057046
1022.9279 857.64691 2609.1941 3938823
1034.8115 854.69263 2600.2063 4399117
1057.4877 860.60809 2618.2029 4201738
1068.0126 856.60669 2606.0295 3938569
1074.6348 849.63361 2584.8157 4136201
1088.3998 848.42462 2581.1375 4596498
1102.2383 847.3056 2577.7329 4924950
1114.2054 844.7981 2570.1047 4135693
1126.17 842.35657 2562.6768 2820353
1142.2212 842.99579 2564.6216 3215364
1144.1732 833.34943 2535.2747 3345924
1159.635 833.66522 2536.2354 3346436
1172.972 832.46503 2532.584 2557440
1189.6091 833.6076 2536.0601 2820609
1212.2513 838.87714 2552.0916 2754816
1214.6018 830.14801 2525.5352 3543813
1224.9088 827.0033 2515.968 4332816
1244.088 829.85229 2524.6355 2951424
1262.1367 831.88843 2530.8298 3938313
1265.4395 824.27161 2507.6575 4069900
1275.7528 821.34521 2498.7544 3675142
1300.3879 827.60059 2517.7852 3872520
1307.9136 822.94867 2503.6328 3214337
1315.5205 818.45172 2489.9519 3740937
1331.1904 819.01532 2491.6663 3477505
1325.4354 806.52936 2453.6807 3543555
1357.2278 816.91412 2485.2739 2885632
1376.3042 819.50446 2493.1543 4332813
1385.6473 816.30566 2483.4229 3872519
1385.6633 807.73706 2457.3547 4464398
1409.1207 812.86908 2472.968 4530190
1411.8993 806.0896 2452.3428 4003845
1435.3954 811.1557 2467.7554 3740417
1461.3075 817.47125 2486.969 4266764
1467.3861 812.67639 2472.3818 4530192
1484.0453 813.77826 2475.7339 3740675
1492.2952 810.29236 2465.1289 3872265
1499.4958 806.30994 2453.0132 5056536
1505.0942 801.55054 2438.5339 4661519
1526.3278 805.12921 2449.4211 3872261
1535.0117 802.08301 2440.1538 4267018
1542.8148 798.63763 2429.6721 3872261
1564.5005 802.37585 2441.0447 3674882
1568.1648 796.8877 2424.3481 5056534
1579.0692 795.14502 2419.0464 5056534
1578.5688 787.74243 2396.5259 5516827
1592.2091 787.46539 2395.6831 5056533
1615.6189 791.9823 2409.4248 5582619
1625.0679 789.63641 2402.2878 5516824
1635.3136 787.71509 2396.4426 5779740
1657.6289 791.59052 2408.2327 5319189
1669.9524 790.66913 2405.4294 5450775
1679.8282 788.61401 2399.1775 5648157
1678.4438 781.35168 2377.0835 5056533
1700.9648 785.24615 2388.9314 5188373
1706.1053 781.11877 2376.3748 5517337
1723.4307 782.59198 2380.8567 6109476
1739.5303 783.4892 2383.5864 5451035
1762.3324 787.36646 2395.3821 5122326
1792.2986 794.35699 2416.6492 4201225
1787.0186 785.7392 2390.4314 4924691
1782.8553 777.74402 2366.1082 5385242
1801.324 779.66949 2371.9658 4990226
1825.8372 784.16119 2385.6306 4661517
1835.5044 782.25677 2379.8369 6569515
1860.6196 786.91479 2394.0081 6832428
1879.4736 788.87433 2399.9695 5648667
1893.4655 788.77899 2399.6792 5122580
1918.9883 793.45282 2413.8984 7490872
1942.9143 797.4021 2425.9133 7228211
1997.6036 813.82642 2475.8804 7622967
2021.7709 817.66718 2487.5649 7096367
2043.8008 820.59412 2496.4697 7425336
2050.761 817.47198 2486.9712 5779740
2067.8777 818.41412 2489.8374 6042912
2079.5029 817.18481 2486.0977 6503720
2082.4314 812.57941 2472.0867 6569256
2134.5747 827.10809 2516.2869 6240548
2145.5168 825.5813 2511.6418 7095857
2173.9312 830.75244 2527.3738 6964269
2171.2678 824.05792 2507.0073 7161393
2232.6882 841.6106 2560.4075 6635049
2300.9209 861.47699 2620.8464 6437927
2308.1384 858.38586 2611.4424 6372134
2347.0964 867.06134 2637.8354 6503718
2388.4922 876.51672 2666.6011 6635047
2394.8467 873.07294 2656.1243 6766889
2424.1274 877.97766 2671.0459 6832683
2464.0269 886.63971 2697.3982 6964012
2495.991 892.35315 2714.78 6701096
2485.0178 882.74103 2685.5374 6634536
2592.2256 914.96484 2783.571 6502950
2586.9673 907.33563 2760.3608 6371364
2605.217 907.99567 2762.3687 7358259
2629.6924 910.80359 2770.9111 6897708
2594.3745 892.99561 2716.7346 6568486
0 0 0 0
0 0 0 0
0 0 0 0
0 0 0 0
0 0 0 0
0 0 0 0
0 0 0 0
-3160.0608 1183.1329 3535.6743 8874020
-3100.8342 1168.7065 3492.5627 8873764
-3043.4912 1154.801 3451.0073 8874021
-2986.3101 1140.7692 3409.0745 8939556
-2937.5459 1129.7834 3376.2449 9005346
-2897.3276 1121.9564 3352.8542 8939045
-2890.0725 1126.8739 3367.5498 8873255
-3150.676 1237.0272 3696.7319 9201714
-3516.1462 1390.1842 4154.4263 9333305
-3691.3057 1469.7268 4392.1313 9398332
-3676.4377 1474.2007 4405.501 9134906
-3461.8638 1398.0864 4178.0415 8937784
-3467.9983 1410.6519 4215.5918 8871736
-3476.6287 1424.4222 4256.7432 9529923
-3508.5654 1448.0125 4327.2402 9463873
-3469.45 1442.4104 4310.499 9200701
-3462.562 1450.223 4333.8462 9332287
-3418.1902 1442.3356 4310.2754 9398080
-3431.7168 1458.9442 4359.9087 9200957
-3405.0286 1458.5785 4358.8159 9135164
-3376.2585 1457.3085 4355.0205 9135164
-3362.6377 1462.608 4370.8579 8740406
-3333.2932 1461.0978 4366.3447 8871736
0 0 0 0
0 0 0 0
0 0 0 0
0 0 0 0
-3128.6414 1426.7631 4263.7388 9003578
-3100.7759 1425.5673 4260.165 8805943
-3108.1846 1440.7021 4305.394 8871993
-3101.1138 1449.3203 4331.1484 9398336
-3099.353 1460.5846 4364.811 8608821
-3060.5564 1454.4385 4346.4438 8674357
-3045.666 1459.6451 4362.0034 8937785
-3028.833 1464.0018 4375.0229 8806200
-2989.7195 1457.5715 4355.8066 8937275
-2922.7927 1437.3514 4295.3809 8674103
-2895.8984 1436.6357 4293.2422 8542774
-2875.0012 1438.9091 4300.0356 8345394
-2853.5505 1440.9434 4306.1152 8542517
-2830.5513 1442.2255 4309.9463 8148016
-2801.5574 1440.4486 4304.6367 7753258
-2787.6545 1446.4697 4322.6299 7885101
-2765.6694 1448.3698 4328.3081 7885100
-2727.4314 1441.7142 4308.4185 8082479
-2702.3645 1441.9607 4309.1553 8411957
-2593.1953 1396.9077 4174.519 8345907
-2588.3237 1407.7113 4206.8042 8214065
-2556.9429 1404.1671 4196.2129 8345908
-2524.3501 1399.8812 4183.4048 8477493
-2494.8323 1397.2324 4175.4893 8279859
-2463.1902 1393.329 4163.8242 8148016
-2430.366 1388.6711 4149.9048 8345395
-2417.7356 1395.5745 4170.5347 8608567
-2427.1465 1415.4746 4230.0039 8279601
-2354.5999 1387.4945 4146.3887 8082223
-2355.9561 1402.9327 4192.5239 7490086
-2325.8418 1399.7599 4183.0425 7292708
-2286.7529 1391.0594 4157.042 7161121
-2248.8579 1382.9036 4132.6689 6831903
-2238.4438 1391.6532 4158.8164 6831903
-2192.5095 1378.2688 4118.8184 7094818
-2150.967 1367.3749 4086.2629 7424040
-2103.9507 1352.7135 4042.449 6898210
-2079.9976 1352.7135 4042.449 7358762
-2043.2794 1344.3151 4017.3511 7424297
-2017.8463 1343.2308 4014.1111 7292966
-2019.8876 1360.6282 4066.1011 7358759
-1987.9086 1355.2521 4050.0349 6371865
-1942.1133 1340.2103 4005.0845 6964514
-1907.434 1332.5621 3982.2285 6767651
-1920.9247 1358.7963 4060.6265 9398346
-1868.5828 1338.5374 4000.085 7227175
-1831.0781 1328.5231 3970.1582 6306073
-1821.322 1338.6428 4000.4001 7029796
-1783.1129 1327.8413 3968.1208 6766625
-1739.7174 1312.837 3923.2822 6700834
-1732.1073 1324.797 3959.0232 6898214
-1693.4681 1313.0269 3923.8494 6766624
-1668.4202 1311.6136 3919.6262 6964004
-1619.6344 1291.2361 3858.7297 7621934
-1591.9908 1287.3713 3847.1804 6964004
-1582.1466 1297.9973 3878.9348 7095591
-1563.1056 1301.2799 3888.7446 6437662
-1541.0006 1302.0719 3891.1116 6043160
-1496.8639 1283.9894 3837.074 6371356
-1477.1353 1286.6091 3844.9026 6437148
-1452.0854 1284.6034 3838.9089 6634784
-1447.5858 1301.0032 3887.9177 7095336
-1421.5464 1298.2615 3879.7246 6306589
-1363.1833 1265.4242 3781.5938 5189911
-1342.4463 1267.0007 3786.3049 8286820
-1306.3558 1253.894 3747.137 10329235
-1289.1107 1258.7354 3761.6047 8422014
-1243.042 1235.1074 3690.9949 7896183
-1212.9695 1226.8121 3666.2051 8355960
-1182.7205 1218.0322 3639.9673 9868420
-1160.7635 1217.6245 3638.749 5912348
-1144.1674 1222.9312 3654.6072 5976602
-1119.5964 1219.7545 3645.114 5910552
-1094.2656 1215.6084 3632.7241 5844502
-1072.2269 1215.0269 3630.9861 5647379
-1042.64 1205.6926 3603.0916 5450514
-1017.6892 1201.4414 3590.3872 5581843
-988.31946 1191.6804 3561.2175 5648407
-962.3067 1185.6294 3543.135 5714199
-942.97681 1187.7262 3549.4009 5516307
-914.13391 1177.663 3519.3281 5450514
-893.56738 1178.0414 3520.4587 5910808
-866.84558 1170.1288 3496.8127 5713686
-838.38599 1159.4255 3464.8271 5121295
-833.65411 1181.8223 3531.7576 4792330
-804.89081 1170.4272 3497.7048 5318676
-782.00494 1167.2025 3488.0679 5253139
-756.73639 1160.1497 3466.9912 5121809
-733.47852 1155.8718 3454.2075 4924430
-709.53339 1150.2345 3437.3606 4924686
-689.65808 1151.0563 3439.8167 5319445
-663.63995 1141.3635 3410.8506 5450774
-636.96722 1129.9006 3376.595 6108960
-619.55383 1134.6517 3390.7932 4727309
-598.06354 1132.0049 3382.8831 4727308
-582.96735 1141.6964 3411.8457 4661515
-557.91638 1131.8885 3382.5356 4661259
-536.0907 1128.137 3371.3242 5187860
-511.00803 1116.9755 3337.9695 4858638
-490.64166 1115.6396 3333.9773 4661516
-467.51996 1107.6635 3310.1414 5253653
-447.60013 1106.9069 3307.8804 4661513
-424.52197 1097.9128 3281.0027 5056269
-409.48938 1109.8619 3316.7112 5253135
-391.573 1114.8057 3331.4849 5056269
-370.00174 1109.3164 3315.0813 4990479
-349.75189 1107.3956 3309.3411 4661514
-329.14059 1104.0342 3299.2957 4661516
-308.43872 1099.9253 3287.0166 4135173
-288.86389 1099.5525 3285.9026 4858123
-265.43179 1083.382 3237.5786 5516053
-247.20935 1087.6122 3250.2202 4792330
-227.9377 1087.5511 3250.0378 4529160
-206.26096 1074.9446 3212.3643 4134663
-187.37219 1075.7816 3214.8657 4924431
-169.28128 1081.9073 3233.1716 4858637
-149.07426 1074.3461 3210.5757 4661257
-128.75275 1063.627 3178.5425 4727051
-109.85322 1062.9943 3176.6519 4858379
-91.151497 1064.4097 3180.8818 5384210
-72.173256 1062.4923 3175.1521 5450773
-52.847576 1052.3047 3144.7073 4595466
-34.277626 1054.2642 3150.5627 3674626
-15.493337 1046.4335 3127.1616 3345921
3.0206025 1041.0059 3110.9417 6108960
21.526567 1044.5181 3121.438 4858892
40.038017 1044.9272 3122.6606 4003590
58.211697 1039.0487 3105.093 4201223
75.954086 1030.1443 3078.4832 4398603
93.727882 1025.0321 3063.2061 4529932
112.22726 1028.2266 3072.752 4200968
130.00221 1024.8184 3062.5671 4398346
148.1389 1024.7473 3062.355 4003588
166.82523 1028.0792 3072.3118 4595468
184.99911 1027.9081 3071.8005 4792847
199.98184 1011.6248 3023.1396 4661518
221.57747 1028.7208 3074.2292 4135174
237.69246 1019.7073 3047.2932 4529932
253.18146 1009.4706 3016.7017 4661261
271.39651 1010.7363 3020.4844 3412741
285.58359 997.77252 2981.7434 5122580
307.47989 1011.6846 3023.3181 4332811
326.13251 1013.9799 3030.1775 3872517
342.57602 1009.5257 3016.8665 2754304
360.71417 1010.2595 3019.0593 3675138
372.62784 994.31458 2971.4097 3543301
387.11432 986.36407 2947.6504 3938310
402.13867 980.41138 2929.8613 4267277
420.25818 982.18506 2935.1616 3543554
437.64313 982.16913 2935.114 4069898
454.05338 980.0506 2928.7832 4069642
468.06128 973.09369 2907.9932 3741188
480.54623 963.57703 2879.5535 4267531
501.70605 971.51117 2903.2639 4661778
516.73297 967.43701 2891.0886 4004105
533.19543 966.22577 2887.469 3938312
551.03796 967.513 2891.3157 3873548
564.57166 961.38519 2873.0034 3280897
585.49792 967.83612 2892.2815 4333070
597.98523 960.36725 2869.9614 4464399
611.10278 954.29565 2851.8169 3411972
631.25665 959.24292 2866.6013 2886403
645.52094 955.21576 2854.5667 4201483
655.02173 944.52551 2822.6199 4267276
664.92456 934.93274 2793.9529 4201227
686.93225 942.41296 2816.3069 3411715
700.36157 938.04865 2803.2646 4135691
710.11145 929.07269 2776.4407 3280131
721.3197 922.36792 2756.4043 3543555
736.19659 920.54755 2750.9641 3806726
757.80121 927.03601 2770.3545 4135690
769.46057 921.34113 2753.3359 3741190
777.61029 911.76758 2724.7261 4201739
796.34802 914.74579 2733.6262 3609347
806.95325 908.44958 2714.8108 3872517
820.21637 905.3335 2705.4985 3149056
836.90668 906.04712 2707.6311 3806982
845.1676 897.77979 2682.925 4464653
868.20435 905.22351 2705.1699 5122326
878.60309 899.45941 2687.9443 5846305
891.9007 896.81525 2680.0427 4201481
902.23877 891.34003 2663.6804 4662031
921.31262 894.53491 2673.228 4070665
932.51849 890.11151 2660.0093 3478275
945.6239 887.61829 2652.5583 3149314
956.22919 882.89807 2638.4526 3675652
969.94324 881.15399 2633.2405 4793875
975.00623 871.73047 2605.0791 4662545
993.83856 874.71954 2614.0117 4859411
1001.4814 867.91968 2593.6912 3806982
1014.7091 866.09235 2588.2302 3938567
1028.3479 864.66498 2583.9648 4004102
1037.475 859.54163 2568.6541 4267532
1063.1613 868.08728 2594.1919 3740930
1078.2279 867.8418 2593.4585 4464653
1082.1266 858.74066 2566.2605 2885632
1099.7375 860.62274 2571.8848 3478017
1102.5057 850.99634 2543.1174 4333067
1123.4153 855.44385 2556.4082 4135688
1135.3976 853.06543 2549.3008 3675652
1151.6991 853.95221 2551.9507 3806726
1158.6415 847.96637 2534.0625 3938058
1172.2546 846.95331 2531.0352 2951168
1188.4897 847.83618 2533.6736 2819840
1200.5677 845.76855 2527.4946 3938314
1212.4618 843.62384 2521.0854 3675142
1224.3389 841.51971 2514.7974 3412486
1240.2546 842.20874 2516.8564 3345923
1241.4153 832.98065 2489.2793 3938315
1263.7814 838.03094 2504.3716 3806729
1269.7372 832.20856 2486.9719 4333070
1257.5496 814.76459 2434.8423 3740934
1287.1937 824.51166 2463.9705 3543556
1310.171 829.8175 2479.8267 3608835
1324.4698 829.57001 2479.0869 3609090
1329.0436 823.30365 2460.3604 4727314
1338.2822 820.03149 2450.582 4332557
1348.8961 817.66327 2443.5049 4332555
1365.5474 818.96613 2447.3984 3215107
1371.9001 814.13037 2432.947 3477506
1381.8544 811.51007 2425.1165 3083011
1428.9639 830.53882 2481.9822 4529935
1424.7454 819.65118 2449.4456 4003848
1449.9915 825.76312 2467.7104 3478533
1449.4135 817.19318 2442.0999 3938055
1467.3105 819.10602 2447.8164 3872262
1478.4446 817.24304 2442.249 4529935
1491.8579 816.66394 2440.5183 4003848
1495.5696 810.836 2423.1023 3938056
1509.6069 810.66394 2422.5879 4267019
1500.0864 797.96356 2384.6343 5188120
1537.0734 810.00879 2420.6301 4924948
1553.3307 811.00812 2423.6167 3608834
1564.1854 809.19434 2418.1963 4595985
1573.9105 806.83435 2411.1438 5253656
1568.1521 796.65088 2380.7114 4398603
1579.8794 795.45294 2377.1316 4924947
1589.1416 793.04584 2369.9382 5845792
1610.6986 796.76294 2381.0461 6174500
1630.0265 799.3222 2388.6946 4727311
1645.5603 799.99316 2390.6995 4858896
1653.6365 797.05792 2381.9277 5319191
1644.774 786.0769 2349.1123 4858896
1658.7739 786.11505 2349.2263 5384984
1681.5416 790.27313 2361.6521 4069894
1684.8157 785.27679 2346.7212 5254166
1715.1371 792.8656 2369.3994 6175011
1738.6223 797.19659 2382.3423 6306853
1750.5884 796.21863 2379.4197 5188119
1760.8877 794.50415 2374.2961 4924947
1766.408 790.67773 2362.8613 4924949
1767.865 785.10712 2346.2139 4990485
1783.2637 785.76642 2348.1843 5450778
1790.5277 782.85895 2339.4956 4990740
1820.3889 789.80023 2360.2388 5911582
1845.6716 794.66443 2374.7749 5582874
1865 796.91058 2381.4875 6043425
1868.9083 792.58368 2368.5569 7227954
1891.9216 796.36298 2379.8511 6504231
1911.593 798.69019 2386.8057 5977887
1945.8628 807.03778 2411.7515 5714715
1967.5657 810.0896 2420.8716 7359283
1986.2639 811.86902 2426.1892 6833196
2009.991 815.66364 2437.5293 6701353
2033.9305 819.48987 2448.9634 7885370
2042.1691 816.98047 2441.4644 6240547
2069.2786 822.00262 2456.4727 5845790
2091.5349 825.04034 2465.5505 6635306
2081.8328 815.51685 2437.0903 6898478
2128.3245 827.98572 2474.3523 6832682
2127.1448 821.86505 2456.0615 7029804
2143.5474 822.57483 2458.1824 6898219
2140.9763 816.04297 2438.6628 6569512
2204.4409 834.59991 2494.1184 5911070
2218.0664 834.1662 2492.8223 6370851
2273.135 849.22107 2537.812 6239778
2320.9329 861.37952 2574.1465 6700585
2334.9917 860.93927 2572.8308 5977375
2368.8718 867.76569 2593.231 6240546
2422.187 881.57764 2634.5066 6766890
2420.2983 875.24939 2615.5952 6963244
2417.3572 868.6236 2595.7947 7226672
2474.8596 883.66327 2640.7393 6700329
2512.7344 891.5498 2664.3074 7029037
2535.4517 893.99329 2671.6096 6568486
2544.7769 891.71387 2664.7976 6831658
0 0 0 0
0 0 0 0
0 0 0 0
0 0 0 0
0 0 0 0
0 0 0 0
0 0 0 0
-3088.6819 1176.8856 3455.811 9005860
-3057.0889 1172.6218 3443.291 9005860
-3018.7727 1165.7046 3422.979 8940068
-2959.7793 1150.6552 3378.7878 8874274
-2916.0117 1141.3604 3351.4946 8808228
-2889.7537 1138.8386 3344.0896 8873766
-2858.5835 1134.3326 3330.8584 8807460
-3105.3555 1240.8228 3643.5566 9070129
-3524.2571 1418.0643 4164.0093 9333050
-3550.3191 1438.6229 4224.3774 9069368
-3502.877 1429.4773 4197.5225 9200956
-3414.7822 1403.4924 4121.2202 9069371
-3418.6597 1415.2065 4155.6177 9003578
-3412.8457 1423.0496 4178.6479 8937786
-3442.2268 1445.7898 4245.4224 8871736
-3404.6206 1440.5219 4229.9536 8805945
-3381.3252 1441.2758 4232.1675 8542518
-3366.6531 1445.7441 4245.2886 8476981
-3326.4131 1439.2174 4226.123 8937275
-3306.9485 1441.6487 4233.2622 9003579
-3277.3867 1439.6815 4227.4858 9069372
-3240.8472 1434.5955 4212.5513 9134908
-3187.7524 1422.045 4175.6982 9003579
0 0 0 0
0 0 0 0
0 0 0 0
0 0 0 0
-3052.8225 1416.8395 4160.4126 9003322
-3054.9678 1429.3776 4197.2295 9003322
-3054.2847 1440.7872 4230.7329 8674614
-3015.8716 1434.4403 4212.0957 9200957
-2988.2566 1433.1663 4208.3545 9003579
-2957.3804 1430.2933 4199.9185 9200957
-2932.166 1430.1333 4199.4487 8937785
-2885.9211 1419.6252 4168.5928 8740151
-2884.1875 1431.0206 4202.0542 8476981
-2865.8652 1434.312 4211.7192 8411188
-2833.8616 1430.7539 4201.271 8411188
-2823.1829 1437.9948 4222.5327 8805689
-2797.7888 1437.8024 4221.9683 8411187
-2757.7063 1429.9904 4199.0288 8148015
-2729.927 1428.4736 4194.5752 8147759
-2694.0645 1422.6606 4177.5059 8148272
-2649.7012 1412.2094 4146.8164 8082736
-2636.8545 1418.5166 4165.3374 8214321
-2590.2344 1406.6029 4130.354 8345651
-2541.2385 1393.1595 4090.8789 8214321
-2520.543 1395.1216 4096.6401 8148529
-2486.5859 1389.7098 4080.7493 8345908
-2454.0911 1385.0175 4066.9702 8345908
-2420.6428 1379.6882 4051.3218 8411444
-2387.0476 1374.1678 4035.1113 8280115
-2364.5557 1374.9922 4037.5322 8279858
-2344.1169 1377.0396 4043.5439 8279602
-2335.0525 1385.88 4069.5032 8279858
-2308.3467 1384.3254 4064.9382 8082479
-2296.074 1391.4849 4085.9614 7555879
-2292.0386 1403.842 4122.2471 7555623
-2249.3945 1392.5636 4089.1289 6963742
-2205.7266 1380.3986 4053.4075 6766110
-2153.6252 1362.6301 4001.2319 6831646
-2110.6011 1350.2728 3964.946 6766366
-2099.688 1358.4122 3988.8464 7095587
-2063.6333 1350.286 3964.9849 7621932
-2041.2587 1351.027 3967.1604 7556139
-1987.1309 1330.5242 3906.9558 7292967
-1954.4885 1324.0936 3888.0735 7424296
-1929.1171 1322.4941 3883.3767 7161381
-1911.3375 1326.1237 3894.0344 7095588
-1871.3077 1314.2153 3859.0669 6964001
-1871.8851 1330.8837 3908.0117 7424553
-1861.5984 1340.1486 3935.217 7358762
-1844.6743 1344.8098 3948.9043 7885106
-1821.3346 1344.8533 3949.0322 8608829
-1773.1022 1326.2783 3894.4888 7095846
-1760.2343 1334.0151 3917.2068 7293482
-1721.6617 1322.2175 3882.5645 7095333
-1679.2938 1307.1462 3838.3091 7424555
-1661.7275 1311.2314 3850.3049 7424555
-1632.1752 1305.8409 3834.4761 7161383
-1602.8793 1300.5062 3818.811 6898211
-1571.6357 1293.4158 3797.991 7227176
-1554.2266 1297.67 3810.4832 7095333
-1501.2209 1271.8912 3734.7861 7621934
-1475.7234 1268.9955 3726.283 7161385
-1461.1553 1275.553 3745.5383 6766626
-1440.6992 1277.0934 3750.0618 6898469
-1420.8269 1279.2076 3756.27 6372639
-1393.2285 1274.3224 3741.925 6372386
-1373.5374 1276.6287 3748.697 7495493
-1346.288 1271.8702 3734.7244 8485747
-1312.9508 1261.1053 3703.1143 8157556
-1278.9276 1249.3044 3668.4622 8026230
-1254.3254 1246.4573 3660.1018 8751235
-1248.0669 1262.0593 3705.9155 10263959
-1219.5215 1255.2798 3686.0081 8879990
-1193.4874 1250.8853 3673.104 5518881
-1149.9338 1227.6241 3604.8 5320471
-1134.9755 1234.5875 3625.2473 6108957
-1107.0641 1227.4579 3604.3118 6108955
-1078.2671 1219.0465 3579.6125 6240028
-1052.2725 1213.5294 3563.4121 6108699
-1030.8912 1213.2156 3562.4907 6305052
-990.53284 1190.0885 3494.5801 5712915
-970.23499 1190.5902 3496.0535 5383950
-943.27448 1182.7599 3473.0603 5778964
-918.86804 1177.8539 3458.6545 5647122
-901.44775 1181.8837 3470.4875 5976600
-878.95508 1179.2961 3462.8894 5845271
-859.70117 1181.0341 3467.9924 4858121
-835.80481 1176.3234 3454.1602 5253135
-818.20868 1180.4656 3466.3235 6042650
-794.54535 1175.8424 3452.748 5713685
-771.58276 1172.0393 3441.5806 4924170
-749.21649 1168.9602 3432.5388 5450260
-728.52014 1168.3873 3430.8569 5581589
-701.62689 1157.5579 3399.0571 5055245
-681.47009 1157.5308 3398.9773 5121038
-659.76508 1154.792 3390.9353 5647896
-638.02667 1151.8208 3382.2109 5318674
-617.64319 1151.1824 3380.3362 5516309
-591.21967 1138.8663 3344.1714 5582102
-573.16974 1142.3854 3354.5046 5648152
-554.26355 1144.3894 3360.3892 5779738
-527.36255 1129.4207 3316.4351 5253650
-504.97272 1123.3286 3298.5461 5451030
-486.96634 1126.8896 3309.0029 5648666
-466.84225 1125.6433 3305.343 5911323
-444.50803 1118.7252 3285.0288 5516049
-422.86636 1112.9965 3268.207 5581843
-402.37396 1109.8881 3259.0793 5384464
-384.20065 1113.1854 3268.7615 5318671
-367.66135 1121.8185 3294.1121 5516307
-344.03741 1108.5911 3255.2708 5056015
-325.41357 1110.861 3261.936 4793099
-303.37259 1101.0159 3233.0269 4990222
-281.46524 1090.3613 3201.7407 4924686
-264.07352 1096.9238 3221.0112 4990479
-244.28889 1093.7949 3211.8232 5516823
-225.15817 1093.3124 3210.4062 4924430
-204.84747 1086.4822 3190.3503 5385237
-185.35738 1083.0582 3180.2961 5056272
-167.45377 1089.1783 3198.2673 5187089
-147.51067 1081.9021 3176.9011 4660488
-127.33479 1070.5399 3143.5371 4792330
-108.81659 1071.6085 3146.675 5318674
-90.221619 1072.2069 3148.4321 5845018
-70.791893 1060.6106 3114.3809 5187601
-52.044933 1054.6731 3096.9458 4924688
-33.62492 1052.5018 3090.5703 3608832
-15.355315 1055.476 3099.3035 3741190
2.9754214 1043.5928 3064.4094 6635047
21.756504 1074.3685 3154.7798 5582099
39.491585 1048.9167 3080.043 5384977
57.632359 1046.9237 3074.1904 4793099
75.450081 1041.429 3058.0557 4200965
93.689651 1042.7573 3061.9565 4200967
111.50348 1039.6852 3052.9351 4200710
129.53973 1039.255 3051.6721 4398346
146.33865 1030.2195 3025.1401 4200967
165.67421 1039.0651 3051.1145 4792847
184.28598 1042.0773 3059.9595 5056275
201.61447 1037.9432 3047.8203 3477248
218.46301 1032.2212 3031.0183 3674883
233.74174 1020.515 2996.6438 4200968
250.12256 1014.9335 2980.2544 4135173
265.68152 1006.9731 2956.8796 3740420
285.96588 1016.7999 2985.7349 5187862
305.95633 1024.4973 3008.3376 4924945
320.30453 1013.4943 2976.0283 4464395
337.59888 1012.4751 2973.0356 4004358
352.73868 1005.416 2952.3071 3214848
366.99527 996.62543 2926.4944 4399117
385.58929 999.87549 2936.0381 4333068
401.96039 997.32971 2928.5625 3740935
418.72119 995.92133 2924.427 4727827
434.43448 992.23236 2913.5947 3675395
450.5 989.5993 2905.8628 4398604
464.3277 982.42529 2884.7971 4003846
481.13153 981.83392 2883.0608 3872261
494.93472 975.36987 2864.0796 3806470
514.59039 980.48547 2879.1011 4333070
528.42651 974.54022 2861.6436 4135691
545.07623 973.99213 2860.0342 3740933
562.05389 974.04559 2860.1909 3346176
574.39313 966.29266 2837.4253 3017216
590.914 965.81543 2836.0239 4464399
609.02167 967.88641 2842.105 4069898
620.55725 959.68219 2818.0144 4135691
633.97852 954.7478 2803.5249 3411972
657.28461 964.57141 2832.3711 3938312
637.25543 911.89429 2677.6897 4201484
676.60248 944.67828 2773.9565 4333070
694.27618 946.36432 2778.9075 4201737
703.85492 937.19354 2751.9785 4004104
722.52808 940.27325 2761.022 4201482
733.39337 933.28082 2740.4893 3148800
748.24408 931.55304 2735.4158 3938055
768.39661 936.35925 2749.5288 4464657
779.89514 930.63922 2732.7324 4924950
797.15027 931.88141 2736.3799 3477762
807.47241 925.1308 2716.5576 3346177
824.87555 926.59839 2720.8669 3148544
836.76135 921.93085 2707.1609 2425600
838.42175 906.3844 2661.5105 4004102
864.10382 916.90161 2692.3933 4135431
870.84534 907.30396 2664.2107 5253655
885.9455 906.60162 2662.1482 4464139
899.79364 904.66504 2656.4617 3872518
913.62701 902.7804 2650.9277 4267531
930.22498 903.6452 2653.467 3806983
937.93036 895.98621 2630.9771 3675141
945.42395 888.37872 2608.6384 2557184
962.2077 889.60516 2612.2397 3740932
971.73468 884.1897 2596.3379 5516829
982.16931 879.7561 2583.3191 4069641
995.85583 878.32672 2579.1218 3609089
1009.899 877.25031 2575.9612 3675396
1025.2244 877.30322 2576.1162 2886400
1035.8114 873.35931 2564.5354 4267531
1047.6106 870.53668 2556.2471 4135690
1062.7844 870.55878 2556.312 4135948
1077.9097 870.5412 2556.2603 4004615
1091.4878 869.29169 2552.5913 4333326
1089.5054 855.85297 2513.1299 4004102
1112.7719 862.34351 2532.1885 4069898
1121.0951 857.23486 2517.1875 4069899
1146.6508 865.26398 2540.7644 3872519
1150.0409 856.57574 2515.2522 4069898
1164.6871 856.38623 2514.6958 4069899
1177.4677 854.84711 2510.1763 3675141
1198.3755 859.17322 2522.8794 3807500
1208.7832 855.9574 2513.4365 3280128
1213.028 848.50891 2491.5647 3543555
1225.9205 847.21588 2487.7678 3543557
1243.3605 849.05896 2493.1797 3543557
1248.799 842.7594 2474.6819 4201485
1265.2579 843.95709 2478.1987 3543557
1261.849 832.02686 2443.1667 3938314
1267.5043 826.27631 2426.2808 2820609
1300.568 838.32153 2461.6504 4662037
1308.6274 834.16119 2449.4338 4135692
1320.8126 832.69299 2445.1228 3346179
1340.2587 835.78467 2454.2012 4267276
1333.925 822.90637 2416.3853 4135688
1351.5028 824.89587 2422.2273 4332811
1358.9281 820.71222 2409.9421 4662032
1374.8036 821.66583 2412.7424 3609092
1384.4839 818.9353 2404.7246 3345922
1389.3262 813.42786 2388.5525 4398606
1428.3977 827.87 2430.9604 4727827
1435.1919 823.50336 2418.1382 3938058
1455.7446 827.03949 2428.5217 4464396
1471.3495 827.72296 2430.5286 4135432
1474.1069 821.23578 2411.4797 4727569
1487.6587 820.82892 2410.2852 5056533
1499.6583 819.58167 2406.6226 4727568
1513.073 819.12402 2405.2786 4793361
1502.1073 805.59924 2365.5647 4398603
1546.4772 821.72736 2412.9233 4398606
1552.2362 817.23193 2399.7229 4530192
1548.0817 807.64624 2371.5752 4200970
1561.1014 807.1123 2370.0076 4201483
1568.6873 803.80353 2360.2915 3740676
1589.8634 807.45532 2371.0146 4267018
1605.1985 808.10266 2372.9155 4003334
1603.7744 800.37494 2350.2239 4266760
1622.2025 802.60248 2356.7649 4266760
1630.8811 800.0094 2349.1504 4858896
1634.8508 795.16992 2334.9397 5911585
1654.1406 797.80054 2342.6643 5714204
1669.4369 798.47729 2344.6516 4661259
1677.571 795.74561 2336.6304 5385239
1688.418 794.33496 2332.488 5517080
1716.0757 800.79175 2351.4478 6109216
1732.0765 801.74878 2354.2581 6109473
1744.1176 800.87219 2351.6841 5714714
1754.1594 799.09882 2346.4768 5517337
1756.6151 793.92487 2331.2837 4924944
1758.6786 788.65558 2315.811 5187862
1789.3624 796.20288 2337.9729 5451034
1806.1035 797.47797 2341.717 5319192
1815.443 795.49036 2335.8806 5911585
1832.254 796.78174 2339.6729 5122069
1838.2388 793.38135 2329.688 6108705
1825.854 782.16248 2296.7446 5911582
1887.1395 802.435 2356.2729 6043169
1894.9852 799.85345 2348.6926 5713947
1915.3055 802.5365 2356.571 5977376
1922.5558 799.74384 2348.3708 5977119
1947.7208 804.39001 2362.0139 5648412
2009.8591 824.13062 2419.98 6174755
2014.4619 820.16638 2408.3396 7095857
2042.9137 825.8996 2425.1746 7753786
2009.5706 806.745 2368.929 5977374
2014.8685 803.26117 2358.699 5977373
2070.99 819.94733 2407.6963 6569769
2082.4878 818.85858 2404.4993 6437926
2099.7007 820.01672 2407.8999 6174498
2119.2781 822.07623 2413.9478 6569513
2138.7712 824.07587 2419.8193 6503720
2155.874 825.13385 2422.926 6635306
2221.4226 844.59723 2480.0784 7227443
2243.4712 847.37463 2488.2339 6635049
2255.0132 846.1731 2484.7058 6043169
2294.4072 855.37067 2511.7136 6569512
2314.6528 857.35712 2517.5464 6306341
2337.4912 860.27222 2526.1064 7029293
