# .PCD v0.7 - Point Cloud Data file format
VERSION 0.7
FIELDS x y z rgb
SIZE 4 4 4 4
TYPE F F F U
COUNT 1 1 1 1
WIDTH 1284
HEIGHT 1
VIEWPOINT 0 0 0 1 0 0 0
POINTS 1284
DATA ascii
950.49109 1144.3378 2286.2134 5711118
979.92285 1163.1936 2323.8845 5710861
978.35321 1145.2375 2288.011 5842447
995.69257 1149.604 2296.7346 5579275
1015.6384 1156.8217 2311.1543 5250055
1020.5 1146.8948 2291.322 5513484
1033.4725 1146.2244 2289.9827 4987143
1045.0587 1144.0537 2285.6458 4921609
1057.0028 1142.3254 2282.1929 4724229
1066.5798 1138.1147 2273.7808 4724742
1068.0608 1125.478 2248.5344 4199173
1081.3408 1125.4329 2248.4441 4791822
1106.4246 1137.5242 2272.6008 3739652
1129.0616 1146.8396 2291.2117 3739909
1139.0156 1143.2039 2283.948 2885376
1155.807 1146.4355 2290.4043 4530453
1156.7571 1134.0616 2265.6833 3938572
1157.2954 1121.5728 2240.7322 4530449
1181.256 1131.809 2261.1826 4595727
1200.9734 1137.7954 2273.1428 5187349
1208.6067 1132.3278 2262.2192 4660235
1216.3806 1127.1104 2251.7957 4856840
1236.1262 1132.9789 2263.52 4462083
1252.9937 1136.1118 2269.7791 4199170
1264.407 1134.2854 2266.1301 4658947
1277.5903 1134.0685 2265.6968 4987654
1290.7611 1133.845 2265.2502 4921603
1309.157 1138.1686 2273.8884 4921347
1317.8494 1134.0543 2265.6685 5184518
1317.8463 1122.6154 2242.8154 4986884
1342.8513 1132.4957 2262.5547 4526594
1352.9237 1129.7115 2256.9924 4789505
1367.1448 1130.4122 2258.3923 4921348
1374.4021 1125.3973 2248.3733 4592641
1390.6025 1127.7313 2253.0361 4132352
1405.868 1129.2698 2256.1099 4197632
1390.4404 1106.3572 2210.334 5184519
1401.3164 1104.6063 2206.8359 4789762
1423.4689 1111.6945 2220.9971 4723715
1436.6406 1111.7034 2221.0149 5974034
1451.1011 1112.7002 2223.0063 5250055
1459.3048 1108.9247 2215.4634 4723712
1480.4193 1114.9399 2227.481 4855554
1495.9188 1116.6573 2230.9121 4986883
1503.9788 1112.8401 2223.2856 4855559
1517.3976 1113.0197 2223.6445 5579277
1536.8572 1117.5891 2232.7734 5447691
1554.1971 1120.5521 2238.6934 5381897
1559.7057 1115.0072 2227.6152 5381898
1588.6542 1126.1714 2249.9197 5644813
1596.7402 1122.4838 2242.5522 5250311
1610.5757 1122.8654 2243.3147 5184263
1607.0669 1111.2477 2220.1045 4921604
1626.8562 1115.798 2229.1951 4988166
1648.1163 1121.2755 2240.1384 5974805
1654.99 1116.9562 2231.509 5053446
1662.4327 1113.0862 2223.7773 4527362
1681.6144 1117.0751 2231.7466 5645585
1688.271 1112.7466 2223.0989 5250314
1703.2618 1113.9355 2225.4744 5118985
1714.3511 1112.5742 2222.7546 5382413
1717.9309 1106.3976 2210.4146 5448463
1733.6414 1108.0676 2213.751 4264448
1737.9755 1102.4957 2202.6194 4330242
1740.7389 1096.0182 2189.6782 4987912
1766.999 1104.321 2206.2661 4132608
1781.1447 1104.9866 2207.5957 5317136
1780.6998 1096.6567 2190.9539 3343104
1805.2971 1103.7581 2205.1414 3015680
1797.8583 1091.3114 2180.2747 3935489
1812.2861 1092.2207 2182.0913 4133121
1812.1906 1084.4263 2166.5193 4329987
1836.4225 1091.1968 2180.0457 4461572
1844.7008 1088.4594 2174.5767 4264452
1856.9374 1088.0792 2173.8174 3869696
1892.9062 1101.5145 2200.6592 4264450
1906.573 1101.877 2201.3831 4396034
1905.881 1093.9923 2185.6309 4724999
1915.8185 1092.2743 2182.1985 4724999
1949.9935 1104.3054 2206.2349 5251086
1969.6162 1107.9901 2213.5962 5514514
1954.9169 1092.446 2182.5415 3738624
1949.7162 1082.3795 2162.4302 4922380
1964.7495 1083.6039 2164.8762 4725002
1980.5002 1085.2056 2168.0762 3606784
1965.3676 1069.9731 2137.644 4593418
1985.8396 1074.1954 2146.0796 4527879
2009.5205 1080.0886 2157.8535 3410433
2024.5753 1081.3003 2160.2742 3542017
2016.3303 1070.1309 2137.9592 4462857
2021.5039 1066.178 2130.062 3738624
2030.0648 1064.0497 2125.8101 4067328
0 0 0 0
0 0 0 0
0 0 0 0
0 0 0 0
0 0 0 0
0 0 0 0
0 0 0 0
0 0 0 0
-2321.1572 1324.0936 2614.3889 1572864
-2300.2759 1320.9983 2608.2773 2359808
-2271.2744 1313.1661 2592.813 2622720
-2247.8162 1308.4541 2583.5093 3017472
-2238.3799 1311.8958 2590.3047 3477248
-2214.127 1306.641 2579.9294 3346176
-2204.5208 1310.017 2586.595 3346176
-2192.6448 1312.0815 2590.6716 3345920
-2169.3516 1307.2954 2581.2214 3411968
-2147.7712 1303.4807 2573.6895 3675136
-2148.8513 1313.4624 2593.3979 3280384
-2129.8809 1311.2439 2589.0176 2885632
-2122.3398 1316.0807 2598.5676 3214593
-2115.7236 1321.5658 2609.3979 3412224
-2110.6118 1328.0785 2622.2571 3214592
-2094.8755 1327.9528 2622.0088 2951680
-2079.4126 1327.9998 2622.1016 2820096
-2063.6951 1327.8835 2621.8723 2951680
-2043.282 1324.7213 2615.6284 4333065
-2010.6854 1313.5515 2593.574 2951424
-2006.1718 1320.697 2607.6826 3674880
-2010.1838 1333.6097 2633.1785 3082240
-1994.407 1333.4933 2632.9485 3805952
-1969.6089 1327.2957 2620.7114 3872000
-1970.4025 1338.3824 2642.6021 3740416
-1954.7666 1338.3981 2642.6328 3805952
-1934.8384 1335.4512 2636.8142 3674624
-1916.443 1333.5228 2633.0068 3345920
-1885.9233 1323.0571 2612.3425 2951424
-1863.2351 1317.9579 2602.2742 3610631
-1855.2717 1323.276 2612.7747 6443061
-1832.0966 1317.7424 2601.8489 7300169
-1806.6609 1310.4753 2587.5 7958870
-1781.6707 1303.4097 2573.5491 8222042
-1783.047 1315.6775 2597.7715 8417365
-1758.0787 1308.5503 2583.6992 5718054
-1766.187 1326.1334 2618.4167 3545088
-1739.5154 1317.6824 2601.7302 2622976
-1726.2357 1319.3154 2604.9546 2885376
-1710.6313 1319.1852 2604.6975 3608832
-1690.9996 1315.9185 2598.2473 3542016
-1676.8251 1316.8774 2600.1409 4001280
-1655.3019 1312.0294 2590.5686 4528131
-1656.752 1325.4703 2617.1072 4330754
-1633.2874 1319.0441 2604.4187 4593922
-1606.6956 1309.9458 2586.4543 4133376
-1594.8826 1312.8373 2592.1636 4265216
-1578.6287 1312.0939 2590.6958 4528644
-1563.2776 1312.0939 2590.6958 4331522
-1539.1595 1304.6624 2576.0225 3805184
-1533.8302 1313.1677 2592.8162 4068096
-1522.931 1317.0286 2600.4392 3739392
-1521.4235 1329.173 2624.4182 4660229
-1490.6323 1315.7209 2597.8574 4396544
-1474.2239 1314.8156 2596.0698 4593152
-1454.5929 1310.9868 2588.51 4461568
-1442.9435 1314.3464 2595.1436 4790532
-1423.1772 1310.3057 2587.165 4790275
-1410.0789 1312.3827 2591.2661 4921603
-1392.6539 1310.4344 2587.4192 5053188
-1376.1855 1309.3525 2585.2832 5053186
-1374.0819 1322.0675 2610.3887 4724993
-1358.2841 1321.7462 2609.7542 4790784
-1354.7124 1333.4518 2632.8665 5251079
-1326.1603 1320.5551 2607.4023 5185286
-1310.4552 1320.2981 2606.8948 5053699
-1286.9471 1312.0796 2590.6675 4856320
-1267.17 1307.5122 2581.6497 5316871
-1250.2349 1305.8016 2578.272 4790530
-1237.0555 1308.0199 2582.6519 4658688
-1221.3018 1307.5375 2581.6995 4856067
-1207.5431 1309.2061 2584.9939 4724480
-1198.2853 1315.8599 2598.1316 4527104
-1179.373 1311.9473 2590.4062 4724480
-1167.7618 1316.1603 2598.7249 4724224
-1146.4554 1309.4126 2585.4019 5052931
-1132.8461 1311.3923 2589.3105 4329472
-1120.4342 1314.8317 2596.1016 4461568
-1103.0239 1312.4196 2591.3389 5053445
-1084.9025 1309.0809 2584.7468 4659458
-1069.704 1309.2244 2585.03 4724996
-1051.3334 1305.4332 2577.5444 4527616
-1034.0062 1302.845 2572.4341 4922627
-1016.9481 1300.5233 2567.8501 5120007
-1002.2613 1301.2098 2569.2056 6238486
-986.78497 1300.8766 2568.5476 5382922
-972.70496 1302.4025 2571.5605 4527872
-958.91644 1304.3737 2575.4524 5119494
-937.84979 1296.348 2559.6062 5054213
-926.52161 1301.7411 2570.2546 5185799
-909.72949 1299.5094 2565.8481 4264705
-891.25842 1294.7628 2556.4761 4396032
-879.73743 1300.1232 2567.0601 4725248
-859.07324 1291.9221 2550.8672 4593920
-844.19263 1292.2809 2551.5754 4461824
-828.53973 1291.4487 2549.9326 4593408
-813.4248 1291.4399 2549.9153 5251594
-798.38391 1291.5505 2550.1335 5185544
-771.98016 1272.9291 2513.366 5053704
-755.17334 1269.7108 2507.0115 5382410
-745.96161 1279.3895 2526.1221 5118723
-728.15295 1274.4183 2516.3064 6039827
-713.05798 1274.088 2515.6543 4987395
-699.40381 1276.373 2520.166 4723969
-686.22156 1279.6378 2526.6121 5118723
-669.96704 1277.1913 2521.7817 5447944
-656.85925 1280.7688 2528.8452 5316357
-640.22021 1277.4673 2522.3264 5974030
-624.46484 1275.8134 2519.0608 5250308
-612.07452 1281.1216 2529.542 5382150
-597.11871 1281.1919 2529.6807 5908493
-579.28345 1274.9285 2517.3137 4790016
-560.19147 1265.4949 2498.6873 5579017
-545.83929 1266.5474 2500.7654 5842187
-533.21533 1271.7805 2511.0981 5513480
-514.75146 1262.9854 2493.7324 5842444
-494.29449 1248.6356 2465.3992 5513479
-482.27557 1255.3762 2478.7083 5711116
-467.35193 1254.7419 2477.4558 5579530
-454.56329 1259.9843 2487.8066 4921601
-438.62155 1256.545 2481.0161 5315845
-421.78268 1250.2084 2468.5044 5316358
-407.52945 1251.3556 2470.7695 4987393
-390.15903 1242.6603 2453.6008 5184259
-379.29889 1254.8295 2477.6287 5118467
-362.20197 1246.515 2461.2119 5381639
-346.81714 1243.642 2455.5393 5579273
-333.14847 1246.9409 2462.053 5711119
-315.96909 1236.8 2442.0303 5447944
-302.40378 1240.5114 2449.3579 4132608
-286.07831 1232.7031 2433.9409 5118979
-271.65622 1232.7031 2433.9409 5908495
-256.73166 1230.2952 2429.1865 4790017
-243.54555 1236.427 2441.2935 5841932
-226.8808 1224.5576 2417.8577 5381638
-213.39674 1229.4126 2427.4438 5447687
-198.24301 1224.655 2418.05 5579017
-185.12572 1232.7163 2433.9668 5710346
-170.74841 1233.0406 2434.6074 5907982
-156.26303 1232.5726 2433.6831 5381638
-141.41612 1228.8676 2426.3677 5250052
-128.66678 1244.6143 2457.459 5381638
-113.01449 1232.7156 2433.9653 4855296
-98.086479 1226.3916 2421.479 5118468
-84.025291 1230.5955 2429.7793 5579016
-69.542023 1229.0781 2426.7834 5052418
-55.101391 1227.7198 2424.1016 5446916
-40.726707 1227.391 2423.4521 5513223
-26.393475 1228.6338 2425.906 5315588
-11.977195 1224.3595 2417.4666 7026718
2.3283799 1214.5087 2398.0164 5776908
16.693338 1225.9467 2420.6003 4592385
30.907959 1220.8745 2410.5857 5447690
44.514774 1202.5885 2374.4802 4921862
59.02985 1211.7299 2392.5298 5053449
73.455574 1215.8518 2400.6685 5250310
87.629311 1215.142 2399.2668 5316359
101.09285 1206.1569 2381.5259 4987397
115.52272 1209.4902 2388.1074 5776911
129.91982 1211.7903 2392.6489 4790018
144.4236 1214.5348 2398.0681 5645581
158.80801 1215.874 2400.7122 5381638
173.59975 1219.855 2408.5725 5118466
187.17332 1215.3217 2399.6216 5513224
201.39204 1215.3217 2399.6216 5644808
214.57692 1209.4943 2388.1155 6302993
229.01663 1211.0234 2391.1348 6105614
244.55385 1217.8396 2404.5933 5184003
256.24042 1205.7855 2380.7927 5710346
271.95016 1212.9333 2394.906 5381639
284.71982 1206.9094 2383.0117 4790274
297.82831 1202.8229 2374.9431 5250308
312.60812 1205.5508 2380.3291 5316104
326.91943 1206.3141 2381.8364 5053188
338.89508 1198.7527 2366.9065 5513482
355.6297 1207.9568 2385.0798 5711118
368.24359 1202.9955 2375.2839 6105619
381.99197 1201.9692 2373.2576 5053188
394.67896 1197.7948 2365.0154 4066048
410.22217 1202.2776 2373.8665 5842445
426.15906 1207.5787 2384.3333 6566425
436.67813 1197.6801 2364.7886 5908495
452.30505 1201.9708 2373.2607 5776908
468.2114 1206.7229 2382.6436 5907981
481.76984 1205.3226 2379.8787 5776396
494.53842 1202.0822 2373.4805 5841931
512.88678 1212.2086 2393.4751 6040080
520.2594 1196.547 2362.5515 5908495
532.3194 1192.2041 2353.9766 5185029
545.11792 1189.6949 2349.0222 5513738
557.77924 1187.0187 2343.738 5316103
573.25189 1190.3099 2350.2366 4461056
587.24945 1190.4547 2350.5225 4592128
599.0022 1186.1477 2342.0183 4789762
614.98505 1190.2225 2350.064 5315846
629.00439 1190.401 2350.4163 4262912
639.37756 1183.8206 2337.4236 5447433
653.04187 1183.4839 2336.7588 5513225
668.38922 1186.1478 2342.0186 4790018
679.2829 1180.9604 2331.7764 4987397
691.05963 1177.4846 2324.9133 4987138
703.39929 1175.085 2320.1753 5579531
712.60095 1167.6356 2305.4668 5710605
724.79041 1165.27 2300.7959 5710606
735.77686 1161.0935 2292.5493 4263424
745.88312 1155.7045 2281.9089 4658176
759.98273 1156.5847 2283.647 5052931
776.54272 1161.113 2292.5879 4132352
786.0257 1155.0857 2280.6873 5184518
798.83655 1154.0698 2278.6814 5316103
811.50262 1152.8821 2276.3362 5316104
826.9447 1155.6125 2281.7275 4987139
837.53772 1151.5878 2273.7808 4855553
850.63019 1151.0729 2272.7639 4724224
866.55896 1154.3521 2279.2388 4592640
881.84882 1156.6926 2283.8601 4460803
892.7074 1153.238 2277.0391 5184519
907.32385 1154.6687 2279.8638 4131584
907.9082 1138.4617 2247.8635 5052676
922.68323 1140.2605 2251.4153 4855297
942.61804 1148.2936 2267.2764 5842448
952.96558 1144.5858 2259.9556 4526592
977.40869 1157.6761 2285.802 5579531
982.74091 1148.0825 2266.8596 5842447
995.07751 1146.8199 2264.3667 5645324
1003.359 1140.9797 2252.8354 5250055
1022.4588 1147.4335 2265.5781 4592130
1025.2483 1135.6534 2242.3186 5842449
1028.5955 1124.7843 2220.8579 5118729
1047.5568 1131.0486 2233.2266 6237722
1072.1257 1143.1356 2257.092 5185294
1079.6467 1136.9716 2244.9214 4725512
1087.3173 1131.1134 2233.3545 4922892
1109.6274 1140.442 2251.7737 5186320
1120.0441 1137.4706 2245.9065 4462597
1127.8772 1131.9758 2235.0574 4462083
1146.2583 1137.0721 2245.1199 5185806
1154.851 1132.4529 2235.9993 4724742
1162.922 1127.4327 2226.0872 5185550
1186.0582 1136.9669 2244.9121 4790793
1196.6211 1134.3702 2239.7852 4067330
1206.6754 1131.3538 2233.8291 4857097
1218.2056 1129.7714 2230.7048 4264963
1236.0381 1134.0052 2239.0645 4988170
1245.8229 1130.8441 2232.8228 4856583
1262.0087 1133.4985 2238.064 4132352
1267.5435 1126.6309 2224.5039 5053192
1285.7236 1131.0284 2233.1868 4723712
1305.7764 1136.967 2244.9124 5052676
1317.5864 1135.681 2242.373 4986883
1326.2345 1131.7224 2234.5571 4986886
1333.2046 1126.4244 2224.0964 5315848
1343.9186 1124.3624 2220.0249 4789505
1356.7643 1124.1067 2219.5198 5908241
1382.2185 1134.2018 2239.4524 5381641
1376.6454 1118.887 2209.2139 4855297
1380.1528 1111.1716 2193.98 4986884
1377.6671 1098.8202 2169.5923 4592386
1401.6627 1107.6232 2186.9736 4460544
1411.5935 1105.2523 2182.2925 4789763
1441.9718 1118.7893 2209.021 4723971
1454.9216 1118.682 2208.8091 4658176
1468.2678 1118.8788 2209.1975 4855297
1474.4553 1113.6649 2198.9028 5579020
1485.2019 1111.9558 2195.5283 5579020
1484.9115 1102.0848 2176.0383 5579276
1513.5022 1113.6346 2198.843 5052934
1531.4244 1117.2043 2205.8914 5052933
1542.2306 1115.566 2202.6567 5908241
1557.3881 1117.0767 2205.6392 5250055
1578.7394 1122.9677 2217.271 5381642
1579.903 1114.5203 2200.5918 5315848
1585.5093 1109.3197 2190.3235 5316105
1606.894 1115.1534 2201.842 5447690
1608.0912 1106.9963 2185.7358 5579533
1616.4521 1103.8615 2179.5464 4724482
1631.1287 1105.0551 2181.9031 5119498
1641.2822 1103.1898 2178.22 5251083
1650.5684 1100.7751 2173.4524 4856069
1671.7115 1106.2443 2184.251 4922119
1683.5382 1105.5115 2182.8042 5119498
1716.4226 1118.5121 2208.4736 4329986
1708.6381 1105.0146 2181.8232 4527364
1714.4889 1100.4719 2172.8538 4264195
1724.4661 1098.6257 2169.2085 5514257
1712.6277 1083.0115 2138.3784 4329989
1755.5275 1101.9869 2175.845 5053706
1762.7089 1098.4279 2168.8179 5448209
1766.8898 1093.0642 2158.2273 5580051
1767.7567 1085.7422 2143.7703 5251342
1785.8707 1089.0421 2150.2856 4856584
1789.7411 1083.6708 2139.6802 5053709
1816.6121 1092.2037 2156.5283 4330246
1832.8707 1094.2816 2160.6311 4461572
1851.4491 1097.7061 2167.3926 5382930
1875.0596 1104.0463 2179.9111 6369567
1862.9424 1089.4067 2151.0059 5185549
1885.0958 1094.8708 2161.7947 5251087
1896.5166 1094.0697 2160.2129 4856585
1904.7172 1091.4342 2155.009 4593924
1917.1735 1091.256 2154.6572 4856586
1945.6737 1100.1521 2172.2222 9856594
1963.0714 1102.6947 2177.2424 4067078
1947.5599 1086.839 2145.9358 3935489
1966.3917 1090.23 2152.6313 3738368
1963.2665 1081.4822 2135.3589 3936514
1961.3665 1073.5168 2119.6316 3541760
1999.8712 1087.6271 2147.4919 4133891
1994.1189 1077.6418 2127.7764 4923150
1996.8263 1072.3251 2117.2786 4198658
1988.222 1061.0382 2094.9929 3935488
2010.7599 1066.4076 2105.5945 4593415
0 0 0 0
0 0 0 0
0 0 0 0
0 0 0 0
0 0 0 0
0 0 0 0
0 0 0 0
0 0 0 0
0 0 0 0
-2293.4067 1332.4624 2600.4883 2557184
-2266.9595 1326.0059 2587.8875 2425856
-2246.9043 1323.2256 2582.4614 2820352
-2229.5989 1322.0376 2580.1431 2359808
-2206.8665 1317.5933 2571.4692 2885376
-2190.644 1317.0009 2570.313 3279872
-2159.4597 1307.3423 2551.4629 3345920
-2159.0051 1316.2823 2568.9106 2885376
-2138.3691 1312.958 2562.4229 3806721
-2133.405 1319.2775 2574.7563 3411968
-2122.0232 1321.6907 2579.4661 3346176
-2115.2375 1327.0226 2589.8718 3017216
-2117.0906 1337.8915 2611.084 3017216
-2091.5815 1331.5017 2598.6135 3280384
-2084.812 1337.0352 2609.4128 3279872
-2061.7542 1332.1273 2599.8345 3082496
-2037.459 1326.3401 2588.5398 4069636
-2027.8615 1330.1055 2595.8884 4069381
-1993.9823 1317.8799 2572.0286 3872259
-1980.6395 1319.1437 2574.4951 3345664
-1982.0358 1330.3197 2596.3066 3872001
-1962.3455 1327.4069 2590.6218 4003330
-1961.3553 1337.1974 2609.7295 3805696
-1953.2744 1342.2708 2619.6309 3805696
-1938.1053 1342.5155 2620.1084 3543296
-1912.8137 1335.6957 2606.7986 4268557
-1923.0577 1353.781 2642.0947 6902842
-1917.334 1360.8301 2655.8521 7892564
-1877.3712 1343.4937 2622.0173 7497553
-1852.7648 1336.9486 2609.2439 7168592
-1813.5027 1319.6293 2575.4426 6641990
-1785.3259 1310.1508 2556.9441 6904903
-1764.687 1306.0889 2549.0168 6049591
-1765.4716 1317.95 2572.1653 10786170
-1758.3439 1324.0594 2584.0889 8548948
-1739.3031 1321.2268 2578.5605 3610114
-1722.3156 1319.9175 2576.0051 3082752
-1708.4338 1320.9861 2578.0908 3345408
-1694.6882 1322.1802 2580.4214 4200193
-1664.7659 1310.6604 2557.9387 4331521
-1663.3086 1321.545 2579.1816 4725507
-1639.3271 1314.5696 2565.5681 4528130
-1622.8455 1313.5338 2563.5466 4593922
-1613.8708 1318.6121 2573.4575 4922630
-1590.0082 1311.507 2559.5911 4462337
-1577.0101 1313.3129 2563.1155 4133632
-1566.0546 1316.8716 2570.0605 3804928
-1546.5425 1313.2343 2562.9619 4133888
-1529.588 1311.7181 2560.0032 4462593
-1517.9617 1314.7866 2565.9917 4462336
-1502.616 1314.6632 2565.7507 4264704
-1491.4076 1318.1938 2572.6414 4396288
-1477.5548 1319.4362 2575.0659 4659201
-1458.3557 1315.8804 2568.1262 4528129
-1443.7397 1316.4286 2569.1963 5119495
-1424.2845 1312.5289 2561.5854 5382921
-1394.223 1298.6659 2534.5298 5646349
-1380.5486 1299.931 2536.999 5448713
-1360.1556 1294.8284 2527.0403 4856322
-1367.9834 1316.7762 2569.8748 4724992
-1346.8834 1311.0601 2558.7188 4856576
-1328.3983 1307.788 2552.3328 4790532
-1316.2543 1310.7551 2558.1235 5119493
-1298.9124 1308.5549 2553.8296 4724736
-1291.0742 1315.99 2568.3403 4856577
-1271.3905 1311.3843 2559.3516 5777679
-1254.6658 1309.7562 2556.1741 4329984
-1240.7357 1311.0414 2558.6824 4527360
-1221.4962 1306.6787 2550.168 4395776
-1206.015 1306.2776 2549.385 4329984
-1191.4623 1306.8845 2550.5696 4856066
-1183.494 1314.8221 2566.061 4987138
-1173.8174 1321.0441 2578.2039 5579275
-1147.6364 1308.6104 2553.9377 4790528
-1128.6885 1304.2024 2545.335 4921859
-1109.3333 1299.1979 2535.5681 4922116
-1101.9756 1308.2999 2553.332 4921860
-1082.8601 1303.5018 2543.9678 4855809
-1070.8574 1307.2511 2551.2849 4790786
-1050.2064 1300.3992 2537.9126 5317127
-1032.4474 1296.9812 2531.2419 5843213
-1018.3589 1298.1415 2533.5063 5382662
-1011.6819 1308.9254 2554.5527 5711884
-991.94586 1302.8843 2542.7627 5317126
-974.9892 1300.3639 2537.8438 5251077
-959.40021 1299.6172 2536.3865 5317127
-939.88489 1293.4434 2524.3374 5053955
-925.09729 1293.6814 2524.8018 5251335
-917.85986 1304.6591 2546.2263 4790787
-905.24963 1308.239 2553.2129 4790785
-877.73944 1290.0416 2517.6982 5053699
-871.43994 1302.928 2542.8479 4396288
-842.80054 1282.2789 2502.5483 4725249
-830.53809 1286.2532 2510.3044 4724993
-813.49402 1282.832 2503.6277 4659458
-796.43597 1279.2612 2496.6589 4988166
-779.22357 1275.3026 2488.9331 5383180
-760.69305 1268.9926 2476.6182 5382409
-737.7041 1254.8502 2449.0173 5119493
-729.73059 1266.1946 2471.1575 5513736
-721.1236 1276.8817 2492.0149 5711115
-701.97076 1268.952 2476.5388 5513737
-685.91052 1266.3934 2471.5457 5513737
-675.92792 1275.1892 2488.7117 5710859
-660.60999 1274.0874 2486.5613 5711116
-657.38171 1296.7838 2530.8567 5447944
-631.17755 1274.1587 2486.7004 5776909
-614.72107 1270.5997 2479.7549 5513479
-600.3606 1271.3051 2481.1313 6040079
-584.77521 1269.3867 2477.3875 5710857
-571.48798 1272.4868 2483.4377 5842443
-547.26514 1250.7578 2441.0305 5052420
-535.64905 1257.4435 2454.0786 5709831
-524.72998 1266.1843 2471.1375 5446659
-507.48398 1259.7217 2458.5247 5315587
-489.18878 1250.1957 2439.9333 5512964
-477.36984 1257.1445 2453.4949 6236944
-459.052 1246.8776 2433.4575 6302993
-445.7739 1250.0775 2439.7026 5118464
-429.26752 1244.1355 2428.1062 5645063
-414.02252 1241.5641 2423.0876 6171151
-401.16177 1246.2145 2432.1636 5907979
-385.01596 1240.6265 2421.2576 4987138
-373.74026 1250.9056 2441.3191 6039565
-357.13126 1243.4436 2426.7556 5908236
-341.58511 1239.2113 2418.4956 5974029
-327.50366 1240.1544 2420.3364 5776649
-312.62027 1238.0084 2416.1482 5908493
-298.159 1237.4081 2414.9766 6105875
-284.00348 1238.0803 2416.2886 5710859
-269.40277 1236.7802 2413.751 5579529
-254.86696 1235.6486 2411.5427 5974032
-241.16882 1238.6853 2417.4692 5776139
-224.95741 1228.3817 2397.3601 4789248
-209.88855 1223.3486 2387.5374 5512967
-196.0412 1225.2219 2391.1936 5841932
-183.31656 1234.9507 2410.1807 6039568
-167.60283 1224.4855 2389.7563 5184261
-153.49876 1224.934 2390.6316 5710604
-139.08807 1222.778 2386.4238 5118466
-124.99188 1223.2118 2387.2705 5249795
-110.76367 1222.2996 2385.49 4921088
-96.615395 1222.1313 2385.1619 5710603
-82.61969 1224.1663 2389.1333 5776395
-67.61528 1209.0065 2359.5466 5052677
-53.945614 1216.0304 2373.2549 5578760
-39.804245 1213.6252 2368.561 5907725
-26.04278 1226.4921 2393.6724 5644810
-11.840731 1224.5707 2389.9226 5974542
2.3044939 1216.1129 2373.416 5382151
16.389433 1217.7101 2376.5332 4987396
30.386934 1214.3368 2369.9497 5974544
44.378155 1212.9242 2367.1929 7027749
57.736759 1199.0522 2340.1196 4857358
72.647614 1216.5466 2374.2625 4724994
86.191635 1209.1893 2359.9038 5382151
100.10965 1208.4003 2358.3638 5316360
113.97984 1207.298 2356.2124 5382154
128.5423 1212.969 2367.28 5250569
142.24461 1210.2058 2361.8875 5250055
156.6613 1213.4711 2368.26 5446920
170.23883 1210.2339 2361.9424 5578248
183.34944 1204.4213 2350.5981 5183749
196.63336 1200.4877 2342.9211 4986882
211.60382 1206.6904 2355.0266 5249794
227.65295 1217.8964 2376.8967 6236687
241.50919 1216.7485 2374.6565 6171151
254.2691 1210.5078 2362.4768 5316099
268.85858 1213.1738 2367.6799 3804929
280.66858 1203.6558 2349.104 5184519
292.41763 1194.788 2331.7974 4921350
307.61795 1200.1858 2342.3318 6105873
320.10941 1195.0049 2332.2207 5316360
334.48743 1197.0042 2336.1226 5513740
350.8436 1205.6423 2352.9812 5645325
363.01273 1199.7816 2341.5432 5053188
378.03699 1203.4415 2348.686 4460801
389.07333 1194.5973 2331.425 5250051
403.53583 1196.5181 2335.1738 6236947
417.83698 1197.8492 2337.7717 4592128
433.23282 1202.1324 2346.1311 5842188
445.88574 1198.7748 2339.5781 5184259
460.27927 1200.1583 2342.2783 5184259
474.65778 1201.4227 2344.7461 5447431
491.43088 1208.504 2358.5662 5118210
502.86203 1202.4202 2346.6926 5579017
515.5556 1199.6012 2341.1912 5842189
527.10089 1194.3281 2330.8999 6170897
540.77734 1194.0299 2330.3179 4855299
555.24286 1195.4453 2333.0803 4591872
567.8252 1192.8361 2327.988 4329472
578.08246 1185.5822 2313.8308 4131840
590.9458 1183.8853 2310.519 5184517
607.96179 1190.396 2323.2258 4657665
620.68884 1188.4066 2319.3433 5249797
631.20679 1182.3656 2307.5532 4526594
643.71155 1180.2233 2303.3723 4723712
659.6203 1184.2815 2311.2925 5316104
666.38965 1172.0995 2287.5176 5513482
679.17621 1170.7758 2284.9341 5184517
691.9975 1169.5625 2282.5664 4789763
702.52795 1164.5981 2272.8777 4460800
715.79395 1164.27 2272.2373 4657922
730.53668 1166.3116 2276.2219 5184519
744.24896 1166.6639 2276.9094 4855298
748.46216 1152.3784 2249.0291 4723712
766.10425 1158.9067 2261.7703 5382153
772.07751 1147.8625 2240.2158 4855811
791.32117 1156.5875 2257.2439 5053189
798.26489 1147.3439 2239.2034 5053189
816.19354 1153.9327 2252.0625 5381897
830.59827 1155.4077 2254.9412 5513738
841.6571 1152.2555 2248.7891 5052931
850.66785 1146.4412 2237.4417 5053189
865.73499 1148.8423 2242.1277 5447946
874.57825 1143.0365 2230.7969 5513738
887.69452 1142.905 2230.5403 5118981
901.09686 1143.1403 2230.9995 5316104
913.08124 1141.5959 2227.9856 5184518
926.86993 1142.3193 2229.3975 4460800
939.44928 1141.5529 2227.9016 4592128
951.47833 1140.1483 2225.1604 5184007
967.20996 1143.1583 2231.0347 5184517
976.94781 1139.0985 2223.1113 5184262
990.46191 1139.4911 2223.8777 5645070
1001.3973 1136.9457 2218.9099 5381642
1013.0087 1135.2238 2215.5493 5381641
1021.8907 1130.5262 2206.3816 5908242
1033.0354 1128.4192 2202.2693 4790532
1050.6089 1133.2993 2211.7937 5185291
1069.5795 1139.5481 2223.9888 5251342
1081.6444 1138.3763 2221.7021 4264963
1091.2606 1134.6869 2214.5017 4462340
1106.2739 1136.6305 2218.2947 4198913
1115.7708 1132.9269 2211.0667 4725512
1128.8722 1132.9269 2211.0667 4659719
1143.3523 1134.2946 2213.7358 4658949
1155.1078 1132.9589 2211.1292 4461828
1164.808 1129.6598 2204.6907 4856584
1172.9668 1124.9558 2195.51 4922121
1194.0216 1132.5874 2210.4041 4724744
1207.5411 1132.9834 2211.177 4922376
1214.0826 1126.8939 2199.2925 4725253
1229.7999 1129.3601 2204.1057 7882801
1228.3872 1116.2089 2178.4392 5185032
1256.7122 1130.0723 2205.4954 4987908
1269.6367 1129.9441 2205.2454 5316105
1271.0953 1119.7183 2185.2881 5250055
1283.5179 1119.2594 2184.3926 4986884
1301.2039 1123.3538 2192.3833 4723713
1311.8705 1121.3671 2188.5061 4197632
1321.3346 1118.4016 2182.7185 4526592
1327.567 1112.7845 2171.7561 4987139
1343.8621 1115.629 2177.3076 5118469
1352.7567 1112.3346 2170.8779 4855300
1365.9343 1112.5906 2171.3774 5052933
1382.7479 1115.7758 2177.5938 4328960
1399.832 1119.1183 2184.1172 4526593
1406.5767 1114.2092 2174.5366 4460801
1411.6229 1108.0562 2162.5281 5381900
1431.8353 1113.8114 2173.7603 4329216
1448.5894 1116.7979 2179.5886 4723712
1458.4805 1114.4872 2175.0791 4723712
1466.15 1110.5343 2167.3645 4986886
1482.7588 1113.3624 2172.8838 5447434
1497.7382 1114.9287 2175.9407 5184519
1526.7136 1126.7982 2199.1057 5579020
1533.6085 1122.308 2190.3425 4987140
1531.7876 1111.5685 2169.3828 4921347
1547.9226 1113.9293 2173.9902 4526336
1556.6805 1110.9862 2168.2463 4855299
1563.931 1107.0242 2160.5139 4197888
1574.4535 1105.4237 2157.3904 4395008
1594.0084 1110.1396 2166.5942 4658435
1597.5647 1103.7272 2154.0793 4461312
1612.3771 1105.1313 2156.8198 4461312
1625.6708 1105.4806 2157.5015 5974550
1633.1134 1101.8767 2150.468 5185034
1651.668 1105.7679 2158.062 5185033
1669.5228 1109.1344 2164.6323 4856325
1677.8527 1106.1699 2158.8467 4527360
1684.9728 1102.4589 2151.604 4987914
1693.8511 1099.9453 2146.6985 4790536
1701.2145 1096.4927 2139.9602 3147264
1712.5918 1095.6593 2138.3337 3606784
1717.2137 1090.548 2128.3582 4658948
1741.2256 1097.7351 2142.385 4461314
1743.1874 1091.0179 2129.2754 4592901
1754.969 1090.4989 2128.2625 4395777
1770.532 1092.3203 2131.8171 4527363
1781.4962 1091.2986 2129.8232 4593158
1794.2123 1091.3571 2129.9373 4724742
1813.8914 1095.6204 2138.2578 4461832
1831.8107 1098.769 2144.4028 4396293
1829.0046 1089.5284 2126.3684 4001281
1831.2367 1083.3947 2114.3977 3935232
1835.5924 1078.5923 2105.0251 3474944
1857.8098 1084.2794 2116.1243 3738370
1872.6617 1085.6204 2118.7412 3738369
1900.5607 1094.4567 2135.9866 4593415
1885.7039 1078.7175 2105.2695 4922637
1905.839 1083.071 2113.7659 4791052
1928.8582 1088.9958 2125.3291 4791050
1932.9747 1084.241 2116.0493 3738368
1951.152 1087.3835 2122.1824 3673344
1946.2793 1077.7223 2103.3271 3739136
1947.4767 1071.5238 2091.23 4002305
1995.1256 1090.8003 2128.8506 3016448
1964.1482 1067.1169 2082.6294 4002050
1957.5944 1056.9158 2062.7205 4002307
1975.2592 1059.8359 2068.4194 4659978
0 0 0 0
0 0 0 0
0 0 0 0
0 0 0 0
0 0 0 0
0 0 0 0
0 0 0 0
0 0 0 0
0 0 0 0
-2284.0935 1342.3977 2589.928 2622720
-2256.6382 1335.2329 2576.1047 2885888
-2229.333 1328.0602 2562.2661 2754304
-2205.7595 1323.0271 2552.5557 2754304
-2200.0688 1328.725 2563.5486 3411968
-2170.8975 1320.2222 2547.144 3674880
-2144.3489 1313.2065 2533.6086 3280128
-2141.7385 1320.8553 2548.3657 4135683
-2133.071 1324.8506 2556.074 3872513
-2121.196 1326.8967 2560.0215 3674880
-2114.0325 1331.9407 2569.7529 2819840
-2099.1299 1332.1462 2570.1497 3083008
-2096.9666 1340.4988 2586.2644 3477504
-2072.9983 1334.9326 2575.5254 3346176
-2046.7222 1327.7866 2561.7385 3608832
-2036.41 1330.9679 2567.876 2885376
-2014.0876 1326.2881 2558.8472 2556928
-1999.4851 1326.6593 2559.5635 3937793
-1973.72 1319.5734 2545.8923 4331267
-1947.9965 1312.4062 2532.0647 4397315
-1965.3912 1334.4032 2574.5039 4725765
-1951.177 1335.1152 2575.8777 4001792
-1943.098 1340.0698 2585.4368 4265986
-1922.3164 1336.2731 2578.1116 5188372
-1942.3063 1360.9843 2625.7876 7427903
-1942.2249 1371.9169 2646.8804 7298886
-1895.8733 1350.0781 2604.7461 9273446
-1869.3318 1342.1035 2589.3604 7957076
-1859.5099 1346.1001 2597.0713 7760466
-1828.2384 1334.5067 2574.7036 7562835
-1812.9192 1334.4602 2574.614 7760212
-1780.1471 1321.4573 2549.5269 7036487
-1762.1046 1319.2595 2545.2869 9141347
-1756.3701 1326.3182 2558.9053 9402462
-1755.4968 1337.2026 2579.905 4926742
-1719.3893 1321.2037 2549.0378 3938561
-1719.8212 1333.2476 2572.2744 4003585
-1690.2738 1322.0583 2550.6868 4002560
-1673.0131 1320.364 2547.4177 3739392
-1651.5273 1315.2742 2537.5977 4725507
-1625.9054 1306.7662 2521.1831 4922629
-1634.834 1326.1268 2558.5361 4527873
-1621.6115 1327.7135 2561.5974 4725763
-1600.2362 1322.5918 2551.7158 4593926
-1572.4185 1311.9969 2531.2749 4922886
-1559.754 1313.9635 2535.0691 4199168
-1555.958 1323.512 2553.4912 4791043
-1530.4885 1314.6311 2536.3569 4725507
-1516.5181 1315.5492 2538.1284 4462336
-1503.3361 1317.1766 2541.2683 4593922
-1493.5219 1321.8176 2550.2222 4659458
-1486.6318 1329.168 2564.4033 4330752
-1467.4747 1325.5891 2557.4985 4790788
-1444.8212 1318.744 2544.2922 5185032
-1428.5703 1317.6604 2542.2017 5316616
-1405.8778 1310.5488 2528.481 5382407
-1395.2703 1314.6708 2536.4336 4987650
-1366.3013 1301.3933 2510.8171 5316104
-1358.7863 1308.4834 2524.4961 4658178
-1351.7969 1316.243 2539.467 5185029
-1330.5061 1310.0953 2527.6062 4922114
-1321.0306 1315.5743 2538.1768 5513993
-1303.7921 1313.3594 2533.9036 5118722
-1285.2059 1309.7195 2526.8809 4658176
-1270.4974 1309.9921 2527.4067 4658432
-1247.2341 1301.345 2510.7239 4855809
-1250.8958 1320.9214 2548.4932 4855553
-1236.3387 1321.5028 2549.6147 4987139
-1208.2085 1307.4108 2522.4268 4724480
-1194.5593 1308.832 2525.1687 4460802
-1171.7941 1300.1747 2508.4658 5645579
-1174.3558 1319.7577 2546.2478 5974544
-1147.338 1306.1757 2520.0437 5316358
-1135.5009 1309.7457 2526.9314 5777678
-1121.8601 1311.303 2529.936 4658947
-1100.4883 1303.7435 2515.3513 5119239
-1085.3281 1303.4365 2514.759 5053701
-1070.3566 1303.3506 2514.5933 5119235
-1053.561 1301.0096 2510.0769 5185285
-1042.4418 1305.7119 2519.1489 5646093
-1027.7417 1306 2519.7048 4593410
-1007.4622 1299.1023 2506.397 5382662
-993.50568 1300.2737 2508.6567 6040592
-978.63599 1300.2671 2508.644 5119752
-958.65686 1293.3669 2495.3315 4527616
-945.68463 1295.8523 2500.1265 4988419
-931.76984 1297.1044 2502.5422 5317127
-919.25366 1300.3754 2508.853 4396032
-898.61908 1292.0811 2492.8506 5251334
-882.82477 1290.5852 2489.9646 5251335
-871.82977 1296.174 2500.7471 4724736
-851.48151 1287.8097 2484.6096 5053700
-835.73352 1286.2312 2481.5642 5053699
-813.99249 1275.2073 2460.2954 4659200
-804.20673 1282.8521 2475.0447 5053699
-789.17145 1282.2515 2473.886 4330496
-776.44598 1285.4521 2480.0613 5645579
-752.35132 1269.5909 2449.4597 5579273
-734.75555 1264.2882 2439.229 5842445
-722.74268 1268.5718 2447.4934 5381638
-707.91663 1267.9921 2446.375 5381639
-693.23792 1267.6576 2445.7295 5315589
-678.33881 1266.8971 2444.2625 5710603
-664.38104 1267.8999 2446.1973 5710602
-651.51154 1271.0706 2452.3145 5974285
-640.02716 1277.1499 2464.0435 4921603
-621.6123 1269.3606 2449.0154 6303251
-609.96478 1275.3486 2460.5681 5381893
-588.81 1261.2648 2433.3958 5579271
-572.92438 1258.0438 2427.1816 5973772
-558.30737 1257.5149 2426.1609 5645063
-544.39447 1258.5852 2428.2261 5447431
-526.2691 1249.7107 2411.1042 5184512
-514.21405 1255.1583 2421.6145 5315845
-501.40115 1259.0154 2429.0562 4855557
-484.53162 1252.6135 2416.7046 4592128
-471.43207 1255.8646 2422.9771 4986881
-452.3602 1242.9103 2397.9839 4855552
-436.60184 1238.5151 2389.5042 4986882
-425.6283 1247.8536 2407.5212 5118466
-413.06952 1253.031 2417.51 5447429
-399.09509 1254.1318 2419.634 5776649
-381.12057 1242.2761 2396.7605 5250306
-368.03787 1246.0649 2404.0703 4723969
-354.93622 1250.0922 2411.8401 5381894
-338.70114 1242.9583 2398.0764 5645322
-325.33252 1246.1794 2404.2913 5447685
-310.7583 1244.8662 2401.7576 5513480
-296.64441 1245.3594 2402.709 5052931
-277.81668 1225.1154 2363.6516 5513736
-266.49237 1237.5669 2387.6748 5316102
-252.06041 1236.174 2384.9873 4723712
-238.95297 1241.4972 2395.2576 6039311
-223.7326 1235.8217 2384.3076 5578760
-207.16949 1221.4641 2356.6072 4855296
-193.82246 1225.3636 2364.1309 5250051
-178.6039 1217.1171 2348.2202 5381381
-164.76799 1217.6953 2349.3359 5578760
-152.21068 1228.7015 2370.5706 5710602
-137.33577 1221.3352 2356.3584 5315847
-123.44529 1222.0469 2357.7314 5381381
-108.88023 1215.4099 2344.9268 5184002
-95.324837 1219.7507 2353.3015 4789505
-81.487663 1221.3558 2356.3982 6170897
-67.313629 1217.5317 2349.0203 6171153
-53.399868 1217.6484 2349.2456 5381381
-39.595062 1221.2083 2356.1135 6105360
-25.734016 1225.9662 2365.2932 5776396
-11.659147 1219.7354 2353.272 5711115
2.2813828 1217.8392 2349.6135 6105874
16.203787 1217.8392 2349.6135 5513480
30.152309 1218.8951 2351.6506 6171668
44.117741 1219.751 2353.302 4921603
0 0 0 0
0 0 0 0
85.415245 1212.1547 2338.6462 4724228
98.805458 1206.45 2327.6399 5382154
113.19159 1212.8138 2339.918 4789764
126.92576 1211.5654 2337.5093 5513481
140.74977 1211.3359 2337.0667 5316102
154.01843 1206.796 2328.3076 4197888
167.69135 1205.9098 2326.5977 5842188
181.83806 1208.3066 2331.2219 5579271
194.87625 1203.5189 2321.9849 5579271
209.06981 1206.0275 2326.8247 5118464
225.69247 1221.3711 2356.4277 5973775
239.08127 1218.4458 2350.7839 5249795
252.79649 1217.4147 2348.7944 5710602
265.83344 1213.395 2341.0393 4855297
279.58414 1212.8706 2340.0276 4789764
289.7934 1197.7584 2310.8711 4987395
302.95041 1195.6438 2306.7913 5645323
318.15198 1201.4324 2317.9595 5513737
330.3223 1195.7688 2307.0325 5776909
346.06549 1202.9752 2320.936 5447943
359.00461 1200.256 2315.6897 5645323
375.19348 1208.2018 2331.0198 5842703
383.01886 1189.6073 2295.145 5381894
402.66232 1207.735 2330.1191 5053186
413.14047 1198.0819 2311.4951 5513737
428.13013 1201.7114 2318.4978 5381894
441.52963 1200.7909 2316.7217 5645323
453.23767 1195.4642 2306.4448 5513736
470.78589 1205.4027 2325.6194 4986880
479.82162 1193.6003 2302.8489 5118210
493.66202 1194.0723 2303.7593 5841933
503.89301 1186.0232 2288.23 5118210
518.68945 1188.8602 2293.7036 5973774
534.48615 1193.7864 2303.2078 5052674
543.50812 1183.7125 2283.772 5118211
562.16547 1194.6034 2304.7839 5315847
573.31848 1189.4091 2294.7625 5776398
581.48041 1178.3939 2273.5105 4460545
596.71344 1181.8831 2280.2422 5249797
600.44312 1162.9379 2243.6907 4855041
624.21741 1182.7949 2282.0015 5513226
638.11206 1183.4863 2283.3357 4131584
646.07507 1173.3766 2263.8303 4000512
661.92303 1177.7069 2272.1851 3803136
673.82678 1174.9868 2266.9373 4724741
681.28998 1164.7812 2247.2473 4724483
694.19971 1164.1002 2245.9333 4066817
709.06232 1166.6581 2250.8682 4066561
720.66663 1163.8594 2245.4685 5054990
730.24609 1157.9513 2234.0701 4592897
744.30817 1159.2351 2236.5469 4592129
759.1795 1161.7124 2241.3264 4658176
773.67975 1163.5464 2244.8647 5184773
781.60602 1155.5988 2229.5312 5579530
790.82306 1149.7921 2218.3284 4789762
805.71503 1152.2913 2223.1499 4592384
819.84821 1153.6423 2225.7566 5381897
831.63416 1151.7001 2222.0093 4657922
846.01837 1153.3604 2225.2126 5381897
856.20831 1149.3395 2217.4551 5447434
869.18365 1149.1228 2217.0369 5052933
876.57458 1141.6394 2202.5989 5118469
894.75775 1148.225 2215.3047 4921346
899.65991 1137.8234 2195.2366 4921092
916.52899 1142.6375 2204.5244 5447689
936.94989 1151.682 2221.9744 5711118
944.66333 1145.0725 2209.2227 5908497
956.23724 1143.2593 2205.7244 5250054
968.80841 1142.6711 2204.5896 5578762
983.55585 1144.6313 2208.3716 5315590
995.11536 1142.8788 2204.9902 5184005
1008.5802 1143.3315 2205.8638 4986627
1016.1484 1137.1738 2193.9834 5579277
1028.7135 1136.6929 2193.0557 5184519
1041.7153 1136.7007 2193.0706 4198400
1048.8441 1130.3787 2180.8733 5185034
1068.9156 1137.9896 2195.5574 4856581
1084.8114 1141.0253 2201.4143 4856326
1088.8729 1131.6895 2183.4021 5119755
1101.4716 1131.3413 2182.7307 5054219
1112.6105 1129.5194 2179.2156 4725511
1130.5321 1134.5461 2188.9136 4922377
1146.4689 1137.4895 2194.5925 4659205
1149.1034 1127.3168 2174.9658 4790790
1169.1935 1134.3043 2188.4473 5514257
1173.1884 1125.6949 2171.8369 4593156
1185.1774 1124.8599 2170.2256 4987912
1200.9552 1127.6 2175.5122 5316876
1206.8502 1121.1012 2162.9741 4987912
1221.3743 1122.6708 2166.0022 5184520
1227.4424 1116.516 2154.1277 4658945
1247.2015 1122.8134 2166.2773 4855298
1254.186 1117.5991 2156.2173 5250055
1263.799 1114.8085 2150.8333 3869697
1283.8235 1121.1661 2163.0994 4657921
1302.5249 1126.254 2172.9155 5447435
1312.0753 1123.4071 2167.4229 4921347
1316.0131 1115.8564 2152.8552 5184518
1324.4447 1112.2246 2145.8481 4921346
1348.9564 1122.0367 2164.7791 5184520
1357.0215 1118.113 2157.209 4921092
1361.6411 1111.4503 2144.3542 4855554
1377.48 1113.9836 2149.2419 4066048
1396.2692 1118.8348 2158.6016 4789763
1408.0482 1118.0316 2157.0518 3803392
1414.3386 1112.9241 2147.1975 4395008
1428.6212 1114.1403 2149.5439 4855556
1446.7354 1118.2966 2157.5632 4526592
1463.583 1121.41 2163.5698 4461057
1471.5249 1117.7047 2156.4211 4723716
1488.8386 1121.1205 2163.0112 4855298
1499.0815 1119.199 2159.304 4855299
1510.9712 1118.5289 2158.0112 5381641
1516.8776 1113.4781 2148.2666 5316105
1525.4492 1110.4514 2142.4272 6171157
1546.9177 1116.7858 2154.6479 4921092
1547.8608 1108.3192 2138.3135 4724740
1548.2621 1099.6055 2121.5017 4593155
1566.8424 1103.8394 2129.6702 4856325
1571.5963 1098.3424 2119.0649 5119497
1586.6129 1100.0483 2122.356 4066816
1598.702 1099.7134 2121.71 4395778
1616.2001 1103.0756 2128.1965 3934976
1622.3901 1098.7275 2119.8079 4198400
1641.6445 1103.2258 2128.4866 3606016
1649.8527 1100.2888 2122.8201 4132608
1673.0232 1107.2992 2136.3455 4001024
1676.8779 1101.5159 2125.1875 4198658
1681.3436 1096.2173 2114.9648 3607040
1710.4347 1106.9338 2135.6404 3935744
1717.922 1103.6143 2129.2361 4922891
1720.8884 1097.4601 2117.3625 5053707
1728.8517 1094.5585 2111.7644 4395778
1745.9037 1097.4115 2117.2688 4856583
1757.8145 1097.0154 2116.5044 5317134
1771.2753 1097.5853 2117.604 5185548
1782.103 1096.527 2115.5623 5448721
1810.973 1106.5073 2134.8176 4593159
1818.6581 1103.495 2129.0059 4857097
1810.0071 1090.6803 2104.282 4264961
1825.1389 1092.274 2107.3569 4198914
1835.7325 1091.1487 2105.1858 4396293
1845.2676 1089.4136 2101.8381 3803904
1858.1765 1089.6802 2102.3525 4725255
1867.104 1087.624 2098.3855 4330755
1879.5305 1087.6199 2098.3774 4264707
1905.5765 1095.4449 2113.4749 4462088
1910.8601 1091.3104 2105.4978 4396293
1899.381 1077.7183 2079.2739 4198658
1904.7096 1073.7766 2071.6692 4397063
1897.0597 1062.6156 2050.136 3673344
1918.4343 1067.7509 2060.0437 4199684
1924.913 1064.583 2053.9319 3410433
1942.0756 1067.3268 2059.2253 4002305
1944.5677 1062.0239 2048.9944 4068098
1954.8521 1061.016 2047.0498 4002306
0 0 0 0
0 0 0 0
0 0 0 0
0 0 0 0
0 0 0 0
0 0 0 0
0 0 0 0
0 0 0 0
0 0 0 0
-2280.603 1355.6692 2585.9702 4267271
-2253.6082 1348.6842 2572.646 3609090
-2218.322 1336.6082 2549.6106 3345920
-2196.7935 1332.7128 2542.1802 2951424
-2180.417 1331.9106 2540.6501 3280384
-2160.1746 1328.7194 2534.5627 3346176
-2142.1401 1326.8513 2530.9993 2951424
-2129.7322 1328.4662 2534.0798 3477760
-2124.2864 1334.4778 2545.5471 3872768
-2113.502 1337.198 2550.7358 3543552
-2080.9333 1326.0748 2529.5183 3017216
-2067.5984 1327.1362 2531.543 3148544
-2054.3545 1328.2721 2533.7095 3148288
-2036.5691 1326.4664 2530.2651 3148032
-2031.7635 1333.1509 2543.0159 3806208
-1997.1398 1320.2236 2518.3569 4266755
-1982.3558 1320.3158 2518.5327 4068608
-1962.5161 1317.0165 2512.2393 4200193
-1962.7112 1327.2145 2531.6921 4068352
-1964.2969 1338.5173 2553.2524 3936512
-1941.9749 1333.5778 2543.8301 3739648
-1918.2471 1327.5881 2532.4048 4859147
-1929.3102 1345.772 2567.0911 6110244
-1943.6755 1366.5667 2606.7573 6903357
-1945.4357 1378.761 2630.0183 7167042
-1912.9 1366.65 2606.9163 7167813
-1883.8976 1356.8867 2588.2925 6640701
-1865.3558 1354.5593 2583.853 6509114
-1845.5157 1351.2428 2577.5266 7298374
-1821.7935 1345.0046 2565.6272 7167300
-1796.3737 1337.3977 2551.1169 6640957
-1770.5902 1329.3888 2535.8396 8613461
-1751.9191 1326.6283 2530.574 4004877
-1760.5793 1344.6957 2565.0378 4661002
-1722.6842 1327.2097 2531.6829 4462853
-1708.986 1328.2224 2533.6147 4397315
-1699.5787 1332.6176 2541.9985 4265729
-1672.0411 1322.7483 2523.1729 4002304
-1654.7761 1320.9011 2519.6492 4068352
-1644.5018 1324.6512 2526.8027 4264704
-1620.9912 1317.7104 2513.563 4462081
-1607.5637 1318.9135 2515.8577 4396032
-1596.0847 1321.7528 2521.2737 4133120
-1580.3403 1321.0798 2519.9902 4330496
-1560.3092 1316.7765 2511.7815 4330752
-1544.1422 1315.683 2509.6953 4330752
-1530.4552 1316.7014 2511.6382 4198912
-1513.1371 1314.5854 2507.6018 4593922
-1499.7625 1315.8875 2510.0854 4396544
-1492.8035 1322.9009 2523.4639 4528385
-1471.6918 1317.3875 2512.9468 4330752
-1453.7205 1314.6013 2507.6321 4593408
-1435.856 1311.855 2502.3936 5119749
-1423.5419 1314.1755 2506.8201 4856579
-1405.4266 1311.1331 2501.0164 5381891
-1395.9988 1316.2166 2510.7134 5842700
-1376.5046 1311.8165 2502.3201 5711115
-1357.9475 1308.2231 2495.4656 5579529
-1350.2256 1315.1041 2508.5913 5053188
-1336.6862 1316.4089 2511.0803 5645066
-1319.9287 1314.5385 2507.5122 5447944
-1305.5312 1315.0022 2508.397 5185285
-1283.1511 1307.3436 2493.7878 4724993
-1264.9794 1303.8442 2487.1128 4329985
-1248.5634 1302.0934 2483.7729 4987911
-1235.6802 1304.0291 2487.4653 4527104
-1224.8632 1308.2183 2495.4563 4658945
-1209.4258 1307.5145 2494.114 4922116
-1195.1033 1308.0138 2495.0664 5053446
-1180.6171 1308.3441 2495.6965 4526848
-1170.7875 1313.9087 2506.311 5316617
-1155.8683 1313.8311 2506.1628 5381896
-1136.8976 1309.0863 2497.1121 4921859
-1120.6313 1307.3715 2493.8411 4724228
-1102.9135 1303.8948 2487.2092 4000768
-1087.2982 1302.8433 2485.2034 5316358
-1068.1027 1297.4138 2474.8467 5184772
-1058.0375 1303.0782 2485.6519 5184772
-1046.7877 1307.4233 2493.9399 5579531
-1030.8478 1305.9507 2491.1309 5382151
-1019.3249 1310.1125 2499.0696 5184515
-999.81384 1303.9786 2487.3691 5184515
-981.89203 1299.765 2479.3315 5447943
-966.0033 1298.1555 2476.2615 5381894
-952.08984 1299.1917 2478.238 5184774
-941.17096 1304.4106 2488.1934 5842702
-925.37378 1302.9272 2485.3635 5316357
-907.52869 1298.4657 2476.853 6040078
-888.69958 1292.4264 2465.333 5579527
-869.07196 1285.0044 2451.1755 5776907
-853.72919 1283.7736 2448.8274 5842443
-832.48041 1273.4656 2429.1648 5382151
-820.64032 1277.4408 2436.7476 5185545
-803.57324 1273.276 2428.8032 5185542
-792.62311 1278.8285 2439.3948 5382921
-780.77136 1283.1056 2447.5535 5646091
-763.44159 1278.3718 2438.5237 5513991
-748.99237 1278.3718 2438.5237 5382149
-735.66449 1280.3235 2442.2463 5645065
-716.01489 1271.1304 2424.7104 5381637
-701.57446 1270.9982 2424.4583 4394752
-682.64087 1262.55 2408.3433 5644809
-671.435 1268.339 2419.3857 5907981
-656.47339 1267.1312 2417.0818 5645064
-643.77563 1270.3364 2423.196 5645064
-628.17517 1267.8298 2418.4146 4921345
-611.40424 1262.7883 2408.7979 5513478
-597.51843 1263.6073 2410.3601 5381636
-586.19189 1270.0114 2422.5757 6105615
-563.14917 1250.7159 2385.7693 5052929
-555.3125 1265.0681 2413.1465 6040079
-539.70093 1261.9984 2407.291 6171409
-524.93774 1260.7998 2405.0046 5118977
-502.52896 1240.6588 2366.5852 4855552
-493.43268 1253.171 2390.4526 5579271
-480.04471 1255.2013 2394.3252 6105613
-462.41885 1245.9366 2376.6526 5184258
-445.88916 1239.136 2363.6804 4986624
-429.36478 1231.9098 2349.8962 4789504
-415.95203 1233.426 2352.7886 4789504
-404.48999 1241.0326 2367.2981 5907979
-392.14133 1246.3674 2377.4744 5710857
-380.37198 1254.01 2392.0527 6631702
-364.13818 1246.9559 2378.5972 5710600
-346.77539 1235.3121 2356.3862 5579527
-333.20578 1236.7705 2359.168 5447686
-317.14297 1228.6973 2343.7683 5184771
-304.24399 1232.7036 2351.4104 5447686
-288.99301 1227.1074 2340.7356 5118724
-275.7139 1229.7421 2345.7612 5974288
-261.08383 1226.3108 2339.2161 5711116
-249.09636 1235.6033 2356.9417 5250052
-234.39586 1231.7424 2349.5771 5842189
-220.17445 1230.0709 2346.3884 5842188
-205.821 1227.3865 2341.2678 5710603
-191.12447 1222.1201 2331.2222 5841932
-176.51985 1216.6669 2320.8201 5579017
-163.5177 1222.2704 2331.5088 6039568
-149.50919 1220.6913 2328.4968 6105359
-136.20346 1225.1127 2336.9307 5513224
-120.93216 1210.8542 2309.7322 5907725
-107.54823 1214.2657 2316.2397 5447174
-94.21244 1219.2983 2325.8396 5250055
-79.605469 1206.785 2301.9702 4986883
-66.214272 1211.3386 2310.6562 5052673
-52.785721 1217.4045 2322.2271 5118209
-39.133904 1220.7833 2328.6721 5052675
-25.257923 1217.0411 2321.5339 5710346
-11.489189 1215.6958 2318.9678 5250308
2.2723632 1226.8918 2340.3242 5842444
16.044922 1219.6852 2326.5776 5513736
29.763567 1216.9352 2321.3318 5053187
43.658157 1220.8435 2328.7871 5053443
0 0 0 0
71.078644 1217.8021 2322.9856 5250309
83.986168 1205.4998 2299.5186 4724224
97.876465 1208.7692 2305.7549 5052932
111.27116 1205.8666 2300.2183 5316105
124.7079 1204.0034 2296.6643 4987395
138.26201 1203.5287 2295.7585 5052932
151.72971 1202.4541 2293.7087 6105361
164.92958 1199.6083 2288.2803 5052676
179.10309 1203.7384 2296.1587 5118467
191.96596 1199.0986 2287.3081 5381638
205.6256 1199.7196 2288.4927 5184259
218.94768 1198.4161 2286.0061 5118210
235.13519 1212.0345 2311.9836 4723712
248.70128 1211.3851 2310.7449 4394752
258.97971 1195.6252 2280.6826 6105618
272.38763 1195.16 2279.7952 5250051
286.78262 1198.865 2286.8625 5447430
300.44891 1199.3269 2287.7437 5776652
315.01038 1203.1681 2295.0708 6171409
328.48465 1202.7106 2294.198 5842443
341.71442 1201.4298 2291.7549 5447685
353.17624 1194.2686 2278.0947 5447944
368.24356 1199.3778 2287.8408 5513480
380.36133 1194.8588 2279.2205 4789760
393.74103 1194.4778 2278.4937 5842702
407.70026 1195.8217 2281.0574 4921601
424.66769 1205.6198 2299.7473 5381637
434.6228 1195.5197 2280.4812 5184771
448.6488 1196.8889 2283.093 5382150
460.24426 1191.8835 2273.5454 5382151
472.767 1189.4961 2268.991 4657922
486.01514 1189.0151 2268.0737 6105360
501.60315 1194.1306 2277.8315 5644553
515.10022 1194.1306 2277.8315 5447430
528.75 1194.4755 2278.4895 5644554
542.38782 1194.7771 2279.0647 5776397
553.323 1189.2551 2268.5315 5052419
565.67499 1186.968 2264.1687 5447431
577.7489 1184.2169 2258.9209 5710603
584.97614 1171.881 2235.3899 5775881
601.19421 1177.704 2246.4973 5184261
620.61792 1189.4182 2268.8425 5776398
627.64862 1177.3881 2245.8948 5184005
641.41132 1178.2236 2247.4885 5579275
652.39276 1174.0201 2239.4705 5777168
662.83203 1169.0281 2229.948 4527104
674.65491 1166.6237 2225.3613 5316874
687.75647 1166.4801 2225.0876 5185289
696.51276 1159.1108 2211.0305 5251081
713.20306 1164.9733 2222.2134 4329985
722.00732 1157.9753 2208.8647 5053703
735.1709 1158.0939 2209.0906 4790018
747.28528 1156.5844 2206.2112 6105364
759.37488 1155.0889 2203.3586 4724228
777.83856 1163.1759 2218.7847 4658434
785.10236 1154.5242 2202.2812 4987140
789.48016 1141.9806 2178.3542 4001024
802.4566 1142.0786 2178.541 4198400
816.59265 1143.7977 2181.8203 3081984
825.95795 1138.885 2172.4492 3738112
837.05768 1136.4779 2167.8577 3935232
853.2431 1140.9441 2176.377 5712145
864.25122 1138.4573 2171.6335 4790531
877.8573 1139.4155 2173.4614 4856067
889.53119 1137.8745 2170.5217 5579021
905.99493 1142.4171 2179.1868 4921348
923.86157 1148.5762 2190.9355 5578763
928.89478 1138.8307 2172.3457 5776399
941.7309 1138.7872 2172.2629 5052675
