# .PCD v0.7 - Point Cloud Data file format
VERSION 0.7
FIELDS x y z rgb
SIZE 4 4 4 4
TYPE F F F U
COUNT 1 1 1 1
WIDTH 1282
HEIGHT 1
VIEWPOINT 0 0 0 1 0 0 0
POINTS 1282
DATA ascii
13334.102 2263.605 15609.52 5137197
13382.078 2256.1001 15557.767 5005098
13489.563 2258.6614 15575.431 5465136
13785.933 2292.5999 15809.466 3294483
13831.694 2284.6853 15754.887 3359502
13912.593 2282.6416 15740.795 3359764
14479.036 2359.7583 16272.58 5070115
15588.157 2523.7136 17403.195 5398824
15747.343 2532.731 17465.377 3622927
15639.284 2498.9287 17232.281 5201699
15334.003 2434.2559 16786.307 3886615
15840.436 2498.4453 17228.947 3360274
15933.812 2497.0801 17219.533 3426837
15674.524 2440.8154 16831.541 2440202
15919.843 2463.3425 16986.885 2177543
16164.692 2485.5144 17139.777 3493146
17098.881 2612.7415 18017.119 3691807
17146.365 2603.7407 17955.051 3625759
0 0 0 0
0 0 0 0
0 0 0 0
-8230.4443 1354.0568 8970.8408 13554638
-8119.4771 1344.4841 8907.4199 13489101
-8109.8965 1351.6841 8955.1211 13489102
-8036.0073 1348.1901 8931.9727 13159881
-7973.0591 1346.4974 8920.7588 13094088
-8012.2983 1362.1549 9024.4922 13554638
-7947.4351 1360.2056 9011.5771 13554639
-7842.6201 1351.3458 8952.8809 13554639
-7825.4229 1357.5656 8994.0869 13554639
-7720.9746 1348.6302 8934.8896 13488846
-7662.2852 1347.6196 8928.1934 13620176
-7578.9429 1342.2288 8892.4785 13423053
-7491.0903 1335.9584 8850.9355 13488846
-7450.1265 1338.0203 8864.5967 13488846
-7348.811 1329.1957 8806.1318 13423053
-7268.8755 1324.1395 8772.6338 13357774
-7195.6064 1320.2338 8746.7578 13423310
-7121.792 1316.1705 8719.8379 13423053
-7074.5835 1317.0007 8725.3389 13423310
-7032.292 1318.7654 8737.0293 13423310
-6932.3359 1309.6621 8676.7188 13488846
-6806.3496 1295.4684 8582.6826 13423310
0 0 0 0
0 0 0 0
0 0 0 0
0 0 0 0
-6284.0479 1242.4751 8231.5947 13291980
-6481.7437 1291.5884 8556.9775 13292238
-6541.6499 1313.803 8704.1533 13423053
-6494.9111 1314.7821 8710.6396 13489103
-6454.0513 1316.9764 8725.1777 13423823
-6450.772 1326.9369 8791.167 13424080
-6446.0376 1336.7576 8856.2305 13291981
-6417.4956 1341.7618 8889.3848 13226444
-6291.9233 1326.394 8787.5703 13357260
-6202.1055 1318.3699 8734.4092 13357517
-6152.3584 1318.8003 8737.2607 13488333
-6125.7983 1324.2505 8773.3691 13553869
-6055.2231 1320.1975 8746.5176 13553869
-5975.4951 1314.0618 8705.8672 13619662
-5958.4282 1321.7189 8756.5967 13619662
-5933.3555 1327.719 8796.3486 13553869
-5892.2432 1330.2045 8812.8154 13553869
-5869.4038 1336.8964 8857.1504 13423309
-5822.8931 1338.2689 8866.2432 13423053
-5927.1421 1374.6307 9107.1465 13488846
-5955.9995 1394.0151 9235.5713 13488846
-5713.3545 1349.624 8941.4727 13423309
-5646.2397 1346.2542 8919.1475 13160652
-5633.0146 1355.7913 8982.332 13226188
-5579.4941 1355.7192 8981.8545 13292237
-5543.1641 1359.863 9009.3076 13489100
-5462.022 1352.9872 8963.7539 13489100
-5400.8867 1350.9806 8950.46 13619661
-5334.479 1347.6023 8928.0791 13685197
-5272.6445 1345.3234 8912.9805 13750477
-5255.2866 1354.4613 8973.5205 13619404
-5205.748 1355.4072 8979.7881 13488331
-5164.8154 1358.6366 9001.1826 13423051
-5138.5859 1365.8414 9048.916 13160907
-5081.1523 1364.8168 9042.127 13292236
-5054.8999 1372.2346 9091.2715 13357772
-5006.603 1373.7637 9101.4023 13423052
-4963.9277 1376.8854 9122.084 13357516
-4932.1978 1383.1451 9163.5557 13554639
-4961.2935 1406.7917 9320.2178 13423053
-5044.3188 1446.4346 9582.8584 13423053
-4899.1128 1420.7909 9412.9648 13357260
-4853.2207 1423.6902 9432.1729 13094088
-4849.5581 1439.1893 9534.8574 13291211
-4735.1929 1421.814 9419.7422 13423054
-4691.0117 1425.3489 9443.1621 13357261
-4644.7129 1428.3184 9462.835 13488847
-4583.4839 1426.7126 9452.1973 13619406
-4505.7285 1419.8596 9406.7949 13357774
-4415.5078 1408.8575 9333.9043 13292237
-4368.0908 1411.407 9350.7949 13095629
-4349.3022 1423.3911 9430.1914 12898764
-4393.9268 1456.7104 9650.9375 12767692
-4355.2383 1462.9237 9692.1016 12571340
-4286.894 1459.2085 9667.4873 12440012
-4242.7231 1463.7324 9697.459 12308172
-4199.0425 1468.552 9729.3896 12440015
-4147.6973 1470.7878 9744.2021 12176842
-4075.9753 1465.7592 9710.8867 12111051
-4007.6699 1461.8326 9684.873 12439247
-3943.043 1459.1534 9667.123 12571089
-3919.542 1471.8385 9751.1631 12571088
-3851.0881 1467.7703 9724.21 12636624
-3764.0037 1456.3696 9648.6797 12636880
-3762.5374 1478.256 9793.6797 12636367
-3711.6572 1481.1096 9812.5859 12636880
-3658.2878 1483.045 9825.4082 12571087
-3616.7151 1489.9028 9870.8418 12571088
-3547.1245 1485.2542 9840.0439 12570832
-3501.0894 1490.4781 9874.6533 12702416
-3433.7588 1486.6598 9849.3564 12702415
-3401.2905 1498.0641 9924.9121 12504780
-3328.2544 1491.6876 9882.667 12636365
-3254.3479 1484.6859 9836.2793 12898765
-3196.4639 1484.8717 9837.5098 12833229
-3142.7034 1487.0153 9851.7119 12898765
-3049.4546 1470.2021 9740.3223 12964301
-3009.1448 1478.7556 9796.9902 12964554
-2970.897 1488.6787 9862.7324 13029835
-2855.9146 1459.7778 9671.2598 13161165
-2804.1082 1462.6466 9690.2656 13357774
-2815.8943 1499.499 9934.4189 13357774
-2750.4934 1495.9447 9910.8701 13423310
-2686.4543 1492.9917 9891.3066 13554639
-2581.7783 1466.8197 9717.9131 13423053
-2566.7053 1491.5221 9881.5703 13226700
-2539.4741 1510.1478 10004.969 12502465
-2418.4668 1472.5652 9755.9775 13423309
-2355.8428 1469.561 9736.0742 13554383
-2296.1128 1468.2566 9727.4326 13619662
-2250.9177 1476.4187 9781.5078 13619662
-2198.0801 1479.8671 9804.3535 13619662
-2141.6758 1481.0359 9812.0977 13554126
-2083.4016 1480.941 9811.4688 13554126
-2029.9618 1484.3757 9834.2246 13619662
-1971.3729 1484.137 9832.6426 13619662
-1915.0426 1485.6357 9842.5723 13553869
-1857.1055 1485.943 9844.6084 13619662
-1800.0383 1486.9889 9851.5371 13685455
-1741.6979 1487.0179 9851.7295 13685455
-1684.0808 1487.6877 9856.167 13685199
-1620.5359 1482.9812 9824.9854 13750989
-1564.4891 1485.0413 9838.6338 13750989
-1508.776 1487.5897 9855.5176 13750989
-1450.1329 1487.3381 9853.8506 13750989
-1392.7048 1488.364 9860.6475 13750989
-1331.8158 1485.6191 9842.4619 13750989
-1278.6184 1491.5957 9882.0576 13685453
-1232.1588 1506.3832 9980.0273 13619660
-1177.098 1511.6161 10014.696 13619660
-1108.698 1499.3651 9933.5312 13619660
-1088.1229 1554.0435 10295.784 13553867
-1020.3602 1543.8213 10228.061 13619660
-967.44727 1556.1951 10310.039 13619660
-906.23895 1555.994 10308.706 13685453
-847.20404 1559.7649 10333.689 13685453
-789.96753 1567.6924 10386.211 13685455
-736.67645 1585.4508 10503.863 13685455
-673.80975 1583.9767 10494.097 13685453
-610.20007 1580.2787 10469.597 13553867
-547.47607 1578.2969 10456.467 13488073
-491.16687 1596.6622 10578.14 13027775
-428.94455 1598.3666 10589.432 13028029
-366.73355 1600.7046 10604.922 12699062
-301.14175 1586.2017 10508.838 12698805
-240.25746 1595.3973 10569.76 12961978
-179.11292 1608.7399 10658.156 12895931
-115.27602 1599.2637 10595.375 13619658
-52.903164 1611.7242 10677.929 13553355
10.130793 1574.8727 10433.781 13684943
73.777824 1614.7656 10698.078 13619150
136.32607 1604.8516 10632.396 13750224
195.15657 1571.2717 10409.924 13816019
264.95947 1620.9471 10739.031 13816019
328.31619 1619.5837 10729.999 13816019
392.54926 1622.2845 10747.893 13816019
457.90009 1628.2059 10787.122 13750226
524.92224 1637.8916 10851.291 13815763
591.81866 1645.1139 10899.14 13816019
661.35114 1657.5215 10981.343 13816019
729.09674 1663.6293 11021.808 13750481
810.22601 1696.7604 11241.307 13684944
892.92572 1727.8971 11447.592 12566719
965.67242 1736.7367 11506.156 13487820
1020.309 1713.9879 11355.441 13619406
1073.2585 1691.3954 11205.762 13619149
1142.9733 1696.3168 11238.367 13488076
1206.5077 1692.0289 11209.96 13553869
1278.7288 1699.7354 11261.016 13422539
1357.3424 1714.7531 11360.511 13356746
1448.422 1743.356 11550.01 13488333
1534.7028 1763.8624 11685.868 13553612
1617.5898 1778.8665 11785.272 13619405
1683.259 1774.4777 11756.195 13619405
1785.2268 1807.1825 11972.87 13684686
1866.1647 1816.9126 12037.334 13684942
1955.4945 1833.7959 12149.188 13816269
2030.7216 1836.7249 12168.593 13816269
2116.7722 1848.9067 12249.3 13816269
2214.1177 1869.8193 12387.85 13816269
2281.8936 1865.2197 12357.376 13816269
2357.0425 1866.7456 12367.485 13816269
2432.1973 1868.184 12377.015 13816269
2482.7566 1851.199 12264.486 13816269
2538.3889 1838.8551 12182.706 13816269
2623.3413 1847.8467 12242.276 13816269
2688.0771 1842.4972 12206.835 13816269
2762.3755 1843.8107 12215.538 13816269
2815.6372 1831.3743 12133.145 13816269
2876.813 1824.5765 12088.108 13750732
2775.3235 1717.4473 11378.36 13684939
2866.0627 1731.5349 11471.693 13619149
2934.0374 1731.5349 11471.693 13619405
3028.448 1746.7832 11572.716 13488076
3126.7881 1763.5723 11683.946 13291211
3300.6589 1821.3124 12066.483 12633794
3426.6848 1850.7627 12261.597 10791848
3507.0908 1854.8622 12288.756 12568515
3569.8337 1849.6429 12254.178 11910073
3641.0725 1848.9464 12249.562 13423055
3640.7856 1812.6656 12009.197 12370109
3640.562 1777.8069 11778.253 11185835
3677.1414 1761.8937 11672.825 12698817
3722.7905 1750.8337 11599.551 13356747
3714.0576 1715.0623 11362.56 13487820
3882.9739 1761.1382 11667.819 13422282
3847.8635 1714.6838 11360.052 13553356
4023.8794 1762.2911 11675.458 13290184
3993.5037 1719.426 11391.47 13553869
4237.9956 1794.3647 11887.951 13356746
4407.9961 1835.8289 12162.657 13160137
4380.7886 1795.1479 11893.14 12699076
4477.959 1805.9152 11964.475 13357260
4463.2856 1771.9445 11739.413 13554123
4489.52 1755.0077 11627.204 13488588
4485.8643 1727.075 11442.146 13488843
4567.0234 1732.1418 11475.715 12699581
4738.9492 1770.9805 11733.026 11975859
4853.7837 1787.6691 11843.591 11975602
4870.6958 1768.3306 11715.471 12371129
4954.3652 1773.4316 11749.266 12305082
5049.9199 1782.5867 11809.919 13292235
5040.6445 1754.993 11627.106 13357258
5150.8188 1769.1713 11721.04 13357258
5239.7554 1775.7747 11764.789 13290438
5357.5635 1791.8611 11871.363 13488074
5464.063 1803.7969 11950.44 13487818
5548.7021 1808.3035 11980.297 13488074
5774.4751 1858.1102 12310.274 13553869
5926.1167 1883.1178 12475.954 13553869
6004.5537 1884.5339 12485.336 13488076
6082.1455 1885.6536 12492.753 13488076
6189.0967 1895.7391 12559.571 13553869
6275.1187 1899.2505 12582.835 13619661
6375.9995 1907.1238 12634.997 13554125
6462.5894 1910.5892 12657.957 13553868
6558.916 1916.8209 12699.242 13488331
6658.6108 1923.8844 12746.039 13554124
6739.1636 1925.3207 12755.555 13357515
6917.3213 1954.3008 12947.552 13357772
6965.2124 1946.2454 12894.184 13095628
7035.7969 1944.637 12883.528 12898762
7136.1694 1951.2081 12927.062 12635850
7229.5884 1955.7585 12957.211 12372934
7353.147 1968.281 13040.174 12832715
7496.0435 1985.6655 13155.35 12964555
7588.481 1989.4637 13180.513 13029579
7570.7842 1964.6045 13015.816 13161418
7652.4697 1965.7764 13023.58 13292492
7818.8608 1988.4668 13173.908 13423307
8564.9053 2156.667 14288.26 13488844
8690.0166 2166.7522 14355.076 13488844
8771.5176 2165.8733 14349.254 13423051
8930.4443 2183.9463 14468.989 13488587
8426.7617 2041.1746 13523.104 13423051
8306.54 1993.1014 13204.612 13357515
8549.2051 2032.1853 13463.55 13423307
8469.2559 1994.5687 13214.334 13423307
8473.8213 1977.3627 13100.341 13357514
8551.9258 1977.4738 13101.077 13423051
8661.2627 1984.7394 13149.213 13619660
8795.502 1997.5312 13233.961 13357258
8949.6094 2014.5695 13346.843 12041653
9035.1074 2016.0004 13356.321 12634557
9503.2705 2102.0491 13926.407 9805972
10118.305 2218.823 14700.054 10924707
10103.489 2196.6641 14553.247 11516590
10405.389 2243.1565 14861.268 12832193
10676.164 2282.2153 15120.038 13357769
10968.371 2325.1672 15404.601 13489100
11092.54 2332.082 15450.413 13423050
11295.176 2355.2454 15603.875 13357259
11538.647 2386.4785 15810.799 13488844
11838.299 2428.7344 16090.75 13423051
12183.414 2479.5679 16427.529 13358027
11994.945 2421.8613 16045.214 13160135
12173.812 2438.6465 16156.419 12831427
12034.315 2391.8928 15846.669 11976376
11515.152 2270.9866 15045.646 11581618
11425.506 2235.9956 14813.825 11384753
11442.506 2222.2498 14722.758 11581875
11454.782 2207.8015 14627.035 12174269
11357.148 2172.5454 14393.457 12371132
11895.005 2258.4734 14962.745 13226184
12121.208 2284.3953 15134.48 13686478
12777.589 2390.4133 15836.867 13949907
12384.954 2300.0679 15238.313 14212565
12096.216 2230.1855 14775.332 13949395
12307.028 2252.7483 14924.814 13817809
12612.589 2292.2087 15186.245 13752529
13215.6 2384.7852 15799.579 13818322
12982.838 2326.3035 15412.129 13751759
12519.671 2227.6423 14758.483 13423564
12339.19 2180.2996 14444.831 13620939
11794.723 2069.7368 13712.335 13292230
11864.779 2067.7859 13699.409 12831679
11922.486 2063.7239 13672.498 12831676
12282.596 2111.7078 13990.398 12897470
12804.232 2186.6328 14486.789 12437434
13507.449 2291.3625 15180.641 11582127
13997.167 2358.7295 15626.956 11911348
13868.004 2321.6052 15381.003 11318697
15445.186 2568.7554 17018.412 11187110
0 0 0 0
15116.551 2481.6929 16441.609 11122087
15484.183 2525.7693 16733.621 10595999
15012.085 2433.1802 16120.203 10530718
14385.95 2316.9529 15350.181 11385770
15359.195 2458.1587 16285.691 10662046
15916.59 2531.4622 16771.338 9938324
0 0 0 0
0 0 0 0
0 0 0 0
0 0 0 0
-8069.3062 1379.6617 8795.207 11844277
-8008.106 1378.0985 8785.2412 11712691
-7943.3413 1375.8972 8771.208 10659747
-7909.0913 1378.9872 8790.9062 8488835
-7809.1631 1370.5911 8737.3818 9541524
-7964.0767 1407.1088 8970.1787 9015436
-7984.7695 1420.2435 9053.9111 8488837
-7937.293 1421.3486 9060.9561 9080977
-7983.1304 1439.2925 9175.3467 8883086
-7774.624 1411.312 8996.9736 7699069
-7539.3203 1378.047 8784.9131 7040626
-7410.083 1363.8413 8694.3525 7698812
-7412.2891 1373.7986 8757.8291 7106674
-7379.4492 1377.3547 8780.5 8752011
-7342.3071 1380.1531 8798.3389 10002075
-7207.272 1364.4584 8698.2861 9146508
-7144.1938 1362.2583 8684.2617 10067866
-7072.2529 1358.3243 8659.1826 9804439
-7031.1191 1360.293 8671.7324 9081743
-6946.3335 1353.7832 8630.2334 8884363
-6978.3774 1370.1147 8734.3457 8687242
-6929.3867 1370.6615 8737.8311 8095106
-6670.5742 1329.4003 8474.7949 6910832
0 0 0 0
0 0 0 0
-6735.3545 1373.326 8754.8174 6712939
-6673.6626 1371.3091 8741.959 3883070
-6444.0474 1334.4855 8507.2129 5133138
-6504.1377 1357.5491 8654.2402 7633272
-6555.6108 1379.1661 8792.0469 7040878
-6684.4995 1417.5468 9036.7197 7896187
-6764.0088 1445.991 9218.0488 8158591
-6516.9966 1404.5271 8953.7207 8619911
-6377.2388 1385.6876 8833.6211 8685704
-6333.3286 1387.535 8845.3984 8291202
-6305.1211 1392.8823 8879.4863 7436150
-6213.4277 1384.1768 8823.9893 6712428
-6176.106 1387.5385 8845.4199 7962495
-6134.0259 1389.8796 8860.3447 8093568
-6108.1768 1395.9707 8899.1748 6975085
-6197.1445 1428.6368 9107.418 7567479
-6212.7651 1444.8193 9210.5801 5658968
-5973.1846 1401.4143 8933.877 8093566
-5843.9067 1383.343 8818.6748 7303793
-5727.6841 1368.0642 8721.2734 10659493
-5707.0791 1375.5532 8769.0156 5527639
-5372.2178 1306.7402 8330.3398 7764601
-5430.5854 1333.1871 8498.9355 8028029
-5534.6929 1371.4631 8742.9414 8817546
-5557.3257 1390.0828 8861.6396 8159613
-5591.9014 1412.0735 9001.8281 8620421
-5567.6201 1419.4819 9049.0566 8686213
-5553.585 1429.6721 9114.0176 7764598
-5448.0884 1416.2861 9028.6836 8027256
-5379.2017 1412.2462 9002.9297 10592671
-5369.8901 1423.9229 9077.3662 9539984
-5363.896 1436.7241 9158.9736 10527136
-5398.208 1460.6935 9311.7764 7171950
-5337.4551 1459.1688 9302.0566 6185824
-5237.5356 1446.7933 9223.1641 9278094
-5174.7676 1444.5273 9208.7188 10396831
-5114.9897 1443.0569 9199.3447 10067610
-5080.4956 1448.7645 9235.7305 9475472
-5025.9351 1448.812 9236.0332 8817543
-4985.4897 1452.9744 9262.5674 6580067
-4882.9775 1438.9392 9173.0947 8817542
-4861.1719 1448.6387 9234.9277 8028025
-4831.0347 1456.0481 9282.1621 7370095
-4875.917 1486.4989 9476.2832 6580832
-4890.5063 1508.3163 9615.3672 5462097
-4743.9424 1480.36 9437.1475 6448993
-4599.2144 1452.3162 9258.3711 8817541
-4478.3169 1431.2113 9123.8301 10330782
-4413.9331 1427.8724 9102.5449 10133402
-4387.7476 1436.9606 9160.4814 9672851
-4306.5234 1428.026 9103.5234 11252654
-4312.5815 1448.1741 9231.9658 11054505
-4280.0747 1455.7233 9280.0918 10725798
-4287.3667 1477.1815 9416.8857 11449522
-4296.9092 1499.9913 9562.2959 12305087
-4235.772 1498.4078 9552.2012 11975609
-4221.6641 1513.6432 9649.3252 11054506
-4153.6748 1509.713 9624.2705 10264993
-4112.332 1515.4933 9661.1191 10068384
-4058.2886 1516.6902 9668.749 10331556
-3988.8667 1512.0916 9639.4336 10134691
-3975.5076 1528.9204 9746.7158 9937569
-3905.2212 1524.0292 9715.5352 8621195
-3833.9956 1518.6199 9681.0508 10002077
-3782.3943 1520.937 9695.8223 7435892
-3741.7549 1527.8016 9739.584 9277838
-3650.708 1513.9771 9651.4531 7896444
-3649.7034 1537.6479 9802.3525 8949904
-3596.447 1539.7141 9815.5244 11713724
-3526.9497 1534.7811 9784.0771 11516346
-3468.2048 1534.4402 9781.9043 11845823
-3409.9172 1534.2935 9780.9688 12108995
-3359.0835 1537.5538 9801.7529 11845822
-3312.7258 1543.0134 9836.5576 12371652
-3254.989 1543.2737 9838.2168 10792619
-3161.5432 1526.3041 9730.0371 13095373
-3065.3035 1507.3301 9609.0801 13029322
-3016.3628 1511.3369 9634.623 12633793
-3048.3784 1556.8438 9924.7246 9870231
-3033.0857 1579.5046 10069.186 12502208
-2876.4602 1527.998 9740.8359 13094344
-2874.8064 1558.3896 9934.5801 13028296
-2812.8328 1556.6702 9923.6182 9672340
-2753.9512 1556.6249 9923.3291 10659234
-2665.9656 1539.7682 9815.8691 12698818
-2584.4722 1525.9928 9728.0527 12501438
-2534.3999 1530.5646 9757.1973 12369853
-2475.3364 1529.7931 9752.2793 12172474
-2404.3655 1521.4502 9699.0938 11514802
-2339.5242 1516.6721 9668.6338 11120298
-2276.7024 1512.9963 9645.2012 11316907
-2227.1785 1518.1958 9678.3477 11119530
-2164.1536 1514.224 9653.0273 11514287
-2097.3296 1507.3059 9608.9258 10658978
-2045.0166 1510.7216 9630.7002 12105912
-2006.2736 1524.6459 9719.4658 11974326
-1945.9161 1522.4818 9705.6709 11513774
-1882.0946 1517.3934 9673.2324 11974327
-1841.6609 1531.4332 9762.7354 11118760
-1785.9719 1533.2871 9774.5527 11974326
-1729.6227 1534.6791 9783.4268 11513775
-1678.3622 1540.8396 9822.6992 11645360
-1626.6537 1547.0165 9862.0762 12040116
-1564.5067 1543.3564 9838.7441 11185320
-1514.3607 1551.71 9891.9971 11974837
-1443.8031 1538.9791 9810.8389 9934997
-1409.5941 1565.5503 9980.2275 10264732
-1352.6812 1568.1283 9996.6621 9606802
-1297.8268 1573.4382 10030.513 10461854
-1238.5966 1573.6981 10032.17 9541009
-1177.3828 1571.337 10017.118 7829621
-1114.8142 1566.8213 9988.3301 7632499
-1044.8066 1550.7576 9885.9258 7237741
-995.81281 1565.8279 9981.998 8290427
-936.34656 1565.295 9978.6006 10987940
-873.70685 1559.0275 9938.6445 10922147
-809.97821 1549.7701 9879.6309 11185319
-749.58759 1545.9552 9855.3105 11974837
-694.48157 1553.3152 9902.2295 11449520
-640.06757 1563.7242 9968.5869 11054760
-576.30969 1551.1013 9888.1172 11580848
-520.38397 1559.0868 9939.0244 11515055
-461.7717 1560.0342 9945.0635 11581105
-401.815 1556.0525 9919.6807 12765123
-344.25778 1561.5906 9954.9844 12962502
-287.39639 1573.2278 10029.171 13027267
-230.60565 1591.4199 10145.144 12040630
-174.68481 1630.5605 10394.661 10724769
-112.61755 1623.7158 10351.027 12961731
-50.815224 1608.8879 10256.501 13290440
10.039141 1621.89 10339.388 13290440
71.307266 1621.9606 10339.838 13487822
132.11887 1616.3805 10304.266 13422285
193.2052 1616.6267 10305.835 13619151
254.77148 1619.8062 10326.104 13750993
316.56992 1622.9442 10346.108 13750737
378.0997 1623.9104 10352.268 13816530
450.20087 1663.6722 10605.745 11579570
519.24786 1683.7893 10733.989 12106171
585.64673 1691.8656 10785.476 12829637
646.61023 1684.1954 10736.579 12698051
702.97125 1666.9855 10626.867 13092807
776.68097 1690.3627 10775.895 12895428
865.48737 1740.5486 11095.824 10132120
975.30835 1822.9258 11620.971 12632254
1002.7759 1750.6639 11160.309 12961219
1081.838 1771.8452 11295.338 13355977
1152.4779 1777.5685 11331.822 13158601
1223.4226 1783.1056 11367.121 13158344
1296.285 1790.714 11415.623 13026758
1370.8975 1799.8654 11473.963 13092551
1425.8052 1783.5037 11369.658 12961220
1500.6459 1792.4274 11426.546 13159112
1594.3552 1822.1449 11615.992 13290698
1674.6346 1834.689 11695.96 13422027
1708.2598 1797.1543 11456.681 13290442
1834.4047 1856.103 11832.472 13355977
1895.224 1847.0461 11774.736 13421769
1933.895 1817.814 11588.384 13092548
1993.641 1809.717 11536.767 10855586
2136.7529 1875.3231 11954.999 13421770
2217.3042 1883.5745 12007.6 13421770
2289.1477 1884.1453 12011.239 13421770
2362.6174 1885.98 12022.935 13553099
2406.9414 1865.1223 11889.97 12697790
2408.9607 1813.6016 11561.53 13355975
2578.218 1887.3549 12031.7 13684684
2564.4128 1826.7363 11645.263 12697533
2692.6677 1867.8379 11907.281 13684427
2758.8979 1864.9142 11888.644 13749964
2828.8879 1864.6145 11886.732 13618634
2782.2986 1789.3545 11406.957 13618634
2880.1267 1808.3395 11527.984 13552587
2925.468 1794.2537 11438.188 13815502
3017.4517 1808.7645 11530.694 13552587
3067.1643 1797.8553 11461.149 13487308
3181.7844 1824.6407 11631.903 13553099
3357.1191 1884.3701 12012.672 13224390
3446.6313 1894.4463 12076.907 13487305
3521.5518 1896.2555 12088.44 13553098
3573.8508 1886.0544 12023.409 13618890
3623.55 1874.9069 11952.346 13684684
3631.4934 1842.9956 11748.914 13750476
3629.064 1807.1195 11520.207 13947342
3734.9485 1825.5081 11637.433 14013137
3786.4495 1817.1311 11584.03 13947344
3675.4956 1732.4778 11044.374 14078929
3942.7852 1825.9561 11640.288 14079443
3966.5898 1805.3975 11509.229 14079443
4083.6687 1827.2701 11648.666 14013650
4135.1006 1819.5295 11599.32 14079443
4298.8213 1860.644 11861.421 14079700
4239.5874 1805.4871 11509.801 12697790
4376.2822 1834.1946 11692.808 13488076
4369.1528 1802.667 11491.823 13817038
4409.6875 1791.4709 11420.449 13751246
4466.3979 1787.0856 11392.493 13685965
4502.4014 1774.6688 11313.338 13160133
4653.3096 1807.2428 11520.994 12436153
4734.5693 1812.2161 11552.698 12633787
4765.9268 1798.2194 11463.47 12830909
4781.3452 1778.6865 11338.949 13028292
4928.7007 1808.0959 11526.432 13423050
5302.6621 1918.6956 12231.494 13488331
5393.75 1925.3392 12273.847 13422539
5326.7427 1876.1234 11960.101 13422282
5622.8765 1954.422 12459.247 13619659
5699.2383 1955.2921 12464.793 13816781
5784.8516 1959.2731 12490.172 13816781
5981.5059 2000.2871 12751.632 13817041
6058.3691 2000.7179 12754.378 13817041
6206.4365 2024.3629 12905.112 13817041
6294.9858 2028.2555 12929.928 13751248
6416.7715 2042.6346 13021.593 13817041
6501.3989 2044.984 13036.57 13751248
6584.6904 2046.8632 13048.55 13751248
6664.731 2047.6996 13053.881 13619662
6748.2051 2049.5598 13065.74 13685455
6641.0918 1994.149 12712.503 12632767
6760.002 2007.0895 12794.996 12831174
6827.7275 2004.7141 12779.854 13291468
7041.0317 2044.6659 13034.542 13423055
7371.8882 2117.5166 13498.959 13357518
7525.3955 2138.4084 13632.141 13291727
7296.9771 2051.481 13077.988 13292239
7791.1187 2167.3872 13816.879 13423311
7991.4019 2199.9856 14024.69 13554897
8155.291 2221.9971 14165.011 13752018
8287.6436 2235.0549 14248.254 13686481
8398.7764 2242.1843 14293.703 13752018
8535.8027 2256.0154 14381.874 13752017
8661.708 2266.6626 14449.749 13620688
8754.1406 2268.4282 14461.004 13619662
8859.21 2273.4016 14492.71 13619662
8981.2002 2282.5803 14551.224 13685455
8250.0361 2076.8164 13239.498 13751248
9116.4287 2273.3003 14492.063 13751248
9182.1152 2268.314 14460.276 13685455
9246.4961 2263.1001 14427.039 13619406
8496.21 2060.4172 13134.954 13619406
8567.2598 2058.7878 13124.567 13619406
8683.8994 2068.0447 13183.58 13750736
8741.8965 2063.2957 13153.305 13817038
8849.2598 2070.1792 13197.188 13948625
8936.3223 2072.2349 13210.291 13883087
9088.9443 2089.325 13319.239 13686476
9309.0566 2121.502 13524.364 13225924
9485.4297 2143.2463 13662.983 12765884
9802.6211 2196.1719 14000.378 12897213
10052.023 2233.1492 14236.104 13423560
10514.592 2316.4734 14767.288 13489099
10726.611 2343.6797 14940.725 13423307
10957.737 2374.5806 15137.716 13489100
11167.111 2400.3044 15301.703 13423565
11282.869 2405.6538 15335.804 13423564
11355.446 2401.7844 15311.138 13423308
11446.171 2401.7844 15311.138 13488844
11559.053 2406.3972 15340.543 13686480
11709.183 2418.6321 15418.539 13752016
11814.974 2421.5894 15437.393 13620685
11667.729 2373.0381 15127.882 13620943
11728.06 2367.1226 15090.172 13555150
11812.116 2366.0493 15083.329 13489100
12003.085 2386.2463 15212.083 13358027
12121.857 2391.8965 15248.103 13489356
12152.529 2380.2078 15173.588 13489358
12216.346 2375.1345 15141.247 13489358
12313.404 2376.5513 15150.279 13554638
12363.706 2368.9888 15102.067 13423310
12461.821 2370.6304 15112.533 13423053
12538.406 2368.1816 15096.924 13489101
12420.83 2329.356 14849.413 13620686
12537.88 2334.7676 14883.912 13620430
14145.965 2615.8203 16675.596 13686222
14414.886 2647.0588 16874.736 13620430
14472.512 2639.333 16825.486 13554637
14739.185 2669.5757 17018.279 13554637
14754.548 2654.1992 16920.256 13488844
13260.378 2369.3127 15104.134 13423050
13295.081 2359.5876 15042.138 13357771
13371.982 2357.4316 15028.394 13292235
13562.825 2375.2588 15142.04 13226442
13584.766 2363.4663 15066.862 13226443
13797.562 2384.8159 15202.964 13292236
13794.928 2368.8938 15101.464 13226699
0 0 0 0
13550.229 2297.0732 14643.614 13358029
13534.007 2279.7251 14533.021 13292748
13428.272 2247.6135 14328.313 13293004
12833.636 2134.5879 13607.786 13227210
12726.841 2103.6084 13410.294 13030343
0 0 0 0
0 0 0 0
0 0 0 0
0 0 0 0
-7996.1909 1418.8038 8715.5146 8094592
-7955.3398 1420.7311 8727.3535 10200226
-7829.627 1407.4291 8645.6416 10792362
-7693.4712 1392.0624 8551.2461 11253169
-7463.4404 1359.3936 8350.5654 11845308
-7215.5835 1323.02 8127.1279 11385011
-7202.3633 1329.4689 8166.7427 11582390
-7276.8311 1352.3005 8306.9941 11582390
-7381.3662 1381.0688 8483.7139 12042941
-7961.728 1499.8704 9213.4951 12371906
-7803.4678 1480.2062 9092.7012 12766667
-7675.5601 1466.066 9005.8408 12437702
-7465.3979 1435.9072 8820.5791 11845565
-7171.6963 1389.1415 8533.3037 10793134
-7003.0264 1366.1021 8391.7754 9872034
-6623.6782 1301.3416 7993.9609 9477022
-6504.1646 1287.0651 7906.2622 9148567
-6471.3843 1289.8691 7923.4868 9280154
-6294.8828 1263.8583 7763.7061 8753810
-6490.6392 1312.7549 8064.0708 8424845
-6424.5884 1309.0327 8041.2065 8226951
-6586.314 1352.0121 8305.2227 7964036
0 0 0 0
0 0 0 0
0 0 0 0
-6675.478 1412.532 8676.9883 8489609
-6533.1655 1393.1487 8557.9189 8160644
-6502.3408 1397.4221 8584.1699 7963521
-6387.2622 1383.5131 8498.7285 7765887
-6139.3301 1340.3774 8233.7529 7568507
-6085.6724 1339.3058 8227.1699 7437178
-6043.0908 1340.6742 8235.5752 7502714
-5935.2705 1327.4735 8154.4854 7568506
-5940.9243 1339.6439 8229.2471 7568762
-5837.2026 1327.1483 8152.4878 7700091
-5817.21 1333.6395 8192.3623 7502970
-5780.0562 1336.2726 8208.5371 7633786
-5775.4385 1346.536 8271.584 7633785
-5598.2603 1316.3986 8086.4536 7239027
-5555.2744 1317.5677 8093.6357 7239284
-5545.2354 1326.6394 8149.3623 7371127
-5433.5156 1311.3309 8055.3237 7370871
-5337.5347 1299.583 7983.1577 7436408
-5347.2393 1313.5873 8069.1846 7370871
-5471.0059 1356.1176 8330.4414 7436921
-5348.8228 1337.9026 8218.5498 7305335
-5342.3403 1348.559 8284.0107 7239542
-5182.6133 1320.371 8110.856 7305591
-5127.5571 1318.572 8099.8047 7305590
-5138.2095 1333.7958 8193.3223 7305590
-5064.0596 1327.0868 8152.1099 7305333
-5024.7241 1329.4597 8166.687 7370354
-4996.8447 1334.9396 8200.3486 7370610
-5036.8511 1358.8412 8347.1729 7304562
-4967.1108 1353.3159 8313.2314 7435633
-4951.9072 1362.6875 8370.7998 7566963
-5014.585 1393.8971 8562.5166 7896442
-5023.9771 1410.7819 8666.2373 7238513
-5035.7397 1428.6877 8776.2305 7107953
-5113.8706 1465.9932 9005.3926 7042163
-5029.0093 1456.8677 8949.3359 7042420
-4997.2925 1463.1073 8987.665 7108214
-4926.4956 1457.9161 8955.7764 7107957
-4853.2891 1451.8911 8918.7656 7042419
-4820.9077 1458.0812 8956.79 7107441
-4726.6123 1445.4744 8879.3486 7238770
-4646.6621 1437.0204 8827.417 7238770
-4587.4141 1434.8491 8814.0791 7172977
-4532.4468 1433.9821 8808.7529 7172977
-4454.0996 1425.6117 8757.335 7173233
-4401.3066 1425.3196 8755.54 7107441
-4296.145 1407.8591 8648.2832 7041904
-4277.7695 1418.7604 8715.248 7173490
-4197.3877 1409.1119 8655.9785 7173233
-4236.0977 1439.6998 8843.876 7107698
-4138.3633 1424.1003 8748.0508 7107699
-4101.3765 1429.275 8779.8379 7042163
-4046.0083 1428.0947 8772.5879 7042163
-4054.5269 1449.7268 8905.4707 7107958
-4078.9795 1477.7018 9077.3174 7042162
-4017.3459 1474.8213 9059.6221 6778737
-3984.2803 1482.4922 9106.7441 6647149
-3925.667 1480.7374 9095.9648 6647919
-3910.6958 1495.6246 9187.4141 6779248
-3803.917 1475.325 9062.7168 6844785
-3760.9773 1479.5581 9088.7197 6910835
-3756.344 1499.2028 9209.3945 7042164
-3689.8162 1494.3596 9179.6436 7173749
-3534.2061 1452.7539 8924.0654 7173236
-3441.6458 1436.1948 8822.3457 7107443
-3465.9333 1468.6375 9021.6357 7106674
-3318.2656 1428.0916 8772.5684 7041906
-3290.8333 1438.8248 8838.501 7041651
-3258.8638 1447.8894 8894.1836 7173235
-3206.6536 1448.1113 8895.5469 7238772
-3190.9922 1465.1217 9000.0391 7304821
-3098.3745 1446.776 8887.3438 7305076
-3050.4597 1449.0305 8901.1934 7305077
-3018.0125 1458.8409 8961.458 7370614
-2975.8635 1464.2295 8994.5586 7305075
-2931.7761 1468.8433 9022.9004 7371126
-2886.6882 1473.1179 9049.1592 7371126
-2867.4226 1490.9812 9158.8906 7436662
-2801.6133 1484.8652 9121.3213 7436405
-2743.8389 1482.8512 9108.9492 7436662
-2714.7854 1496.5895 9193.3408 7436662
-2624.8318 1476.6301 9070.7334 7502456
-2590.9114 1488.0173 9140.6836 7436149
-2526.218 1481.8398 9102.7363 7238770
-2420.7522 1450.9547 8913.0137 7567736
-2344.2661 1436.4491 8823.9072 7501943
-2298.5715 1440.5797 8849.2812 7436150
-2235.793 1433.9462 8808.5322 7370357
-2186.8867 1436.1051 8821.7939 7501941
-2149.6492 1446.2202 8883.9307 7502198
-2100.8923 1448.8989 8900.3848 7435891
-2040.8318 1443.7192 8868.5664 7501685
-1998.475 1451.1204 8914.0312 7435893
-1935.9316 1443.8679 8869.4805 7567479
-1979.5043 1517.5631 9322.1797 7501429
-1849.7876 1458.8257 8961.3633 7501684
-1800.6329 1462.0288 8981.04 7501684
-1751.9313 1465.806 9004.2432 7567221
-1703.6742 1470.2045 9031.2617 7567220
-1656.3203 1475.6925 9064.9746 7632757
-1638.611 1508.8456 9268.6289 7698550
-1586.5852 1511.6033 9285.5693 7698550
-1532.5597 1512.5856 9291.6035 7632758
-1456.6207 1491.2073 9160.2793 7698551
-1445.4816 1537.0802 9442.0703 7764342
-1357.366 1501.4969 9223.4873 7566964
-1296.8314 1494.7178 9181.8438 7698549
-1244.9648 1497.7729 9200.6113 7633011
-1182.5254 1487.8054 9139.3828 7567218
-1128.3232 1487.7429 9138.998 7501169
-1064.4073 1474.22 9055.9287 7238253
-1010.4968 1473.8545 9053.6836 7501938
-950.04059 1463.3657 8989.2529 7633269
-904.80103 1476.4617 9069.6992 7436148
-864.73248 1500.1824 9215.4121 7370869
-801.32251 1483.8776 9115.2539 7370869
-749.90955 1489.0372 9146.9492 7370357
-701.66516 1501.7827 9225.2432 7436150
-647.27643 1502.4199 9229.1572 7436663
0 0 0 0
-539.27136 1506.2406 9252.627 7567479
-489.0788 1520.6455 9341.1143 7436150
0 0 0 0
0 0 0 0
-330.65198 1556.5291 9561.542 7567479
0 0 0 0
0 0 0 0
-163.32436 1582.1056 9718.6543 7501686
-104.79424 1567.993 9631.9639 7567479
-47.517361 1561.3022 9590.8623 7567479
9.4065523 1577.0956 9687.8799 7633014
67.093834 1583.7689 9728.873 7632759
123.17561 1563.8903 9606.7607 7764089
179.00032 1554.3452 9548.127 7764089
0 0 0 0
0 0 0 0
0 0 0 0
0 0 0 0
481.3476 1619.8491 9950.5078 7764345
539.64032 1617.8464 9938.2061 7764346
604.70483 1634.542 10040.765 7764090
662.69958 1630.8486 10018.077 7698808
724.50018 1636.3585 10051.923 7764601
790.34119 1649.4635 10132.426 7698549
882.99567 1712.7277 10521.049 7764598
916.57104 1660.6105 10200.899 7698549
968.80872 1646.6617 10115.214 7895415
1032.7429 1653.0601 10154.519 7764085
1091.421 1650.8043 10140.661 7698291
1144.5355 1640.8077 10079.254 7632499
1217.2351 1658.4877 10187.859 7632755
1283.8379 1666.5822 10237.583 7566963
1343.5447 1665.3983 10230.311 7501171
1399.9773 1660.4335 10199.812 7435122
1473.2406 1675.0155 10289.388 7501171
1555.0527 1697.7716 10429.176 7369329
1616.2108 1697.1007 10425.055 7303536
1674.969 1694.052 10406.326 7237743
1743.8353 1701.0801 10449.498 7172207
1883.7892 1774.593 10901.078 7303536
1933.8359 1761.3438 10819.69 6974571
1981.4467 1746.7976 10730.336 7040364
2063.6157 1762.6744 10827.864 6842986
2159.52 1788.9723 10989.408 6842986
2211.6594 1778.5365 10925.303 7171951
2254.3989 1761.3501 10819.729 7237487
2307.0381 1752.6348 10766.192 6842985
2359.9973 1744.6252 10716.99 7500659
2474.5867 1781.4015 10942.902 7039595
2435.3948 1708.4227 10494.604 7039852
2556.5264 1748.7441 10742.293 7105645
2603.6365 1737.7036 10674.473 6908522
2710.1252 1765.8768 10847.537 7368817
2741.3435 1744.8362 10718.286 6908523
2834.7786 1763.4518 10832.64 7040109
2883.7539 1754.1979 10775.795 7369074
3113.3733 1852.8512 11381.808 7434354
3110.4077 1811.8381 11129.871 7763319
3250.9624 1854.3944 11391.288 7763575
3475.4048 1942.0968 11930.031 7105390
3323.9326 1820.4247 11182.616 7105903
3369.8604 1809.5062 11115.545 7171697
3414.2253 1798.1831 11045.989 7369074
3449.707 1782.6954 10950.851 7763833
3456.075 1753.0125 10768.513 7829367
3461.511 1723.9415 10589.934 7632245
3542.8672 1733.0433 10645.845 7631989
3557.1025 1709.5677 10501.638 7895162
3616.7539 1708.3514 10494.166 7632502
3632.0598 1686.5839 10360.451 7500660
3709.2759 1693.8109 10404.845 7303281
3850.426 1729.5192 10624.196 6579559
3879.7815 1714.6709 10532.985 7237486
4011.5061 1744.8186 10718.179 6448227
4052.6699 1735.2507 10659.404 5527640
4139.1943 1745.1007 10719.912 5461591
4280.2974 1777.3157 10917.804 5132883
4391.4902 1796.3368 11034.647 5198676
4493.7134 1811.1843 11125.854 5067087
4605.8452 1829.5387 11238.602 5067089
4819.7788 1887.2313 11593 5527894
4788.1904 1848.5168 11355.182 5856090
4873.6147 1855.4229 11397.605 6119521
4943.2935 1856.2278 11402.55 6514536
5006.2632 1854.5258 11392.094 6580073
5054.6133 1847.5253 11349.091 6645867
5039.1016 1817.6725 11165.71 6974831
5157.2153 1836.1696 11279.335 7566710
5268.9326 1851.9452 11376.242 7369075
5216.9507 1810.5112 11121.72 7171696
5351.417 1834.0098 11266.067 7500661
5539.9385 1875.2267 11519.257 7369074
5699.4785 1905.7493 11706.754 7105902
5831.8066 1926.5486 11834.521 6382180
5887.937 1921.9807 11806.46 6119264
6020.6011 1942.2092 11930.722 5658457
6201.7847 1977.4385 12147.131 5395541
6436.6895 2028.7924 12462.59 5526869
6612.8525 2060.6763 12658.447 7566708
6673.5674 2056.2725 12631.396 7633014
6931.7368 2112.1321 12974.534 6383207
7039.146 2121.3325 13031.051 6252135
7105.3818 2118.0601 13010.948 6515565
7134.6709 2103.9624 12924.349 6515565
7173.5225 2092.9539 12856.726 6449515
7229.3291 2087.072 12820.594 6646895
7359.7563 2102.6309 12916.17 6844275
7629.3657 2157.2236 13251.524 7238517
7602.3589 2127.6892 13070.101 7041138
7688.5908 2130.1235 13085.054 6909552
7720.8242 2117.6982 13008.728 6317415
7831.6582 2126.8645 13065.033 5857118
7855.1099 2112.3528 12975.891 5725020
7873.2026 2096.6953 12879.709 5593690
7937.6074 2093.5532 12860.407 5461333
8034.5312 2098.9666 12893.66 5922143
8118.2744 2100.8667 12905.333 6382438
8147.7812 2088.8269 12831.375 6579818
8164.873 2073.8567 12739.414 6711404
8123.2314 2044.3792 12558.337 7040370
8183.8145 2040.9299 12537.149 7106419
8313.25 2054.5593 12620.873 7106421
8290.0146 2030.5507 12473.392 7435130
8338.0654 2024.2729 12434.827 7500922
8193.9219 1971.8536 12112.823 7040369
8155.3799 1945.5369 11951.163 6842733
8223.3184 1944.8564 11946.983 6579558
8270.2041 1939.2512 11912.551 5922397
8732.6582 2030.3611 12472.227 5330259
9000.0254 2074.9644 12746.218 4935501
9487.25 2169.092 13324.431 5330772
10087.998 2287.4067 14051.222 5462102
10502.478 2361.8945 14508.79 5462105
10855.485 2421.4607 14874.697 5725279
10749.219 2378.4456 14610.461 6119780
11010.128 2416.7122 14845.526 6383210
0 0 0 0
9222.7256 1992.5402 12239.897 6842992
9464.1514 2028.7456 12462.303 6908527
9328.002 1984.0796 12187.926 6711147
9084.3359 1917.4069 11778.364 6250853
9734.9297 2039.0605 12525.666 5329751
9789.874 2035.0538 12501.053 4474441
8785.3037 1812.5161 11134.035 3948355
9233.8691 1890.8612 11615.298 4606285
10085.604 2049.9949 12592.834 5066581
10146.154 2047.1566 12575.399 5395547
10171.648 2037.3383 12515.086 5921892
10544.361 2096.7051 12879.768 5856357
11431.702 2256.8149 13863.301 6250858
12326.686 2416.1379 14842.001 6711151
12499.174 2432.592 14943.075 6842737
12990.095 2510.3521 15420.744 7105908
12847.583 2465.4688 15145.033 7171956
12738.487 2427.5767 14912.267 6645611
12949.995 2450.8828 15055.434 5790557
13091.301 2460.6753 15115.587 5921887
11865.793 2215.1702 13607.482 5987935
11631.748 2156.8213 13249.055 5593178
12202.715 2247.5242 13806.229 5790816
13035.429 2384.9065 14650.15 6317160
13486.394 2451.0906 15056.709 5396315
13740.154 2480.7991 15239.204 6383208
13718.371 2460.6948 15115.707 7238261
0 0 0 0
0 0 0 0
0 0 0 0
11813.067 2065.0066 12685.05 8157822
11895.132 2066.2056 12692.413 7697784
11973.015 2066.6672 12695.25 6579817
11422.479 1959.329 12035.886 7106417
10690.574 1822.4048 11194.78 5330006
0 0 0 0
0 0 0 0
0 0 0 0
-7770.4116 1428.9275 8469.4248 7436664
-7592.5298 1405.292 8329.335 7634043
-7511.7065 1399.4294 8294.5869 7831933
-7300.6533 1369.068 8114.6309 8687499
-7226.5991 1364.1653 8085.5723 8950671
-7253.0264 1378.2916 8169.3008 9082257
-7421.4346 1419.7698 8415.1465 9345429
-7469.2114 1438.5754 8526.6094 9608601
-7274.2383 1410.5649 8360.5879 9410965
-7157.0073 1397.3486 8282.2539 9345173
-7021.249 1380.3076 8181.25 9147796
-6692.7441 1324.8743 7852.6895 9016210
-6811.627 1357.8481 8048.1299 8555662
-6547.9277 1314.4844 7791.1074 8556431
-6553.6318 1324.9711 7853.2632 8753810
-6567.8301 1337.3373 7926.5591 8885140
-6516.481 1336.4388 7921.2339 8688016
-6484.1772 1339.4617 7939.1504 8358793
-6423.2656 1336.5756 7922.0449 8292231
0 0 0 0
-6379.5786 1347.1753 7984.8706 8095108
-6312.3511 1342.9388 7959.7603 7898496
-6295.4282 1349.421 7998.1812 7766655
-6294.8062 1359.5223 8058.0522 7831935
-6287.0342 1368.2219 8109.6167 7963521
-6189.1133 1357.2858 8044.7964 7766142
-6144.4038 1357.9398 8048.6729 7766655
-6055.8262 1348.8331 7994.6963 7700862
-5999.7285 1346.8744 7983.0864 7898240
-5756.3696 1302.5121 7720.146 7898240
-5762.1055 1314.2542 7789.7427 7766397
-5688.1558 1307.8638 7751.8662 7831934
-5737.6812 1329.991 7883.0171 7831934
-5660.1426 1322.7864 7840.314 8095362
-5537.5405 1304.8439 7733.9668 8095620
-5574.4854 1324.5106 7850.5342 7700863
-5565.5908 1333.5251 7903.9644 7634813
-5544.3584 1339.7114 7940.6309 7634813
-5481.8828 1335.9525 7918.3516 7700863
-5455.0664 1340.8939 7947.6396 7634813
-5390.3267 1336.5184 7921.7061 7437690
-5352.8574 1338.8872 7935.7456 7569019
-5248.3408 1324.379 7849.7539 7503484
-5165.9438 1315.2429 7795.6035 7437948
-5114.0024 1313.7661 7786.8496 7437691
-5065.6733 1313.1985 7783.4858 7437689
-4987.7725 1304.8843 7734.2061 7371384
-4977.9404 1314.3888 7790.5405 7305847
-4884.5684 1301.8066 7715.9648 7305591
-4861.7817 1307.9764 7752.5342 7240055
-4834.4028 1313.0168 7782.4092 7239798
-4867.1279 1334.6356 7910.5459 7305335
-4868.2622 1347.928 7989.3311 7239798
-4855.5557 1357.6113 8046.7261 7371127
-4883.771 1379.0421 8173.749 7437178
-4823.5273 1375.6737 8153.7837 7305335
-4705.8916 1355.7032 8035.4165 7305335
-4702.1689 1368.4766 8111.1255 7371385
-4660.7607 1370.4331 8122.7222 7305592
-4583.1357 1361.67 8070.7822 7174006
-4548.7632 1365.7084 8094.7178 7174006
-4503.7822 1366.6135 8100.083 7108213
-4459.4067 1367.7241 8106.6655 7042163
-4471.9585 1386.5089 8218.0049 6976627
-4457.8516 1397.3507 8282.2656 7107956
-4368.0659 1384.4479 8205.7891 7108211
-4498.6621 1441.8901 8546.2568 7304563
-4365.0039 1414.9786 8386.749 7107440
-4228.9717 1386.6688 8218.9531 7172976
-4251.7959 1410.3948 8359.5801 7173747
-4312.4634 1447.3816 8578.8047 7305076
-4260.2686 1446.9189 8576.0625 7370613
-4233.5122 1455.1893 8625.082 7239797
-4166.5142 1449.6602 8592.3105 7305590
-4136.2637 1456.9382 8635.4482 7239541
-4075.241 1453.4237 8614.6172 7239542
-4045.9778 1461.2906 8661.2461 7108213
-3891.759 1423.6495 8438.1426 6976627
-3858.1968 1429.7408 8474.2461 6910835
-3904.2771 1465.8951 8688.5371 7042421
-3849.6045 1464.6815 8681.3438 6911090
-3803.5413 1466.7552 8693.6348 6976883
-3757.3943 1468.853 8706.0684 7108213
-3725.3906 1476.6151 8752.0762 6976373
-3660.9324 1471.5509 8722.0596 6713457
-3617.6028 1474.9563 8742.2432 7042165
-3598.0808 1488.3083 8821.3828 7305080
-3530.1091 1481.7177 8782.3193 7305336
-3462.9114 1475.2598 8744.042 7370872
-3401.4941 1471.1056 8719.4199 7371128
-3306.8567 1452.2343 8607.5674 7698810
-3262.0066 1454.9789 8623.835 7502458
-3218.0938 1458.2355 8643.1377 7634045
-3167.0767 1458.3263 8643.6758 7831424
-3125.3108 1462.7499 8669.8945 7568254
-3073.8721 1462.7184 8669.708 7239542
-3049.8066 1475.9329 8748.0322 7634300
-3005.8882 1479.8307 8771.1348 7371128
-2940.6296 1473.1747 8731.6836 7371128
-2867.0984 1462.0616 8665.8154 7305334
-2853.4517 1481.6382 8781.8477 7107955
-2800.9792 1481.4073 8780.4795 7107699
-2733.2241 1472.9318 8730.2441 6976370
-2686.6865 1475.7842 8747.1504 7107187
-2628.9031 1472.4498 8727.3877 6976371
-2585.5781 1477.2424 8755.7939 7107444
-2523.3701 1471.2218 8720.1084 7041394
-2472.2029 1471.5211 8721.8828 6778479
-2400.7249 1459.4854 8650.5459 6778735
-2335.2573 1450.6587 8598.2285 6975858
-2350.2385 1492.5271 8846.3877 7042165
-2322.9592 1508.856 8943.1709 7174006
-2266.2896 1506.4114 8928.6816 7239798
-2189.4771 1490.1406 8832.2432 7239799
-2147.554 1497.4001 8875.2715 7174006
-2060.1865 1472.5425 8727.9365 7239542
-2008.7239 1472.7285 8729.0391 7305335
-1949.459 1467.053 8695.3994 7239798
-1992.9646 1540.5079 9130.7764 7305335
-1832.2731 1455.8193 8628.8164 7305335
-1789.0032 1462.2432 8666.8916 7239542
-1749.8938 1472.5477 8727.9678 7239798
-1705.8292 1479.1832 8767.2969 7239799
-1653.297 1478.6622 8764.209 7174263
-1570.1162 1449.8075 8593.1836 7174006
-1521.1121 1451.6339 8604.0088 7174006
-1483.9578 1465.2878 8684.9375 7173749
-1440.2782 1473.2482 8732.1191 7174004
-1409.9121 1495.9275 8866.542 7239540
-1360.2343 1499.0793 8885.2236 7173748
-1305.5503 1496.7458 8871.3926 7174004
-1232.9214 1472.7804 8729.3467 7502711
-1159.624 1445.8827 8569.9209 7370868
-1131.8405 1475.8691 8747.6543 6449766
-1070.7448 1463.2118 8672.6328 7173488
-1021.0082 1465.5837 8686.6914 7107695
-990.53455 1497.3257 8874.8301 7305333
-950.76752 1517.7911 8996.1309 7108211
-909.13269 1537.5289 9113.1191 7108212
-835.60846 1502.4225 8905.0391 7108470
-792.80188 1521.5364 9018.3291 7174007
-736.21918 1515.0634 8979.9629 7108470
-695.47662 1542.7186 9143.8789 7042420
0 0 0 0
0 0 0 0
0 0 0 0
0 0 0 0
0 0 0 0
0 0 0 0
-318.29309 1552.8885 9204.1572 7042420
-263.92984 1553.9193 9210.2666 6976114
0 0 0 0
0 0 0 0
-100.54331 1559.1461 9241.2471 7173236
-45.976238 1565.6512 9279.8037 7108213
9.2934427 1614.8462 9571.3877 7107956
0 0 0 0
120.55144 1586.2837 9402.0947 7107956
0 0 0 0
233.26299 1595.0994 9454.3467 7173236
0 0 0 0
345.13971 1594.3378 9449.832 7304565
0 0 0 0
0 0 0 0
0 0 0 0
572.75391 1604.5293 9510.2383 7107956
635.36761 1620.4998 9604.8975 7107956
697.56531 1632.8705 9678.2207 7239542
761.79272 1647.7522 9766.4258 7042420
814.03094 1636.4308 9699.3223 7239029
884.93225 1661.6465 9848.7783 7304566
961.89331 1694.4165 10043.011 7304564
1009.344 1674.4131 9924.4482 7239028
1036.3091 1624.4993 9628.6025 7304051
1163.5212 1728.7401 10246.451 7435638
1261.1761 1780.9037 10555.631 7304309
1327.089 1785.433 10582.477 7304565
1367.949 1757.3688 10416.136 7238519
1426.3628 1753.3051 10392.05 7172725
1477.1075 1740.5408 10316.395 7304311
1554.3562 1758.7805 10424.504 7238518
1523.0057 1657.4412 9823.8535 7238774
1672.3385 1752.9564 10389.983 7173493
1734.687 1753.7487 10394.68 7173493
1744.6488 1703.3402 10095.902 7239028
1845.8475 1742.3977 10327.401 7304565
1914.7178 1749.4113 10368.972 7238774
1979.7333 1752.5762 10387.73 7304311
2015.4607 1730.4047 10256.316 7304311
2068.1023 1723.6278 10216.149 7172982
2142.8237 1735.1151 10284.236 7238517
2172.0269 1710.1289 10136.14 7238517
2230.1631 1708.6543 10127.4 7238774
2323.249 1733.3325 10273.671 7304822
2421.51 1760.5127 10434.771 7238772
2469.7917 1750.9078 10377.842 7238770
2500.7349 1729.7764 10252.593 7238771
2555.6499 1725.8356 10229.235 7304563
2656.1897 1752.1738 10385.346 7370357
2741.9663 1767.8015 10477.973 7436151
2764.5559 1742.9011 10330.385 7239029
2923.3655 1803.0984 10687.182 7239029
2925.8074 1766.342 10469.322 7304565
2975.3586 1758.9619 10425.579 7304565
3040.946 1761.1696 10438.664 7369844
2991.2664 1697.8627 10063.437 7304307
3126.3433 1739.8501 10312.301 7370101
3153.4607 1721.2982 10202.342 7370102
3131.7454 1677.2909 9941.5049 7304822
3114.8591 1637.4469 9705.3457 7370358
3140.8884 1621.199 9609.041 7370358
3198.4866 1621.5339 9611.0264 7304565
3393.0469 1690.0779 10017.295 7304563
3325.0439 1627.7308 9647.7568 7370356
3396.0359 1634.3843 9687.1924 7304563
3467.3064 1640.9485 9726.0996 7370356
3554.1499 1654.5476 9806.7031 7370356
3573.1323 1636.6263 9700.4814 7501685
3665.4187 1652.3169 9793.4814 7370356
3741.28 1660.2296 9840.3809 7370612
3871.4167 1691.6151 10026.406 7370356
3913.7012 1684.245 9982.7227 7304563
4018.8008 1703.724 10098.178 7304820
4121.6436 1721.689 10204.657 7304563
4214.3501 1734.9614 10283.325 7304563
4338.5908 1760.6526 10435.6 7304819
4430.9355 1772.8597 10507.953 7238772
4524.6826 1785.282 10581.581 7172980
4607.5752 1793.1403 10628.158 7239028
4757.1289 1826.3796 10825.172 7304564
4859.8164 1840.9806 10911.714 7501429
4935.0962 1844.9521 10935.254 7501429
5039.668 1859.6295 11022.248 7435636
5240.9966 1909.1775 11315.925 7501429
5241.3242 1885.1786 11173.681 7567222
5291.5771 1879.5112 11140.09 7501686
5337.1279 1872.3341 11097.55 7567222
5418.4648 1877.7333 11129.551 7567222
5507.9766 1885.801 11177.37 7501429
5640.5518 1908.2461 11310.404 7501431
5690.4287 1902.515 11276.436 7567224
5695.229 1882.021 11154.966 7435638
5785.7964 1890.0146 11202.344 7435638
5997.1069 1936.8218 11479.775 7501431
6043.2349 1929.83 11438.335 7435894
6386.3232 2016.7721 11953.651 7436151
6541.5107 2043.1198 12109.816 7305336
6474.9209 2000.3792 11856.487 7305081
6523.457 1993.7412 11817.144 7239288
6649.8301 2010.7808 11918.14 7239288
6772.791 2026.4414 12010.963 7239031
6838.5718 2024.8459 12001.506 7304825
6952.7803 2037.4747 12076.357 7304311
7120.0537 2065.2378 12240.913 7435897
7223.875 2074.2219 12294.163 7370104
7342.9673 2087.3677 12372.08 7370104
7493.3027 2109.0474 12500.578 7435897
7679.2354 2140.2234 12685.362 7567226
7648.4482 2110.9805 12512.035 7501690
7439.8579 2033.6959 12053.961 7435897
7409.3657 2006.1019 11890.407 7501690
7212.8433 1934.4977 11466.001 7501690
7335.6211 1949.0681 11552.361 7567483
7286.2002 1918.0386 11368.446 7567483
7781.2812 2029.601 12029.689 7501691
7708.0225 1992.2428 11808.263 7435897
7744.73 1983.7234 11757.768 7435897
7674.8594 1948.3005 11547.812 7370104
7531.8218 1895.0938 11232.449 7172981
7766.5781 1937.0442 11481.094 7238518
10067.396 2489.083 14753.095 7238774
7789.3706 1909.2809 11316.537 7238518
7845.5688 1906.6422 11300.898 7238773
7958.9224 1917.8208 11367.155 7172980
7876.291 1881.9827 11154.738 7172980
8157.7744 1933.0197 11457.24 7172724
7864.6108 1848.1727 10954.343 7172726
8017.0522 1868.5745 11075.266 7107189
8095.499 1871.5387 11092.835 7041652
8102.6069 1858.0953 11013.155 7107445
8170.2852 1858.6462 11016.42 7041653
8082.585 1824.1213 10811.787 7106933
9104.6094 2038.6189 12083.14 7172980
9401.6377 2088.7014 12379.985 6975857
8370.4189 1845.2048 10936.752 6975601
8324.6963 1821.0272 10793.447 6975601
8131.6738 1765.2417 10462.801 6843760
8086.8125 1742.2205 10326.351 6909553
8294.3662 1773.5166 10511.847 6777967
8072.1685 1713.141 10153.993 6777967
7990.8164 1683.329 9977.2939 6712432
8073.4824 1688.2531 10006.479 6712175
8509.7852 1766.515 10470.347 6909554
8597.2871 1771.7621 10501.447 6777968
8724.0117 1784.9589 10579.666 6843762
9139.6768 1856.6638 11004.67 6843761
0 0 0 0
0 0 0 0
9756.3477 1940.4048 11501.013 6843764
9824.6377 1940.4325 11501.178 6975349
10160.421 1992.9281 11812.325 6975605
