# .PCD v0.7 - Point Cloud Data file format
VERSION 0.7
FIELDS x y z rgb
SIZE 4 4 4 4
TYPE F F F U
COUNT 1 1 1 1
WIDTH 1316
HEIGHT 1
VIEWPOINT 0 0 0 1 0 0 0
POINTS 1316
DATA ascii
-1261.8833 974.60217 2269.5059 334336
-1243.1705 970.492 2259.9346 729601
-1232.9464 972.99121 2265.7544 861440
-1218.7056 972.34064 2264.2395 598016
-1204.0883 971.37189 2261.9836 4608
-1186.113 967.64203 2253.2981 268544
-1164.8678 961.12903 2238.1316 202496
-1134.3337 946.71362 2204.5632 201472
-1128.1389 952.51257 2218.0669 2560
-1111.7603 949.74829 2211.6299 334592
-1102.1763 952.79199 2218.7175 136704
-1088.7255 952.526 2218.0981 4352
-1072.0878 949.43127 2210.8916 4352
-1072.5221 961.56586 2239.1487 202496
0 0 0 0
0 0 0 0
0 0 0 0
0 0 0 0
-695.97589 665.11432 1548.8174 8089131
-692.61493 670.74707 1561.9341 7496477
-681.29242 668.71783 1557.2087 7495193
-670.69 667.3493 1554.022 7560472
-658.2735 664.11261 1546.4847 8086557
-648.2746 663.25787 1544.4944 8283936
-642.01959 666.26398 1551.4946 7954715
-631.47479 664.84113 1548.1812 8020508
-621.09344 663.55078 1545.1764 7888922
-611.11835 662.66235 1543.1077 8086301
-601.01782 661.60889 1540.6544 8086044
-590.96161 660.57239 1538.2408 8086301
-580.86963 659.46289 1535.6572 8086300
-570.7384 658.27277 1532.8859 7888667
-560.98468 657.48669 1531.0553 8086045
-551.01819 656.4212 1528.5742 7888921
-540.97449 655.22662 1525.7925 7888921
-530.76727 653.79004 1522.4471 7888665
-521.28925 653.21747 1521.1138 7954204
-511.43341 652.14301 1518.6117 7691289
-558.87482 725.39984 1689.2012 7757082
-549.16321 725.79321 1690.1172 7625495
-482.62665 649.70428 1512.9327 7625495
-472.72034 648.41278 1509.9253 7625238
-464.25461 649.08545 1511.4918 8415012
-454.53223 647.99316 1508.9482 8349219
-492.54114 716.26947 1667.9398 8480805
-459.36963 681.70947 1587.4615 8349220
-447.3093 677.68848 1578.0983 8348963
-465.34488 720.0658 1676.78 8217377
-452.4462 715.3808 1665.8702 8086047
-420.87183 680.29919 1584.1776 8086047
-390.4137 645.46259 1503.0554 8086047
-401.25708 678.8764 1580.8645 8151841
-413.66461 716.59717 1668.7029 8217634
-382.44568 678.73993 1580.5466 8020254
-372.31406 677.34595 1577.3005 7954461
-363.1492 677.6842 1578.0883 8217633
-353.52338 677.15741 1576.8616 8283426
-327.49997 644.34058 1500.4426 8283427
-334.73596 676.95447 1576.389 8414756
-325.2522 676.65698 1575.6962 8349219
-332.37756 711.91675 1657.8038 8217634
-306.34628 676.14349 1574.5005 8349219
-297.19809 676.55634 1575.4618 8086047
-287.80493 676.42017 1575.1448 8217634
-278.11758 675.56036 1573.1426 8020511
-281.57468 707.67657 1647.9299 8216863
-273.60782 712.35724 1658.8296 8282657
-250.03535 675.24243 1572.4022 8414242
-254.28654 713.3031 1661.0322 8414243
-219.31441 639.97266 1490.2714 8282656
-234.31047 712.41675 1658.9681 8216863
-212.95241 675.83118 1573.7732 8348450
-192.7541 639.74384 1489.7385 8348450
-193.98819 674.73993 1571.2321 8216607
-195.42349 713.99957 1662.6541 8414242
-175.25096 674.29028 1570.1849 8677414
-175.00783 711.10706 1655.9183 8611622
-165.38594 711.92535 1657.8239 8611622
-156.34558 715.50836 1666.1674 8611365
-130.84375 639.16132 1488.382 8611621
-122.00227 639.04492 1488.111 8743206
-117.9619 666.01764 1550.9209 8940588
-109.44063 670.11127 1560.4535 8677160
-95.29319 637.33203 1484.1222 8809002
-97.485542 718.2804 1672.6224 8677416
-87.521011 717.84094 1671.5992 8743209
-68.712852 635.49817 1479.8518 8677160
-59.920246 635.24493 1479.2621 8677416
-57.888927 718.86676 1673.9879 8545574
-42.297234 633.85773 1476.0317 8480041
-33.573486 634.2796 1477.0142 8677675
-24.900949 636.30774 1481.7369 8217125
-16.109217 635.84009 1480.6479 8348713
-7.3874931 640.32214 1491.0851 6901272
1.445299 639.22253 1488.5245 7229728
0 0 0 0
0 0 0 0
48.196785 1104.024 2570.8838 9398868
64.461006 1121.9637 2612.6592 9398868
80.034058 1123.255 2615.6658 9464661
96.484337 1134.4414 2641.7151 9464661
111.73263 1130.3448 2632.1755 9596504
128.51613 1140.8804 2656.7095 9267539
143.61925 1135.8273 2644.9424 8872524
159.35626 1136.2886 2646.0164 8346436
174.66406 1133.8806 2640.4092 8477513
190.61409 1135.6951 2644.6345 9135699
210.06769 1156.5227 2693.1348 9727836
223.88358 1145.5624 2667.6121 9662043
239.85336 1146.342 2669.4275 9596503
255.67078 1146.342 2669.4275 10254177
271.29587 1145.5298 2667.5361 9069649
291.16736 1161.7501 2705.3076 8675148
303.97159 1149.5509 2676.8999 9398614
324.30344 1165.6176 2714.3135 9793628
340.30624 1165.3416 2713.6709 9399127
357.6004 1169.313 2722.9189 9596504
371.99124 1163.858 2710.2161 8938572
388.93951 1166.5249 2716.4263 8346435
405.19464 1166.9833 2717.4939 9530967
424.09933 1174.746 2735.5703 8741454
440.50742 1175.2762 2736.8052 8938834
452.83862 1165.278 2713.5227 9530713
471.62985 1172.0186 2729.2192 9728349
489.54764 1176.2139 2738.9885 9070162
502.60706 1168.8414 2721.8206 8938319
523.7594 1180.1628 2748.1841 9201746
538.71716 1177.2643 2741.4346 9333332
556.1153 1179.7124 2747.1353 8806987
573.98395 1182.9911 2754.7703 7885375
586.5929 1175.5477 2737.4373 10517352
600.49103 1171.019 2726.8916 9135699
627.65076 1191.9115 2775.5427 9267028
638.95172 1182.3901 2753.3711 9135699
655.57227 1182.9418 2754.6555 9595993
676.22662 1190.5685 2772.4155 9596250
685.40308 1178.1049 2743.3921 9464917
707.09698 1187.2357 2764.6545 9267282
723.47272 1187.226 2764.6318 8543559
734.99036 1179.421 2746.4568 8412230
765.34192 1201.5217 2797.9216 8017472
777.88281 1195.3171 2783.4731 8214851
795.28839 1196.6899 2786.6702 8412230
816.5871 1203.7458 2803.1008 8938317
834.78564 1206.0416 2808.4468 8675145
848.38629 1201.7347 2798.4177 8412228
870.34448 1209.2043 2815.8118 8478021
889.11829 1212.0521 2822.4431 8543559
906.1134 1212.4148 2823.2878 8609609
919.23035 1207.6692 2812.2368 8083265
930.02161 1200.0914 2794.5911 8279872
952.95874 1208.1776 2813.4209 8214336
972.41138 1211.6442 2821.4932 8082750
982.85388 1203.9563 2803.5908 8346178
1009.0619 1215.5153 2830.5076 8280129
1027.3948 1217.3647 2834.8145 8148286
1046.5807 1220.1494 2841.2991 8082750
1084.1351 1243.9216 2896.656 8016956
1083.9189 1224.2908 2850.9426 7885371
1102.5223 1226.1931 2855.3726 7951164
1116.5815 1223.0603 2848.0774 7622200
1137.849 1227.7988 2859.1118 7227443
1158.1709 1231.3932 2867.4817 8148288
1173.7422 1229.9055 2864.0176 7687994
1186.4674 1225.5206 2853.8066 7227443
1193.0872 1215.041 2829.4033 7095857
1219.9146 1225.1462 2852.9348 7161649
1242.4823 1230.7557 2865.9973 8148545
1235.7052 1207.538 2811.9314 6503719
1255.0392 1210.1146 2817.9314 6372134
1281.1741 1219.0947 2838.843 6240291
1299.4694 1220.4792 2842.0669 7490358
1306.5555 1211.4351 2821.0063 7293748
1328.9668 1216.6494 2833.1487 7096116
1329.7218 1202.1548 2799.396 7425080
1352.3651 1207.5623 2811.988 6438186
1356.3708 1196.3984 2785.9915 6569773
1369.2443 1193.2311 2778.6157 6767151
1388.7609 1195.8593 2784.7358 6766895
1393.1281 1185.5339 2760.6917 6372394
1431.9286 1204.4104 2804.6482 5648157
1446.5557 1202.7544 2800.792 5582364
1462.0012 1201.809 2798.5903 6371880
1468.2365 1193.3983 2779.0051 5911073
1492.3325 1199.5308 2793.2852 5055764
1490.7694 1185.1302 2759.7515 4923409
1510.3298 1187.6526 2765.6252 4791822
1517.6239 1180.5787 2749.1528 4594700
1532.9271 1179.8193 2747.3845 6371367
1539.4683 1172.4031 2730.1145 5779230
1537.7255 1158.8979 2698.6658 5187607
1547.7612 1154.4563 2688.3228 5582108
1567.7985 1157.489 2695.385 5253145
1566.5898 1144.9332 2666.147 5451292
1584.7957 1146.6754 2670.2039 5846050
1598.1753 1144.9258 2666.1294 5253656
1612.0717 1143.5767 2662.988 5780256
1611.7358 1132.2559 2636.6257 5780514
1625.8807 1131.2273 2634.2307 6175528
1642.066 1131.6246 2635.1558 7491644
1643.1544 1121.7084 2612.0642 5254171
1655.4585 1119.5621 2607.0667 5451550
1663.7705 1114.781 2595.9329 5516829
1669.2327 1108.1952 2580.5969 6175015
1675.594 1102.3206 2566.917 5582623
1701.4832 1109.2828 2583.1296 4529935
1712.7997 1106.7051 2577.1272 4924950
1720.4779 1101.8428 2565.8044 5056536
1716.5315 1089.686 2537.4956 4925207
1727.9799 1087.4286 2532.2388 6043174
1747.6309 1090.3275 2538.9893 5122329
1740.876 1076.843 2507.5889 4859157
1747.7959 1071.9742 2496.251 4858900
1760.5022 1070.7061 2493.2981 5122072
1771.7646 1068.5884 2488.3667 5780002
1792.0045 1071.8754 2496.0208 4990743
1800.2164 1067.973 2486.9336 6109224
1804.5696 1061.8634 2472.7063 5122586
1796.9867 1048.8851 2442.4846 4004105
1807.4863 1046.5847 2437.1277 5517089
1840.6986 1057.3676 2462.2373 5451553
1832.3 1044.2661 2431.7285 4530451
1833.4442 1036.7651 2414.2615 4991001
1835.4133 1029.8433 2398.1428 4530451
1843.5244 1026.4475 2390.2354 4267282
1857.7338 1026.473 2390.2949 5188897
1864.3889 1022.3558 2380.7073 5649448
1858.7742 1011.6226 2355.7134 4662553
1867.3439 1008.7117 2348.9348 5320996
1856.8608 995.62793 2318.4673 5123104
1878.08 999.6098 2327.7397 6175792
1875.8956 991.16803 2308.0818 4925725
1885.6512 989.11145 2303.2927 5123104
1896.2317 987.51379 2299.5725 4530967
1903.9563 984.46259 2292.4673 4596759
1910.549 980.87341 2284.1091 4596761
1926.7842 982.25018 2287.3154 4004623
1914.9746 969.41095 2257.4172 4267794
1928.6274 969.55005 2257.7412 4794139
1941.2177 969.15674 2256.8252 5188896
1943.5784 963.69666 2244.1106 5320483
1955.5273 963.03265 2242.5645 5781288
1963.8273 960.59277 2236.8828 5847081
1977.8811 960.98108 2237.7871 6110252
1983.1147 957.10742 2228.7666 6110253
1985.1665 951.75958 2216.3135 4925980
2004.3014 954.61829 2222.9705 4925725
1965.3346 929.94763 2165.521 3214853
1967.6075 924.98401 2153.9624 4136209
1986.4546 927.82556 2160.5796 4530966
1992.4794 924.68024 2153.2551 4991772
1992.3428 918.7337 2139.4077 4860186
1991.5917 912.58081 2125.0798 5320991
1989.9546 906.10175 2109.9924 5452834
2002.457 906.10175 2109.9924 5518370
2017.9371 907.44073 2113.1104 5649956
0 0 0 0
0 0 0 0
0 0 0 0
0 0 0 0
0 0 0 0
0 0 0 0
0 0 0 0
0 0 0 0
0 0 0 0
0 0 0 0
0 0 0 0
-1778.2278 889.78333 2043.7919 1280
-1765.1223 889.28186 2042.6401 1280
-1748.7821 887.13263 2037.7034 1280
-1738.9557 888.28094 2040.3409 1792
-1722.4998 886.03503 2035.1821 1792
-1705.79 883.62598 2029.6487 1024
-1694.9576 884.24896 2031.0797 397312
-1677.7234 881.51709 2024.8048 133888
-1668.7821 883.13464 2028.5201 265472
-1660.0349 884.87909 2032.5272 528640
-1645.8124 883.70905 2029.8396 594432
-1634.6351 884.16907 2030.8961 660480
-1618.2651 881.80634 2025.469 331776
-1620.6466 889.70239 2043.606 923649
-1605.4337 887.9856 2039.6626 1056003
-1599.2454 891.27234 2047.212 727296
-1592.6185 894.36298 2054.3113 1187843
-1572.5488 889.8941 2044.0464 1517831
-1575.1993 898.31281 2063.3838 1123329
-1561.8684 897.67804 2061.9258 1650183
-1541.0917 892.71997 2050.5374 1255940
-1533.6552 895.47223 2056.8591 1255938
-1508.4817 887.82941 2039.3038 1716487
-1511.3186 896.68195 2059.6377 532480
-1494.2739 893.78662 2052.9873 926720
-1479.299 892.09198 2049.0947 1518592
-1468.1693 892.7074 2050.5083 661504
-1456.4712 892.9845 2051.1448 4281635
-1455.9264 900.16199 2067.6313 2110468
-1439.7479 897.71344 2062.0071 3755031
-1438.0569 904.33368 2077.2134 2702344
-1430.2955 907.21771 2083.8379 2636551
-1428.4 913.90503 2099.1985 1978372
-1407.8975 908.70032 2087.2434 2241540
-1385.9951 902.49188 2072.9829 1846787
-1386.4799 910.88013 2092.2502 2768134
-1371.3304 909.05579 2088.0598 4412959
-1380.9056 923.73743 2121.783 1978368
-1362.8386 920.0282 2113.2629 1846784
-1367.7881 931.93219 2140.606 1978368
-1362.41 936.9566 2152.1467 2242051
-1357.3563 942.30109 2164.4229 2307845
-1334.7672 935.45807 2148.7046 1189120
-1329.5834 940.79907 2160.9727 1056768
-1320.4374 943.41302 2166.9768 1714688
-1315.3525 949.00836 2179.8291 1452290
-1308.885 953.70728 2190.6223 1189120
-1285.6565 946.16528 2173.2986 1057280
-1281.6693 952.77429 2188.4792 4096
-1260.6893 946.75714 2174.6582 728576
-1240.1494 940.94958 2161.3186 794880
-1262.1838 967.66077 2222.6729 597504
-1254.4767 971.89319 2232.3945 926464
-1229.4039 962.61871 2211.0916 992770
-1212.6519 959.72961 2204.4553 1453315
-1220.7161 976.63171 2243.2788 663808
-1203.2 973.21545 2235.4316 71936
-1177.1412 962.73627 2211.3616 2816
-1157.5283 957.35223 2198.9946 4608
-1139.2975 953.00189 2189.002 4864
-1123.71 950.7876 2183.916 729344
-1123.2239 961.44843 2208.4033 4608
-1091.6647 945.44922 2171.6538 334848
-1084.0239 950.03021 2182.1763 4608
-1065.2709 944.86554 2170.3132 5376
-1050.0226 942.72137 2165.3882 70912
-1046.578 951.25256 2184.9839 465664
0 0 0 0
0 0 0 0
0 0 0 0
0 0 0 0
-700.6001 678.77185 1559.108 8089390
-691.49841 678.90594 1559.4161 7561756
-680.9577 677.61182 1556.4436 7626524
-671.14288 677.0144 1555.0713 7625752
-660.90472 675.96729 1552.6661 8218144
-650.98755 675.22363 1550.958 8217630
-641.19995 674.59491 1549.5139 7822618
-631.8468 674.41174 1549.0931 7954714
-621.09515 672.70837 1545.1807 8086044
-611.56854 672.30072 1544.2443 8283680
-601.03076 670.75226 1540.6875 8086300
-591.09705 669.84058 1538.5934 8086300
-581.30603 669.06451 1536.8109 8086300
-571.0108 667.67432 1533.6176 7954714
-560.6958 666.21552 1530.2668 8020507
-550.86163 665.28955 1528.1399 7888922
-540.87836 664.14954 1525.5212 7823128
-531.33801 663.52386 1524.0842 7822872
-521.29797 662.2417 1521.1392 7822618
-511.32578 661.00226 1518.2921 7757081
-502.05075 660.63574 1517.4503 7757082
-492.4823 659.86273 1515.6747 7625239
-482.76215 658.85394 1513.3575 7625239
-472.789 657.45508 1510.1445 7625496
-463.81345 657.41638 1510.0555 8283426
-454.34381 656.66205 1508.3229 8349219
-470.20288 693.21942 1592.2936 8283426
-460.07883 692.18274 1589.9124 8349219
-447.31824 687.0531 1578.1298 8348963
-441.46423 692.53906 1590.7307 8283170
-450.21646 721.67755 1657.6605 8151841
-443.65546 727.02185 1669.9362 8217377
-412.0152 690.57489 1586.2191 8086047
-402.57568 690.50531 1586.0594 8152097
-413.99411 727.0636 1670.032 8086048
-381.99072 687.28674 1578.6664 8217634
-372.65414 687.31927 1578.7412 8217633
-363.15421 687.04449 1578.11 8283427
-353.86288 687.16028 1578.376 8415012
-327.24948 652.73169 1499.295 8283683
-318.54886 653.10748 1500.1582 8415012
-324.98871 685.43787 1574.4197 8349219
-331.85614 720.60767 1655.2031 8283427
-291.36395 651.94891 1497.4971 8349220
-282.327 651.57117 1496.6293 7691290
-273.24847 651.06982 1495.4779 8086304
-278.1192 684.88586 1573.1517 8282913
-268.50879 684.1499 1571.4612 8282656
-259.11386 683.92981 1570.9557 8282656
-249.95219 684.33191 1571.8793 8282656
-241.02962 685.44507 1574.4362 8216863
-244.35042 722.86774 1660.3944 8348193
-222.03917 684.42133 1572.0847 8282656
-212.4474 683.53162 1570.041 8413986
-215.166 723.98187 1662.9535 8414242
-194.30774 685.17688 1573.8202 8282657
-184.60774 683.78986 1570.6343 8282657
-175.32672 683.88971 1570.8636 8874539
-175.40207 722.54309 1659.6487 8742953
-165.79222 723.52173 1661.8965 8874796
-139.74699 648.37024 1489.277 8874795
-130.84375 647.98059 1488.382 8874538
-136.30949 723.83752 1662.6219 8940588
-119.34625 683.13147 1569.1219 9006125
-116.80521 725.07355 1665.4611 8874795
-107.26292 727.28564 1670.5421 8743210
-97.273155 726.6048 1668.9783 8809002
-87.418846 726.89636 1669.6479 8743210
-77.567978 727.29456 1670.5625 8743209
-59.920246 644.01013 1479.2621 8743209
-51.078453 643.04614 1477.0479 8809002
-42.324436 643.01703 1476.981 8612136
-33.678963 645.0517 1481.6545 9137969
-24.943565 646.19159 1484.2727 8545833
-16.121735 645.11444 1481.7986 8611885
-7.3410258 645.07422 1481.7062 7098651
1.4470153 648.81219 1490.2921 7098401
0 0 0 0
0 0 0 0
48.018509 1115.1176 2561.3743 9991007
63.276691 1116.547 2564.6577 8806731
78.866676 1122.1438 2577.5134 9333078
94.019035 1120.7081 2574.2158 9727579
110.47863 1133.0803 2602.6343 9596250
125.81544 1132.3169 2600.8804 9727580
140.96368 1130.208 2596.0366 9201492
155.53242 1124.3251 2582.5237 8806987
172.2782 1133.8239 2604.3418 10517352
188.28714 1137.3101 2612.3496 9135697
204.2894 1140.2294 2619.0552 9201746
218.98927 1135.9806 2609.2959 9399125
235.15428 1139.3911 2617.1296 9267798
250.83185 1140.1639 2618.9048 9201748
267.24387 1143.9906 2627.6946 9267798
286.23605 1157.833 2659.4897 9530970
302.01151 1157.8978 2659.6387 9859678
318.00403 1158.7472 2661.5896 9201748
333.24652 1156.9125 2657.3752 8741454
348.11597 1154.0065 2650.7004 9136211
363.38446 1152.6173 2647.5098 9333077
379.24503 1153.1434 2648.718 9069906
395.23001 1153.991 2650.6648 8873040
413.7767 1161.9674 2668.9866 8938833
430.09665 1163.3337 2672.1248 8873041
445.70422 1162.7444 2670.7712 8741197
462.13495 1164.2695 2674.2742 9399384
480.57086 1170.5778 2688.7639 8872783
498.63654 1175.6082 2700.3186 10056801
512.71771 1171.2239 2690.248 8938320
531.43402 1177.3728 2704.3721 9333078
547.17493 1176.7629 2702.9712 9398871
558.01343 1165.9445 2678.1213 8740941
581.4812 1181.3828 2713.5825 9859165
596.0426 1178.3824 2706.6909 9003856
606.13129 1166.9282 2680.3811 8543562
625.01361 1172.5563 2693.3086 9201235
642.96674 1176.2045 2701.6882 9464664
662.17059 1181.9077 2714.7883 9596247
680.92371 1186.5551 2725.4629 9464918
698.46405 1188.9225 2730.9009 8609609
711.12421 1183.064 2717.4441 8741194
729.34296 1186.5076 2725.354 8543816
749.73303 1193.2577 2740.8589 8346437
764.63538 1191.173 2736.0701 8872781
781.88452 1192.7545 2739.7031 8280644
797.73401 1192.1803 2738.3838 8675145
811.98071 1189.2811 2731.7249 8609609
836.31366 1200.9796 2758.5957 8346181
844.42334 1189.3792 2731.9497 8609609
875.72424 1210.2655 2779.9248 8280644
891.22449 1208.9471 2776.8965 8149058
900.74817 1199.7162 2755.6936 8478023
921.75781 1205.8397 2769.7593 8806985
937.52844 1205.0155 2767.866 8675400
957.14038 1209.072 2777.1836 8741193
965.23041 1198.6827 2753.3198 8543816
985.07477 1202.9934 2763.2214 9201488
1003.6832 1205.6786 2769.3889 8016957
1021.3438 1207.157 2772.7847 7885371
1048.3218 1219.4268 2800.9678 7819321
1065.2654 1219.8239 2801.8799 7622199
1090.4495 1229.4999 2824.1055 7819321
1101.925 1223.6606 2810.6931 8279872
1117.2971 1222.2578 2807.4707 8082750
1136.6567 1225.1942 2814.2153 7753786
1152.8853 1224.7195 2813.125 7688507
1167.8983 1222.9856 2809.1423 8148801
1179.3224 1217.595 2796.7603 7425078
1189.3185 1210.8997 2781.3816 7358772
1205.7992 1210.8997 2781.3816 7292979
1224.4633 1213.0626 2786.3496 6569513
1240.9923 1213.0809 2786.3918 6964271
1253.8712 1209.5776 2778.345 6766635
1265.9757 1205.4279 2768.813 6766892
1292.4528 1214.8943 2790.5569 6569512
1303.9221 1210.1925 2779.7573 6635051
1315.1458 1205.3829 2768.71 6701100
1327.2292 1201.4702 2759.7227 7556667
1339.1705 1197.5258 2750.6621 6832944
1354.7775 1196.9146 2749.2583 6306857
1372.8966 1198.5109 2752.925 6701359
1387.684 1197.1953 2749.9033 6898737
1406.6177 1199.446 2755.073 6174245
1431.2363 1206.437 2771.1311 5977378
1437.7468 1198.1787 2752.1621 6108707
1450.9735 1195.6399 2746.3306 6964273
1461.4038 1190.8787 2735.3943 6240550
1487.5293 1198.8715 2753.7532 5713950
1495.9937 1192.6112 2739.3738 5384216
1497.535 1181.0255 2712.762 5449751
1514.6746 1181.8568 2714.6714 5581849
1528.4344 1180.0613 2710.5471 5581338
1525.1931 1165.3134 2676.6719 5976866
1510.7197 1142.3756 2623.9849 5845536
1516.2166 1134.8524 2606.7046 4595213
1565.9116 1160.2288 2664.9927 5582365
1563.7362 1147.0498 2634.7212 5582365
1567.4009 1138.3728 2614.7905 5385499
1589.491 1143.1167 2625.6873 4925204
1586.7473 1130.082 2595.7471 7030837
1632.8346 1151.7412 2645.4973 6438443
1641.2035 1146.6364 2633.7715 5254169
1629.1509 1127.4943 2589.8032 5517598
1642.4756 1126.1089 2586.6208 6108965
1644.722 1117.2236 2566.2119 5056534
1647.1572 1108.6283 2546.4688 6306344
1650.9663 1101.1053 2529.189 5122328
1680.0106 1110.3969 2550.531 4793363
1702.9146 1115.5002 2562.2534 5517087
1715.7081 1113.9493 2558.6912 5187865
1720.5276 1107.2936 2543.4031 4793364
1712.6034 1092.6232 2509.7058 5056536
1725.2291 1091.203 2506.4436 4793364
1733.2887 1086.9436 2496.6602 4332813
1733.5338 1077.8973 2475.8813 4924949
1741.5118 1073.7709 2466.4031 5648673
1740.4398 1064.1796 2444.3723 4793364
1750.7986 1061.6781 2438.6265 5385758
1779.6874 1070.3622 2458.5732 5780516
1781.1469 1062.5422 2440.6113 5583138
1788.7238 1058.4683 2431.2537 4925207
1797.046 1054.897 2423.0503 5056795
1833.5502 1067.7943 2452.675 4991000
1848.3235 1067.9331 2452.9939 5912103
1831.2983 1049.8405 2411.4358 7359293
1803.2378 1025.7506 2356.1025 4728088
1819.3568 1026.9688 2358.9006 4201489
1830.0897 1025.1514 2354.7261 4202002
1845.3058 1025.8536 2356.3394 4925725
1857.7747 1025.0298 2354.4468 3741452
1856.507 1016.6953 2335.303 4465432
1861.2366 1011.7444 2323.9309 4202517
1879.3281 1014.0762 2329.2869 5913132
1860.8413 996.78021 2289.5588 4004622
1872.3792 995.70135 2287.0808 5452068
1879.1024 992.09619 2278.7998 5320482
1893.9291 992.7901 2280.3938 3675658
1895.7622 986.7113 2266.4312 4531223
1900.8812 982.41632 2256.5657 5781035
1920.6978 985.72424 2264.1638 4728347
1935.9559 986.66296 2266.3201 4596761
1931.9156 977.82123 2246.011 4728088
1933.7958 972.07629 2232.8152 4991517
1936.3278 966.73511 2220.5466 5649448
1945.8315 964.92322 2216.3848 4991262
1967.0386 968.90021 2225.5198 4991515
1962.4121 960.1842 2205.4995 5254944
1968.1904 956.64081 2197.3606 5122587
1971.4585 951.93195 2186.5444 5254687
1976.1703 947.97711 2177.4604 4794137
1951.7711 930.19946 2136.626 4991772
1970.4966 933.07141 2143.2227 4991516
1973.6383 928.57471 2132.8938 4794137
1973.9897 922.83057 2119.7 4860696
1966.6069 913.56641 2098.4204 5847592
1981.386 914.64886 2100.907 5584419
1991.0288 913.36176 2097.9504 5584163
1997.2626 910.53638 2091.4607 5321246
0 0 0 0
0 0 0 0
0 0 0 0
0 0 0 0
0 0 0 0
0 0 0 0
0 0 0 0
0 0 0 0
0 0 0 0
0 0 0 0
0 0 0 0
-1752.8433 889.01892 2014.6163 1280
-1742.0006 889.57794 2015.8833 1280
-1726.4231 887.71014 2011.6505 1280
-1718.6931 889.87939 2016.5664 1280
-1697.9006 885.26862 2006.1177 2048
-1681.8949 883.10596 2001.2169 133888
-1678.4771 887.56903 2011.3308 133888
-1666.3842 887.47589 2011.1199 1536
-1652.1036 886.20789 2008.2462 67840
-1649.6503 891.31177 2019.8123 266496
-1633.8942 889.25018 2015.1405 134656
-1617.7802 886.9621 2009.9553 661248
-1609.3398 888.8783 2014.2977 990210
-1600.4952 890.59821 2018.1953 924418
-1586.1995 889.28796 2015.2261 332800
-1572.12 888.07996 2012.4886 1451268
-1561.4409 888.78906 2014.0955 1977866
-1543.9209 885.58508 2006.835 2110220
-1532.8625 886.06659 2007.926 1123072
-1522.9735 887.23688 2010.578 2440205
-1503.4016 882.74005 2000.3878 2900756
-1501.2052 888.4552 2013.339 2374157
-1494.1949 891.39008 2019.9897 1913094
-1475.5814 887.39423 2010.9348 1321216
-1465.9767 888.79535 2014.1097 597504
-1456.1569 890.08789 2017.0388 1058304
-1455.7578 897.20801 2033.1737 1715457
-1445.2098 898.13989 2035.2855 3361050
-1417.1803 888.13177 2012.6061 3097363
-1421.8097 898.59467 2036.316 2175239
-1425.1666 908.42548 2058.5938 3031314
-1408.0402 905.25684 2051.4133 991744
-1402.9691 909.85126 2061.8247 1123072
-1395.076 912.68018 2068.2354 1386240
-1377.4459 909.13251 2060.196 1780480
-1384.8513 922.19299 2089.7927 1912323
-1344.0786 903.11719 2046.5647 4149537
-1356.359 919.6662 2084.0667 2438919
-1350.7686 924.29089 2094.5466 1847041
-1343.2384 927.66168 2102.1853 1649408
-1330.8252 927.69177 2102.2534 2833676
-1314.6155 925.05084 2096.2688 1057025
-1303.7449 926.15228 2098.7649 1715715
-1292.7428 927.18091 2101.0957 2373389
-1290.9723 934.91479 2118.6216 1912835
-1293.6914 946.08386 2143.9319 1123328
-1279.3075 944.8429 2141.1196 2373386
-1276.9011 952.51172 2158.4983 1188865
-1265.7966 953.78192 2161.3765 399360
-1245.9739 948.44147 2149.2744 529920
-1212.0211 932.12384 2112.2969 1781765
-1189.1333 924.06409 2094.0327 3584
-1206.8923 947.75372 2147.7161 1651207
-1191.4823 945.62354 2142.8889 993281
-1218.5177 977.4975 2215.1187 927488
-1206.084 978.05847 2216.3899 135936
-1190.715 976.22516 2212.2356 2304
-1172.0411 971.61145 2201.7803 3072
-1144.3486 959.33337 2173.9568 2560
-1129.8801 957.98779 2170.9077 70656
-1102.8821 945.86554 2143.4373 531712
-1086.3523 942.54346 2135.9089 202752
-1080.0853 948.1521 2148.6189 3584
-1057.3373 939.25421 2128.4551 136960
-1039.2697 934.34924 2117.3401 2560
-1029.8546 937.19867 2123.7971 70912
-1022.0941 941.64276 2133.8679 2816
0 0 0 0
0 0 0 0
0 0 0 0
0 0 0 0
-701.12744 688.52808 1560.2816 8024107
-691.79602 688.44226 1560.0873 7693342
-681.05743 686.93494 1556.6715 7757854
-671.23114 686.31903 1555.2758 7559959
-661.49048 685.77472 1554.0424 8349473
-651.08063 684.51154 1551.1797 8086302
-641.19995 683.77643 1549.5139 7954460
-631.35712 683.06091 1547.8925 8086047
-621.02887 681.79138 1545.0156 7954459
-611.22327 681.06635 1543.3726 7954716
-600.97119 679.81403 1540.5348 8020251
-590.89764 678.72839 1538.0745 8020506
-581.01031 677.82581 1536.0292 8020507
-571.07861 676.84192 1533.7996 7954714
-561.06934 675.73285 1531.2863 8020508
-551.28931 674.86792 1529.3263 7954458
-541.15533 673.53357 1526.3025 7954458
-531.44244 672.68683 1524.3837 7823129
-521.91907 672.05493 1522.9517 7757081
-511.51468 670.24628 1518.8531 7757081
-556.93042 742.82489 1683.3243 7888667
-492.8349 669.32257 1516.7599 7625496
-483.34543 668.62805 1515.186 7822619
-473.15872 666.9245 1511.3256 7625496
-464.33502 667.1134 1511.7537 8349219
-454.49799 665.82526 1508.8346 8217633
-492.39175 735.81268 1667.4338 8283427
-457.39536 697.51135 1580.6389 8283426
-451.19495 702.43958 1591.8068 8217634
-463.34335 736.75433 1669.5679 8217634
-455.49783 740.08087 1677.1061 8151840
-419.05292 696.05176 1577.3313 8283426
-390.1796 662.87732 1502.1542 8349220
-424.68011 738.33331 1673.146 8283426
-390.03516 694.30939 1573.3828 8151841
-380.13266 693.25238 1570.9875 8283426
-392.50851 733.79156 1662.8539 8283170
-361.19177 692.6322 1569.5822 8283426
-336.20242 661.75146 1499.6029 8151840
-345.4664 698.44562 1582.756 8283426
-332.74802 691.50476 1567.0272 8349219
-323.30865 691.17529 1566.2806 8283426
-314.12613 691.39166 1566.771 8217634
-291.50394 661.13971 1498.2167 8480292
-282.72522 661.37085 1498.7404 8085534
-301.73309 728.72528 1651.373 8151327
-291.83829 728.45135 1650.7523 8085791
-265.3371 685.27008 1552.8987 8216863
-259.01788 692.98157 1570.3738 8348449
-250.05421 693.92902 1572.5209 8282657
-239.29485 689.77368 1563.1044 8216863
-231.34421 693.70599 1572.0154 8348449
-222.20816 694.26459 1573.2812 8282656
-201.91626 658.49048 1492.2131 8282656
-193.12701 658.67035 1492.6207 8216863
-205.08162 733.0108 1661.0846 8282656
-195.38928 733.57501 1662.363 8414242
-185.21106 732.27789 1659.4237 8545828
-175.84476 734.22559 1663.8374 8611622
-165.84029 733.58167 1662.3782 8677414
-155.90723 733.19232 1661.4958 8677158
-130.84155 656.78876 1488.3569 8940586
-136.45422 734.4682 1664.3872 8743207
-119.35144 692.45923 1569.1902 8809002
-108.75137 684.26709 1550.6259 8809002
-107.18807 736.66986 1669.3763 8677417
-97.609253 739.03894 1674.745 8677416
-87.407326 736.69257 1669.4279 8677417
-77.596817 737.46735 1671.1836 8808746
-67.926781 739.99915 1676.9209 8874795
-58.23177 743.07977 1683.902 8874795
-42.334404 651.92224 1477.3289 8940332
-33.759216 655.3891 1485.1851 9006127
-24.91157 654.1463 1482.3688 8742957
-16.219355 657.85413 1490.7711 8217131
-7.3892298 658.1474 1491.4357 7032858
1.451808 659.82098 1495.2281 7098400
0 0 0 0
0 0 0 0
47.422993 1116.277 2529.6086 9530454
63.014153 1127.048 2554.0168 9398868
78.201988 1127.8306 2555.7903 9991261
93.19352 1125.9873 2551.6133 10254180
109.14585 1134.647 2571.2371 9201491
124.10921 1132.1633 2565.6089 9135698
139.56218 1134.2007 2570.2258 9398614
154.68063 1133.3862 2568.3801 9201492
170.27835 1135.9147 2574.1099 9661786
185.67183 1136.7771 2576.0642 10188130
200.52667 1134.4611 2570.8159 9004113
215.55087 1133.3627 2568.3267 8938578
232.90796 1143.8663 2592.1292 9201749
248.2334 1143.71 2591.7747 8609613
263.48221 1143.2393 2590.708 8609869
278.29089 1141.0156 2585.6692 8741455
294.51736 1144.5339 2593.6421 9135956
308.90726 1140.92 2585.4526 10649452
330.4422 1162.7903 2635.0129 9004626
346.97519 1165.8798 2642.0142 9662555
357.39865 1149.0602 2603.8989 9004369
373.28247 1150.4614 2607.0745 8675661
389.81564 1153.6732 2614.3525 9070419
405.72211 1154.8555 2617.0317 8675404
426.75223 1169.9979 2651.3464 8873040
440.81061 1165.6298 2641.4478 8083523
458.45374 1170.7153 2652.9719 9004626
475.56564 1174.152 2660.76 9530970
490.27084 1171.6168 2655.0149 9727579
509.90979 1180.663 2675.5146 9398614
526.55853 1182.4489 2679.5615 9464407
540.46375 1178.1495 2669.8188 8806734
556.61865 1178.8595 2671.4275 9004113
569.14532 1172.0582 2656.0151 8346439
586.12213 1174.5408 2661.6409 9398871
602.43054 1175.589 2664.0161 9267285
617.84076 1174.8755 2662.3994 9333078
637.1601 1181.4462 2677.2893 9398615
650.94904 1177.6919 2668.7817 9530457
668.82599 1181.3364 2677.0405 8938320
686.44238 1184.3625 2683.8979 9135698
703.26062 1185.9055 2687.3948 9135954
715.25177 1179.4207 2672.6992 9004112
741.65759 1196.4708 2711.3369 8478023
757.53918 1196.1801 2710.678 8478023
769.83038 1190.3497 2697.4658 8609607
788.1698 1193.9185 2705.5527 8346437
804.2326 1193.9648 2705.6582 8675146
814.9856 1186.2806 2688.2446 9267537
836.51801 1194.2806 2706.3735 8872522
864.63763 1211.2073 2744.7312 7951677
878.19092 1207.4806 2736.2861 8280386
897.55225 1211.7301 2745.916 8149058
908.06085 1204.0896 2728.6018 8741193
923.27655 1202.8489 2725.7903 8280644
947.77576 1213.5375 2750.0117 8609352
959.02637 1207.1877 2735.6228 8149057
980.72858 1213.9868 2751.03 8543302
997.23126 1214.2324 2751.5867 8675144
1006.397 1205.6803 2732.2065 8674887
1029.3755 1213.6849 2750.3459 8543044
1042.0773 1209.5121 2740.8899 7030062
1060.7932 1212.3408 2747.3 7687991
1075.717 1210.8157 2743.8438 7161647
1083.8634 1201.8209 2723.4607 8148543
1114.2589 1217.3984 2758.7612 7951422
1126.7897 1213.2896 2749.45 7820095
1131.0734 1200.5442 2720.5674 7819837
1153.5682 1207.215 2735.6843 8806475
1175.4056 1213.0225 2748.8447 7687993
1199.2482 1220.7122 2766.2705 6832428
1208.0543 1213.0955 2749.01 6832428
1214.3312 1203.1752 2726.5298 6898478
1230.2947 1202.9873 2726.1038 6569512
1254.4076 1210.6694 2743.5125 6898478
1258.2792 1198.8693 2716.772 6306341
1269.5488 1194.327 2706.4788 6964014
1296.4868 1204.4542 2729.4282 6635305
1306.0422 1198.3823 2715.6685 6503463
1311.5632 1188.8011 2693.9565 6372134
1342.0609 1201.8173 2723.4524 6108962
1342.9935 1188.363 2692.9636 5977377
1379.5084 1206.3403 2733.7021 6108707
1395.7578 1206.3844 2733.8022 6240038
1414.1108 1208.225 2737.9731 6503210
1435.3932 1212.4983 2747.6567 6700590
1438.7191 1201.6777 2723.1362 7358519
1450.1686 1197.807 2714.3647 5845792
1472.2305 1202.6906 2725.4316 6240550
1486.014 1200.7791 2721.0996 6043170
1492.0564 1192.7203 2702.8376 5713695
1494.9885 1182.3728 2679.3892 5911330
1493.4303 1168.7288 2648.4702 5516316
1508.0873 1167.9263 2646.6516 5319706
1513.5609 1160.1016 2628.9199 5977381
1532.3245 1162.5187 2634.3975 5780001
1521.3276 1142.5367 2589.1162 5911588
1539.3599 1144.5374 2593.6497 4924948
1561.6653 1149.644 2605.2222 5319451
1568.3973 1143.2985 2590.8423 6240808
1570.1936 1133.5128 2568.667 4925461
1583.5715 1132.1956 2565.6819 6965044
1600.4917 1133.4119 2568.4382 5451805
1609.9031 1129.3378 2559.2058 5912356
1621.141 1126.6091 2553.0225 6438699
1630.3705 1122.5482 2543.8198 6109735
1631.1821 1112.8186 2521.7717 5715233
1655.4757 1119.1403 2536.0972 6372396
1678.9969 1124.8307 2548.9922 4530449
1678.4645 1114.4486 2525.4653 4464400
1686.514 1109.8979 2515.1531 5319196
1703.351 1111.1593 2518.0115 4727318
1699.068 1098.7411 2489.8704 4990745
1717.5637 1101.1403 2495.3071 4859159
1724.7946 1096.3381 2484.425 4662036
1722.587 1085.6687 2460.2468 3346949
1726.9019 1079.2546 2445.7119 4069643
1695.098 1050.5623 2380.6917 5319710
1756.0327 1079.3451 2445.917 6175276
1757.5774 1071.4515 2428.0293 4859414
1763.7682 1066.4955 2416.7983 4595985
1769.0127 1061.0518 2404.4622 3938057
1773.8992 1055.4819 2391.8403 5122331
1803.9714 1064.8673 2413.1086 4793366
1820.8098 1066.3547 2416.4792 4925209
1801.2101 1046.6455 2371.8159 4661781
1808.1202 1042.5265 2362.4819 5582882
1818.7321 1040.5887 2358.0906 5122590
1826.2312 1036.9132 2349.7615 4662554
1843.1526 1038.6027 2353.5898 4136468
1857.8022 1038.9962 2354.4817 7360837
1837.5887 1020.0315 2311.5056 4926495
1836.8162 1012.0593 2293.4397 4531480
1849.5885 1011.6123 2292.4268 5123104
1842.8484 1000.5775 2267.4207 4399380
1835.8995 989.59003 2242.5217 3675658
1857.6417 994.11432 2252.7744 3806987
1855.5823 985.92755 2234.2222 4070417
1834.665 967.90808 2193.3879 4202004
1869.2289 979.20612 2218.9907 4662553
1907.5067 992.27832 2248.6138 4465175
1902.709 982.91699 2227.3999 5188640
1910.2373 980.008 2220.8079 4662296
1919.4227 977.98334 2216.2197 4135438
1927.7615 975.55768 2210.7229 4464660
1936.402 973.31647 2205.644 4662297
1935.8422 966.5119 2190.2241 4728089
1942.9691 963.60999 2183.6482 4531221
1951.526 961.45111 2178.7559 4465428
1954.175 956.42914 2167.3755 5123357
1958.0759 952.08142 2157.5229 5583907
1958.3134 946.02026 2143.7878 5584420
1964.4658 942.87628 2136.6633 5716006
1955.6992 932.65784 2113.5071 5058076
1953.314 925.59326 2097.498 5386784
1960.1281 922.94971 2091.5073 5584420
1964.1305 919.02368 2082.6106 5255198
1968.5664 915.34827 2074.2817 4992283
1975.611 912.92395 2068.7878 5189405
0 0 0 0
0 0 0 0
0 0 0 0
0 0 0 0
0 0 0 0
0 0 0 0
0 0 0 0
0 0 0 0
0 0 0 0
0 0 0 0
0 0 0 0
-1735.3546 891.96716 1994.5159 1536
-1722.2163 891.28412 1992.9884 1792
-1712.9288 892.59802 1995.9266 1280
-1701.4082 892.75867 1996.2858 1024
-1685.4629 890.58362 1991.4221 2048
-1664.3544 885.63031 1980.3462 397056
-1657.4937 888.24213 1986.1863 265216
-1650.319 890.72174 1991.731 1792
-1643.7571 893.57025 1998.1005 67584
-1641.0087 898.54828 2009.2317 266240
-1613.6271 890.01215 1990.1444 266240
-1609.5552 894.30176 1999.7363 265728
-1591.8295 891.01251 1992.3812 529664
-1579.903 890.9444 1992.2289 990210
-1570.3425 892.21954 1995.0803 925184
-1557.7684 891.78876 1994.1169 530432
-1550.2308 894.25677 1999.6356 925441
-1532.624 890.90961 1992.151 2636307
-1526.1146 894.01135 1999.0869 1912839
-1506.6429 889.50885 1989.0189 2242570
-1500.9731 893.14819 1997.1567 2177033
-1485.9406 891.22974 1992.8668 2900500
-1477.2506 893.11511 1997.0828 1123840
-1461.3378 890.62897 1991.5236 1518592
-1462.6747 898.70087 2009.573 2308107
-1443.2043 894.01605 1999.0973 859904
-1421.1418 887.63452 1984.8276 2373130
-1389.5935 875.1723 1956.9611 2438665
-1392.616 884.45648 1977.7212 4279835
-1408.7583 902.30133 2017.6239 2506255
-1415.3029 914.25171 2044.3461 1847296
-1398.334 911.08826 2037.2723 729856
-1377.6127 905.4035 2024.5607 2176262
-1376.3119 912.49463 2040.417 1715714
-1366.2538 913.85388 2043.4563 2373382
-1355.869 915.01697 2046.0573 2768139
-1334.0787 908.43463 2031.3385 3689242
-1325.7065 910.95245 2036.9686 2241539
-1322.0382 916.77863 2049.9963 3228689
-1306.4377 914.36157 2044.5918 2044163
-1297.7363 916.77313 2049.9841 859648
-1278.2999 911.57489 2038.3605 1584384
-1286.9911 926.5271 2071.7949 1386753
-1279.7906 930.21637 2080.0444 1782021
-1281.0315 940.17273 2102.3076 2110730
-1250.5809 926.83722 2072.4883 2439694
-1267.4679 948.66815 2121.3042 1979402
-1247.6431 943.18341 2109.0398 2045450
-1230.0767 939.31226 2100.3835 860672
-1225.4108 945.31378 2113.8035 1453829
-1162.6857 906.18835 2026.3156 1454089
-1136.9926 895.40991 2002.2141 268032
-1183.6349 941.97089 2106.3286 335104
-1194.2324 960.53308 2147.8352 663808
-1184.1537 962.68585 2152.6489 597760
-1186.7949 975.33917 2180.9429 70656
-1187.6587 986.79425 2206.5574 200704
-1162.4012 976.5592 2183.6711 596992
-1136.361 965.42871 2158.7822 202496
-1102.925 947.69012 2119.1172 466432
-1083.2421 941.49622 2105.2671 70912
-1064.6542 936.12103 2093.2478 465664
-1055.7532 939.23682 2100.2148 201728
-1041.3893 937.50897 2096.3513 3072
-1035.4854 943.44751 2109.6304 3072
-1025.5959 945.85535 2115.0146 267520
-1016.6429 949.19733 2122.4873 69376
0 0 0 0
0 0 0 0
0 0 0 0
0 0 0 0
-700.47125 697.12024 1558.8213 7890726
-690.95032 696.83356 1558.1802 7824415
-681.14502 696.24841 1556.8718 7626523
-671.54108 695.85583 1555.9939 7823131
-659.83118 693.23975 1550.1442 8349473
-651.29999 693.93658 1551.7023 8283679
-641.65942 693.45447 1550.6243 8086044
-631.37018 692.24713 1547.9246 8020254
-621.37189 691.32788 1545.869 7822875
-611.5058 690.53046 1544.0859 8019740
-601.33514 689.35962 1541.4679 8085531
-590.93829 687.8894 1538.1803 7888410
-580.8996 686.79651 1535.7365 7888920
-571.14447 686.00946 1533.9766 7888921
-560.86334 684.55493 1530.7241 7954714
-551.48352 684.17078 1529.8651 7888921
-541.57367 683.10516 1527.4823 7888667
-531.56927 681.8822 1524.7477 7888668
-521.45972 680.47955 1521.6112 7954461
-566.45581 752.203 1681.9911 7888667
-529.25244 715.38708 1599.6676 7888668
-493.40973 679.10114 1518.5289 7559702
-483.08615 677.24261 1514.3732 7757083
-473.74246 676.71356 1513.1901 7691290
-464.30026 676.02057 1511.6405 8349219
-506.97177 752.67035 1683.0361 8283426
-466.5784 706.60034 1580.0195 8414756
-483.59702 747.37042 1671.1851 8283427
-447.54239 706.10889 1578.9207 8415012
-459.32733 740.17566 1655.0969 8283427
-408.45413 672.5567 1503.895 8086047
-399.49707 672.47943 1503.7223 8283426
-390.31732 672.01526 1502.6843 8151841
-399.53931 703.95166 1574.0969 8086047
-372.31522 671.66516 1501.9015 8151840
-363.80554 672.38538 1503.512 8019998
-354.47968 671.5954 1501.7455 8217633
-380.46448 739.38678 1653.3329 8217634
-351.52005 701.19196 1567.9259 8217377
-361.36755 740.40387 1655.6072 8217634
-351.56216 740.41382 1655.6295 8415012
-323.5759 701.03516 1567.5753 8283426
-314.11325 700.64667 1566.7067 8217633
-291.50394 670.01727 1498.2167 8217634
-282.53729 669.80597 1497.7441 8086047
-273.6059 669.66724 1497.434 8086048
-291.68958 737.85657 1649.9111 8085791
-282.29251 738.84937 1652.1311 8151071
-258.28024 700.28662 1565.9016 8282657
-263.90787 742.20856 1659.6426 8282656
-228.60887 667.81952 1493.3022 8085021
-219.67154 667.54926 1492.698 8479779
-222.01276 702.96814 1571.8977 8480035
-224.70737 742.65698 1660.6453 8216863
-215.13725 743.58978 1662.7312 8151071
-205.44333 744.16364 1664.0144 8216606
-175.59926 668.12726 1493.9905 8611367
-184.87587 740.76758 1656.4205 8677160
-165.19077 699.0022 1563.0295 8742954
-165.3125 741.06598 1657.0876 8742951
-146.52792 698.33655 1561.541 8809000
-130.86943 665.74982 1488.6742 8940330
-121.89984 664.93915 1486.8616 8677414
-112.91743 663.92694 1484.5981 8480038
-104.02085 663.29095 1483.176 8611623
-107.23093 746.86005 1670.0437 8611623
-98.550331 756.18341 1690.8916 8611623
-88.515862 756.05316 1690.6003 8677416
-78.394073 755.04846 1688.3538 8743209
-59.881969 661.11804 1478.3171 8677416
-51.093784 660.7486 1477.4911 8874796
-42.330208 660.61053 1477.1824 8546600
-33.755993 664.12598 1485.0432 8941359
-24.906059 662.78326 1482.0409 8743726
-16.20944 666.27997 1489.8597 8348969
-7.353231 663.73535 1484.1697 6967068
1.4575897 671.34381 1501.1829 7295269
0 0 0 0
31.811514 1109.5526 2481.0559 9531222
46.819904 1116.8794 2497.4392 9728349
61.641815 1117.3068 2498.3948 9399127
77.014717 1125.6218 2516.988 9465176
91.9226 1125.5449 2516.8159 9728092
107.12193 1128.5599 2523.5579 9925728
123.29615 1139.849 2548.8013 9530969
138.17122 1137.9745 2544.6096 9399384
151.95824 1128.3893 2523.1763 9662555
167.78346 1134.3007 2536.3945 10123107
183.32414 1137.4746 2543.4917 9728350
197.70253 1133.5023 2534.6094 9333592
213.69855 1138.7106 2546.2556 9794143
228.5676 1137.6229 2543.8235 8938833
243.73938 1138.0834 2544.853 9925472
259.93655 1142.999 2555.845 8938578
276.31345 1148.1201 2567.2961 9530970
288.93289 1137.9088 2544.4626 8873040
305.37775 1143.0288 2555.9116 9267798
321.71802 1147.2921 2565.4446 9465177
335.94858 1143.9866 2558.053 8675661
352.66284 1149.0588 2569.3953 8675404
367.42548 1147.6157 2566.168 8675660
384.06406 1151.9137 2575.7788 9333590
400.03909 1153.9689 2580.3745 9728348
417.53055 1160.0863 2594.0535 8544074
432.94885 1160.2136 2594.3381 9070419
447.67923 1158.5519 2590.6223 8938833
470.40283 1177.0001 2631.8743 9202005
485.93756 1176.8544 2631.5483 9530200
502.21173 1178.4529 2635.1226 10188387
513.19513 1167.9143 2611.5576 8411973
533.81561 1179.2825 2636.9778 8609352
542.26794 1163.8873 2602.5527 8740939
569.19305 1187.8959 2656.238 8741196
582.45978 1182.8745 2645.0098 8609354
595.53809 1177.7437 2633.5369 8477511
603.19012 1162.4177 2599.2668 8740938
622.27191 1169.3333 2614.7305 8280644
638.67786 1171.0066 2618.4722 10122848
658.1391 1178.0695 2634.2654 9004365
675.94971 1181.9189 2642.873 8872526
692.27667 1183.0585 2645.4211 9069906
707.54724 1182.3824 2643.9094 9135699
724.28204 1184.1293 2647.8157 8609355
740.89362 1185.6051 2651.1157 8806733
759.4574 1190.0787 2661.1191 8609609
771.12494 1183.7836 2647.0427 9398868
793.60126 1194.0017 2669.8914 8675402
805.85681 1188.7434 2658.1333 8609352
819.12354 1185.1497 2650.0974 8806988
835.78094 1186.5049 2653.1277 8741452
852.40302 1187.7605 2655.9355 9465175
868.62054 1188.4175 2657.4043 8478281
884.02539 1187.9587 2656.3787 8609352
909.10529 1200.29 2683.9524 8609609
917.36731 1190.3745 2661.7805 8675144
938.70154 1197.47 2677.6465 8083262
954.67151 1197.6001 2677.9377 7885114
973.14008 1200.8093 2685.1135 7490614
989.96692 1201.922 2687.6016 8149057
1013.0013 1210.4166 2706.5964 8280643
1019.3464 1199.0157 2681.103 7359283
1050.8071 1217.0537 2721.4375 7490612
1062.566 1212.0728 2710.2996 7621942
1069.8837 1202.2491 2688.3333 7687993
1085.3553 1201.7422 2687.1997 7556408
1104.7977 1205.5829 2695.7878 7490615
1119.1344 1203.8221 2691.8506 7490615
1137.6235 1206.5148 2697.8716 7227443
1164.4493 1217.8517 2723.2219 8806476
1171.1733 1208.1425 2701.5112 7753789
1190.5846 1211.6063 2709.2566 7030065
1192.4156 1197.3252 2677.323 7030064
1217.0898 1206.0553 2696.8442 6503719
1231.6552 1204.6719 2693.7505 6964270
1247.0707 1204.1445 2692.5715 6569769
1260.329 1201.574 2686.8235 6833197
1277.7854 1203.0201 2690.0571 6701611
1287.2889 1197.0352 2676.6743 7556920
1308.1615 1201.6392 2686.9692 7227702
1322.1615 1199.8955 2683.0703 6569515
1334.022 1196.2747 2674.9736 6306343
1353.377 1199.3806 2681.9189 5779742
1364.3865 1195.1044 2672.3569 6174501
1375.4662 1190.9871 2663.1501 6240549
1358.329 1162.8077 2600.1389 7490618
1378.5897 1166.9164 2609.3262 6043171
1413.954 1183.5764 2646.5796 5779998
1433.582 1186.8433 2653.8845 6964528
1434.7018 1174.8828 2627.1396 7490359
1463.4894 1185.5931 2651.0889 5713950
1468.9882 1177.4097 2632.79 5319192
1464.4823 1161.4637 2597.1335 5846050
1479.7385 1161.3595 2596.9004 6108967
1489.062 1156.649 2586.3674 5780260
1504.3873 1156.649 2586.3674 5911588
1519.1522 1156.2225 2585.4138 5385501
1535.8522 1157.2626 2587.7395 5451037
1542.0724 1150.4637 2572.5366 4925206
1553.6215 1147.7345 2566.4338 6307116
1542.0122 1128.116 2522.5652 6898994
1551.6372 1124.2599 2513.9424 6109735
1560.6396 1120.0302 2504.4844 6109735
1582.3909 1124.9434 2515.4707 5517341
1594.9867 1123.3168 2511.8337 6109735
1614.7065 1126.6914 2519.3796 5254170
1616.9684 1117.9341 2499.7976 5320218
1620.3099 1110.0756 2482.2251 5056792
1631.4614 1107.6606 2476.8252 4859414
1650.2814 1110.449 2483.0601 4267022
1669.8105 1113.661 2490.2424 5846309
1666.955 1102.0182 2464.2083 5254172
1692.2056 1108.9972 2479.814 5517344
1679.1912 1090.9948 2439.5588 4727830
1708.4417 1100.5253 2460.8699 3740678
1700.4167 1086.0862 2428.5828 4069899
1706.7162 1080.9618 2417.124 4333071
1725.5908 1083.8208 2423.5173 4991003
1738.1023 1082.6693 2420.9424 5385503
1728.1339 1067.6484 2387.3542 4530451
1723.2594 1055.9928 2361.2913 4201230
1751.6329 1064.7349 2380.8394 4398867
1776.6647 1071.3221 2395.5691 4596247
1784.5031 1067.5197 2387.0664 5714727
1797.6945 1066.9541 2385.8018 4201487
1803.4769 1062.0343 2374.8008 4530453
1810.7925 1058.0868 2365.9736 4530197
1813.363 1051.4482 2351.1294 5451298
1807.1152 1039.8369 2325.1655 4859675
1812.0687 1034.7979 2313.8977 4530453
1791.0386 1015.1078 2269.8689 4793624
1812.2593 1019.4792 2279.6438 4530709
1827.1774 1020.2667 2281.4045 4399125
1820.1698 1008.8896 2255.9646 3872780
1820.5322 1001.7336 2239.9631 5188897
1823.546 996.12964 2227.4321 4202002
1835.6033 995.51068 2226.0481 5320483
1852.3281 997.41394 2230.304 4136209
1841.7604 984.69824 2201.8706 4267795
1856.7899 985.75073 2204.2241 4596504
1870.2832 985.97876 2204.7339 4465174
1867.5638 977.7157 2186.2571 4399381
1897.8328 986.7179 2206.3867 3872780
1905.0847 983.71185 2199.6648 4859676
1904.0859 976.51508 2183.5723 3609865
1914.2803 975.11725 2180.4465 4333842
1918.7299 970.83142 2170.863 5254944
1947.7281 978.94098 2188.9968 5715238
1936.7927 967.00507 2162.3071 5320736
1945.4971 964.96741 2157.7507 5057566
1946.3191 959.07227 2144.5686 5254942
1939.582 949.5528 2123.2825 5518114
1944.1376 945.64911 2114.5532 4991770
1948.4434 941.67456 2105.6658 5452321
1939.3485 931.31525 2082.5017 5123612
1944.6165 927.94086 2074.9561 5320735
1971.2905 934.75922 2090.2026 5517857
1960.4796 923.82861 2065.7607 4662548
1965.9005 920.63495 2058.6194 5123612
0 0 0 0
0 0 0 0
0 0 0 0
0 0 0 0
0 0 0 0
0 0 0 0
0 0 0 0
0 0 0 0
0 0 0 0
0 0 0 0
0 0 0 0
-1723.9484 897.84509 1981.4062 1792
-1712.6492 898.07648 1981.917 2048
-1700.642 897.93732 1981.6099 2048
-1689.7935 898.41223 1982.6581 1280
-1669.9147 894.05914 1973.0513 1280
-1650.1892 889.72729 1963.4916 1024
-1644.3344 892.8656 1970.4175 1280
-1637.0376 895.26019 1975.7019 1024
-1626.6949 896.01166 1977.3602 726016
-1625.0356 901.59161 1989.6743 594688
-1608.6765 899.03784 1984.0386 595712
-1591.8577 896.18762 1977.7487 662016
-1572.2211 891.6972 1967.8389 662016
-1547.5604 884.2688 1951.4456 1253894
-1547.2323 890.73676 1965.7194 1123331
-1534.124 889.88947 1963.8495 1123328
-1519.6898 888.25427 1960.241 728832
-1517.0985 893.56934 1971.9705 3162905
-1514.4625 898.94043 1983.8236 2439178
-1491.4889 892.22931 1969.0131 2570764
-1493.3215 900.36877 1986.9756 3228694
-1485.5022 902.77179 1992.2788 1847043
-1466.835 898.56805 1983.002 1714946
-1450.2028 895.55322 1976.3486 333824
-1453.5925 904.95416 1997.0951 1649410
-1436.6716 901.76111 1990.0483 1517569
-1401.1576 886.74799 1956.9169 3029780
-1384.3053 883.39337 1949.5137 2699782
-1376.0111 885.48962 1954.1398 2832139
-1384.3389 898.40881 1982.6504 1385984
-1382.3896 904.82245 1996.8042 1847042
-1381.6304 912.13245 2012.9363 2768657
-1382.3755 920.57147 2031.5601 2439179
-1355.5548 910.64062 2009.644 2702350
-1351.4841 915.95221 2021.366 859904
-1347.3434 921.31085 2033.1918 3097108
-1330.6118 918.07904 2026.0596 1386497
-1317.6492 917.41241 2024.5884 2307335
-1317.4231 925.68292 2042.8402 3426073
-1308.8197 928.16583 2048.3196 2241798
-1295.5697 927.36926 2046.5616 3952673
-1277.7269 923.23901 2037.4469 1058304
-1269.6891 926.18231 2043.9421 531712
-1263.0474 930.21039 2052.8315 1321472
-1251.0625 930.34363 2053.1255 1255937
-1250.4526 939.02124 2072.2759 1979401
-1257.3024 953.52838 2104.2908 1189888
-1227.682 940.39038 2075.2974 531968
-1217.0302 941.66333 2078.1064 1584899
-1209.3251 945.26562 2086.0562 928000
-1164.2935 919.46472 2029.1176 1717256
-1138.0009 908.07843 2003.9899 137984
-1161.3961 936.51898 2066.7537 71680
-1181.824 963.14746 2125.5186 5120
-1176.0223 968.74298 2137.8672 1189888
-1172.1865 976.09753 2154.0974 992769
-1161.0511 977.46851 2157.123 1255944
-1132.7319 964.24225 2127.9348 597761
-1103.8108 950.20007 2096.9458 334081
-1096.8749 954.97931 2107.4927 729344
-1072.3187 944.35107 2084.0378 3584
-1051.1282 936.47369 2066.6538 531456
-1048.0317 944.72119 2084.8547 465664
-1038.7009 947.47858 2090.9397 134400
-1029.595 950.50995 2097.6296 398592
-1019.1614 952.37482 2101.7451 69120
-1013.3344 958.64398 2115.5801 399104
0 0 0 0
0 0 0 0
0 0 0 0
0 0 0 0
-698.85577 704.72791 1555.2263 7758882
-690.45453 705.55969 1557.062 7824415
-681.07056 705.39636 1556.7015 7888925
-671.65851 705.19897 1556.266 7823387
-659.63446 702.21558 1549.682 8480801
-651.08929 702.90356 1551.2003 8349472
-641.80353 702.80035 1550.9725 8152093
-631.0965 701.11517 1547.2537 8086299
-621.29657 700.40289 1545.6816 7888667
-611.5058 699.67981 1544.0859 7888667
-601.16254 698.29291 1541.0254 7888667
-590.99969 697.07611 1538.3401 7888668
-580.78149 695.75488 1535.4242 7888667
-571.05194 694.98627 1533.728 8085790
-561.20258 694.04462 1531.6499 8020253
-551.47192 693.22113 1529.8328 7954460
-541.4198 691.95953 1527.0485 7822874
-531.75781 691.16193 1525.2883 7954460
