# .PCD v0.7 - Point Cloud Data file format
VERSION 0.7
FIELDS x y z rgb
SIZE 4 4 4 4
TYPE F F F U
COUNT 1 1 1 1
WIDTH 1285
HEIGHT 1
VIEWPOINT 0 0 0 1 0 0 0
POINTS 1285
DATA ascii
1205.8658 984.03198 2116.2612 8673590
1226.9396 990.92444 2131.0842 9002298
1233.8805 986.37848 2121.3076 8212783
1247.6096 987.29608 2123.281 8279090
1272.339 996.81354 2143.7493 8015663
1276.9065 990.50311 2130.178 8344628
1292.8387 993.04565 2135.646 8673593
1304.9005 992.59473 2134.6763 8804922
1312.4408 988.74609 2126.3994 7818027
1332.656 994.42877 2138.6206 8080943
1345.8083 994.78363 2139.3838 8607030
1361.2203 996.78662 2143.6914 8672823
1370.996 994.66345 2139.1252 8409650
1385.9325 996.28894 2142.6211 7817768
1379.7645 982.85175 2113.7229 8212527
1411.5746 996.4657 2143.0012 8541492
1416.4041 990.96045 2131.1616 8278064
1418.7069 983.80054 2115.7634 8015148
1454.0632 999.48621 2149.4971 8739127
1446.6281 985.74091 2119.9365 8278576
1470.5491 993.41479 2136.4399 8738871
1484.0042 993.94781 2137.5862 8475699
1502.1039 997.55634 2145.3467 7949355
1508.8875 993.65228 2136.9507 8607285
1528.9418 998.47961 2147.3323 9067835
1541.6926 998.49719 2147.3701 7159582
1553.3557 997.81561 2145.9043 6896666
1569.4076 999.94153 2150.4763 7949356
1575.7732 995.91132 2141.8088 8014893
1592.3765 998.36414 2147.084 8212528
1606.0002 998.92487 2148.2898 7357219
1617.788 998.34363 2147.0398 8015148
1615.0769 988.89404 2126.7175 7620133
1616.4393 982.06567 2112.0325 6896667
1664.9869 1003.7892 2158.7512 8738614
1682.5393 1006.6376 2164.877 7028765
1686.1732 1001.1787 2153.137 8607797
1680.0801 990.0697 2129.2458 8081454
1692.2069 989.78314 2128.6296 8475955
1699.4875 986.68732 2121.9717 8542005
1731.6678 997.98706 2146.2729 8739386
1748.7631 1000.4916 2151.6592 8410421
1765.7126 1002.8771 2156.7896 8081199
1770.875 998.5816 2147.5518 8410421
1786.942 1000.4528 2151.5757 7555112
1798.8853 1000.0048 2150.6123 9002815
1790.2688 988.21442 2125.2559 8936766
1812.395 993.43988 2136.4939 7291940
1814.5258 987.70862 2124.1682 8212786
1828.5981 988.5119 2125.8958 7620394
1860.1121 998.66827 2147.738 7488808
1856.5634 989.98987 2129.0742 7883566
1880.9789 996.23962 2142.5149 8278324
1867.5056 982.47272 2112.9077 7883823
1877.1781 980.98456 2109.7075 8937024
1883.6534 977.85663 2102.9805 8608058
1904.7147 982.29199 2112.519 8015409
1915.7866 981.55121 2110.926 8344373
1938.9092 986.95422 2122.5459 6962721
1975.5082 999.10327 2148.6736 8475959
1969.088 989.47937 2127.9763 7817773
1978.2451 987.75574 2124.2695 8015152
1977.5 981.14093 2110.0437 7554858
1994.3033 983.26111 2114.6035 7949616
2004.5637 982.14917 2112.2122 7818029
2021.0897 984.10187 2116.4116 7883823
0 0 0 0
0 0 0 0
0 0 0 0
0 0 0 0
0 0 0 0
0 0 0 0
0 0 0 0
0 0 0 0
0 0 0 0
0 0 0 0
-1922.785 1033.6455 2194.989 1707528
-1910.7448 1034.1683 2196.0991 1641478
-1904.2325 1037.7108 2203.6218 1509892
-1883.2406 1033.3569 2194.3762 1641478
-1870.2087 1033.3407 2194.3418 1575685
-1858.0723 1033.8226 2195.365 1641478
-1843.7207 1033.0699 2193.7668 1575685
-1830.5054 1032.9479 2193.5076 1838857
-1815.4641 1031.7863 2191.0408 1641478
-1794.0631 1026.9674 2180.8079 1641478
-1777.4851 1024.8596 2176.3318 1707271
-1764.115 1024.5841 2175.7466 1509892
-1756.4471 1027.6405 2182.2373 1509892
-1734.5068 1022.3303 2170.9607 1641221
-1722.9601 1023.1123 2172.6213 1641478
-1706.0291 1020.6849 2167.4666 1509892
-1686.937 1016.9179 2159.4673 1707014
-1683.2133 1022.4285 2171.1692 1641478
-1671.6228 1023.2086 2172.8259 1641478
-1655.1211 1020.9713 2168.075 1838344
-1634.8911 1016.3813 2158.3279 1575172
-1625.3524 1018.4179 2162.6526 1311744
-1617.8885 1021.7972 2169.8286 1377793
-1601.4714 1019.5308 2165.0159 1114624
-1587.0316 1018.4968 2162.8201 1575171
-1578.8702 1021.5081 2169.2146 1640965
-1561.7479 1018.7234 2163.3013 1838342
-1549.1262 1018.8528 2163.5762 1114624
-1538.1842 1020.0983 2166.2209 1575170
-1524.1915 1019.3245 2164.5779 1509377
-1513.8702 1021.0139 2168.1653 1443584
-1503.8812 1022.958 2172.2937 1838342
-1490.541 1022.6367 2171.6113 1640963
-1476.4297 1021.7759 2169.7834 1640963
-1464.4183 1022.3663 2171.0371 1772549
-1453.2186 1023.5386 2173.5266 1772549
-1441.7269 1024.5244 2175.6201 1838342
-1426.7526 1023.0309 2172.4485 1772549
-1417.9403 1025.9689 2178.6875 1904135
-1403.2446 1024.6646 2175.9177 1706756
-1383.23 1019.4163 2164.7727 1509377
-1376.2711 1023.7816 2174.0425 1312000
-1362.5392 1023.1434 2172.6875 1575171
-1345.5344 1020.012 2166.0378 1640963
-1333.7128 1020.7872 2167.6841 1706756
-1323.13 1022.5352 2171.3958 1904135
-1307.0458 1020.0239 2166.063 1904135
-1293.1401 1019.1799 2164.2708 1904135
-1285.035 1022.9365 2172.248 1575170
-1268.7095 1020.1591 2166.3501 1969928
-1255.9131 1020.1917 2166.4192 1969928
-1243.9979 1020.9482 2168.0256 1969928
-1229.5343 1019.607 2165.1777 2035721
-1216.2125 1019.1946 2164.302 1904135
-1208.9434 1023.8995 2174.293 2298122
-1195.8531 1023.7225 2173.9172 2101000
-1178.9332 1020.2276 2166.4956 2100743
-1163.785 1018.2058 2162.2021 2035207
-1146.7935 1014.5083 2154.3503 2166793
-1143.1312 1022.6521 2171.644 2101000
-1130.0161 1022.4283 2171.1689 2166793
-1115.7831 1021.1764 2168.5103 2298379
-1098.556 1017.1232 2159.9031 2101000
-1087.7534 1018.9926 2163.873 2035207
-1077.9982 1021.8998 2170.0464 1706756
-1057.4098 1014.4835 2154.2976 1640963
-1050.4547 1020.1257 2166.2793 2233100
-1033.0687 1015.6525 2156.78 2167307
-1025.6504 1020.9896 2168.1135 1838343
-1010.8586 1019.0291 2163.9504 1969671
-999.05225 1020.0663 2166.1531 1574913
-988.8147 1022.7533 2171.8589 1838342
-972.26331 1018.8945 2163.6646 1969414
-960.25854 1019.7608 2165.5042 1903621
-950.41046 1022.972 2172.3232 1837828
-934.96442 1020.1633 2166.3589 1706243
-923.15784 1021.3027 2168.7786 1706242
-910.17889 1021.159 2168.4734 1903621
-893.16895 1016.4238 2158.4182 1837571
-879.44678 1015.3472 2156.1318 1903621
-870.94116 1020.3501 2166.7556 1969414
-851.65155 1012.6797 2150.4673 2101000
-841.77106 1016.1345 2157.8035 2429964
-828.98523 1016.1345 2157.8035 1837828
-815.33344 1015.0564 2155.5142 1969414
-802.48535 1014.9604 2155.3105 2035207
-790.00275 1015.3312 2156.0979 1969414
-774.66846 1011.9889 2149.0002 2035207
-761.74072 1011.7311 2148.4529 1969157
-748.65234 1011.2476 2147.4263 1705986
-738.13959 1014.2866 2153.8796 1772034
-728.04193 1018.013 2161.7927 1772035
-710.09863 1010.7059 2146.2759 2034949
-700.96906 1015.9058 2157.3181 1903620
-684.33081 1010.2148 2145.2329 2034693
-672.47906 1011.5077 2147.9785 2166279
-660.46313 1012.5989 2150.2957 2232072
-646.74414 1011.0706 2147.05 2429194
-638.35437 1017.9792 2161.7212 2100486
-624.32391 1015.9918 2157.5005 2232072
-610.37738 1014.0604 2153.3992 2034436
-598.81061 1016.0847 2157.698 2297865
-585.22064 1014.6894 2154.7349 2363401
-571.72253 1013.3947 2151.9856 2231815
-558.56519 1012.6586 2150.4226 2231815
-547.3598 1015.5098 2156.4771 2231815
-532.06641 1010.7313 2146.3298 2429194
-521.31586 1014.5601 2154.4604 2429192
-508.89975 1015.2582 2155.9429 2429192
-495.23108 1013.4291 2152.0586 2560522
-482.5524 1013.5827 2152.3848 2494471
-470.37976 1014.8364 2155.0471 2822924
-456.03375 1011.3403 2147.623 2428166
-442.56793 1009.6513 2144.0364 2231043
-429.71188 1009.2949 2143.2795 2362630
-418.48923 1012.87 2150.8713 2428166
-404.14279 1008.8718 2142.3811 2428422
-393.10196 1013.1337 2151.4314 2428422
-379.67209 1011.3176 2147.5747 2428423
-367.27225 1012.2144 2149.4792 2559495
-353.84036 1010.2291 2145.2634 2296323
-340.77487 1009.181 2143.0376 2362371
-329.2023 1012.644 2150.3914 2362372
-317.56223 1016.1698 2157.8787 2888455
-305.36743 1018.142 2162.0667 2953477
-292.09805 1016.5472 2158.6799 3609861
-280.79614 1021.9669 2170.189 4530189
-267.56671 1020.555 2167.1907 5977627
-252.75444 1012.6589 2150.4231 6700832
-238.88326 1007.8951 2140.3071 7621672
-226.17001 1007.7568 2140.0132 8542772
-214.67284 1013.3423 2151.8743 8542001
-199.86542 1003.0208 2129.9561 8081450
-187.74603 1005.707 2135.6604 7752485
-175.17419 1006.1826 2136.6704 8015400
-162.64529 1006.9982 2138.4023 8870453
-149.86998 1006.297 2136.9133 8146986
-137.30908 1007.0391 2138.489 8739124
-124.46603 1005.6521 2135.5439 8738867
-112.03314 1007.6406 2139.7664 8542514
-98.615738 1000.1515 2123.863 9331774
-87.169266 1013.3844 2151.9636 8081706
-74.430885 1013.5596 2152.3357 8936759
-61.451725 1009.8505 2144.4592 8147244
-49.086987 1016.9367 2159.5071 8673333
-36.093361 1011.3973 2147.7441 8673589
-23.419418 1013.661 2152.5513 8739126
-10.632874 1010.6371 2146.1299 9199418
2.0939293 1015.546 2156.554 8936246
14.871939 1015.5161 2156.4905 8673330
27.542589 1011.5707 2148.1123 8015401
40.37878 1014.2776 2153.8606 8475952
53.15995 1014.6342 2154.6177 8936247
66.041687 1016.4005 2158.3684 7094301
78.833824 1016.4383 2158.4487 7686438
91.66169 1016.8619 2159.3484 8475953
104.59433 1018.2017 2162.1936 8212525
117.67899 1020.5676 2167.2175 8278575
130.16815 1017.8116 2161.365 8739124
143.14169 1018.9975 2163.8833 8870711
156.11449 1019.9835 2165.9771 9067832
168.23019 1015.6452 2156.7646 8344366
181.86362 1020.4355 2166.937 8804917
194.58324 1019.8047 2165.5977 8673074
206.95586 1017.5459 2160.8008 8541488
220.22838 1019.7171 2165.4114 8673330
233.37357 1021.092 2168.3313 9331263
245.9754 1020.0702 2166.1614 8475697
258.45718 1018.6766 2163.2019 8015403
270.53455 1015.8959 2157.2971 9857350
284.36157 1019.6401 2165.248 9857607
300.8642 1032.2407 2192.0059 8475954
312.09634 1026.4641 2179.739 8278575
321.67938 1015.9384 2157.3872 9265470
334.62222 1016.4227 2158.4158 8475697
348.42197 1019.3785 2164.6924 8936504
364.40286 1028.2791 2183.5933 8936503
374.01627 1019.2175 2164.3506 9002295
386.32187 1017.8501 2161.4468 8870454
398.76038 1016.9092 2159.4487 8606770
410.31146 1013.8341 2152.9187 8935735
424.58804 1017.4759 2160.6521 8935991
437.46341 1017.6448 2161.011 8607026
450.47992 1018.1232 2162.0266 8870196
460.539 1012.0759 2149.1851 9528639
473.69257 1012.9714 2151.0867 8278575
487.1275 1014.4059 2154.1331 8212782
499.84109 1014.3034 2153.9153 9462848
507.75598 1004.7108 2133.5449 8870456
525.38464 1014.338 2153.9888 8739124
538.45898 1014.9244 2155.2339 9331773
548.83081 1010.5077 2145.855 8542002
566.77679 1019.9208 2165.8442 8278575
580.07318 1020.7354 2167.5737 8344366
588.17987 1012.5803 2150.2561 9989192
602.32599 1014.9478 2155.2837 9791557
613.9389 1013.037 2151.2261 8409648
624.6098 1009.6812 2144.0999 8936249
643.82013 1019.9881 2165.9868 9002297
648.72571 1007.6721 2139.8335 8410160
662.91803 1009.9771 2144.7283 8936505
673.44482 1006.7159 2137.803 8739126
688.77246 1010.6194 2146.092 8739125
702.86438 1012.601 2150.3 8541490
711.83014 1007.2584 2138.9548 7949610
727.17212 1010.9674 2146.8311 8541748
739.29749 1010.1537 2145.1033 8475954
747.48248 1004.0746 2132.1938 8410418
758.57141 1002.0334 2127.8596 7028251
774.42139 1006.2454 2136.8037 8607285
786.19977 1005.1165 2134.4065 8015403
799.47406 1005.9055 2136.0818 6436372
809.58948 1002.7572 2129.3965 9792587
827.53888 1009.2599 2143.2053 6437400
831.42578 998.67474 2120.7273 7554853
843.15753 997.68744 2118.6306 8738870
856.17578 998.22906 2119.7808 8541490
866.91931 996.14117 2115.3472 8673333
877.89117 994.37152 2111.5891 8278318
888.47668 992.21997 2107.0203 8804662
904.02612 995.59497 2114.187 8739126
914.7384 993.62329 2110.0002 8607539
924.61102 990.80511 2104.0156 7883817
939.0658 992.90656 2108.4783 8410160
953.36536 994.79102 2112.48 8278318
963.16431 991.99139 2106.5347 8870456
977.06494 993.43378 2109.5977 7685926
989.70966 993.57874 2109.9055 8014891
997.07855 988.48987 2099.0991 8672821
1011.5334 990.46466 2103.2927 8146733
1030.7823 997.0285 2117.2314 9067577
1039.7561 993.6153 2109.9832 9264700
1050.5718 992.02252 2106.6008 8541235
1063.3212 992.27167 2107.1299 7948841
1076.4777 992.89044 2108.4441 7620132
1087.3428 991.40576 2105.2913 9264957
1102.6483 993.9577 2110.7102 8212268
1111.8572 991.01813 2104.468 8870198
1122.3042 989.23523 2100.6819 8804405
1134.0475 988.6214 2099.3784 8738356
1148.0575 989.97546 2102.2539 7883048
1155.7572 985.91754 2093.6367 7554082
1169.7936 987.29382 2096.5593 9067577
1168.712 976.01593 2072.6104 8475696
1183.0751 977.73663 2076.2642 8935993
1209.5629 989.33905 2100.9023 8278063
1220.4119 988.04407 2098.1523 7357218
1234.4594 989.33826 2100.9009 8344114
1243.6941 986.78833 2095.4858 8409908
1264.8367 993.64337 2110.0427 7883820
1274.6307 991.53613 2105.5681 8542007
1285.2148 990.07849 2102.4727 7620904
1307.3365 997.45154 2118.1296 8278835
1311.9105 991.4234 2105.3286 8936252
1327.8848 994.04297 2110.8914 8146733
1334.998 990.0423 2102.3958 9067835
1353.4655 994.45801 2111.7727 8212527
1360.8096 990.69495 2103.7817 7883563
1368.1932 987.02856 2095.9961 8080942
1376.1094 983.80908 2089.1592 8080941
1391.6251 986.03143 2093.8787 8541492
1400.114 983.27985 2088.0354 7620390
1414.5981 984.74982 2091.157 7949099
1420.9319 980.56982 2082.2805 8409905
1446.3782 989.53754 2101.324 8344112
1447.6683 981.96698 2085.2476 7949354
1473.9608 991.34021 2105.1521 8080941
1484.6544 990.15283 2102.6306 7751976
1505.5581 995.7381 2114.491 8672822
1520.5198 997.33362 2117.8792 8080941
1538.6064 1000.9359 2125.5288 8080684
1554.9897 1003.3807 2130.7205 7291424
1548.2994 991.01721 2104.4661 8015147
1563.8827 992.99414 2108.6643 7488546
1577.7134 993.83569 2110.4512 7554597
1601.572 1000.9312 2125.5188 7159841
1601.8158 993.27264 2109.2556 7356963
1621.6913 997.81189 2118.8948 6172694
1620.1018 989.17554 2100.5552 7422755
1634.7446 990.50616 2103.3809 7620648
1649.5011 991.88507 2106.3091 8212272
1667.2799 995.04694 2113.0234 8804407
1678.09 994.03387 2110.8721 8015404
1691.1351 994.34979 2111.543 7226144
1696.6837 990.28571 2102.9126 8805178
1718.7515 995.85205 2114.7332 8279349
1735.7357 998.41388 2120.1731 8345398
1744.4686 996.22668 2115.5286 8015920
1763.6765 1000.01 2123.5627 8016178
1776.8334 1000.3331 2124.2488 7489835
1784.3286 997.48663 2118.2041 7950129
1789.8325 993.57458 2109.8967 7687214
1805.9767 995.58234 2114.1604 8081201
1813.3401 992.75531 2108.157 8081458
1825.2983 992.46521 2107.541 7949102
1837.016 992.04926 2106.6577 6633499
1846.6068 990.49799 2103.3635 7883823
1841.8359 981.31586 2083.8647 7620394
1851.3792 979.83154 2080.7129 8080945
1857.9075 976.7818 2074.2366 7488808
1887.2385 985.68182 2093.1362 8146738
1893.6211 982.55817 2086.5029 8146994
1914.4106 986.90192 2095.7271 8278581
1942.5269 994.94232 2112.8013 8146994
1951.7452 993.26257 2109.2341 8870461
1968.3375 995.33295 2113.6306 8410166
1975.5187 992.64819 2107.9294 7554601
1976.9587 987.13062 2096.2126 8344374
1994.1339 989.48969 2101.2222 7686187
2006.9728 989.68115 2101.6289 7818030
0 0 0 0
0 0 0 0
0 0 0 0
0 0 0 0
0 0 0 0
0 0 0 0
0 0 0 0
0 0 0 0
0 0 0 0
0 0 0 0
-1900.3732 1034.452 2169.4043 1904650
-1888.6567 1035.0757 2170.7124 1641478
-1874.4698 1034.3448 2169.1797 1773064
-1858.6956 1032.7218 2165.7759 1707271
-1842.7865 1031.001 2162.167 1970443
-1833.1348 1032.7812 2165.9006 1575685
-1818.1056 1031.5356 2163.2883 1707271
-1805.4241 1031.6139 2163.4524 1707271
-1787.6533 1028.7643 2157.4766 1707271
-1763.4332 1022.1357 2143.5752 1641478
-1756.8671 1025.7178 2151.0874 1772807
-1744.2225 1025.7773 2151.2124 1641478
-1727.2068 1023.2484 2145.9087 1575685
-1713.0802 1022.4061 2144.1423 1707271
-1698.9144 1021.5278 2142.3003 2036236
-1682.1859 1019.0836 2137.1746 1707014
-1668.1613 1018.2527 2135.4321 1641478
-1652.7915 1016.582 2131.9282 1641478
-1645.7888 1020.0714 2139.2461 1509892
-1628.8059 1017.3812 2133.6042 1772294
-1616.756 1017.7542 2134.3865 1575172
-1604.175 1017.7962 2134.4746 1706758
-1590.5524 1017.1726 2133.1667 1443586
-1577.7513 1017.0687 2132.949 1509122
-1568.031 1018.9651 2136.926 1706758
-1556.2423 1019.5373 2138.126 1312000
-1545.5662 1020.8538 2140.8867 1443587
-1529.5381 1018.6277 2136.2185 1772294
-1515.2045 1017.5024 2133.8586 1706756
-1504.125 1018.562 2136.0806 1443585
-1490.3573 1017.8035 2134.49 1640963
-1478.6006 1018.4173 2135.7771 1509377
-1466.2366 1018.6196 2136.2014 1640963
-1454.9355 1019.5703 2138.1953 1838342
-1442.6191 1019.8202 2138.7192 1706756
-1427.5952 1018.1433 2135.2026 1838342
-1418.2255 1020.5051 2140.1555 1969928
-1407.067 1021.6108 2142.4744 1838342
-1389.6283 1018.1352 2135.1855 1772549
-1381.6854 1021.6169 2142.4873 1904135
-1368.0433 1020.9103 2141.0054 1706756
-1351.9376 1018.3347 2135.604 1772549
-1341.4618 1019.9911 2139.0776 1838342
-1327.3907 1018.9194 2136.8301 2101514
-1313.9232 1018.2948 2135.5203 2167307
-1303.1167 1019.7403 2138.5518 2233100
-1283.0963 1013.9333 2126.3735 2430479
-1276.6572 1018.8497 2136.6841 2891030
-1267.1897 1021.4237 2142.082 1904135
-1252.9111 1020.1324 2139.374 2233100
-1240.2345 1020.1324 2139.374 2101513
-1231.6884 1023.5651 2146.5728 1903879
-1215.7776 1020.8851 2140.9526 1443328
-1197.9933 1016.559 2131.8799 1969928
-1181.7013 1013.4204 2125.2979 2232586
-1172.4106 1016.2833 2131.3018 1969414
-1165.5934 1021.3757 2141.9814 2035207
-1153.8727 1022.2363 2143.7861 2100743
-1139.5665 1020.8 2140.7742 1574657
-1126.401 1020.3647 2139.8611 1969414
-1111.5114 1018.3399 2135.6147 2035207
-1095.0399 1014.8023 2128.196 2298379
-1084.0969 1016.3657 2131.4746 2035207
-1072.7513 1017.5839 2134.0295 2101000
-1062.0118 1019.413 2137.8652 2035721
-1046.6053 1016.7523 2132.2854 1706756
-1039.4673 1022.1573 2143.6206 2101257
-1021.6444 1017.0593 2132.9292 1904135
-1010.6365 1018.7028 2136.376 1838342
-996.51642 1017.2113 2133.248 1838342
-985.6701 1019.066 2137.1377 1838342
-971.638 1017.6326 2134.1316 1904135
-957.71979 1016.2822 2131.2996 1903364
-946.86981 1018.195 2135.311 1837828
-936.84296 1021.0568 2141.3125 2035207
-923.01343 1019.7956 2138.6677 1837572
-906.12091 1015.0682 2128.7537 2035207
-896.77405 1018.7795 2136.5369 1969414
-881.30249 1015.5395 2129.7419 2100743
-871.10663 1018.373 2135.6843 2298379
-856.01971 1015.4878 2129.6335 2363915
-844.56311 1016.8873 2132.5686 1903621
-831.58203 1016.4659 2131.6848 2166793
-817.87524 1015.1307 2128.8848 2101000
-802.59619 1011.7717 2121.8403 2232586
-789.89453 1011.6066 2121.4941 1837828
-778.84369 1013.5846 2125.6421 1903365
-766.29877 1013.6512 2125.782 2298379
-753.77771 1013.7521 2125.9937 1837828
-739.75739 1011.8059 2121.9121 1837571
-727.84393 1012.7239 2123.8372 1969413
-717.5531 1015.9715 2130.6479 1969413
-703.53662 1013.966 2126.4421 2364171
-689.87823 1012.4128 2123.1848 2495757
-678.50378 1014.216 2126.9663 2363658
-664.78931 1012.5233 2123.4165 2232072
-650.63116 1010.0765 2118.2854 2231815
-637.16962 1008.6363 2115.2649 2363658
-625.51129 1010.05 2118.2295 2232072
-616.75397 1016.3018 2131.3406 2429451
-602.80377 1014.0793 2126.6797 2363658
-588.35126 1010.8988 2120.0098 1968900
-579.9809 1018.2578 2135.4426 2034693
-563.99127 1012.2698 2122.8848 2034693
-552.66254 1014.5648 2127.698 2495244
-539.17023 1012.9025 2124.2117 2297865
-525.19885 1010.2392 2118.6265 2166022
-512.49548 1009.9443 2118.0081 2034435
-500.40387 1010.8705 2119.9502 2363400
-487.10291 1009.3383 2116.7371 2429192
-475.379 1011.0794 2120.3884 2362885
-462.50583 1010.4043 2118.9727 2494215
-449.96725 1010.4429 2119.0537 2362631
-437.13553 1009.8065 2117.719 2100229
-421.78003 1003.1302 2103.7178 1705729
-411.96637 1009.6289 2117.3464 2034693
-399.18973 1009.0461 2116.1245 2297607
-387.71588 1011.8256 2121.9534 2165764
-372.75723 1005.3922 2108.4617 2494472
-361.30869 1008.3083 2114.5771 2165250
-349.3252 1009.8875 2117.8889 2231043
-336.69077 1009.6323 2117.3538 2296836
-324.76938 1011.5784 2121.4351 2362629
-312.11655 1011.3112 2120.8745 2427905
-299.4227 1010.8829 2119.9766 2690051
-286.40607 1009.28 2116.6147 3544584
-276.14374 1017.6805 2134.2319 4464909
-263.72244 1018.549 2136.0535 5911580
-247.4953 1004.0652 2105.6787 6634786
-237.14328 1013.1437 2124.7175 7621162
-222.51665 1003.9539 2105.4453 7819052
-211.72224 1011.9898 2122.2976 8476210
-198.38969 1008.1425 2114.2292 8279086
-186.24301 1010.2089 2118.563 8344879
-172.66039 1004.2225 2106.0085 8542258
-159.56683 1000.3693 2097.9277 8673587
-147.62152 1003.6719 2104.8538 7752229
-135.51967 1006.4215 2110.6201 7883815
-122.69547 1003.8205 2105.1655 8146987
-110.44965 1005.8981 2109.5225 8213292
-98.086052 1007.2966 2112.4553 9265981
-85.909912 1011.3107 2120.8735 9068602
-73.011696 1006.7441 2111.2966 9068087
-60.383842 1004.7875 2107.1936 9134136
-48.256874 1012.3187 2122.9873 11107170
-35.596157 1010.0157 2118.1577 8804917
-23.113043 1012.9882 2124.3914 8936504
-10.510248 1011.5519 2121.3794 8278316
2.0653765 1014.3021 2127.147 8410158
14.68363 1015.2739 2129.1848 8344109
27.219519 1012.2843 2122.9153 8409902
40.103912 1020.0488 2139.1987 8344110
52.735546 1019.1989 2137.4163 8278574
65.796692 1025.3716 2150.3613 8739125
78.166977 1020.5219 2140.1907 8673332
90.482315 1016.4088 2131.5649 8936504
103.85656 1023.7413 2146.9424 8607540
116.11623 1019.6857 2138.4373 8409904
128.74541 1019.3539 2137.7412 7554852
141.38589 1019.1628 2137.3406 8804917
153.13319 1013.0941 2124.6138 8278572
166.60748 1018.5049 2135.9609 9002295
178.22855 1012.6224 2123.6245 9462846
192.63287 1022.2863 2143.8911 8739124
204.18857 1016.5723 2131.908 8410158
217.0601 1017.6934 2134.259 8936505
229.88985 1018.506 2135.9631 9067834
243.03769 1020.5694 2140.2905 7949610
256.05383 1021.9027 2143.0867 9331262
268.86154 1022.3174 2143.9563 9199676
278.7027 1011.9236 2122.1589 8804918
290.89111 1010.5818 2119.345 9002297
307.3035 1023.4182 2146.2649 9265213
317.94473 1016.7786 2132.3403 9133627
330.58893 1016.8068 2132.3997 8804662
342.55847 1014.8345 2128.2634 8936248
356.27826 1018.0032 2134.9087 9462849
369.45813 1019.4647 2137.9736 9331263
381.92743 1018.9337 2136.8601 8607540
391.8345 1011.8204 2121.9424 8410160
406.46051 1016.9561 2132.7126 9331005
418.60663 1015.7643 2130.2136 8343853
431.75323 1016.9993 2132.8035 8672819
443.20554 1014.2866 2127.1143 8541234
456.06534 1014.8557 2128.3079 8212525
467.49344 1012.294 2122.9358 9594435
479.17136 1010.3934 2118.95 8738869
490.11649 1007.0842 2112.01 8344367
501.77402 1005.3672 2108.4092 8739126
515.99493 1008.7449 2115.4927 9002297
530.88635 1013.242 2124.9238 9067833
540.85828 1008.359 2114.6833 9133625
555.92499 1012.9807 2124.3757 9989192
571.15796 1017.694 2134.2603 9331262
579.23773 1009.7334 2117.5657 8475952
600.96033 1025.3887 2150.397 9199419
604.85266 1010.6024 2119.3879 8673076
612.82581 1003.0974 2103.6489 8344367
627.30872 1006.3345 2110.4377 8607540
639.9939 1006.6177 2111.0315 8475954
650.33551 1003.2745 2104.0203 9397312
660.67365 1000.0517 2097.2617 9067834
675.63898 1003.8228 2105.1704 8739125
691.34894 1008.5435 2115.0703 8541235
698.16345 1000.3505 2097.8882 8935993
709.10321 998.2514 2093.4861 9002042
728.34668 1007.7131 2113.3289 8673077
737.95374 1003.7479 2105.0132 8870456
752.61841 1006.6793 2111.1609 9002042
765.1908 1006.7621 2111.3345 8015403
773.276 1001.0334 2099.3206 8081196
793.44476 1010.881 2119.9724 8212527
804.62677 1009.1506 2116.3435 6830874
815.69421 1007.3318 2112.5293 8212526
831.86188 1011.7714 2121.8396 8409649
831.95471 996.81836 2090.481 9791557
848.36493 1001.5682 2100.4421 8410161
860.37787 1001.0644 2099.3855 8804662
872.13977 1000.287 2097.7551 8673333
882.99402 998.50507 2094.0181 8673077
895.20966 998.29071 2093.5686 8146476
907.15723 997.78735 2092.5129 8278318
921.75739 1000.1758 2097.522 8146988
934.65387 1000.6766 2098.5723 8146989
942.30292 995.62006 2087.9678 8673076
948.44934 989.12726 2074.3516 9133627
962.60193 991.04358 2078.3704 8146732
978.22668 994.40796 2085.4258 8344112
990.34442 994.16779 2084.9221 8410161
997.47162 988.98547 2074.054 8607283
1021.6233 1000.6034 2098.4187 8475441
1032.7443 999.33289 2095.7542 9002041
1037.4705 991.97821 2080.3303 8607284
1045.3218 987.74915 2071.4614 7225632
1062.4697 992.30096 2081.0073 8015147
1082.8118 999.69739 2096.5186 9331007
1087.7227 992.84076 2082.1392 8672819
1101.4814 994.12354 2084.8293 9462336
1113.4056 993.74042 2084.0259 9659458
1117.0953 986.0968 2067.9961 9462335
1119.8112 977.76874 2050.531 8804918
1144.4216 988.53168 2073.1025 9265469
1162.1096 993.15009 2082.7878 8080684
1169.1729 988.68671 2073.4275 7686182
1176.6399 984.65417 2064.9707 9265215
1189.6764 985.31726 2066.3613 9067835
1210.1622 992.07379 2080.5308 8409905
1223.1301 992.59308 2081.6199 8278320
1229.5902 987.87354 2071.7222 7686696
1246.1262 991.26245 2078.8293 7752748
1264.2386 995.82678 2088.4014 8344630
1276.3518 995.6228 2087.9736 8739388
1282.8464 991.08203 2078.4509 5778190
1290.4636 987.48676 2070.9111 8673334
1313.1774 995.40247 2087.5115 8212527
1330.6069 999.20233 2095.4805 8936506
1330.7114 990.04218 2076.2703 8080941
1336.2605 985.0636 2065.8293 9001786
1345.0546 982.54572 2060.5491 8015147
1354.686 980.67944 2056.635 7949098
1375.3799 986.78314 2069.4355 8936249
1381.7006 982.55798 2060.5747 7686183
1387.1332 977.78088 2050.5564 9133372
1399.1934 977.7179 2050.4243 8014891
1411.8506 978.06946 2051.1616 8278319
1439.2754 988.55829 2073.1582 8738870
1451.9392 988.81677 2073.7002 8344112
1452.8466 981.13141 2057.583 8607029
1472.5496 986.16156 2068.1318 9331263
1498.0566 994.9635 2086.5911 9265469
1518.8013 1000.4843 2098.1687 8804919
1514.9648 989.85437 2075.8762 7751720
1523.9608 987.71259 2071.3848 8278064
1535.3141 987.12079 2070.1436 7949356
1545.514 985.8028 2067.3794 7752235
1571.8657 994.72668 2086.0942 7686444
1583.0776 994.00519 2084.5813 8147763
1585.0546 987.54114 2071.0251 8279091
1614.3511 998.06665 2093.0989 8147249
1610.9221 988.35364 2072.729 8146734
1627.2617 990.82452 2077.9109 8015406
1642.1335 992.37109 2081.1543 7554599
1654.5779 992.43878 2081.2961 6502167
1680.6168 1000.5992 2098.4099 6765852
1686.626 996.80206 2090.4468 7620649
1698.4419 996.46729 2089.7446 8542522
1712.8723 997.65997 2092.2458 8871229
1703.0956 984.83759 2065.3552 8476727
1746.177 1002.5458 2102.4922 8608314
1754.9445 1000.442 2098.0801 8608057
1756.1187 994.06934 2084.7158 8015922
1770.8719 995.41876 2087.5457 8213558
1787.7162 997.9165 2092.7839 8542522
1803.8787 1000.002 2097.1575 8213558
1811.7223 997.4787 2091.8657 7555628
1824.3069 997.58228 2092.083 8410937
1821.6825 989.42395 2074.9736 7686187
1827.5671 985.96564 2067.7209 7554601
1832.1876 981.87579 2059.144 7620651
1844.3765 981.86914 2059.1301 8739132
1852.6968 979.81683 2054.8259 7554858
1851.2175 972.64233 2039.78 8673339
1879.984 981.34924 2058.0398 8344374
1891.213 980.84851 2056.9895 8607289
1919.0286 988.90118 2073.8774 8015152
1935.8811 991.2381 2078.7783 7554601
1959.3214 996.89746 2090.6467 7949359
1950.5895 986.21912 2068.2527 8475960
1978.0859 993.87708 2084.3125 7949359
1985.137 991.2309 2078.7632 7686444
0 0 0 0
0 0 0 0
0 0 0 0
0 0 0 0
0 0 0 0
0 0 0 0
0 0 0 0
0 0 0 0
0 0 0 0
0 0 0 0
-1868.4784 1029.729 2132.9941 1641478
-1867.7125 1036.317 2146.6404 1772807
-1852.121 1034.7125 2143.3169 1707271
-1839.2239 1034.6018 2143.0874 1575685
-1823.1763 1032.7047 2139.158 1575685
-1813.8707 1034.627 2143.1396 1707014
-1792.6729 1029.745 2133.0271 1509892
-1778.5708 1028.8987 2131.2739 1575685
-1765.9573 1028.9075 2131.2922 1509892
-1747.348 1025.3978 2124.0225 1641479
-1728.0522 1021.4316 2115.8066 1838857
-1721.9447 1025.2598 2123.7363 2036236
-1703.2402 1021.5887 2116.1321 2036236
-1690.5717 1021.5104 2115.97 1904650
-1675.2097 1019.7913 2112.4089 2167822
-1661.5941 1019.1174 2111.0129 1773064
-1647.4414 1018.1015 2108.9084 1904650
-1633.9406 1017.4758 2107.6125 1707271
-1622.3344 1018.0295 2108.7593 1378306
-1610.7603 1018.6119 2109.9658 1575172
-1596.2216 1017.3141 2107.2776 1706758
-1581.9624 1016.1755 2104.9189 1640708
-1579.0205 1022.346 2117.7007 1706758
-1563.7642 1020.5787 2114.0398 1706758
-1547.6537 1018.2207 2109.1555 1575172
-1537.8872 1020.0322 2112.9077 1772549
-1521.7672 1017.6247 2107.9209 1969671
-1509.9613 1018.0861 2108.8767 1904135
-1496.817 1017.6453 2107.9636 1640963
-1483.0238 1016.7523 2106.1138 1772292
-1463.7059 1012.0242 2096.3198 1706499
-1457.7885 1016.5597 2105.7148 1640706
-1446.1909 1017.1783 2106.9963 1575170
-1432.7396 1016.4926 2105.5759 1706756
-1422.2559 1017.9187 2108.53 2101514
-1409.762 1017.9187 2108.53 1838342
-1396.2684 1017.1904 2107.0215 1969928
-1384.9111 1018.0195 2108.7385 1904135
-1372.7933 1018.2993 2109.3184 1772292
-1360.9954 1018.8239 2110.4048 1904135
-1349.3779 1019.4943 2111.7937 2035721
-1336.8646 1019.4943 2111.7937 1904135
-1320.9927 1016.9087 2106.4377 2035721
-1308.3804 1016.8071 2106.2273 2233100
-1297.5945 1018.1365 2108.981 1904135
-1284.3743 1017.5632 2107.7935 1904135
-1267.3186 1013.91 2100.2263 1706756
-1257.7233 1016.2122 2104.9951 1904135
-1247.9305 1018.3995 2109.5259 2167307
-1234.5371 1017.6629 2108 1969928
-1220.0037 1015.9618 2104.4763 1838342
-1204.2605 1013.2078 2098.7717 1969928
-1199.8324 1020.0157 2112.8735 1838342
-1181.6599 1015.1592 2102.814 1904135
-1166.7761 1013.0548 2098.4548 2101000
-1160.1667 1018.1667 2109.0437 2101000
-1145.0365 1015.8305 2104.2043 2035207
-1135.6661 1018.609 2109.96 2101000
-1122.5629 1018.0641 2108.8313 2298378
-1108.7861 1016.8893 2106.3975 2166793
-1095.6735 1016.3036 2105.1843 2101000
-1082.2971 1015.457 2103.4307 2101000
-1072.1946 1017.6981 2108.073 2101000
-1060.9138 1018.8606 2110.481 1903621
-1044.1801 1014.7514 2101.9692 1772549
-1031.6686 1014.6959 2101.854 1838085
-1017.1407 1012.6316 2097.5781 1838342
-1008.2004 1016.1478 2104.8616 1904135
-996.10492 1016.5321 2105.6577 1838342
-983.46326 1016.3618 2105.3049 1969928
-973.66858 1019.1671 2111.116 1706756
-957.54407 1015.3337 2103.1753 1443585
-946.93091 1017.3202 2107.29 1772035
-934.68915 1017.5866 2107.842 2035207
-924.93091 1020.6007 2114.0854 1903621
-909.21161 1017.0296 2106.6882 1903621
-895.94977 1016.1464 2104.8586 2298379
-885.13104 1018.048 2108.7976 2101000
-868.99115 1013.7963 2099.9907 2232329
-858.17627 1015.7238 2103.9832 2232586
-846.13177 1016.231 2105.0339 2166793
-829.05151 1010.615 2093.4009 1969414
-820.21063 1015.0246 2102.5352 1969414
-809.55713 1017.2927 2107.2332 2166793
-793.67877 1012.9633 2098.2651 1706242
-776.81989 1007.2247 2086.3784 1837828
-768.01263 1011.9092 2096.0818 2495757
-754.51953 1010.4722 2093.1052 2298379
-743.14435 1011.871 2096.0027 1574401
-731.336 1012.7176 2097.7563 2035207
-719.45367 1013.4891 2099.3545 2298378
-705.73047 1011.649 2095.5427 2232585
-693.48895 1011.905 2096.073 2495500
-682.03259 1013.3369 2099.0391 2232585
-668.50067 1011.6807 2095.6086 2363658
-656.1488 1011.7817 2095.8176 2166279
-642.79846 1010.3172 2092.7839 2232072
-630.41614 1010.3465 2092.8447 2100486
-620.02863 1013.6382 2099.6631 2100486
-605.04541 1009.3975 2090.8789 2100229
-595.30731 1013.913 2100.2324 2166279
-578.77545 1006.8032 2085.5051 2166280
-570.53278 1014.1171 2100.6553 2100485
-557.86951 1013.7247 2099.8423 2429193
-543.87439 1010.8387 2093.8643 2823951
-531.10132 1010.1425 2092.4221 2100227
-520.40533 1013.4579 2099.2898 2363142
-506.67993 1010.8915 2093.9739 2297351
-493.3345 1008.9736 2090.001 1968644
-480.73654 1008.5249 2089.0715 1968644
-468.22717 1008.2433 2088.4883 2231813
-455.73019 1007.9738 2087.9299 2297606
-443.38104 1008.0255 2088.0369 2166020
-431.15796 1008.3748 2088.7605 2692107
-416.13388 1002.0003 2075.5564 2231044
-406.36432 1008.2752 2088.5542 2362372
-394.09134 1008.5375 2089.0977 2296579
-383.07053 1012.1254 2096.5295 2428422
-366.22925 1000.0598 2071.5369 2494215
-355.91397 1005.5959 2083.0044 2296837
-344.13965 1007.2593 2086.45 2165250
-331.56653 1006.6216 2085.1289 2625801
-318.22168 1003.5009 2078.6646 2691338
-307.02161 1007.1646 2086.2537 2493956
-295.27536 1009.269 2090.6128 2624257
-283.42111 1011.1722 2094.5552 3149573
-271.76028 1013.9715 2100.3535 4201740
-259.59845 1015.0804 2102.6506 4990738
-245.44894 1008.1372 2088.2683 6898469
-233.41324 1009.5997 2091.2979 7555627
-221.23746 1010.5863 2093.3416 7095073
-209.31717 1012.9266 2098.1892 8410161
-195.39917 1005.2845 2082.3594 8213039
-181.87764 998.78967 2068.9058 8213037
-169.82492 1000.0049 2071.4231 9792071
-159.08038 1009.7128 2091.532 6831899
-146.95197 1011.5352 2095.3071 9792324
-134.55701 1011.6898 2095.6274 8937016
-122.08399 1011.2295 2094.6738 8213292
-109.85035 1012.872 2098.0762 8476464
-97.485252 1013.5671 2099.5159 8871222
-84.74704 1010.0186 2092.1655 8739637
-72.122467 1006.8405 2085.5825 9002808
-59.870296 1008.6221 2089.2727 8739383
-47.297527 1004.5233 2080.7825 9397312
-35.296288 1013.9523 2100.314 9068348
-22.830109 1013.0215 2098.386 9528899
-10.379425 1011.3745 2094.9741 8673330
2.0370622 1012.8285 2097.9861 8475952
14.461022 1012.307 2096.9058 8344622
26.99325 1016.3441 2105.2681 8936761
39.592487 1019.5547 2111.9187 9792070
51.798759 1013.534 2099.4475 8870966
64.756958 1021.7089 2116.3809 9265211
77.260277 1021.2186 2115.3655 8607537
89.630211 1019.3483 2111.4912 9133882
102.35297 1021.4573 2115.8599 10121033
114.32066 1016.3929 2105.3694 8476208
126.18136 1011.4673 2095.1665 9068091
137.69818 1004.9147 2081.5933 8804918
150.88692 1010.6378 2093.4482 8805175
164.28387 1016.7802 2106.1716 8410160
177.07185 1018.5522 2109.8423 9133626
189.81142 1019.8305 2112.49 8936505
202.5632 1021.0121 2114.9377 9265213
215.1799 1021.4148 2115.7717 9067834
227.22679 1019.2174 2111.22 8410160
239.77135 1019.3651 2111.5259 8541491
251.99228 1018.1904 2109.0928 8344111
264.40912 1017.881 2108.4519 8870711
276.90536 1017.8913 2108.4731 8739126
289.63153 1018.7095 2110.168 9002298
301.4921 1016.5414 2105.677 10054730
314.64481 1018.7293 2110.209 8738614
324.62 1010.8552 2093.8984 7356961
339.04553 1016.9088 2106.438 8870455
352.37732 1019.3686 2111.5332 8804918
364.71109 1018.8715 2110.5037 9199420
377.32996 1019.1775 2111.1375 8673332
389.1702 1017.4283 2107.5142 9923399
400.45456 1014.3797 2101.1992 8278573
413.48483 1015.8042 2104.1499 9265468
427.13943 1018.634 2110.0117 9331004
438.75339 1016.575 2105.7466 9462333
449.47852 1012.6273 2097.5693 8212780
464.50375 1018.3192 2109.3594 8475695
475.07126 1014.1961 2100.8188 9331261
484.31519 1007.5303 2087.0112 9265213
497.13791 1008.4559 2088.9287 8936503
510.89902 1011.194 2094.6001 8146989
524.73438 1013.9456 2100.2998 8081195
536.20142 1012.0994 2096.4758 9133884
549.42163 1013.571 2099.5242 8738867
566.63715 1022.185 2117.3672 9002295
573.66125 1012.439 2097.1792 8936246
587.2149 1014.386 2101.2122 8541745
596.06989 1008.3038 2088.6135 8870712
604.68976 1002.0794 2075.7202 8344368
620.81555 1008.2939 2088.593 8739126
633.24371 1008.3773 2088.7659 11107674
644.73468 1006.9938 2085.8999 9068090
648.90833 994.44855 2059.9136 8673076
663.61444 998.20953 2067.7041 9199677
685.99261 1013.1652 2098.6836 8278318
688.27338 998.43445 2068.1699 8673077
698.81604 995.9942 2063.1152 8475442
711.29175 996.34564 2063.8433 8146734
724.73572 998.01874 2067.3088 8146734
736.24915 997.02167 2065.2437 8804407
747.20459 995.31415 2061.7065 8146477
762.30499 999.09381 2069.5359 8409906
780.7027 1007.0071 2085.9275 7949354
798.56464 1013.9932 2100.3987 7949354
804.40613 1005.7362 2083.2949 7817512
808.20886 995.21802 2061.5076 8607028
816.81866 990.84442 2052.448 8278064
839.14954 1002.9995 2077.626 8409905
841.89532 991.73206 2054.2866 8278320
858.44525 996.81512 2064.8157 8607283
876.49152 1003.4684 2078.5974 8738869
887.22675 1001.6831 2074.8994 8344367
894.89935 996.53625 2064.238 8344368
910.20111 999.90918 2071.2249 8804662
918.62164 995.73346 2062.5752 8015146
930.98102 995.88092 2062.8806 8212782
937.46362 989.81946 2050.3247 10054986
945.55078 985.58563 2041.5548 7949354
967.34497 995.56567 2062.2275 8410161
981.21326 997.24139 2065.6987 8541746
990.68329 994.46069 2059.9387 8739125
1000.5722 992.16321 2055.1797 8146220
1019.0736 998.35834 2068.0122 7818025
1038.0773 1004.8923 2081.5469 7817769
1034.7693 989.92822 2050.55 7752232
1048.4637 991.38831 2053.5745 7094815
1053.425 984.65186 2039.6205 8015661
1074.4203 992.88538 2056.6755 8739384
1088.6936 994.79218 2060.6252 8870200
1095.5573 989.96112 2050.6182 8870456
1107.8424 990.08118 2050.8669 8475442
1116.4033 986.90649 2044.2908 8409647
1134.1382 991.82263 2054.4741 8014891
1142.5077 988.53125 2047.6564 8409649
1164.8334 997.25751 2065.7319 8212270
1173.4193 994.16138 2059.3186 7291168
1178.624 988.29376 2047.1644 7291424
1191.9331 989.27216 2049.1912 7883562
1202.8259 988.24548 2047.0646 8014891
1222.1998 994.13794 2059.2703 8212270
1227.6866 988.72992 2048.0679 8344112
1236.9557 986.44385 2043.3324 8278832
1249.1653 986.52435 2043.4994 8212784
1269.3173 992.81567 2056.5312 8344628
1277.4496 989.67542 2050.0264 7226146
1281.8932 983.76331 2037.78 8015918
1293.6531 983.52405 2037.2844 9002556
1321.2585 995.22473 2061.5212 7686696
1327.7489 990.95197 2052.6707 8080684
1333.2333 986.01276 2042.4396 8607285
1347.7423 987.77667 2046.0934 7883562
1340.5079 973.71521 2016.9663 8146223
1372.1338 987.88007 2046.3075 5054215
1385.0812 988.46686 2047.5229 7554598
1389.1648 982.77264 2035.728 7422754
1388.9164 974.13812 2017.8424 9594178
1403.2532 975.79346 2021.2711 8541747
1427.365 984.1604 2038.6025 8475954
1437.9572 983.14349 2036.4961 8278319
1454.7034 986.31598 2043.0676 8607285
1469.709 988.26581 2047.1064 9067578
1482.9786 989.02582 2048.6809 8344113
1482.5623 980.72034 2031.4767 8607028
1519.1443 996.82593 2064.8381 8804663
1514.6879 985.961 2042.3323 7818028
1540.3137 994.69458 2060.4231 8147249
1547.7426 991.63196 2054.0793 7489322
1559.1566 991.15063 2053.0823 7949616
1574.621 993.23163 2057.3928 7949360
1591.8336 996.37488 2063.9038 7686701
1594.9818 990.73401 2052.2192 7621419
1613.655 994.74902 2060.5359 7489833
1621.9918 992.37958 2055.6279 8147763
1641.4965 996.82727 2064.8408 8345142
1652.0206 995.79602 2062.7048 7621419
1662.4807 994.74158 2060.5205 8542522
1680.4595 998.16852 2067.6191 8015923
1687.6534 995.1861 2061.4414 7818543
1704.6742 997.99976 2067.2695 7818800
1718.5179 998.92651 2069.1892 6766112
1718.7688 991.99487 2054.8311 7621163
1732.9707 993.15619 2057.2366 9923921
1746.7219 994.04462 2059.0769 8345144
1757.0873 993.00732 2056.9282 7357991
1770.1941 993.52301 2057.9963 8476473
1773.0928 988.34131 2047.2629 8871233
1803.0665 998.2196 2067.7251 5121288
1810.1912 995.40009 2061.8845 8673855
1802.4235 984.48419 2039.2732 7554603
1813.9573 984.18597 2038.6555 7357479
1806.0105 973.39209 2016.297 7423271
1817.4811 973.13684 2015.7682 7554858
1836.9623 977.14594 2024.0728 8607801
1853.1464 979.36072 2028.6604 8409910
1852.7319 972.8313 2015.1354 8541752
1877.0387 979.28296 2028.4994 7817773
1901.1747 985.56415 2041.5103 7620650
1926.8428 992.55505 2055.9912 7883822
1946.7002 996.48358 2064.1289 8409910
1956.3347 995.16278 2061.3931 8080945
1967.6914 994.72919 2060.4949 8344117
0 0 0 0
0 0 0 0
0 0 0 0
0 0 0 0
0 0 0 0
0 0 0 0
0 0 0 0
0 0 0 0
0 0 0 0
0 0 0 0
-1851.0876 1032.6663 2113.1416 1773064
-1846.8544 1037.3214 2122.6672 1444099
-1831.6552 1035.8387 2119.6335 1509892
-1807.1119 1029.015 2105.6702 1444099
-1798.3201 1031.1281 2109.9939 1641478
-1781.2002 1028.4619 2104.5383 1641478
-1765.0675 1026.3324 2100.1807 1641478
-1751.6407 1025.7571 2099.0034 1707271
-1737.6638 1024.8491 2097.1455 1575685
-1721.4886 1022.6223 2092.5886 1707271
-1714.2271 1025.6964 2098.8792 1772807
-1699.4817 1024.3051 2096.032 1838857
-1681.6853 1021.0406 2089.3521 1773064
-1667.0933 1019.6877 2086.5837 1773064
-1650.0851 1016.8257 2080.7273 1773064
-1639.9813 1018.2075 2083.5547 1641478
-1629.7417 1019.5251 2086.2507 1773064
-1613.1993 1016.8898 2080.8584 1509635
-1603.6444 1018.6525 2084.4653 1378306
-1594.6202 1020.7825 2088.8237 1443586
-1577.7073 1017.8561 2082.8357 1772551
-1562.6206 1016.0712 2079.1831 1838344
-1554.2957 1018.6895 2084.541 1969673
-1538.2603 1016.256 2079.5613 1904137
-1524.7297 1015.4512 2077.9146 1838345
-1513.2958 1016.0411 2079.1216 1838342
-1497.8325 1013.9131 2074.7671 1640963
-1489.7542 1016.7902 2080.6545 1575170
-1473.3909 1014.0136 2074.9727 1903878
-1460.1921 1013.3864 2073.6892 1838342
-1448.6365 1013.8985 2074.7373 1904135
-1437.8602 1014.9697 2076.9292 1904135
-1423.7716 1013.7009 2074.333 1904135
-1411.9655 1014.0493 2075.0459 1838085
-1392.2197 1008.6517 2064.0007 1838342
-1388.2692 1014.7032 2076.384 1969928
-1377.766 1016.0308 2079.1006 1969671
-1364.3525 1015.2169 2077.4351 1969928
-1352.8431 1015.8178 2078.6646 2035721
-1340.4426 1015.7544 2078.5349 1904135
-1327.9148 1015.5925 2078.2036 2035464
-1313.9668 1014.3312 2075.6228 1969928
-1300.0707 1013.0867 2073.0759 1575171
-1287.8873 1013.1656 2073.2375 1838342
-1278.2549 1015.2723 2077.5483 1772549
-1264.665 1014.2461 2075.4485 1772549
-1253.7048 1015.3294 2077.6653 1575170
-1242.0156 1015.8381 2078.7061 1706756
-1230.4738 1016.4785 2080.0166 1969928
-1216.8435 1015.3893 2077.7878 1838342
-1202.9918 1014.0911 2075.1313 1838342
-1189.116 1012.7455 2072.3779 1838342
-1176.157 1012.161 2071.1816 1904135
-1162.7213 1011.1496 2069.1121 1640963
-1151.3589 1011.9387 2070.7268 1837828
-1143.8621 1016.1789 2079.4036 1706243
-1129.3555 1014.2164 2075.3877 1837828
-1119.0596 1016.0338 2079.1067 2166793
-1099.8701 1009.7269 2066.2009 2298379
-1089.809 1011.7525 2070.3459 1969414
-1081.1133 1015.1064 2077.209 2034950
-1067.7435 1014.0983 2075.146 2232329
-1051.4626 1010.2696 2067.3113 1903621
-1044.5261 1015.4348 2077.8809 1838085
-1029.6046 1012.868 2072.6284 1969928
-1017.5844 1013.1277 2073.1599 1772549
-1008.5699 1016.423 2079.9031 1706756
-998.10638 1018.3215 2083.7878 1706756
-983.00006 1015.4713 2077.9556 1838085
-971.33478 1016.1486 2079.3416 1969928
-959.12732 1016.2689 2079.5876 1772549
-946.35626 1015.7872 2078.6021 1904135
-937.3689 1019.4078 2086.0107 2035207
-923.45691 1017.6979 2082.512 1837828
-911.39258 1018.0055 2083.1414 2232586
-897.17517 1015.8836 2078.7993 1837828
-883.29926 1014.0947 2075.1387 1903621
-872.03003 1015.2902 2077.585 1903621
-860.42505 1016.1234 2079.29 1903621
-849.81177 1018.1689 2083.4758 2035207
-833.87872 1013.8073 2074.5505 1903364
-819.04297 1010.669 2068.1287 2232586
-807.88379 1012.0412 2070.9365 1969414
-798.87128 1016.1862 2079.4185 1640450
-784.37921 1013.3817 2073.6797 2035207
-771.20349 1012.2158 2071.2939 2101000
-755.84033 1008.0947 2062.8608 1969414
-743.94678 1008.5417 2063.7756 2035207
-733.5025 1011.0012 2068.8083 2035207
-719.85938 1009.0604 2064.8369 2100743
-708.76172 1010.6821 2068.1555 2101000
-695.52875 1009.2625 2065.2505 2035206
-684.68683 1011.3237 2069.4685 2429964
-676.05835 1016.7892 2080.6523 2627087
-661.15466 1012.8444 2072.5803 2429451
-647.37091 1010.4987 2067.78 2429451
-634.36865 1009.3057 2065.3389 2100229
-623.6601 1011.7867 2070.416 2166022
-610.51178 1010.3301 2067.4353 2100486
-598.86414 1011.348 2069.5181 2166279
-585.78271 1009.9365 2066.6296 2363658
-573.27264 1009.4708 2065.6768 2232072
-561.79364 1010.84 2068.4785 2100485
-549.31213 1010.4262 2067.6318 2166533
-536.77826 1009.8951 2066.5452 2363911
-522.8244 1006.6051 2059.8127 2100483
-512.54724 1010.4061 2067.5906 2297606
-499.10953 1008.0099 2062.6875 2231815
-486.37759 1006.9548 2060.5283 2034436
-474.05212 1006.7084 2060.0242 2165765
-461.2019 1005.3052 2057.1528 2231558
-448.73993 1004.695 2055.9041 2166021
-435.84396 1003.0521 2052.5422 2363400
-423.42276 1002.4387 2051.2871 2166019
-413.06955 1006.8298 2060.2725 2231812
-399.26669 1002.8239 2052.0752 2034435
-390.28494 1011.0556 2068.9199 1968385
-375.69058 1004.81 2056.1394 2889230
-364.01462 1006.2128 2059.01 2823179
-352.00659 1006.7632 2060.1362 2428422
-340.22882 1008.0353 2062.7395 2494215
-327.7551 1007.2635 2061.1599 2428165
-315.27625 1006.4154 2059.4246 2494215
-303.5014 1007.8369 2062.3335 2362116
-290.56833 1005.3703 2057.2859 2624771
-279.56015 1009.6393 2066.0215 2886915
-268.03854 1012.3602 2071.5894 3412228
-256.35449 1014.6992 2076.3757 4859154
-244.23441 1015.4612 2077.9351 5385237
-226.66994 992.46619 2030.8802 7424555
-216.8909 1002.892 2052.2146 8082224
-205.20071 1005.1943 2056.9258 7752233
-193.83429 1009.4736 2065.6826 7884073
-180.54031 1003.6146 2053.6934 8081453
-168.98256 1007.2578 2061.1484 8871223
-156.56 1005.9123 2058.395 7029016
-146.11351 1018.1083 2083.3518 8279085
-133.2851 1014.4268 2075.8184 7884327
-120.40004 1009.5219 2065.7812 8673844
-109.02244 1017.5766 2082.2637 8608050
-95.506416 1005.1808 2056.8982 8607794
-83.508057 1007.4681 2061.5786 8937016
-71.580284 1011.5366 2069.9041 8937016
-59.599537 1016.3843 2079.824 8870712
-47.213371 1015.0434 2077.0801 9528898
-34.524353 1003.9501 2054.3796 8673590
-22.413647 1006.7493 2060.1077 9199934
-10.226997 1008.7531 2064.2083 9002041
2.0052152 1009.2313 2065.1865 9265470
14.198025 1006.0955 2058.77 9068348
26.499235 1009.9896 2066.7385 8542003
38.826794 1012.1091 2071.0754 9397311
50.865406 1007.4872 2061.6179 8344624
63.713562 1017.585 2082.2808 9134138
76.05191 1017.585 2082.2808 9463359
87.669128 1009.283 2065.2925 8870710
100.74976 1017.7986 2082.718 7291420
112.16949 1009.5079 2065.7527 8804659
123.39328 1001.2586 2048.8723 8344366
135.78714 1003.131 2052.7039 8673075
148.49857 1006.8489 2060.3115 8673074
160.67987 1006.6805 2059.967 8738867
174.34 1015.1469 2077.2917 8673074
185.39217 1008.3124 2063.3064 8870712
198.89087 1014.8065 2076.5952 8804662
211.94234 1018.395 2083.9382 8804919
222.93222 1012.2277 2071.3181 8738869
234.54546 1009.3865 2065.5044 8673076
250.03223 1022.6707 2092.6877 9068090
259.37988 1010.776 2068.3477 9923399
274.70303 1022.1899 2091.7039 8212782
285.53842 1016.64 2080.3469 8410161
299.14731 1021.0154 2089.3005 8409904
309.44025 1014.1754 2075.3037 9002042
320.16217 1009.2104 2065.144 8212525
331.4747 1006.4042 2059.4016 8607283
346.79218 1015.525 2078.0657 8541490
362.40582 1024.858 2097.1636 9068091
372.08514 1017.3467 2081.7932 8870455
384.79251 1018.3309 2083.8071 8541490
398.01132 1020.5652 2088.3794 9462589
410.33511 1020.4393 2088.1216 8673330
417.87817 1008.7796 2064.2625 8212780
432.12064 1013.496 2073.9136 8804917
443.13736 1010.595 2067.9773 9989193
459.18442 1019.0134 2085.2036 8541745
467.73251 1010.7851 2068.3662 8541745
477.98788 1006.5723 2059.7456 9923400
492.79495 1011.9157 2070.6799 9265214
502.19598 1006.1685 2058.9192 8607540
519.12701 1015.4227 2077.856 8739127
530.0415 1012.7521 2072.3914 8146477
545.17139 1018.0746 2083.2827 8344112
554.7735 1013.0671 2073.0359 8804406
568.00372 1014.7582 2076.4966 9462848
581.07703 1016.1034 2079.249 9462847
588.50262 1007.7219 2062.0979 9528385
600.78168 1007.8231 2062.3049 9068091
612.42163 1006.8693 2060.3535 9265470
620.46918 1000.1622 2046.6288 9002041
633.93591 1002.2803 2050.9629 8541491
644.55969 999.90845 2046.1094 8212269
659.80188 1004.6563 2055.825 8212269
667.65076 998.17859 2042.5696 7817511
682.58905 1002.342 2051.0891 8541235
695.23358 1003.0504 2052.5388 7751719
706.2699 1001.454 2049.2722 8935993
717.57855 1000.2914 2046.8929 8936250
730.24341 1001.0263 2048.397 8278575
741.89423 1000.3701 2047.0541 9331007
754.84943 1001.4653 2049.2952 8673078
766.87225 1001.3085 2048.9744 9462593
776.25531 997.76367 2041.7205 8015146
792.99304 1003.6359 2053.7368 8080940
802.61224 1000.4572 2047.2323 8870200
810.6778 995.46545 2037.0177 8672821
817.7771 989.45105 2024.7104 8738614
833.84308 994.30286 2034.6387 8015147
842.21179 989.96863 2025.7695 9265470
853.26227 988.86414 2023.5095 8870711
874.39142 999.30878 2044.8823 8212270
887.01459 999.87964 2046.0504 8739126
897.45575 998.00861 2042.2218 8804919
909.04132 997.44312 2041.0646 8607539
914.09326 989.8175 2025.4603 8673333
921.77234 985.19757 2016.0065 9002298
940.15338 991.98767 2029.9011 8278575
949.39172 989.08148 2023.9541 8541747
968.77521 996.68512 2039.5135 8607539
982.95923 998.81799 2043.8781 8278575
990.8172 994.54932 2035.1429 8804150
1002.5118 994.18768 2034.4031 8015146
1015.653 995.2525 2036.5819 7488803
1027.5565 995.09363 2036.2568 8607284
1029.6287 985.52814 2016.683 7949098
1040.9934 984.97479 2015.5507 8212270
1062.1957 993.63654 2033.2751 8146477
1059.9093 980.37781 2006.1438 8344112
1077.6383 985.72119 2017.078 8673333
1087.4882 983.81952 2013.1866 8278062
1103.2061 987.21002 2020.1246 8277805
1119.8868 991.38025 2028.6581 8212268
1121.9059 982.62036 2010.7329 7883048
1143.0835 990.64825 2027.1603 5843465
1145.1339 982.10504 2009.6783 7027229
1160.4126 984.96606 2015.5328 7883304
1181.9607 993.03595 2032.0463 8278063
1191.8287 991.22913 2028.3489 8015148
1207.8735 994.54395 2035.1321 7949868
