# .PCD v0.7 - Point Cloud Data file format
VERSION 0.7
FIELDS x y z rgb
SIZE 4 4 4 4
TYPE F F F U
COUNT 1 1 1 1
WIDTH 1301
HEIGHT 1
VIEWPOINT 0 0 0 1 0 0 0
POINTS 1301
DATA ascii
-2807.2908 1500.1943 5333.1025 1280
-2730.7097 1475.8837 5246.6792 1280
-2694.5173 1473.0934 5236.7603 1280
-2538.3164 1403.8651 4990.6577 1280
-2477.6572 1386.469 4928.8154 1280
-2446.937 1385.6111 4925.7656 1536
-2394.3677 1372.2107 4878.1279 1280
-2369.6089 1374.6158 4886.6782 1280
-2330.1648 1368.4562 4864.7812 1280
-2298.5276 1366.7844 4858.8379 1280
-2273.6433 1369.1367 4867.2002 1280
-2245.3635 1369.4784 4868.415 1280
-2238.4717 1383.0437 4916.6387 1280
-2296.3315 1437.501 5110.2314 1280
-2271.4543 1440.9287 5122.4165 1280
-2275.4409 1463.0071 5200.9038 1280
-2371.4077 1545.6427 5494.6689 1280
-2372.9812 1568.1989 5574.8545 1280
-2350.7336 1575.4275 5600.5513 1280
-2329.1497 1583.314 5628.5874 1024
-2218.054 1529.6971 5437.9829 1280
-2184.6462 1528.8673 5435.0332 1280
-2194.8118 1558.9628 5542.021 1280
-2159.6292 1557.2727 5536.0127 1280
-1943.4307 1422.9896 5058.644 1280
-1925.0011 1431.5753 5089.166 1280
-1838.0294 1388.65 4936.5688 1280
-1808.6821 1388.5763 4936.3066 1024
-1769.6573 1380.9481 4909.189 1024
-1742.3723 1382.3794 4914.2769 1024
-1694.2126 1367.016 4859.6611 768
-1685.8229 1383.7655 4919.2046 197120
-1653.1613 1380.8309 4908.7725 196864
-1611.7028 1370.3119 4871.3779 196864
-1592.5645 1378.7324 4901.3125 1183753
-1577.7196 1391.2518 4945.8184 3025955
-1560.0608 1401.7169 4983.021 3223849
-1532.7313 1403.7289 4990.1733 3158313
-1503.8217 1404.3444 4992.3613 3026729
-1467.3318 1397.7638 4968.9678 2895143
-1431.8156 1391.8601 4947.9805 2631972
-1398.8223 1388.2135 4935.0171 2566179
-1371.1376 1389.7919 4940.6284 2500386
-1340.7789 1388.6698 4936.6392 2303007
-1308.0868 1385.0269 4923.689 2236960
-1288.7281 1395.6575 4961.48 2236960
-1263.674 1400.4724 4978.5967 2434339
-1234.6156 1400.9739 4980.3794 2368546
-1203.2573 1398.8259 4972.7437 2302753
-1171.863 1396.5275 4964.5728 2434339
-1139.1479 1392.4958 4950.2407 2434339
-1113.8 1397.495 4968.0122 2565925
-1088.3842 1402.6779 4986.437 2500132
-1059.0626 1402.9761 4987.4971 2434339
-1030.1918 1403.9056 4990.8018 2368546
-1001.2623 1404.8079 4994.0093 2302753
-971.58368 1404.6818 4993.561 2434339
-942.34058 1405.1974 4995.394 2171167
-913.23724 1405.9617 4998.1108 2171166
-883.06158 1405.0708 4994.9438 2236960
-852.6073 1403.6597 4989.9272 2434339
-819.33563 1397.342 4967.4683 2631972
-787.11658 1392.4155 4949.9551 2829351
-749.09778 1376.4509 4893.2021 2895144
-718.07288 1372.5695 4879.4033 2763558
-687.88202 1370.0232 4870.3516 2763558
-657.74939 1367.375 4860.9375 2829351
-627.09027 1363.3397 4846.5923 2763558
-597.90845 1362.283 4842.8354 2895144
-570.01343 1364.1993 4849.6479 2697764
-540.3075 1361.755 4840.9585 2829350
-512.96057 1365.3156 4853.6162 2829350
-484.11035 1365.0601 4852.708 2763557
-460.05664 1379.1512 4902.8013 2697764
-429.79062 1375.2635 4888.981 2763557
-401.53568 1377.7141 4897.6924 2697764
-373.01538 1379.5652 4904.2729 2763558
-343.4523 1377.5465 4897.0967 2960937
-315.50555 1382.2366 4913.7695 3158316
-286.69513 1383.7117 4919.0132 2829351
-258.16541 1387.0288 4930.8057 2631972
-227.60347 1378.8807 4901.8398 2631972
-198.18304 1376.2762 4892.5811 2631972
-169.14888 1375.9211 4891.3184 2697765
-139.97415 1374.0393 4884.6289 2763047
-111.46634 1379.4297 4903.791 2763304
-82.231422 1376.4506 4893.2002 2829097
-53.28017 1377.5603 4897.1455 2894890
-24.218111 1375.0332 4888.1621 2894890
4.7777915 1384.1816 4920.6841 2763304
33.941277 1384.4449 4921.6201 2763304
62.841118 1378.6808 4901.1289 2763304
91.857147 1378.3038 4899.7886 2763304
120.56492 1374.5934 4886.5981 2829097
148.9493 1369.3469 4867.9473 2697511
177.33577 1365.8187 4855.4053 2763304
205.8813 1364.3297 4850.1118 2828840
235.47298 1369.2891 4867.7417 2828840
263.8287 1366.7632 4858.7622 2763047
292.44827 1365.9664 4855.9302 2697254
321.5217 1367.2424 4860.4663 2565668
352.70062 1376.5261 4893.4692 2499875
379.92059 1370.1221 4870.7031 2499875
409.07837 1371.1172 4874.2407 2499875
436.44925 1366.3868 4857.4248 2631459
464.50848 1364.2635 4849.8765 2499873
494.62265 1368.0714 4863.4131 2697252
524.07202 1369.7224 4869.2822 2763045
551.28314 1365.6562 4854.8276 2828838
580.20197 1366.0143 4856.1001 2763045
615.14282 1379.8467 4905.2734 2828838
645.90802 1383.4867 4918.2139 2828838
684.5766 1403.0103 4987.6187 2697509
708.78479 1392.5083 4950.2852 2565666
735.00372 1386.6345 4929.4038 2499873
757.73474 1374.8811 4887.6211 2697252
786.48169 1374.5068 4886.2905 2763045
815.5061 1374.6267 4886.7168 2763045
844.67352 1374.9713 4887.9419 2697252
880.51178 1385.792 4926.4087 2828838
903.32849 1376.0817 4891.8892 2828838
932.492 1376.3433 4892.8188 2960424
956.51593 1369.2316 4867.5371 3026217
983.97931 1367.3157 4860.7266 2960424
1014.0938 1369.0879 4867.0269 3026217
1045.4208 1372.3538 4878.6367 2960424
1071.6714 1368.9595 4866.5698 2828838
1102.842 1371.8632 4876.8926 2894631
1122.8274 1361.0601 4838.4883 2960424
1151.2617 1360.7815 4837.498 2894631
1179.5519 1360.3502 4835.9648 2960424
1208.3523 1360.5139 4836.5464 3091496
1236.3326 1359.7681 4833.895 2762788
1265.0029 1359.7976 4834.0005 2960424
1300.606 1367.113 4860.0063 3092010
1328.7816 1366.4738 4857.7334 3026217
1346.7539 1355.5909 4819.0459 3025960
1384.1581 1364.3135 4850.0542 3025704
1414.8729 1366.2219 4856.8384 2959911
1444.5237 1367.0471 4859.772 2959654
1487.8661 1380.5442 4907.7534 2894373
1515.1785 1378.9352 4902.0332 2828580
1535.7871 1371.4004 4875.2476 2960423
1571.6 1377.4701 4896.8252 3091752
1597.2806 1374.6002 4886.6226 3091495
1624.504 1373.1362 4881.4185 3025702
1627.6375 1351.7175 4805.2759 3025702
1654.796 1350.6444 4801.4609 3025702
1696.031 1360.9027 4837.9287 2894114
1728.3427 1363.7788 4848.1533 2959907
1736.8031 1348.0485 4792.2329 2894114
1754.1592 1339.6174 4762.2612 2828578
1784.0239 1340.855 4766.6602 3025186
1838.4006 1360.1896 4835.394 2959650
1826.4104 1330.5811 4730.1372 3091489
1863.4999 1337.083 4753.251 3617063
1834.8274 1296.9086 4610.4336 4143149
1864.0736 1298.251 4615.2056 4669234
1927.5394 1323.0426 4703.3384 5130041
1962.2491 1327.6709 4719.792 5656128
2056.2922 1371.7506 4876.4922 5985093
2096.0627 1378.9048 4901.9253 6182214
2128.1323 1380.8668 4908.8999 6379849
2151.1204 1376.9626 4895.021 6774349
2204.0715 1392.087 4948.7876 7037522
2236.1963 1393.8331 4954.9946 7563865
2271.5771 1397.537 4968.1616 7761245
2295.5481 1394.2163 4956.3569 7761244
2328.5715 1396.4083 4964.1489 7629658
2360.1072 1397.6644 4968.6147 7563865
2376.2336 1389.8766 4940.9292 7563608
2425.3435 1401.3358 4981.666 7563865
2449.7717 1398.4301 4971.3364 7629658
2453.9141 1384.1511 4920.5757 7629658
2491.7161 1388.9705 4937.708 7629658
2537.8923 1398.2919 4970.8452 7629658
2519.8325 1372.4137 4878.8496 7695451
2566.0017 1381.7076 4911.8892 7826780
2605.8218 1387.4126 4932.1699 7761244
2620.3452 1379.6718 4904.6519 7958623
2637.0278 1373.2252 4881.7349 7892830
2668.0659 1374.3131 4885.6021 8024416
2685.1841 1368.2844 4864.1704 8090209
2711.6616 1367.1024 4859.9683 8222050
2738.4233 1366.0869 4856.3584 8485222
2778.3276 1371.5808 4875.8887 9603703
2776.2412 1356.4452 4822.0825 9208945
2813.084 1360.4446 4836.3003 8748395
2805.8928 1343.2828 4775.291 9340532
2807.2776 1330.5282 4729.9492 9274995
2813.7378 1320.4076 4693.9712 9143408
2845.1489 1322.0793 4699.9141 9340530
2851.9814 1312.4082 4665.5337 9537908
2866.5198 1306.4346 4644.2979 9998713
2882.0234 1301.0105 4625.0156 10722180
2928.4333 1309.5088 4655.2266 10656385
2998.0781 1328.1417 4721.4653 10393470
3046.9651 1337.3193 4754.0913 11314828
3166.4524 1377.0315 4895.2656 11249293
3261.8779 1405.6538 4997.0161 10985866
3283.5498 1402.2639 4984.9658 11249039
3399.8428 1438.9832 5115.5 11972764
3551.9827 1490.0914 5297.187 11709335
3588.4353 1492.1974 5304.6738 11643798
3712.3845 1530.3351 5440.251 11446418
3598.3574 1470.561 5227.7578 11643540
3778.9204 1531.1715 5443.2246 11906713
3666.8796 1473.2003 5237.1401 12235678
3719.5549 1481.8226 5267.792 12433313
3822.9688 1510.3468 5369.1938 12564899
3803.5142 1490.2589 5297.7827 12564643
3875.3311 1505.9684 5353.6289 12301474
3871.2849 1492.1815 5304.6172 12367522
3944.251 1508.0618 5361.0708 12827817
3908.2935 1482.3748 5269.7549 13354418
3915.8906 1473.4838 5238.1479 12959659
3768.4207 1406.8424 5001.2417 11775386
3774.6223 1398.1627 4970.3862 11643287
3801.8025 1397.3279 4967.4185 11248528
3821.04 1393.6091 4954.1982 10590597
3897.3828 1410.6156 5014.6553 10064253
3856.0847 1385.108 4923.9775 10130044
3948.0911 1407.5071 5003.6045 10195837
4146.0381 1467.059 5215.3081 10129788
4257.2671 1495.2716 5315.6025 9801080
4226.3599 1473.5144 5238.2568 9209456
4240.188 1467.5579 5217.0815 8945771
4213.104 1447.6298 5146.2383 8879980
4271.5166 1457.1541 5180.0967 8814186
4339.2886 1469.7123 5224.7402 8748137
4397.2212 1478.7836 5256.9883 8748137
4450.0044 1486.0077 5282.6694 8813931
4521.8403 1499.4487 5330.4517 8682858
4647.124 1530.3037 5440.1396 8748140
4556.4819 1490.119 5297.2852 8748397
4684.3696 1521.4614 5408.7056 8879214
4825.3525 1556.6023 5533.6294 8550250
4790.73 1535.0029 5456.8447 8419178
4925.7788 1567.6934 5573.0571 8551533
5016.2246 1585.8473 5637.5933 10460042
4940.5225 1551.5819 5515.7822 12301732
4969.3013 1550.3638 5511.4517 13156783
4996.7744 1548.7568 5505.7393 13353134
5176.4258 1594.0326 5666.6919 13022370
5248.5879 1605.8379 5708.6587 7231048
5136.4575 1561.4675 5550.9248 4467235
5143.269 1553.5897 5522.9199 5454899
5216.7744 1565.8302 5566.4336 8747115
5313.1201 1584.7289 5633.6177 13683134
5405.1187 1602.1034 5695.3828 13618628
5309.5659 1564.0159 5559.9839 13684682
0 0 0 0
0 0 0 0
0 0 0 0
0 0 0 0
0 0 0 0
-4396.2739 1394.3175 4854.46 773
-4330.9692 1382.6521 4813.8457 1027
-4320.186 1388.3534 4833.6953 1024
-4320.2534 1397.641 4866.0308 1024
-4323.9883 1408.2479 4902.96 1024
-4287.707 1405.8774 4894.707 1280
-4277.668 1412.1377 4916.5029 1280
-4257.8345 1415.2286 4927.2642 1536
-4228.2554 1415.1005 4926.8179 1536
-4183.8442 1409.9719 4908.9624 1536
-4158.8071 1411.3466 4913.748 1536
-4132.3115 1412.2419 4916.8657 1536
-4109.1733 1414.3058 4924.0513 1536
-4105.1123 1423.0121 4954.3633 330752
-4106.4829 1433.7402 4991.7144 1318144
-3945.0735 1387.3785 4830.3013 1280
-4038.5005 1430.6135 4980.8281 1792
-4017.3726 1433.606 4991.2466 1536
-3986.4338 1433.1156 4989.5396 1536
-3959.2041 1433.9614 4992.4844 1536
-3931.4424 1434.626 4994.7979 1536
-3902.6257 1434.9125 4995.7954 1536
-3959.2834 1466.8707 5107.0615 1536
-3965.8069 1480.6041 5154.8755 1536
-3972.0916 1494.4608 5203.1191 1536
-3933.9863 1491.7024 5193.5151 1536
-3904.7773 1492.3004 5195.5977 1536
-3869.7046 1490.649 5189.8481 1536
-3855.7693 1497.1788 5212.582 1536
-3806.7097 1490.0654 5187.8164 1536
0 0 0 0
-3768.0198 1499.1326 5219.3843 1536
-3742.2373 1501.1963 5226.5693 1536
-3719.4524 1504.507 5238.0957 1536
-3690.4934 1505.3549 5241.0479 1536
-3646.741 1500.1318 5222.8633 1536
-3675.4822 1524.8956 5309.0811 1536
-3707.9822 1551.66 5402.2642 1536
-3656.1008 1543.2723 5373.0615 1536
-3680.7954 1567.3446 5456.8716 1536
-3642.1648 1564.6396 5447.4541 1536
-3611.9138 1565.5186 5450.5137 1536
-3570.6333 1561.5894 5436.834 1536
-3547.125 1565.432 5450.2129 1536
-3542.7183 1577.8528 5493.457 1536
-3499.3447 1572.988 5476.5195 1536
-3466.6318 1572.869 5476.105 1536
-3429.3787 1570.6682 5468.4429 1536
-3374.5588 1560.303 5432.356 1536
-3305.6145 1543.1448 5372.6172 1536
-3271.7869 1542.2053 5369.3467 1536
-3093.3821 1472.4298 5126.416 1536
-3092.5251 1486.6202 5175.8213 1536
-3037.4866 1474.788 5134.626 1536
-3028.564 1485.3335 5171.3413 1536
-3089.9685 1530.9384 5330.1196 1536
-3116.2332 1559.8953 5430.936 1536
-3127.8813 1582.0635 5508.1172 1536
-3111.3066 1590.2739 5536.7021 1536
-2842.2346 1468.2256 5111.7783 1536
-2805.7375 1464.9844 5100.4937 1536
-2765.3025 1459.5938 5081.7261 1536
-2735.3394 1459.6727 5082.001 1536
-2729.8555 1472.962 5128.269 1536
-2624.7427 1432.1881 4986.3101 1536
-2590.197 1429.4288 4976.7036 1536
-2529.2122 1411.8473 4915.4917 1536
-2427.9385 1371.1042 4773.6406 1280
-2375.385 1357.2383 4725.3647 1280
-2358.9575 1363.9293 4748.6602 1280
-2404.3533 1406.9589 4898.4722 1280
-2380.8159 1410.2095 4909.7896 1280
-2352.469 1410.6567 4911.3467 1280
-2321.3665 1409.4418 4907.1167 1280
-2179.1951 1339.9043 4665.0146 1280
-2229.0337 1388.1562 4833.0088 1280
-2231.1138 1407.535 4900.478 1280
-2231.6626 1426.4459 4966.3184 1280
-2213.2651 1433.5903 4991.1924 1280
-2296.488 1507.642 5249.0107 1280
-2322.5242 1545.6685 5381.4038 1280
-2289.0857 1544.6216 5377.7588 1280
-2275.7744 1557.3179 5421.9629 1280
-2162.4302 1500.9452 5225.6953 1024
-2217.2786 1561.3733 5436.082 1280
-2150.0715 1536.3663 5349.0176 1280
-2113.7664 1533.0228 5337.3765 1280
-2045.8143 1506.2771 5244.2588 1280
-1996.4952 1492.6366 5196.7681 1280
-1978.6036 1502.4332 5230.876 1280
-1765.4211 1361.8894 4741.5581 1280
-1735.2025 1360.2252 4735.7642 1280
-1700.9655 1355.3044 4718.6318 1024
-1706.6156 1382.5319 4813.4272 1024
-1628.7766 1341.9008 4671.9653 768
-1633.9574 1369.4445 4767.8618 512
-1608.9415 1372.204 4777.4697 131072
-1593.0327 1382.9685 4814.9473 1974033
-1587.1423 1402.9817 4884.625 3223845
-1559.467 1404.1233 4888.6001 3421482
-1522.6818 1396.9507 4863.6274 3420971
-1490.7532 1394.0427 4853.5034 3224106
-1458.0383 1390.2706 4840.3706 3224108
-1422.8822 1383.9728 4818.4438 3092522
-1388.6249 1378.3091 4798.7251 2763558
-1361.9711 1380.1134 4805.0068 2566179
-1328.291 1374.7229 4786.2393 2500386
-1294.9363 1369.441 4767.8501 2434593
-1269.5344 1372.5219 4778.5762 2171167
-1239.2931 1370.3918 4771.1602 2105373
-1214.4485 1374.269 4784.6592 2302753
-1185.1681 1373.1923 4780.9102 2500132
-1160.0487 1377.0021 4794.1743 2500132
-1128.9071 1373.675 4782.5908 2434339
-1107.1077 1381.837 4811.0078 2500132
-1081.8282 1385.9722 4825.4048 2434339
-1037.0345 1364.6527 4751.1787 2500132
-1020.8569 1380.8505 4807.5732 2500132
-995.29889 1384.9258 4821.7617 2434339
-963.34436 1380.0785 4804.8853 2302753
-932.54279 1376.6378 4792.9062 2500132
-905.32886 1378.4437 4799.1934 2368546
-876.89178 1378.4437 4799.1934 2302753
-852.07013 1384.3176 4819.6445 2302753
-813.92743 1368.2063 4763.5513 2434083
-784.1311 1365.4717 4754.0303 2434593
-757.41199 1368.0916 4763.1514 2500386
-727.37646 1364.6921 4751.3159 2500386
-697.84845 1362.0093 4741.9756 2697765
-670.00378 1362.5247 4743.77 2763558
-643.20435 1365.3038 4753.4458 2895144
-612.4046 1359.4575 4733.0913 2895144
-583.70697 1357.9402 4727.8086 2829352
-556.75909 1360.5458 4736.8804 2895143
-527.61487 1357.7761 4727.2373 2829350
-498.25317 1354.1047 4714.4551 2763557
-469.66501 1352.2244 4707.9082 2829350
-441.94937 1352.7771 4709.833 2829350
-414.14627 1353.1188 4711.0225 3026729
-387.16196 1356.3783 4722.3706 2960936
-360.98285 1363.1864 4746.0737 2960937
-332.97049 1363.637 4747.6426 2960937
-306.2002 1369.7269 4768.8452 2895400
-278.11658 1370.583 4771.8257 2763558
-249.9523 1371.1902 4773.9399 2631972
-223.28606 1381.2192 4808.8569 2631972
-193.67543 1373.3044 4781.3008 2697765
-165.99307 1378.6929 4800.061 2697765
-136.0135 1363.2845 4746.4155 2631718
-108.15559 1366.6521 4758.1401 2631718
-79.812897 1364.1088 4749.2852 2697511
-51.6828 1364.4078 4750.3262 2829097
-23.402035 1356.6873 4723.4463 2829097
4.5952067 1359.3275 4732.6387 2697511
32.589615 1357.3127 4725.624 2697511
60.640949 1358.4353 4729.5322 2697511
88.301529 1352.8616 4710.127 2697511
116.51759 1356.4318 4722.5566 2829097
144.96136 1360.7565 4737.6138 2763304
172.09419 1353.3688 4711.8926 2697511
200.05371 1353.6371 4712.8267 2828840
228.02574 1353.9139 4713.791 2763047
255.7065 1352.5896 4709.1802 2631461
284.61023 1357.3588 4725.7842 2631461
311.28186 1351.5814 4705.6699 2499874
341.53171 1361.0135 4738.5088 2565668
367.42618 1352.9746 4710.5205 2565668
395.43729 1353.3148 4711.7046 2565667
424.92676 1358.3358 4729.186 2434079
451.66687 1354.4907 4715.7988 2499873
480.6207 1357.3455 4725.7378 2565666
514.04944 1371.8278 4776.1597 2631459
537.90411 1360.5822 4737.0068 2697252
566.52863 1361.9183 4741.6587 2763045
599.28149 1372.5839 4778.792 2828838
625.13281 1367.1929 4760.0229 2960424
659.29016 1379.6488 4803.3892 2894631
686.19995 1376.535 4792.5483 2828838
711.06622 1369.7322 4768.8638 2697252
736.84119 1365.1329 4752.8511 2697252
765.5014 1366.0211 4755.9434 2697252
794.83209 1368 4762.833 2763045
820.05762 1363.0203 4745.4951 2631459
847.90442 1362.5828 4743.9722 2763045
877.85675 1365.4485 4753.9497 2828838
901.7179 1358.9562 4731.3457 2828838
928.71448 1357.4381 4726.0605 2894631
956.67712 1357.3798 4725.8574 2828838
984.32642 1356.8927 4724.1616 2894631
1009.3964 1352.9753 4710.5229 2894631
1039.5255 1355.8676 4720.5923 2894631
1066.7335 1354.8979 4717.2168 2960424
1091.3805 1350.808 4702.9771 3026217
1120.7463 1352.6168 4709.2749 2960424
1143.7849 1346.8871 4689.3262 2828838
1167.2308 1341.8972 4671.9536 2894631
1199.1599 1346.6655 4688.5547 2960424
1226.874 1346.5914 4688.2969 2960424
1249.2894 1340.8339 4668.251 2960424
1278.7222 1342.6938 4674.7271 3026217
1302.2515 1338.4078 4659.8047 3026217
1329.4993 1338.0421 4658.5312 2894375
1361.4954 1342.3728 4673.6089 2894375
1394.9412 1347.9316 4692.9629 2828838
1426.9421 1351.9044 4706.7944 2960423
1457.6637 1354.536 4715.9565 2894630
1481.4128 1350.7114 4702.6406 2828837
1502.7961 1344.9105 4682.4443 2960166
1553.2347 1364.8513 4751.8706 3025702
1565.3574 1351.0128 4703.6904 2959909
1572.0688 1333.0699 4641.2202 3025702
1590.1813 1325.2456 4613.979 2959909
1622.0168 1328.9291 4626.8032 2959907
1655.9099 1334.1478 4644.9731 3091493
1659.4728 1315.1588 4578.8608 3025700
1705.4089 1329.8219 4629.9121 3025700
1756.5638 1348.0258 4693.2905 3090980
1763.8304 1332.5062 4639.2578 2959394
1783.692 1326.8323 4619.5029 3090980
1817.2809 1331.3866 4635.3594 3090978
1788.5984 1290.8629 4494.272 3090464
1867.1094 1327.7568 4622.7222 3221794
1845.4589 1293.3859 4503.0562 3287586
1870.3888 1292.175 4498.8403 3419427
1897.2058 1292.2839 4499.2192 3682341
1897.2469 1274.4037 4436.9678 4340526
1931.1495 1279.4469 4454.5259 4866355
1985.0508 1297.425 4517.1187 5392698
1979.9052 1276.8452 4445.4683 5787455
2102.1021 1337.8512 4657.8667 5853760
2130.9336 1338.625 4660.5605 5919297
2185.7388 1355.4866 4719.2661 6577226
2192.356 1342.4159 4673.7588 7037521
2232.5972 1350.0028 4700.1738 7300693
2279.4495 1361.3513 4739.6846 7366486
2325.4907 1371.9451 4776.5679 7563864
2335.3914 1361.2189 4739.2236 7432279
2352.4314 1354.8595 4717.083 7234900
2405.3499 1369.0706 4766.5601 7892830
2425.8621 1364.7211 4751.417 7761244
2438.4734 1356.0776 4721.3237 7958367
2460.1558 1352.6174 4709.2769 7761244
2494.9133 1356.3431 4722.248 7958623
2527.082 1358.5944 4730.0859 8156002
2555.1096 1358.5944 4730.0859 8221795
2573.1641 1353.3489 4711.8232 8221795
2593.0681 1349.1785 4697.3037 8287588
2614.0876 1345.6708 4685.0913 8287842
2642.9497 1346.2318 4687.0444 8287843
2643.458 1332.4885 4639.1958 8485222
2722.5022 1358.2085 4728.7427 8748394
2728.9065 1347.5348 4691.5811 8419428
2755.4912 1346.941 4689.5137 9406065
2777.8826 1344.3296 4680.4219 9866615
2776.5569 1330.4058 4631.9448 10129786
2797.8054 1327.4653 4621.707 10261370
2799.6892 1315.4828 4579.9888 10129528
2802.8152 1304.3086 4541.0845 10327166
2818.6094 1299.186 4523.25 10459008
2858.8286 1305.3121 4544.5786 10393469
2900.9819 1312.1987 4568.5552 10261882
2968.7222 1330.4248 4632.0107 10459261
2990.6606 1327.979 4623.4956 10393469
3256.5322 1432.9109 4988.8267 10459262
3152.1936 1374.5237 4785.5459 10591105
3272.6582 1414.3297 4924.1343 10722693
3292.2805 1410.2367 4909.8843 11051660
3406.1287 1446.2233 5035.1753 11512211
3429.9873 1443.7075 5026.4165 11775383
3423.1741 1428.4365 4973.2485 11709077
3501.5852 1448.6852 5043.7466 11380370
3486.7888 1430.3552 4979.9292 11775129
3520.2251 1431.9532 4985.4927 12235680
3509.1873 1415.584 4928.5015 12696231
3522.0833 1409.0599 4905.7871 12367266
3607.2314 1431.3118 4983.2593 11972507
3555.2231 1399.2217 4871.5342 11709332
3613.2532 1410.6074 4911.1748 11117196
3528.7688 1366.6183 4758.022 10919561
3597.7375 1382.2845 4812.5659 10787975
3573.7434 1362.2682 4742.877 10656389
3668.6709 1387.542 4830.8701 10459010
3700.2349 1388.645 4834.7104 11182733
3721.5759 1385.924 4825.2368 12103835
3732.2957 1379.3193 4802.2422 11643283
3795.7471 1392.1548 4846.9302 10195837
3792.1685 1380.3977 4805.9966 10130044
3875.4622 1400.2028 4874.9502 9866616
3893.5652 1396.3357 4861.4863 9340529
3978.5146 1416.3221 4931.0713 9077357
4103.8252 1450.2808 5049.3018 9077356
4068.1025 1427.2511 4969.1216 8748393
4122.7456 1436.0284 4999.6807 8814186
4159.6968 1438.562 5008.5015 8814187
4171.3159 1432.361 4986.9121 8879723
4242.1206 1446.4277 5035.8872 8879724
4265.4624 1444.2275 5028.2271 8616810
4327.332 1455.0128 5065.7769 8813675
4399.3965 1469.0535 5114.6606 8550760
4363.2021 1446.9991 5037.8765 8682346
4260.0991 1403.2063 4885.4072 9077104
4649.1499 1521.0176 5295.5791 9274739
4646.6914 1510.0216 5257.2959 8814188
4713.1035 1521.4039 5296.9243 8945518
4648.7021 1490.6879 5189.9834 8879981
4678.6235 1490.423 5189.061 8353381
4820.5195 1525.5994 5311.5312 7300436
5031.3926 1582.0076 5507.9224 8353381
5329.6045 1664.9738 5796.7773 9472119
5413.9536 1680.4939 5850.8125 10656136
5496.9463 1695.3984 5902.7041 12433573
5598.2441 1715.7245 5973.4712 13684153
5731.4609 1745.5161 6077.1938 13155498
5704.582 1726.4828 6010.9277 11640975
5831.5884 1753.97 6106.627 9798002
0 0 0 0
0 0 0 0
0 0 0 0
0 0 0 0
0 0 0 0
-4210.6509 1362.9955 4649.4907 1280
-4191.6226 1365.7721 4658.9624 1280
-4167.4312 1366.8923 4662.7837 1280
-4140.5273 1367.1317 4663.6001 1536
-4129.8975 1372.7838 4682.8809 1536
-4109.7183 1375.3168 4691.521 1280
-4089.3704 1377.8273 4700.085 1536
-4062.4673 1378.1484 4701.1807 1536
-4042.8367 1380.9583 4710.7656 1536
-4024.6658 1384.3092 4722.1963 1536
-4024.9727 1394.1071 4755.6191 1536
-3994.9475 1393.463 4753.4224 1536
-3976.4351 1396.8541 4764.9902 1536
-3963.7837 1402.3673 4783.7969 1280
-3984.0789 1419.7003 4842.9238 1536
-3901.553 1400.3793 4777.0151 1792
-3890.7778 1406.7175 4798.6367 1792
-3865.4856 1407.8617 4802.5396 1536
-3838.3262 1408.3378 4804.1636 1536
-3813.2939 1409.6074 4808.4946 1536
-3783.8567 1409.2552 4807.2935 1536
-3811.7041 1430.395 4879.4058 1536
-3870.9849 1463.7437 4993.1655 1536
-3832.3542 1460.2974 4981.4097 1536
-3823.2131 1468.1218 5008.1006 1536
-3783.9851 1464.4247 4995.4888 1536
-3746.5654 1461.3746 4985.0845 1536
-3733.7415 1467.9462 5007.5015 1536
-3688.8772 1461.9252 4986.9624 1536
-3655.605 1460.4381 4981.8896 1536
-3636.7881 1464.7487 4996.5942 1536
0 0 0 0
-3587.5166 1468.8192 5010.4795 1536
-3571.6731 1474.5354 5029.9785 1536
-3530.7202 1469.894 5014.146 1536
-3503.5569 1470.9637 5017.7949 1536
-3489.0771 1477.4224 5039.8267 1536
-3449.2378 1473.1613 5025.2915 1536
-3423.147 1474.7494 5030.709 1536
-3524.5347 1531.7677 5225.2114 1536
-3347.5801 1467.7565 5006.8545 1536
-3281.4341 1451.6194 4951.8071 1536
-3254.6772 1452.7731 4955.7427 1536
-3226.7893 1453.4385 4958.0122 1536
-3199.5327 1454.4028 4961.3022 1536
-3325.8809 1525.8562 5205.0459 1536
-3141.4683 1454.7412 4962.4565 1536
-3120.9468 1458.8936 4976.6211 1536
-3165.7107 1493.9341 5096.1523 1536
-3207.4958 1528.2305 5213.145 1536
-3170.0383 1525.0709 5202.3672 1536
-3094.7314 1503.4615 5128.6523 1536
-2955.3875 1450.0049 4946.2998 1536
-2922.3064 1448.1356 4939.9233 1536
-2939.8821 1471.5852 5019.915 1280
-3029.3862 1531.8866 5225.6167 1280
-2961.6934 1513.1218 5161.606 1280
-2987.0837 1542.0176 5260.1763 1536
-2760.364 1440.0043 4912.1851 1536
-2713.5422 1430.6642 4880.3242 1536
-2676.4058 1426.2844 4865.3838 1280
-2650.24 1427.7194 4870.2788 1280
-2608.425 1420.6626 4846.2065 1280
-2585.2825 1423.7319 4856.6763 1536
-2542.6316 1416.0059 4830.3208 1536
-2518.3936 1418.4747 4838.7432 1536
-2432.5925 1385.9264 4727.7129 1536
-2347.9954 1353.3134 4616.4624 1536
-2305.6199 1344.5535 4586.5806 1536
-2257.3755 1332.1213 4544.1719 1536
-2224.2903 1328.443 4531.624 1280
-2262.8936 1368.0131 4666.6069 1280
-2151.4158 1316.7097 4491.5991 1280
-2143.0164 1327.9974 4530.1045 1280
-2131.5308 1337.6348 4562.9795 1280
-2134.9978 1357.0237 4629.1196 1280
-2157.9709 1389.4768 4739.8247 1280
-2156.5398 1406.8654 4799.1406 1280
-2140.739 1415.2188 4827.6362 1280
-2267.6006 1519.3885 5182.9834 1280
-2268.9214 1541.146 5257.2031 1024
-2251.6016 1550.6716 5289.6968 768
-2180.0923 1522.6191 5194.0034 1024
-2121.4248 1502.8606 5126.6025 1024
-2132.0527 1532.3314 5227.1343 1280
-2095.7744 1528.462 5213.9351 1280
-2055.1975 1521.295 5189.4868 1280
-2022.8741 1520.1127 5185.4536 1280
-1950.7762 1488.5437 5077.7646 1280
-1760.16 1364.1333 4653.3721 1280
-1724.0604 1357.42 4630.4717 1280
-1696.9109 1357.6504 4631.2573 1024
-1664.0814 1353.2693 4616.312 66304
-1642.6443 1358.161 4632.999 131584
-1605.8588 1350.3131 4606.228 131328
-1599.4711 1368.1963 4667.2314 1118214
-1588.0043 1382.2876 4715.3003 2960672
-1574.782 1395.328 4759.7842 3092516
-1554.8101 1402.7548 4785.1187 3421483
-1513.7841 1391.1094 4745.3936 3355945
-1489.7968 1394.9775 4758.5889 3355692
-1455.1288 1388.801 4737.5195 3355691
-1419.5797 1381.5242 4712.6963 3289901
-1384.4293 1374.3511 4688.2271 3026729
-1353.8529 1371.5178 4678.562 2829351
-1323.1112 1368.3953 4667.9102 2566179
-1296.4774 1369.4784 4671.605 2631972
-1263.8685 1364.1595 4653.4614 2368800
-1239.2625 1367.434 4664.6313 2302753
-1205.6967 1360.746 4641.8169 2236960
-1177.6859 1360.1614 4639.8228 2236959
-1154.1528 1364.8439 4655.7959 2302753
-1124.0668 1361.8169 4645.4702 2302753
-1098.286 1363.9847 4652.8652 2236960
-1076.631 1371.5199 4678.5693 2302753
-1045.4696 1367.0232 4663.23 2565925
-1017.1739 1366.1311 4660.187 2565925
-990.5108 1367.4431 4664.6626 2500132
-962.23755 1366.5438 4661.5947 2302753
-938.12988 1371.682 4679.1226 2434339
-909.69165 1370.6085 4675.4604 2500132
-882.43768 1371.3079 4677.8457 2565925
-852.54132 1367.813 4665.9243 2631718
-824.13763 1366.5592 4661.647 2565925
-797.79211 1368.7494 4669.1182 2631718
-764.36993 1358.5197 4634.2222 2697765
-737.11945 1358.9052 4635.5376 2763558
-708.37744 1356.4645 4627.2119 2631972
-679.77466 1354.1045 4619.1616 2763558
-649.67542 1348.4407 4599.8408 2829351
-622.61121 1348.856 4601.2573 2763558
-595.41492 1349.01 4601.7827 2763558
-568.47717 1349.7927 4604.4531 2895144
-540.28101 1347.5159 4596.686 3026729
-512.6015 1346.3541 4592.7231 3026729
-485.9462 1347.9032 4598.0073 2829350
-457.74411 1345.0908 4588.4136 2829350
-430.62411 1345.3038 4589.1401 2829350
-404.37708 1348.4567 4599.8955 2895143
-378.12787 1352.0574 4612.1782 2895143
-352.00244 1356.6963 4628.0024 2960937
-324.4173 1356.0175 4625.687 2895144
-298.52246 1362.9309 4649.27 2895144
-271.12219 1363.6779 4651.8184 2763558
-244.94579 1371.4463 4678.3184 2697765
-216.87372 1369.2296 4670.7563 2763558
-187.49467 1356.9052 4628.7153 2631972
-160.85442 1363.5745 4651.4658 2631972
-132.46906 1355.1495 4622.7261 2500132
-105.14102 1355.968 4625.5186 2500132
-77.769051 1356.5974 4627.6655 2500132
-50.106152 1350.0737 4605.4116 2500132
-22.743523 1345.712 4590.5327 2500132
4.4613862 1346.9677 4594.8159 2697511
31.605375 1343.4761 4582.9053 2565925
58.840694 1345.2998 4589.1265 2500132
85.84304 1342.3276 4578.9878 2565925
113.3075 1346.2737 4592.4487 2631718
140.76868 1348.66 4600.5889 2565925
167.53883 1344.7256 4587.168 2631718
195.42569 1349.6016 4603.8008 2697254
221.53737 1342.5253 4579.6621 2697254
248.88672 1343.6753 4583.585 2828840
274.5961 1336.6163 4559.5054 2763047
301.04752 1334.1102 4550.9565 2697254
332.73279 1353.3038 4616.4302 2697254
356.98993 1341.6642 4576.7246 2631461
384.75333 1343.9152 4584.4033 2631461
415.59155 1355.9014 4625.291 2565668
442.83859 1355.4126 4623.6235 2565668
466.40182 1344.3625 4585.9297 2565668
499.90054 1361.5907 4644.6987 2565666
528.20551 1363.6128 4651.5967 2631459
549.92181 1349.2686 4602.665 2828838
577.95361 1351.0435 4608.7192 2697252
606.85309 1354.5947 4620.8335 2697252
636.97485 1360.4498 4640.8066 2763045
663.9621 1359.4028 4637.2354 2828838
688.78931 1354.1923 4619.4604 2763045
715.1568 1352.2926 4612.9805 2697252
742.49548 1352.3014 4613.0107 2763045
769.7027 1352.0789 4612.2515 2828838
797.11011 1352.2111 4612.7026 2763045
825.43585 1353.8407 4618.2617 2763045
852.00842 1352.5828 4613.9702 2697252
879.50964 1352.8313 4614.8184 2697252
907.13489 1353.2499 4616.2461 2631459
932.47119 1350.3293 4606.2832 2631459
957.18976 1346.7057 4593.9224 2697252
982.45026 1344.0239 4584.7744 2894631
1007.9388 1341.7899 4577.1538 2828838
1029.4357 1334.4987 4552.2812 2763045
1056.4624 1334.5651 4552.5078 2697252
1081.728 1332.4589 4545.3232 2631459
1105.0864 1328.163 4530.6689 2763045
1132.743 1329.1141 4533.9136 2828838
1159.2054 1328.6522 4532.3379 2828838
1188.1879 1331.0345 4540.4644 2894631
1218.0697 1334.2964 4551.5913 2894631
1247.3163 1336.7362 4559.9141 3026217
1265.283 1327.2401 4527.521 3026217
1300.9286 1336.2981 4558.4199 3026217
1329.507 1337.876 4563.8022 2828838
1356.3782 1337.7073 4563.2266 2828838
1387.6094 1341.761 4577.0547 2828838
1411.395 1338.5978 4566.2642 2828838
1434.5413 1334.9585 4553.8501 2960424
1456.5941 1330.455 4538.4873 2960425
1487.0529 1333.6533 4549.3979 2960423
1505.1305 1325.8318 4522.7168 3026216
1535.7876 1329.171 4534.1074 3092009
1561.994 1328.6096 4532.1924 3157802
1576.3121 1318.1261 4496.4307 3091495
1614.319 1327.4705 4528.3066 3157288
1620.849 1311.049 4472.2891 3157289
1669.5554 1328.7219 4532.5757 3025703
1697.3907 1329.4879 4535.1885 2959910
1713.5736 1321.2454 4507.0713 3025702
1735.4628 1317.5883 4494.5962 3091495
1763.1392 1318.369 4497.2593 3091494
1772.2811 1305.474 4453.2715 3091238
1822.3474 1322.66 4511.897 3025701
1851.9469 1324.7091 4518.8872 2959909
1882.7059 1327.5176 4528.4673 2959908
2005.8387 1394.4655 4756.8418 3090724
1882.6887 1290.714 4402.9219 3353381
1914.25 1294.4143 4415.5444 3616292
1941.0201 1294.8186 4416.9238 4866612
1945.7964 1280.7357 4368.8838 5919300
2011.2245 1306.4199 4456.4985 6379847
2045.5031 1311.4672 4473.7158 6445896
2094.8394 1325.9158 4523.0034 6446153
2173.9138 1358.5842 4634.4429 6577226
2178.9353 1344.7358 4587.2026 6971728
2226.302 1357.0398 4629.1743 7695451
2249.9758 1354.7783 4621.46 7432280
2263.1794 1346.3425 4592.6836 7563866
2313.0164 1359.6411 4638.0479 7761244
2323.3469 1349.6772 4604.0591 7827037
2349.7949 1349.1992 4602.4282 8156515
2388.8062 1355.8627 4625.1587 8222308
2411.8682 1353.4249 4616.8433 8616810
2430.573 1348.6245 4600.4678 8879981
2469.5374 1355.047 4622.3765 8419173
2481.2522 1346.5406 4593.3594 8287588
2508.1208 1346.3533 4592.7202 8419174
2504.4929 1329.9752 4536.8511 8287588
2534.2834 1331.5032 4542.063 8156257
2579.9246 1341.2391 4575.2744 8222049
2613.3733 1344.5001 4586.3984 8287843
2644.0107 1346.2623 4592.4102 8090464
2656.6096 1338.8976 4567.2871 8156256
2709.4031 1351.7346 4611.0771 8221535
2728.9773 1347.9077 4598.0225 8484192
2737.2114 1338.6105 4566.3076 8615776
2756.1743 1334.6907 4552.9365 8549984
2774.4451 1330.515 4538.6924 9076328
2780.519 1320.6267 4504.9609 8879205
2824.259 1328.646 4532.3164 9010791
2862.6299 1334.012 4550.6211 8944997
2868.4456 1324.2485 4517.3159 9339755
2932.8228 1341.4512 4575.998 9800564
2960.6509 1341.7745 4577.1011 9603185
3028.5952 1360.1078 4639.6401 9274477
3063.2773 1363.3079 4650.5562 9471856
3110.2073 1371.8531 4679.7061 9603698
3146.4153 1375.5601 4692.3511 9472113
3188.0125 1381.5372 4712.7407 9340783
3247.821 1395.2343 4759.4644 9603955
3263.7937 1390.026 4741.6978 10064506
3296.6135 1392.0204 4748.501 10524801
3313.6997 1387.3938 4732.7188 10656389
3380.658 1403.55 4787.8315 10854281
3401.7161 1400.5397 4777.5625 10985356
3385.1716 1382.2252 4715.0879 11051662
3430.926 1389.4401 4739.6992 11314578
3424.7415 1375.6747 4692.7422 10788487
3538.478 1409.9137 4809.5396 11051660
3508.74 1386.8947 4731.0161 11183245
3503.3562 1373.7906 4686.3154 10788231
3501.8135 1362.3872 4647.4155 10722182
3539.9268 1366.4695 4661.3413 10787718
3595.6155 1377.2205 4698.0151 10524802
3608.4314 1371.5109 4678.5386 9932665
3705.8103 1397.7845 4768.1641 10195838
3736.0247 1398.5186 4770.668 10195838
3699.5178 1374.4532 4688.5757 9867128
3706.969 1366.9563 4663.002 10130301
3748.5642 1372.068 4680.439 10065021
3775.731 1371.8621 4679.7363 10063996
3874.0349 1397.3175 4766.5708 9472116
3894.6301 1394.5786 4757.228 9274738
3996.5779 1420.8004 4846.6763 9011311
4040.8213 1426.2802 4865.3691 8747882
4042.8909 1416.9016 4833.377 8682346
4069.9492 1416.3514 4831.5 8550503
4137.9565 1429.9596 4877.9204 8484967
4190.5908 1438.1033 4905.7007 8484969
4211.6963 1435.3895 4896.4434 8419175
4288.8867 1451.6964 4952.0698 8418918
4364.2388 1467.1636 5004.832 8353381
4375.4473 1461.004 4983.8203 8353381
4370.5298 1449.5784 4944.8447 8221795
4414.1392 1454.2927 4960.9263 7893085
4457.2036 1458.7664 4976.187 8419430
4490.5439 1460.0197 4980.4624 8748396
4665.7402 1507.0771 5140.9863 9011823
4746.7236 1523.2902 5196.2925 8946030
4700.123 1498.6144 5112.1177 9011310
4784.2373 1515.6656 5170.2837 9011310
4893.8608 1540.53 5255.1016 9273712
5094.125 1593.4321 5435.563 9338992
5249.3545 1631.6714 5566.0054 9470577
5751.4746 1776.5846 6060.3384 9799285
5852.3335 1796.5225 6128.3506 10456702
0 0 0 0
0 0 0 0
0 0 0 0
0 0 0 0
0 0 0 0
-4073.7507 1345.3351 4498.3228 1536
-4039.8088 1342.9126 4490.2227 1536
-4023.6328 1346.4028 4501.8931 1536
-4008.8557 1350.4109 4515.2944 1536
-3996.679 1355.3547 4531.8247 1536
-3970.6152 1355.6241 4532.7256 1536
-4013.9092 1379.7382 4613.3545 1536
-3928.5427 1359.6541 4546.2002 1792
-3907.5757 1361.7349 4553.1577 1792
-3895.8301 1367.0804 4571.0312 1536
-3874.228 1369.0179 4577.5098 1792
-3855.9922 1372.1807 4588.085 1536
-3873.5247 1388.2073 4641.6719 1792
-3848.6106 1389.142 4644.7974 1792
-3814.1421 1386.6167 4636.3535 1792
-3784.875 1385.9595 4634.1562 1792
-3763.0466 1388.0365 4641.1011 1792
-3742.47 1390.6091 4649.7031 1536
-3716.856 1391.3344 4652.1279 1536
-3695.2642 1393.5873 4659.6606 1536
-3721.1553 1413.916 4727.6328 1536
-3742.5447 1432.8298 4790.874 1536
-3715.1819 1433.2253 4792.1963 1536
-3715.7048 1444.4673 4829.7856 1536
-3668.9912 1437.3782 4806.082 1536
-3633.3574 1434.5529 4796.6353 1536
-3609.384 1436.3231 4802.5542 1792
-3590.0342 1439.9761 4814.7686 1792
-3560.8997 1439.7314 4813.9507 1792
-3555.125 1449.0039 4844.9546 1792
-3512.9529 1443.4716 4826.4565 1792
0 0 0 0
-3457.7358 1444.2987 4829.2222 1792
-3416.9106 1439.1561 4812.0269 1536
-3390.04 1439.8536 4814.3594 1536
-3370.1321 1443.5455 4826.7036 1536
-3335.0837 1440.76 4817.3896 1536
-3405.6787 1483.9583 4961.8291 1536
-3428.376 1506.8567 5038.3936 1536
-3343.9407 1482.6562 4957.4761 1536
-3206.1382 1434.155 4795.3052 1536
-3294.9143 1487.0447 4972.1494 1536
-3273.6282 1490.7678 4984.5981 1536
-3242.3804 1489.9813 4981.9683 1536
-3209.936 1488.6251 4977.4336 1536
-3162.019 1480.002 4948.6006 1536
-3085.9963 1457.9388 4874.8296 1536
-3104.9158 1480.7371 4951.0586 1536
-3086.8569 1486.1669 4969.2144 1536
-3053.019 1484.0314 4962.0737 1536
-3014.0684 1479.3448 4946.4038 1536
-2925.0933 1449.7726 4847.5244 1536
-2952.3262 1477.7815 4941.1763 1536
-2917.3323 1474.8918 4931.5146 1536
-2828.0493 1444.2198 4828.958 1536
-2843.9778 1467.1989 4905.792 1536
-2764.0183 1440.6733 4817.1001 1280
-2699.1218 1421.5275 4753.083 1280
-2644.6125 1407.506 4706.2002 1280
-2606.8892 1402.2146 4688.5078 1280
-2570.9668 1397.7886 4673.7085 1536
-2539.3528 1395.634 4666.5044 1536
-2486.5691 1381.6687 4619.8096 1536
-2445.6609 1374.0649 4594.3853 1536
-2406.4114 1367.2323 4571.5391 1536
-2333.1091 1340.6761 4482.7451 1536
-2269.8916 1319.3702 4411.5054 1536
-2217.2412 1303.7816 4359.3828 1536
-2166.7932 1289.1357 4310.4121 1280
-2135.7949 1285.8502 4299.4263 1280
-2105.0637 1282.6479 4288.7192 1280
-2082.1262 1284.1744 4293.8232 1280
-2078.1626 1297.5857 4338.6655 1280
-2053.1528 1298.0273 4340.1426 1280
-2102.6765 1346.1989 4501.2109 1280
-2078.002 1347.4938 4505.5405 1280
-2096.0417 1376.8812 4603.8018 1280
-2061.9199 1372.3271 4588.5747 1280
-2025.4485 1366.0668 4567.6421 1280
-2032.6047 1389.46 4645.8608 1280
-2121.7661 1470.3229 4916.2373 1280
-2083.1233 1463.6394 4893.8901 1280
-2063.0879 1470.0258 4915.2441 1280
-2060.9634 1489.5398 4980.4922 1024
-2028.8862 1487.6587 4974.2021 1024
-1992.8501 1482.7762 4957.877 1024
-1783.9825 1347.2288 4504.6543 1024
-1893.5845 1451.7186 4854.0312 1280
-1720.6705 1339.4998 4478.8115 1280
-1693.0814 1338.6694 4476.0352 1280
-1657.3334 1331.2587 4451.2563 1024
-1634.33 1334.0114 4460.46 1024
-1601.4934 1328.696 4442.6875 131584
-1567.8105 1322.4891 4421.9341 197120
-1569.5187 1346.432 4501.9902 788992
-1553.416 1355.6594 4532.8438 2500119
-1566.5543 1391.179 4651.6084 3092258
-1549.176 1400.3851 4682.3906 3158309
-1520.6528 1399.6688 4679.9956 3224104
-1484.3807 1391.6613 4653.2207 3158313
-1450.8832 1386.0007 4634.2944 3026726
-1427.0988 1389.5798 4646.2612 2960934
-1387.6316 1377.7289 4606.6357 2960936
-1350.5291 1367.7969 4573.4272 2960936
-1319.6849 1363.9268 4560.4868 2960937
-1286.5686 1357.4971 4538.9883 2631972
-1255.4086 1352.9012 4523.6211 2368800
-1227.129 1351.2767 4518.1895 2566179
-1204.9025 1356.3937 4535.2988 2566180
-1180.7412 1359.5166 4545.7407 2434339
-1147.6743 1352.2919 4521.5835 2434339
-1121.9226 1353.5472 4525.7812 2500132
-1095.6749 1354.251 4528.1343 2368547
-1072.1561 1358.4476 4542.1665 2434339
-1043.0443 1355.5914 4532.6162 2500130
-1015.2969 1354.4044 4528.6475 2631973
-986.66333 1351.9387 4520.4028 2763303
-959.91431 1351.9896 4520.5732 2697766
-929.31903 1346.4707 4502.1201 2631973
-906.59924 1352.3734 4521.8564 2631718
-879.60449 1352.0647 4520.8242 2631718
-852.05487 1350.8568 4516.7852 2697511
-825.99915 1352.0156 4520.6602 2697511
-796.68439 1347.739 4506.3608 2697511
-769.35846 1346.647 4502.709 2631719
-742.6048 1346.514 4502.2646 2763558
-713.3302 1341.6298 4485.9336 2829351
-685.84735 1339.8679 4480.0425 2895144
-663.73053 1348.8693 4510.1396 3026730
-632.47937 1339.2836 4478.0889 2960937
-605.89844 1339.181 4477.7456 3026730
-579.46252 1339.4042 4478.4917 3026730
-551.00555 1334.7528 4462.9395 3092523
-525.88892 1338.1322 4474.2388 3026729
-497.31329 1332.6016 4455.7466 2960936
-470.8981 1332.5646 4455.6226 2960936
-448.24487 1343.801 4493.1934 2631971
-422.15335 1345.498 4498.8677 2631971
-393.74899 1339.5555 4478.998 2697765
-367.74951 1341.5269 4485.5894 2697766
-344.16074 1353.2845 4524.9028 2829351
-315.9649 1347.3828 4505.1694 2697765
-289.36902 1347.8441 4506.7119 2697765
-263.05634 1349.8525 4513.4272 2763558
-235.99889 1348.0613 4507.438 2697765
-209.26495 1347.8966 4506.8877 2829351
-182.84995 1350.0387 4514.0498 2763558
-156.08203 1349.8627 4513.4614 2566179
-129.25664 1349.0139 4510.6235 2500132
-101.85805 1340.1809 4481.0889 2500132
-75.232689 1338.8799 4476.7388 2500132
-48.538342 1334.2653 4461.3091 2500132
-22.081223 1332.933 4456.8545 2500132
4.3015814 1324.9707 4430.2314 2500132
30.606348 1327.3068 4438.0425 2500132
56.715172 1322.9131 4423.3516 2500132
83.318596 1329.1873 4444.3301 2565925
109.17513 1323.3943 4424.9604 2500132
135.58585 1325.2616 4431.2041 2631718
161.96814 1326.2903 4434.6436 2565925
188.28503 1326.571 4435.5825 2631461
214.3224 1325.0548 4430.5127 2631461
240.82265 1326.4191 4435.0742 2631461
267.88434 1330.303 4448.0605 2697254
292.9248 1324.3527 4428.165 2631461
320.84116 1331.3142 4451.4419 2697254
349.05319 1338.3518 4474.9731 2697254
373.28812 1330.223 4447.7935 2631461
400.32523 1332.4935 4455.3853 2631461
430.05087 1342.8785 4490.1089 2434082
457.30496 1344.7852 4496.4839 2434080
480.117 1334.1385 4460.8853 2499873
505.84122 1332.2729 4454.6475 2499873
539.15857 1349.5991 4512.5801 2697252
559.51648 1334.3813 4461.6973 2763045
588.84259 1340.96 4483.6938 2894631
617.56757 1345.6606 4499.4111 2894631
647.47784 1352.448 4522.106 3026217
675.22504 1354.3574 4528.4902 2763045
697.72833 1346.0046 4500.5615 2763045
722.37695 1342.2531 4488.0176 2697252
747.48016 1339.5825 4479.0884 2697252
772.58545 1337.0988 4470.7837 2828838
798.78162 1336.6052 4469.1333 2894631
822.42407 1332.0073 4453.7593 2697252
849.64862 1333.3163 4458.1362 2631459
875.77002 1332.8676 4456.6357 2631459
901.7226 1332.1958 4454.3896 2697252
928.47644 1332.7122 4456.1162 2697252
955.255 1333.2345 4457.8628 2697252
980.30383 1331.3796 4451.6606 2697252
1004.5253 1328.5276 4442.1245 2894631
1031.1522 1328.9215 4443.4414 2828838
1053.1581 1323.4884 4425.2754 2828838
1078.5092 1322.4211 4421.7065 2894631
1104.8892 1322.6361 4422.4253 2894631
1130.858 1322.3605 4421.5039 2960424
1155.0798 1320.1005 4413.9473 2894631
1181.621 1320.5327 4415.3926 2894631
1207.0002 1319.6758 4412.5273 2894631
1230.5132 1316.858 4403.1055 2960424
1256.5742 1316.8275 4403.0034 2960424
1285.6475 1319.8907 4413.2456 2960424
1305.8817 1313.9381 4393.3423 3092010
1338.9939 1320.9226 4416.6958 3026217
1371.0764 1326.6426 4435.8218 2960424
1385.4058 1315.293 4397.8726 3026217
1411.5872 1315.407 4398.2539 3092010
1438.8888 1316.5417 4402.0479 3026218
1466.0349 1317.4963 4405.2397 3026216
1492.1661 1317.5215 4405.3237 3157802
1512.8727 1312.8381 4389.6646 3158059
1542.3774 1315.8191 4399.6318 3354667
1564.651 1312.6346 4388.9839 3288874
1589.6732 1311.8224 4386.2681 3288874
1617.6193 1313.4102 4391.5771 3223081
1638.538 1309.3324 4377.9424 3091495
1654.4487 1301.4423 4351.5605 2959909
1687.3594 1306.9617 4370.0156 3025702
1720.1278 1312.2057 4387.5498 2959909
1741.7676 1308.9304 4376.5986 2959909
1775.5847 1314.7684 4396.1187 3091495
1800.5579 1313.9835 4393.4941 3157288
1832.828 1318.4701 4408.4956 3223081
1861.5758 1320.3324 4414.7227 3222568
1902.552 1330.6959 4449.3745 3090980
1913.1492 1319.8187 4413.0049 3025187
1922.4575 1308.3575 4374.6831 3287845
1943.5912 1305.1423 4363.9326 3419686
1982.1986 1313.5913 4392.1831 3419172
2031.5131 1328.8248 4443.1182 3484964
2052.675 1325.4894 4431.9658 3682085
2081.7842 1327.3052 4438.0371 4077095
2113.4216 1330.6676 4449.2798 4471340
2150.8855 1337.5704 4472.3604 4997940
2177.0417 1337.359 4471.6533 5261111
2223.4221 1349.4268 4512.0039 5918785
2282.8433 1369.0286 4577.5454 6050627
2299.7571 1362.9774 4557.3125 6642765
2331.7966 1365.9272 4567.1758 7168852
2359.9165 1366.5397 4569.2231 7234902
2374.8005 1359.5607 4545.8882 7498071
2405.5366 1361.7117 4553.0801 7761244
2433.1301 1362.0559 4554.231 8682346
2417.6709 1338.556 4475.6558 8616296
2443.5771 1338.2198 4474.5317 8221795
2456.2339 1330.7126 4449.4307 8221795
2480.3647 1329.5154 4445.4272 8222049
2512.3467 1332.5072 4455.4307 8156257
2547.3379 1337.0164 4470.5078 8353635
2583.791 1342.192 4487.8135 8419428
2602.0068 1337.8853 4473.4131 8156256
2636.8723 1342.1398 4487.6387 8156257
2671.541 1346.2101 4501.2485 8024669
2681.4065 1337.8251 4473.2119 8156254
2687.3411 1327.6621 4439.2305 8419170
2720.5879 1331.0588 4450.5879 8484193
2756.8901 1335.8707 4466.6772 8286813
2750.9102 1320.298 4414.6074 6444866
2838.4978 1349.5032 4512.2593 8353119
2842.4202 1338.7577 4476.3301 8484447
2858.0789 1333.6875 4459.3774 8353891
2899.9753 1340.8416 4483.2979 8485220
2912.2227 1334.2816 4461.3638 8616549
2960.4939 1344.196 4494.5142 8748135
2987.6318 1344.4238 4495.2759 9142893
3040.9812 1356.3384 4535.1138 9537138
3080.8635 1362.0901 4554.3457 9142380
3128.8545 1371.296 4585.127 9142379
3157.6707 1372.0117 4587.52 9405551
3185.9351 1372.4777 4589.0781 9602930
3243.6162 1385.5011 4632.6235 9866873
3283.5635 1390.7943 4650.3223 9866873
3306.6084 1388.9 4643.9883 10195581
3321.8794 1383.7983 4626.9302 10261631
3352.2104 1385.0026 4630.9565 10327425
3369.5596 1380.8672 4617.1294 10196095
3401.3667 1382.6757 4623.1763 10261887
3418.4626 1378.5227 4609.2905 10261886
3444.2812 1377.9254 4607.293 10196351
3468.5256 1376.7125 4603.2378 10130814
3494.6331 1376.2523 4601.6987 10261630
3512.52 1372.5869 4589.4429 10261631
3534.052 1370.3912 4582.1016 10195838
3540.0076 1362.235 4554.8301 10195581
3562.0547 1360.3477 4548.5195 9735287
3578.981 1356.5477 4535.814 9603701
3599.8967 1354.3052 4528.3154 9735287
3650.3933 1363.1421 4557.8628 9801080
3663.7283 1358.0741 4540.9175 9932409
3656.2104 1345.4067 4498.562 9801080
3748.6382 1369.4341 4578.9014 9866618
3788.6296 1374.0981 4594.4961 9866876
3715.6174 1338.0028 4473.8062 9932666
3889.7859 1390.7986 4650.3364 10130047
3957.7717 1405.1528 4698.332 10853770
3978.5254 1402.6548 4689.9795 10787976
4016.1172 1406.0864 4701.4536 9866620
4040.5046 1404.8798 4697.4189 9142897
4064.2366 1403.4633 4692.6826 8945261
4058.9502 1392.1133 4654.7324 8748139
4123.5337 1404.7185 4696.8799 8682346
4138.0073 1400.1987 4681.7671 8616553
4152.23 1395.6548 4666.5742 8353381
4232.3169 1413.163 4725.1152 8156002
4267.667 1415.6018 4733.2695 8221795
4452.938 1467.4131 4906.5083 8090209
4451.2441 1457.3401 4872.8276 8024929
4390.1357 1428.0697 4774.958 8287844
4450.7686 1438.5221 4809.9067 8419173
4515.9717 1450.3092 4849.3188 8353381
4654.6929 1485.4083 4966.6777 8682089
5125.0239 1625.2251 5434.1753 8878953
5364.5771 1690.5695 5652.6641 9010539
5524.9546 1730.3069 5785.5317 9010539
0 0 0 0
0 0 0 0
0 0 0 0
0 0 0 0
0 0 0 0
-3983.4226 1341.568 4398.5806 1024
-3940.7173 1335.9263 4380.083 1280
-3915.6101 1336.2153 4381.0303 1536
-3896.5537 1338.5865 4388.8052 1536
-3873.656 1339.6614 4392.3291 1536
-3891.2378 1354.8448 4442.1108 1536
-3828.2263 1341.9832 4399.9414 1280
-3840.6704 1355.5773 4444.5122 1792
-3800.2871 1350.5848 4428.1436 1792
-3786.3982 1355.0044 4442.6338 1536
-3762.793 1355.9841 4445.8462 1792
-3747.3289 1359.9323 4458.791 1792
-3768.1633 1377.203 4515.4165 1792
-3686.9407 1357.1539 4449.6816 1792
-3672.1265 1361.4369 4463.7241 1792
-3649.7114 1362.9434 4468.6636 1792
-3623.8113 1363.1609 4469.377 1792
-3603.8186 1365.6204 4477.4404 1792
-3583.2703 1367.9042 4484.9282 1792
-3556.5623 1367.8529 4484.7603 1536
-3631.0806 1407.0256 4613.1953 1792
-3603.5771 1406.96 4612.98 1792
-3589.7095 1412.2577 4630.3496 1792
-3557.4399 1410.3418 4624.0679 1536
-3513.9839 1403.9268 4603.0352 1792
-3482.2478 1402.1305 4597.1455 1536
-3459.3843 1403.9065 4602.9688 1536
-3472.5737 1420.4583 4657.2368 1536
-3418.1875 1409.4119 4621.019 1536
-3400.3887 1413.395 4634.0786 1536
-3368.0071 1411.3322 4627.3149 1280
-3347.7576 1414.361 4637.2456 1536
-3376.2639 1438.2087 4715.4351 1536
-3344.7178 1436.66 4710.3574 1792
-3309.9741 1433.7007 4700.6543 1536
-3221.0798 1407.0365 4613.231 1536
-3273.2415 1442.0597 4728.061 1536
-3170.2139 1408.7271 4618.7739 1536
-3241.8054 1453.0841 4764.2065 1536
-3217.2678 1454.7537 4769.6807 1792
-3193.7363 1456.9116 4776.7559 1536
-3170.1292 1459.0736 4783.8442 1536
-3084.1995 1432.3312 4696.1646 1536
-3085.1704 1445.8269 4740.4126 1536
-3044.3909 1439.825 4720.7339 1536
-2995.7236 1429.9465 4688.3457 1536
-2990.2554 1440.6964 4723.5913 1536
-3014.3044 1466.0051 4806.5708 1536
-2921.5234 1434.4346 4703.0605 1536
-2886.1851 1430.7312 4690.9185 1536
-2773.8535 1388.4177 4552.186 1536
-2744.5967 1387.2637 4548.4019 1536
-2713.2781 1385.0342 4541.0923 1280
-2669.5188 1376.3458 4512.606 1280
-2634.6802 1372.1277 4498.7759 1280
-2622.7471 1379.8741 4524.1743 1280
-2591.8145 1377.6815 4516.9854 1280
-2576.062 1383.5963 4536.3779 1280
-2534.4399 1375.5948 4510.1436 1536
-2502.6216 1372.8005 4500.9819 1536
-2463.0398 1365.6416 4477.5103 1536
-2428.3406 1361.0636 4462.5 1536
-2378.7744 1347.9598 4419.5371 1536
-2348.458 1345.5942 4411.7812 1536
-2267.8008 1314.0068 4308.2158 1536
-2214.0781 1297.4843 4254.0435 1536
-2175.832 1289.7551 4228.7021 1280
-2128.4211 1276.35 4184.751 1280
-2094.9478 1271.0853 4167.4897 1280
-2074.4419 1273.6569 4175.9209 1280
-2048.4473 1272.8796 4173.3726 1280
-2018.0616 1269.3215 4161.707 1280
-2005.9532 1277.3138 4187.9111 1280
-1991.142 1283.7637 4209.0581 1280
-1959.1655 1279.1698 4193.9961 1280
-1944.28 1285.76 4215.6035 1280
-1945.0056 1302.9799 4272.062 1280
-1980.5825 1344.3091 4407.5674 1280
-1954.7896 1344.5316 4408.2974 1280
-1916.8477 1336.2909 4381.2783 1024
-1919.5255 1356.5299 4447.6357 1024
-1946.7389 1394.9128 4573.4814 1024
-2024.0868 1470.8103 4822.3252 1024
-2012.251 1483.1475 4862.7749 1024
-1978.772 1479.6589 4851.3374 1024
