# .PCD v0.7 - Point Cloud Data file format
VERSION 0.7
FIELDS x y z rgb
SIZE 4 4 4 4
TYPE F F F U
COUNT 1 1 1 1
WIDTH 1308
HEIGHT 1
VIEWPOINT 0 0 0 1 0 0 0
POINTS 1308
DATA ascii
-2642.1609 1073.5316 2995.9399 1280
-2622.5879 1072.7869 2993.8613 1280
-2608.5552 1074.3136 2998.1218 1280
-2578.5359 1069.2322 2983.9412 1280
-2564.5098 1070.7581 2988.1997 1280
-2555.3428 1074.3484 2998.219 1280
-2533.7966 1072.7478 2993.7524 1280
-2521.0474 1074.8752 2999.6895 1024
-2499.3677 1073.1985 2995.01 1024
-2477.7344 1071.5176 2990.3191 1024
-2472.5881 1076.9938 3005.6018 1024
-2445.0117 1072.7087 2993.6433 1280
-2424.2429 1071.3695 2989.906 1280
-2412.4746 1074.0177 2997.2961 1024
-2386.9509 1070.5358 2987.5791 1024
-2366.5322 1069.3085 2984.1541 1280
-2347.9556 1068.9014 2983.0178 1280
-2331.6016 1069.5076 2984.7097 1280
-2323.1936 1073.7958 2996.6768 1280
-2304.1094 1073.1772 2994.9509 1280
-2284.2976 1072.2078 2992.2451 1280
-2266.4299 1072.1428 2992.064 1280
-2244.7449 1070.2567 2986.8003 1280
-2228.5281 1070.9685 2988.7869 1280
-2210.5991 1070.8624 2988.4907 1280
-2189.5208 1069.2164 2983.8972 1280
-2169.5171 1068.073 2980.7061 1280
-2153.4263 1068.8528 2982.8823 1280
-2132.9443 1067.4479 2978.9617 1024
-2121.5471 1070.604 2987.7695 768
-2106.5657 1071.9893 2991.6355 768
-2087.9517 1071.5339 2990.3647 768
-2069.9954 1071.4111 2990.022 1024
-2052.5735 1071.5653 2990.4521 1024
-2032.4801 1070.3153 2986.9639 1024
-2020.6979 1073.4584 2995.7354 1024
-1996.9807 1070.2609 2986.812 1024
-1982.6771 1072.0963 2991.9343 1024
-1965.3865 1072.3352 2992.6008 1024
-1941.0844 1068.718 2982.5063 1024
-1920.9087 1067.3273 2978.625 1024
-1913.3447 1072.9832 2994.4092 1024
-1894.4198 1072.3141 2992.542 1024
-1876.0302 1071.9384 2991.4934 1024
-1858.413 1072.001 2991.6682 1024
-1841.045 1072.2101 2992.2515 1024
-1822.3173 1071.6235 2990.6147 1024
-1805.3308 1072.0594 2991.8313 768
-1787.1801 1071.8057 2991.1233 1024
-1769.6464 1071.9208 2991.4443 1024
-1752.4366 1072.2363 2992.325 1024
-1734.2899 1071.9792 2991.6074 1024
-1718.0505 1072.908 2994.1992 1024
-1699.394 1072.3308 2992.5886 1024
-1687.0829 1075.7877 3002.2358 1024
-1669.5996 1075.985 3002.7864 1024
-1656.8591 1079.276 3011.9707 1024
-1642.1875 1081.3669 3017.8062 1280
-1625.3207 1082.0426 3019.6917 1280
-1608.2925 1082.6248 3021.3162 1280
-1591.1268 1083.1263 3022.7161 1280
-1576.4393 1085.3456 3028.9092 1280
-1561.6044 1087.5131 3034.9585 1280
-1545.1682 1088.6031 3038.0005 1280
-1530.134 1090.7183 3043.9031 1024
-1512.4919 1091.0026 3044.6965 1024
-1494.0635 1090.7197 3043.9072 1024
-1479.7749 1093.4893 3051.6362 768
-1462.7755 1094.2993 3053.8967 768
-1443.0525 1093.0665 3050.4565 512
-1438.1119 1103.1418 3078.574 512
-1425.0906 1107.1976 3089.8928 460800
-1406.5909 1107.0476 3089.4739 723200
-1397.4431 1114.3507 3109.855 985856
-1386.9739 1120.7812 3127.801 1116930
-1369.9873 1122.0483 3131.3369 787712
-1352.2224 1122.7039 3133.1663 787456
-1331.876 1121.2043 3128.9817 852992
-1318.0796 1125.2545 3140.2844 721664
-1300.5762 1126.2104 3142.9521 655360
-1283.9829 1127.9939 3147.9294 655360
-1263.6954 1126.5365 3143.8623 524288
-1243.4845 1125.1049 3139.8669 524288
-1224.8289 1125.0583 3139.7371 589824
-1198.597 1117.9441 3119.8831 655360
-1186.0403 1123.5615 3135.5598 851968
-1159.1962 1115.6074 3113.3623 917760
-1144.9836 1119.7496 3124.9219 851968
-1125.2776 1118.5671 3121.6218 851968
-1104.8225 1116.588 3116.0986 851968
-1086.5878 1116.8239 3116.7568 655360
-1066.4244 1115.0511 3111.8096 655360
-1046.002 1112.9406 3105.9194 655360
-1025.4762 1110.6423 3099.5056 655360
-1005.1602 1108.4916 3093.5034 589824
-989.22894 1111.1864 3101.0242 655360
-969.25421 1109.3552 3095.9138 720896
-944.4165 1101.7802 3074.7737 655360
-930.01178 1106.3179 3087.4373 917504
-908.0376 1101.8524 3074.9756 720896
-893.09949 1105.917 3086.3186 786432
-873.54077 1104.3101 3081.8342 851968
-855.36609 1104.4218 3082.1458 1049088
-835.32245 1102.0725 3075.5896 917504
-816.37573 1101.0978 3072.8694 851968
-798.10522 1101.0116 3072.6289 786432
-781.40149 1103.1332 3078.5496 786432
-761.56421 1100.8267 3072.1128 983296
-741.07166 1097.4369 3062.6528 917504
-723.11261 1097.7229 3063.4509 1048832
-704.38416 1096.8256 3060.9468 1048832
-685.00562 1094.8417 3055.4106 1048832
-666.08929 1093.509 3051.6914 917504
-647.51428 1092.6779 3049.3718 1180416
-626.14008 1086.9399 3033.3586 1180416
-610.93219 1091.8833 3047.1543 851968
-592.40778 1091.0199 3044.7449 917504
-575.40637 1092.9954 3050.2578 917504
-556.6192 1091.5967 3046.3545 786432
-538.69397 1091.8514 3047.0654 786432
-519.94019 1090.3861 3042.9761 720896
-501.13083 1088.6948 3038.2561 1114624
-483.27887 1089.0349 3039.2053 983296
-465.14688 1088.7458 3038.3987 1114624
-446.25436 1086.5817 3032.3591 1114112
-428.13934 1086.2086 3031.3179 1179904
-410.11279 1086.0371 3030.8394 983040
-391.82181 1085.1176 3028.2729 1048576
-373.46408 1083.916 3024.9199 983040
-354.90149 1081.9688 3019.4856 983040
-335.81299 1078.1263 3008.7625 917504
-318.6879 1080.5099 3015.4143 1114624
-301.11563 1081.5706 3018.3743 1114368
-282.13266 1077.3781 3006.6741 1048576
-263.33679 1073.3829 2995.5249 917504
-246.79614 1078.6674 3010.2722 786432
-228.94196 1078.5867 3010.0471 1114112
-211.05055 1078.3024 3009.2537 983040
-192.85179 1076.2501 3003.5264 983040
-174.95369 1075.6292 3001.7935 917504
-157.08203 1075.0487 3000.1733 1114112
-139.18011 1074.0864 2997.488 1048576
-121.13564 1071.5817 2990.4978 1311488
-103.35062 1070.9069 2988.6145 1245696
-85.791542 1072.7782 2993.8372 1311488
-67.99482 1071.8792 2991.3281 1179904
-50.351776 1073.6229 2996.1943 1311488
-32.575466 1072.8767 2994.1121 1377280
-14.843186 1073.5302 2995.9355 1245696
2.908622 1073.4142 2995.6121 1179904
20.659119 1073.4294 2995.6545 1311232
38.475849 1075.2815 3000.8232 1245696
56.196659 1074.1295 2997.6082 1179904
73.93438 1073.7764 2996.6228 1245440
91.887062 1076.0775 3003.0447 1048576
109.59027 1075.1842 3000.5518 1048576
127.1897 1073.6646 2996.3105 720896
144.83047 1072.8232 2993.9629 1311232
162.9406 1075.2629 3000.7712 1048576
180.47023 1073.7686 2996.6011 1114368
198.37498 1074.5741 2998.8489 1311488
215.09164 1069.3403 2984.2429 1574656
231.85956 1065.1373 2972.5134 1508864
248.71005 1061.8802 2963.4241 1377280
268.07599 1069.0845 2983.5291 1114112
287.16681 1074.3679 2998.2737 1114368
303.84485 1070.5348 2987.5764 1245696
321.29135 1069.6823 2985.197 983040
339.1857 1070.3319 2987.01 1245952
355.552 1066.3342 2975.8538 1179904
374.35532 1069.678 2985.1851 1048576
391.94354 1069.4045 2984.4221 917504
408.97525 1067.7018 2979.6704 983040
426.1767 1066.5648 2976.4973 1245184
443.8259 1066.5944 2976.5798 1310976
462.27399 1068.4681 2981.8088 1179648
479.19852 1066.812 2977.187 1310976
495.37399 1063.6652 2968.405 1114112
513.26788 1064.2974 2970.1694 1376512
530.81073 1064.1838 2969.8528 1376768
548.53943 1064.4384 2970.563 1114112
566.75873 1065.5995 2973.8032 1048576
583.11188 1063.2876 2967.3513 1508608
599.75702 1061.6279 2962.7197 1508096
616.46021 1060.1625 2958.6301 1310976
634.53149 1061.0658 2961.1511 1771264
654.35425 1064.7706 2971.49 1705472
671.15125 1063.4866 2967.907 1836800
687.41937 1061.4517 2962.2278 1902080
705.28711 1061.9264 2963.5527 2033664
723.0675 1062.2498 2964.4553 2165250
740.90021 1062.6331 2965.5247 1967872
757.44 1061.1869 2961.489 2098689
775.33319 1061.6595 2962.8081 2098945
791.96368 1060.4207 2959.3503 2164738
810.47186 1061.6951 2962.907 2164736
823.56622 1055.9736 2946.9402 2295808
842.04547 1057.2512 2950.5056 2230016
860.03455 1057.8738 2952.2429 2426880
877.93658 1058.3666 2953.6184 1966592
890.97748 1053.0945 2938.9053 1769472
908.25842 1052.9402 2938.4744 2492672
928.03888 1055.6345 2945.9939 2557952
939.24597 1048.6575 2926.5227 2556672
965.2832 1058.1909 2953.1279 3804929
986.1203 1061.7858 2963.1602 5119496
993.53052 1051.0507 2933.2012 6500371
1015.158 1055.4663 2945.5244 7289367
1013.3984 1035.828 2890.719 7157263
1036.4886 1041.8203 2907.4419 8210207
1057.3551 1045.418 2917.4819 8341793
1074.0879 1044.8784 2915.9766 7486741
1094.0337 1047.4323 2923.1035 7880730
1097.9631 1034.8115 2887.8821 8144671
1132.8275 1051.2861 2933.8586 8276256
1137.9626 1040.0905 2902.6145 8210464
1154.6145 1039.5978 2901.2393 9131309
1170.1484 1038.1277 2897.1367 7947549
1200.5824 1049.7278 2929.5095 8671015
1211.8109 1044.4445 2914.7651 8539685
1225.8579 1041.7047 2907.1191 8276513
1246.2229 1044.3353 2914.4604 8276259
1259.9937 1041.4434 2906.3901 8277284
1292.3876 1053.8149 2940.916 8607019
1285.4834 1034.24 2886.2874 8540200
1303.8712 1035.2607 2889.1357 7420695
1324.1926 1037.7703 2896.1392 8013087
1324.9886 1025.1093 2860.8057 8276001
1351.6539 1032.5295 2881.5139 8144415
1360.1776 1026.0793 2863.5132 8671015
1398.9153 1042.2999 2908.7803 7749402
1400.7687 1030.9783 2877.1848 7355157
1420.2274 1032.7311 2882.0762 9460532
1441.1603 1035.5011 2889.8069 7617815
1478.3975 1049.7838 2929.6658 7288593
1492.6359 1047.5933 2923.5527 8275489
1514.8739 1051.0031 2933.0686 7354130
1535.9882 1053.5647 2940.2175 8603941
1519.249 1030.3958 2875.5591 7683095
1555.9342 1043.5725 2912.332 8078366
1577.5555 1046.4679 2920.4121 7288850
1600.1332 1049.9279 2930.0679 8209696
1607.8718 1043.6814 2912.6355 8341025
1632.1942 1048.2179 2925.2959 8275232
1650.635 1048.9214 2927.2593 8012829
1661.1982 1044.6565 2915.3569 7815706
1669.7184 1039.2079 2900.1514 8012829
1690.0389 1041.1398 2905.5427 7749657
1718.5015 1047.998 2924.6821 7814937
1731.6399 1045.4674 2917.6201 7815450
1740.3268 1040.3258 2903.2712 8013085
1761.3623 1042.5944 2909.6021 9131310
1779.2837 1042.9934 2910.7158 8144671
1795.1606 1042.1979 2908.4956 8144670
1815.0383 1043.7181 2912.7383 8605221
1830.1423 1042.4905 2909.3123 8605221
1850.5552 1044.2816 2914.3108 8736551
1867.4861 1044.0929 2913.7842 8933931
1874.4735 1038.3993 2897.8948 8276515
1879.9833 1031.9979 2880.0303 8342307
1899.8972 1033.5476 2884.355 8802857
1919.9529 1035.146 2888.8157 8934187
1959.7701 1047.2764 2922.6685 7750171
1955.9841 1036.0975 2891.4712 7947553
2001.7505 1051.1331 2933.4314 8605226
2009.7703 1046.2594 2919.8301 9066033
2003.0342 1033.8527 2885.2065 8144931
2034.1025 1041.0033 2905.1621 8341795
2056.9028 1043.8381 2913.0732 7618330
2076.6733 1045.101 2916.5974 9065776
2056.1897 1026.2521 2863.9951 8342309
2101.6113 1040.3359 2903.2996 7947551
2123.7053 1042.7373 2910.0012 8539175
2164.4736 1054.1952 2941.9771 8276260
2167.6582 1047.3114 2922.7661 8736811
2181.2434 1045.522 2917.7722 8079138
2206.4175 1049.2717 2928.2368 8473896
2202.158 1039.075 2899.7803 8210723
2229.9148 1044.0259 2913.5969 8408361
2251.344 1045.9608 2918.9968 7948067
2266.6975 1045.0651 2916.4973 8277032
2265.8079 1036.7506 2893.2939 8079652
2264.9841 1028.5911 2870.5225 8408360
2319.7363 1045.6036 2918 7881504
2329.2664 1042.1316 2908.3105 7091732
2348.0073 1042.8014 2910.1797 7552284
2372.7512 1046.1079 2919.4075 7486748
2382.8804 1042.97 2910.6501 7618078
2368.1555 1029.0767 2871.8777 7947299
2405.3479 1037.7812 2896.1699 6961172
2410.1135 1032.4712 2881.3511 7750688
2423.1584 1030.7577 2876.5691 7750688
2459.5903 1038.9469 2899.4229 7355931
2473.9341 1037.757 2896.1023 7684639
2475.5515 1031.282 2878.0322 7948067
2488.2686 1029.4878 2873.0251 7816225
2487.7808 1022.2919 2852.9434 7750431
2495.6101 1018.5877 2842.606 8408620
2519.3828 1021.3969 2850.4456 7618849
2545.4341 1025.0862 2860.7415 7553055
2545.1116 1018.1759 2841.4568 7355676
2542.8752 1010.5958 2820.3027 7092761
2555.959 1009.1636 2816.3057 7158553
2551.1238 1000.7208 2792.7441 8408621
2613.5271 1018.5923 2842.6189 7487262
2632.0359 1019.2371 2844.4182 8013606
2648.4807 1019.0795 2843.9785 7553055
2680.1357 1024.7396 2859.7742 6763539
2710.8918 1029.9869 2874.4182 7290140
2724.7258 1028.7793 2871.0481 7882277
2769.7202 1039.2792 2900.3503 6829589
0 0 0 0
0 0 0 0
0 0 0 0
0 0 0 0
0 0 0 0
0 0 0 0
0 0 0 0
-2633.1577 1073.1448 2946.1421 1280
-2611.2717 1071.3276 2941.1536 1280
-2592.1372 1070.6228 2939.2183 1280
-2572.5945 1069.7383 2936.7903 1280
-2548.1211 1066.7778 2928.6626 1024
-2529.2461 1066.1364 2926.9016 1024
-2513.6445 1066.8755 2928.9309 1280
-2503.5225 1069.9669 2937.4177 1280
-2486.0754 1069.949 2937.3687 1280
-2465.772 1068.6926 2933.9197 1280
-2444.9419 1067.1888 2929.7913 1280
-2437.8567 1071.7058 2942.1917 1280
-2418.719 1070.9513 2940.1204 1024
-2397.1924 1069.1205 2935.094 1024
-2379.0396 1068.7784 2934.1553 1024
-2360.4717 1068.2437 2932.6868 1280
-2341.7444 1067.6282 2930.9973 1280
-2320.2549 1065.7347 2925.7991 1280
-2305.5481 1066.9518 2929.1404 1280
-2287.0481 1066.4185 2927.6763 1280
-2267.9722 1065.6066 2925.447 1280
-2249.2874 1064.9672 2923.6919 1280
-2234.2253 1066.0463 2926.6545 1280
-2221.562 1068.2961 2932.8311 1280
-2204.7266 1068.5592 2933.553 1280
-2187.345 1068.5596 2933.5542 1280
-2165.7976 1066.5087 2927.9238 1024
-2155.6206 1070.069 2937.698 1024
-2130.8469 1066.3823 2927.5769 1024
-2118.1465 1068.7267 2934.0132 1024
-2095.4534 1066.0266 2926.6003 768
-2077.3801 1065.651 2925.5691 768
-2057.6528 1064.4136 2922.1721 512
-2045.524 1067.1191 2929.5999 768
-2033.3368 1069.8403 2937.0703 1024
-2015.6764 1069.704 2936.6958 1024
-2000.4258 1070.8551 2939.8562 1024
-1981.079 1069.8145 2936.9993 1024
-1963.4829 1069.7092 2936.7104 1024
-1943.4946 1068.2872 2932.8066 1024
-1925.4424 1067.9132 2931.7798 1024
-1904.02 1065.6464 2925.5564 1024
-1890.0902 1067.5697 2930.8367 1024
-1873.886 1068.2323 2932.6558 1024
-1856.0282 1067.9557 2931.8962 1024
-1831.3217 1063.6959 2920.2017 1024
-1817.7915 1065.9083 2926.2759 1024
-1805.0457 1068.6278 2933.7417 768
-1789.6072 1069.7906 2936.9341 768
-1771.4526 1069.3368 2935.6877 768
-1754.2765 1069.4701 2936.054 1024
-1737.3654 1069.7695 2936.876 1024
-1720.8175 1070.3009 2938.3347 1024
-1703.7462 1070.5143 2938.9204 1024
-1688.4218 1071.8409 2942.5625 1024
-1671.726 1072.3156 2943.8657 1024
-1659.2037 1075.5056 2952.6235 1024
-1640.5547 1074.7499 2950.5488 1024
-1627.5104 1077.6892 2958.6182 1024
-1610.2609 1077.8776 2959.1353 1280
-1595.7241 1079.9061 2964.7043 1280
-1581.6852 1082.3204 2971.3323 1280
-1565.2922 1083.16 2973.6372 1280
-1548.1875 1083.5206 2974.6272 1280
-1531.8052 1084.4009 2977.0439 1280
-1515.2793 1085.199 2979.2349 1280
-1500.124 1087.0089 2984.2039 1024
-1484.8561 1088.7795 2989.0647 1024
-1472.4462 1092.7139 2999.8657 768
-1455.9373 1093.6652 3002.4775 768
-1437.439 1093.1272 3001.0005 768
-1417.1296 1091.1813 2995.6582 512
-1406.429 1096.6785 3010.75 512
-1390.5171 1098.2012 3014.9302 329216
-1387.8912 1110.3932 3048.4014 591360
-1369.8711 1110.4279 3048.4966 393728
-1355.0225 1113.0687 3055.7468 656128
-1343.6373 1118.6647 3071.1096 524288
-1327.364 1120.2887 3075.5681 458752
-1309.3354 1120.4559 3076.0271 787200
-1291.8254 1121.078 3077.7349 655360
-1272.6732 1120.2721 3075.5225 524288
-1254.7335 1120.5258 3076.2188 524288
-1237.8477 1121.7419 3079.5576 655360
-1219.0604 1121.2456 3078.1951 524288
-1197.9653 1118.5792 3070.875 851968
-1179.1091 1117.9534 3069.1567 786432
-1160.2196 1117.276 3067.2969 917760
-1143.0426 1118.2522 3069.9773 917760
-1123.2454 1116.6553 3065.593 720896
-1104.3928 1115.9604 3063.6853 917760
-1083.9806 1113.64 3057.3152 851968
-1066.4414 1114.2424 3058.969 786432
-1045.4097 1111.1534 3050.4888 917760
-1029.4966 1113.4922 3056.9094 786432
-1010.8973 1112.9574 3055.4409 655360
-990.71069 1110.6235 3049.0337 655360
-969.24976 1106.7477 3038.3936 655360
-950.81903 1106.2509 3037.0295 720896
-933.49677 1107.0494 3039.2219 786432
-915.92609 1107.579 3040.6758 720896
-896.71289 1106.1036 3036.6255 720896
-877.33728 1104.3638 3031.8486 720896
-856.56927 1100.7616 3021.9595 1048832
-840.94769 1103.7603 3030.1919 917504
-822.14142 1102.6188 3027.0581 851968
-805.09863 1103.8441 3030.4221 917504
-786.23822 1102.5764 3026.9419 786432
-767.72931 1101.754 3024.6843 917504
-747.44055 1098.2771 3015.1387 983296
-730.00098 1098.9188 3016.9006 1048832
-710.73352 1096.7721 3011.0071 917504
-693.42419 1097.6145 3013.3196 851968
-673.31726 1093.9559 3003.2756 1048832
-655.05231 1093.1726 3001.1252 1048832
-636.03699 1091.0583 2995.321 1114624
-617.40796 1089.5046 2991.0554 1180416
-598.4975 1087.3477 2985.1338 1245952
-580.88141 1087.4824 2985.5039 983040
-563.32251 1087.7362 2986.2004 983040
-544.88605 1086.257 2982.1394 983040
-527.84192 1087.5472 2985.6819 786432
-510.47183 1088.2322 2987.562 917504
-492.22946 1087.0398 2984.2888 1049088
-474.86334 1087.7661 2986.2825 1048832
-456.1875 1085.4321 2979.875 851968
-437.95694 1084.0123 2975.9773 1114112
-420.06793 1083.3544 2974.1707 917504
-402.14966 1082.5598 2971.9895 1179904
-384.11676 1081.37 2968.7229 983040
-365.4364 1078.1556 2959.8987 917504
-347.66708 1077.4406 2957.9355 720896
-330.29913 1077.9595 2959.3601 1048832
-311.16367 1072.4448 2944.2205 1180160
-295.38971 1078.5487 2960.9778 1377280
-277.54703 1077.3931 2957.8052 851968
-259.9649 1077.1614 2957.1689 851968
-242.46373 1077.2557 2957.428 851968
-224.71562 1076.1823 2954.481 983040
-207.17926 1076.027 2954.0549 1114368
-189.19481 1073.3013 2946.5715 1179904
-171.89336 1074.2897 2949.2852 1245696
-153.87036 1070.4822 2938.8323 1245696
-136.55481 1071.2526 2940.9475 1245696
-119.13724 1071.3309 2941.1626 1245696
-101.74272 1071.6792 2942.1187 1048576
-84.301155 1071.5734 2941.8279 1114112
-66.866074 1071.516 2941.6707 1377280
-49.389317 1070.5151 2938.9229 1640192
-31.916311 1068.5496 2933.5269 1311488
-14.596691 1073.1598 2946.1833 1179648
2.8568778 1071.7527 2942.3203 1377280
20.374571 1076.1506 2954.394 1245440
37.719475 1071.5748 2941.832 1048832
55.137222 1071.3069 2941.0964 917504
72.769043 1074.3281 2949.3909 983040
90.216034 1073.979 2948.4321 851968
107.96066 1076.7114 2955.9336 1048576
125.43653 1076.3748 2955.0095 1179648
142.93942 1076.3242 2954.8706 917504
160.04504 1073.6195 2947.4456 1048576
177.04492 1070.8076 2939.7258 917504
195.38521 1075.8804 2953.6521 1048576
211.04825 1066.5887 2928.1438 1114368
230.44681 1076.1532 2954.4014 1114368
247.28217 1073.2427 2946.4106 1377280
262.43588 1063.8983 2920.7576 1179904
282.32788 1073.7308 2947.751 1245696
299.54526 1072.8381 2945.3003 1245440
316.83582 1072.2915 2943.7996 983040
333.38049 1069.4093 2935.887 917504
349.95316 1066.8982 2928.9932 1245952
367.16971 1066.4948 2927.8855 917504
384.90656 1067.5707 2930.8394 983040
402.4556 1068.0554 2932.1702 851968
419.57645 1067.4108 2930.4001 1114368
436.62891 1066.6501 2928.3123 983040
453.46506 1065.4396 2924.9885 1048576
470.27219 1064.2522 2921.729 1048576
487.78879 1064.6979 2922.9526 983040
504.9118 1064.2834 2921.8147 1376512
522.75574 1065.3655 2924.7856 1179648
539.00824 1063.239 2918.9478 1310976
555.0379 1060.819 2912.3037 1179648
571.30023 1058.976 2907.2439 851968
586.61633 1055.5382 2897.8064 983040
606.90747 1060.9934 2912.7827 1639936
622.47211 1058.1125 2904.8738 1442560
636.60229 1053.014 2890.8765 1771265
658.34399 1060.4431 2911.2717 1837057
674.0246 1057.979 2904.5068 1901824
692.1344 1059.3556 2908.2864 1573120
710.87274 1061.604 2914.459 1967873
727.00153 1059.9412 2909.8938 1902080
743.33868 1058.6521 2906.3547 2033152
760.51599 1058.5908 2906.1865 1638400
776.72601 1057.2156 2902.4111 1704192
792.31201 1055.0691 2896.5186 1769984
811.75104 1058.0356 2904.6626 2033152
826.8501 1055.3397 2897.2612 1638656
841.66034 1052.3925 2889.1699 1638656
855.49237 1048.3638 2878.1099 1770240
869.44818 1044.6412 2867.8904 1638400
888.51239 1047.0815 2874.5901 1835264
909.40723 1051.547 2886.8491 2032384
921.65131 1046.0293 2871.7009 2163456
934.94849 1041.8851 2860.324 2622976
957.22278 1047.7144 2876.3271 2950912
980.09894 1053.9868 2893.5471 4002048
982.49213 1038.3953 2850.7429 4263936
1009.6406 1049.0521 2879.9998 6565393
1020.7935 1043.0112 2863.4155 6696974
1034.7992 1040.0352 2855.2449 7420437
1050.9518 1039.2777 2853.1658 7486484
1072.051 1043.3585 2864.3689 7946523
1083.2147 1037.7933 2849.0906 8341793
1098.9281 1036.6908 2846.064 7684119
1120.2216 1040.8063 2857.3621 8144414
1136.3926 1040.1106 2855.4524 8210207
1151.4923 1038.4694 2850.9465 8276256
1164.8503 1035.3275 2842.3208 7947291
1182.6161 1036.1368 2844.543 8342306
1200.6943 1037.1934 2847.4436 8144928
1214.9003 1034.9221 2841.2083 8802601
1217.8005 1023.2137 2809.0647 8539430
1232.9988 1022.0146 2805.7727 8671785
1279.7943 1046.6896 2873.5139 8737323
1283.0192 1035.5498 2842.9314 8342822
1287.8655 1025.9905 2816.688 9394996
1305.8207 1026.9856 2819.4197 7684381
1334.6013 1036.3618 2845.1606 7947294
1353.6882 1038.0704 2849.8513 8538917
1369.925 1037.5784 2848.5005 7947036
1379.3984 1032.0381 2833.2905 7354900
1403.9297 1037.7614 2849.0029 8736553
1421.9929 1038.6246 2851.3728 8209954
1449.436 1046.238 2872.2742 8078624
1457.6527 1039.9578 2855.0327 7946782
1471.1398 1037.5387 2848.3916 8144418
1481.4915 1032.9882 2835.8989 8473637
1501.1008 1034.9224 2841.209 8079135
1511.9006 1030.8075 2829.9121 8144673
1539.9406 1038.4081 2850.7783 7683866
1551.7528 1035.0199 2841.4766 7618073
1568.1338 1034.7191 2840.6506 7815195
1590.015 1038.0154 2849.7002 8275489
1598.6965 1032.7157 2835.1509 8276002
1627.3297 1040.2805 2855.9187 8407842
1641.5708 1038.5842 2851.2617 8276257
1629.2188 1020.2688 2800.9797 8539172
1669.9752 1035.2456 2842.0962 8473636
1682.7578 1032.7551 2835.259 8078878
1709.5361 1038.8186 2851.9053 8276000
1731.7534 1042.0188 2860.6909 8210208
1753.4512 1044.8474 2868.4565 7749657
1759.1516 1038.1808 2850.1543 8538916
1778.3739 1039.5453 2853.9001 8473380
1794.8187 1039.2755 2853.1597 8407331
1816.9198 1042.2555 2861.3408 8341538
1833.5079 1042.0472 2860.769 8539174
1839.4542 1035.8501 2843.7559 8013343
1862.212 1039.1466 2852.8057 8473893
1879.9711 1039.6193 2854.1035 8210465
1898.7067 1040.6189 2856.8479 8605479
1910.8628 1038.0267 2849.7314 8013343
1923.4926 1035.7351 2843.4399 8210721
1938.5363 1034.7717 2840.7952 8539687
1969.1694 1042.0747 2860.8445 8144929
1976.3973 1036.9729 2846.8381 8144930
1990.5116 1035.5399 2842.9043 8341795
2002.6252 1033.099 2836.2029 8079138
2012.5211 1029.5641 2826.4985 8934446
2032.1602 1031.0308 2830.5251 8737067
2062.3091 1037.7622 2849.0051 8408102
2094.3655 1045.3363 2869.7986 8539688
2105.3945 1042.3778 2861.6763 7684380
2130.2927 1046.2782 2872.3843 8539433
2157.6821 1051.3307 2886.2551 7947297
2186.4304 1056.9606 2901.7109 8144931
2181.3948 1046.2982 2872.4395 8013088
2200.4229 1047.2538 2875.0627 8276003
2195.7644 1037.0081 2846.9348 8276003
2243.8213 1051.6249 2887.063 7486744
2245.9761 1044.6703 2867.97 7684381
2260.8877 1043.709 2865.3311 6368779
2279.9675 1044.6719 2867.9746 9263928
2299.3401 1045.7538 2870.9446 7947554
2320.7805 1047.7533 2876.4341 8144933
2323.1965 1041.1974 2858.4358 7223575
2343.3584 1042.6321 2862.3745 6236682
2359.7737 1042.3912 2861.7131 7486747
2364.1899 1036.8911 2846.6138 7816482
2368.1204 1031.2573 2831.1472 7816482
2400.3811 1037.9534 2849.5298 7553309
2410.5115 1035.053 2841.5676 8145447
2439.3916 1040.1882 2855.6653 8408619
2440.8589 1033.644 2837.6995 7421726
2449.5559 1030.2299 2828.3264 7092761
2442.252 1020.1784 2800.7317 6960918
2457.7766 1019.7341 2799.512 7158554
2480.3621 1022.2056 2806.2971 7553055
2464.1963 1008.7805 2769.4407 7421726
2485.1411 1010.6248 2774.5037 7487262
2504.8816 1011.9579 2778.1638 7553311
2524.2656 1013.1309 2781.384 7158554
2526.835 1007.5836 2766.1548 6698002
2558.8564 1013.7764 2783.156 7553055
2609.0803 1027.0552 2819.6106 8013863
2595.7473 1015.3051 2787.3528 7947813
2626.5984 1020.8766 2802.6484 7158554
2637.188 1018.5526 2796.2681 6302989
2673.7732 1026.2351 2817.3594 7158298
2644.1035 1008.5505 2768.8091 6894870
0 0 0 0
0 0 0 0
0 0 0 0
0 0 0 0
0 0 0 0
0 0 0 0
0 0 0 0
-2592.1821 1073.6305 2900.2959 1280
-2563.502 1068.8379 2887.3491 1280
-2544.7007 1068.1274 2885.4299 1280
-2532.478 1070.1874 2890.9946 1280
-2513.6345 1069.4585 2889.0256 1280
-2496.4668 1069.4375 2888.969 1280
-2479.4744 1069.4917 2889.1155 1280
-2461.8037 1069.2522 2888.4683 1280
-2442.9387 1068.4871 2886.4014 1280
-2427.2659 1069.1168 2888.1028 1280
-2405.7668 1067.1714 2882.8474 1280
-2397.0957 1070.9291 2892.9983 1280
-2372.8809 1067.7466 2884.4009 1280
-2355.1482 1067.4557 2883.6155 1280
-2335.3093 1066.1992 2880.2209 1280
-2323.9617 1068.8293 2887.3262 1280
-2302.7986 1066.9508 2882.2515 1280
-2284.936 1066.5848 2881.2627 1280
-2267.2505 1066.2965 2880.4841 1280
-2251.9077 1067.1141 2882.6926 1280
-2235.8464 1067.6011 2884.0081 1280
-2218.4036 1067.4308 2883.5479 1280
-2202.99 1068.2418 2885.7388 1280
-2188.0146 1069.2798 2888.543 1280
-2167.3723 1067.5426 2883.8503 1280
-2148.9656 1066.8879 2882.0818 1280
-2137.2495 1069.571 2889.3296 1024
-2119.7229 1069.3662 2888.7764 1024
-2102.7581 1069.4437 2888.9856 1280
-2089.6472 1071.4985 2894.5366 1024
-2066.3008 1068.2957 2885.8843 768
-2048.1069 1067.7255 2884.344 768
-2035.9702 1070.33 2891.3796 768
-2019.5748 1070.7207 2892.4353 768
-2001.3523 1070.1412 2890.8701 768
-1988.9001 1072.6638 2897.6846 768
-1975.5935 1074.7656 2903.3623 1024
-1952.0471 1071.2847 2893.9587 1024
-1936.6433 1072.2502 2896.5674 1024
-1916.543 1070.6097 2892.1355 1024
-1898.5413 1070.1222 2890.8188 1024
-1879.9934 1069.3154 2888.6392 1024
-1861.0553 1068.2697 2885.8142 1024
-1841.1117 1066.6219 2881.3633 1024
-1824.6185 1066.9613 2882.2798 1024
-1806.0516 1066.0829 2879.9067 1024
-1787.4603 1065.1731 2877.449 1024
-1772.4843 1066.4208 2880.8196 768
-1756.0522 1066.8083 2881.8667 768
-1738.1055 1066.2743 2880.4241 768
-1724.7037 1068.5455 2886.5593 1024
-1711.1687 1070.7789 2892.5928 1024
-1694.0087 1070.7661 2892.5579 1024
-1676.3611 1070.4418 2891.6819 1024
-1661.1558 1071.6863 2895.0437 1024
-1643.5341 1071.3815 2894.2205 1024
-1626.0048 1071.1313 2893.5447 1024
-1609.8854 1071.8143 2895.3896 1024
-1602.0167 1078.0645 2912.2739 1024
-1583.6667 1077.3206 2910.2642 1280
-1567.5309 1078.083 2912.324 1280
-1553.3744 1080.2389 2918.1479 1280
-1538.1901 1081.7206 2922.1504 1280
-1520.7754 1081.6497 2921.9587 1280
-1508.1346 1085.0116 2931.0405 1280
-1492.8079 1086.4969 2935.053 1280
-1473.1907 1084.8578 2930.6252 1280
-1460.999 1088.7131 2941.0398 1024
-1443.4326 1088.6078 2940.7554 768
-1431.0958 1092.4922 2951.2488 768
-1412.606 1091.7174 2949.1558 512
-1397.1298 1093.2815 2953.3809 256
-1383.8547 1096.6295 2962.4253 262912
-1368.0538 1098.0363 2966.2253 328192
-1355.5387 1102.1511 2977.3413 393216
-1341.0812 1104.7744 2984.428 458752
-1327.8383 1108.4818 2994.4429 458752
-1311.0071 1109.2535 2996.5278 458752
-1296.584 1112.1119 3004.2493 524288
-1281.1902 1114.2057 3009.9053 524288
-1265.2097 1115.8412 3014.3235 458752
-1244.0471 1112.8878 3006.3452 524288
-1226.8256 1113.4253 3007.7971 720896
-1210.0558 1114.3948 3010.416 721152
-1188.1882 1110.6281 3000.2407 852480
-1171.6774 1111.8301 3003.488 1049344
-1154.8208 1112.7362 3005.9355 983552
-1137.9777 1113.6837 3008.4954 917760
-1120.2734 1113.8054 3008.824 655360
-1101.2729 1112.6212 3005.6252 655360
-1082.2188 1111.3433 3002.1726 655360
-1064.3896 1111.3014 3002.0596 852224
-1043.9141 1108.4481 2994.3518 917760
-1026.6274 1108.9408 2995.6826 851968
-1008.4984 1108.5247 2994.5588 917760
-989.52661 1107.151 2990.8479 851968
-971.80865 1107.1555 2990.8601 786432
-951.96021 1104.6881 2984.1946 786432
-935.28595 1105.8802 2987.415 720896
-915.67621 1103.5804 2981.2026 786432
-898.01312 1103.5828 2981.2085 786432
-880.26025 1103.4724 2980.9106 720896
-860.61401 1100.9355 2974.0574 786432
-844.09375 1102.375 2977.9458 851968
-826.33948 1102.2299 2977.554 851968
-806.57715 1099.3416 2969.7517 851968
-788.63269 1098.8575 2968.4438 720896
-770.85614 1098.5905 2967.7224 720896
-754.79388 1100.8112 2973.7214 917504
-734.00323 1096.0773 2960.9333 917504
-716.41089 1096.0044 2960.7366 1114624
-697.9408 1094.5513 2956.811 983040
-677.79004 1090.3199 2945.3804 851968
-661.41687 1092.1021 2950.1948 720896
-643.93848 1092.1067 2950.2073 917504
-625.7135 1090.8099 2946.7043 983296
-607.49445 1089.4495 2943.0291 983040
-589.27338 1088.0049 2939.1265 983040
-571.6604 1087.629 2938.1113 851968
-554.72455 1088.5583 2940.6221 917504
-536.71637 1087.3759 2937.4272 786432
-519.3161 1087.3866 2937.4563 917504
-500.88742 1085.17 2931.4688 917504
-483.5498 1085.243 2931.6658 720896
-466.59464 1086.2118 2934.2827 786432
-449.14197 1086.0525 2933.8525 786432
-431.28326 1084.8591 2930.6287 851968
-413.0878 1082.6829 2924.7498 917504
-395.57861 1082.1935 2923.428 851968
-377.44244 1079.8656 2917.1392 1114112
-360.39932 1080.5914 2919.1001 1245696
-342.71359 1079.3667 2915.7915 1311488
-324.87274 1077.4973 2910.7417 1180160
-307.24127 1076.1519 2907.1069 1048832
-288.64188 1071.0548 2893.3379 1114368
-272.70221 1075.8065 2906.1743 786432
-255.17946 1074.5327 2902.7332 917504
-238.21304 1075.5868 2905.5806 786432
-220.48528 1073.0996 2898.8618 1048576
-202.54509 1069.0708 2887.9785 1311488
-185.71259 1070.6848 2892.3384 1377024
-168.38191 1069.4628 2889.0371 1245696
-151.31097 1069.8004 2889.9495 1114112
-134.33098 1070.9495 2893.0535 1048576
-117.00089 1069.2352 2888.4224 1048576
-99.874962 1069.1188 2888.1082 1048576
-82.7547 1069.0276 2887.8618 1114112
-65.60762 1068.452 2886.3069 983040
-48.337727 1064.7653 2876.3477 1179904
-31.378254 1067.625 2884.0725 1311488
-14.267029 1065.9857 2879.6445 1311232
2.7966659 1066.2313 2880.3076 1245696
19.863501 1066.2235 2880.2866 1245696
36.972931 1067.4526 2883.6072 1114112
54.06583 1067.5784 2883.9468 917504
71.219788 1068.5599 2886.5981 851968
88.321434 1068.5283 2886.5129 1114112
105.56389 1069.9341 2890.3105 917504
122.74634 1070.4243 2891.6345 1114112
139.99693 1071.3158 2894.0427 1245696
157.24043 1071.9642 2895.7947 1048576
173.96165 1069.275 2888.53 983040
190.98676 1068.7681 2887.1604 917504
207.72403 1066.8661 2882.0225 917504
224.78062 1066.7687 2881.7593 1245696
242.6221 1070.1467 2890.885 1114368
259.44479 1068.8822 2887.4688 1179904
276.77518 1069.7362 2889.7759 917504
294.10785 1070.499 2891.8367 851968
310.84592 1069.1329 2888.146 917504
327.60886 1067.9902 2885.0593 917504
344.86752 1068.4969 2886.428 917504
361.87927 1068.2268 2885.6985 917504
378.1048 1065.765 2879.0481 1179904
394.50455 1063.9856 2874.2412 983040
411.62344 1064.2126 2874.8547 917504
428.59744 1064.0621 2874.448 1377024
445.04321 1062.6617 2870.665 1114112
462.5737 1063.8591 2873.8997 1310976
478.11288 1060.5544 2864.9722 1310976
495.22015 1060.8353 2865.7312 983040
511.93054 1060.2756 2864.2192 983040
529.84265 1062.161 2869.3123 1310976
546.99847 1062.4601 2870.1201 1245184
563.69159 1061.8696 2868.5251 1311232
580.80109 1062.0751 2869.0801 1310720
596.41974 1059.62 2862.4482 1376512
612.64404 1058.347 2859.0095 1245440
629.9162 1058.9042 2860.5144 1705472
646.00995 1057.5031 2856.7292 1508096
664.81555 1060.4993 2864.8235 1573376
680.61279 1058.667 2859.8735 1901824
697.50372 1058.5835 2859.6482 2033409
714.68414 1058.933 2860.592 1967874
730.38806 1057.1293 2855.7195 1901312
742.46161 1050.2717 2837.1948 1901568
761.9953 1054.0372 2847.3667 1770240
779.8819 1055.4106 2851.0767 1967872
795.07935 1053.1637 2845.0068 1835776
812.04211 1053.2998 2845.3745 1901568
827.16895 1051.0974 2839.425 1901568
844.13568 1051.2742 2839.9028 2098944
856.95294 1046.3774 2826.6748 2230016
869.31677 1041.1255 2812.4871 2427137
884.47119 1039.3502 2807.6914 2492416
903.63446 1042.2643 2815.5637 2426880
919.81445 1041.6943 2814.0237 2755330
933.11993 1037.9471 2803.9011 2491904
948.99323 1037.1373 2801.7136 2426112
969.23981 1041.0527 2812.2905 3016704
976.44861 1031.0687 2785.3198 4199428
1001.2761 1039.7115 2808.6677 5908494
1018.3542 1040.1566 2809.8696 6763026
1034.5156 1039.6659 2808.5442 7618587
1048.4716 1037.0094 2801.3682 8078622
1065.5802 1037.5054 2802.7078 7881498
1082.8917 1038.1807 2804.532 8473379
1099.3661 1038.0452 2804.166 8078621
1119.0399 1040.8894 2811.8496 8473122
1117.2588 1023.9868 2766.1887 7880474
1158.7949 1046.6997 2827.5452 7814682
1170.8771 1042.5396 2816.3071 7025422
1186.4775 1041.5851 2813.7288 8341538
1194.5057 1034.1017 2793.5129 8999468
1201.9094 1026.2893 2772.4089 8144415
1227.6572 1034.1404 2793.6177 8341794
1238.1885 1029.1351 2780.0964 8407588
1246.4379 1022.3895 2761.874 8012572
1267.3325 1026.0566 2771.7803 9130798
1278.037 1021.4854 2759.4314 8275745
1298.9329 1025.0721 2769.1208 8604966
1325.106 1032.6823 2789.6787 8078622
1351.0895 1039.9589 2809.3354 7815452
1364.8413 1037.7579 2803.3901 7289109
1395.6923 1048.4548 2832.2866 7420438
1399.8514 1039.085 2806.9746 7289108
1412.5968 1036.2335 2799.272 7157522
1423.2474 1031.9293 2787.6448 8144418
1443.9752 1034.9468 2795.7959 7880989
1461.7618 1035.8115 2798.1321 7946782
1459.9894 1022.9528 2763.3955 8144415
1489.7144 1032.2032 2788.3848 8210465
1508.3466 1033.649 2792.2905 8078622
1535.6759 1040.9591 2812.0376 8012832
1543.5251 1035.0492 2796.0725 7683610
1564.2688 1037.8196 2803.5564 8012830
1573.3351 1032.8658 2790.1746 8144414
1592.6201 1034.6538 2795.0046 8473636
1600.6016 1029.137 2780.1016 8604965
1616.0134 1028.4617 2778.2771 8473379
1635.6008 1030.4303 2783.5952 8144414
1658.4933 1034.4211 2794.376 8078621
1677.9304 1036.1992 2799.1794 7420947
1704.7223 1042.4399 2816.0381 8407842
1714.8157 1038.4476 2805.2532 8407842
1742.7969 1045.2603 2823.6567 8473380
1758.7114 1044.775 2822.3459 7749400
1769.424 1041.2378 2812.7905 8341793
1786.938 1041.7317 2814.1248 8276001
1800.6066 1039.9952 2809.4341 8604966
1816.7056 1039.6816 2808.5869 8473893
1833.969 1040.0341 2809.5388 8802858
1868.5685 1050.1229 2836.7927 8013086
1869.8372 1041.467 2813.4099 7618330
1879.9635 1037.8542 2803.6504 8539689
1906.5341 1043.3035 2818.3708 8473640
1914.9076 1038.7866 2806.1689 8079137
1937.937 1042.2295 2815.4695 8078879
1954.6204 1042.2299 2815.4702 8605479
1969.0601 1041.0439 2812.2666 8737066
1990.7178 1043.6619 2819.3391 8276516
2006.3972 1043.1284 2817.8979 8539432
2026.5217 1044.8956 2822.6716 8539433
2040.7035 1043.5947 2819.1577 8473896
2062.6472 1046.2522 2826.3364 8671274
2078.3535 1045.7285 2824.9216 8671274
2107.1125 1051.7281 2841.1292 8407846
2134.1138 1056.7623 2854.7283 8144930
2161.1257 1061.7227 2868.1282 7815966
2171.4509 1058.4716 2859.3455 7881503
2179.0881 1053.9706 2847.1868 8473896
2194.8086 1053.4186 2845.6956 8473639
2195.7546 1045.8378 2825.217 8473894
2188.5264 1034.5079 2794.6104 7815711
2229.1069 1045.7775 2825.054 7486746
2230.3208 1038.5479 2805.5239 7420955
2275.7734 1051.8727 2841.5195 7749662
2280.5493 1046.3387 2826.5703 6631439
2298.1345 1046.7197 2827.5996 7749919
2299.6289 1039.8197 2808.9597 7749919
2288.2637 1027.2457 2774.9924 7026196
2279.79 1016.14 2744.9915 7948067
2319.3142 1026.4335 2772.7981 7355931
2376.0923 1044.1643 2820.696 8539948
2398.6533 1046.7158 2827.5889 7750689
2379.9583 1031.3539 2786.0901 7882275
2376.8845 1022.9263 2763.3237 7355676
2390.4375 1021.7206 2760.0669 7355676
2402.1326 1019.7426 2754.7234 7487262
2430.3926 1024.7758 2768.3203 7553312
2427.8176 1016.8273 2746.8481 8211499
2428.1289 1010.1853 2728.9058 8408877
2460.3723 1016.8282 2746.8506 8277291
2419.7632 993.4729 2683.759 7684898
2463.9448 1005.0078 2714.9192 7750180
2475.8933 1003.3307 2710.3884 6566161
2537.1833 1021.5414 2759.583 6105354
2554.022 1021.7363 2760.1094 6697747
2606.488 1036.0907 2798.8862 8210985
2606.6326 1029.597 2781.3442 8079913
2632.1543 1033.1458 2790.9309 7685155
2642.4375 1030.7063 2784.3408 7290140
2678.6169 1038.3354 2804.9502 7553055
0 0 0 0
0 0 0 0
0 0 0 0
0 0 0 0
0 0 0 0
0 0 0 0
0 0 0 0
-2523.9932 1062.1213 2824.002 1280
-2513.3447 1064.6991 2830.8557 1280
-2497.8618 1065.2496 2832.3193 1280
-2481.3127 1065.35 2832.5862 1280
-2462.3274 1064.3984 2830.0564 1280
-2445.2666 1064.2715 2829.7188 1280
-2429.187 1064.5729 2830.52 1280
-2415.2856 1065.8396 2833.8879 1280
-2396.1113 1064.781 2831.0732 1280
-2377.688 1064.0435 2829.1123 1280
-2354.4316 1061.1172 2821.332 1280
-2342.2219 1063.1635 2826.7725 1280
-2327.5085 1064.0944 2829.2478 1280
-2312.428 1064.8698 2831.3093 1280
-2294.1536 1064.175 2829.4624 1280
-2275.9875 1063.5208 2827.7227 1280
-2252.4658 1060.3354 2819.2534 1280
-2241.238 1062.9331 2826.1604 1280
-2228.2751 1064.741 2830.967 1280
-2207.0574 1062.6018 2825.2793 1280
-2193.3267 1064.0621 2829.1621 1280
-2172.3135 1061.9847 2823.6387 1280
-2157.6646 1063.0106 2826.3662 1280
-2147.3196 1066.1896 2834.8186 1280
-2128.0532 1064.954 2831.5334 1280
-2110.6216 1064.6243 2830.6567 1280
-2091.4048 1063.3816 2827.3525 1024
-2073.7131 1062.9005 2826.0737 1024
-2058.4678 1063.6758 2828.1348 1280
-2040.51 1063.0508 2826.4729 1024
-2026.1384 1064.2991 2829.792 768
-2004.0819 1061.4977 2822.3435 768
-1990.61 1063.2344 2826.9612 768
-1972.269 1062.3779 2824.6841 768
-1953.8054 1061.4402 2822.1907 1024
-1946.7242 1066.7231 2836.2373 1024
-1933.902 1068.925 2842.0918 1024
-1913.3999 1066.8834 2836.6636 1024
-1903.3917 1070.7086 2846.8342 1024
-1885.2352 1069.9778 2844.8909 1024
-1865.1938 1068.1542 2840.0422 1024
-1846.4081 1067.0231 2837.0347 1024
-1829.2335 1066.8109 2836.4705 1024
-1816.8291 1069.4023 2843.3606 1024
-1795.1404 1066.5264 2835.7141 1024
-1778.5409 1066.6483 2836.0383 768
-1761.8936 1066.7435 2836.2915 768
-1745.0411 1066.7152 2836.2163 768
-1725.4948 1065.0237 2831.7188 1024
-1709.4132 1065.4584 2832.8745 768
-1693.3024 1065.8834 2834.0044 1024
-1676.3726 1065.7963 2833.7727 1024
-1659.1196 1065.4996 2832.9841 1024
-1644.3068 1066.7802 2836.3887 1024
-1631.171 1069.1864 2842.7866 1024
-1617.2971 1071.1539 2848.0178 1024
-1599.7366 1070.6957 2846.7993 1024
-1581.6349 1069.8612 2844.5811 1024
-1571.7365 1074.6179 2857.228 1024
-1555.0005 1074.7521 2857.585 1280
-1539.8142 1075.9722 2860.8289 1280
-1524.7899 1077.334 2864.4495 1280
-1510.0818 1078.9521 2868.7522 1280
-1495.4799 1080.684 2873.3569 1280
-1479.6278 1081.542 2875.6379 1280
-1466.0709 1084.1171 2882.4849 1280
-1450.3882 1085.1624 2885.2642 1280
-1433.6466 1085.431 2885.9785 1024
-1418.9779 1087.2944 2890.9329 768
-1408.0667 1092.1178 2903.7573 768
-1389.5325 1091.0748 2900.9844 512
-1371.6898 1090.5555 2899.6035 65792
-1358.213 1093.5382 2907.5339 328448
-1343.688 1095.7427 2913.3953 328192
-1333.0078 1101.1807 2927.8538 393728
-1316.8347 1102.1646 2930.47 656128
-1298.8497 1101.6382 2929.0703 524288
-1285.3623 1104.9636 2937.9121 524288
-1270.6221 1107.2887 2944.0942 589824
-1261.0986 1114.2881 2962.7043 655360
-1239.3674 1110.546 2952.7551 655360
-1222.9169 1111.4966 2955.2822 655360
-1206.2261 1112.2529 2957.2935 918272
-1185.9862 1109.7109 2950.5347 852993
-1156.4415 1098.2565 2920.0789 786688
-1147.4589 1106.2777 2941.406 720896
-1135.5242 1111.6565 2955.7075 720896
-1121.5486 1115.1747 2965.0618 720896
-1102.2788 1113.4568 2960.4941 917760
-1086.3789 1115.1425 2964.9761 720896
-1067.0673 1113.3239 2960.1409 786432
-1047.8689 1111.5648 2955.4639 851968
-1030.0057 1111.1864 2954.4575 720896
-1010.6262 1109.1306 2948.9915 1049344
-991.0564 1106.7899 2942.7681 917760
-972.8775 1105.9465 2940.5259 851968
-951.61475 1101.5031 2928.7112 918016
-935.6319 1103.1194 2933.0088 851968
-915.88342 1100.2732 2925.4412 851968
-898.55048 1100.275 2925.446 786432
-879.94873 1098.6926 2921.2388 851968
-863.44794 1099.7225 2923.9773 720896
-845.1524 1098.4623 2920.6262 786432
-825.38177 1095.1917 2911.9304 786432
-808.50226 1095.6997 2913.281 720896
-791.67096 1096.2966 2914.8684 720896
-773.89594 1095.5841 2912.9739 720896
-755.87946 1094.4896 2910.0637 720896
-736.87036 1091.873 2903.1067 851968
-719.95465 1092.3076 2904.262 1114368
-701.07806 1089.7155 2897.3699 983040
-683.16998 1088.5364 2894.2349 983040
-665.14783 1087.1102 2890.4429 917504
-649.38751 1089.4028 2896.5388 917504
-630.66119 1086.7094 2889.3772 786432
-613.57379 1086.7683 2889.5342 917504
-596.09369 1086.1152 2887.7976 1048832
-579.00153 1086.1514 2887.8936 1180416
-562.19397 1086.7396 2889.4578 917504
-543.80273 1084.2075 2882.7251 983296
-525.16266 1080.9989 2874.1941 983040
-509.2117 1083.2961 2880.302 917504
-492.68408 1084.4832 2883.4583 851968
-475.10709 1083.3628 2880.4792 720896
-458.0062 1083.2849 2880.2725 720896
-440.67081 1082.6251 2878.5178 720896
-423.35916 1081.9727 2876.7832 851968
-406.04565 1081.2606 2874.8899 1114112
-389.03568 1081.3298 2875.074 1048576
-371.69064 1080.4314 2872.6853 1180160
-354.61386 1080.264 2872.2402 1311488
-337.00375 1078.3732 2867.2126 1179904
-318.34552 1072.7494 2852.26 1311232
-302.70056 1077.2185 2864.1428 917504
-285.51636 1076.4155 2862.0076 917504
-267.99765 1074.1703 2856.0381 917504
-250.83076 1073.1277 2853.2656 983040
-233.81808 1072.6416 2851.9736 1114112
-216.68657 1071.4922 2848.9175 1179904
-199.53679 1070.0508 2845.085 983040
-182.59573 1069.566 2843.7959 917504
-165.34404 1066.9778 2836.9143 917504
-148.54167 1067.0316 2837.0574 1048576
-131.78667 1067.4829 2838.2571 1048576
-114.96242 1067.4231 2838.0981 917504
-97.786621 1063.5194 2827.719 1179904
-81.074768 1064.0907 2829.2378 1245440
-64.401169 1065.5924 2833.231 1114112
-47.47208 1062.4357 2824.8374 1114112
-30.796919 1064.618 2830.6401 1311488
-13.988875 1061.9335 2823.5022 1245696
2.7461967 1063.7488 2828.3291 1311232
19.503859 1063.6768 2828.1372 1245696
36.271145 1063.9535 2828.8733 1114112
53.060593 1064.5 2830.3262 1048576
69.916191 1065.7924 2833.7625 917504
86.776566 1066.6429 2836.0239 917504
103.57678 1066.5979 2835.9043 983040
120.42731 1067.0112 2837.0032 786432
137.16631 1066.4564 2835.5278 1114112
153.39143 1062.463 2824.9104 1048576
170.53406 1064.9854 2831.6167 1048576
187.54999 1066.3354 2835.2065 1114112
204.54518 1067.3555 2837.9185 1048576
220.86345 1064.9564 2831.5398 917504
237.62004 1064.8605 2831.2847 1180160
254.89258 1066.9366 2836.8052 1048576
271.62061 1066.618 2835.9578 1048576
288.35416 1066.3567 2835.2632 1179904
305.01984 1065.8872 2834.0144 1179648
321.63324 1065.2933 2832.4355 1114112
337.97003 1063.8878 2828.6985 1114112
354.07095 1061.9075 2823.4333 983040
370.41415 1060.7998 2820.4883 917504
387.88455 1062.8766 2826.01 851968
403.23056 1059.2012 2816.2375 851968
420.75958 1061.3241 2821.8821 851968
437.10641 1060.417 2819.4702 1048576
453.6972 1060.1466 2818.7515 1179648
468.1499 1055.0768 2805.2717 1376512
484.72855 1054.9817 2805.0186 1310720
502.81296 1058.0614 2813.207 1048576
521.203 1061.5659 2822.5251 1245184
537.14587 1060.0233 2818.4236 1179648
553.61859 1059.5878 2817.2654 1114112
570.20624 1059.3912 2816.7429 983040
587.2359 1060.0037 2818.3713 1048576
603.79132 1059.75 2817.6968 851968
617.55658 1054.7445 2804.3882 1179648
636.86188 1059.2153 2816.2754 1310976
652.27588 1057.1512 2810.7874 1508096
669.06079 1057.3566 2811.333 1442304
683.87366 1054.511 2803.7671 1771264
701.52942 1056.0801 2807.9392 1639936
717.32269 1054.8376 2804.6357 1967872
736.96692 1059.1862 2816.1978 1704704
749.77734 1053.7379 2801.7117 1967872
763.75214 1050.1266 2792.1099 2033664
777.18268 1045.936 2780.9678 1967872
793.01776 1045.0884 2778.7139 2033664
810.53937 1046.4524 2782.3408 2033665
825.22491 1044.1736 2776.282 2033408
839.51093 1041.4882 2769.1418 1901568
855.19202 1040.6034 2766.7893 2098688
871.04895 1039.9619 2765.0835 2229760
887.74286 1040.3247 2766.0483 2361600
904.56134 1040.8177 2767.3594 2624002
918.76025 1038.3329 2760.7522 2361088
935.24353 1038.4713 2761.1204 2295040
952.02625 1038.9318 2762.3447 2163200
965.5578 1035.8888 2754.2539 2557696
987.34802 1041.6598 2769.5979 2950656
1005.7149 1043.6896 2774.9949 4067841
1015.0643 1036.4465 2755.7368 6302995
1029.1558 1034.1982 2749.759 7552282
1042.3604 1031.1427 2741.6348 8407586
1062.7806 1035.2094 2752.4475 8276256
1084.2605 1040.1696 2765.6357 7881242
1099.9855 1039.5433 2763.9709 7684119
1105.2467 1029.192 2736.4482 7946523
1123.2605 1030.8433 2740.8386 7485716
1149.9031 1040.2533 2765.8584 7419923
1160.1843 1034.8058 2751.3743 7815194
1178.3829 1036.4731 2755.8076 7881244
1192.1774 1034.274 2749.9604 8144416
1206.9745 1032.9924 2746.5527 8670503
1218.0189 1028.5757 2734.8098 8144416
1240.5503 1033.8483 2748.8284 8341538
1258.178 1034.9503 2751.7585 8604968
1274.1158 1034.652 2750.9653 8012832
1304.9883 1046.3357 2782.0303 8473124
1306.8763 1034.7782 2751.3008 8275745
1334.6973 1043.7859 2775.251 8012831
1353.7195 1045.7772 2780.5457 8407590
1363.4412 1040.6223 2766.8394 7946782
1388.251 1046.9686 2783.7134 7552281
1384.9069 1032.1826 2744.3999 7749660
1400.5143 1031.7007 2743.1187 7815196
1433.5403 1043.9142 2775.592 7946782
1436.9227 1034.5088 2750.5847 8407333
1449.8716 1032.1243 2744.2449 8473637
1468.8674 1034.0498 2749.3643 8868651
1485.3273 1034.1672 2749.6768 8342308
1502.9402 1035.0764 2752.094 8473895
1518.3108 1034.4382 2750.397 8473639
1544.0964 1040.8341 2767.4026 6302476
1547.1871 1031.9583 2743.8035 7091476
1562.0516 1031.0385 2741.3577 8144670
1563.5692 1021.4185 2715.7798 8276255
1583.5845 1023.9551 2722.5244 8407586
1607.5576 1028.9741 2735.8689 7881243
1629.1996 1032.4156 2745.0195 8210465
1646.4087 1033.0078 2746.594 7354899
1676.5886 1041.6471 2769.5642 8144415
1695.7316 1043.328 2774.0337 8933930
1712.5387 1043.5533 2774.6328 8604965
1724.9167 1041.1013 2768.113 8605221
1748.1931 1045.2112 2779.0405 8473379
1755.8149 1039.9723 2765.1113 8144671
1763.1256 1034.6475 2750.9536 8144415
1787.8424 1039.5411 2763.9648 8539430
1799.715 1036.9456 2757.0637 8604967
1826.4475 1042.8813 2772.8459 7947037
1839.1421 1040.7675 2767.2253 8407587
1855.5389 1040.7675 2767.2253 8210208
1860.4478 1034.3802 2750.2429 8473382
1878.7843 1035.5046 2753.2327 7947295
1902.3533 1039.469 2763.7729 7947295
1915.7162 1037.8363 2759.4321 7552794
1934.2672 1039.0182 2762.5745 8210467
1952.1272 1039.8121 2764.6855 8210724
1963.8479 1037.3501 2758.1392 8210467
1989.1571 1042.047 2770.6277 7815709
2002.4329 1040.4149 2766.2881 7881759
2032.9109 1047.6746 2785.5903 7815965
2040.1271 1042.9257 2772.9639 8473895
2071.1846 1050.3431 2792.6855 8342053
2089.145 1051.054 2794.5754 8276516
2119.9697 1058.1746 2813.5078 8473896
2137.1421 1058.4229 2814.168 8144931
2154.9351 1058.9722 2815.6287 8342309
2162.0425 1054.3024 2803.2124 7421207
2177.1753 1053.5874 2801.3115 8013345
2171.1575 1042.7255 2772.4314 8342309
2187.5852 1042.7255 2772.4314 8473895
2203.5325 1042.4982 2771.8269 7289621
2219.282 1042.1812 2770.9844 7552540
2222.4629 1036.0101 2754.5767 7750433
2236.1191 1034.7766 2751.2969 6565902
2260.3101 1038.4005 2760.9321 7157783
2266.8123 1033.9045 2748.978 7091734
2262.6909 1024.6617 2724.4031 7355419
2303.6838 1035.8353 2754.1118 6829332
2309.2661 1031.0415 2741.3657 7223574
2320.802 1028.9542 2735.8162 8013860
2341.7473 1031.0388 2741.3586 8408619
2360.5999 1032.1794 2744.3914 7882020
2362.5747 1025.9753 2727.8958 7750690
2366.3923 1020.6502 2713.7371 7355676
2385.6018 1021.9908 2717.3018 7948069
2381.281 1013.3008 2694.1963 8013606
2391.1748 1010.7348 2687.3738 7947813
2449.3328 1028.469 2734.5259 7684641
2433.8613 1015.2563 2699.3955 7619104
2435.2515 1009.2037 2683.303 8474158
2476.2383 1019.5328 2710.7661 7026713
2463.0835 1007.5809 2678.988 6960919
2457.2893 998.77368 2655.571 6105611
2552.2109 1030.7545 2740.6028 7289628
2528.7205 1014.8105 2698.2102 7224348
2521.0637 1005.3811 2673.1392 6304015
2581.8281 1023.185 2720.4768 7488545
2592.2271 1020.9318 2714.4858 7356703
0 0 0 0
0 0 0 0
0 0 0 0
0 0 0 0
0 0 0 0
0 0 0 0
0 0 0 0
0 0 0 0
-2473.5608 1064.3542 2786.0457 1280
-2460.6362 1065.9067 2790.1094 1280
-2439.8479 1064.0507 2785.251 1280
-2426.8887 1065.6072 2789.3252 1280
-2411.4373 1066.083 2790.5708 1280
-2393.7778 1065.5825 2789.2607 1280
-2376.8616 1065.4083 2788.8047 1280
-2357.2026 1063.9935 2785.1013 1280
-2338.1606 1062.8394 2782.0803 1280
-2325.8074 1064.7308 2787.0312 1280
-2309.219 1064.6967 2786.9419 1280
-2292.6511 1064.6715 2786.8762 1280
-2274.7722 1064.0328 2785.2041 1280
-2257.6455 1063.7391 2784.4353 1280
-2240.5769 1063.4688 2783.7278 1280
-2227.1814 1064.9507 2787.6067 1280
-2209.4973 1064.3887 2786.1357 1280
-2193.3347 1064.5569 2786.5762 1280
-2174.5969 1063.4683 2783.7263 1280
-2155.8796 1062.3728 2780.8591 1280
-2142.5081 1063.9154 2784.8967 1280
-2128.5107 1065.1686 2788.1772 1280
-2111.395 1064.8687 2787.3921 1280
-2095.9753 1065.4261 2788.8513 1280
-2079.9233 1065.6686 2789.4858 1024
-2060.5076 1064.1775 2785.583 1024
-2044.2878 1064.3264 2785.9727 1024
-2028.1594 1064.5256 2786.4941 768
-2012.0901 1064.7594 2787.1062 1024
