# .PCD v0.7 - Point Cloud Data file format
VERSION 0.7
FIELDS x y z rgb
SIZE 4 4 4 4
TYPE F F F U
COUNT 1 1 1 1
WIDTH 1288
HEIGHT 1
VIEWPOINT 0 0 0 1 0 0 0
POINTS 1288
DATA ascii
0 0 0 0
-3025.7812 863.46667 3430.926 8348444
0 0 0 0
0 0 0 0
-2868.4814 835.41711 3319.4729 8348185
-2822.9805 827.84186 3289.373 8414234
-2793.1716 824.79504 3277.2668 8413723
-2773.9907 824.86591 3277.5483 5781760
-2831.8484 848.00726 3369.499 7030793
-2855.7583 861.23914 3422.0752 6833673
-2844.7937 864.06769 3433.3142 6768650
-2800.366 856.69983 3404.0386 6835217
-2774.0127 854.79462 3396.4683 6901273
-2722.792 845.14282 3358.1174 2627595
-2740.4922 856.89911 3404.8301 2956045
-2724.9963 858.37305 3410.6868 3351057
-2664.7781 845.67621 3360.2366 4863768
-2680.7537 857.15051 3405.8293 5650696
-2642.5256 851.3363 3382.7271 8807720
-2685.8804 871.91754 3464.5049 8676127
-2726.3911 891.88531 3543.8457 8741917
-2742.3728 904.07666 3592.2871 8741917
-2750.5447 913.86395 3631.176 8939295
-2740.6704 917.76239 3646.6663 8939038
-2749.4973 928.03503 3687.4839 9136676
-2738.3125 931.66357 3701.9019 9136676
-2730.6497 936.55878 3721.3525 9137448
-2704.0181 934.97479 3715.0586 8611365
-2677.7883 933.50488 3709.218 7822366
-2657.959 934.26031 3712.2197 6507540
-2624.0676 930.04437 3695.468 4599817
-2588.1304 925.02631 3675.5291 2957314
-2538.7864 915.09058 3636.05 2102273
0 0 0 0
0 0 0 0
-4823.8745 1784.1604 7089.2397 8093552
-5033.3848 1878.0037 7462.1196 8027760
0 0 0 0
0 0 0 0
-5383.7822 2063.1108 8197.6299 7830895
-5389.7168 2084.1892 8281.3838 7633517
-5419.9434 2115.135 8404.3447 7699311
-5457.2065 2149.4263 8540.5986 7633517
-5251.4868 2087.7598 8295.5713 7567725
-5265.1323 2112.9624 8395.7119 7699311
-5238.3345 2122.2605 8432.6572 7830897
-5172.7646 2115.8782 8407.2979 7830897
-5121.6743 2115.3521 8405.207 7962483
-5187.7192 2163.6699 8597.1943 8094069
-5246.3062 2209.8047 8780.5078 8093812
-5185.5708 2206.1003 8765.7891 8093299
-5161.2017 2217.9487 8812.8682 8159092
-5118.0918 2221.9038 8828.583 8159092
-5010.4858 2197.6516 8732.2188 8224886
-4928.314 2184.1653 8678.6318 7961455
-4839.041 2167.2146 8611.2793 7565667
-4733.8281 2142.6875 8513.8223 7893087
-4682.3359 2142.2097 8511.9238 8220505
-4620.9863 2137.1624 8491.8691 8745302
-4576.8618 2140.0583 8503.376 9006672
-4510.8389 2132.6653 8474 9728852
-4420.4253 2113.4446 8397.6279 9925972
-4422.3037 2138.4141 8496.8428 9991249
-4386.145 2145.354 8524.418 10122321
-4267.5664 2111.6726 8390.5869 10188115
-4241.0361 2123.2812 8436.7139 10122322
-4255.6948 2156.0344 8566.8555 9990736
-4271.2363 2190.0308 8701.9385 9859150
-4219.6738 2190.0308 8701.9385 9990223
-4213.9365 2214.1084 8797.6094 9858894
-4232.9893 2251.9778 8948.0801 9530183
-4179.9683 2251.9778 8948.0801 9463877
-4340.438 2368.4744 9410.9717 8674360
-4290.0342 2371.4375 9422.7451 7884330
-3829.7463 2144.9158 8522.6768 7357730
0 0 0 0
0 0 0 0
-3091.8621 1802.9749 7163.9976 7160350
-2924.9478 1729.3848 6871.5923 7094558
-2987.7563 1791.4585 7118.2383 6831387
-2818.3594 1714.0861 6810.8042 6831133
-2676.1682 1651.2521 6561.1372 6897182
-2590.8232 1622.158 6445.5337 6962974
-2494.9624 1585.5104 6299.9175 6765596
-2534.5376 1635.1245 6497.0562 6765595
-2490.3994 1631.4296 6482.374 6831130
-2431.8477 1618.0287 6429.1265 6239250
-2345.4861 1585.4036 6299.4932 6304786
-2286.7219 1570.6792 6240.9863 6107408
-2222.6096 1551.7367 6165.7197 6436630
-2146.5105 1523.6523 6054.1289 6502423
-2111.9404 1524.593 6057.8667 6238995
-2048.8408 1504.6151 5978.4854 6436630
-1989.2877 1486.5842 5906.8408 6370327
-1943.8983 1478.6815 5875.4399 6304534
-1895.0886 1467.8414 5832.3677 6238741
-1848.2017 1458.1154 5793.7222 5843983
-1804.8741 1450.8828 5764.9839 6238744
-1741.5549 1426.9904 5670.0488 6567963
-1701.9038 1421.9324 5649.9512 6633499
-1660.9459 1415.5577 5624.6221 6765342
-1626.7616 1414.8131 5621.6636 6699549
-1566.108 1390.5355 5525.1982 6567706
-1522.8688 1381.0133 5487.3623 6765342
-1497.2817 1387.4329 5512.8701 6831134
-1458.8939 1382.0126 5491.3325 6699548
-1403.2168 1359.5931 5402.2505 6568217
-1370.5668 1358.959 5399.731 6041362
-1313.6116 1333.6193 5299.0454 6173204
-1278.5581 1329.8184 5283.9424 5976339
-1237.5222 1319.4479 5242.7363 5516044
-1170.507 1280.1311 5086.5137 6963234
-1145.2994 1285.6676 5108.5127 6436890
-1101.1538 1269.6686 5044.9414 6108182
-1058.135 1254.1121 4983.1289 5910803
-1015.1381 1237.6892 4917.8735 5713424
-971.66089 1219.6927 4846.3657 5581838
-939.38092 1215.0836 4828.0518 5845012
-901.27533 1202.4127 4777.7051 5647633
-864.99152 1191.4294 4734.064 5581586
-829.1897 1180.396 4690.2231 5121035
-798.0127 1175.4095 4670.4097 5055243
-763.19415 1164.5082 4627.0938 4726277
-730.61932 1156.3456 4594.6602 4528899
-706.84247 1162.0144 4617.1851 5121292
-670.00464 1145.8037 4552.7729 5778451
-635.08429 1131.6497 4496.5327 5647379
-604.68225 1124.6594 4468.7578 5450000
-580.63324 1129.3865 4487.54 5976344
-549.52734 1120.182 4450.9668 5646867
-513.29395 1099.0703 4367.0811 4791301
-487.80655 1099.9482 4370.5693 4726024
-461.31732 1098.5388 4364.9692 5055244
-423.83093 1069.219 4248.4688 5054988
-396.5838 1063.6584 4226.3745 5318416
-367.71497 1052.7057 4182.854 5449491
-343.8616 1055.5658 4194.2188 4791819
-317.66046 1051.103 4176.4863 4988941
-291.50839 1046.0624 4156.4575 5449749
-264.64926 1037.3198 4121.7197 4923405
-238.75432 1030.9633 4096.4619 4397060
-214.65498 1031.7988 4099.7822 5121039
-185.0446 1002.9769 3985.2603 5252370
-160.95288 1000.0103 3973.4729 5252370
-137.32695 999.41711 3971.116 4660232
-112.66306 989.46289 3931.5635 5712920
-88.963951 985.00073 3913.833 5713176
-65.421181 979.73322 3892.9031 4792073
-42.123295 974.39258 3871.6824 5055501
-19.322409 981.5238 3900.0181 5252624
3.8244457 991.29071 3938.8259 4923661
26.781462 977.34619 3883.4185 6634021
49.036285 962.50726 3824.457 5252624
73.092705 981.23407 3898.8669 5515539
94.396141 962.8844 3825.9556 5186831
115.84441 952.83282 3786.0164 5515796
137.83328 949.76788 3773.8381 5121037
160.5349 951.78436 3781.8503 5450002
181.9805 946.77222 3761.9351 5186831
203.96306 945.34283 3756.2554 5515796
225.10973 940.7016 3737.8135 5581333
246.02599 936.01514 3719.1924 5252624
266.75238 931.4364 3700.9988 5252367
287.1918 926.62726 3681.8904 4792072
301.78162 904.95605 3595.7812 5120782
325.10635 910.60913 3618.2434 5317906
345.92383 908.97455 3611.7485 4726027
367.37369 909.09528 3612.2283 5778970
387.65997 906.48193 3601.8442 4134148
403.32626 893.90192 3551.8584 4332039
424.80426 894.81146 3555.4724 4661259
444.76172 892.5835 3546.6199 5713434
469.13437 899.01764 3572.1853 4792332
485.08875 889.46045 3534.2104 4726282
499.91702 878.71484 3491.5137 4398089
517.72778 873.85748 3472.2131 4726799
538.03705 873.42737 3470.5039 3608835
557.47748 871.67017 3463.5222 4200970
577.0647 870.2594 3457.9163 4134920
591.38922 861.28082 3422.2405 3937540
610.03015 858.97546 3413.0806 5384986
624.47351 851.09717 3381.7766 4463884
643.29492 849.49011 3375.3911 3805956
657.81659 842.47333 3347.5103 3674114
678.49054 843.51593 3351.6528 4266250
694.62579 839.01697 3333.7769 3410944
709.40808 833.17786 3310.5754 4200967
734.4245 839.34924 3335.0972 4266504
740.8988 824.5614 3276.3384 4726284
761.2431 825.57062 3280.3489 4595722
766.92322 811.0224 3222.5422 4200967
785.16656 810.1438 3219.051 4529673
798.37213 804.23218 3195.5615 4990480
813.0871 800.07959 3179.0618 4069380
823.98755 792.44666 3148.7327 4595209
846.86462 796.41479 3164.5 4661002
854.9328 786.58612 3125.4463 5055504
873.45233 786.58612 3125.4463 4463624
892.39929 786.96307 3126.9438 4595212
910.57361 786.65717 3125.7285 3411200
917.86658 777.15033 3087.9536 4332297
935.60834 776.68903 3086.1211 4793104
951.50916 774.74652 3078.4026 5253398
972.19574 776.7005 3086.1667 5122326
980.9566 769.23065 3056.4856 3543298
986.13409 759.27264 3016.9182 4332811
1007.5012 761.91241 3027.407 4201225
1010.3971 750.73553 2982.9963 3806468
1032.4417 753.92603 2995.6736 4398347
1037.9844 745.16205 2960.8506 4201225
1050.8701 741.87329 2947.783 3937796
1068.2881 741.83942 2947.6484 4003848
1083.8462 740.53583 2942.4688 4267019
1105.8871 743.63275 2954.7742 4135433
1118.8127 740.59937 2942.7212 3609345
1133.5472 738.83801 2935.7224 3938310
1143.5756 734.10883 2916.9314 5056533
1149.3311 726.81842 2887.9634 4398348
1157.2743 721.1051 2865.262 4003845
1170.0587 718.52991 2855.0295 4135433
1181.9167 715.46741 2842.8608 4530189
1195.3385 713.42419 2834.7424 5056533
1212.4952 713.63593 2835.5837 4859153
1217.8171 706.9715 2809.103 3214336
1233.1614 706.22656 2806.1431 3280385
1236.5643 698.7536 2776.45 4595726
1246.2085 694.95746 2761.366 4398347
1259.0265 693.00659 2753.6145 4661261
1269.2186 689.67877 2740.3916 4924690
1286.0646 690.00494 2741.6877 4595982
1272.1395 674.01965 2678.1711 4858643
1313.436 687.32581 2731.0422 5055762
1323.9246 684.38245 2719.3469 3675399
1329.431 678.96533 2697.8225 3082755
1343.6771 678.08746 2694.3342 3410948
1364.2002 680.36066 2703.3667 5516820
1363.2617 672.00189 2670.1538 5780248
1375.5604 670.28516 2663.3325 5977627
1383.3706 666.44507 2648.074 5846298
1400.1764 666.97614 2650.1843 4661769
1408.0643 663.29456 2635.5557 6372386
1430.0431 666.25861 2647.3333 6109214
1443.248 665.11499 2642.7891 5714456
1456.738 664.12585 2638.8589 6635814
1485.521 670.05573 2662.4209 7031088
1490.283 665.14008 2642.8887 6965809
1500.2185 662.61163 2632.8423 7031347
1515.0602 662.27985 2631.5239 6373929
1519.29 657.36334 2611.9885 7952452
1551.6393 664.58997 2640.7029 7163191
1569.745 665.63239 2644.845 7294777
1558.064 654.14844 2599.2144 7097396
1597.5579 664.16455 2639.0127 7360569
1614.0208 664.50446 2640.3633 7031602
1613.3467 657.85028 2613.9233 9728858
1625.8484 656.64392 2609.1299 7623482
1642.5061 657.12311 2611.0339 7228981
1664.7653 659.81335 2621.7234 8018240
1688.2263 662.92584 2634.0906 8150337
1704.0736 663.01892 2634.4604 8610631
1719.6112 662.99084 2634.3489 8216387
1728.1346 660.28339 2623.5911 7623739
1746.906 661.50482 2628.4443 7228210
1765.7037 662.7146 2633.2512 7096881
1786.9069 664.79803 2641.5295 7491382
1799.9998 663.85419 2637.7793 7689017
1819.3705 665.22192 2643.2139 8478277
1838.468 666.46729 2648.1624 7096370
1876.4178 674.46796 2679.9524 6965038
1883.4879 671.32794 2667.4758 7425844
1910.4548 675.27295 2683.1509 7096880
1930.8225 676.83948 2689.3755 7491639
1957.0997 680.435 2703.6621 6833452
1976.5063 681.60278 2708.3022 7557432
1998.4692 683.62616 2716.342 7294259
2033.4039 690.01917 2741.7441 8281153
2083.9431 701.56396 2787.6167 7294258
2111.0696 705.10736 2801.696 7754039
2162.6218 716.69012 2847.7195 7886394
2248.1199 739.25604 2937.3835 7952187
2271.8894 741.33276 2945.6353 7623225
2304.9973 746.40179 2965.7766 7623224
2375.6045 763.44519 3033.4976 7623224
2408.6013 768.23657 3052.5356 7754810
2468.0811 781.34052 3104.603 7689018
2529.2854 794.79236 3158.0532 7820350
2599.6528 810.90491 3222.0754 7885886
2604.1519 806.38605 3204.1201 7228214
2606.7644 801.35278 3184.1208 4859154
2631.6873 803.20105 3191.4646 3350805
2640.7695 800.22278 3179.6306 3085836
2693.5713 810.44098 3220.2319 7557950
2713.3228 810.64124 3221.0276 9597790
2705.0854 802.5351 3188.8184 9334360
2717.7422 800.69708 3181.5154 10650731
2754.2307 805.85748 3202.0198 4728083
2783.0222 808.71057 3213.3562 9136982
2813.0098 811.87 3225.9102 5387039
2871.2097 823.07428 3270.4297 4532757
3098.1306 882.17053 3505.2444 5650980
3136.2725 887.08411 3524.7681 7296067
3158.3428 887.41693 3526.0906 8349779
3262.7717 910.73413 3618.74 8021327
3538.8364 981.34253 3899.2976 7626828
3681.7639 1014.3545 4030.4685 11376514
3839.9587 1051.1202 4176.5547 6043936
3840.0176 1044.4054 4149.8735 5714715
3881.6316 1049.0062 4168.1548 6570022
4047.5581 1086.9316 4318.8491 6502948
4081.9658 1089.2845 4328.1978 6437409
4122.6865 1093.2821 4344.0815 6437409
4168.7896 1098.6484 4365.4048 6700324
0 0 0 0
0 0 0 0
0 0 0 0
0 0 0 0
0 0 0 0
0 0 0 0
0 0 0 0
0 0 0 0
-2950.8057 856.14453 3323.5811 8150556
-2926.9126 854.91785 3318.8191 8545056
-2902.4783 853.5155 3313.375 8610846
-2873.4297 850.72797 3302.5535 8611102
-2854.25 850.84399 3303.0039 8611102
-2838.2983 851.93042 3307.2217 8676896
-2804.0481 847.50159 3290.0286 8939813
-2795.1296 850.72046 3302.5247 7163148
-2853.3435 874.56122 3395.0752 7228941
-2859.3931 882.63837 3426.4309 7097355
-2837.0359 881.99976 3423.9517 7163918
-2810.4211 880.0188 3416.2615 7296275
-2786.248 878.77917 3411.4492 7427354
-2718.6086 863.71198 3352.958 5190160
-2782.5044 890.5199 3457.0271 5058310
-2751.3096 887.06659 3443.6213 5716235
-2718.0327 882.88538 3427.3899 8480303
-2704.6289 885.1452 3436.1624 9006900
-2700.7263 890.5722 3457.2305 8941104
-2688.9214 893.45648 3468.4272 8480294
-2737.834 916.71552 3558.7195 7953438
-2732.9644 922.18768 3579.9624 6704661
-2756.6218 937.44678 3639.1987 4994314
-2740.6616 939.36743 3646.6548 3284483
-2754.5947 951.64587 3694.3203 2167552
-2770.0469 964.65021 3744.8035 3416326
-2801.624 983.52521 3818.0769 4929548
-2771.5874 980.90173 3807.8923 6639896
-2751.4221 981.75726 3811.2139 7889962
-2729.8213 982.1106 3812.5854 8678445
-2697.9426 978.74146 3799.5061 9335860
-2659.8152 973.02948 3777.332 9139509
-2602.802 960.25299 3727.7334 8942389
-2504.4565 931.87866 3617.5833 8284733
0 0 0 0
-4668.8193 1767.468 6861.3682 7961966
-4894.418 1869.149 7256.0977 7830380
-4923.0679 1896.7523 7363.2544 7830381
-5091.7109 1979.2679 7683.583 7896173
-5107.5605 2003.3424 7777.0405 7699311
-5077.1724 2009.5541 7801.1543 7765104
-5055.3853 2019.3154 7839.0483 7699311
-5031.4932 2028.4094 7874.3516 7765104
-4932.6685 2007.1823 7791.9468 7765104
-4981.1392 2046.0571 7942.8604 7765104
-4825.8848 2001.1929 7768.6963 7699311
-4832.2891 2023.1469 7853.9224 7699311
-4763.5718 2013.7705 7817.5229 7633262
-4807.5835 2052.3335 7967.2261 7632491
-4958.1885 2137.6169 8298.2988 7368546
-4924.6143 2144.4084 8324.6631 7630687
-4762.1133 2094.6284 8131.4155 8154972
-4825.7476 2144.3137 8324.2959 8678998
-4698.2109 2109.2014 8187.9893 8940368
-4744.7012 2152.2991 8355.2949 9399630
-4534.4302 2078.6047 8069.2114 9728076
-4522.8027 2095.3691 8134.2915 9728075
-4448.0293 2082.925 8085.9824 9859405
-4402.8545 2084.2209 8091.0137 9925711
-4386.7871 2099.4761 8150.2344 9925711
-4308.9561 2085.1824 8094.7456 9859662
-4111.8696 2012.2073 7811.4546 9925454
-4185.5161 2071.5662 8041.8872 10122319
-4147.9355 2076.6082 8061.4604 9727561
-4112.1089 2082.656 8084.938 9727304
-4052.114 2076.4612 8060.8896 9266754
-4095.1355 2123.5381 8243.6436 9529926
-4040.2192 2120.3528 8231.2783 9463621
-4087.458 2171.3569 8429.2783 9265728
-4062.866 2184.9927 8482.2129 8805176
-4094.1919 2229.4192 8654.6777 7686438
-3976.311 2192.6943 8512.1104 7555108
-3747.3462 2092.9824 8125.0259 7357217
-3526.7942 1995.4351 7746.3442 7225631
-3184.0471 1825.2668 7085.7451 7225631
-3121.6609 1813.4158 7039.7393 7027996
-2976.2727 1752.374 6802.7729 6962202
-3020.7354 1802.9714 6999.1938 6896667
-2954.1199 1787.7557 6940.126 7028253
-2757.1274 1692.0959 6568.772 6765081
-2744.9355 1708.736 6633.3691 6633239
-2680.8938 1693.1139 6572.7231 6962205
-2590.801 1660.3361 6445.4785 6830875
-2570.6301 1672.0577 6490.9829 6699290
-2425.1047 1601.3607 6216.5347 6830876
-2379.7488 1595.6477 6194.3564 6501907
-2329.79 1586.6211 6159.3149 6304531
-2284.3367 1580.4241 6135.2578 6370324
-2222.8945 1562.7861 6066.7866 6172946
-2194.7412 1568.3562 6088.4102 6304532
-2130.7546 1548.0782 6009.6904 6238739
-2067.8523 1527.9124 5931.4053 6173715
-2045.746 1537.7136 5969.4546 7291939
-1972.4913 1508.7372 5856.9668 6238998
-1892.4464 1473.4359 5719.9263 5909776
-1830.5139 1451.2065 5633.6313 6370583
-1816.3302 1466.709 5693.812 6304791
-1769.7692 1456.1583 5652.854 6502172
-1694.0933 1420.7828 5515.5254 6501913
-1669.5422 1427.736 5542.5176 6304791
-1637.5636 1428.4888 5545.4399 6633756
-1582.8765 1409.0575 5470.0073 6567963
-1535.8064 1395.7365 5418.2944 6633755
-1482.5208 1376.0771 5341.9761 6107411
-1454.5205 1379.5419 5355.4263 6699547
-1417.6688 1374.5789 5336.1597 6633756
-1382.9037 1371.4585 5324.0469 6238995
-1332.4517 1352.2725 5249.5659 5910033
-1292.3613 1342.9364 5213.3228 5910032
-1260.0526 1341.4271 5207.4639 6436120
-1206.0912 1316.2123 5109.5791 6371097
-1152.0884 1289.6528 5006.4741 5581067
-1110.7554 1276.2469 4954.4321 5712397
-1071.1542 1264.1569 4907.498 5844240
-1037.7092 1258.8602 4886.9365 6172948
-1008.5777 1258.6425 4886.0913 5778447
-952.80579 1224.1838 4752.3218 6305047
-925.58807 1225.4307 4757.1616 5647119
-886.40363 1210.4147 4698.8691 5515534
-849.48499 1197.6193 4649.1973 5317900
-818.85773 1193.1332 4631.7817 5449744
-777.36017 1171.9478 4549.5396 4659973
-753.37219 1176.5859 4567.5449 4726021
-722.31604 1170.1198 4542.4429 4726277
-698.5387 1175.4008 4562.9438 5252365
-660.44183 1156.042 4487.7925 5778451
-629.4043 1147.934 4456.3169 5450000
-592.52197 1127.989 4378.8901 4857606
-568.57806 1131.9764 4394.3691 5186570
-535.08429 1116.4213 4333.9834 4923657
-502.61441 1101.5416 4276.2202 5186828
-471.88602 1089.1014 4227.9272 5055245
-445.2052 1085.1318 4212.5171 4331266
-417.54602 1078.1644 4185.4692 4594954
-392.45435 1077.3654 4182.3672 4726538
-363.13651 1064.0748 4130.7729 4726539
-340.65109 1070.3308 4155.0591 4726026
-310.9054 1052.9724 4087.6731 4923405
-281.30396 1033.2108 4010.958 5449749
-261.27692 1048.2131 4069.1978 5252370
-234.13696 1034.8289 4017.2393 5252880
-207.07904 1018.8184 3955.0862 5384210
-185.0446 1026.5911 3985.2603 5844504
-160.2993 1019.3984 3957.3379 4725769
-135.48679 1009.2403 3917.9038 4857612
-111.24887 1000.0464 3882.2129 5054991
-88.348717 1001.2195 3886.7666 4791562
-65.00074 996.35553 3867.8845 4660233
-41.945084 993.11444 3855.3027 4528648
-19.143593 995.33582 3863.926 5055245
3.6891966 978.74811 3799.532 5450259
26.106058 975.12897 3785.4824 4923146
48.687515 978.16168 3797.2554 5843734
71.065773 976.48523 3790.7476 5384210
93.066322 971.67047 3772.0566 5450003
115.32693 970.90991 3769.1038 5121038
136.69679 964.11383 3742.7212 5186831
159.77113 969.55847 3763.8577 4989451
179.67195 956.76996 3714.2122 4594695
199.62474 947.01917 3676.3594 5515794
223.94699 957.87628 3718.5068 5318416
244.48204 952.04059 3695.8525 5121039
265.36313 948.40118 3681.7241 6042139
289.82187 957.12976 3715.6089 4462858
310.8309 954.03754 3703.6047 4791817
324.65091 930.74298 3613.1746 4594953
344.81171 927.38452 3600.137 4594696
359.42642 910.37012 3534.0862 5779227
384.0336 919.14508 3568.1509 4989709
403.65994 915.70502 3554.7966 5581846
416.41629 897.79462 3485.2678 5318674
435.62927 894.83942 3473.7959 5252881
457.18463 896.74548 3481.1951 4858125
475.995 893.33514 3467.9561 5384468
494.72794 890.06781 3455.2722 4726281
516.38623 892.11401 3463.2156 4397576
533.34668 886.198 3440.2495 4858129
555.55835 889.12158 3451.5989 4068869
572.93347 884.37201 3433.1609 4266505
591.72974 882.06659 3424.2112 4595470
611.84235 881.81116 3423.2195 4200455
625.90289 873.12958 3389.5173 3871747
637.95172 862.26868 3347.3552 4529677
657.50897 861.9054 3345.9448 4200712
673.6886 857.26526 3327.9316 4463884
689.53381 852.47565 3309.3384 4924690
706.78088 849.63623 3298.3154 4332553
722.86023 845.58344 3282.5825 4332553
737.97015 840.63892 3263.3877 4398094
750.96283 833.59662 3236.0491 4266759
761.0058 823.71222 3197.6777 3871745
772.36432 815.69745 3166.5642 4398346
793.50952 818.15344 3176.0981 4003588
807.0498 812.83624 3155.4565 4069125
819.15112 806.34338 3130.2512 4332296
836.33099 805.02637 3125.1387 4266760
847.2854 797.90393 3097.489 4003590
866.289 798.50287 3099.814 4003333
886.0152 799.72913 3104.5745 4332810
898.27405 794.30237 3083.5078 4332296
918.35956 795.87494 3089.6123 4924690
927.15863 787.79596 3058.2495 4267018
939.8338 783.25708 3040.6294 4530189
963.5885 787.94897 3058.8438 4464396
971.46045 779.71973 3026.8972 4661519
983.90784 775.39465 3010.1072 3543298
999.97949 774.02881 3004.8052 3477248
1003.5037 763.16852 2962.645 3872263
1019.3935 761.92395 2957.8137 4266761
1032.6045 758.75311 2945.5044 4661519
1047.452 756.8703 2938.1951 4201225
1062.7151 755.3443 2932.2712 3543296
1091.9104 763.61078 2964.3618 3938054
1077.8142 741.81946 2879.7673 4990484
1105.4875 749.00781 2907.6729 4793618
1120.2117 747.33673 2901.1855 4069639
1124.4941 738.85522 2868.26 4398603
1126.1296 728.91315 2829.6646 4332811
1149.5922 733.18341 2846.2419 4332810
1164.4945 731.94965 2841.4524 4332810
1178.3372 730.09454 2834.2507 4201224
1179.8385 720.75244 2797.9844 4727827
1201.0413 723.53772 2808.7971 4398862
1197.5874 711.59613 2762.4395 3806725
1210.2578 709.42841 2754.0242 3543040
1221.4822 706.48193 2742.5859 3543045
1241.1473 708.43073 2750.1511 5056277
1250.6528 704.60522 2735.3003 3279873
1261.3712 701.55206 2723.448 5319448
1270.2639 697.57355 2708.0032 4529931
1276.4358 692.21881 2687.2158 3477249
1304.4678 698.70477 2712.3945 4003331
1309.1763 692.6922 2689.0537 5056020
1327.0272 693.6944 2692.9443 4792848
1335.9911 690.0824 2678.9224 3806725
1347.3922 687.79932 2670.0593 5516570
1361.1945 686.78064 2666.1047 5054990
1365.6984 681.14783 2644.238 5910297
1377.8093 679.39374 2637.4285 4726279
1397.7809 681.5116 2645.6501 5186829
1404.4816 677.18384 2628.8496 5318673
1413.8165 674.20721 2617.2942 5647638
1424.8641 672.10297 2609.1257 5384209
1432.4171 668.41327 2594.802 5056272
1445.598 667.40015 2590.8691 5911837
1462.5743 668.14227 2593.75 5583130
1476.5085 667.49353 2591.2317 7492155
1501.1069 671.6297 2607.2883 6966067
1501.7694 665.08112 2581.8667 7690047
1535.1235 672.99664 2612.595 7492411
1553.6359 674.3125 2617.7031 7492413
1578.5638 678.35925 2633.4128 7689791
1567.5615 667.0376 2589.4617 7163446
1601.1738 674.73608 2619.3474 6965554
1602.176 668.6767 2595.8247 8084033
1615.4498 667.80548 2592.4426 7294517
1615.7131 661.62299 2568.4419 7623738
1647.0094 668.14508 2593.761 7689018
1660.9576 667.57397 2591.5439 7754811
1679.079 668.67523 2595.8191 7886396
1693.1724 668.16705 2593.8462 7820604
1699.3479 664.57153 2579.8882 7623225
1714.2587 664.42572 2579.3223 7360310
1726.9264 663.4209 2575.4214 7623481
1758.1265 669.4906 2598.9844 7031345
1754.1481 662.17542 2570.5867 8018496
1784.3501 667.77795 2592.3357 7294773
1802.0526 668.64691 2595.709 7491898
1852.222 681.44592 2645.3953 8017728
1861.5377 679.12592 2636.3889 6899247
1879.0902 679.8244 2639.1006 6899247
1909.3892 685.08484 2659.5217 6570282
1914.101 681.15375 2644.261 7359796
1938.1963 684.12817 2655.8079 7491638
1953.4189 683.94824 2655.1094 7162672
1979.2728 687.46368 2668.7563 7689015
2019.1127 695.74261 2700.8955 7623222
2048.6406 700.36603 2718.8438 7359281
2076.1514 704.23322 2733.8562 7886394
2144.0664 721.6394 2801.4277 7754808
2195.9387 733.42017 2847.1609 8017469
2212.7302 733.39386 2847.0588 7820090
2229.3975 733.32721 2846.8003 7688248
2302.6487 751.73425 2918.2568 7556918
2342.9165 759.1792 2947.1584 7754299
2412.3179 775.88428 3012.0081 7491385
2459.6213 785.28876 3048.5166 8083522
2495.314 790.87622 3070.2073 8346436
2571.7749 809.21051 3141.3816 8083010
2611.3479 815.75793 3166.7986 7161907
2642.0618 819.46405 3181.1863 6438184
2671.5754 822.74823 3193.9353 5188374
2667.1626 815.61145 3166.2302 3740164
2659.7012 807.64862 3135.3184 3477252
2671.5513 805.61981 3127.4424 9135689
2728.4324 817.10474 3172.0271 9004105
2752.3596 818.63098 3177.9521 4793873
2777.8303 820.59247 3185.5669 4333584
2824.5825 828.77185 3217.3193 5058073
2841.2524 828.07416 3214.6108 6833458
2942.8643 851.97693 3307.4021 4268564
2996.2886 861.70514 3345.1675 6439213
3199.9431 914.22644 3549.0566 6176299
3142.3945 891.92322 3462.4749 5913126
3194.1184 900.72351 3496.6379 6834742
0 0 0 0
3781.6306 1052.7411 4086.7754 6767405
3841.4153 1062.5798 4124.9697 6109214
3963.6877 1089.4698 4229.3574 6239519
3978.7332 1086.7343 4218.7378 6371362
4002.6362 1086.4371 4217.5845 6240030
4017.1594 1083.6135 4206.623 7095338
0 0 0 0
0 0 0 0
0 0 0 0
0 0 0 0
0 0 0 0
0 0 0 0
0 0 0 0
-2990.1013 881.61761 3345.5129 7887128
-2960.7974 878.80383 3334.835 8018713
-2930.9009 875.7749 3323.3413 8084248
-2893.1685 870.3479 3302.7471 8216344
-2873.4297 870.29688 3302.5535 8479514
-2865.7058 873.90906 3316.2607 8611101
-2851.2432 875.50195 3322.3054 8742945
-2829.8308 874.96814 3320.2798 9071398
-2841.8479 884.83539 3357.7236 9071142
-2877.146 902.14172 3423.3965 8940071
-2874.9929 907.86743 3445.124 9004839
-2865.887 911.46381 3458.7712 8611365
-2853.6841 914.11987 3468.8506 8415015
-2859.6528 922.67767 3501.3252 8349223
-2843.2556 924.09131 3506.6895 7363356
-2814.0029 921.31683 3496.1611 5587988
-2782.8113 917.86176 3483.0498 4009993
-2808.6931 933.32019 3541.7109 2365441
-2794.3752 935.5528 3550.1829 2628097
-2817.7593 950.53735 3607.0457 4338695
-2825.5312 960.44427 3644.6399 5786391
-2836.0784 971.45428 3686.4202 6970146
-2810.145 970.0426 3681.063 8154417
-2728.3135 949.16211 3601.8269 8679472
-2744.4373 962.29913 3651.6782 8876335
-2731.1892 965.26422 3662.9302 9138476
-2667.6892 950.37433 3606.427 9400876
-2656.6917 954.09918 3620.5618 9531947
-2568.0278 929.76532 3528.2209 9597482
-2571.374 938.61804 3561.8149 9531176
-2527.9736 930.41241 3530.6765 9465639
-2537.3606 941.6601 3573.3586 9531432
-2528.4702 946.2569 3590.8025 9400618
-2503.0808 944.7049 3584.9128 9269806
-2470.887 940.53613 3569.0933 8546871
0 0 0 0
0 0 0 0
0 0 0 0
-4501.0015 1774.0289 6731.9849 7830381
-4628.7793 1840.7045 6985.002 7830381
-4625.9297 1856.1687 7043.6841 7699312
-4740.5703 1919.4868 7283.96 7633262
-4700.751 1920.8521 7289.1411 7370089
-4748.0737 1958.1814 7430.7964 7369576
-4851.0288 2019.3679 7662.9834 6579288
-4794.2241 2014.5784 7644.8081 6906966
-4698.9292 1993.369 7564.3242 8088926
-4645.4849 1989.6758 7550.3091 8153170
-4663.1553 2016.6656 7652.729 8743505
-4723.2402 2062.7085 7827.4502 9201999
-4649.0229 2050.4314 7780.8618 9399117
-4555.4409 2029.2821 7700.6055 9529931
-4484.3247 2017.8137 7657.0854 9398086
-4504.4551 2047.5889 7770.0742 9792841
-4422.5415 2031.1138 7707.5557 9990734
-4427.8701 2054.78 7797.3633 10121548
-4334.2222 2032.5305 7712.9321 9990732
-4349.8853 2061.6145 7823.2983 9859147
-4271.1011 2046.0797 7764.3477 9990476
-4157.3135 2013.2557 7639.7896 9990476
-4166.8208 2040.0741 7741.5581 9990474
-4021.5959 1990.8894 7554.915 10056267
-4120.2319 2062.6794 7827.3398 9661508
-4065.9321 2058.6697 7812.1235 9594946
-4009.2673 2053.3562 7791.9604 9529153
-3910.9888 2026.358 7689.5093 9398336
-3898.2568 2043.5692 7754.8213 9397313
-3933.3286 2086.5498 7917.9214 8870969
-3819.5432 2050.6492 7781.688 8213039
-3758.5459 2042.5585 7750.9858 7752488
-3708.5447 2040.3174 7742.4814 7686438
-3537.9158 1970.8237 7478.7705 7686182
-3546.3518 2000.5815 7591.6938 7291168
-3288.3616 1878.8757 7129.8521 7225375
-3298.9736 1909.4711 7245.9531 7093789
-3228.8586 1893.5319 7185.4678 6830873
-3030.936 1801.2136 6835.1436 7159839
-2866.9292 1726.8229 6552.8501 6962203
-2955.0427 1804.3329 6846.9805 7027996
-2792.6226 1728.8966 6560.7197 6699032
-2745.2065 1723.5343 6540.3706 6238740
-2692.8494 1714.8718 6507.4985 6501654
-2648.363 1711.0425 6492.9678 6699290
-2603.4785 1706.8395 6477.0181 6633497
-2531.6982 1684.6139 6392.6777 6501910
-2416.624 1632.4674 6194.7954 6370068
-2410.2153 1653.25 6273.6597 6304789
-2368.3008 1649.9471 6261.1265 6765339
-2257.8831 1598.0551 6064.2095 6436117
-2230.0229 1603.8611 6086.2417 6370068
-2170.481 1586.6974 6021.1099 6041359
-2069.4072 1538.0916 5836.6631 6172945
-2061.8384 1558.5123 5914.1548 5975569
-2007.6785 1543.8129 5858.374 5843983
-1917.1376 1500.1287 5692.6035 6041362
-1869.1945 1488.8086 5649.647 6107155
-1815.324 1472.2687 5586.8823 6304534
-1787.8547 1476.9238 5604.5474 5975312
-1745.2607 1469.0245 5574.5713 6304277
-1707.2567 1464.7583 5558.3823 6370327
-1644.1869 1438.396 5458.3438 6502170
-1588.4026 1417.4769 5378.9614 6173205
-1559.983 1420.6215 5390.894 6238741
-1505.0056 1399.2064 5309.6299 6567963
-1474.1083 1399.7422 5311.6631 6896928
-1436.9248 1394.2024 5290.6406 6765085
-1395.403 1384.1119 5252.3501 6107412
-1359.4744 1379.236 5233.8467 6370584
-1318.7628 1369.1663 5195.6348 7094307
-1258.0974 1337.4037 5075.104 6830878
-1214.3044 1322.4606 5018.3989 6041363
-1174.4475 1311.1615 4975.5215 5712399
-1127.8077 1291.5132 4900.9614 5778192
-1095.6263 1287.8209 4886.9502 5975828
-1055.7988 1274.6968 4837.1475 5844242
-1019.5266 1265.2524 4801.3086 5055240
-974.59192 1244.2069 4721.4463 5318668
-937.89783 1232.7487 4677.9653 4989703
-915.32574 1239.7195 4704.4175 5647377
-874.93646 1222.2384 4638.0815 5515793
-839.44495 1210.6875 4594.2485 5449999
-807.0083 1202.9158 4564.7568 5384206
-772.28027 1191.071 4519.8091 5121035
-745.36963 1190.865 4519.0273 5450000
-706.64587 1171.0668 4443.8979 5450000
-678.66431 1168.2269 4433.1216 5318157
-648.60596 1161.4398 4407.3662 5580815
-617.85229 1152.7856 4374.5259 5121034
-589.46771 1147.9875 4356.3184 4792069
-556.02222 1132.4424 4297.3286 5515794
-527.75769 1126.4636 4274.6406 5121036
-496.18201 1112.4583 4221.4937 5055243
-465.49493 1099.0638 4170.6655 4726280
-438.64661 1093.7393 4150.46 5252624
-404.95929 1069.7167 4059.3003 4989199
-384.70309 1080.3792 4099.7622 4134405
-359.10397 1076.4631 4084.9016 5187090
-334.91504 1076.5138 4085.0938 4858125
-308.69238 1069.5261 4058.5774 5252882
-283.84491 1066.5248 4047.188 5318420
-259.69159 1065.8184 4044.5076 5713432
-230.9731 1044.3274 3962.9546 4989709
-205.50526 1034.3329 3925.0281 6305312
-181.35893 1029.2877 3905.8828 5844761
-156.88196 1020.6154 3872.9736 4792330
-132.78123 1011.8383 3839.6667 5318417
-110.00174 1011.5813 3838.6919 5317906
-86.931389 1007.8187 3824.4136 5054734
-64.346519 1009.0153 3828.9546 5054991
-41.356003 1001.6904 3801.1584 4594441
-18.92075 1006.3784 3818.9478 5515541
3.6847527 1000.0558 3794.9553 5252369
25.990257 993.13452 3768.6909 5515796
48.05645 987.69183 3748.0374 5450003
70.019646 984.242 3734.9458 5121039
91.581665 978.16418 3711.8823 5515539
113.7399 979.57526 3717.2368 4726023
136.03696 981.53009 3724.655 5120781
157.34363 976.79095 3706.6711 4594439
178.23296 970.93915 3684.4651 3805184
196.77995 954.99695 3623.9685 5449746
221.58356 969.56836 3679.2634 5713174
238.55174 950.31555 3606.2036 5383953
261.43063 955.83893 3627.1636 4594702
284.72507 961.927 3650.2664 6107933
304.42703 955.87524 3627.3015 5252624
322.50809 945.86786 3589.3262 5055245
344.02945 946.56458 3591.9697 5515539
356.94122 924.87158 3509.6504 4857609
377.11804 923.35522 3503.8965 4923659
395.0918 916.88458 3479.342 5318160
415.48846 916.39972 3477.5022 4857610
434.55093 913.15704 3465.197 5647382
453.32248 909.62329 3451.7871 4660232
470.23004 902.81573 3425.9543 5187090
492.51837 906.47498 3439.8401 4924431
507.80682 897.47217 3405.6768 6306085
527.49622 896.63824 3402.5122 4463882
550.20819 900.81427 3418.3591 4398345
570.93207 901.5545 3421.168 4858640
582.51703 888.3075 3370.8992 4924177
609.56122 898.73187 3410.4568 5515543
619.76385 884.45294 3356.272 4529418
631.77893 873.56799 3314.9666 4069382
651.95343 874.28131 3317.6736 4858640
668.62201 870.38916 3302.9038 4726799
683.74994 864.76978 3281.5796 4726801
707.71155 870.32458 3302.6584 3740162
716.16473 857.02173 3252.1777 3608576
735.02808 856.54736 3250.3774 4661007
744.81396 845.78906 3209.5525 4332553
759.12646 840.57874 3189.7808 3674628
770.27649 832.20496 3158.0044 5121812
792.68494 836.10339 3172.7981 4924689
806.39856 830.86261 3152.9104 4727052
816.4433 822.16455 3119.9036 4200709
837.20538 824.40509 3128.406 4595468
846.0979 815.11377 3093.1477 4464138
843.12317 795.02612 3016.9204 3279873
875.54102 808.45337 3067.8733 3740418
896.44879 810.92242 3077.2424 4728083
905.78455 803.03357 3047.3066 5253656
927.33667 806.07202 3058.8367 4003589
940.80621 802.10309 3043.7756 4069638
941.00726 787.18396 2987.1611 3674883
957.76813 786.41266 2984.2344 4069639
983.62677 793.00409 3009.2471 4530191
986.34802 781.03949 2963.8445 4990741
998.55017 776.86957 2948.0208 5714207
1011.5016 773.41589 2934.915 3543298
1029.5853 773.93701 2936.8926 3477249
1042.1531 770.36328 2923.3311 3411714
1054.4114 766.6814 2909.3594 3608833
1073.0693 767.69647 2913.2112 4069382
1093.1705 769.69562 2920.7976 4530191
1097.7314 760.86108 2887.2727 4200969
1101.4403 751.71619 2852.5703 4464397
1118.4771 751.80634 2852.9124 5187863
1135.1398 751.64618 2852.3044 4003591
1136.3494 741.40826 2813.4543 4135175
1153.8604 741.94849 2815.5044 3411713
1152.6832 730.62793 2772.5457 3740420
1168.9905 730.55219 2772.2581 5320219
1181.7194 728.27332 2763.6104 3872775
1185.2379 720.45801 2733.9534 4069897
1214.2623 728.1485 2763.1367 3872003
1220.5717 722.19421 2740.5417 3806723
1236.6522 722.10175 2740.1909 3411973
1249.7076 720.26819 2733.2332 2557184
1255.3131 714.24274 2710.3679 4069639
1267.7618 712.21399 2702.6694 3872007
1279.0948 709.61676 2692.8137 4727312
1292.6454 708.29871 2687.812 4595727
1313.3682 710.89496 2697.6641 4661775
1317.057 704.31946 2672.7119 5122069
1325.9338 700.64172 2658.7556 6240550
1336.8722 698.12677 2649.2122 5056275
1347.6097 695.56665 2639.4971 4003590
1358.8654 693.32959 2631.0081 4463880
1367.2607 689.70044 2617.2363 5384469
1374.6686 685.66016 2601.9045 3937287
1398.9845 690.04938 2618.5603 4857868
1405.0229 685.42578 2601.0151 4529161
1416.7511 683.64813 2594.2695 5122067
1434.7905 684.92145 2599.1013 5516568
1437.01 678.69598 2575.4773 5385493
1458.489 681.60199 2586.5049 5912093
1471.0013 680.30072 2581.5669 6965295
1487.267 680.74414 2583.2495 7031602
1505.0475 681.86487 2587.5024 7952960
1503.4413 674.26843 2558.6758 8479818
1521.7117 675.64893 2563.9143 7492925
1537.4796 675.90198 2564.8748 7755841
1552.4778 675.81506 2564.5449 7887684
1550.9578 668.60889 2537.1992 6900787
1590.595 679.1134 2577.0613 7690046
1596.3892 675.10602 2561.8542 7624252
1610.3479 674.59442 2559.9128 8150339
1633.2549 677.80597 2572.0999 7163188
1646.6591 677.05084 2569.2344 7557432
1664.0365 677.92822 2572.5637 7688761
1675.0156 676.20673 2566.0312 7491638
1680.3618 672.26257 2551.0642 6307364
1685.2036 668.18884 2535.6052 7360052
1706.4366 670.62872 2544.864 7360053
1730.3484 674.06952 2557.9209 7491382
1733.6208 669.4801 2540.5054 7228467
1763.6851 675.22693 2562.313 7425846
1781.9944 676.4137 2566.8167 8017730
1801.7958 678.14197 2573.375 8412741
1824.5421 680.94037 2583.9941 8544328
1838.8762 680.57874 2582.6218 7754812
1843.5759 676.68677 2567.8528 7820862
1864.5167 678.771 2575.762 7228212
1870.8514 675.5473 2563.5288 7228467
1909.1105 683.8103 2594.8848 7030831
1922.204 682.99933 2591.8074 7490870
1985.2831 699.82141 2655.6428 7293747
2013.7806 704.28461 2672.5796 7293745
2023.5361 702.17468 2664.5728 7622709
2081.6064 716.73297 2719.8179 7622453
2117.8079 723.59564 2745.8599 8083261
2151.6335 729.54797 2768.4475 8280640
2165.1003 728.55963 2764.697 8083261
2192.6047 732.27417 2778.7927 8741191
2270.5044 752.63873 2856.071 8017469
2283.7429 751.42633 2851.4702 8280900
2296.4905 750.07129 2846.3284 8214594
2369.9983 768.43671 2916.0203 7688507
2424.3657 780.37518 2961.3237 8017215
2461.3691 786.59296 2984.9187 8149055
2508.04 795.78949 3019.8169 7359796
2549.4109 803.18585 3047.8845 7425076
2641.2202 826.25708 3135.4336 8280899
2663.8936 827.52899 3140.2605 7490613
2652.2136 818.18567 3104.8047 5911837
2698.9592 826.87073 3137.7622 7227438
2674.5391 813.78314 3088.0984 6108189
2732.2686 825.69946 3133.3176 5779993
2783.1086 835.38684 3170.0789 4990481
2797.2537 834.00372 3164.8303 6438183
2805.2869 830.82898 3152.783 6503977
2850.7004 838.69366 3182.6274 6899250
2986.3486 872.82825 3312.1592 3083524
3042.9119 883.55347 3352.8589 5979433
3143.1433 906.73706 3440.8347 6373671
3142.72 900.77203 3418.199 6109990
3669.0305 1044.8899 3965.0894 7030574
3706.8879 1048.9542 3980.5125 7029805
3767.0117 1059.2281 4019.499 7161648
3799.0386 1061.5221 4028.2041 6832168
3880.4902 1077.5114 4088.8792 7029289
3987.7224 1100.4164 4175.7979 6700068
0 0 0 0
0 0 0 0
0 0 0 0
0 0 0 0
0 0 0 0
0 0 0 0
0 0 0 0
-2981.6465 898.89221 3336.0532 8215833
-2949.0542 895.00006 3321.6082 8347419
-2924.4414 893.49353 3316.0171 8413212
-2904.3625 893.36133 3315.5261 8676642
-2888.7393 894.60706 3320.1494 8479523
-2905.0801 905.83649 3361.8254 7756572
-2868.4141 900.57904 3342.3132 7559710
-2861.4819 904.64856 3357.4165 6441494
-2868.7036 913.28101 3389.4543 4534283
-2904.2961 931.13123 3455.7014 3350021
-2939.2246 949.02039 3522.0935 3087105
-2946.2417 958.08893 3555.7495 4337411
-2900.2571 949.92834 3525.4631 5850129
-2856.5144 942.38904 3497.4824 7165724
-2827.8914 939.76398 3487.74 8021546
-2811.175 941.08624 3492.6475 8613938
-2788.8408 940.53363 3490.5964 8547629
-2814.1721 956.16791 3548.6199 8810025
-2826.4502 967.56909 3590.9331 8810023
-2781.3032 959.33606 3560.3777 9203241
-2768.9148 962.36273 3571.6106 9136932
-2725.6934 954.63708 3542.9387 9202725
-2695.5142 951.3949 3530.906 9268004
-2671.0659 950.14044 3526.2505 9333796
-2642.8018 947.49835 3516.4448 9268260
-2624.1716 948.29559 3519.4036 9465639
-2610.7546 951.00464 3529.4575 9531176
-2592.2617 951.89343 3532.7561 9663019
-2571.9929 952.13934 3533.6687 9663019
-2556.7329 954.25873 3541.5344 9663018
-2530.5818 952.31451 3534.3191 9531176
-2503.7361 950.07446 3526.0054 9531176
-2492.2107 953.65894 3539.3086 9269547
-2476.0239 955.50555 3546.1619 9204014
-2469.6689 961.21033 3567.3337 8875057
0 0 0 0
0 0 0 0
-4122.1978 1646.6661 6111.2617 7303518
-4387.6499 1768.2378 6562.4497 7171165
-4405.0654 1791.1299 6647.4092 7565150
-4552.2695 1867.6843 6931.5254 8155229
-4577.355 1895.0743 7033.1772 8614492
-4634.8081 1936.4911 7186.8872 8481361
-4601.626 1940.4563 7201.603 8611145
-4636.1504 1973.3141 7323.5483 9268557
-4574.3613 1965.4111 7294.2178 9595980
-4444.2788 1927.7343 7154.3877 9793358
-4390.7798 1922.8704 7136.3369 10056015
-4403.9531 1947.3938 7227.3506 10121551
-4442.7163 1983.8259 7362.561 10253136
-4321.0122 1948.6155 7231.8848 10319185
-4302.0454 1959.4948 7272.2607 10384721
-4235.2822 1948.6036 7231.8403 10318929
-4205.5444 1954.6987 7254.4609 10253649
-4231.1157 1986.8923 7373.9409 10187855
-4249.085 2016.1509 7482.5278 10121805
-4117.0522 1974.1012 7326.4697 10056525
-4093.5833 1983.766 7362.3379 9990732
-4072.8352 1994.9714 7403.9248 9924170
-4066.3857 2013.5009 7472.6934 9397825
-3970.5442 1987.6882 7376.895 9199931
-3968.283 2008.6694 7454.7622 8738609
-3979.5515 2037.0485 7560.0854 8870196
-3888.6514 2013.1804 7471.5034 8936502
-3844.5627 2013.2761 7471.8589 9068088
-3819.2188 2023.3044 7509.0771 8936503
-3739.3608 2004.3491 7438.7285 8608052
-3675.7109 1993.733 7399.3286 8279086
-3618.5769 1986.4371 7372.252 7818025
-3496.4937 1942.8734 7210.5737 7949354
-3441.8381 1936.1624 7185.667 7817512
-3369.0808 1918.9725 7121.8711 7357218
-3259.8718 1880.3214 6978.4248 7225375
-3248.7766 1897.9967 7044.0234 7225631
-3162.3447 1871.5463 6945.8579 7094045
-2997.5225 1797.3933 6670.6548 7094045
-3049.0771 1852.7377 6876.0542 7225631
-2939.0798 1810.0865 6717.7627 6764824
-2858.9695 1784.923 6624.3735 6699288
-2720.7549 1722.2783 6391.8809 7094045
-2699.6125 1733.0197 6431.7446 6435859
-2659.9778 1732.0271 6428.0615 6896668
-2533.5742 1673.6862 6211.541 6633496
-2475.5889 1659.4886 6158.8501 6238482
-2425.6829 1650.3634 6124.9834 6435861
-2378.8672 1643.0952 6098.0088 6304275
-2369.4927 1661.8628 6167.6606 6567447
-2295.8215 1635.4166 6069.5112 6435861
-2265.4646 1639.4747 6084.5723 6238739
-2210.9248 1625.88 6034.1182 6172946
-2155.5376 1611.2052 5979.6558 6172689
-2093.7808 1591.199 5905.4072 6238483
-1989.2275 1537.4364 5705.8784 6238482
-1950.1353 1533.2831 5690.4639 6040847
-1916.4169 1533.2831 5690.4639 5909519
-1859.5303 1514.4146 5620.4375 5975056
-1811.6084 1502.292 5575.4468 6304534
-1749.2526 1477.5273 5483.5381 6436119
-1697.5583 1461.0011 5422.2041 6501913
-1669.1409 1464.2568 5434.2871 6107155
-1618.047 1447.3564 5371.5649 6370584
-1586.2184 1447.3564 5371.5649 6238741
-1534.4479 1428.7878 5302.6514 6238997
-1484.1481 1410.8409 5236.0449 6502170
-1449.9164 1407.728 5224.4922 6304791
-1395.1204 1384.0779 5136.7197 5581067
-1351.9266 1371.14 5088.7036 6370583
-1336.8857 1386.8162 5146.8823 6370584
-1266.4652 1344.4351 4989.5938 6502170
-1233.3783 1340.6074 4975.3877 6172948
-1193.4064 1328.9254 4932.0322 5844240
-1154.6569 1318.0521 4891.6787 5975827
-1122.4496 1314.2793 4877.6768 5843985
-1081.4521 1299.7428 4823.7275 5581070
-1037.9529 1281.3285 4755.3862 5252105
-998.71246 1267.2904 4703.2871 5713682
-963.27344 1257.4087 4666.6133 5384204
-929.17896 1248.75 4634.478 5516047
-887.10974 1228.5198 4559.3979 5515792
-857.8902 1225.3728 4547.7183 5252107
-831.10962 1225.6183 4548.6294 4725764
-797.33649 1215.2229 4510.0493 5120779
-758.03955 1195.3956 4436.4644 5515793
-728.72955 1190.4586 4418.1416 5186830
-697.02527 1181.0966 4383.3965 5515536
-671.53418 1181.9456 4386.5469 5581586
-635.37854 1163.3365 4317.4839 5843987
-607.0968 1158.1877 4298.375 5384207
-578.95978 1152.8761 4278.6621 5252365
-547.3222 1139.7882 4230.0889 5055242
-518.47528 1131.5344 4199.4565 5515537
-489.29828 1121.6917 4162.9272 5186572
-459.78677 1109.9963 4119.5225 5186575
-430.21298 1096.8307 4070.6611 5055244
-403.61749 1090.1454 4045.8499 5383700
-381.18036 1094.5565 4062.2207 4989711
-359.2919 1101.2439 4087.0393 4989454
-329.02844 1081.373 4013.2927 4989711
-305.24097 1081.3478 4013.1995 4792332
-280.27631 1076.7958 3996.3052 5713175
-254.92575 1069.7842 3970.2832 5581845
-229.53853 1061.1772 3938.3408 5713175
-206.07991 1060.5475 3936.0034 5318416
-182.33688 1058.1067 3926.9448 5318160
-154.15416 1025.4192 3805.6318 5252624
-131.61191 1025.4788 3805.853 5252624
-108.30408 1018.3645 3779.4497 5383954
-86.606323 1026.6266 3810.1128 5712919
-63.061516 1011.1003 3752.4902 5383954
-41.120106 1018.3716 3779.4763 5449492
-18.66741 1015.2291 3767.8137 5054988
3.6364737 1009.1447 3745.2322 5581332
25.817223 1008.7049 3743.6003 4726279
47.195282 991.80316 3680.8728 5252367
69.019371 991.9964 3681.5898 5449746
90.190102 984.96143 3655.4812 5318417
113.15568 996.45673 3698.1436 5581332
134.27592 990.60834 3676.4385 5121037
155.91911 989.71216 3673.1125 5055245
176.91853 985.44965 3657.2932 5318160
199.19228 988.44098 3668.3948 5120781
217.03374 971.01349 3603.7166 5318416
240.50894 979.65601 3635.791 5383953
257.73074 963.49963 3575.8301 5976346
280.54156 969.10468 3596.6323 4726280
300.80603 965.74323 3584.157 5318417
312.1684 936.12946 3474.2515 4923658
332.98694 936.78278 3476.676 5844761
352.24759 933.23248 3463.5 5383953
372.5762 932.74683 3461.6973 5252624
392.81537 932.09949 3459.2949 4989453
411.08072 927.06506 3440.6108 6173723
426.87964 917.20697 3404.0247 6305310
449.2695 921.76105 3420.926 5121294
469.33472 921.35828 3419.4314 4792331
486.39639 915.33667 3397.0833 4857870
507.76059 917.56854 3405.3665 4990483
516.99622 898.55023 3334.7839 4529932
541.99451 907.31946 3367.3289 5319447
561.86572 907.18781 3366.8403 4990227
576.17889 898.39874 3334.2217 4595469
593.24927 894.34918 3319.1926 4727056
619.18176 903.49078 3353.1199 3345666
625.42542 884.22778 3281.6292 5647130
641.96619 880.24573 3266.8503 5121555
655.13574 872.0094 3236.2832 4792334
668.42236 864.39307 3208.0166 4398346
689.55432 867.06281 3217.9248 4332042
703.2522 860.49255 3193.5408 4924435
724.67322 863.46893 3204.5869 4134919
738.28436 857.22546 3181.4153 4858896
750.68073 849.9173 3154.2927 3739393
767.66724 848.03497 3147.3069 4660490
790.45258 852.49585 3163.8625 4528904
790.19128 832.47034 3089.542 3740160
815.03729 839.20349 3114.5308 4398088
825.38855 831.04431 3084.2498 4727053
840.24713 827.67871 3071.7588 4332296
848.19769 817.79529 3035.0786 3872260
877.08301 828.08765 3073.2764 3608835
890.36945 823.53314 3056.3735 4859154
905.09869 820.46832 3044.999 5977379
917.72223 815.65179 3027.1233 4464397
940.05396 819.48297 3041.3418 4727569
951.03613 813.46216 3018.9971 5187863
945.08051 793.4436 2944.7021 4135432
965.65619 796.02142 2954.2693 4398604
989.05005 800.78912 2971.9639 4135181
989.8161 787.38983 2922.2351 4464142
1000.912 782.5274 2904.1892 3806470
1011.3332 777.31067 2884.8281 4793107
1026.7186 776.01941 2880.0361 3872263
1042.3057 774.92035 2875.957 3280640
1055.386 772.02295 2865.2039 3609348
1066.9231 768.10626 2850.668 3149313
1076.5009 762.9231 2831.4316 4530447
1096.6896 765.30359 2840.2664 4728081
1109.4414 762.50098 2829.865 3412224
1118.9246 757.56873 2811.5601 3477507
1133.118 755.92346 2805.4541 3347202
1141.2789 750.3595 2784.8047 4070671
1149.4287 744.94708 2764.7175 4333585
1155.1436 738.1308 2739.4202 3939084
1168.7826 736.4967 2733.3557 4004105
1160.4717 721.26495 2676.8259 4267277
1188.2366 728.56366 2703.9136 4004620
1215.9822 735.65631 2730.2368 4399117
1224.1562 730.87781 2712.5022 5122326
1236.8253 728.87201 2705.0581 4201223
1242.7258 722.97986 2683.1907 3477504
1259.498 723.48138 2685.052 4069383
1273.3633 722.32159 2680.7476 4267018
1292.4911 724.13867 2687.4912 3740422
1304.1779 721.79327 2678.7869 4661263
1329.6389 727.03607 2698.2444 3872007
1331.2428 719.26422 2669.4009 4464653
1333.1439 711.83374 2641.8242 5056019
1346.9276 710.84668 2638.1609 4463626
1348.3727 703.44537 2610.6924 4595209
1365.663 704.38446 2614.1777 3806209
1372.5369 699.9903 2597.8696 3674369
1392.9039 702.49878 2607.1792 4924432
1386.1212 691.40955 2566.0239 4990481
1405.4808 693.45953 2573.6321 4398343
1424.0496 695.07953 2579.6443 5252883
1434.0747 692.53925 2570.2166 4266505
1451.2177 693.45355 2573.6099 5319699
1469.8917 695.07281 2579.6194 7227952
1482.8408 693.97949 2575.5618 6307106
1495.8198 692.9223 2571.6382 6175264
1500.184 687.93591 2553.1321 6306595
1508.1119 684.66693 2541.0002 6307111
1509.7574 678.63873 2518.6277 6636334
1522.9813 677.88208 2515.8196 5781795
1550.0474 683.24152 2535.71 8150343
1575.6078 687.84082 2552.7793 7295804
1594.554 689.49249 2558.9092 8545614
1606.756 688.22449 2554.2031 8611662
1629.3223 691.37787 2565.9065 9269336
1628.0333 684.44409 2540.1731 7361338
1624.9888 676.90601 2512.197 7887425
1659.6146 685.05426 2542.4375 6900272
1670.7365 683.44122 2536.4512 7821118
1670.2618 677.15558 2513.1233 6306854
1693.4624 680.49457 2525.5151 7491384
1724.5822 686.92944 2549.397 6701868
1738.2179 686.34882 2547.2419 7688762
1753.0908 686.26245 2546.9216 7294004
1770.9348 687.33075 2550.8862 7425335
1775.4078 683.23541 2535.6873 6636073
1801.562 687.4823 2551.4487 6767659
1803.1696 682.36945 2532.4734 7754554
1813.5397 680.62958 2526.0164 7425845
1821.713 678.10052 2516.6304 7754810
1859.2136 686.44049 2547.5823 6702123
1853.0865 678.66803 2518.7363 6965295
1915.2657 695.83612 2582.4521 7294003
1942.8849 700.27563 2598.9285 7293747
1999.746 715.10199 2653.9536 8083262
1995.3779 707.9726 2627.4941 7556917
2026.1104 713.31104 2647.3069 7491124
2057.2148 718.69745 2667.2974 7425331
2056.5864 713.00018 2646.1531 8083004
2092.5471 719.97833 2672.051 8214847
2112.8425 721.50214 2677.7063 7820091
2134.5698 723.48859 2685.0786 8083263
2176.3508 732.19244 2717.3811 8543814
2199.5112 734.54974 2726.1299 7951677
2228.6008 738.83838 2742.0461 8346434
2315.0725 761.95093 2827.8237 8083007
2338.188 764.02899 2835.5359 7885371
2436.6646 790.52673 2933.877 8148799
2448.1653 788.63141 2926.8428 7753272
2531.6877 809.79999 3005.4058 6766889
2556.8098 812.12311 3014.0276 7556403
2587.8103 816.26825 3029.4111 8083003
2588.8347 810.966 3009.7332 7096108
2605.1331 810.48828 3007.9602 7227695
2665.9597 823.77625 3057.2759 6832937
2694.613 827.01044 3069.2786 6898729
2754.0574 839.58801 3115.9578 7227694
2804.7271 849.34088 3152.1536 7490864
2836.4104 853.25317 3166.6733 8478019
2969.8054 887.51019 3293.811 8148540
3104.5745 921.72778 3420.8025 4069644
3108.6746 916.95819 3403.1013 2820610
3150.03 923.16858 3426.1497 6306343
3246.9468 945.47821 3508.9473 5911582
3418.8904 989.21198 3671.2563 6832425
3345.9084 961.97467 3570.1707 5910554
3552.0305 1014.8201 3766.2957 5911064
3567.7517 1012.9476 3759.3459 6503202
3792.4841 1070.0719 3971.3511 6634274
0 0 0 0
0 0 0 0
0 0 0 0
0 0 0 0
0 0 0 0
0 0 0 0
0 0 0 0
-3010.7888 927.63855 3368.6594 3746306
-2973.8274 922.3656 3349.511 2824448
-2945.5129 919.72186 3339.9102 3482114
-2977.0369 935.85284 3398.4888 4600070
-3032.0583 959.64038 3484.8718 6178319
-3303.6104 1052.7556 3823.0139 7231002
-3313.1091 1063.0721 3860.4775 8151584
-2788.1379 900.84521 3271.3608 9137706
-3082.948 1003.0718 3642.5903 9400877
