# .PCD v0.7 - Point Cloud Data file format
VERSION 0.7
FIELDS x y z rgb
SIZE 4 4 4 4
TYPE F F F U
COUNT 1 1 1 1
WIDTH 1517
HEIGHT 1
VIEWPOINT 0 0 0 1 0 0 0
POINTS 1517
DATA ascii
5195.9663 959.13013 6895.8022 2299904
5182.5791 949.1947 6824.3701 2036995
5215.2217 947.77808 6814.1851 3220227
5090.271 917.9635 6599.8291 4601364
5359.0005 959.05725 6895.2783 6377516
5420.4087 962.70721 6921.5205 6837808
5416.6372 954.81293 6864.7632 4403470
5435.2793 950.95776 6837.0464 2889728
5404.3301 938.54749 6747.8203 2823936
5306.2373 914.74432 6576.6846 2758656
5400.8809 924.27209 6645.1855 1838336
5133.5703 872.16766 6270.5732 1312256
5262.1509 887.58875 6381.4453 3943944
5147.0679 861.98315 6197.3501 5259033
5325.543 885.55463 6366.8203 6705450
5274.8149 870.94952 6261.8149 9204816
5142.6826 843.20129 6062.3154 5454613
4909.8975 799.44934 5747.7544 5717017
4846.0713 783.62128 5633.9565 7361847
4878.647 783.49158 5633.0239 4269838
4700.3281 749.72498 5390.2539 1310720
4583.7466 726.19501 5221.082 1442048
4492.4277 706.95599 5082.7607 1703936
4400.7354 687.91498 4945.8623 2493189
4484.0493 696.30151 5006.1587 3150596
4573.1499 705.47052 5072.0806 1573632
4535.7129 695.12701 4997.7144 6439698
4674.437 711.74048 5117.1592 7557909
4809.9961 727.66095 5231.6221 9399593
4845.8442 728.38983 5236.8618 10385207
5001.3633 746.98291 5370.5396 10450743
4958.7207 735.9314 5291.0835 10319155
4962.3745 731.8465 5261.7144 10318897
5023.2192 736.19446 5292.9746 10319150
4965.8701 723.27362 5200.0786 10253101
0 0 0 0
0 0 0 0
-15576.228 2446.1743 16868.494 512
-15465.948 2444.542 16857.238 512
-15619.112 2484.7991 17134.846 512
-15416.821 2468.6646 17023.584 512
0 0 0 0
0 0 0 0
0 0 0 0
0 0 0 0
0 0 0 0
0 0 0 0
0 0 0 0
0 0 0 0
0 0 0 0
0 0 0 0
0 0 0 0
0 0 0 0
0 0 0 0
0 0 0 0
0 0 0 0
0 0 0 0
0 0 0 0
0 0 0 0
0 0 0 0
0 0 0 0
0 0 0 0
0 0 0 0
0 0 0 0
0 0 0 0
0 0 0 0
0 0 0 0
0 0 0 0
0 0 0 0
0 0 0 0
0 0 0 0
0 0 0 0
0 0 0 0
0 0 0 0
0 0 0 0
0 0 0 0
0 0 0 0
0 0 0 0
0 0 0 0
0 0 0 0
0 0 0 0
0 0 0 0
-12591.979 2780.3914 19173.211 1024
-12486.119 2782.1177 19185.115 1024
-12213.048 2746.2761 18937.957 768
-12131.642 2753.2683 18986.174 768
-12134.396 2779.6704 19168.238 768
-12122.559 2803.197 19330.475 768
0 0 0 0
0 0 0 0
0 0 0 0
0 0 0 0
0 0 0 0
-11725.684 2874.377 19821.322 768
0 0 0 0
0 0 0 0
0 0 0 0
0 0 0 0
0 0 0 0
0 0 0 0
0 0 0 0
0 0 0 0
0 0 0 0
0 0 0 0
0 0 0 0
0 0 0 0
0 0 0 0
0 0 0 0
0 0 0 0
0 0 0 0
0 0 0 0
0 0 0 0
0 0 0 0
0 0 0 0
0 0 0 0
0 0 0 0
0 0 0 0
0 0 0 0
0 0 0 0
0 0 0 0
0 0 0 0
0 0 0 0
0 0 0 0
0 0 0 0
0 0 0 0
0 0 0 0
0 0 0 0
0 0 0 0
0 0 0 0
-7489.9321 2871.4719 19801.291 1024
0 0 0 0
0 0 0 0
0 0 0 0
0 0 0 0
0 0 0 0
0 0 0 0
0 0 0 0
0 0 0 0
0 0 0 0
0 0 0 0
0 0 0 0
0 0 0 0
0 0 0 0
0 0 0 0
0 0 0 0
0 0 0 0
0 0 0 0
0 0 0 0
0 0 0 0
0 0 0 0
0 0 0 0
0 0 0 0
0 0 0 0
0 0 0 0
0 0 0 0
0 0 0 0
0 0 0 0
0 0 0 0
-3890.9236 2733.4807 18849.721 1280
-3652.4495 2641.7805 18217.369 1280
-3480.0454 2593.7383 17886.076 1280
-3298.7666 2535.8557 17486.926 1280
-3157.938 2506.3225 17283.268 1280
-3025.7939 2481.9331 17115.082 1280
-2869.3469 2435.2261 16792.996 1280
-2707.4558 2380.3767 16414.764 1280
-2601.3862 2372.3467 16359.389 1280
-2504.0999 2372.0146 16357.1 1280
-2399.3518 2364.3035 16303.923 1280
-2271.3445 2332.064 16081.604 1280
-2213.5083 2372.2029 16358.397 1280
-2056.5132 2304.8835 15894.173 1280
-1984.4912 2330.9087 16073.639 1280
-1802.5316 2223.9199 15335.856 1280
-1626.3452 2113.0715 14571.461 1280
-1595.3049 2188.9519 15094.723 1280
-1405.6329 2043.256 14090.023 1024
-1396.2458 2157.7742 14879.725 1024
-1323.8627 2183.8127 15059.284 1024
-1139.2804 2015.158 13896.263 1024
-1014.3701 1933.9951 13336.575 1024
-940.91589 1945.5132 13416.001 1024
-881.64612 1991.1921 13730.997 1024
-776.89496 1932.9963 13329.688 1024
-687.71497 1904.7561 13134.946 1024
-630.98511 1970.6545 13589.372 1024
-566.53149 2028.1809 13986.066 768
-478.65186 2007.186 13841.29 197888
-389.33905 1970.2566 13586.629 262912
-309.78705 1976.3442 13628.607 197120
-227.444 1962.6404 13534.108 4078629
-148.68701 1981.8076 13666.283 8157281
-67.893837 1987.224 13703.633 7565659
13.748856 2053.4111 14160.052 7499867
100.05891 2104.0051 14508.94 7434334
187.03931 2115.418 14587.643 7565408
262.44815 2030.1074 13999.352 7565924
339.12192 1993.2079 13744.897 7500132
411.46362 1950.069 13447.417 7631718
486.33841 1930.9845 13315.813 7697511
0 0 0 0
625.95874 1876.4769 12939.937 7894634
0 0 0 0
0 0 0 0
0 0 0 0
0 0 0 0
0 0 0 0
1116.5435 1929.2441 13303.812 7894633
1287.3042 2077.6125 14326.941 8025962
0 0 0 0
0 0 0 0
1510.9672 2035.8234 14038.769 7828840
1598.0643 2040.8188 14073.217 7828839
1648.694 2001.0574 13799.027 7696997
1741.0243 2013.2754 13883.28 7434083
1863.655 2057.8484 14190.649 7499876
1962.0719 2072.99 14295.064 7499876
2045.4415 2071.6387 14285.746 7500132
2104.2051 2046.4637 14112.143 7631462
2170.8442 2030.5797 14002.609 7697511
2289.1814 2062.4429 14222.333 7828841
2306.3362 2004.1196 13820.144 7894634
2406.0476 2019.0751 13923.274 7894890
2456.4553 1993.036 13743.713 7829097
2541.9338 1996.21 13765.6 7894633
2607.9253 1984.359 13683.877 7763560
2767.8818 2042.5642 14085.253 7828841
2764.8699 1980.6194 13658.089 7763048
2799.4714 1948.376 13435.742 7763048
2846.6406 1926.4207 13284.342 7960426
2906.6025 1914.0712 13199.182 8092012
2984.813 1914.0712 13199.182 8026219
3025.1519 1890.4053 13035.984 7894633
3116.0483 1898.7247 13093.354 7960425
3207.3184 1906.8618 13149.467 7960426
3331.7393 1933.855 13335.607 7894633
3402.3833 1929.1067 13302.864 7894633
3455.7039 1914.9735 13205.403 7828840
3481.3083 1886.4473 13008.69 7960170
3651.147 1935.6215 13347.79 7960425
3679.124 1909.0985 13164.891 8026216
3779.9277 1920.6819 13244.769 8092010
3838.8152 1910.9287 13177.512 8026218
3925.1587 1914.9591 13205.305 8026219
4000.9553 1913.7871 13197.223 7894633
3977.6147 1866.1488 12868.715 7763047
4122.4839 1897.7357 13086.534 7631461
4189.7271 1893.0818 13054.441 7565667
4296.2563 1906.026 13143.702 7565923
4396.0068 1915.5552 13209.415 7763045
4408.3594 1887.3337 13014.804 7697509
4383.6274 1844.4788 12719.282 7960166
4450.0835 1840.7928 12693.864 7894372
4519.4033 1838.3944 12677.324 7960421
4634.2451 1854.2888 12786.931 7828579
4808.7896 1893.1764 13055.094 8156774
4984.9668 1931.4652 13319.128 8091235
5098.6152 1944.7107 13410.468 8222565
5112.7363 1920.1707 13241.243 8420456
5076.6533 1877.8025 12949.078 8485993
5127.7773 1868.4728 12884.741 8617579
5117.6562 1837.4276 12670.657 8683372
5193.4453 1837.6788 12672.39 8946031
5220.4849 1820.9192 12556.817 9011823
5188.2437 1784.2437 12303.908 8880239
5285.1323 1792.3771 12359.995 9076332
5458.1987 1825.7698 12590.267 9010535
5546.1953 1830.1896 12620.745 6970692
5799.3145 1888.2559 13021.162 13221023
5539.6494 1780.0271 12274.831 10918264
6010.0391 1906.1482 13144.545 8746583
5837.3623 1827.6958 12603.549 13223588
5829.6685 1802.2297 12427.938 13881006
5490.8857 1676.3206 11559.685 13683884
5463.3022 1647.3496 11359.905 13618349
0 0 0 0
4775.0449 1405.1934 9690.0273 13815471
0 0 0 0
5394.0098 1550.0641 10689.037 8089168
4995.8896 1418.9954 9785.2041 920066
5244.8335 1472.6128 10154.942 1250560
5073.7637 1408.4224 9712.2939 3027984
4787.3325 1314.0081 9061.2256 2369543
4758.5405 1291.6195 8906.8369 1185794
4656.2622 1249.9943 8619.7949 856320
4713.0601 1251.5137 8630.2725 3751189
4750.3398 1247.8733 8605.1689 3093259
4604.1606 1196.6289 8251.7949 922112
4725.8828 1215.3579 8380.9473 66816
4710.5771 1198.8243 8266.9336 1024
4732.9004 1192.1088 8220.624 264448
4707.8887 1173.7289 8093.8794 1120000
4912.4565 1212.3795 8360.4082 1024
4862.2583 1188.0104 8192.3623 791040
4839.0068 1170.642 8072.5923 3620383
4832.5889 1157.6461 7982.9746 593664
4916.1978 1166.2592 8042.3682 1054464
4948.5981 1162.6753 8017.6548 1317120
4853.4707 1129.4816 7788.7559 1251328
4855.895 1119.4015 7719.2446 461568
4790.5903 1094.042 7544.3687 592384
4756.6758 1076.2538 7421.7031 328448
4484.9648 1005.48 6933.6572 7430431
4484.7217 996.29877 6870.3447 7560475
4542.9102 1000.147 6896.8809 7688727
4678.0625 1020.7193 7038.7451 720896
4840.1484 1046.7531 7218.27 589824
4916.459 1053.9429 7267.8501 393216
4959.6479 1053.9692 7268.0322 394240
5023.7671 1058.4047 7298.6187 197120
5082.6055 1061.6614 7321.0762 65792
5149.2222 1066.4739 7354.2627 131072
5170.5889 1061.9125 7322.8076 722432
5136.7578 1046.1849 7214.353 656640
5273.4395 1065.1582 7345.1899 1116160
5218.5508 1045.4432 7209.2383 1708289
5251.877 1043.5771 7196.3696 1510656
5321.7261 1048.9398 7233.3506 2826506
5316.7915 1039.5945 7168.9062 458752
5194.0068 1007.5366 6947.8389 589824
5217.1909 1004.0753 6923.9707 2036993
5283.7026 1008.9417 6957.5288 3747603
5331.2988 1010.1486 6965.8511 3943695
5290.8745 994.78754 6859.9229 3219459
5346.6323 997.60681 6879.3647 4666900
5420.3003 1003.7 6921.3823 4535058
5318.3081 977.41821 6740.1465 4666902
5289.3691 964.85406 6653.5059 2890752
5451.3315 987.04126 6806.5059 2627842
5341.7275 960.09271 6620.6724 2167552
5329.7026 950.94751 6557.6084 3023365
5272.9009 934.0033 6440.7632 1575424
5374.896 945.2287 6518.1719 3219459
5273.2764 920.74158 6349.312 5785384
5204.5737 902.30823 6222.1978 4666387
5235.6851 901.31708 6215.3633 5257494
5223.6597 892.96564 6157.7729 4994324
5143.8555 873.22394 6021.6367 5256731
4986.3276 840.6507 5797.0161 4797208
4843.1665 810.92871 5592.0571 3283976
4649.27 773.1734 5331.7012 851968
4597.3994 759.38715 5236.6333 983040
4650.3691 762.987 5261.457 1048576
4704.4775 766.72443 5287.23 851968
4751.7539 769.30627 5305.0342 917504
4796.1377 771.38892 5319.396 917504
4744.8662 758.16016 5228.1724 851968
4920.2144 781.07855 5386.2144 851968
4962.9048 782.77808 5397.9341 851968
5099.5205 799.17542 5511.0078 2298371
5002.9297 779.04938 5372.2212 4862739
5351.3833 828.04144 5710.0645 6177825
5191.3423 798.23077 5504.4937 4334856
5199.3755 794.47449 5478.5908 3742464
5230.6411 794.29266 5477.3369 6439963
0 0 0 0
0 0 0 0
0 0 0 0
0 0 0 0
0 0 0 0
0 0 0 0
0 0 0 0
0 0 0 0
0 0 0 0
0 0 0 0
0 0 0 0
0 0 0 0
0 0 0 0
0 0 0 0
0 0 0 0
0 0 0 0
0 0 0 0
0 0 0 0
0 0 0 0
0 0 0 0
-16174.225 2989.1404 19803.529 512
-16104.387 2997.9839 19862.119 512
-15846.855 2971.76 19688.381 768
-15749.48 2975.4036 19712.52 768
-15673.691 2983.2102 19764.24 768
-15235.565 2921.6506 19356.398 768
-15081.573 2914.0576 19306.094 768
-15094.85 2938.915 19470.777 768
0 0 0 0
0 0 0 0
0 0 0 0
0 0 0 0
0 0 0 0
0 0 0 0
0 0 0 0
0 0 0 0
-13862.922 2898.4419 19202.637 768
0 0 0 0
0 0 0 0
-13829.671 2964.4851 19640.184 768
0 0 0 0
0 0 0 0
0 0 0 0
0 0 0 0
-12576.083 2814.1755 18644.359 1024
0 0 0 0
0 0 0 0
-12535.658 2881.0562 19087.453 1024
-11527.42 2673.4548 17712.061 1024
-12248.961 2866.897 18993.646 1024
-12348.604 2917.0205 19325.723 1024
-12165.666 2900.7058 19217.635 1024
-12348.429 2972.1016 19690.645 1024
0 0 0 0
0 0 0 0
0 0 0 0
-11187.443 2798.4326 18540.061 768
-11085.212 2800.3591 18552.824 768
-11218.661 2862.4587 18964.242 1024
-11495.375 2962.7388 19628.613 768
0 0 0 0
0 0 0 0
0 0 0 0
0 0 0 0
0 0 0 0
0 0 0 0
0 0 0 0
0 0 0 0
0 0 0 0
0 0 0 0
0 0 0 0
0 0 0 0
0 0 0 0
0 0 0 0
0 0 0 0
0 0 0 0
0 0 0 0
0 0 0 0
0 0 0 0
0 0 0 0
0 0 0 0
0 0 0 0
0 0 0 0
0 0 0 0
0 0 0 0
0 0 0 0
0 0 0 0
0 0 0 0
0 0 0 0
0 0 0 0
0 0 0 0
0 0 0 0
0 0 0 0
0 0 0 0
-7421.9653 2961.6809 19621.605 1280
0 0 0 0
0 0 0 0
0 0 0 0
-6964.3643 2964.8579 19642.654 1280
-6665.6924 2885.9382 19119.799 1280
-6329.271 2787.6636 18468.713 1280
0 0 0 0
-6586.6562 3004.9385 19908.193 1280
0 0 0 0
-6232.9336 2949.2021 19538.932 1280
-6196.8799 2987.6379 19793.574 1280
0 0 0 0
-5927.7534 2970.322 19678.854 1280
0 0 0 0
0 0 0 0
-5656.8511 3012.3442 19957.258 1280
-5353.0132 2911.4089 19288.545 1280
-5410.9082 3007.1016 19922.525 1280
0 0 0 0
-4897.3232 2845.853 18854.227 1280
-4793.8071 2850.7307 18886.543 1280
0 0 0 0
0 0 0 0
0 0 0 0
-4392.6631 2881.2295 19088.602 1280
-4069.668 2739.9219 18152.416 1280
-3880.7659 2683.6714 17779.748 1280
-3664.823 2605.0603 17258.938 1280
-3538.2791 2587.3076 17141.322 1280
-3478.1829 2618.5303 17348.178 1280
-3172.0657 2460.7986 16303.18 1280
-3022.3435 2418.2959 16021.593 1280
-2934.312 2423.9983 16059.372 1280
-2758.8108 2355.4033 15604.92 1280
-2611.5908 2307.0339 15284.466 1280
-2570.0769 2351.9231 15581.864 1280
-2432.0237 2308.5205 15294.314 1280
-2338.468 2305.6309 15275.171 1280
-2229.6272 2286.8313 15150.62 1280
-2156.8206 2304.9639 15270.751 1280
-2009.7133 2241.803 14852.3 1280
-1744.9391 2035.5906 13486.11 1280
-1666.1863 2037.006 13495.488 1280
-1664.6724 2137.7534 14162.955 1280
-1462.8038 1978.2457 13106.191 1280
-1390.2396 1985.5226 13154.402 1280
-1283.2114 1941.5195 12862.874 1024
-1204.6013 1937.6709 12837.377 1024
-1119.7821 1922.6431 12737.814 1024
-1055.3577 1942.991 12872.623 1024
-1025.0157 2034.1462 13476.542 1024
-930.81812 2003.276 13272.021 1024
-868.62848 2041.9523 13528.257 768
-784.51416 2031.7124 13460.417 768
-688.9292 1986.0864 13158.138 512
-586.31055 1905.9509 12627.227 66048
-510.97174 1904.0226 12614.452 658436
-453.55203 1979.6467 13115.473 2566683
-376.13501 1981.213 13125.851 2895396
-298.91702 1984.9182 13150.397 2960934
-229.92551 2065.1238 13681.771 3158310
-153.3327 2127.2373 14093.284 3881006
-68.159035 2076.5027 13757.159 5065534
13.552766 2106.8323 13958.098 6381392
92.838928 2031.9535 13462.014 7303007
170.75557 2010.161 13317.635 7565924
244.87634 1971.5824 13062.046 7500388
321.50113 1966.853 13030.713 7500388
392.42365 1935.826 12825.154 7631461
468.6506 1936.7881 12831.527 7697255
545.18414 1938.5717 12843.344 7763046
617.74475 1927.5215 12770.135 7434596
682.75708 1897.9008 12573.894 7368546
755.41437 1893.2689 12543.207 7434338
837.87927 1911.8458 12666.281 7631461
908.7453 1903.0781 12608.193 7828840
981.20337 1898.7229 12579.34 7828840
1052.1943 1892.3442 12537.08 7960426
1110.3986 1865.327 12358.087 7828840
1199.7053 1890.6682 12525.977 7565667
1288.4644 1912.2439 12668.919 7499875
1390.5548 1950.1403 12919.987 7697254
1469.8888 1953.8325 12944.45 7828840
1526.3542 1928.2687 12775.085 7763047
1614.3608 1943.0841 12873.24 7631462
1694.2373 1947.2186 12900.632 7434597
1767.059 1943.238 12874.26 7565926
1821.7252 1920.4475 12723.269 7631461
1879.8027 1902.9214 12607.156 7631462
1955.5804 1903.9685 12614.093 7894633
2011.8301 1886.6256 12499.193 7894634
2095.4985 1895.3134 12556.752 7894633
2253.0437 1967.9338 13037.873 7960425
2234.259 1886.8287 12500.54 7828840
2292.9009 1874.2172 12416.985 7960425
2388.2402 1891.4537 12531.181 7960426
2467.5391 1895.3301 12556.862 7960427
2556.3906 1906.1021 12628.229 7894633
2605.4321 1887.4224 12504.473 7828839
2642.8257 1861.5712 12333.204 7763047
2720.9138 1865.0044 12355.95 7828840
2847.5942 1900.6918 12592.385 7828840
2881.4116 1874.1558 12416.579 7828840
2939.8291 1864.5436 12352.896 7828840
3004.7756 1859.4386 12319.075 7960425
3066.5393 1852.653 12274.119 8026219
3139.8613 1853.0031 12276.438 8157805
3192.4211 1841.3615 12199.312 8026219
3245.7339 1830.6604 12128.415 8025962
3434.2871 1895.0488 12554.998 8025963
3483.147 1881.2579 12463.632 8091756
3505.718 1854.1361 12283.945 8157548
3621.0422 1876.1758 12429.962 8092010
3684.3699 1870.9327 12395.227 8092010
3757.042 1870.5471 12392.671 8092010
3780.1841 1845.9893 12229.971 8288876
3774.1519 1808.3762 11980.779 8354669
3834.635 1803.4343 11948.038 8223338
3887.772 1795.2793 11894.01 8157545
3960.0171 1796.0814 11899.324 8091752
4219.8242 1880.4365 12458.19 7960165
4163.0308 1823.2336 12079.212 8156517
4347.0151 1871.6326 12399.862 8354153
4349.5063 1841.5784 12200.748 8419946
4210.4868 1753.5708 11617.685 8354152
4502.1235 1844.8683 12222.544 8354153
4502.7148 1815.8992 12030.619 8420199
4390.0791 1742.8811 11546.863 8222308
4722.2954 1846.0024 12230.059 8156515
4626.0078 1781.0308 11799.611 8353893
4648.7783 1763.1493 11681.144 8353894
4805.6309 1795.8998 11898.121 8485480
4657.9941 1715.559 11365.85 8814445
4902.1011 1779.7323 11791.009 8946031
4978.0815 1781.921 11805.509 8880237
5081.665 1793.7924 11884.159 8879980
4954.9229 1725.1473 11429.375 8682856
5090.8018 1748.5569 11584.467 8813413
5470.8428 1854.0911 12283.647 8616031
5394.9614 1804.3689 11954.229 10261110
5392.5908 1780.2025 11794.124 10062958
5856.8677 1908.7336 12645.663 5654825
5880.9429 1892.3694 12537.247 7169103
5374.2417 1707.751 11314.12 13750193
5345.2139 1677.5997 11114.363 13618866
5216.7817 1617.3639 10715.292 13553331
5269.0942 1613.9396 10692.605 13618868
5248.8442 1588.6343 10524.954 13750710
5245.2847 1568.916 10394.316 13685169
4976.4497 1471.2295 9747.1279 13026980
6024.1182 1760.5281 11663.777 8091483
5084.4009 1469.045 9732.6562 2367243
4933.4292 1409.438 9337.75 3025928
4741.5771 1339.6034 8875.085 2236678
4653.7417 1300.3657 8615.1289 2040322
4725.6309 1306.1261 8653.292 3422480
4706.3906 1286.8456 8525.5557 2370051
4577.2954 1238.2566 8203.6455 988416
4685.5132 1254.2122 8309.3545 1053952
4721.9854 1250.8311 8286.9541 1448963
4719.6416 1237.3431 8197.5947 768
4680.1704 1214.4957 8046.2261 2764564
4789.5308 1230.3411 8151.2041 256
4800.8535 1220.9373 8088.9023 527616
4756.853 1197.7888 7935.541 132096
4725.5381 1178.2567 7806.1372 1053696
4823.2759 1190.969 7890.3579 1053696
4813.168 1177.0635 7798.2314 329728
4839.7085 1172.2996 7766.6704 330240
4837.1177 1160.6355 7689.394 132608
4767.3872 1133.2299 7507.8276 1118720
4777.3193 1125.092 7453.9126 591104
4501.0322 1050.3141 6958.4971 7694122
4458.189 1030.8732 6829.6987 8612135
4660.7397 1068.0145 7075.7656 8281633
4627.3618 1050.9122 6962.4604 720896
4622.1299 1040.4479 6893.1318 720896
4875.0166 1087.7607 7206.5869 393216
4972.3789 1099.8512 7286.6885 131328
4874.8784 1069.0023 7082.3101 1645323
4944.0439 1074.9161 7121.4897 2106125
4998.8823 1077.6411 7139.543 2698006
5152.9575 1101.5341 7297.8374 394752
5088.209 1078.6412 7146.1689 722688
5134.5674 1079.4851 7151.7603 722176
5140.9971 1071.9895 7102.1001 525056
5209.3691 1077.4268 7138.123 458752
5172.3096 1061.1462 7030.2622 524800
5227.9668 1063.9956 7049.1392 524544
5128.7896 1035.5375 6860.6001 458752
5150.9707 1031.8375 6836.0869 393216
5243.9751 1042.2719 6905.2158 2366215
5263.125 1037.9791 6876.7759 2102787
5340.7236 1045.1908 6924.5552 2102530
5347.874 1038.611 6880.9619 1707264
5165.2485 995.5531 6595.6973 1575424
5306.9556 1015.1846 6725.7588 2825478
5334.6138 1012.8691 6710.4189 3089159
5203.7285 980.70856 6497.3496 2168066
5280.5117 987.87067 6544.7993 786688
5306.3306 985.46344 6528.8516 589824
5294.4233 976.13556 6467.0527 1510400
5356.5391 980.49127 6495.9102 1313024
5302.6484 963.70184 6384.6777 1707520
5271.8242 951.31274 6302.5977 2561795
5301.7539 949.98401 6293.7944 3416585
5227.3745 930.11389 6162.1519 3613961
5149.8208 909.95856 6028.6196 3416323
4960.3711 870.4455 5766.8394 4205584
4899.8984 853.95111 5657.5615 4402706
4800.9453 831.02008 5505.6396 3547654
4766.0615 819.41388 5428.7466 3350278
4640.7607 792.52228 5250.5859 1771008
4679.7217 793.85382 5259.4072 3087620
4703.2759 792.57141 5250.9111 3350791
4752.3164 795.57245 5270.7939 786432
4864.1704 808.9812 5359.6284 851968
4916.5312 812.3855 5382.1826 786432
4971.1318 816.11371 5406.8823 851968
4986.9814 813.4729 5389.3872 1575680
5163.8813 836.9693 5545.0542 3482384
5312.4844 855.61096 5668.5581 3087884
5300.6411 848.3399 5620.3862 4008211
5286.5073 840.79523 5570.4019 2955523
5356.5674 846.65186 5609.2026 3218951
0 0 0 0
0 0 0 0
0 0 0 0
0 0 0 0
0 0 0 0
-17722.459 3069.7761 19569.518 512
-17477.242 3047.2393 19425.848 512
-17408.291 3055.3398 19477.488 512
-17102.74 3021.7456 19263.328 512
-16979.256 3020.084 19252.736 512
-16814.871 3011.0759 19195.311 512
-16696.424 3010.2273 19189.9 512
-16598.541 3013.0999 19208.213 512
-16619.686 3037.7686 19365.473 512
-16567.646 3049.3101 19439.049 512
-16399.955 3039.5781 19377.01 512
-16475.506 3075.1101 19603.521 512
-15867.512 2982.6582 19014.15 512
-16152.245 3057.8928 19493.764 512
-15949.793 3041.3145 19388.078 768
-15705.173 3016.3965 19229.229 768
-15041.18 2909.9792 18550.828 768
-14955.293 2914.6633 18580.689 768
-14834.914 2912.6448 18567.82 768
-14677.438 2903.2585 18507.984 768
-14479.461 2885.6584 18395.787 768
-14054.214 2822.155 17990.959 768
-15479.127 3132.0417 19966.455 768
0 0 0 0
0 0 0 0
0 0 0 0
0 0 0 0
0 0 0 0
-14666.055 3110.1533 19826.918 768
0 0 0 0
0 0 0 0
0 0 0 0
0 0 0 0
-14201.474 3137.2883 19999.9 1024
0 0 0 0
0 0 0 0
0 0 0 0
0 0 0 0
-11889.064 2740.8035 17472.35 1024
0 0 0 0
-11684.082 2741.291 17475.459 1024
-11852.725 2805.7231 17886.207 1024
-11632.887 2778.5291 17712.846 1024
-11878.896 2863.1204 18252.107 1024
-12772.584 3106.8081 19805.594 1024
-11435.752 2807.4316 17897.098 1024
-11841.374 2934.2205 18705.363 1024
-11769.643 2944.002 18767.721 1024
-11669.204 2946.7209 18785.053 1024
-11252.844 2868.9473 18289.254 1024
-9810.71 2525.5938 16100.409 1024
-10389.305 2700.8059 17217.369 1024
-10204.169 2678.9849 17078.262 1024
-10619.771 2816.0229 17951.867 1024
-10501.513 2812.8394 17931.57 1024
-10811.251 2925.4014 18649.143 1024
-10799.926 2952.5151 18821.99 1024
-10621.281 2933.9751 18703.799 1280
-10531.275 2939.7874 18740.852 1024
-10486.283 2958.4229 18859.652 1280
-10441.615 2977.5525 18981.602 1280
-10348.414 2983.1082 19017.018 1280
-10024.284 2921.4839 18624.17 1024
-10003.943 2948.0098 18793.27 1280
-10016.77 2985.0168 19029.186 1280
-9722.5254 2930.3174 18680.482 1280
-9846.0615 3001.7244 19135.695 1280
-9861.9316 3041.5898 19389.832 1280
-9743.9688 3040.6316 19383.725 1280
0 0 0 0
0 0 0 0
-9267.7432 2998.0417 19112.219 1280
-9248.9062 3028.9609 19309.324 1280
-9195.8125 3049.2944 19438.949 1280
-9077.1514 3048.1267 19431.506 1280
-8726.4092 2967.9944 18920.67 1280
-8711.4785 3001.4778 19134.123 1280
-8912.1865 3111.1206 19833.084 1280
-8698.4395 3077.0798 19616.078 1280
-8527.9043 3057.6104 19491.963 1280
-8404.1104 3054.595 19472.74 1280
-8322.5469 3067.0588 19552.195 1280
0 0 0 0
-7438.6567 2819.8311 17976.143 1280
-7310.3125 2811.4363 17922.627 1280
-7179.4751 2801.821 17861.33 1280
-7069.3262 2800.1125 17850.439 1280
-6967.4565 2801.6812 17860.439 1280
-7077.9609 2890.0132 18423.547 1280
-6688.335 2773.7048 17682.092 1280
0 0 0 0
0 0 0 0
0 0 0 0
0 0 0 0
0 0 0 0
-6242.5 2857.3806 18215.518 1280
-5927.6978 2761.0247 17601.258 1280
0 0 0 0
-5940.356 2867.8367 18282.174 1280
0 0 0 0
0 0 0 0
0 0 0 0
0 0 0 0
0 0 0 0
0 0 0 0
-5137.5508 2843.2092 18125.178 1280
-5013.7778 2833.9541 18066.176 1280
-4681.0752 2703.6248 17235.34 1280
0 0 0 0
-4349.6704 2626.8352 16745.814 1280
0 0 0 0
-4168.2764 2637.6289 16814.623 1280
-4096.4536 2655.6584 16929.559 1280
-4521.7134 3004.9319 19156.143 1280
-3818.7124 2603.0933 16594.461 1280
-3676.4844 2572.3777 16398.652 1536
-3550.3743 2551.5781 16266.058 1536
-3401.1338 2512.5305 16017.132 1536
-3331.6274 2531.834 16140.191 1536
-3178.1995 2486.6184 15851.946 1280
-2956.1978 2383.3633 15193.704 1280
-2851.7451 2371.3691 15117.242 1280
-2658.0339 2281.967 14547.312 1280
-2494.2683 2213.1426 14108.564 1280
-2475.9314 2273.0569 14490.513 1280
-2411.4314 2293.3733 14620.027 1024
-2281.6621 2250.8167 14348.733 1024
-2195.679 2249.8318 14342.454 1024
-2101.6274 2240.1675 14280.846 1024
-1980.5288 2199.6526 14022.566 1280
-1855.7008 2151.2661 13714.107 1280
-1575.9269 1910.5968 12179.865 1280
-1517.047 1927.4835 12287.516 1280
-1465.3922 1955.7152 12467.49 1024
-1365.9617 1919.7979 12238.521 1024
-1294.8115 1921.8282 12251.464 1024
-1227.7173 1930.4775 12306.603 1024
-1123.4229 1878.0312 11972.263 768
-1059.3895 1890.3564 12050.834 768
-1037.3578 1984.8264 12653.071 768
-999.83063 2062.0581 13145.416 65792
-888.6532 1987.6099 12670.815 131840
-840.3902 2053.1245 13088.466 526596
-735.07751 1978.4152 12612.2 2237467
-662.40289 1984.5801 12651.501 2565920
-548.25482 1852.2059 11807.629 2500128
-486.67883 1884.6929 12014.729 2434593
-409.16049 1855.9963 11831.792 2566179
-342.94724 1877.3169 11967.709 2500387
-280.95755 1938.9005 12360.298 2500643
-206.94342 1931.6719 12314.217 2500386
-132.19868 1906.036 12150.79 2500643
-62.208668 1969.6218 12556.144 2697509
12.250435 1979.1395 12616.817 3158315
86.24366 1961.705 12505.674 4079157
164.22972 2009.234 12808.668 5263430
238.50935 1995.7051 12722.422 6578774
302.93005 1925.9926 12278.012 7434083
368.78342 1890.6249 12052.546 7434082
438.73312 1884.3264 12012.394 7697254
508.80728 1880.2463 11986.384 7960426
577.07642 1871.3125 11929.432 8026219
637.27478 1841.0131 11736.275 7894633
688.3468 1792.9049 11429.591 7960426
756.16766 1793.1324 11431.041 7763047
828.26044 1802.6198 11491.522 7697254
902.75708 1815.5001 11573.633 7631461
982.32452 1836.0394 11704.569 7697254
1054.6237 1841.1805 11737.344 7697254
1093.2839 1790.5917 11414.845 7631461
1160.9308 1790.606 11414.936 7565668
1267.6436 1847.5563 11777.988 7697254
1348.3993 1862.7057 11874.563 7828840
1399.5697 1837.5093 11713.939 7697254
1476.7527 1847.2327 11775.925 7434082
1537.4016 1836.3296 11706.419 7368290
1613.3376 1843.8392 11754.292 7499874
1667.0132 1826.3394 11642.731 7565668
1759.5211 1851.0833 11800.472 7763047
1796.6345 1817.886 11588.843 7894633
1854.4027 1807.2628 11521.121 7960426
1938.4572 1822.1023 11615.721 8026219
2005.8297 1820.7812 11607.3 8157805
2102.6746 1845.4143 11764.333 8223598
2157.1025 1832.434 11681.584 8026219
2193.613 1805.5128 11509.965 8026219
2256.541 1801.3036 11483.131 7894632
2328.6899 1804.4857 11503.417 7828840
2401.6738 1808.1156 11526.558 7763047
2472.27 1809.7971 11537.276 7697254
2505.2363 1784.5824 11376.536 7763047
2570.6272 1783.1815 11367.604 7697254
2644.47 1787.5652 11395.551 7631461
2712.4524 1787.8679 11397.48 7828840
2727.0747 1753.8387 11180.548 7828327
2812.406 1765.8198 11256.926 7828582
2824.6714 1732.4329 11044.087 8025961
2959.8269 1774.2223 11310.49 8092011
3113.0408 1824.7465 11632.577 8091754
3171.3501 1818.6572 11593.759 8157545
3201.3394 1796.9299 11455.249 7960167
3258.1736 1790.8602 11416.556 7894376
3321.1362 1788.3373 11400.473 7565154
3381.606 1784.5997 11376.646 7499618
3385.6978 1751.8367 11167.785 7762790
3459.0039 1755.4565 11190.861 7959912
3519.6646 1752.6432 11172.927 7960169
3581.5435 1750.5292 11159.45 8091752
3647.0312 1750.224 11157.504 8025960
3924.9297 1850.0511 11793.892 8091753
3964.136 1835.8439 11703.322 8091751
3977.145 1810.2017 11539.856 8288103
4035.3423 1805.6461 11510.814 8354153
3894.3906 1713.6123 10924.108 8419946
4138.4375 1791.2256 11418.885 8485738
4239.1807 1805.3136 11508.695 8419946
4283.4336 1795.2798 11444.73 8354153
4276.8438 1764.5813 11249.03 8156774
4353.5024 1768.6454 11274.938 8156771
4431.1533 1772.9836 11302.595 8288100
4576.7451 1803.9722 11500.144 8288101
4335.0601 1683.642 10733.05 7827551
4507.9775 1725.4855 10999.799 8090721
4617.3945 1742.177 11106.205 7893343
4587.4878 1706.5703 10879.216 7959137
4688.416 1719.9474 10964.494 8616807
4856.0513 1757.0956 11201.311 8616806
4823.624 1721.8286 10976.486 8484450
4907.356 1728.4119 11018.454 8352607
5018.2891 1744.2771 11119.594 8089434
4987.978 1711.2732 10909.197 7695443
5252.3174 1778.9091 11340.368 12828068
5141.3062 1719.3143 10960.458 12630685
5139.5879 1697.2992 10820.114 12170391
5191.2549 1693.2396 10794.234 13946803
5132.3105 1653.6396 10541.788 13882035
5094.0176 1621.5658 10337.32 13422254
5092.9106 1601.9508 10212.277 13487278
5069.8169 1575.9618 10046.601 13289898
0 0 0 0
5018.48 1524.2089 9716.6807 13157540
5053.5742 1517.4585 9673.6475 12696475
5018.644 1490.0687 9499.04 10920316
4972.7373 1460.0637 9307.7607 4671022
4891.5308 1420.4661 9055.3301 2039809
4741.7246 1362.0231 8682.7617 2435334
4774.3784 1356.6823 8648.7148 4145691
4568.7656 1284.4684 8188.3584 725248
4537.3623 1262.2347 8046.6216 2304523
4590.0151 1263.604 8055.3501 1119496
4734.7734 1290.04 8223.877 66560
4728.8032 1275.2882 8129.8359 1514759
4740.061 1265.4333 8067.0117 1053955
4901.8784 1295.5681 8259.1182 768
4797.3335 1255.4033 8003.0718 1120000
4723.9741 1224.106 7803.5537 658944
4700.6621 1206.2581 7689.7754 1053952
4761.6567 1210.1796 7714.7744 1053952
4726.1206 1189.7262 7584.3867 198400
4855.8149 1210.8608 7719.1172 1120000
4766.4702 1177.4904 7506.3838 1448448
4799.1621 1174.6055 7487.9927 1184000
4600.4648 1115.6593 7112.2173 8221241
4687.3506 1126.4114 7180.7607 9270324
4689.4868 1116.7872 7119.4082 8216097
4721.8203 1114.462 7104.585 1179648
4558.2539 1066.3495 6797.8716 655360
4554.1406 1056.0551 6732.2461 458752
4737.3262 1088.9949 6942.2344 393472
4752.25 1083.0212 6904.1533 855296
4829.5171 1091.2363 6956.5229 723968
4932.3496 1105.0399 7044.5195 1316098
4954.8843 1100.7728 7017.3179 1579009
5036.4971 1109.5924 7073.5415 1447168
5061.1831 1105.8284 7049.5459 1709825
5063.6177 1097.304 6995.2036 1380608
5056.582 1086.8823 6928.7671 985601
5095.1401 1086.3499 6925.3726 788481
5108.9907 1080.6 6888.7173 327936
5073.1885 1064.5223 6786.2246 393472
5049.4326 1051.2056 6701.3311 393472
5033.4077 1039.6935 6627.9429 459264
5064.5713 1038.0312 6617.3462 393728
5079.3682 1033.0659 6585.6924 722432
5008.186 1010.8228 6443.895 985600
4979.3608 997.40063 6358.3301 1117184
5047.8765 1003.5317 6397.4155 919552
5116.6743 1009.6271 6436.2725 1115648
5220.5635 1022.5054 6518.3701 852992
5173.061 1005.7604 6411.6226 589824
5164.2944 996.73578 6354.0918 524288
5217.4824 999.71295 6373.0708 590336
5278.7412 1004.1826 6401.5645 2037506
5161.4585 974.86652 6214.6772 2300935
5370.9028 1007.239 6421.0488 1116160
5140.7871 957.30249 6102.7085 1312768
5082.1606 939.77472 5990.9707 1378560
5139.9434 943.86676 6017.0571 3022596
5056.3726 922.12402 5878.4492 2692352
4854.5156 879.2547 5605.1611 2494720
4708.2905 846.97559 5399.3853 4402702
4708.082 841.22174 5362.7051 4007177
4675.3486 829.77271 5289.7188 2230272
4694.4736 827.61871 5275.9868 4072966
4620.228 809.14111 5158.1938 4863514
4706.5596 818.84338 5220.0454 524288
4859 839.8454 5353.9312 851968
4901.8306 841.75275 5366.0898 851968
4938.916 842.65509 5371.8423 655360
4943.1064 837.96948 5341.9722 1049600
4818.5264 811.65289 5174.2065 2890763
5096.188 852.99591 5437.7642 2693126
5057.2793 841.1651 5362.3442 2232320
5068.23 837.72321 5340.4023 2363648
5097.9692 837.41034 5338.4077 2692867
0 0 0 0
0 0 0 0
-17297.008 3049.3994 18732.037 512
-17061.984 3027.3926 18596.852 512
-17027.793 3040.9658 18680.23 512
-16712.148 3004.1233 18453.912 512
-16402.408 2967.8638 18231.176 512
-16405.01 2988.0139 18354.955 512
-16228.794 2975.6453 18278.977 512
-16089.341 2969.8967 18243.664 512
-15849.858 2945.4814 18093.684 512
-15682.947 2934.3115 18025.068 512
-15658.932 2949.908 18120.875 512
-15382.891 2917.9143 17924.342 768
-15454.32 2951.844 18132.768 768
-15499.652 2981.2292 18313.277 768
-15384.446 2979.9329 18305.314 768
-14802.717 2887.6118 17738.199 768
-15167.339 2979.8984 18305.104 768
-15008.23 2969.8772 18243.543 768
-14828.067 2955.5137 18155.311 768
-14475.119 2906.249 17852.686 768
-13723.264 2775.5791 17049.998 768
-13767.26 2805.1282 17231.514 768
-13550.271 2781.5449 17086.645 768
-13383.922 2768.0803 17003.934 768
-13036.054 2716.5842 16687.6 768
-14797.526 3107.2266 19087.262 768
-14738.579 3118.6851 19157.65 768
-14773.586 3150.3567 19352.205 768
-14730.702 3165.7842 19446.975 768
-14747.097 3194.2952 19622.111 768
0 0 0 0
0 0 0 0
0 0 0 0
0 0 0 0
0 0 0 0
-12377.248 2814.095 17286.596 1024
-12360.84 2833.8162 17407.74 1024
-13419.807 3102.4817 19058.115 1024
0 0 0 0
0 0 0 0
0 0 0 0
0 0 0 0
-11317.229 2731.313 16778.076 1024
-10666.599 2597.1033 15953.646 1024
-10383.279 2550.7266 15668.759 1024
-10256.206 2542.2419 15616.639 1024
-12379.507 3096.4893 19021.305 1024
-12385.077 3126.3467 19204.713 1024
-12253.554 3121.8301 19176.969 1024
-11468.563 2949.1873 18116.449 1024
-11107.104 2883.2239 17711.244 1024
-11020.591 2888.0544 17740.918 1024
-10747.178 2843.5273 17467.395 1024
-10055.859 2686.4883 16502.725 1024
-9974.0947 2690.8103 16529.275 1024
-10379.449 2827.936 17371.619 1024
-8496.3174 2338.054 14362.34 1024
-9016.0254 2506.1721 15395.067 1024
-9789.2949 2748.9294 16886.293 1024
-9974.4453 2829.8459 17383.352 1280
-9744.5107 2793.4585 17159.828 1280
-9652.8428 2796.3589 17177.645 1280
-9587.7822 2807.1111 17243.693 1280
-9683.001 2865.5264 17602.531 1280
-9500.0889 2842.0098 17458.072 1024
-9388.3262 2839.4946 17442.621 1024
-9222.1484 2820.282 17324.602 1280
-9100.4756 2814.4006 17288.473 1280
-9159.2529 2864.8267 17598.232 1280
-8655.1348 2738.324 16821.145 1280
-8566.3896 2741.8215 16842.629 1280
-8394.7178 2718.5464 16699.652 1280
-8351.4502 2736.7942 16811.746 1280
-8402.0771 2786.624 17117.844 1280
-8443.9971 2834.7483 17413.465 1280
-8148.7446 2769.4702 17012.471 1280
-7760.3608 2670.5081 16404.561 1280
-7967.6973 2776.6362 17056.492 1280
-8006.0811 2825.8574 17358.85 1280
-7708.9141 2756.3806 16932.064 1280
-7734.5835 2802.0266 17212.461 1280
-7723.6934 2835.4709 17417.904 1280
-7633.9756 2840.4902 17448.738 1280
-7457.1533 2812.7925 17278.594 1280
-7350.9956 2811.3486 17269.725 1280
-6656.0132 2581.4922 15857.749 1280
-6624.3447 2605.9993 16008.291 1280
-6537.1963 2609.075 16027.186 1280
-6483.8135 2625.9165 16130.641 1280
-6417.2329 2637.8374 16203.868 1280
-6072.0879 2533.8752 15565.244 1280
-6505.8374 2756.7515 16934.342 1280
-6348.2373 2732.1094 16782.969 1280
-6326.7466 2766.1931 16992.34 1280
-5927.1606 2633.3943 16176.575 1280
-6055.603 2734.6848 16798.789 1280
-5338.6548 2451.2061 15057.419 1280
-5431.3784 2536.1646 15579.308 1280
-5404.0488 2567.0334 15768.93 1280
-5470.3735 2644.2588 16243.314 1280
-5405.2549 2659.5757 16337.404 1536
-5282.2812 2646.4651 16256.868 1536
-5918.4585 3020.2732 18553.119 1280
-4824.6733 2508.698 15410.584 1536
-5761.8804 3053.8179 18759.18 1280
-5511.9043 2978.7954 18298.326 1280
-5478.6143 3020.2148 18552.762 1280
-5695.7524 3204.2126 19683.033 1280
-4359.4741 2503.7417 15380.139 1280
-4955.1489 2906.6125 17854.918 1280
-5172.1689 3100.1035 19043.506 1280
-4630.7266 2837.4778 17430.232 1280
-4510.8799 2827.0955 17366.455 1280
-3855.4795 2472.7468 15189.74 1280
-3684.3855 2419.4963 14862.631 1280
-4173.3159 2807.6833 17247.209 1280
-3551.2773 2449.1697 15044.909 1280
-3511.9197 2484.3916 15261.273 1536
-3320.7339 2411.231 14811.856 1280
-3229.2402 2408.4507 14794.779 1280
-3158.1021 2421.1208 14872.61 1280
-2912.7874 2297.155 14111.104 1280
-2818.9595 2288.8618 14060.16 1280
-2660.9355 2226.3521 13676.172 1280
-2558.6689 2208.0315 13563.631 1280
-2386.55 2126.2881 13061.493 1280
-2211.9558 2036.7856 12511.692 1280
-2197.5042 2093.6504 12861.004 1280
-2252.3481 2222.9929 13655.537 1280
-2110.2727 2160.3796 13270.913 1280
-2032.0304 2160.7979 13273.481 1280
-1904.3374 2106.5481 12940.232 1280
-1818.45 2095.9312 12875.015 1280
-1553.5355 1869.0033 11481.028 1280
-1490.9781 1875.8884 11523.322 1280
-1401.215 1847.5624 11349.319 1024
-1379.5867 1910.7479 11737.46 1024
-1296.2682 1890.6649 11614.092 1024
-1205.0918 1856.2261 11402.539 1024
-1134.6913 1851.5984 11374.112 768
-1103.9751 1915.2328 11765.009 132352
-1035.1576 1916.8898 11775.188 132096
-949.3905 1885.1313 11580.1 1118983
-867.2262 1856.1351 11401.98 2632222
-774.22119 1797.0767 11039.192 2368796
-706.75073 1791.8569 11007.129 2500384
-638.55438 1783.5483 10956.09 2631970
-575.71552 1790.0167 10995.824 2631971
-515.55426 1807.5236 11103.366 2566179
-459.62585 1847.1632 11346.867 2434593
-394.60046 1857.5636 11410.756 2500386
-323.82684 1839.6104 11300.472 2500386
-254.82803 1825.0078 11210.77 2566179
-190.39745 1844.3596 11329.645 2500386
-123.27744 1844.5493 11330.811 2434593
-57.122681 1876.9091 11529.592 2631972
10.906293 1828.5411 11232.475 2697508
76.870293 1814.545 11146.498 2566179
147.17941 1868.6526 11478.874 2697765
208.9673 1814.5627 11146.607 3026216
272.14777 1795.6418 11030.379 4144950
338.57175 1801.3055 11065.171 5525831
405.79575 1808.6975 11110.578 6249809
472.573 1812.3126 11132.784 7105117
538.51636 1812.2356 11132.312 7368288
597.98547 1792.7656 11012.71 7565668
660.1228 1784.3391 10960.947 7565667
727.17712 1789.5226 10992.789 7434082
781.47943 1765.052 10842.47 7434082
839.07428 1751.1708 10757.199 7565667
910.94751 1766.9454 10854.101 7631461
963.36005 1745.3809 10721.633 7631460
1037.0906 1762.7186 10828.136 7565924
1095.1464 1752.9464 10768.106 7631461
1153.7837 1745.1296 10720.089 7763046
1239.4103 1776.8203 10914.761 7960426
1294.0913 1763.2043 10831.12 7828840
1355.3274 1759.3845 10807.654 7631461
1420.3259 1760.5731 10814.956 7499876
1470.3942 1743.9508 10712.849 7499875
1532.0858 1741.9202 10700.373 7631460
1603.0795 1750.2061 10751.273 7697254
1686.6716 1771.0881 10879.549 7894632
1764.3552 1784.4565 10961.669 7894633
1806.05 1761.7693 10822.305 7894633
1855.0892 1747.5565 10734.997 7960426
1917.3359 1746.3154 10727.374 8026219
1972.776 1739.1537 10683.38 8092012
2073.9543 1771.5055 10882.112 7960425
2134.1565 1767.9608 10860.338 7828840
2214.6406 1780.9337 10940.028 7763047
2307.0254 1802.4668 11072.304 7763047
2361.8303 1794.2599 11021.89 7828583
2428.9429 1795.5931 11030.079 7763047
2477.9436 1783.8182 10957.748 7763047
2527.8362 1773.2701 10892.952 7697511
2586.5925 1769.3104 10868.629 7697254
2665.8794 1779.2454 10929.657 7762790
2595.8345 1691.4069 10390.077 7828582
2742.9817 1745.8788 10724.691 7894374
2792.717 1737.2863 10671.908 7960167
2851.6179 1734.6497 10655.712 7960167
3001.5957 1786.3295 10973.174 7828581
3032.1038 1766.2256 10849.679 7762788
3078.1865 1755.8407 10785.886 7630945
3165.8865 1769.1344 10867.547 7433823
3202.8191 1754.0944 10775.158 7499361
3257.8457 1749.358 10746.063 7696995
3322.8223 1750.0437 10750.275 7762787
3377.3103 1745.2833 10721.033 7828580
3426.4424 1737.9822 10676.183 7960167
3490.6562 1738.4569 10679.1 8025444
3623.9348 1772.6985 10889.441 8156517
3620.8589 1740.2095 10689.865 8090980
3747.4353 1770.078 10873.344 8156774
3750.9451 1741.7896 10699.571 8222567
3768.6394 1720.9188 10571.365 8222567
3880.6543 1743.0968 10707.603 8222567
3967.1331 1753.276 10770.131 8222566
3803.6902 1654.4282 10162.923 8288360
4038.9214 1729.364 10623.243 8156774
4133.1992 1742.573 10704.385 8156774
4155.6357 1725.5522 10599.828 8288359
4134.7603 1691.3217 10389.554 8222567
4192.2349 1689.674 10379.433 8288360
4241.3311 1684.746 10349.16 8288359
4235.938 1658.6227 10188.689 8090981
4228.71 1632.5251 10028.375 8156514
4408.9697 1678.5291 10310.971 8025185
4428.9067 1663.0732 10216.028 8090209
4488.3691 1662.6764 10213.59 7827037
4502.2612 1645.6334 10108.897 7761500
4678.0317 1687.4298 10365.646 8024415
4656.4512 1657.8781 10184.115 8155229
4740.853 1666.3336 10236.057 7760724
4835.0635 1677.9796 10307.597 9931888
4838.855 1658.3473 10186.997 11510147
4915.4111 1663.8289 10220.67 9074520
4890.0737 1635.1066 10044.233 8680534
4824.9321 1593.9257 9791.2637 13289127
4943.0596 1613.5472 9911.7969 14013107
4889.4473 1577.3058 9689.1709 13421484
4896.5073 1561.2511 9590.5488 13092004
4936.4331 1555.9236 9557.8232 13289382
4902.9233 1527.8334 9385.2686 13289125
4661.2798 1436.2426 8822.6387 12630937
4981.356 1517.842 9323.8926 12170900
0 0 0 0
4593.4438 1369.2704 8411.2383 12170641
4730.0371 1394.8533 8568.3906 7828561
4501.6079 1313.3936 8067.9946 1644817
4502.2988 1299.7917 7984.4404 723461
4664.8467 1332.7141 8186.6777 526848
4786.311 1353.3423 8313.3936 790272
4729.4053 1323.6293 8130.8711 790528
4760.0898 1318.7826 8101.0986 198144
4838.021 1326.9916 8151.5249 132352
4777.8696 1297.5389 7970.6011 395776
4694.1152 1262.3156 7754.2295 1842948
4683.1655 1247.1636 7661.1528 658432
4469.0439 1178.7156 7240.6865 2435339
4757.4556 1242.8529 7634.6729 1119488
4872.5303 1260.9253 7745.689 66304
4747.9707 1217.226 7477.2495 1513728
4828.2354 1226.3593 7533.355 1447680
4763.2305 1198.7653 7363.8491 7828026
4758.6724 1186.7469 7290.022 8283179
4779.0811 1181.1154 7255.4272 8874545
5011.9531 1227.6245 7541.127 2560512
4486.0024 1089.0887 6690.1206 655360
4533.0537 1090.8718 6701.0742 458752
4670.7266 1114.2426 6844.6372 262400
4622.8833 1093.3353 6716.2075 262912
4760.3242 1116.2317 6856.8564 1315585
4881.5952 1134.9811 6972.0312 1381632
4995.1323 1151.6326 7074.3188 1579008
4898.5122 1119.9581 6879.7476 4144155
4965.3179 1125.8627 6916.0181 2828038
5011.0327 1126.9276 6922.5596 2893576
4814.4141 1073.9192 6596.937 3617555
4881.9082 1080.2042 6635.5449 1446656
4968.5918 1090.601 6699.4102 1644290
4978.8618 1084.193 6660.0474 197120
4994.6401 1079.0759 6628.6138 131328
4955.4878 1062.2637 6525.3384 460032
5005.5459 1064.6869 6540.2241 196864
4928.4878 1040.2429 6390.0679 394240
4946.3491 1036.0533 6364.3315 723456
4932.25 1025.2832 6298.1729 1183744
4985.8794 1028.6483 6318.8438 2236424
4843.3564 991.79614 6092.4658 2170117
4950.8003 1006.2974 6181.5449 525568
5039.1035 1016.7236 6245.5923 787968
5022.3906 1005.9637 6179.4951 459008
5087.8472 1011.6984 6214.7231 393472
5061.0977 999.14777 6137.6265 656384
5075.1211 994.76807 6110.7222 525056
5014.895 976 5995.4326 2038275
4996.6577 965.61041 5931.6104 1116672
4828.4292 926.58228 5691.8662 1774848
4837.1636 921.81952 5662.6094 1182720
4803.6548 909.1275 5584.644 1708288
4783.0684 899.03802 5522.666 2891264
4673.311 872.4389 5359.271 4600851
4830.2534 895.65167 5501.8638 4271371
4678.1455 861.63165 5292.8833 2362112
4725.3257 864.52551 5310.6602 3941380
4546.7983 826.35986 5076.2139 4995101
4696.8364 848.01868 5209.2612 786432
4852.8545 870.46722 5347.1597 917504
4884.5386 870.46722 5347.1597 851968
4912.7563 869.85358 5343.3896 655360
4860.2925 855.05371 5252.4761 918016
4896.6846 855.97473 5258.1338 2100992
4991.1011 866.96307 5325.6338 1838336
5065.959 874.43726 5371.5469 1706752
5026.6577 862.23627 5296.5977 2233604
5057.4819 862.14075 5296.0107 1970433
0 0 0 0
0 0 0 0
-15980.583 2919.866 17306.396 512
-15764.325 2898.9553 17182.457 768
-15696.014 2905.1562 17219.211 512
-15589.447 2904.311 17214.201 512
-15340.463 2876.7476 17050.83 512
-15224.972 2874.0183 17034.652 512
-15027.289 2855.634 16925.688 768
-14857.044 2842.2512 16846.365 768
-14719.023 2834.8943 16802.76 768
-14497.636 2811.2708 16662.74 768
-14531.656 2837.1899 16816.367 768
-14333.788 2817.8799 16701.914 768
-14313.6 2833.4746 16794.346 768
-13901.755 2771.2134 16425.316 768
-13733.503 2756.9753 16340.925 768
-13692.618 2768.2854 16407.961 768
-13579.961 2765.1428 16389.334 768
-13470.574 2762.6255 16374.414 768
0 0 0 0
0 0 0 0
-12982.488 2721.3291 16129.646 768
-12986.179 2742.2908 16253.889 768
-12673.909 2696.3464 15981.569 768
-12561.377 2692.5237 15958.911 768
-12647.683 2731.5864 16190.441 768
0 0 0 0
0 0 0 0
0 0 0 0
0 0 0 0
0 0 0 0
0 0 0 0
0 0 0 0
0 0 0 0
0 0 0 0
0 0 0 0
0 0 0 0
0 0 0 0
0 0 0 0
0 0 0 0
0 0 0 0
0 0 0 0
0 0 0 0
0 0 0 0
0 0 0 0
-7336.6094 1867.8916 11071.219 1280
-7271.0078 1867.8916 11071.219 1280
-7475.0239 1937.7859 11485.49 1280
-7149.3555 1870.3903 11086.028 1280
-6998.1401 1847.8076 10952.179 1280
-6983.0703 1861.0872 11030.888 1280
-7129.6831 1918.1152 11368.9 1280
-6997.9795 1900.6411 11265.328 1280
-6734.8032 1846.7788 10946.08 1280
-6729.9482 1863.3929 11044.554 1280
-8327.8984 2328.4771 13801.164 1280
-8833.2031 2494.2529 14783.738 1280
-8766.8213 2500.3042 14819.604 1280
-8659.3545 2494.6418 14786.043 1280
-8767.4941 2551.6118 15123.711 1280
-8924.1396 2624.0212 15552.891 1280
-8980.1318 2668.0374 15813.778 1280
-8897.1348 2671.2515 15832.829 1280
-8712.4932 2643.6914 15669.478 1280
-8618.6094 2643.3738 15667.595 1280
-8599.085 2666.104 15802.32 1280
-8706.1348 2729.0105 16175.174 1280
-8596.5693 2724.6614 16149.396 1280
-8456.1191 2710.3157 16064.368 1280
-7979.8604 2586.7864 15332.193 1280
-8035.4995 2634.8193 15616.892 1280
-9720.085 3224.3218 19110.943 1280
-7848.9956 2634.3391 15614.045 1280
-7415.1787 2518.4241 14927.002 1280
-7788.0869 2677.0063 15866.939 1280
-7361.438 2561.2739 15180.979 1280
-7404.4663 2608.1145 15458.609 1280
-7322.9312 2611.7036 15479.883 1280
-7011.2129 2532.2483 15008.94 1280
-6850.2026 2505.8818 14852.664 1280
-6919.2461 2564.0808 15197.616 1280
-6833.5732 2565.7249 15207.36 1280
-6658.3848 2533.3547 15015.498 1280
-6632.6538 2557.7427 15160.049 1280
-6776.7412 2649.186 15702.045 1280
-6315.6782 2503.3149 14837.449 1280
-7654.2397 3076.7034 18235.992 1280
-7535.376 3072.2971 18209.875 1280
-7409.0005 3064.655 18164.58 1280
-5851.9531 2456.2817 14558.678 1280
-5711.4385 2433.1709 14421.697 1280
-5831.9707 2522.2576 14949.725 1280
-5661.4961 2486.2944 14736.566 1280
-5504.4136 2455.1777 14552.134 1280
-5598.1738 2536.7363 15035.543 1280
-5254.9365 2419.7114 14341.921 1280
-5525.1387 2585.9492 15327.233 1280
-5399.0327 2569.1584 15227.711 1280
-5420.6694 2623.2957 15548.589 1280
-5958.1919 2933.281 17385.91 1280
-4969.834 2489.7502 14757.05 1280
-5152.833 2627.6599 15574.457 1536
-4885.1372 2536.5791 15034.609 1536
-5526.8394 2923.085 17325.477 1536
-5371.7886 2894.8518 17158.135 1536
-4402.9253 2418.5059 14334.775 1536
-4390.9873 2459.394 14577.125 1536
-4323.9229 2470.427 14642.519 1536
-4823.7295 2812.4194 16669.549 1536
-4340.8203 2583.7722 15314.328 1536
-4520.2402 2748.0139 16287.81 1536
-4636.9102 2880.4419 17072.727 1536
-4313.1514 2739.0818 16234.867 1536
-4533.0024 2944.3684 17451.627 1536
-4244.5771 2821.3865 16722.697 1280
-4078.0955 2775.5193 16450.838 1280
-3315.5532 2311.7976 13702.303 1280
-3218.814 2300.6848 13636.437 1280
-3131.6772 2296.04 13608.905 1280
-3081.1873 2318.728 13743.38 1280
-2998.0203 2317.3892 13735.444 1280
-2854.9033 2268.3428 13444.741 1280
-2727.0261 2228.937 13211.178 1280
-2674.2881 2250.4321 13338.582 1280
-2515.5112 2181.2864 12928.747 1280
-2404.4771 2150.4966 12746.252 1280
-2237.2822 2065.8523 12244.556 1280
-2108.9534 2012.6249 11929.07 1280
-2043.5266 2017.8167 11959.842 1280
-2057.6587 2104.7612 12475.174 1280
-1952.0909 2071.1831 12276.152 1280
-1906.8969 2101.542 12456.093 1280
-1780.2789 2040.9976 12097.238 1280
-1552.3969 1854.4083 10991.302 1280
-1465.6177 1827.4124 10831.293 1024
-1437.2599 1874.1224 11108.149 1024
-1391.3339 1901.3088 11269.286 768
-1354.5823 1944.4052 11524.724 768
-1275.3837 1927.9131 11426.974 132096
-1118.1769 1785.0411 10580.153 198144
-1049.3813 1774.7184 10518.969 526848
-980.69257 1763.2834 10451.193 1645327
-911.96442 1750.2316 10373.834 2171417
-819.9613 1687.396 10001.399 2303006
-764.91711 1696.7527 10056.857 2368800
-708.28143 1703.8618 10098.994 2434593
-641.5257 1685.6914 9991.2959 2434594
-610.85992 1768.2985 10480.918 2368800
-547.03931 1762.7656 10448.125 2302754
-483.40347 1756.4923 10410.941 2368546
-420.87619 1753.0009 10390.247 2565925
-360.08575 1756.7866 10412.686 2565925
-297.27515 1750.2438 10373.906 2500132
-238.80215 1772.4856 10505.735 2565926
-176.76343 1774.6136 10518.35 2500132
-113.72158 1763.5043 10452.503 2500133
-51.626415 1758.0594 10420.23 2631718
10.292375 1788.4226 10600.196 2829097
73.109818 1788.5944 10601.214 2763304
137.9203 1814.8331 10756.734 2828841
198.01741 1782.0669 10562.525 2829607
262.49234 1794.9756 10639.036 2895144
321.79367 1774.3577 10516.831 2960680
384.38004 1775.6045 10524.222 3289644
458.17432 1821.0499 10793.582 4276536
528.6073 1843.6389 10927.47 5197124
589.18085 1830.6632 10850.562 6184016
641.58551 1797.3563 10653.147 6710359
686.26178 1750.3049 10374.269 6973531
737.06097 1725.3228 10226.195 7302496
792.46747 1714.1014 10159.686 7499875
850.46307 1709.6694 10133.417 7565667
912.07623 1712.615 10150.875 7565668
974.28333 1716.2421 10172.373 7565668
1036.582 1719.5985 10192.268 7499875
1084.9017 1700.6721 10080.089 7565668
1170.793 1739.5442 10310.488 7565668
1203.7976 1699.8795 10075.391 7434082
1257.2678 1691.4973 10025.708 7368289
1327.1508 1704.9563 10105.481 7499875
1392.3251 1711.4655 10144.062 7697254
1426.6901 1681.1316 9964.2695 7631461
1477.1273 1671.3949 9906.5586 7828840
1552.605 1689.6531 10014.777 7763046
1620.0476 1698.1445 10065.107 7763047
1673.5712 1691.9612 10028.458 7894633
1741.7067 1700.4677 10078.877 7894632
1787.1627 1687.0018 9999.0635 7894633
1847.855 1688.3212 10006.883 7828840
1917.6632 1697.6283 10062.047 7828840
1986.1803 1705.2656 10107.314 7763047
2069.8118 1725.0527 10224.595 7697254
2105.4927 1704.887 10105.07 7631461
2160.8401 1701.3209 10083.935 7762791
2257.5703 1729.6527 10251.859 7762534
2231.8359 1665.131 9869.4316 7565155
2307.5903 1677.6895 9943.8682 7499362
2404.9131 1704.9133 10105.228 7499105
2475.7588 1712.5004 10150.195 7762277
2549.7346 1721.8409 10205.559 7433310
2527.2114 1667.0927 9881.0586 7367517
