# .PCD v0.7 - Point Cloud Data file format
VERSION 0.7
FIELDS x y z rgb
SIZE 4 4 4 4
TYPE F F F U
COUNT 1 1 1 1
WIDTH 1283
HEIGHT 1
VIEWPOINT 0 0 0 1 0 0 0
POINTS 1283
DATA ascii
417.91669 992.06677 2005.743 6634526
432.55469 998.42175 2018.5914 8476473
443.12964 995.30859 2012.2974 7160612
450.80072 986.00708 1993.4918 8937281
462.45529 985.67108 1992.8124 6305306
472.55026 982.11047 1985.6136 6042651
479.66141 972.672 1966.5311 6963493
497.4938 984.90662 1991.267 7357995
511.84863 989.84924 2001.2598 7094825
523.27509 989.03302 1999.6095 7160618
534.63452 988.12915 1997.782 6502688
540.77277 977.82355 1976.9464 6831653
550.27258 973.90436 1969.0227 8015670
564.29791 977.99115 1977.2852 6963752
573.50824 973.73651 1968.6833 8410941
586.34937 975.69318 1972.6393 5383953
594.46063 969.85669 1960.8391 6107931
606.70825 970.86298 1962.8737 5713690
616.58789 968.1134 1957.3147 8410940
630.26398 971.31628 1963.79 5648146
641.9455 971.38477 1963.9286 8805950
653.41248 971.13202 1963.4176 8279864
661.89429 966.52893 1954.1112 7424556
672.68384 965.39612 1951.8209 8411707
683.79602 964.75684 1950.5283 8082233
692.38629 960.63971 1942.2045 7555375
707.32849 965.32605 1951.6792 7292205
720.11542 966.96759 1954.998 7423791
727.52643 961.4527 1943.848 7424304
736.40839 958.02319 1936.9144 6963496
748.70697 959.07562 1939.0421 6897960
759.51111 958.21088 1937.2938 6963752
770.28906 957.33929 1935.5316 7950648
786.31586 962.92102 1946.8167 7687476
792.01007 955.87097 1932.5631 6766120
807.60004 960.7948 1942.5179 6700326
811.53302 951.90686 1924.5486 7621429
823.97302 953.10559 1926.972 6897960
829.04156 945.86139 1912.3258 7687222
843.87292 949.80078 1920.2904 7292721
845.95441 939.47595 1899.4159 6766633
862.08521 944.81989 1910.2202 7358257
864.24066 934.90729 1890.179 7029034
883.94153 943.98547 1908.5331 7818806
890.70013 939.18762 1898.833 7358000
904.0387 941.36096 1903.2271 4989711
899.89044 925.49646 1871.1523 6634276
919.09894 933.74689 1887.8331 6502690
945.08319 948.60022 1917.8632 6173469
942.5412 934.80811 1889.9786 7292205
949.64459 930.79395 1881.8627 6174236
973.72217 943.31708 1907.1818 7424049
988.90173 947.03168 1914.6919 6963243
996.6864 943.6604 1907.876 6239521
1002.871 938.86682 1898.1844 6502691
1018.8821 943.27692 1907.1006 6634022
1023.1979 936.88165 1894.1708 7226414
1033.9791 936.4809 1893.3606 6173469
1049.2551 940.11597 1900.7098 7094828
1055.5049 935.6723 1891.7258 7095082
1075.8071 943.64825 1907.8514 7621426
1072.5393 930.99884 1882.277 7950391
1081.0206 928.70337 1877.6361 7753269
1093.249 929.64099 1879.5317 7621683
1108.7358 933.30261 1886.9347 7292462
1118.9861 932.52692 1885.3666 7424049
1124.1212 927.54626 1875.2966 7029035
1136.05 928.21368 1876.646 6766122
1148.7736 929.51117 1879.2693 4265990
1160.8829 930.29175 1880.8474 6173987
1171.9199 930.20612 1880.6743 8739658
1179.7574 927.60651 1875.4186 6897966
1202.6929 936.81573 1894.0375 6437670
1202.3505 927.89038 1875.9924 6372389
1207.5789 923.38837 1866.8904 6701097
1220.313 924.6554 1869.4519 7555380
1223.7493 918.91779 1857.8517 7358770
1237.219 920.74927 1861.5547 6635304
1248.9137 921.23932 1862.5454 7161649
1260.3911 921.56189 1863.1975 7227441
1279.9106 927.70782 1875.6233 6437671
1284.2195 922.81787 1865.7369 7227186
1288.903 918.27838 1856.559 6964271
1299.5654 918.03925 1856.0756 6503720
1312.569 919.44421 1858.916 6437927
1312.0211 911.41205 1842.6768 6635307
1332.3923 917.92413 1855.8429 6306343
1330.5148 909.12744 1838.0577 6107938
1341.406 909.12744 1838.0577 6502695
1348.0544 906.27509 1832.2909 5451035
1367.4071 911.94086 1843.746 5976867
1368.9857 905.75708 1831.2437 4003336
1392.327 913.95605 1847.8203 7490362
1397.3475 910.09485 1840.0137 5516316
1400.3499 904.98907 1829.6909 7292982
1406.6696 902.08917 1823.828 6108708
1423.4401 905.8844 1831.5011 6503721
1427.6165 901.66791 1822.9763 5911842
1437.0494 900.80981 1821.2415 6109221
1456.3105 906.07947 1831.8954 6569516
1458.1759 900.52771 1820.6711 5977636
1467.0944 899.38153 1818.3538 6372138
1475.7133 898.06976 1815.7017 6371881
1488.808 899.48108 1818.5549 6964018
1499.0525 899.16248 1817.9109 5121560
1502.1907 894.61627 1808.7195 5122327
1513.7 895.08447 1809.6661 4530190
1529.1542 897.86261 1815.2827 5977379
1540.391 898.14276 1815.8491 5385499
1525.3314 883.19293 1785.624 5385500
1529.5048 879.50867 1778.175 7030324
1543.5371 881.50525 1782.2117 7161910
1552.2405 880.4519 1780.0822 5450523
1544.7583 870.29407 1759.5453 5977123
1575.1542 881.46942 1782.1393 5779487
1597.9495 888.27081 1795.8904 6240295
1617.0447 892.93903 1805.3285 6503466
1609.6757 883.02832 1785.2911 6175015
1626.2557 886.29913 1791.9041 6175271
1622.9138 878.7406 1776.6222 7951428
1627.2667 875.41901 1769.9067 6702128
1625.8029 869.0307 1756.991 4464653
1648.9222 875.78046 1770.6376 5977379
1635.4847 863.15149 1745.1045 6174501
1646.9277 863.7298 1746.2736 7358776
1677.0886 874.05609 1767.1511 4858642
1683.1018 871.74713 1762.483 4332047
0 0 0 0
0 0 0 0
0 0 0 0
0 0 0 0
0 0 0 0
0 0 0 0
0 0 0 0
0 0 0 0
0 0 0 0
-2142.0498 1215.7405 2428.8652 8608820
-2115.9221 1209.0345 2415.4678 8937785
-2107.467 1212.4044 2422.2002 8740662
-2095.2434 1213.6375 2424.6638 8674100
-2080.7886 1213.5863 2424.5615 8739380
-2072.2417 1217.0042 2431.3899 8739380
-2042.4596 1207.9115 2413.2239 8476464
-2029.7537 1208.8604 2415.1196 8015914
-1993.8516 1195.9097 2389.2463 8410415
-1987.3671 1200.5447 2398.5063 8805687
-1973.1548 1200.5447 2398.5063 8740407
-1958.7561 1200.4303 2398.2778 7885097
-1962.8994 1211.7609 2420.9146 9398337
-1908.9713 1187.1449 2371.7356 8740406
-1899.0245 1189.7178 2376.8757 9069117
-1877.7308 1185.1672 2367.7844 8345138
-1860.9327 1183.407 2364.2678 9069117
-1845.4047 1182.4338 2362.3235 9069117
-1828.8589 1180.7886 2359.0366 8937532
-1807.1854 1175.782 2349.0342 8871482
-1795.7942 1177.4395 2352.3455 8805946
-1772.7235 1171.4049 2340.2896 8213809
-1765.7299 1175.9828 2349.4353 8871482
-1752.4812 1176.4343 2350.3374 8740153
-1749.432 1183.7949 2365.0427 8937531
-1732.0327 1181.4854 2360.4287 8871739
-1716.8319 1180.6504 2358.7605 8476980
-1699.672 1178.4434 2354.3511 8608568
-1711.8989 1196.7432 2390.9114 9134911
-1689.6107 1191.0186 2379.4746 9003068
-1675.5114 1191.0186 2379.4746 8740153
-1665.9011 1194.2367 2385.9038 8608567
-1648.2394 1191.6885 2380.813 8805945
-1631.3549 1189.6635 2376.7671 8805689
-1588.7079 1168.6519 2334.7893 7950637
-1593.3516 1182.3639 2362.1838 8411188
-1563.3826 1170.4066 2338.2949 8476981
-1548.4968 1169.6283 2336.74 8476724
-1527.3231 1164.0436 2325.5825 8213809
-1503.6316 1156.4208 2310.3533 8608310
-1490.4647 1156.8265 2311.1641 8673847
-1480.3324 1159.6171 2316.739 9134655
-1472.9258 1164.615 2326.7241 8937019
-1465.4213 1169.6292 2336.7417 9463105
-1443.3724 1163.0198 2323.5371 9265470
-1434.9272 1167.3499 2332.188 8870969
-1420.9661 1167.2333 2331.9551 8542771
-1406.501 1166.6963 2330.8823 9266750
-1384.4924 1159.8293 2317.1631 8411441
-1368.9628 1158.3066 2314.1211 8740407
-1357.87 1160.5454 2318.5938 8805946
-1344.749 1161.0785 2319.6589 8476724
-1323.2303 1154.2972 2306.1111 8608310
-1308.8268 1153.646 2304.8098 7884587
-1294.6952 1153.2233 2303.9651 8279345
-1275.6907 1148.4047 2294.3384 8213809
-1260.4401 1146.8981 2291.3284 8082735
-1241.6387 1142.0925 2281.7278 8280371
-1230.2166 1144.0437 2285.6257 8608567
-1215.8411 1143.2611 2284.0623 8674103
-1201.2281 1142.2351 2282.0127 8476980
-1188.7198 1143.21 2283.9602 8608310
-1174.786 1142.8203 2283.1819 8542517
-1159.9149 1141.4994 2280.5427 8740152
-1145.692 1140.7926 2279.1306 8739897
-1128.667 1137.2456 2272.0442 9069117
-1107.3341 1129.22 2256.0103 8476981
-1098.8816 1134.2935 2266.1465 8608310
-1091.0936 1140.1871 2277.9211 8410418
-1082.4889 1145.3643 2288.2642 8213295
-1060.2872 1136.1035 2269.7627 8344111
-1045.3633 1134.5029 2266.5649 8410161
-1016.736 1117.7955 2233.186 7818281
-1009.6295 1124.6193 2246.8188 8015658
-1005.9813 1135.5289 2268.6147 8344878
-982.23047 1123.7356 2245.0532 8015144
-967.80853 1122.4376 2242.4602 7554593
-952.45648 1120.0099 2237.6099 7423265
-933.80487 1113.5789 2224.7617 8146732
-920.43353 1113.3506 2224.3057 7883816
-915.9906 1124.0721 2245.7258 7226144
-893.03339 1112.0551 2221.7173 7949867
-886.04388 1119.8597 2237.3098 8673590
-868.88153 1114.8486 2227.2986 7949611
-845.55591 1101.6532 2200.936 7949611
-839.85681 1111.369 2220.3469 7818025
-826.45508 1111.0394 2219.6885 8410418
-811.1756 1108.1339 2213.8835 8146989
-789.93823 1096.8601 2191.3601 7884845
-778.19385 1098.611 2194.8582 10121806
-761.31909 1093.0555 2183.7593 7949867
-749.01587 1093.9851 2185.6165 8148017
-732.41614 1088.5618 2174.7812 7950638
-721.64288 1091.7587 2181.1682 8147760
-706.95874 1089.0477 2175.7522 8739898
-696.62128 1093.0563 2183.7607 8213812
-680.21924 1087.5208 2172.7017 8214582
-670.80377 1093.1571 2183.9622 9201733
-655.21667 1088.7598 2175.177 8214323
-638.65009 1082.5259 2162.7227 8148529
-625.04773 1081.1639 2160.0017 8805946
-611.67493 1080.1504 2157.9768 10121550
-600.18958 1082.4979 2162.6667 8214066
-587.14978 1082.083 2161.8379 8542776
-573.12903 1079.8016 2157.2798 7950382
-563.82391 1086.5029 2170.6682 8015919
-546.62933 1077.9592 2153.5991 8213300
-533.1228 1076.4537 2150.5913 7226661
-521.65149 1079.0846 2155.8474 7753002
-504.12637 1069.0103 2135.7205 7950381
-491.65991 1069.4204 2136.5398 9134912
-476.17514 1063.1134 2123.9395 8279346
-464.34818 1064.8523 2127.4133 8081967
-453.48404 1068.9578 2135.6155 8871740
-434.88324 1054.5382 2106.8076 9134655
-419.61823 1047.5946 2092.9353 8148019
-410.76834 1056.7313 2111.189 8476982
-397.15588 1053.8052 2105.343 7884845
-386.21313 1058.0027 2113.729 7490087
-371.92502 1053.01 2103.7544 7621416
-360.18253 1055.1283 2107.9863 8542518
-346.50989 1051.5414 2100.8203 7753258
-332.31982 1046.0585 2089.8662 8082224
-320.90213 1049.2156 2096.1736 7884589
-307.59332 1046.1948 2090.1387 7621418
-294.26953 1042.8676 2083.4912 8147249
-282.93671 1046.6135 2090.9751 8279349
-269.28201 1041.7207 2081.2 7884334
-256.08746 1038.2234 2074.2129 8476728
-244.08269 1039.4403 2076.6443 8344885
-230.20528 1032.3884 2062.5557 8147506
-217.90924 1032.0354 2061.8501 8015921
-204.7654 1027.3864 2052.5623 7227174
-194.68585 1038.496 2074.7576 7227176
-181.14117 1031.3738 2060.5283 7556141
-168.79465 1030.5369 2058.8564 8345655
-156.22475 1028.0996 2053.9871 8148019
-143.83624 1026.5452 2050.8816 8082482
-131.96498 1028.736 2055.2585 8279861
-119.96105 1030.233 2058.2493 8740155
-107.50914 1027.786 2053.3606 7094820
-95.174614 1025.9799 2049.7522 7292199
-82.952606 1025.0358 2047.8661 7029026
-71.281807 1031.7463 2061.2729 8410934
-58.728832 1025.8232 2049.4395 7884589
-46.784874 1030.2228 2058.229 8016179
-34.422771 1025.2705 2048.335 8016435
-22.382452 1029.728 2057.2405 8411450
-10.129754 1023.3913 2044.5807 8345143
1.984136 1022.8389 2043.4769 7424042
14.087464 1022.4692 2042.7384 9265991
26.239777 1024.3534 2046.5027 5252624
38.118397 1017.7392 2033.2886 5976341
49.964821 1013.6486 2025.1163 7226409
61.827869 1011.4145 2020.6527 8476730
74.539314 1021.5321 2040.8662 8279350
87.002373 1025.8962 2049.5852 8016179
99.092911 1025.3367 2048.4673 7160613
111.30406 1026.0111 2049.8147 6963492
123.08778 1023.0003 2043.7996 5910548
134.50519 1017.7571 2033.3245 6766626
146.35217 1016.3594 2030.532 7753521
157.82704 1012.786 2023.3929 7753265
169.56337 1011.2766 2020.3774 7358507
181.07623 1008.7214 2015.2725 8411452
193.24852 1009.9285 2017.6841 8016437
204.64108 1007.1577 2012.1482 8082486
217.04945 1009.4158 2016.6599 7490350
229.40234 1011.194 2020.2122 7161384
240.26105 1006.5359 2010.9062 8082231
252.06453 1006.0891 2010.0135 7226921
264.30862 1007.3619 2012.5565 7621936
276.02945 1006.6166 2011.0675 8542526
287.54672 1005.2214 2008.28 7094822
297.76514 999.5769 1997.0031 7555373
308.52628 996.11609 1990.089 6831393
319.22195 992.7066 1983.2772 7226151
330.8779 992.41931 1982.7032 7357737
342.71625 992.68011 1983.2244 6502944
356.16556 997.43506 1992.7241 7621166
369.16202 1000.6573 1999.1616 7227178
381.48651 1001.9145 2001.6732 5384719
391.72815 997.79053 1993.4341 6700577
403.35175 997.32489 1992.5039 7490349
411.12283 987.63092 1973.137 8081977
427.22577 997.935 1993.7229 8345145
437.33209 994.05432 1985.97 7884338
444.77005 984.47095 1966.8236 7094825
453.4173 977.98511 1953.866 7686961
463.90076 975.6842 1949.2692 8608063
477.957 980.8269 1959.5435 6831651
489.09573 979.88062 1957.653 7292203
499.77124 978.07153 1954.0386 7357740
514.06726 983.26947 1964.4233 7489326
526.52649 984.80182 1967.4847 5712916
535.01233 978.99689 1955.8875 7423790
548.80029 982.93457 1963.7543 6962982
559.31104 980.961 1959.8113 7226667
567.22437 974.6048 1947.1125 7884597
576.73035 971.18396 1940.2783 7029545
588.77429 972.0871 1942.0826 7621682
601.26636 973.68127 1945.2676 6963495
614.83514 976.92633 1951.7507 8213562
625.48505 975.49933 1948.8998 7160874
636.68872 974.97205 1947.8464 7358509
642.69592 966.64771 1931.2156 8344891
659.35059 974.34894 1946.6014 8608321
664.55957 965.16229 1928.2479 7095336
674.12543 962.50696 1922.943 7621680
683.40826 959.54248 1917.0204 7621170
695.01605 959.88586 1917.7064 7292205
707.97418 962.05322 1922.0365 7818805
718.45618 960.84045 1919.6135 8411198
726.34778 956.25513 1910.4528 7424304
737.50653 956.04584 1910.0347 6832167
747.51239 954.37103 1906.6886 6897960
758.36359 953.80914 1905.566 7160878
770.86237 955.30554 1908.5557 6766120
781.75647 954.79895 1907.5436 6963757
789.77087 950.83966 1899.6334 5713949
796.22833 945.14362 1888.2535 6766120
809.8728 948.01825 1893.9967 6568741
821.3042 948.25922 1894.4783 5581846
829.99927 945.37701 1888.7198 7753015
843.41492 947.87665 1893.714 6502948
847.73499 940.22284 1878.4227 6437155
855.74762 936.80981 1871.6039 5713434
872.33246 942.74817 1883.4679 5976350
887.25897 946.76697 1891.4969 6042398
896.97351 945.1933 1888.3529 6239777
901.64539 938.41022 1874.8014 6634534
909.20392 934.75995 1867.5087 6831658
918.07391 932.52972 1863.053 7752758
930.90039 934.32336 1866.6365 4331782
939.92664 932.30554 1862.6052 6240032
953.59424 934.88489 1867.7583 7029546
981.10895 950.82465 1899.6035 8477250
989.89197 948.45526 1894.8698 7621172
1001.5887 948.89954 1895.7574 7029036
1008.2281 944.59564 1887.1589 7752758
1015.1182 940.61859 1879.2134 6371105
1027.579 941.83368 1881.641 6897191
1035.0438 938.49268 1874.9662 6173469
1042.2211 934.96484 1867.918 6700069
1050.8762 932.82281 1863.6385 6897706
1061.054 932.06299 1862.1205 7489841
1075.1584 934.73254 1867.454 6766374
1084.2495 933.03357 1864.0596 7490097
1089.062 927.72412 1853.4521 6897703
1094.3402 922.91345 1843.8411 7095081
1107.3127 924.62274 1847.2561 7226668
1115.8737 922.65088 1843.3165 7227184
1132.6876 927.47504 1852.9546 6634534
1148.3406 931.26508 1860.5265 6107935
1168.2167 938.37518 1874.7314 5778711
1171.6744 932.2876 1862.5693 5516058
1184.0667 933.35632 1864.7043 6239520
1183.5568 924.32892 1846.6692 4792076
1187.2844 918.74609 1835.5155 6371620
1197.3652 918.13623 1834.2971 7885117
1209.0649 918.76758 1835.5583 6898476
1218.8063 917.91278 1833.8506 7490613
1235.3002 922.11346 1842.243 6503462
1241.8242 918.86389 1835.7507 5911326
1265.0538 927.92419 1853.8518 5779997
1264.2849 919.37689 1836.7756 6240548
1280.6926 923.35956 1844.7325 5977376
1277.7982 913.47632 1824.9872 7095857
1293.0284 916.60706 1831.2418 7622201
1298.4377 912.78162 1823.5994 7424821
1307.9469 911.87781 1821.7937 6108962
1309.6582 905.5968 1809.2451 6240805
1334.3662 915.19031 1828.4115 6569770
1343.7726 914.21899 1826.4709 5911585
1349.6097 910.85431 1819.7489 5056019
1371.0103 917.9635 1833.9519 5714208
1375.8844 913.98254 1825.9985 5385243
1388.7123 915.30615 1828.6428 6964274
1382.3358 904.04944 1806.1538 6437929
1393.2736 904.20239 1806.4592 5779998
1406.9828 906.13788 1810.326 7293238
1415.8217 904.93115 1807.9152 6635308
1433.7452 909.50543 1817.054 5845792
1435.6738 903.94067 1805.9364 6306086
1450.3319 906.41376 1810.8773 6700845
1458.7616 904.98657 1808.026 5253656
1467.0828 903.51337 1805.0828 6174758
1481.4086 905.73273 1809.5166 6503979
1488.4912 903.52356 1805.1031 7754046
1483.4363 894.03082 1786.1381 5780257
1501.4152 898.4563 1794.9795 5845793
1505.1854 894.37671 1786.829 6043172
1515.4269 894.17236 1786.4208 5845793
1523.8669 892.91534 1783.9095 4398091
1522.547 885.99622 1770.0862 6240038
1529.348 883.86511 1765.8285 5187607
1525.9648 875.91724 1749.9497 5648158
1541.7468 879.00311 1756.1151 6042915
1556.6354 881.54187 1761.187 5845537
1583.1746 890.60071 1779.2852 5976866
1600.9967 894.6684 1787.4119 5055767
1604.1284 890.5274 1779.1388 6700589
1610.1624 888.04102 1774.1714 7161396
1614.3684 884.58533 1767.2675 5450778
1608.8938 875.90387 1749.9232 5911330
1614.2616 873.19867 1744.5186 5911330
1624.9089 873.36548 1744.8518 6174502
1633.0062 872.16821 1742.4598 5121814
1639.7506 870.26801 1738.6635 5976866
1653.6584 872.16956 1742.4626 6503466
1673.1603 876.97974 1752.0725 6700845
0 0 0 0
0 0 0 0
0 0 0 0
0 0 0 0
0 0 0 0
0 0 0 0
0 0 0 0
0 0 0 0
0 0 0 0
-2112.7092 1213.2828 2395.5959 8937275
-2074.5645 1199.4358 2368.2554 8411187
-2060.9434 1199.6757 2368.7288 8608821
-2056.031 1205.0226 2379.2864 8739636
-2038.8931 1203.2288 2375.7446 8607794
-2031.3433 1207.1075 2383.4031 8476208
-2012.7181 1204.4135 2378.0835 8608050
-1988.1692 1198.1113 2365.6401 9134138
-1973.1057 1197.4763 2364.3865 8607794
-1962.875 1199.7864 2368.9475 8476978
-1945.3229 1197.6223 2364.6746 8740150
-1928.2073 1195.6975 2360.8743 8740150
-1909.6309 1192.8322 2355.2166 8937529
-1890.8192 1189.7764 2349.1831 8937786
-1875.6019 1188.9541 2347.5593 8608567
-1859.8864 1187.8011 2345.283 8740152
-1846.7759 1188.307 2346.2817 8937532
-1802.3335 1168.5072 2307.1875 8937275
-1837.1127 1200.1589 2369.6831 8871482
-1788.0016 1177.0719 2324.0984 8805946
-1769.0334 1173.6241 2317.291 8937275
-1738.4493 1162.3557 2295.0417 8871482
-1746.9344 1177.238 2324.4265 8740152
-1734.4685 1178.126 2326.1797 8937275
-1721.2648 1178.5229 2326.9634 8871482
-1703.9213 1176.0691 2322.1184 8739896
-1699.2424 1182.3877 2334.5942 8740153
-1687.5398 1183.8824 2337.5457 8476724
-1681.1954 1189.1923 2348.0298 8805946
-1670.5986 1191.5575 2352.7 9266496
-1662.1123 1195.4807 2360.446 9003068
-1633.2943 1184.7225 2339.2043 8608566
-1607.134 1175.7246 2321.4382 8410931
-1601.4341 1181.6685 2333.1743 8279345
-1579.7302 1175.8043 2321.5955 8542774
-1556.1958 1168.4625 2307.0994 8871482
-1558.0886 1180.2517 2330.377 8674103
-1517.3696 1159.6847 2289.7678 8608567
-1512.6613 1166.5167 2303.2576 8805946
-1480.3068 1151.9594 2274.5144 9069118
-1467.1566 1152.2164 2275.022 9199934
-1466.8615 1162.6674 2295.657 8936759
-1436.6781 1149.4021 2269.4651 9002808
-1431.3363 1155.9482 2282.3904 9134394
-1426.9155 1163.3702 2297.0449 8937015
-1403.0599 1154.9373 2280.394 8542514
-1387.4246 1153.1727 2276.9099 9464130
-1374.0535 1153.2738 2277.1096 8937785
-1368.0752 1159.6434 2289.6863 8542771
-1350.408 1156.1333 2282.7556 8871993
-1332.3658 1152.2279 2275.0447 8740150
-1333.7047 1165.1748 2300.6079 8871736
-1299.2899 1146.8307 2264.3879 8345394
-1284.8845 1145.9496 2262.6482 9069628
-1269.2004 1143.8973 2258.5962 8477236
-1254.0806 1142.3153 2255.4724 8674360
-1232.6094 1134.8516 2240.7356 7950636
-1215.9099 1131.6666 2234.4468 8871482
-1211.7678 1140.2273 2251.3496 8937532
-1195.4071 1137.3534 2245.6753 9003068
-1182.324 1137.5684 2246.0999 9134654
-1162.3 1131.0341 2233.198 8345394
-1153.2614 1135.1622 2241.3489 8608566
-1137.6238 1132.8156 2236.7153 8345396
-1126.2958 1134.7554 2240.5457 8674615
-1111.7068 1133.4169 2237.9028 8740407
-1098.355 1133.3226 2237.7166 8410159
-1082.7571 1130.8802 2232.894 7489313
-1067.1534 1128.3712 2227.9402 8278575
-1054.0875 1128.5165 2228.2268 8278832
-1048.4351 1136.7028 2244.3906 8278831
-1033.0134 1134.3717 2239.7878 7160605
-1015.7258 1129.9042 2230.967 7686693
-997.65533 1124.4366 2220.1716 8476208
-987.34454 1127.6858 2226.5867 8081707
-956.7019 1107.4862 2186.7034 7423776
-953.49005 1118.9224 2209.2837 8278573
-940.06256 1118.5219 2208.4929 8212780
-924.4621 1115.488 2202.5027 8015400
-906.49536 1109.4713 2190.6228 8081452
-895.02301 1111.3438 2194.3198 8146989
-878.51282 1106.9237 2185.5925 8541748
-867.1405 1108.942 2189.5776 8739127
-852.05688 1106.2034 2184.1702 7884074
-836.92871 1103.3214 2178.48 8607797
-824.49353 1103.955 2179.731 8805433
-807.45587 1098.3481 2168.6604 8410675
-793.66266 1097.0447 2166.0867 7819051
-781.16229 1097.5146 2167.0146 7818795
-766.86823 1095.4382 2162.9148 8147760
-753.98944 1095.3473 2162.7351 8345141
-740.39655 1094.1976 2160.4653 8674106
-725.96661 1091.7489 2155.6304 9134656
-714.62549 1093.9409 2159.9583 8411189
-693.96088 1081.6801 2135.7498 7884590
-688.1344 1092.5217 2157.1562 8477238
-674.80554 1091.637 2155.4094 8280115
-664.54218 1095.7731 2163.5759 8345908
-645.03809 1084.5349 2141.3865 7885357
-628.41956 1077.7947 2128.0779 8411701
-612.93011 1072.7545 2118.1265 8477494
-598.46722 1069.3379 2111.3804 7556393
-585.6275 1068.7375 2110.1951 8016686
-575.22076 1072.6481 2117.9163 7687211
-566.22906 1079.4304 2131.3079 7950639
-548.82397 1070.1177 2112.9199 8410934
-538.49304 1074.4854 2121.5439 8345141
-525.46808 1073.5579 2119.7126 7753004
-510.05954 1067.5959 2107.9409 7095073
-497.38449 1067.1997 2107.1587 7424038
-484.69016 1066.7408 2106.2524 7950383
-471.24191 1064.5543 2101.9353 7423783
-456.55457 1059.3739 2091.7068 7160866
-444.30646 1059.7225 2092.395 8410420
-429.36685 1053.4872 2080.0835 7753002
-417.38583 1054.3569 2081.8008 7950637
-402.52576 1047.7853 2068.8254 9200705
-389.80981 1046.5576 2066.4011 7424037
-377.18655 1045.507 2064.3269 7687466
-368.52322 1055.7302 2084.5125 7555879
-355.41614 1053.4908 2080.0908 7752232
-342.57983 1051.922 2076.9932 7620646
-328.17468 1045.2395 2063.7986 8673591
-316.50989 1047.1053 2067.4829 8344882
-305.21255 1050.3864 2073.9609 8016430
-292.3259 1048.2434 2069.7297 8081971
-279.3392 1045.5383 2064.3887 8871485
-267.43185 1046.8104 2066.9004 8213299
-253.94743 1041.7352 2056.8796 7621419
-240.84605 1037.7988 2049.1072 9003071
-226.24422 1026.6356 2027.0659 8805435
-214.76854 1029.2019 2032.1329 8345142
-201.44864 1022.7103 2019.3152 7819311
-190.75278 1029.5615 2032.843 8477241
-178.56799 1028.7587 2031.2577 7885103
-166.77365 1030.2516 2034.2054 7227174
-154.61357 1029.5419 2032.8041 7227174
-142.66248 1030.2212 2034.1454 8608827
-130.4619 1029.0583 2031.8492 7950641
-118.31591 1028.1331 2030.0225 6700316
-106.7183 1032.303 2038.256 8081971
-93.81237 1023.2667 2020.4139 8345400
-81.315262 1016.6982 2007.4447 8016691
-70.064011 1026.1251 2026.0579 8411192
-57.663265 1019.1343 2012.2546 8411449
-45.87175 1022.0732 2018.0576 7818800
-33.937351 1022.7786 2019.4502 8345144
-21.949697 1021.7729 2017.4646 7687470
-10.016943 1023.9743 2021.811 8279094
1.9577706 1021.1947 2016.323 7555627
13.982028 1026.8301 2027.4497 5648145
25.763504 1017.6668 2009.3572 8279608
37.640316 1016.8717 2007.7871 6963748
49.464413 1015.3763 2004.8345 7358505
61.576199 1019.2219 2012.4277 7292199
73.552498 1019.9412 2013.8477 9134403
84.969696 1013.7886 2001.6998 7950899
96.898544 1014.5002 2003.1049 7161126
109.00995 1016.7594 2007.5654 7950129
121.31182 1020.1757 2014.3108 6700062
132.79118 1016.6826 2007.4137 7029540
144.69841 1016.7704 2007.5872 8214070
156.0748 1013.3981 2000.9287 6964005
167.10825 1008.4324 1991.1241 7951157
179.98798 1014.5286 2003.1608 8477244
192.4258 1017.5336 2009.0942 9069381
203.16795 1011.7444 1997.6636 8345659
215.89867 1015.9502 2005.9678 6766370
227.91603 1016.5353 2007.123 8081974
239.91809 1016.9976 2008.0358 7292971
251.71846 1016.6016 2007.2539 7226921
261.50323 1008.4683 1991.1951 9200967
269.65213 995.00104 1964.6041 7555888
281.91336 997.1947 1968.9354 8213816
295.63269 1004.1668 1982.7017 7489839
307.20898 1003.6048 1981.592 6305565
315.89139 993.97845 1962.585 7029287
326.56006 991.0636 1956.8297 7687216
337.63947 989.55255 1953.8462 6568478
348.86118 988.54486 1951.8566 7884851
359.6243 986.34399 1947.511 8016437
378.16336 1004.9442 1984.2366 7424557
386.66519 996.55359 1967.6696 7358507
396.42773 991.80835 1958.3003 8147767
408.25262 992.34589 1959.3617 7292205
420.55002 993.97058 1962.5695 6831138
431.73364 992.94623 1960.547 6305311
441.22064 988.1756 1951.1276 6568479
451.54318 985.47235 1945.79 7160618
456.15714 970.755 1916.7311 6436638
466.15625 967.93469 1911.1624 6766116
485.59805 984.39001 1943.653 7621682
493.41824 977.06976 1929.1992 7292974
508.04453 983.2533 1941.4084 8279869
519.54517 983.24756 1941.3972 7752755
526.89941 975.56512 1926.2285 8148025
544.30719 986.42798 1947.6769 7292716
551.07935 977.96539 1930.9677 7687475
559.82007 973.26959 1921.6959 7884855
567.61218 967.14459 1909.6023 6634275
582.3418 972.84875 1920.865 8213306
597.09796 978.37756 1931.7816 5976088
615.59064 989.70593 1954.1492 7160362
618.29248 975.69708 1926.489 6502432
625.57153 969.28833 1913.8351 6305309
635.10492 966.53857 1908.4056 7357482
648.67432 969.91974 1915.0818 5383694
659.9646 969.83545 1914.9154 6831139
668.09088 965.18311 1905.7294 6699811
678.12506 963.39587 1902.2006 7489584
688.08429 961.56232 1898.5802 7226668
698.98303 961.07959 1897.6271 7226669
705.79071 955.07605 1885.7732 7226668
714.67828 952.03027 1879.7595 7358254
729.72107 957.15161 1889.8715 7095339
740.8136 957.01501 1889.6018 7292461
753.03735 958.32214 1892.1826 7489840
766.38953 961.00586 1897.4816 7029293
775.72003 958.64203 1892.8142 6831656
778.612 948.50208 1872.7931 6568486
786.01813 944.06897 1864.04 6897451
795.54828 942.27448 1860.4969 5318418
809.41016 945.58954 1867.0425 5845021
821.65436 946.95093 1869.7305 6963242
832.5144 946.70215 1869.2391 6239775
845.50647 948.85236 1873.4847 7621429
851.82526 943.55499 1863.0253 7029292
863.7005 944.4693 1864.8304 6108192
871.27264 940.71436 1857.4164 6502690
877.12097 935.21521 1846.5586 6502691
887.09558 934.19684 1844.5479 5910554
899.4856 935.716 1847.5474 7160877
902.14368 927.19647 1830.7257 7555634
912.33862 926.53345 1829.4166 6174237
935.80151 939.20227 1854.4308 6502432
941.11304 933.57092 1843.3119 5121553
957.70319 939.12872 1854.2858 7094569
974.73682 944.99048 1865.8595 7094569
985.08783 944.3147 1864.5253 7094569
998.77374 946.81537 1869.4628 6700068
1007.0729 944.21063 1864.3197 6568225
1014.1048 940.48712 1856.9678 7555377
1019.5706 935.40674 1846.9368 5778710
1022.4425 928.07983 1832.4698 6765861
1039.8798 933.98895 1844.1373 5647125
1053.3636 936.26129 1848.6241 5778971
1059.937 932.40796 1841.0157 6897705
1062.6483 925.27032 1826.9226 6305823
1070.4366 922.65259 1821.754 6897448
1084.1667 925.15759 1826.7 7292208
1098.6992 928.29089 1832.8867 6436898
1101.1768 921.27734 1819.0386 7226670
1121.1792 928.91968 1834.1281 6832426
1125.6744 923.69037 1823.8031 7424563
1149.6494 934.39307 1844.9352 8082493
1148.6234 924.76556 1825.926 6634793
1168.9926 932.38239 1840.9652 5778969
1165.1327 920.71216 1817.9226 7489845
1179.1709 923.26959 1822.9722 6042142
1189.1414 922.62457 1821.6986 6174499
1200.1942 922.82336 1822.0911 7819065
1207.0713 919.83649 1816.1936 7819578
1220.6211 921.94238 1820.3518 5779994
1231.5776 922.06982 1820.6033 7490614
1240.7069 920.83887 1818.1729 4332554
1235.8517 909.33936 1795.4673 6372391
1258.2412 917.91162 1812.3932 6437927
1258.0022 909.9707 1796.7139 7161392
1272.8625 912.99335 1802.6821 8148285
1278.9388 909.71753 1796.2141 6898477
1290.2487 910.18781 1797.1426 7424822
1302.5153 911.3197 1799.3774 6635306
1320.8389 916.63666 1809.8757 6174498
1326.7476 913.32159 1803.3302 7293238
1344.0183 917.81866 1812.2096 5977379
1354.1978 917.44031 1811.4624 5648156
1365.936 918.11554 1812.7957 5582620
1377.514 918.67334 1813.8971 5845792
1365.5649 903.65375 1784.2412 8082754
1380.468 906.49756 1789.8562 6766636
1391.007 906.45404 1789.7704 6372133
1400.3164 905.61609 1788.1158 5845791
1415.0142 908.24933 1793.3151 7688251
1418.2266 903.52618 1783.9894 7161651
1425.7202 901.58032 1780.1472 5056276
1447.7787 908.8056 1794.4135 6240550
1460.9644 910.39655 1797.5547 5911074
1464.3673 905.91254 1788.7012 5911329
1460.6648 897.12878 1771.3578 6569772
1476.3209 900.27545 1777.5709 6766894
1484.5249 898.86536 1774.7867 5056533
1480.6268 890.19897 1757.6752 6964787
1489.899 889.51666 1756.328 6043172
1504.1226 891.77954 1760.7959 7359288
1517.6008 893.57239 1764.3358 5977636
1517.6604 887.49371 1752.3336 6898225
1518.6271 882.02454 1741.5349 5713951
1534.6437 885.31122 1748.0243 6503467
1553.7061 890.29907 1757.8728 6569003
1559.9723 887.93695 1753.209 6832687
1588.364 898.1167 1773.3085 6635052
1596.3093 896.67731 1770.4666 6503465
1589.0757 886.78625 1750.9368 6042915
1597.3937 885.64581 1748.6851 6174501
1609.834 886.79089 1750.9459 6700589
1605.4238 878.69843 1734.9677 6371881
1614.1816 877.87036 1733.3326 5911329
1624.1433 877.70337 1733.0029 7293239
1622.4467 871.27771 1720.3157 6174502
1638.2147 874.25262 1726.1895 5977124
1660.5468 880.67188 1738.8641 5713694
0 0 0 0
0 0 0 0
0 0 0 0
0 0 0 0
0 0 0 0
0 0 0 0
0 0 0 0
0 0 0 0
0 0 0 0
0 0 0 0
-2039.7764 1193.1202 2328.5425 8542773
-2025.5691 1192.8789 2328.0715 8674870
-2016.3851 1195.6128 2333.4072 8673587
-2005.7031 1197.4901 2337.071 8607794
-2006.3717 1206.2175 2354.1038 8608051
-1976.6237 1196.6528 2335.4368 8739637
-1957.576 1193.4769 2329.2385 8608308
-1948.9056 1196.6276 2335.3875 8674356
-1934.2281 1196.1083 2334.3743 8937530
-1922.3053 1197.2975 2336.6951 7950636
-1904.3525 1194.7211 2331.6667 8279345
-1874.1997 1184.3971 2311.5181 8543028
-1865.311 1187.4578 2317.4915 8608821
-1847.0443 1184.5497 2311.8159 8805689
-1831.1819 1183.1514 2309.0869 9332289
-1808.6212 1177.3718 2297.8074 9266240
-1789.053 1173.4673 2290.187 8476724
-1752.5195 1158.2903 2260.5669 8674360
-1746.171 1162.9832 2269.7258 8279602
-1739.6351 1167.6233 2278.7815 8345394
-1728.9681 1169.5414 2282.5251 8542773
-1715.2738 1169.4259 2282.2996 8674103
-1700.1083 1168.2975 2280.0974 8411187
-1697.551 1175.8849 2294.9053 9660998
-1676.98 1171.0156 2285.4023 8476724
-1674.0154 1178.4619 2299.9348 8805689
-1659.1771 1177.6029 2298.2583 9069118
-1639.0126 1172.9181 2289.1152 8805689
-1616.0131 1166.1094 2275.8271 8411187
-1615.0486 1175.2203 2293.6084 8082223
-1597.3394 1172.198 2287.7097 8608567
-1577.7388 1167.7238 2278.9778 8871482
-1566.632 1169.5133 2282.4702 8674103
-1550.2806 1167.3846 2278.3159 8016173
-1534.7074 1165.8097 2275.2422 9003325
-1517.0736 1162.6278 2269.0322 8608567
-1493.0443 1154.4438 2253.0601 8674359
-1465.8081 1143.6101 2231.9165 8937531
-1458.9216 1148.6003 2241.6558 8740152
-1448.1014 1150.557 2245.4744 9199934
-1426.6523 1144.0265 2232.7292 9002298
-1419.7739 1149.1672 2242.7622 9199677
-1406.9165 1149.5203 2243.4509 8805176
-1399.7936 1154.6099 2253.384 8871225
-1385.4139 1153.7542 2251.7141 8871736
-1373.2511 1154.746 2253.6497 8411185
-1361.6237 1156.2119 2256.5107 8345394
-1334.745 1144.6279 2233.9031 7884842
-1322.0326 1145.0822 2234.7896 9266751
-1316.5714 1151.8898 2248.0754 8674357
-1297.2542 1146.5897 2237.7317 8674613
-1278.496 1141.6793 2228.1484 8345648
-1267.3458 1143.5314 2231.7629 8345392
-1257.8198 1146.9033 2238.3438 8476981
-1239.9558 1142.6636 2230.0691 8608310
-1220.8838 1137.2069 2219.4199 8345138
-1211.2997 1140.5656 2225.9746 8740152
-1201.1613 1143.4703 2231.6438 8674359
-1176.6698 1132.6241 2210.4758 8345138
-1163.9585 1133.0004 2211.2102 8542774
-1144.2424 1126.4893 2198.5029 8805943
-1135.8386 1131.0933 2207.488 8937528
-1126.6229 1134.9865 2215.0862 8345135
-1115.3842 1136.9094 2218.8391 8476465
-1095.6576 1130.1233 2205.5952 8147501
-1094.6343 1142.698 2230.1365 8148013
-1070.0076 1130.6392 2206.6018 7753001
-1045.4557 1118.3618 2182.6409 8542003
-1032.1028 1117.9071 2181.7534 7818279
-1022.5453 1121.6039 2188.9683 7686693
-1002.722 1113.9906 2174.1099 8805430
-996.85297 1121.8837 2189.5144 8081450
-981.41315 1119.0717 2184.0264 8081706
-967.19031 1117.5908 2181.1362 7752741
-952.42999 1115.4403 2176.9392 7489315
-940.45233 1116.5345 2179.0747 7818024
-928.9502 1118.2314 2182.3865 8081196
-914.2287 1116.0464 2178.1221 7752488
-894.92676 1108.1271 2162.6663 8542003
-885.90533 1112.8922 2171.9661 8607797
-874.23322 1114.4188 2174.9456 8147246
-864.71448 1118.7773 2183.4519 8410162
-842.44983 1106.5269 2159.5432 8608055
-829.60956 1106.468 2159.4285 8279859
-812.1521 1100.1528 2147.1035 8674361
-795.27887 1094.4408 2135.9556 8082480
-782.53076 1094.3124 2135.7051 7884844
-765.24664 1087.7323 2122.8633 7687209
-755.11969 1091.2758 2129.7786 7819052
-743.77679 1093.1525 2133.4414 8476725
-727.96014 1088.4052 2124.1763 8476982
-720.75543 1096.5934 2140.1567 8937276
-699.84668 1083.8516 2115.2893 10582357
-688.61365 1085.903 2119.293 8279348
-677.72601 1088.5854 2124.5281 7161122
-662.25531 1083.8688 2115.3228 7884588
-649.31415 1083.1897 2113.9976 8410932
-634.38348 1079.0997 2106.0154 8345395
-622.96875 1080.9464 2109.6194 7951407
-606.75433 1074.37 2096.7847 8543288
-595.52435 1076.5289 2100.998 8411702
-582.57385 1075.6034 2099.1919 8214323
-568.05865 1071.6857 2091.5459 7753259
-557.56207 1075.3438 2098.6851 8148017
-546.91779 1078.8771 2105.5811 9003325
-528.90485 1067.7006 2083.7683 8016430
-519.1225 1073.002 2094.1147 8476726
-506.67465 1072.9187 2093.9521 8148017
-491.05927 1065.9552 2080.3621 7753003
-477.76193 1063.7946 2076.1453 7555626
-466.56241 1066.3142 2081.0627 8213556
-450.95883 1058.6322 2066.0701 7753002
-437.08124 1054.6862 2058.3689 8542518
-426.06937 1057.6272 2064.1086 8608568
-412.5603 1054.36 2057.7324 8213809
-401.56311 1057.5089 2063.8779 8345395
-388.44281 1055.0887 2059.1545 8213555
-376.39481 1055.5187 2059.9937 7818797
-365.12592 1058.2355 2065.2959 7687212
-350.33679 1050.5845 2050.3638 7555625
-338.46106 1051.434 2052.0217 7884589
-325.23727 1048.0031 2045.3259 8213554
-314.0889 1051.2531 2051.6687 8279347
-301.47147 1049.6498 2048.5398 8345140
-289.76752 1051.2261 2051.616 8608570
-276.66843 1047.6573 2044.651 8279349
-258.87326 1025.1648 2000.7538 7884591
-250.97893 1041.6031 2032.8357 7753261
-237.82137 1036.7549 2023.3733 8213556
-226.54845 1040.0436 2029.7917 8016177
-211.88318 1027.2543 2004.8317 8081713
-199.93918 1026.9227 2004.1846 8543034
-188.09781 1027.1096 2004.5493 8016433
-177.01401 1031.7372 2013.5807 7621931
-164.55257 1028.4238 2007.1141 8411448
-152.23441 1025.5592 2001.5236 8213812
-140.3712 1025.5347 2001.4755 7884847
-128.28635 1023.7366 1997.9666 7226661
-116.60992 1025.1637 2000.7517 7753005
-104.81712 1025.775 2001.9446 8476727
-92.877808 1024.9254 2000.2866 8147506
-80.741394 1021.334 1993.2775 6766109
-69.084343 1023.6147 1997.7285 9398086
-57.175438 1022.3351 1995.2312 7490604
-45.372349 1022.7736 1996.087 8477243
-33.662941 1026.3779 2003.1213 8148277
-21.652596 1019.7351 1990.1571 9595723
-9.9077711 1024.6638 1999.7759 8608573
1.9385933 1023.0222 1996.5721 7621934
13.826158 1027.2626 2004.8479 6831904
25.577705 1022.1481 1994.8663 7687214
37.308697 1019.705 1990.0981 6831905
48.963722 1016.8575 1984.541 6305821
60.675274 1016.0596 1982.9838 7818800
72.279297 1014.012 1978.9877 7292456
83.600899 1009.1271 1969.454 6897698
94.873077 1004.9153 1961.234 7819054
106.94584 1009.1774 1969.552 7950897
119.09452 1013.2466 1977.4939 8740415
130.38271 1009.9218 1971.0048 7753263
142.23155 1011.1292 1973.3612 7819312
154.24466 1013.2322 1977.4657 6700836
165.75722 1011.9823 1975.0264 8542524
177.17879 1010.3785 1971.8962 6963493
191.51302 1024.5552 1999.5641 7029285
202.19475 1018.6783 1988.0944 7161899
213.52066 1016.5153 1983.873 8017207
225.41547 1017.145 1985.1021 7950644
234.35638 1005.0445 1961.4861 7424300
245.79248 1004.2825 1959.999 7161128
257.67404 1005.3271 1962.0378 7160871
268.83469 1003.5905 1958.6484 6700577
281.59106 1007.7081 1966.6844 7095592
289.67691 995.44861 1942.7583 8214073
298.23117 985.67426 1923.6824 8346429
312.52661 994.89594 1941.6799 6963749
322.63553 990.60883 1933.313 6172438
333.01422 987.41559 1927.0808 7554601
345.23032 989.70148 1931.5421 7225638
356.63455 989.58789 1931.3204 6963493
369.20724 992.6228 1937.2435 8082230
381.16013 993.85852 1939.6552 7292971
388.87823 984.3031 1921.0065 5976602
402.16193 988.97797 1930.13 7819058
415.32904 993.11536 1938.2048 8740161
421.14764 979.93152 1912.4747 7424043
438.32944 993.18591 1938.3425 6700320
444.42984 981.29578 1915.1372 7818801
456.27112 982.35791 1917.2101 6239770
465.89835 978.71735 1910.1051 7160616
473.72293 971.55243 1896.1217 8344889
487.93488 977.51581 1907.7601 7424043
495.41995 970.03784 1893.1658 7885111
507.33099 971.36517 1895.7562 7687988
519.06812 972.30933 1897.5989 8081976
531.26398 974.05438 1901.0046 8279099
543.26917 975.38489 1903.6012 8015928
556.1778 978.25012 1909.1931 8148026
565.58301 974.96185 1902.7756 7358511
576.20947 973.86621 1900.6375 7424817
588.32263 975.2771 1903.391 7425329
598.78333 973.94727 1900.7954 6898215
607.01953 969.11487 1891.3645 8411197
618.96747 970.27625 1893.6311 8213563
627.95013 966.83063 1886.9065 8015670
638.92139 966.51379 1886.2882 6634274
654.24017 972.67151 1898.3058 7489584
665.6001 972.83472 1898.6244 7094825
673.80188 968.45337 1890.0735 7094570
679.32062 960.42212 1874.3993 6305311
689.49573 959.12634 1871.8705 8279358
709.1712 970.87799 1894.8054 8345666
707.59454 953.62189 1861.1277 5648664
718.70557 953.73218 1861.3429 7754039
725.15961 947.75269 1849.6731 6964523
737.62933 949.69623 1853.4663 7425076
752.60565 954.76282 1863.3544 6569511
767.29486 959.32397 1872.2561 6569512
771.76788 951.16406 1856.3309 5845275
777.30621 944.52802 1843.3798 6305568
792.77612 949.97687 1854.0139 7884344
803.62988 949.82086 1853.7095 6766121
809.8797 944.3009 1842.9365 6239521
820.79803 944.29883 1842.9325 6831658
825.43091 937.16058 1829.0011 6370849
844.04742 945.87799 1846.0144 5384211
853.49158 944.22498 1842.7883 7489586
860.26343 939.69452 1833.9465 6108187
866.48895 934.68805 1824.1755 6897705
880.71771 938.33142 1831.2861 7160621
890.32202 937.01929 1828.7253 6107936
904.70032 940.70258 1835.9138 6305569
915.30762 940.42383 1835.3699 6173725
922.05432 936.23187 1827.1886 6107933
935.94116 939.3028 1833.182 6239519
943.40588 935.93207 1826.6036 6831656
958.58673 940.20605 1834.9448 6963242
966.38818 937.22736 1829.1315 6963242
979.14703 939.06934 1832.7263 6963239
985.40051 934.70013 1824.1992 6897447
998.0564 936.43286 1827.5809 7490096
1004.7239 932.57019 1820.0422 7753269
1015.7805 932.81995 1820.5298 7753269
1040.2277 945.23236 1844.7544 4989965
1036.8685 932.38239 1819.6758 7358511
1045.4338 930.40936 1815.8251 6568740
1057.8859 931.90021 1818.7349 6765864
1069.5842 932.70392 1820.3033 5844761
1072.9418 926.29083 1807.7872 6173983
1073.0712 917.24506 1790.1331 5779226
1084.9395 918.31238 1792.2162 8543043
1099.7278 921.80664 1799.0358 6372387
1113.2365 924.17157 1803.6512 7556145
1117.8805 919.20227 1793.953 7358257
1131.9332 921.99023 1799.3942 4923661
1137.4509 917.83905 1791.2925 6897708
1149.7017 919.14752 1793.8462 5318676
1165.1967 923.00183 1801.3684 7160879
1174.7264 922.10376 1799.6157 6173728
1188.8347 924.78351 1804.8456 7029292
1200.9261 925.8606 1806.9475 7424306
1213.7319 927.46442 1810.0778 6766889
1206.5105 913.87054 1783.5474 6306338
1218.2501 914.75006 1785.2639 6766890
1221.0918 908.99084 1774.0239 6964271
1227.8315 906.20685 1768.5906 6437927
1244.3958 910.65961 1777.2808 6832684
1256.4456 911.76172 1779.4316 7095857
1265.6531 910.80005 1777.5548 7490358
1283.8958 916.30255 1788.2937 7819324
1297.1951 918.21588 1792.0278 5977376
1301.5848 913.84265 1783.4929 6306081
1314.2109 915.27606 1786.2904 6832683
1326.876 916.7135 1789.0958 7162157
1333.6028 914.05792 1783.9131 5451036
1342.3481 912.81689 1781.4911 6569514
1356.8486 915.47827 1786.6851 4661263
1362.4056 912.11084 1780.1132 6437674
1357.5575 901.88269 1760.1514 6964271
1371.866 904.43988 1765.1421 5714203
1390.7858 909.97571 1775.9459 7161393
1400.092 909.18536 1774.4036 6635308
1411.4049 909.70026 1775.4084 5516828
1422.699 910.1955 1776.3749 6372136
1435.8021 911.83228 1779.5695 6108964
1431.759 902.63568 1761.6208 5911330
1446.2771 905.18909 1766.6041 6109478
1453.7389 903.32117 1762.9587 5977380
1451.8771 895.72778 1748.1392 7293240
1466.3574 898.25275 1753.0669 6240295
1478.6002 899.38116 1755.2693 6437674
1496.5787 903.95831 1764.2023 5714207
1494.1996 896.26099 1749.1797 6043172
1496.2229 891.29205 1739.4822 5450524
1514.3469 895.91663 1748.5078 5450267
1518.9844 892.55371 1741.9446 5450522
1524.9889 890.03412 1737.0271 5647901
1531.2985 887.72504 1732.5208 5845281
1542.5676 888.3028 1733.6483 5648158
1557.8514 891.16949 1739.2429 6701103
1565.6913 889.76813 1736.5081 5845537
1582.5729 893.48993 1743.7716 6240038
1574.4628 883.14508 1723.5823 6306087
1584.0967 882.82245 1722.9525 6107682
1594.1504 882.73633 1722.7845 5844767
1595.4087 877.81195 1713.174 5318679
1608.5873 879.4671 1716.4042 4200969
1626.3428 883.58801 1724.4468 6175015
1627.0439 878.44995 1714.4191 8017989
1630.7822 875.005 1707.6957 5714464
0 0 0 0
0 0 0 0
0 0 0 0
0 0 0 0
0 0 0 0
0 0 0 0
0 0 0 0
0 0 0 0
0 0 0 0
0 0 0 0
-2060.1768 1218.9884 2351.8308 8937786
-2006.8978 1195.5508 2306.6118 8476978
-1984.5807 1190.3628 2296.6025 8411441
-1987.73 1200.4835 2316.1287 8543028
-1967.2002 1196.3446 2308.1433 8477234
-1950.2227 1194.3231 2304.2432 8214062
-1947.1989 1200.8787 2316.8911 7753255
-1919.394 1192.1359 2300.0234 8542773
-1905.2314 1191.8019 2299.3789 8477236
-1887.0476 1188.9293 2293.8369 9332803
-1871.8323 1187.8992 2291.8494 9464389
-1856.7638 1186.9478 2290.0137 8477494
-1844.2269 1187.6125 2291.2964 8608567
-1822.8928 1182.58 2281.5869 8740153
-1815.1014 1186.3237 2288.8098 8871739
-1788.7417 1177.8964 2272.5508 8740153
-1749.1755 1160.5789 2239.1394 8279345
-1733.6614 1159.077 2236.2419 8542774
-1722.7518 1160.6543 2239.2849 8608567
-1721.937 1169.1097 2255.5984 8608310
-1699.2468 1162.7291 2243.2881 8476724
-1699.1321 1171.8171 2260.8218 9134654
-1670.222 1161.033 2240.0156 8345394
-1664.5209 1166.3386 2250.252 8082223
-1657.9069 1171.0851 2259.4094 8608310
-1653.8264 1177.7131 2272.197 8674103
-1638.2833 1176.2202 2269.3167 8871482
-1619.3354 1172.2378 2261.6333 8148015
-1588.5366 1159.5385 2237.1323 8937531
-1582.0839 1164.5463 2246.7937 8674359
-1568.3821 1164.2576 2246.2371 8674103
-1549.2314 1159.8848 2237.8003 8476724
-1538.3074 1161.6486 2241.2034 8542517
-1533.3137 1167.9606 2253.3811 8213809
-1507.2384 1158.184 2234.5188 8608310
-1493.5112 1157.8065 2233.7908 8674359
-1477.5063 1155.6409 2229.6125 8674103
-1458.7836 1151.2913 2221.2207 9068861
-1443.1155 1149.2952 2217.3694 9069118
-1430.2738 1149.5339 2217.8301 9133884
-1417.4224 1149.7693 2218.2842 9002298
-1404.3575 1149.8342 2218.4094 9068091
-1390.8163 1149.5067 2217.7776 8542004
-1388.7981 1158.7876 2235.6836 8805432
-1364.3658 1149.3652 2217.5046 8476978
-1354.7987 1152.4039 2223.3674 8279599
-1340.7827 1151.681 2221.9727 8345648
-1325.0721 1149.4736 2217.7139 8279856
-1320.5366 1157.0133 2232.2605 8476978
-1314.4847 1163.3638 2244.5125 8608820
-1289.0144 1152.4821 2223.5181 8476978
-1277.8544 1154.3025 2227.0303 8148269
-1261.2356 1151.1785 2221.0029 8740150
-1243.3988 1146.865 2212.6809 8871739
-1234.0348 1150.3579 2219.4199 8740152
-1216.7452 1146.4585 2211.8967 9003324
-1200.3407 1143.317 2205.8357 8213552
-1183.8676 1140.0403 2199.5137 7950637
-1162.9697 1132.3823 2184.739 8411188
-1152.0597 1134.3865 2188.6057 8016428
-1136.6664 1131.9716 2183.9465 8674358
-1116.4189 1124.6112 2169.7461 7884585
-1109.131 1130.2861 2180.6948 8542772
-1107.578 1142.0081 2203.3103 8673843
-1083.6997 1130.7158 2181.5237 8147499
-1070.7283 1130.6682 2181.4319 8476464
-1059.1658 1132.1255 2184.2434 8147500
-1041.5459 1127.0641 2174.4783 7423523
-1029.6926 1128.1941 2176.6587 7423520
-1014.2117 1125.3278 2171.1284 7752741
-995.10602 1118.3142 2157.5969 7950121
-988.48218 1125.3278 2171.1284 7160605
-974.47278 1124.0076 2168.5813 7752487
-960.53992 1122.7415 2166.1387 8410418
-946.3454 1121.1312 2163.032 8542002
-932.91376 1120.3929 2161.6074 7489571
-915.3028 1114.5449 2150.3247 8476211
-889.6698 1098.6256 2119.6111 9857864
-884.8642 1108.3378 2138.3491 7555365
-865.08051 1099.2987 2120.9099 8147246
-850.00708 1096.0671 2114.675 8476211
-847.29791 1108.9208 2139.4739 8344369
-831.84119 1105.2279 2132.3491 8344369
-818.64514 1104.4708 2130.8887 8081454
-808.3479 1107.6626 2137.0464 8674360
-788.36188 1097.468 2117.3779 8411189
-776.90057 1099.0029 2120.3391 8016431
-761.76276 1095.302 2113.1987 8082223
-747.21283 1092.3367 2107.4778 7950638
-731.72034 1087.8693 2098.8586 9068862
-721.8833 1091.8009 2106.4441 8740154
-714.52216 1099.6814 2121.6482 7621673
-695.87817 1090.1683 2103.2944 8871740
-685.39008 1093.3185 2109.3721 7424039
-669.32922 1087.5309 2098.2058 8345139
-655.39758 1085.0494 2093.4182 8279602
-643.80505 1086.4193 2096.0613 8016430
-626.08875 1077.306 2078.4788 8082224
-613.80756 1077.3668 2078.5959 9003069
-600.45923 1075.5187 2075.0303 7489830
-592.22968 1082.9535 2089.3745 8214066
-576.56567 1076.8209 2077.5427 8082480
-563.40771 1075.2031 2074.4214 7950638
-553.27844 1079.4221 2082.5613 8016431
-536.80463 1071.1732 2066.6465 8542518
-524.59564 1071.2483 2066.7913 8016174
-507.36932 1060.8363 2046.7031 8542774
-497.6781 1066.0551 2056.7717 8016175
-485.16409 1065.3374 2055.3872 8410934
-474.64841 1069.0837 2062.6152 8476727
-461.20471 1066.2589 2057.165 7621419
-447.1713 1061.8804 2048.7175 8148016
-434.37878 1060.2863 2045.642 8542520
-421.83099 1059.2152 2043.5757 8608057
-409.14407 1057.7213 2040.6932 8937020
-397.03043 1057.6633 2040.5815 8608310
-384.4097 1056.2086 2037.7748 8081967
-371.90845 1054.9985 2035.4401 8411188
-357.21573 1047.2822 2020.5529 8015920
-347.34412 1053.6555 2032.8489 8871483
-336.18948 1056.4547 2038.2498 7818795
-323.26172 1053.6831 2032.9023 7621418
-309.22931 1046.9569 2019.9252 7752749
-296.40643 1043.9491 2014.1222 7687212
-284.87637 1045.4332 2016.9855 6963488
-272.42264 1043.5093 2013.2737 8016176
-259.07312 1037.8207 2002.2983 8213556
-246.6347 1035.4109 1997.6492 8410934
-235.44705 1038.2738 2003.1727 8279349
-222.30547 1032.3668 1991.7761 8015920
-210.50436 1032.3715 1991.7853 7818541
-198.20061 1029.7654 1986.7571 8213299
-187.08955 1033.4181 1993.8043 7424552
-175.23299 1033.1676 1993.3212 8148019
-163.28238 1032.2864 1991.6211 7687468
-150.83405 1027.8762 1983.1123 8279348
-139.71443 1032.5404 1992.111 8213299
-127.95067 1032.8656 1992.7385 8147506
-115.80347 1029.8472 1986.9149 7621162
-104.12648 1030.8003 1988.7537 7226660
-92.011177 1027.1039 1981.6221 6371352
-79.568016 1018.1309 1964.3102 8739644
-68.105042 1020.7739 1969.4097 7029795
-56.357235 1019.3584 1966.6786 8345400
-44.618855 1017.4198 1962.9384 7490091
-33.174923 1023.1955 1974.0815 7687726
-21.445724 1021.6723 1971.1428 7753520
-9.8053627 1025.7996 1979.1058 7556140
1.902987 1015.8455 1959.901 8542779
13.648563 1025.7946 1979.0961 8542779
25.434742 1028.1893 1983.7163 8542779
36.834415 1018.3842 1964.7992 8016435
48.523026 1019.3587 1966.6792 8345400
60.439083 1023.8086 1975.2645 7226919
71.721092 1017.8167 1963.7041 7161895
82.875877 1011.9442 1952.374 7556654
93.924614 1006.3739 1941.6273 7292968
105.90965 1010.9569 1950.4694 7226922
117.7747 1013.6052 1955.5789 7753522
129.56877 1015.2232 1958.7006 7950644
141.2002 1015.4054 1959.052 7029799
152.52351 1013.5126 1955.4001 7490349
163.70985 1011.0411 1950.6317 7753008
176.0197 1015.3765 1958.9962 6963750
187.9832 1017.3013 1962.7097 7950644
199.31357 1015.775 1959.7651 8148283
210.80498 1015.1924 1958.641 8016437
223.61646 1020.696 1969.2593 7753009
233.1629 1011.4897 1951.4972 5121041
243.33437 1005.7365 1940.3975 7818548
254.94209 1006.171 1941.2357 7292203
266.28976 1005.5859 1940.1069 7424303
278.13858 1006.8635 1942.5718 7226925
288.36493 1002.3994 1933.9592 5516313
296.26929 990.51367 1911.0276 5715230
307.51151 990.25153 1910.5219 8674111
318.81476 990.19763 1910.4178 7949361
331.78394 995.14417 1919.9613 6831906
342.1926 992.3374 1914.5461 6963236
354.0108 993.66718 1917.1117 8345145
364.91254 992.42181 1914.709 6766114
376.04889 991.8703 1913.645 8345145
386.5762 989.79175 1909.6349 6831907
398.85083 992.17804 1914.2386 7621422
409.71463 991.01978 1912.0042 8279353
420.08585 988.76453 1907.653 8016180
