# .PCD v0.7 - Point Cloud Data file format
VERSION 0.7
FIELDS x y z rgb
SIZE 4 4 4 4
TYPE F F F U
COUNT 1 1 1 1
WIDTH 1312
HEIGHT 1
VIEWPOINT 0 0 0 1 0 0 0
POINTS 1312
DATA ascii
-701.14893 1021.6231 3965.9744 2820096
-677.64893 1021.6231 3965.9744 2622720
-653.59631 1020.7601 3962.624 2556928
-632.36523 1024.4034 3976.7676 2425344
-608.34784 1023.6404 3973.8057 2622720
-586.54169 1026.6866 3985.6309 2359808
-564.16565 1028.949 3994.4133 2425344
-541.43365 1030.7318 4001.3345 2885888
-516.90839 1029.1078 3995.0295 2359552
-491.85379 1026.2234 3983.8325 2359552
-472.8508 1036.3109 4022.9927 2162944
-450.65421 1040.099 4037.698 3083264
-424.41458 1034.4573 4015.7966 2688512
-401.07233 1035.6268 4020.3372 2359552
-377.43698 1036.1396 4022.3279 2359296
-352.59686 1033.1912 4010.8818 2490624
-329.56879 1035.51 4019.8835 2425088
-306.62213 1038.4659 4031.3584 2951168
-282.71628 1038.3981 4031.0955 2754048
-258.7554 1038.0972 4029.927 2754048
-234.84821 1037.9722 4029.4421 3214080
-212.11832 1043.6113 4051.3333 3016960
-188.15387 1043.8407 4052.2236 2622208
-164.81793 1048.1342 4068.8906 2556160
-141.91776 1057.1447 4103.8696 3410944
-118.0764 1061.421 4120.4707 3410432
-92.93087 1053.1472 4088.3518 4265472
-68.2005 1045.4025 4058.2866 4528130
-44.361298 1050.322 4077.3843 4462080
-20.449228 1063.22 4127.4546 3935744
3.9861646 1057.5341 4105.3813 4133376
28.349575 1058.9301 4110.8013 4659460
52.642113 1057.6119 4105.6841 4594178
77.983101 1071.5334 4159.7275 5711885
102.51311 1070.301 4154.9434 6106895
126.01646 1060.9025 4118.458 5909260
152.85425 1078.0713 4185.1079 5975054
0 0 0 0
0 0 0 0
0 0 0 0
0 0 0 0
0 0 0 0
0 0 0 0
453.26489 1496.8964 5811.0005 7883047
568.25793 1744.162 6770.8936 5776901
609.93152 1748.6151 6788.1807 5645833
646.69733 1739.3177 6752.0884 5646352
685.89789 1737.2705 6744.1406 1835008
730.89545 1749.3231 6790.9297 1835264
765.85388 1737.3442 6744.4268 1901312
806.7536 1739.3628 6752.2632 1769984
844.8161 1735.3625 6736.7339 1638400
878.72003 1723.5668 6690.9419 1703936
915.62482 1718.4211 6670.9663 1638400
947.73383 1705.0732 6619.1494 1572864
985.34161 1702.286 6608.3296 1835008
1031.8765 1714.5448 6655.9189 3278592
1078.8977 1726.6796 6703.0264 4724482
1138.3839 1757.1932 6821.4814 5972744
1190.897 1775.22 6891.4614 5643778
1212.3873 1747.3402 6783.2314 5972738
1241.777 1732.2689 6724.7246 5051648
1245.7795 1683.8214 6536.6494 6038793
1293.8151 1696.0166 6583.9917 8933675
1365.5055 1737.5989 6745.4155 6696718
1421.4448 1757.3427 6822.0615 3278848
1418.9635 1705.7659 6621.8389 2293760
1459.3618 1707.1243 6627.1123 2818048
1498.1575 1706.5858 6625.022 3279104
1560.3418 1732.0372 6723.8252 9197878
1617.9775 1751.298 6798.5957 5316353
1653.2354 1745.9894 6777.9873 5644805
1663.7633 1715.4347 6659.373 5710857
1705.5953 1717.8243 6668.6499 5710857
1767.4873 1739.8518 6754.1616 5710856
1764.7833 1698.726 6594.5098 5120003
1791.1676 1686.7748 6548.1147 5119749
1744.4476 1607.9464 6242.1006 3277568
1750.6997 1580.2048 6134.4062 5513996
1788.5031 1581.491 6139.3994 3016961
1805.6619 1564.8347 6074.7393 3016192
1842.1996 1565.2958 6076.5288 2883584
1843.3566 1536.2527 5963.7827 2621440
1846.5237 1509.9459 5861.6592 2555904
1885.1948 1513.1071 5873.9307 2162688
1931.0195 1521.791 5907.6421 2228224
1991.2764 1541.337 5983.5205 2425344
2042.1165 1553.0377 6028.9429 6961179
2173.8633 1624.8077 6307.5566 6171662
2221.1482 1632.0896 6335.8252 6172696
2289.0032 1653.9933 6420.8555 5250566
2330.6357 1656.5424 6430.7515 5579272
2358.082 1649.0884 6401.8149 5579530
2389.7366 1644.7668 6385.0386 5185030
2421.5535 1640.6902 6369.2129 4922630
2456.7119 1638.9678 6362.5264 3345667
2457.7898 1614.9047 6269.1128 1901312
2436.8691 1577.3191 6123.2041 1507328
2556.8293 1630.6868 6330.3794 6699811
2544.041 1599.0717 6207.6479 5251592
2492.5027 1544.348 5995.209 5579273
2547.1887 1556.054 6040.6519 5447174
2531.7068 1525.1644 5920.7378 5974541
2532.6467 1504.8771 5841.9814 6303507
2538.8259 1488.2079 5777.2715 6237711
2569.9836 1486.4294 5770.3677 7488031
2608.4663 1488.8785 5779.875 7093786
2564.5684 1444.8518 5608.9619 7553819
2586.8777 1438.7751 5585.3721 7160092
2640.062 1449.807 5628.1978 4661001
2818.5784 1528.5319 5933.8105 1835008
2859.095 1531.4009 5944.9482 1638400
2929.033 1549.7671 6016.2466 1638400
2970.0984 1552.5988 6027.2388 1638400
3011.2556 1555.4103 6038.1538 1769472
3021.3062 1542.2771 5987.1699 1572864
2936.9324 1481.8076 5752.4253 1900544
2928.8289 1460.7657 5670.7402 2883840
3075.5352 1516.5374 5887.2476 4132608
3119.4429 1520.9369 5904.3267 4724737
3183.7834 1535.0907 5959.272 4461569
3219.4004 1535.2366 5959.8384 5053701
3236.6011 1526.6923 5926.6694 4856579
3284.54 1532.6752 5949.895 4724738
3319.0994 1532.3535 5948.6465 4659201
3347.2712 1529.1211 5936.0977 4264705
3374.1611 1525.376 5921.5596 2294016
3445.3306 1541.52 5984.231 3804928
3468.6655 1536.1508 5963.3872 4725505
3548.3394 1555.5885 6038.8452 5186309
3625.5344 1573.5624 6108.6206 5778188
3673.8931 1578.7892 6128.9111 6172946
3643.949 1550.5938 6019.4556 3541248
3650.2925 1538.2366 5971.4844 6633241
3645.3359 1521.4003 5906.1255 5185797
3602.5781 1489.2579 5781.3477 4790529
3623.1396 1483.6498 5759.5767 5119493
3648.99 1480.292 5746.5415 5250310
0 0 0 0
0 0 0 0
0 0 0 0
0 0 0 0
0 0 0 0
2631.6909 1010.9977 3924.7261 1245184
2665.5378 1015.0308 3940.3826 1114112
2679.6748 1011.5536 3926.884 1179648
2685.8428 1005.154 3902.0405 1114112
2693.4099 999.38257 3879.6357 1179648
2687.5828 988.78119 3838.4807 1179648
2696.5798 983.76593 3819.0112 1179648
2705.4263 978.77942 3799.6536 1245184
2700.1631 968.81299 3760.9634 1245184
0 0 0 0
2690.5837 949.69958 3686.7646 5387034
2968.9358 1039.5099 4035.4111 5451539
3181.2866 1104.9607 4289.4937 5384460
3608.4363 1243.3893 4826.8774 5581070
4219.1401 1442.392 5599.4126 5712914
4261.3594 1445.4585 5611.3169 5448716
4309.4312 1450.4473 5630.6836 5448716
4260.7373 1423.0409 5524.291 5251594
4395.0503 1456.7086 5654.9902 5383181
4479.686 1473.5264 5720.2773 4923149
4483.6831 1463.7657 5682.3862 3280132
4454.1123 1443.2736 5602.835 2557441
4851.939 1560.5503 6058.1069 1967360
4656.3481 1486.6427 5771.1953 1639168
4486.0352 1421.8246 5519.5693 1639680
4458.8984 1402.9951 5446.4727 1967361
4509.9277 1408.8546 5469.2192 2098944
4558.104 1413.7454 5488.2056 3084035
4496.6885 1384.8167 5375.9033 4070408
4537.6313 1387.5959 5386.6929 4201738
4554.0576 1382.8917 5368.4307 4529418
4621.1421 1393.5288 5409.7241 4265733
4692.0518 1405.1649 5454.896 4002305
4683.4844 1393.0032 5407.6836 4265475
4768.9531 1408.7856 5468.9517 4265473
4793.6191 1406.5146 5460.1357 4988426
4858.0938 1415.8763 5496.478 4791301
4922.0039 1424.9498 5531.7017 5120265
4923.1353 1415.8486 5496.3706 5712403
4839.2588 1382.5802 5367.2217 5646610
4796.1812 1361.3265 5284.7139 5383181
4816.415 1358.202 5272.5845 5383438
4862.6968 1362.4156 5288.9419 5514767
4801.7886 1336.7357 5189.2515 5383182
4660.0186 1289.0149 5003.998 5120009
4775.4346 1312.5887 5095.5122 5317645
4798.0254 1310.5123 5087.4517 5251851
4828.1709 1310.5123 5087.4517 5185802
4662.2461 1257.6233 4882.1348 5712145
0 0 0 0
0 0 0 0
0 0 0 0
0 0 0 0
0 0 0 0
0 0 0 0
-3262.334 955.54913 3626.064 3345664
-3241.0024 955.59479 3626.2371 3345920
-3229.6719 958.60925 3637.6763 3280128
-3211.0547 959.48706 3641.0073 3609088
-3204.9004 964.12579 3658.6104 3082752
-3172.0933 960.75537 3645.8201 2556672
-3160.8804 963.92377 3657.8435 2622464
-3142.6904 964.99359 3661.9033 2425088
-3114.8345 963.0896 3654.6782 2688256
-3092.801 962.97198 3654.2317 2885376
-3066.9072 961.64221 3649.1858 3017216
-3042.0391 960.61743 3645.2966 3148032
-3020.0002 960.47778 3644.7671 3082240
-3001.592 961.49915 3648.6428 2950912
-2975.1423 959.9408 3642.729 3016960
-2951.2419 959.18817 3639.873 2753792
-2930.0437 959.30908 3640.332 2951168
-2890.7012 953.44727 3618.0879 2754304
-2870.1028 953.7265 3619.1475 3083264
-2859.7705 957.44696 3633.2656 2622720
-2844.1562 959.44202 3640.8367 2425344
-2818.634 958.09985 3635.7432 2754304
-2804.2773 960.56146 3645.0845 2294016
-2793.1404 964.17273 3658.7883 2491136
-2770.1729 963.72473 3657.0881 2688512
-2747.8179 963.48444 3656.1765 2688512
-2735.1006 966.64661 3668.1758 2294016
-2704.9739 963.6571 3656.8318 2491136
-2679.8428 962.41345 3652.1123 2622464
-2665.3779 965.01129 3661.9705 2425344
-2637.5715 962.78186 3653.5103 2359808
-2620.2788 964.38501 3659.594 2622720
-2597.05 963.81183 3657.4189 2885376
-2580.3423 965.66962 3664.4688 2885632
-2542.436 959.55817 3641.2771 2885632
-2538.6506 966.33014 3666.9751 2622720
-2517.6016 966.59094 3667.9648 2359808
-2503.8044 969.66486 3679.6294 1769472
-2495.3706 974.88788 3699.4497 6439462
-2429.2412 957.46344 3633.3281 2757641
-2429.6023 966.1684 3666.3613 2360064
-2403.9609 964.59674 3660.3975 2228736
-2376.7812 962.37372 3651.9617 2490880
-2362.0735 965.20605 3662.7095 2556928
-2345.2637 967.22412 3670.3674 2425600
-2325.731 968.14648 3673.8674 2162688
-2305.5151 968.79926 3676.3447 2490880
-2292.2507 972.41333 3690.0591 2557184
-2265.7595 970.43188 3682.5403 2097152
-2246.447 971.5166 3686.6565 2162688
-2226.2842 972.25116 3689.4438 2622720
-2209.988 974.70569 3698.7583 3346176
-2186.916 974.19092 3696.8049 2820352
-2166.9158 975.0481 3700.0574 3017728
-2144.3198 974.7428 3698.8992 2885888
-2134.5847 980.33777 3720.1306 3346176
-2121.9478 984.70276 3736.6946 2820096
-2098.3782 984.03308 3734.1533 2819840
-2078.7617 985.22253 3738.667 3082752
-2058.2708 986.01892 3741.689 3148800
-2046.5096 991.06006 3760.8188 3609088
-2032.3375 995.03186 3775.8906 3476992
-2009.7338 994.91797 3775.4585 3345408
-1969.7902 986.12073 3742.0752 3214080
-1954.8096 989.76251 3755.895 3213824
-1939.1995 993.16589 3768.8098 3345664
-1915.6079 992.51312 3766.3328 3148800
-1888.0215 989.75067 3755.8501 2820096
-1870.3018 992.15643 3764.9795 3017216
-1859.2974 998.22583 3788.011 3016960
-1835.4753 997.47766 3785.1721 2688256
-1817.2072 999.76672 3793.8584 2688256
-1793.5083 999.08789 3791.2822 2622208
-1774.1202 1000.8235 3797.8684 2885376
-1757.2546 1004.0451 3810.0938 2951424
-1737.6871 1005.7866 3816.7024 2819840
-1711.2784 1003.562 3808.2607 2556928
-1690.7789 1004.7899 3812.9199 2819840
-1668.8844 1005.2106 3814.5164 2688000
-1641.3938 1002.226 3803.1907 2754304
-1631.8727 1010.283 3833.7651 2754304
-1609.8784 1010.7367 3835.4863 2754304
-1590.3331 1012.7627 3843.1748 2688256
-1568.6545 1013.4693 3845.8562 2753792
-1543.8562 1012.1516 3840.8555 2688000
-1529.7184 1017.8879 3862.6235 3148288
-1502.0839 1014.6812 3850.4551 2228224
-1480.2877 1015.3804 3853.1084 2490880
-1453.9038 1012.9054 3843.7161 2754304
-1436.9862 1017.0515 3859.4495 2228480
-1408.8085 1013.2331 3844.96 2425344
-1386.0649 1013.262 3845.0693 2557440
-1385.9122 1030.0824 3908.8987 2688768
-1336.4764 1010.2224 3833.5347 2689281
-1318.9485 1014.2111 3848.6709 2359552
-1295.3387 1013.5813 3846.2812 2491136
-1265.249 1007.7676 3824.2197 2622720
-1245.364 1010.0183 3832.7605 2491136
-1220.0096 1007.8344 3824.4729 2360064
-1205.9723 1015.0935 3852.0195 2097408
-1183.1476 1015.0935 3852.0195 2360320
-1161.0001 1015.6862 3854.2683 2294528
-1140.802 1018.0419 3863.2083 1966080
-1111.4883 1012.1931 3841.0134 2491136
-1096.2098 1019.1483 3867.4065 2622464
-1069.6132 1015.6533 3854.1438 2885888
-1046.5652 1015.4489 3853.3682 2491136
-1026.3425 1018.0378 3863.1924 2754304
-1000.007 1014.5432 3849.9312 3017216
-983.13153 1020.7071 3873.3215 2491136
-960.94647 1021.5213 3876.4111 2688512
-937.59692 1021.1071 3874.8398 2622976
-914.63696 1021.1071 3874.8398 2754304
-894.71924 1024.5909 3888.0603 2754304
-875.15625 1028.676 3903.5615 2491136
-854.88641 1032.1293 3916.6663 2885888
-831.95648 1032.4741 3917.9746 2491392
-810.14972 1034.2727 3924.7998 2622720
-786.73962 1034.0703 3924.0315 2491392
-765.50842 1036.8065 3934.4148 2622464
-738.37109 1031.4641 3914.1418 2688512
-716.58545 1033.4937 3921.8435 2688512
-697.35748 1039.4717 3944.5286 2885888
-672.62628 1037.3768 3936.5791 2097408
-648.40515 1035.9463 3931.1506 2162944
-629.23175 1042.7745 3957.062 2360320
-600.75653 1034.1194 3924.218 2491904
-581.30414 1040.9243 3950.041 2360320
-557.89856 1040.9243 3950.041 1835264
-537.91541 1047.5895 3975.3337 2886656
-512.37445 1043.5457 3959.9883 2294528
-487.46368 1040.4586 3948.2739 2228992
-469.32648 1052.2472 3993.0083 2557696
-442.17938 1044.0143 3961.7666 2557440
-419.15286 1045.1327 3966.0105 2360064
-398.31967 1052.1777 3992.7446 2294016
-375.06543 1053.3132 3997.054 2622976
-351.12109 1052.5334 3994.0945 2622464
-327.10696 1051.4163 3989.8555 2688512
-304.15189 1053.7947 3998.8804 2754304
-281.16992 1056.4739 4009.0471 2425600
-257.4003 1056.4146 4008.8223 2425600
-234.69791 1061.1688 4026.8635 3083264
-210.39896 1058.9635 4018.4949 2754304
-188.31195 1068.7489 4055.6282 2820096
-165.67654 1077.8296 4090.0869 2951168
-141.24878 1076.3638 4084.5244 2819584
-117.26212 1078.3481 4092.0547 2622208
-93.279533 1081.4144 4103.6904 3082496
-68.72641 1077.6964 4089.5815 3344896
-44.067524 1067.3666 4050.3826 3542272
-20.293659 1079.4022 4096.0547 3409920
3.9549906 1073.3994 4073.2754 3805185
28.008465 1070.2538 4061.3389 3542016
51.952087 1067.7578 4051.8672 3673600
76.003479 1068.3547 4054.1321 3738881
99.343765 1061.0696 4026.4868 5054471
125.20111 1078.2841 4091.8113 5120263
149.54344 1078.9818 4094.4592 4988675
174.20502 1081.4666 4103.8882 5909775
200.36472 1091.5038 4141.9771 7159843
222.03886 1077.5815 4089.1458 6173205
256.04282 1120.3495 4251.439 5515020
276.80975 1102.7234 4184.5527 5778190
0 0 0 0
0 0 0 0
0 0 0 0
566.22931 1660.6658 6301.8008 4527875
612.72803 1685.8633 6397.4189 1704192
654.93683 1697.0089 6439.7139 3083009
683.61115 1673.7889 6351.5996 3543811
706.54736 1639.6757 6222.1489 5911578
737.25885 1626.0953 6170.6147 5911061
788.27264 1656.4612 6285.8457 6765596
814.6402 1634.6326 6203.0112 5909522
886.8316 1702.6678 6461.188 6040334
933.54218 1718.1748 6520.0327 5974287
980.88489 1733.5664 6578.4399 5316102
1019.087 1732.2443 6573.4229 5776650
1040.9309 1704.2373 6467.144 5513478
1095.965 1730.63 6567.2969 5513735
1149.6813 1753.2028 6652.9551 4987651
1149.7032 1695.1125 6432.5176 3014912
1170.2903 1670.0983 6337.5952 2686976
1185.354 1639.0026 6219.5942 4263424
1202.5247 1612.6073 6119.4312 4396546
1232.7018 1604.6887 6089.3823 10447169
1281.5616 1620.8494 6150.708 8078881
1399.7506 1721.3755 6532.1787 4855296
1443.6453 1727.585 6555.7417 4526080
1468.5885 1711.3843 6494.2646 5183747
1505.373 1709.4578 6486.9541 5446916
1537.595 1702.575 6460.8354 5578757
1591.8727 1719.8556 6526.4106 5512964
1630.2296 1719.5236 6525.1514 5776135
1650.0696 1700.1284 6451.5513 5710857
1680.4631 1692.2391 6421.6133 5579270
1715.1106 1688.8879 6408.8965 5053956
1710.7297 1648.0829 6254.0518 4659202
1755.7937 1655.6322 6282.6997 2883840
1751.045 1616.8724 6135.6162 2031616
1753.1676 1585.9053 6018.1035 2031616
1775.4966 1574.0867 5973.2554 2359296
1815.5371 1578.1255 5988.582 2097152
1838.6721 1567.5964 5948.627 1835008
1860.2382 1556.1511 5905.1948 1835008
1893.5132 1554.7424 5899.8491 2228224
1926.0349 1552.7777 5892.3931 2162688
1951.6163 1545.387 5864.3472 2031616
2032.2102 1581.0546 5999.6963 7159071
2095.7622 1602.4648 6080.9434 5381636
2168.5261 1630.0762 6185.7212 7025681
2158.4993 1595.5704 6054.7808 6105609
2263.384 1645.7472 6245.1885 5513217
2272.9827 1626.14 6170.7842 5776906
2319.4192 1633.0907 6197.1606 5711885
2314.3201 1604.1045 6087.1655 5317129
2411.2839 1645.6644 6244.8745 5645839
2460.9827 1654.1979 6277.2568 5776911
2459.271 1628.4352 6179.4941 5382667
2501.8284 1632.3119 6194.2046 5185543
2480.3582 1594.9054 6052.2568 5251333
2483.5681 1574.2089 5973.7192 6895900
2478.1868 1548.725 5877.0142 7685154
2447.9829 1508.6494 5724.938 8080163
2440.7571 1483.6372 5630.0229 8343335
2483.8381 1489.4664 5652.1431 8014369
2470.7698 1461.9177 5547.603 8013853
2555.6174 1492.2673 5662.772 7091981
2578.0525 1485.8588 5638.4531 8276255
2578.2363 1466.9539 5566.7139 8013346
2620.8462 1472.3611 5587.2329 4592645
2702.9116 1499.5226 5690.3037 5184773
2840.9761 1556.6989 5907.2734 4857350
2882.0396 1559.9794 5919.7217 5581589
2935.75 1569.9441 5957.5352 4660233
2947.3674 1557.4294 5910.0454 4923403
2978.6665 1555.4866 5902.6729 4726282
2996.6108 1546.696 5869.3149 5054476
2972.4312 1516.6143 5755.1621 5646611
3041.1851 1534.0941 5821.4937 4791300
3073.8887 1533.2008 5818.104 5053700
3085.9141 1522.1276 5776.084 5448201
3109.9282 1517.146 5757.1802 6501146
3153.5249 1521.7222 5774.5454 5646093
3181.3389 1518.6658 5762.9473 5119492
3213.4016 1517.681 5759.2104 5185541
3233.7053 1511.2217 5734.6987 5053954
3253.8772 1504.8356 5710.4648 6896159
3313.3682 1516.5779 5755.0239 6106903
3322.998 1505.4912 5712.9531 5317380
3433.5125 1539.8732 5843.4238 5712394
3467.1509 1539.4353 5841.7622 5186824
3575.7437 1571.9572 5965.1748 4330497
3539.5193 1540.8018 5846.9473 3344896
3480.2021 1500.2949 5693.2344 3084032
3621.2659 1546.1198 5867.1279 4133377
3538.7095 1496.505 5678.8525 4658434
3556.6487 1489.9237 5653.8784 5119494
3548.0579 1472.4552 5587.5898 4790530
0 0 0 0
0 0 0 0
0 0 0 0
0 0 0 0
0 0 0 0
2604.9136 1023.7298 3884.792 1310720
2609.7664 1016.6529 3857.9373 1114112
2630.0132 1015.6439 3854.1082 1114112
2644.7336 1012.5365 3842.3164 1114112
2661.4019 1010.2214 3833.531 1114112
2668.5525 1004.3633 3811.301 1114112
2687.0701 1002.8458 3805.5427 1114112
2694.3262 997.18573 3784.0642 1048576
2663.9207 977.79535 3710.4827 1048576
2625.4639 955.79126 3626.9827 3217933
2694.7778 973.05963 3692.5117 5980971
2790.9248 999.66089 3793.4568 6374956
2895.9653 1028.9971 3904.7803 6637099
0 0 0 0
0 0 0 0
4074.7617 1413.9575 5365.6064 5186312
4042.4463 1391.8839 5281.8423 5909521
4135.0171 1412.8193 5361.2871 5514250
4211.9619 1428.1373 5419.415 5580043
4312.2798 1451.0887 5506.5098 5580046
4308.7202 1439.0028 5460.647 5513997
4321.3574 1432.4663 5435.8423 4987653
4297.8433 1414.1315 5366.2661 4724484
4314.1841 1409.0831 5347.1089 4724740
4338.293 1406.6271 5337.7891 4724997
4358.2686 1402.876 5323.5547 5382927
4379.4653 1399.5692 5311.0063 5448717
4400.7656 1396.3424 5298.7612 5711632
4387.5005 1382.2716 5245.3667 5580302
4415.5767 1381.3318 5241.7998 5514252
4441.1279 1379.6205 5235.3062 5646095
4492.2241 1385.8135 5258.8066 5514766
4536.7896 1389.9203 5274.3911 5910038
4569.6841 1390.4198 5276.2866 5383696
4594.5117 1388.4746 5268.9053 5186574
4639.4668 1392.5973 5284.5498 4988936
4604.9619 1372.9736 5210.083 4988936
4638.7349 1373.8328 5213.3433 5186059
4652.1196 1368.6824 5193.7988 5382924
4713.4067 1377.6001 5227.6392 5383181
4685.8174 1360.595 5163.1089 5185801
4682.4751 1350.8051 5125.9585 5185802
4695.918 1345.9523 5107.5439 5185032
4653.915 1325.3717 5029.4458 5119240
4682.188 1324.9391 5027.8042 5119496
4700.936 1321.8336 5016.02 5119496
4723.0356 1319.7041 5007.9385 5317387
4785.6104 1328.8397 5042.606 5185801
4742.7036 1308.7542 4966.3867 5580303
0 0 0 0
0 0 0 0
0 0 0 0
0 0 0 0
0 0 0 0
0 0 0 0
-3214.1907 962.61676 3572.5535 2885120
-3196.4812 963.65961 3576.4238 3148288
-3186.584 967.08728 3589.145 3213824
-3179.8896 971.53979 3605.6694 3345408
-3167.9626 974.44275 3616.4434 3148800
-3145.2683 974.05096 3614.989 2951168
-3137.6382 978.35083 3630.9473 2622208
-3130.502 982.86517 3647.7012 2097152
-3093.304 977.93835 3629.4165 2819584
-3071.8435 977.9527 3629.47 3016960
-3046.4392 976.703 3624.8318 2819840
-3023.2432 976.14844 3622.7737 3016704
-2992.4473 973.11456 3611.5139 2885632
-2970.6118 972.97174 3610.9841 2951168
-2947.8872 972.53375 3609.3584 2951168
-2932.5288 974.53711 3616.7935 2688256
-2899.7024 970.72223 3602.6353 2688256
-2882.3718 972.07684 3607.6626 2556928
-2867.0144 974.12201 3615.2532 2820096
-2843.3101 973.34064 3612.353 2097152
-2828.0649 975.46527 3620.238 2031616
-2820.3069 980.22449 3637.9009 2359552
-2804.4736 982.22882 3645.3396 2622720
-2777.1086 980.19409 3637.7881 2951424
-2751.917 978.90057 3632.9875 2622720
-2740.7783 982.625 3646.8098 2425344
-2721.6917 983.5365 3650.1926 2359808
-2688.5925 979.35815 3634.6858 2491136
-2663.3416 977.99438 3629.6243 2491136
-2651.8337 981.69598 3643.3621 2754304
-2628.5305 981.05603 3640.9871 2819840
-2604.1338 979.99396 3637.0452 2556928
-2586.2383 981.38092 3642.1929 2754048
-2569.7854 983.34344 3649.4763 2163200
-2545.886 982.46558 3646.2183 2359552
-2528.0442 983.93036 3651.6545 2425344
-2506.0896 983.80597 3651.1929 2425344
-2479.0366 981.66028 3643.2297 2491136
-2454.8694 980.63 3639.4058 2754304
-2433.9316 980.88263 3640.3438 2491136
-2414.6592 981.81702 3643.8113 2951680
-2395.6785 982.888 3647.7861 3083264
-2369.5046 981.00043 3640.7808 2951680
-2352.6589 982.97559 3648.1111 2885888
-2340.2212 986.84631 3662.4763 2754304
-2308.1721 982.44202 3646.1309 2490880
-2286.5674 982.44196 3646.1306 2359552
-2277.303 987.79462 3665.9961 2425088
-2252.96 986.64703 3661.7371 2425088
-2226.3137 984.45874 3653.6155 2228224
-2211.5554 987.53564 3665.0349 2162944
-2212.1736 997.60791 3702.416 2754304
-2177.5322 991.82196 3680.9426 2951680
-2152.2307 990.216 3674.9824 2295040
-2120.1375 985.42047 3657.1848 2359552
-2081.3311 977.37354 3627.3203 3280384
-2086.9446 990.23553 3675.0549 2688256
-2068.457 991.81232 3680.907 2688256
-2068.9668 1002.6292 3721.0513 3148544
-2039.9777 999.22943 3708.4341 3411712
-2034.1849 1007.2418 3738.1702 3345664
-2005.2749 1003.8577 3725.6108 3016704
-1991.2036 1007.9093 3740.6477 3674624
-1972.1492 1009.5015 3746.5566 3214080
-1941.9778 1005.3746 3731.2405 2885120
-1913.4873 1002.033 3718.8386 3016704
-1900.0087 1006.5661 3735.6626 3346176
-1875.6606 1005.3801 3731.261 3148800
-1859.8932 1008.8199 3744.0269 3148544
-1841.2139 1010.7443 3751.1689 3148800
-1827.7748 1015.6274 3769.2917 3214592
-1806.1963 1016.0528 3770.8704 3083008
-1786.0776 1017.3204 3775.5747 3148800
-1765.7461 1018.4972 3779.9421 3017216
-1748.3527 1021.4207 3790.7922 2622720
-1731.9449 1025.0038 3804.0898 2622720
-1703.3513 1021.3743 3790.6201 2425344
-1682.17 1022.1519 3793.5059 3083264
-1662.1875 1023.6888 3799.21 2951680
-1634.9099 1020.7135 3788.1675 3017472
-1612.4636 1020.7135 3788.1675 2885888
-1600.8009 1027.6361 3813.8594 2951680
-1574.6027 1025.2924 3805.1609 2688256
-1557.5969 1028.9529 3818.7466 2819328
-1527.944 1024.2434 3801.2683 2820096
-1515.2905 1030.9592 3826.1924 2688768
-1490.0243 1029.1671 3819.5413 2688256
-1472.064 1032.4438 3831.7024 2885888
-1444.2084 1028.7744 3818.084 2556928
-1424.6261 1030.9755 3826.2527 2491392
-1400.5928 1029.9744 3822.5376 2689024
-1379.7074 1031.2935 3827.4329 1966080
-1352.8842 1028.144 3815.7446 2162944
-1338.3254 1034.3666 3838.8381 2820608
-1307.6348 1028.1207 3815.6577 2820864
-1281.5436 1025.3348 3805.3186 2360064
-1258.2284 1024.7101 3803 2360064
-1237.7756 1026.4363 3809.4065 2360064
-1214.1986 1025.5875 3806.2568 2491392
-1189.4353 1023.6857 3799.1985 2097408
-1169.3779 1025.8389 3807.1892 1769472
-1151.3162 1029.8618 3822.1196 2360320
-1131.5782 1032.5167 3831.9729 2097152
-1100.4108 1024.6378 3802.7322 2360064
-1084.4746 1030.9086 3826.0046 2491136
-1061.127 1030.2513 3823.5652 3280640
-1040.1853 1031.9523 3829.8779 2425344
-1016.1343 1030.5754 3824.7683 2491136
-991.35522 1028.3806 3816.6228 2556928
-968.68231 1028.3193 3816.3948 2754304
-955.42719 1038.4916 3854.147 2885632
-932.24213 1038.1042 3852.71 2754304
-911.33466 1040.2975 3860.8496 2754304
-890.3902 1042.5603 3869.2478 2622720
-869.54474 1045.062 3878.532 2359808
-847.87305 1046.6793 3884.5344 2556928
-825.55743 1047.5698 3887.8394 2754304
-801.55804 1046.3136 3883.1772 2622464
-779.45483 1047.5315 3887.697 2622976
-757.26117 1048.6982 3892.0271 3083008
-737.40997 1053.2841 3909.0469 2688512
-711.97845 1049.9382 3896.6294 2622720
-692.45056 1055.366 3916.7732 2885632
-666.68744 1051.3373 3901.8218 3083264
-645.04718 1053.7544 3910.7922 2491904
-623.12781 1055.8787 3918.676 2294528
-598.95935 1054.209 3912.479 2623488
-577.80902 1057.9305 3926.291 2623488
-556.58173 1061.8177 3940.7175 2623488
-532.85242 1061.0631 3937.9167 1966080
-512.12585 1066.4924 3958.0667 2162944
-484.74554 1057.9216 3926.2581 2162944
-464.36987 1064.5446 3950.8376 2360320
-442.51816 1068.3073 3964.802 2228736
-416.00726 1060.6132 3936.2471 2228736
-393.43814 1062.6516 3943.8123 2097152
-368.8765 1059.2261 3931.0991 2360064
-347.81268 1066.0597 3956.4604 2425856
-325.97607 1071.3411 3976.0618 2556928
-301.89432 1069.4921 3969.199 2951680
-278.61841 1070.4263 3972.6665 2951680
-254.41013 1067.6204 3962.2527 3017216
-232.60626 1075.3599 3990.9761 2622464
-209.24287 1076.8251 3996.4141 2359808
-187.16742 1086.1384 4030.9788 2491136
-163.78891 1089.5085 4043.4866 2490624
-138.97891 1082.8801 4018.8862 2688000
-116.87828 1098.9861 4078.6602 2819584
-92.519707 1096.7235 4070.2629 2819328
-68.628853 1100.3646 4083.7761 2885120
-44.360111 1098.6129 4077.2751 3410944
-19.934824 1084.1577 4023.6277 3345152
3.9236226 1088.8303 4040.969 2819584
27.759144 1084.5776 4025.1863 3608578
51.763451 1087.8027 4037.1553 3937280
75.663559 1087.4913 4036 3410688
100.96201 1102.6007 4092.0754 3475968
123.24913 1085.3402 4028.0166 3870208
145.79037 1075.5551 3991.7009 4330496
170.35582 1081.3505 4013.2095 5119751
197.40521 1099.562 4080.7979 5777679
223.62402 1109.6772 4118.3384 5514762
251.40858 1124.8074 4174.4902 5317384
278.28699 1133.5358 4206.8843 6304278
300.52686 1123.4884 4169.5957 6765083
327.07199 1129.8398 4193.1675 6172946
350.5563 1125.4674 4176.9399 5777674
0 0 0 0
0 0 0 0
0 0 0 0
619.25214 1550.3014 5753.624 2295296
657.85309 1560.9993 5793.3271 1966592
702.08057 1583.3248 5876.1841 1900800
758.96875 1630.744 6052.1704 3937284
794.04852 1629.1401 6046.2178 5449488
837.18951 1643.4998 6099.5103 5317126
907.11407 1707.0741 6335.4536 5776647
938.40833 1695.7875 6293.5654 6302479
993.59174 1726.8831 6408.9707 6104843
1023.5001 1713.3782 6358.8496 5842698
1063.1332 1716.5338 6370.561 5776650
1104.025 1721.4354 6388.7524 2293760
1077.8185 1624.8584 6030.3271 2621440
1101.6938 1607.5576 5966.1182 2687488
1143.4561 1616.6206 5999.7544 2687232
1173.6089 1609.2191 5972.2847 2883584
1159.813 1543.7532 5729.3218 8014883
1191.2819 1540.5465 5717.4204 11829842
1242.5016 1562.3525 5798.3491 11040833
1288.2152 1576.2476 5849.918 11699022
1333.9829 1589.479 5899.0234 10645824
1388.8406 1612.5894 5984.7925 9329708
1414.636 1601.6442 5944.1724 9789748
1429.0898 1578.7024 5859.0283 9790008
1514.2731 1633.1298 6061.0244 5644295
1572.9851 1657.1475 6150.1611 5512706
1615.2603 1663.1536 6172.4512 5513479
1647.4331 1658.7217 6156.0039 4791043
1670.6401 1645.6505 6107.4927 2293760
1708.5986 1647.3562 6113.8232 2228480
1704.3573 1609.1489 5972.0239 1900544
1733.2848 1603.1744 5949.8516 1769472
1766.8643 1601.6553 5944.2134 1704192
1793.4922 1594.0175 5915.8667 2162944
1830.2573 1595.509 5921.4028 2031616
1856.1912 1587.6803 5892.3477 1900544
1878.5511 1577.14 5853.23 2228224
1916.457 1579.797 5863.0908 3083010
1949.78 1578.6488 5858.8296 3542788
1968.829 1566.1858 5812.5757 5513736
2035.9434 1591.7297 5907.3765 5644294
2059.9771 1583.2982 5876.085 5578758
2106.2854 1591.9828 5908.3159 5578757
2113.2136 1571.1055 5830.834 5447429
2185.1052 1598.4211 5932.2104 5579013
2227.4851 1603.6257 5951.5259 5447430
2249.7581 1594.4178 5917.353 5118722
2298.3667 1603.8708 5952.4355 4986880
2298.4695 1579.7006 5862.7329 5118210
2343.8262 1586.889 5889.4116 5381383
2374.8069 1584.2765 5879.7153 4986880
2421.094 1591.803 5907.6484 6566162
2373.6865 1538.391 5709.4209 7947543
2376.001 1518.2524 5634.6807 7552526
2389.5444 1505.7477 5588.272 7223306
2372.0017 1474.264 5471.4268 7617550
2440.6589 1496.4824 5553.8862 6366977
2456.4897 1486.1503 5515.54 6827786
2525.6011 1507.9005 5596.2617 6106382
2522.9255 1486.7821 5517.8853 1966336
2457.7405 1429.8381 5306.5493 1900544
2495.4827 1433.4563 5319.9775 1835008
2599.0535 1474.3258 5471.6562 4396803
2617.0615 1466.2502 5441.6855 5185802
2661.0515 1472.751 5465.8115 5513482
2735.4473 1495.7208 5551.0596 5842189
2768.3342 1495.7181 5551.0493 5316359
2794.8418 1492.309 5538.397 5513481
2820.542 1488.553 5524.4575 5579532
2874.0642 1499.3978 5564.7056 5448203
2911.0784 1501.4821 5572.4409 5382667
2951.0647 1505.0354 5585.6284 5119238
2999.4043 1512.7228 5614.1587 5119238
3009.2441 1501.0376 5570.7915 5382667
3061.4912 1510.5295 5606.019 5711375
3097.689 1511.9839 5611.4165 5448457
3123.4036 1508.3451 5597.9116 5119749
3181.6506 1520.3281 5642.3843 5909265
3206.1108 1516.0847 5626.6357 4988168
3217.7893 1505.9471 5589.0122 5382919
3283.1677 1520.8916 5644.4756 5383173
3292.6343 1509.8955 5603.666 6896923
0 0 0 0
0 0 0 0
0 0 0 0
0 0 0 0
0 0 0 0
0 0 0 0
0 0 0 0
0 0 0 0
0 0 0 0
0 0 0 0
0 0 0 0
0 0 0 0
2587.856 1049.1655 3893.7615 1114112
2582.2959 1037.6602 3851.0615 1442560
2590.2542 1031.7407 3829.093 917504
2599.8374 1026.5658 3809.8875 983040
2622.2917 1026.5186 3809.7122 1114112
2637.9744 1023.8439 3799.7856 1114112
2643.4829 1017.2991 3775.4961 1114112
2652.3499 1012.1459 3756.3706 1114112
2653.7419 1004.2496 3727.0654 983040
2667.0513 1000.9562 3714.8428 1114112
2617.771 974.41907 3616.3552 1508096
2634.678 972.74976 3610.1599 4531475
2692.3628 986.04163 3659.49 4727312
0 0 0 0
3175.2383 1144.4537 4247.4038 5054473
3883.0601 1388.5684 5153.3853 5054212
3923.7603 1392.1748 5166.7695 5317384
3996.532 1407.0164 5221.8511 5383178
4015.9546 1402.9922 5206.916 5579789
4050.625 1404.3156 5211.8276 5053445
4162.5938 1432.2148 5315.3701 4527107
4201.2021 1434.6437 5324.3843 4724482
4199.5669 1423.3962 5282.6416 4790274
4246.4287 1428.6312 5302.0698 5250055
4226.4688 1411.4734 5238.3921 5250311
4248.3374 1408.433 5227.1084 5184262
4252.5879 1399.6379 5194.4673 5118726
4254.8926 1390.3336 5159.9365 4922117
4295.7407 1393.6665 5172.3057 4922117
4336.8418 1397.0338 5184.8027 5119496
4332.0708 1385.6808 5142.6685 5185288
4325.5444 1373.9288 5099.0537 5382668
4407.9854 1390.4027 5160.1929 5119239
4362.103 1366.4515 5071.3032 5382667
4403.3242 1369.9275 5084.2031 5251082
4406.6724 1361.653 5053.4941 5185033
4445.4175 1364.3541 5063.519 5119496
4502.9165 1372.7365 5094.6279 5185289
4459.6997 1350.5077 5012.1309 5185802
4486.4453 1349.6193 5008.8335 5185801
4519.6582 1350.6752 5012.7524 5251595
4505.2446 1337.5775 4964.1431 5120009
4530.2441 1336.2753 4959.3101 4988423
4570.4893 1339.4576 4971.1206 5120009
4597.854 1338.8488 4968.8608 5119752
4620.3857 1336.8492 4961.4404 5251082
4632.791 1331.9636 4943.3081 4922117
4656.6699 1330.4172 4937.5693 4856067
4678.8477 1328.4073 4930.1099 4856067
4706.25 1327.8965 4928.2139 5316874
0 0 0 0
0 0 0 0
0 0 0 0
0 0 0 0
0 0 0 0
0 0 0 0
0 0 0 0
-3161.2231 973.98816 3536.9749 3411456
-3144.9846 975.4519 3542.2905 3280384
-3128.3303 976.80548 3547.2061 3280128
-3131.731 984.48193 3575.0823 3411712
-3131.2825 991.04474 3598.9146 2425344
-3105.6321 989.66632 3593.9089 2556672
-3087.3889 990.64569 3597.4656 2753792
-3070.1538 991.96423 3602.2539 2688000
-3042.9399 990.05469 3595.3196 2951424
-3024.175 990.88666 3598.3406 3083008
-2995.8342 988.57037 3589.9292 2885376
-2968.1599 986.4425 3582.2021 3017216
-2953.5339 988.65179 3590.2249 2951424
-2908.6863 980.70349 3561.3611 2556928
-2886.447 980.31732 3559.959 2294272
-2877.491 984.47009 3575.0396 2688768
-2847.906 981.57452 3564.5242 2294784
-2840.2556 986.2522 3581.5107 2294528
-2830.9463 990.41974 3596.6453 1769472
-2805.1082 988.82416 3590.8508 2162688
-2785.3132 989.35059 3592.7627 2951680
-2781.4028 995.57098 3615.3516 3214848
-2757.8772 994.81232 3612.5964 2622720
-2740.5449 996.29321 3617.9744 2491136
-2706.1187 991.5343 3600.6926 2688512
-2698.4631 996.58655 3619.0396 2688512
-2674.8264 995.77039 3616.0757 2491136
-2647.8271 993.67908 3608.4812 3017216
-2629.7185 994.91742 3612.978 3017472
-2608.3337 994.92633 3613.0105 2688256
-2585.0459 994.20361 3610.386 2688512
-2562.3076 993.68195 3608.4917 2688256
-2548.4824 996.63708 3619.2229 2491136
-2530.3081 997.92719 3623.9077 2820096
-2504.9053 996.36407 3618.2314 2951680
-2481.748 995.67487 3615.7288 2754304
-2462.467 996.54236 3618.8792 2294272
-2441.0112 996.53717 3618.8604 2951680
-2419.5679 996.53717 3618.8604 2491136
-2397.3992 996.23572 3617.7654 2162944
-2382.7966 999.10132 3628.1716 2754304
-2360.606 998.80829 3627.1077 2622720
-2342.4561 1000.2355 3632.2903 2294016
-2321.8291 1000.6215 3633.6921 2359296
-2299.3306 1000.2007 3632.1641 2557184
-2274.2002 998.61627 3626.4102 2688512
-2266.1814 1004.587 3648.0928 2491136
-2244.5649 1004.587 3648.0928 1638400
-2214.0225 1000.5532 3633.4441 2294016
-2192.3086 1000.4691 3633.1387 2491136
-2183.1211 1006.1565 3653.7922 2688512
-2162.6421 1006.7017 3655.7722 2754304
-2141.9514 1007.1583 3657.4302 2754560
-2121.873 1007.9152 3660.1787 2886144
-2103.1753 1009.3504 3665.3906 2820352
-2068.9636 1003.2922 3643.3909 2294528
-2036.9482 998.1828 3624.8359 3609088
-2037.9358 1009.3093 3665.2415 3280384
-2021.7872 1012.0974 3675.366 3148288
-2016.5508 1020.4682 3705.7642 3345920
-1987.8052 1016.9957 3693.1538 3806208
-1977.9965 1023.2421 3715.8372 3608832
-1959.0146 1024.8302 3721.6047 3411200
-1924.7491 1018.3681 3698.1379 3214080
-1904.7781 1019.4075 3701.9124 3016960
-1884.3625 1020.2303 3704.9001 2688256
-1870.8783 1024.8696 3721.7473 3214592
-1846.1992 1023.4137 3716.4604 3280128
-1824.7977 1023.7617 3717.7239 3609344
-1805.8127 1025.4902 3724.0012 3214592
-1791.4369 1029.9114 3740.0564 2556928
-1772.6235 1031.8602 3747.1338 2951424
-1749.8751 1031.5389 3745.9668 2951168
-1739.9642 1038.8741 3772.6042 2556672
-1710.4478 1034.5422 3756.873 2754304
-1694.3632 1038.3271 3770.6179 2556928
-1672.1422 1038.4026 3770.8918 2754048
-1648.4226 1037.5367 3767.7478 2754304
-1626.7296 1037.9404 3769.2131 2885888
-1610.0647 1041.6079 3782.5317 2556928
-1579.917 1036.5334 3764.1042 2425344
-1566.4447 1042.4105 3785.4463 2228224
-1537.5265 1038.0304 3769.54 2951168
-1522.0905 1042.7574 3786.7061 2425344
-1495.9939 1040.2134 3777.4673 3016960
-1477.4026 1042.8899 3787.1868 2885888
-1460.2488 1046.6793 3800.9482 2951680
-1438.3689 1047.147 3802.6462 2886144
-1410.9199 1043.5104 3789.4404 2163200
-1387.5959 1042.8566 3787.0662 2294784
-1365.7067 1043.2772 3788.5935 2097408
-1343.6375 1043.5721 3789.6646 2162944
-1318.1741 1041.196 3781.0361 2294016
-1296.1801 1041.5256 3782.2329 2490880
-1271.8815 1039.9825 3776.6292 2425344
-1252.8857 1042.7976 3786.8521 2359552
-1231.626 1043.7968 3790.48 2556416
-1208.2573 1043.0123 3787.6318 2557184
-1183.2922 1040.7943 3779.5769 2491648
-1161.3093 1041.1642 3780.9202 2097920
-1144.5741 1046.3459 3799.7373 2294016
-1116.6843 1041.3337 3781.5361 3017472
-1091.8903 1039.0623 3773.2876 2754048
-1075.0791 1044.4514 3792.8577 2754304
-1052.0719 1043.9225 3790.937 2622720
-1028.6405 1042.9406 3787.3711 2622720
-1009.3334 1046.1896 3799.1697 2491136
-987.34784 1046.7472 3801.1946 2294272
-968.09204 1050.2925 3814.0691 2294272
-943.5144 1048.0956 3806.0911 2294528
-922.65875 1050.0269 3813.1042 2491648
-902.52533 1052.8975 3823.5291 2162944
-882.92529 1056.5543 3836.8088 2360320
-861.83014 1058.5681 3844.1213 2623232
-835.52844 1054.1224 3827.9775 2491136
-816.01215 1058.2281 3842.8872 2754560
-793.76727 1058.9297 3845.4343 2754304
-770.98151 1058.9297 3845.4343 2688512
-751.59991 1063.7477 3862.9304 3017216
-738.3623 1077.837 3914.0952 2425600
-705.46649 1063.2131 3860.9897 3280640
-682.83868 1063.6028 3862.4045 2820096
-659.39258 1062.7006 3859.1282 2885888
-641.74823 1071.4197 3890.7913 2162944
-617.37158 1069.1301 3882.4768 2426368
-594.68378 1069.701 3884.55 2492160
-572.41003 1071.0929 3889.6045 2426368
-549.80884 1071.9629 3892.7639 2491904
-529.79077 1078.166 3915.2903 2492160
-504.30533 1073.3013 3897.6243 1835264
-485.59018 1083.0703 3933.0994 2689536
-462.69354 1084.0275 3936.5754 2623744
-437.86023 1080.308 3923.0686 2097920
-411.63608 1072.5476 3894.8872 2228992
-391.6965 1081.2128 3926.354 2623232
-368.80777 1082.3176 3930.3665 2425856
-345.18207 1081.2629 3926.5364 2426112
-322.43433 1083.0048 3932.8618 2688768
-299.81955 1085.4994 3941.9207 2623232
-276.85425 1087.0392 3947.5122 2623232
-250.8925 1076.0121 3907.4683 2623232
-230.90799 1090.984 3961.8376 2162688
-209.07318 1099.6129 3993.1733 2491392
-185.82503 1102.0623 4002.0679 2426112
-162.1754 1102.499 4003.6536 2491648
-138.59882 1103.667 4007.895 2228992
-114.9411 1104.5383 4011.0591 2228224
-91.180527 1104.6178 4011.3479 2885888
-67.311172 1102.9708 4005.3672 2556928
-43.688797 1105.7812 4015.5728 2359808
-19.833586 1102.3723 4003.1936 2819584
3.8699646 1097.5568 3985.7063 2162688
27.603115 1102.1982 4002.5618 2753536
51.451351 1105.0214 4012.8135 3476992
75.829567 1113.8447 4044.8552 3279104
99.116486 1106.2499 4017.2747 3542272
124.35485 1119.1591 4064.1538 4002304
147.04526 1108.6691 4026.0596 4462338
171.45665 1112.2716 4039.1426 4593410
195.47849 1112.7744 4040.9683 4461824
218.79842 1109.6078 4029.4685 4132864
242.82022 1110.2733 4031.8857 4067328
269.71848 1122.7938 4077.3533 4396032
297.80939 1137.8125 4131.8926 4330496
318.82935 1125.5863 4087.4937 4462080
347.13678 1138.9976 4136.1958 5843722
0 0 0 0
0 0 0 0
427.33997 1157.0773 4201.8511 5910031
0 0 0 0
478.84787 1161.2303 4216.9326 5844241
529.01233 1219.259 4427.6602 5712400
707.45459 1553.4866 5641.3862 4857093
779.28467 1634.0095 5933.7993 4198401
821.82208 1648.8104 5987.5479 5250567
890.14539 1711.9792 6216.9414 5973772
925.12408 1708.5457 6204.4727 6170636
952.18842 1691.3167 6141.9067 6367245
986.76202 1688.2036 6130.6016 6105357
1035.3894 1708.5016 6204.313 3607808
1047.1758 1668.7007 6059.7783 1769472
1066.907 1643.7792 5969.2778 1966080
1070.2784 1596.0607 5795.9907 2031616
1094.6105 1581.5951 5743.46 1769472
1112.4583 1558.9152 5661.0996 2031616
1142.2771 1553.8475 5642.6968 2686976
1182.6674 1563.0394 5676.0767 3015168
1215.0306 1561.4077 5670.1509 5777424
1271.5873 1590.1174 5774.4087 10381624
1298.0653 1580.6951 5740.1919 12223568
1323.6498 1570.6934 5703.8716 10184244
1365.943 1580.5237 5739.5693 9855537
1395.7291 1575.7557 5722.2549 9987124
1436.0327 1582.8066 5747.8594 9855540
1504.194 1619.5243 5881.1973 6105096
1554.9407 1636.2539 5941.9502 5579011
1615.9359 1662.7885 6038.3081 5907978
1631.3741 1642.3105 5963.9448 5644808
1680.528 1655.9235 6013.3789 5447944
1712.931 1652.8082 6002.0659 5250310
1726.2223 1631.7538 5925.6079 5316359
1737.9258 1610.0679 5846.8569 5513739
1786.2781 1622.5184 5892.0703 5316874
1774.2202 1580.6718 5740.1069 5514253
1770.6726 1547.8384 5620.875 3542019
1794.6843 1539.8639 5591.916 7488550
1816.1124 1530.0018 5556.1025 6567700
1864.2764 1542.6139 5601.9023 9198903
1937.7628 1575.3713 5720.8589 8869680
1952.6289 1560.1646 5665.6362 8605995
1993.9106 1566.2211 5687.6304 8079658
2004.0167 1547.995 5621.4434 5579268
2090.908 1588.7074 5769.2881 5513221
2123.0115 1587.151 5763.6362 5447684
2165.4351 1593.2369 5785.7368 5447687
2200.321 1593.6738 5787.3232 5776908
2221.8662 1584.5829 5754.3101 5316358
2245.6821 1577.3617 5728.0869 5316358
2270.3345 1570.9344 5704.7471 5381894
2304.478 1571.1667 5705.5898 5118720
2354.219 1581.8726 5744.4678 5184513
2356.6538 1560.9401 5668.4526 5446914
2363.0671 1543.1938 5604.0083 6170371
2367.3013 1524.5359 5536.2534 6302211
2398.803 1523.7084 5533.248 6894348
2415.0371 1513.3361 5495.582 5973249
2441.7134 1509.696 5482.3633 5973510
2390.9907 1458.9246 5297.9897 4789504
2376.6399 1431.3746 5197.9443 4790016
2429.4495 1444.4608 5245.4658 4527872
2476.4795 1453.8234 5279.4653 4791557
2584.5164 1498.3199 5441.0518 4856837
2572.3896 1472.9159 5348.7983 5251081
2627.9844 1486.4347 5397.8911 5382153
2654.3784 1483.3105 5386.5464 5512967
2682.3828 1481.1499 5378.6997 5447430
2719.2883 1483.8973 5388.6768 5512967
2762.7266 1490.1041 5411.2168 5710859
2784.376 1484.5516 5391.0532 5645066
2805.3704 1478.7797 5370.0928 5645323
2852.6609 1486.8433 5399.375 5710860
2882.0042 1485.4773 5394.4146 5447689
2907.7747 1482.3197 5382.9482 4921345
2915.4956 1470.1298 5338.6807 5118982
2959.5278 1476.3142 5361.1396 4921603
3003.5852 1482.3801 5383.1675 5645324
3065.1855 1496.8857 5435.8433 5448457
3040.9453 1469.6051 5336.7754 5250822
3065.249 1466.1044 5324.063 5053956
3030.4995 1434.7179 5210.085 5185541
0 0 0 0
0 0 0 0
0 0 0 0
0 0 0 0
2385.6829 1074.7045 3902.7195 2228736
2449.583 1092.8965 3968.7825 1638400
2436.3223 1076.644 3909.7629 1507328
2461.1816 1077.3849 3912.4531 1441792
2428.3296 1053.0844 3824.2078 1376256
0 0 0 0
2460.137 1047.3319 3803.3176 1245184
2468.1594 1041.2091 3781.0833 1179648
2490.5637 1041.2091 3781.0833 1179648
2538.2397 1051.6799 3819.1077 1048576
2539.1602 1042.7645 3786.7317 1377024
2539.6465 1033.8286 3754.2815 1443072
2552.8506 1030.1799 3741.0317 1772288
2565.3235 1026.3016 3726.9478 2034944
2562.9895 1016.6163 3691.7761 1377024
2613.082 1027.7141 3732.0769 1048576
2632.2874 1026.5796 3727.9575 1114112
2653.7241 1026.3271 3727.0405 1114112
2666.4473 1022.7367 3714.002 1179648
2607.6558 991.99945 3602.3816 1310720
0 0 0 0
0 0 0 0
0 0 0 0
3607.095 1328.6986 4825.083 4922373
3639.9985 1330.2749 4830.8071 5119495
3773.0205 1368.1304 4968.2769 5316617
3861.1609 1389.2511 5044.9756 5185287
3952.0261 1411.0204 5124.0293 5119239
3979.8445 1410.1191 5120.7563 5119238
4028.1438 1416.4333 5143.686 5119238
4073.665 1421.6832 5162.7505 4856067
4121.9609 1427.816 5185.0215 4527361
4141.3721 1423.9264 5170.8965 4460800
4160.7905 1420.0968 5156.9893 4921604
4145.5952 1404.5948 5100.6953 5119496
4136.3652 1391.3243 5052.5039 4922118
4163.8813 1390.5154 5049.5664 5053703
4180.376 1386.0636 5033.4004 4987909
4228.6836 1392.1484 5055.4971 5251082
4193.3569 1370.8077 4977.9995 5316875
4240.4824 1376.5303 4998.7808 4724482
4255.8569 1371.9381 4982.1045 4527104
4212.8335 1348.7135 4897.7656 5053703
4249.8677 1351.2612 4907.0176 4921860
4251.8926 1342.7186 4875.9956 4856324
4282.9824 1343.408 4878.499 5251082
4304.7017 1341.1686 4870.3667 4921861
4301.2671 1331.1742 4834.0728 5053703
4364.8408 1341.913 4873.0698 5185289
4329.9937 1322.4512 4802.3955 5382668
4323.8657 1311.9576 4764.2891 5119239
4433.7363 1336.5684 4853.6616 5053959
4394.9883 1316.349 4780.2358 5383180
4452.4609 1325.0233 4811.7363 5185802
4496.6128 1329.6481 4828.5308 4791044
4553.3413 1337.9099 4858.5332 4659457
4571.3364 1334.7584 4847.0884 4988422
4557.5439 1322.4225 4802.2915 5054216
4579.8301 1320.6434 4795.8311 4922630
0 0 0 0
0 0 0 0
0 0 0 0
0 0 0 0
0 0 0 0
0 0 0 0
0 0 0 0
-3134.6946 986.59668 3507.293 3280128
-3117.8911 987.85724 3511.7742 3148800
-3094.8901 987.15802 3509.2886 2425856
-3103.5459 996.61493 3542.9072 2162688
-3099.1445 1001.9792 3561.9768 2753792
-3071.5771 999.87585 3554.4998 2819840
-3059.8909 1002.9489 3565.4243 2819840
-3036.353 1002.1531 3562.595 2885632
-3009.8384 1000.3568 3556.2092 3082752
-2984.5593 998.94855 3551.2031 2819840
-2970.1643 1001.1893 3559.1689 2622720
-2957.8779 1004.1778 3569.793 2162688
-2916.9192 997.40533 3545.717 2359808
-2891.4836 995.88104 3540.2983 2557696
-2870.7048 995.95001 3540.5437 2360576
-2852.7898 997.02094 3544.3506 2228736
-2833.7864 997.72449 3546.8516 2623488
-2805.9023 995.28851 3538.1919 2360064
-2809.8274 1004.1839 3569.8145 2491136
-2788.6748 1004.1839 3569.8145 2294272
-2768.833 1004.6594 3571.5049 2556928
-2764.9592 1010.9809 3593.9775 2556928
-2750.0249 1013.325 3602.3103 2293760
-2730.804 1014.1138 3605.1147 2425344
-2679.147 1002.7746 3564.8047 2293760
-2671.2378 1007.7597 3582.5264 2425088
-2650.01 1007.7597 3582.5264 2491392
-2605.2324 998.73187 3550.4329 2556928
-2599.8301 1004.7746 3571.9143 2556672
-2577.8452 1004.4551 3570.7786 2622720
-2561.98 1006.5346 3578.1711 2556928
-2544.1936 1007.8878 3582.9814 2622720
-2523.7263 1008.1926 3584.0654 2885632
-2509.0391 1010.8315 3593.4463 3149056
-2488.8621 1011.2849 3595.0579 2819840
-2456.1509 1006.609 3578.4355 2754304
-2428.6833 1004.0194 3569.2297 2556928
-2426.4414 1011.9044 3597.2603 2491136
-2404.5928 1011.68 3596.4626 2097152
-2382.6816 1011.4249 3595.5562 2097152
-2361.6357 1011.5361 3595.9509 1769472
-2352.7632 1016.9106 3615.0574 2622720
-2330.9246 1016.7283 3614.4092 1703936
-2309.1084 1016.5526 3613.7842 2228480
-2275.323 1011.0549 3594.2405 2360064
-2254.5405 1011.2857 3595.061 2491648
-2252.7944 1020.1415 3626.5427 2294272
-2243.8325 1025.8685 3646.9023 2491648
-2210.5022 1020.4578 3627.667 2359808
-2179.1462 1015.861 3611.3259 2491136
-2166.981 1020.2081 3626.7793 2622464
-2160.0569 1027.1344 3651.4021 2885888
-2127.9751 1022.1171 3633.5657 2951680
-2109.1772 1023.4429 3638.2791 2753792
-2088.7927 1024.0183 3640.3247 1703936
-2072.4597 1026.6127 3649.5474 1703936
-2061.0425 1031.7225 3667.7126 2819840
-2030.8829 1027.4592 3652.5569 2951424
-2010.5873 1028.1481 3655.0059 2753792
-1995.8304 1031.7153 3667.687 3148288
-1953.7655 1021.0889 3629.9109 2819328
-1950.0411 1030.4871 3663.3206 3806208
-1925.9023 1029.1874 3658.7002 2885120
-1907.7036 1031.0685 3665.3875 2950656
-1892.9335 1034.8673 3678.8921 2688256
-1875.0803 1037.0497 3686.6504 2885376
-1857.4852 1039.4277 3695.1042 3214592
-1832.96 1037.9384 3689.8096 3280384
-1817.7462 1041.7493 3703.3572 3017216
-1805.5905 1047.4274 3723.5425 2754048
-1781.5115 1046.2438 3719.335 3016960
-1767.63 1051.0944 3736.5781 2556672
-1735.2426 1044.9241 3714.6431 2490880
-1720.4698 1049.3384 3730.3362 2556672
-1701.632 1051.3564 3737.51 2819840
-1680.2717 1051.8483 3739.2588 2819584
-1659.9303 1052.9999 3743.3523 2754048
-1640.5742 1054.816 3749.8088 2951424
-1618.7147 1055.0505 3750.6423 3017216
-1591.5807 1051.8057 3739.1069 2819840
-1572.8151 1054.0776 3747.1838 2753792
-1538.8197 1046.0619 3718.6882 2621952
-1518.5784 1047.2986 3723.085 2491392
-1508.0366 1055.36 3751.7424 2425344
-1478.334 1050.0526 3732.875 2622464
-1464.7632 1056.2163 3754.7869 2820096
-1438.4432 1053.2354 3744.1895 2491648
-1416.3535 1053.3068 3744.4436 2163200
-1405.9268 1062.1919 3776.0298 2491904
-1383.0233 1061.7859 3774.5862 2820864
-1356.3525 1058.4268 3762.6445 2228992
-1334.1725 1058.5179 3762.969 2425856
-1312.4985 1059.0208 3764.7563 2228480
-1288.6549 1057.7601 3760.2747 1900544
-1265.0105 1056.6215 3756.2268 2360320
-1242.2251 1056.1722 3754.6299 2557696
-1222.136 1058.041 3761.2734 2426112
-1200.9391 1059.0024 3764.6909 2425856
-1177.7408 1058.2018 3761.845 2755072
-1152.5433 1055.5394 3752.3804 2426112
-1128.1852 1053.5562 3745.3298 2294528
-1105.2788 1052.8762 3742.9128 2360064
-1085.8793 1055.5773 3752.5151 2360320
-1064.1145 1056.0442 3754.1748 2623488
-1047.4777 1061.7286 3774.3828 2294528
-1022.5422 1059.066 3764.9175 2689024
-1004.5869 1063.6754 3781.3035 2426112
-981.12604 1062.5328 3777.2415 2425856
-961.08557 1065.1276 3786.4653 2294784
-938.85858 1065.365 3787.3098 2557440
-918.32019 1067.5771 3795.1741 2491904
-897.7486 1069.861 3803.2927 2360320
-875.55731 1070.2825 3804.791 2491392
-853.21106 1070.5316 3805.6768 2556928
-830.47394 1070.2908 3804.8203 2556672
-808.96173 1071.6591 3809.6848 2556928
-788.35193 1074.3356 3819.1997 2688512
-763.65125 1071.4308 3808.873 2885632
-744.02942 1075.6919 3824.0212 2491136
-719.37567 1072.7172 3813.446 2688512
-693.87775 1068.2499 3797.5652 3280640
-675.63367 1075.0249 3821.6499 2885888
-654.66327 1077.7815 3831.4497 2557696
-630.12103 1074.6447 3820.2981 2228480
-609.42017 1078.0692 3832.4727 2755072
-586.03497 1076.8268 3828.0554 2820864
-560.75287 1071.8582 3810.3923 2754560
-543.26172 1081.9894 3846.4087 2426112
-523.35852 1087.9941 3867.7546 2491904
-499.69165 1086.3658 3861.9668 2163456
-481.30948 1096.6223 3898.4275 2557952
-459.45026 1099.5911 3908.9817 2491904
-431.76917 1088.2023 3868.4946 2097408
-412.07196 1096.7865 3899.0112 2294784
-386.60889 1090.1323 3875.3562 2294528
-364.47568 1092.62 3884.1995 2491904
-342.03949 1094.4735 3890.7888 2557440
-319.97931 1097.885 3902.9167 2952448
-294.68649 1089.8727 3874.4329 2228736
-272.94211 1094.7386 3891.7312 2162688
-251.39551 1101.3691 3915.3022 2820352
-228.51833 1102.9258 3920.8362 2557184
-206.01619 1106.85 3934.7864 2359808
-183.15242 1109.5847 3944.5085 2491648
-160.0417 1111.4049 3950.9788 2623232
-138.1925 1124.1102 3996.1458 2754816
-114.59019 1124.8608 3998.8137 2688512
-90.551994 1120.6083 3983.6965 2885888
-66.891861 1119.6855 3980.416 2688512
-43.337723 1120.4979 3983.3042 2754304
-19.627064 1114.3672 3961.5095 2622208
3.8441954 1113.708 3959.1663 2425600
27.195108 1109.2727 3943.3989 3214336
