# .PCD v0.7 - Point Cloud Data file format
VERSION 0.7
FIELDS x y z rgb
SIZE 4 4 4 4
TYPE F F F U
COUNT 1 1 1 1
WIDTH 1278
HEIGHT 1
VIEWPOINT 0 0 0 1 0 0 0
POINTS 1278
DATA ascii
-1313.5763 1061.4705 2962.2803 3346176
-1300.1687 1064.8655 2971.7549 3477760
-1279.4821 1062.3101 2964.6233 3083008
-1260.8364 1061.4017 2962.0884 3148544
-1240.6349 1059.1394 2955.7749 3543296
-1223.3982 1059.3796 2956.4453 2951168
-1206.774 1060.165 2958.637 3214080
-1195.8383 1066.0444 2975.0452 3279616
-1176.6453 1064.6288 2971.0942 3214080
-1159.6594 1065.1974 2972.6812 2819328
-1144.0294 1067.0482 2977.8462 3411456
-1124.4666 1065.2313 2972.7759 4003329
-1108.1864 1066.5157 2976.3606 3674369
-1083.6292 1059.7473 2957.4714 3345664
-1070.6241 1064.2395 2970.0081 3674626
-1056.2493 1067.4974 2979.1001 3674626
-1035.3077 1064.1168 2969.6655 3279616
-1016.8221 1063.1871 2967.071 3345664
-994.95587 1058.6276 2954.3467 3543040
-975.44684 1056.458 2948.2917 3542784
-965.22015 1064.4457 2970.5833 4003586
-947.53644 1064.3538 2970.3269 3740416
-930.8739 1065.4272 2973.3225 3608832
-909.54694 1061.1003 2961.2476 3608832
-895.05017 1064.7283 2971.3721 3543040
-882.78558 1071.2106 2989.4624 3871744
-857.05182 1061.2795 2961.7473 4134144
-841.77002 1064.1462 2969.7478 4265216
-823.22662 1062.9243 2966.3374 4725510
-805.52954 1062.7655 2965.8943 4396547
-787.91547 1062.7117 2965.7441 4528131
-770.11066 1062.3921 2964.8523 4133888
-753.18646 1063.3009 2967.3887 4331522
-733.14648 1059.7494 2957.4771 4988682
-716.07642 1060.4219 2959.354 3870208
-705.02332 1070.2625 2986.8162 4067328
-682.40424 1062.5997 2965.4316 4264960
-666.11267 1064.6453 2971.1401 4133376
-650.48871 1067.8977 2980.217 3869952
-631.43597 1065.5458 2973.6536 4593668
-610.17279 1059.2217 2956.0044 4593666
-591.53851 1057.222 2950.4243 4659715
-571.46362 1052.4478 2937.1001 4857095
-555.62683 1055.4237 2945.4055 4594435
-535.96094 1051.0834 2933.2927 4791558
-521.03058 1056.0503 2947.1541 4462593
-502.00928 1052.7825 2938.0344 4659971
-484.09137 1051.677 2934.9495 4528388
-466.1062 1050.3375 2931.2112 4791303
-447.28064 1046.9272 2921.6941 4857094
-427.69193 1041.3843 2906.2251 4659205
-410.34412 1041.0614 2905.324 4790791
-396.26291 1049.3607 2928.4851 4724997
-381.81055 1057.3922 2950.8989 4659204
-360.52017 1046.3485 2920.0791 4592899
-344.58374 1050.5137 2931.7026 4724482
-327.38504 1051.0684 2933.251 5316874
-309.33597 1048.8022 2926.9268 5514509
-287.4931 1032.6401 2881.8225 5120008
-273.5769 1044.7063 2915.4958 4790786
-257.2861 1048.7198 2926.6968 5251593
-240.0657 1049.2506 2928.1782 5382924
-219.44049 1033.8236 2885.1252 5185800
-204.70422 1045.8776 2918.7646 5251594
-186.93753 1043.2444 2911.416 4593665
-166.45819 1023.3983 2856.0308 5053960
-152.23096 1041.8485 2907.5205 5447947
-132.9313 1025.8628 2862.9089 5579789
-116.53577 1030.8905 2876.9399 5580044
-99.657463 1032.6387 2881.8186 5646092
-82.114838 1026.803 2865.5327 5514508
-65.610085 1034.2859 2886.4153 5118981
-47.99646 1023.4017 2856.0408 4790530
-31.204737 1027.7314 2868.1238 5250567
-14.304306 1034.5559 2887.1687 5447946
2.8007617 1033.6088 2884.5259 5184775
19.841248 1030.9335 2877.0598 5579533
37.42421 1045.8915 2918.8035 4856324
53.496822 1022.5255 2853.5952 4724483
70.498245 1023.8722 2857.3535 5251081
87.130539 1020.3745 2847.5923 5185288
104.15812 1021.8898 2851.821 4856323
121.01709 1021.5588 2850.8975 5119496
138.85648 1028.5712 2870.467 5251079
155.49113 1026.103 2863.5793 5448458
172.04909 1023.6641 2856.7729 5645068
188.70154 1022.1742 2852.6147 5052932
206.27724 1025.5189 2861.9492 5250310
221.73918 1018.6453 2842.7668 5052932
240.22247 1025.6421 2862.293 5645325
256.91858 1024.5889 2859.3535 5250566
271.38071 1015.3079 2833.4529 4790018
287.90231 1014.3645 2830.8201 4066560
304.34039 1013.247 2827.7014 4724227
318.38049 1004.6791 2803.7905 4921606
337.03488 1010.7996 2820.8713 5250310
352.0813 1006.0323 2807.5674 5184774
364.46942 994.44226 2775.2227 5184517
383.54489 1001.3114 2794.3923 5053189
399.62384 1000.1128 2791.0474 6171668
417.12772 1002.4338 2797.5247 4921350
428.80841 991.11804 2765.9456 4461059
446.27496 993.51617 2772.6379 5447946
470.58377 1010.4357 2819.856 5579275
485.64865 1007.027 2810.343 5184519
499.50595 1001.4232 2794.7043 5250567
512.09064 993.70966 2773.178 4724481
529.59955 995.73413 2778.8276 4592897
544.12775 992.20111 2768.968 4790274
561.44385 993.80994 2773.4578 4658434
577.46167 993.09442 2771.4612 5316617
590.66791 987.71704 2756.4541 4922116
608.55853 990.25134 2763.5269 5316617
623.26379 987.60559 2756.1431 4921861
642.69305 992.38922 2769.4929 5184774
656.16913 987.97119 2757.1633 4395265
669.58429 983.67834 2745.1833 5645325
686.06726 983.98901 2746.0503 5316616
702.33868 983.98901 2746.0503 5316874
717.67633 982.71033 2742.4819 4921860
734.16937 983.0354 2743.3889 4790274
752.32245 985.52094 2750.3254 4987910
769.56006 986.72723 2753.6919 4855811
785.01666 985.64722 2750.678 4658177
796.44061 979.651 2733.9441 4856322
811.21588 977.93384 2729.1519 4724995
828.42883 979.16486 2732.5874 5320214
839.3446 973.04865 2715.5186 5453086
842.47229 958.30353 2674.3689 5257764
853.56641 952.99725 2659.5605 5193000
865.76459 949.09381 2648.667 5061931
887.91467 956.04474 2668.0654 4799017
904.5658 956.9353 2670.5505 4667943
916.05524 952.42847 2657.9734 4536358
926.89038 947.40533 2643.9551 4930345
942.51892 947.36707 2643.8484 4996135
956.3866 945.58917 2638.8867 5389607
976.73022 950.1684 2651.666 5716772
998.00671 955.49561 2666.533 5780507
1013.2128 954.93579 2664.9705 5053701
1028.912 954.85052 2664.7324 4921859
1048.6945 958.5 2674.9172 5381896
1074.6029 967.5564 2700.1914 5184774
1079.9274 958.08569 2673.761 5513482
1092.8789 955.55737 2666.7053 4921602
1102.1952 949.96808 2651.1069 5908240
1123.3037 954.55646 2663.9119 5447689
1128.493 945.67761 2639.1333 4724229
1135.2184 938.31097 2618.575 4395776
1152.3372 939.61768 2622.2217 4922115
1178.6283 948.26941 2646.3665 4856324
1188.1191 943.35468 2632.6506 4856325
1210.0371 948.30646 2646.4697 4264449
1229.215 951.0116 2654.019 4790531
1238.3619 945.98584 2639.9934 4987653
1259.5597 950.17603 2651.6873 5119495
1244.9082 927.55273 2588.5518 5251338
1273.0363 936.96619 2614.822 5383180
1273.8151 926.26599 2584.9607 5251338
1292.2832 928.53021 2591.2795 4988166
1306.9457 928.03882 2589.9082 4329984
1321.8871 927.75476 2589.1155 4593155
1327.1343 920.7514 2569.571 5251594
1356.0448 930.13806 2595.7666 5448974
1354.7913 918.85602 2564.2815 5317388
1372.3265 920.42603 2568.6631 5382667
1383.1952 917.53937 2560.6072 4921861
1420.2362 931.88831 2600.6511 4461568
1438.3805 933.66321 2605.6045 4658946
1436.0582 922.25653 2573.7715 5053446
1442.1644 916.44556 2557.5547 4856324
1463.4825 920.32159 2568.3716 4724484
1485.9071 924.80652 2580.8877 5119496
1503.7888 926.40137 2585.3386 5711632
1517.9062 925.66846 2583.2932 4198402
1538.8098 929.04742 2592.7229 4593664
1549.5829 926.30365 2585.0659 4198656
1571.0812 929.96222 2595.2759 5185548
1569.1454 919.81305 2566.9524 4790790
1596.4871 926.85602 2586.6074 4988169
1596.8223 918.23529 2562.5493 5514513
1618.1764 921.74994 2572.3577 4329985
1632.5767 921.27484 2571.0317 5317133
1652.0273 923.63208 2577.6101 4724998
1673.517 927.07562 2587.2202 4856327
1675.4365 919.71399 2566.6758 4658949
1700.7045 925.18634 2581.9478 4461569
1708.9299 921.37256 2571.3044 4396032
1718.3839 918.28265 2562.6814 4922375
1727.641 915.1427 2553.9187 4987913
1748.4021 918.09808 2562.1663 4790534
1754.7245 913.48602 2549.2952 4593411
1767.4884 912.27734 2545.9221 4461569
1789.4298 915.78589 2555.7136 4395778
1802.2483 914.6059 2552.4207 5120268
1782.7552 897.18457 2503.8022 4067329
1807.9459 902.35266 2518.2251 4462339
1821.0463 901.45117 2515.7092 4396546
1835.2882 901.12482 2514.7983 4133120
1836.7749 894.59131 2496.5652 4330753
1871.6255 904.28223 2523.6099 4659716
1908.2056 914.64832 2552.5391 4462081
1909.1981 907.92773 2533.7834 4725510
1912.5214 902.41156 2518.3894 4396545
1929.1407 903.20612 2520.6067 4329984
1960.1603 910.67859 2541.4604 4593411
1982.8663 914.20422 2551.2996 4593411
1971.5251 902.09766 2517.5134 5580049
2002.2327 909.26843 2537.5251 4527362
2006.2141 904.28583 2523.6199 5119499
2021.7186 904.53229 2524.3079 4724740
2032.188 902.539 2518.7451 4856583
2043.7338 901.04932 2514.5879 4856583
2049.9048 897.22882 2503.9258 4724997
2058.4971 894.51526 2496.353 4856583
2038.465 879.49048 2454.4229 5843991
2084.7112 893.07159 2492.3242 5186061
2072.3 881.51031 2460.0596 5185804
2095.605 885.19702 2470.3484 4857097
2100.2561 881.00787 2458.6575 4988427
2119.197 882.82947 2463.741 3672576
2134.4392 883.09564 2464.4839 3804928
2138.8601 878.91156 2452.8071 4134662
2156.6978 880.25995 2456.5703 3806470
2170.0063 879.75421 2455.1587 2425344
2165.8257 872.2121 2434.1106 2163200
2189.7854 876.02704 2444.7573 2294784
2198.8792 873.88397 2438.7766 1638400
2214.9224 874.51282 2440.5315 1572864
2230.6125 874.995 2441.877 1441792
2239.9226 872.98425 2436.2656 1179648
2255.1296 873.2829 2437.0991 1114112
2269.9375 873.42407 2437.4932 1114112
2290.4238 875.73474 2443.9414 983040
2320.2778 881.5755 2460.2415 1114112
2307.6831 871.3158 2431.6094 1114112
2338.7644 877.57196 2449.0688 983040
0 0 0 0
0 0 0 0
0 0 0 0
0 0 0 0
0 0 0 0
0 0 0 0
0 0 0 0
0 0 0 0
-2473.0757 1014.63 2785.4995 2689024
-2470.939 1020.5645 2801.7917 2886656
-2442.6387 1015.7 2788.437 1966592
-2420.3257 1013.2758 2781.7817 2557952
-2401.0378 1012.0937 2778.5364 2557952
-2380.2024 1010.2382 2773.4424 2623744
-2364.54 1010.5679 2774.3477 2557696
-2352.8076 1012.5936 2779.9089 2623744
-2330.3772 1010.0112 2772.8193 2426368
-2313.8567 1009.9716 2772.7107 2623488
-2294.7957 1008.8147 2769.5347 2689280
-2274.9771 1007.3058 2765.3921 2755328
-2269.5273 1012.1833 2778.7825 2426112
-2256.6917 1013.8139 2783.259 2755328
-2208.2539 999.35663 2743.5691 2360576
-2219.8999 1012.0778 2778.4929 2821120
-2212.5476 1016.2629 2789.9824 2228992
-2187.8904 1012.5026 2779.6592 2886656
-2181.4158 1017.1636 2792.4551 2952448
-2157.073 1013.5005 2782.3987 2820864
-2142.9114 1014.6015 2785.4211 3083776
-2126.7249 1014.7532 2785.8379 3149824
-2117.9651 1018.4788 2796.0657 2557440
-2106.1907 1020.802 2802.4436 2688768
-2092.4229 1022.1882 2806.2495 3346176
-2081.7437 1025.1178 2814.292 3017216
-2068.6411 1026.8915 2819.1614 2885376
-2057.8154 1029.8337 2827.2388 2951424
-2033.1758 1025.8542 2816.3137 2885632
-2018.5292 1026.8927 2819.1646 3280640
-2003.8433 1027.9282 2822.0076 3280640
-1988.3214 1028.5488 2823.7112 2754560
-1985.0206 1035.5554 2842.9468 3675910
-1975.4818 1039.4 2853.5012 2163200
-1944.8749 1032.1301 2833.5432 2491648
-1931.3148 1033.859 2838.2898 2557440
-1914.2915 1033.7483 2837.9854 2886400
-1906.4928 1038.661 2851.4724 3346688
-1886.7245 1037.0822 2847.1382 3478274
-1867.7379 1035.9086 2843.916 2820096
-1852.6105 1036.8733 2846.5649 2820608
-1831.0222 1034.2067 2839.2439 2952192
-1821.949 1038.625 2851.3735 1966592
-1811.7721 1042.4907 2861.9866 2952192
-1790.1427 1039.7777 2854.5383 2820864
-1770.7361 1038.3163 2850.5261 1966080
-1750.1412 1036.1232 2844.5056 2820864
-1738.3516 1039.151 2852.8179 2557696
-1716.5646 1036.2036 2844.7261 2491904
-1702.2501 1037.7531 2848.98 2952448
-1692.1703 1041.941 2860.4773 2688768
-1676.525 1042.7522 2862.7043 2360064
-1659.9926 1043.0225 2863.4465 2294784
-1662.2129 1055.203 2896.886 3214592
-1638.9553 1051.2952 2886.1577 2754304
-1638.4587 1062.0586 2915.7068 2097408
-1606.0001 1052.1127 2888.4021 3280640
-1594.9492 1056.1282 2899.426 3149056
-1588.1239 1063.0596 2918.4548 3280384
-1559.4513 1055.3585 2897.3127 3017472
-1544.6343 1056.967 2901.7288 3214848
-1528.5287 1057.7202 2903.7964 2951680
-1507.4546 1055.0131 2896.3645 2688512
-1493.8181 1057.5089 2903.2166 2688512
-1475.7294 1056.8744 2901.4746 2425344
-1463.6342 1060.5679 2911.6145 2754048
-1444.4513 1059.1525 2907.7285 2556672
-1418.0637 1052.3562 2889.0706 3083264
-1409.8853 1059.0719 2907.5076 3214592
-1387.9108 1055.4626 2897.5986 3411456
-1382.08 1064.1932 2921.5671 2819328
-1364.2158 1063.7622 2920.384 3214080
-1352.729 1068.3568 2932.9978 3082240
-1336.0275 1068.899 2934.4861 3345664
-1319.6121 1069.6875 2936.6506 3411456
-1304.6584 1071.6976 2942.1694 3608832
-1286.1211 1070.7787 2939.6465 3805952
-1267.5826 1069.8336 2937.0518 4003328
-1244.7699 1065.2043 2924.343 3477248
-1225.7433 1063.7301 2920.2959 3411456
-1215.105 1069.5977 2936.4041 3477248
-1196.8931 1068.8719 2934.4119 3477248
-1185.0844 1073.9275 2948.291 3477504
-1167.7758 1074.0759 2948.6982 3806208
-1149.7408 1073.5504 2947.2559 3674624
-1130.1088 1071.4945 2941.6116 3806208
-1113.0804 1071.8816 2942.6741 4003329
-1093.0231 1069.3176 2935.6353 3806208
-1078.0366 1071.7118 2942.208 3739904
-1064.6707 1075.8223 2953.4927 3739904
-1038.4286 1066.8416 2928.8376 4068866
-1021.6475 1067.4407 2930.4824 4003074
-1002.4853 1065.5298 2925.2363 3805440
-988.71503 1069.3833 2935.8157 3608064
-970.72272 1068.7267 2934.0132 3871232
-953.72589 1069.1621 2935.2083 4002816
-936.16205 1068.9662 2934.6707 4331778
-922.96045 1073.8383 2948.0459 4068608
-901.69153 1069.3311 2935.6724 4002816
-887.17847 1072.816 2945.2397 3937024
-868.00104 1070.6875 2939.396 4002560
-848.36169 1067.8903 2931.7166 4199681
-834.69806 1072.6552 2944.7981 4397315
-817.55499 1073.0569 2945.9009 4264704
-796.97375 1068.865 2934.3926 4462340
-779.5863 1068.865 2934.3926 4725509
-760.93127 1067.0874 2929.5127 4791301
-740.97559 1063.3604 2919.2805 4330752
-720.78308 1059.1071 2907.6038 4462339
-713.39325 1073.9182 2948.2654 4330752
-691.85681 1067.6425 2931.0364 4330752
-672.76355 1064.9109 2923.5374 7028264
-651.18689 1058 2904.5647 4857093
-646.3866 1078.7111 2961.4233 4462339
-617.677 1059.5637 2908.8577 4856837
-603.64575 1065.2191 2924.3838 4724995
-584.39832 1061.7323 2914.811 4922630
-565.09497 1057.9282 2904.3677 4856837
-547.98352 1058.1177 2904.8877 4856837
-529.89581 1056.3732 2900.0986 4922630
-505.79044 1042.113 2860.9497 4396289
-489.44769 1043.4126 2864.5173 4527876
-480.01849 1060.0732 2910.2563 4791301
-455.15277 1042.6151 2862.3281 4725252
-441.88705 1051.4064 2886.4626 5185802
-422.81424 1046.5317 2873.0806 4264704
-402.93866 1039.1779 2852.8916 5580559
-388.84119 1046.7344 2873.6367 4461825
-370.1059 1041.9264 2860.4373 5251338
-353.20892 1042.0807 2860.8606 5118984
-341.72055 1059.012 2907.3428 5382667
-320.43466 1045.7659 2870.978 4921860
-300.12738 1034.4076 2839.7954 4592898
-288.24509 1052.4617 2889.3601 4659458
-268.17242 1041.0024 2857.9006 4791045
-251.16566 1040.7018 2857.0752 5053960
-236.48643 1050.6989 2884.5205 4527872
-219.0083 1048.8494 2879.4431 5383180
-200.44852 1041.0695 2858.0847 6106646
-183.94131 1043.4982 2864.7522 5185801
-165.81602 1036.3079 2845.0125 4396289
-147.16336 1023.8214 2810.7327 5382410
-131.75829 1033.6245 2837.6458 4461571
-114.94408 1033.6245 2837.6458 4724484
-98.518066 1037.7131 2848.8704 5777424
-80.369354 1021.5952 2804.6211 4921862
-63.455837 1016.8676 2791.6426 4790017
-47.18594 1022.7569 2807.8105 4658176
-30.676718 1027.0485 2819.5923 4921861
-13.849081 1018.1949 2795.2864 4658945
2.7395124 1027.7233 2821.4451 4527360
19.478954 1028.8456 2824.5259 5119495
36.249519 1029.8147 2827.1865 4461568
52.927254 1028.3676 2823.2136 5842704
69.472458 1025.6588 2815.7773 5579532
86.260353 1026.8884 2819.1528 5382153
102.02384 1017.5024 2793.3853 4856323
117.67504 1009.7731 2772.1658 5185288
134.03064 1009.2416 2770.7065 4724739
152.52663 1023.1843 2808.9839 5053702
167.96239 1015.8744 2788.9158 4987652
184.66362 1016.8424 2791.5732 4922116
203.39572 1027.9148 2821.9707 5053445
218.93271 1022.3842 2806.7871 5842961
236.8945 1028.1584 2822.6396 5316617
250.83479 1016.8683 2791.6445 5448460
262.86365 999.70563 2744.5271 5053191
280.94458 1006.2188 2762.408 4921860
298.03146 1008.6504 2769.0835 4724481
314.3273 1008.2909 2768.0964 5119239
330.14301 1006.5032 2763.1887 5250825
346.10605 1005.3124 2759.9197 5513738
361.53976 1002.761 2752.915 5382153
378.99768 1005.8018 2761.2629 5513482
394.47717 1003.5577 2755.1023 5447946
408.56403 998.08984 2740.0911 4592898
423.85666 995.87299 2734.0051 4921601
441.1792 998.41321 2740.979 4329984
460.36426 1004.8384 2758.6182 3869184
473.09341 997.2146 2737.6885 4329728
487.22757 992.9599 2726.0078 4855298
502.58792 991.39697 2721.717 4922117
520.67725 995.14691 2732.012 4987909
533.88916 989.62994 2716.866 5448459
554.4411 997.64331 2738.8652 5251080
564.42859 986.73206 2708.9102 5053703
582.8139 990.69946 2719.802 5580045
601.74792 995.3609 2732.5994 4592897
614.68494 990.11829 2718.2065 4987909
627.31458 984.66083 2703.2241 4593410
639.31616 978.51398 2686.3489 4856322
655.21686 978.48853 2686.2791 5514253
668.59985 974.79376 2676.1355 5119238
685.57843 976.39081 2680.52 4658945
707.81427 985.23328 2704.7957 5382666
717.31274 976.34723 2680.4004 4856325
733.83618 977.20074 2682.7437 4264192
754.14014 982.94568 2698.5154 5120009
762.08051 972.67188 2670.3103 4791814
782.13428 977.96246 2684.8347 5187342
796.42322 975.97742 2679.3853 4794126
809.23859 972.2995 2669.2881 4335632
820.90576 967.40961 2655.8635 5193772
835.35101 965.91583 2651.7627 4866607
849.94531 964.64648 2648.2781 4866095
865.36871 964.34698 2647.4558 4866353
880.48254 963.71942 2645.7329 4800303
886.91473 953.77765 2618.4392 4471082
908.64929 960.35065 2636.4846 4470826
911.43445 947.01257 2599.8669 4207652
926.32703 946.48865 2598.4287 4470823
940.68213 945.44177 2595.5547 4799787
959.73895 949.07812 2605.5376 5062445
974.57434 948.49078 2603.925 5259305
984.35986 943.08368 2589.0808 5849128
1023.1351 965.19043 2649.7712 5648150
1036.6881 963.1947 2644.2922 5185545
1044.8771 956.34888 2625.4983 5447689
1065.3374 960.77081 2637.6379 4987395
1076.7872 957.05621 2627.4402 4658176
1072.5679 939.71924 2579.8442 5513738
1101.1964 951.24432 2611.4846 4921347
1120.9969 954.92993 2621.6028 5250567
1119.6548 940.75024 2582.6748 4527360
1130.0604 936.69055 2571.5295 4658689
1146.7567 937.88367 2574.8052 5448461
1169.6754 944.06793 2591.783 5119496
1186.5182 945.25134 2595.0317 5053703
1197.0857 941.46899 2584.6479 5053447
1213.823 942.57336 2587.6799 5053703
1222.8779 937.75916 2574.4631 4461570
1224.4618 927.40479 2546.0371 4264193
1242.3721 929.51764 2551.8376 5316874
1257.4834 929.5108 2551.8188 5250824
1272.4672 929.41089 2551.5444 6040596
1282.0892 925.44312 2540.6516 4790276
1300.4482 927.80084 2547.1243 5645325
1297.7744 915.27069 2512.7249 5842961
1352.4191 942.99091 2588.8262 4987657
1348.8928 929.9837 2553.1172 4987910
1357.1105 925.27222 2540.1824 5185289
1372.2429 925.32672 2540.332 5382668
1390.2103 927.271 2545.6697 5580047
1392.5494 918.86127 2522.5823 4922117
1411.0215 921.16235 2528.8994 5448460
1437.1661 928.37134 2548.6907 4856324
1447.3574 925.23212 2540.0723 4856324
1465.0459 926.90082 2544.6536 4461569
1480.1188 926.89758 2544.6445 4987653
1497.5184 928.33685 2548.5957 4790276
1516.4042 930.6593 2554.9717 4725251
1527.6068 928.26727 2548.4048 5185802
1540.7811 927.10834 2545.2231 4724741
1550.7671 924.07196 2536.8872 4198656
1557.9618 919.44659 2524.1892 4527618
1560.5923 912.24133 2504.4082 4395777
1577.3677 913.36212 2507.4854 4461826
1593.6512 914.18005 2509.7307 4659204
1611.6705 915.96924 2514.6426 4396033
1629.7349 917.75104 2519.5342 4396032
1646.2491 918.6355 2521.9624 4593412
1661.6637 918.896 2522.6775 4658948
1669.5884 915.04681 2512.1101 4001280
1679.3755 912.27734 2504.5071 4329985
1692.7839 911.50629 2502.3904 4461825
1715.0166 915.45911 2513.2419 4658948
1731.9871 916.55896 2516.2617 4461827
1741.0021 913.466 2507.7705 4790535
1753.2385 912.1015 2504.0244 4396291
1771.8258 914.03589 2509.335 4264961
1781.9618 911.61469 2502.688 4264961
1784.1639 905.20813 2485.0999 4133120
1792.8903 902.18951 2476.8127 3804928
1817.7452 907.27002 2490.7603 3804160
1827.3464 904.71649 2483.75 4725511
1834.8387 901.16803 2474.0083 6107162
1854.6244 903.66577 2480.8655 6566942
1875.5463 906.67346 2489.1226 6106649
1900.441 911.53979 2502.4824 4593411
1912.9868 910.45349 2499.5 4527362
1940.8497 916.61786 2516.4233 4593156
1941.611 909.98621 2498.2173 4264961
1953.3092 908.54218 2494.2529 4395777
1966.915 908.00037 2492.7654 4856583
1985.3334 909.67181 2497.354 4264448
1983.7607 902.22638 2476.9138 4724998
1999.559 902.73273 2478.304 4658948
2011.8964 901.6806 2475.4155 4658949
2010.042 894.32941 2455.2339 5909271
2011.8036 888.68109 2439.7275 5185292
2016.2444 884.28839 2427.6682 5646868
2022.6727 880.82355 2418.1558 5646355
2028.5984 877.19006 2408.1807 4593924
2050.0149 880.25885 2416.6057 4923916
2067.5754 881.64105 2420.4001 5054991
2075.3584 878.86353 2412.7749 4331783
2094.0928 880.72986 2417.8987 4266505
2115.9985 883.89569 2426.5898 2951424
2118.958 879.15796 2413.5833 2162688
2126.5566 876.39551 2405.9995 1966080
2140.6448 876.3266 2405.8103 2031872
2150.7812 874.65161 2401.2119 1966592
2156.1973 871.09155 2391.4382 1441792
2184.0298 876.57501 2406.4922 1245184
2196.575 875.89148 2404.6157 1376256
2214.2302 877.24115 2408.321 1507328
2235.8218 880.12311 2416.2332 1376256
2241.0886 876.58325 2406.5149 1114112
2258.1421 877.66919 2409.4961 1048576
2284.9773 882.51941 2422.8115 1114112
2298.2646 882.10919 2421.6853 1245184
2305.9197 879.5556 2414.675 1048576
0 0 0 0
0 0 0 0
0 0 0 0
0 0 0 0
0 0 0 0
0 0 0 0
0 0 0 0
0 0 0 0
-2459.7456 1025.5773 2770.4854 2820608
-2430.7314 1020.2894 2756.2004 3149568
-2422.562 1023.7386 2765.5183 3084288
-2404.6377 1023.0844 2763.751 2886656
-2384.4033 1021.4316 2759.2864 3017984
-2367.8684 1021.3519 2759.0708 2689536
-2345.4148 1018.7001 2751.9075 2360320
-2339.6377 1023.3054 2764.3481 2557952
-2311.4851 1018.1199 2750.3401 2097408
-2304.7358 1022.3552 2761.7812 1966848
-2287.4006 1021.9216 2760.6099 2032384
-2267.9592 1020.5339 2756.8613 2229760
-2248.3284 1019.0404 2752.8267 2097920
-2226.823 1016.6691 2746.4209 2689536
-2212.9207 1017.7598 2749.3672 3018496
-2208.8132 1023.4048 2764.6167 2952192
-2191.9387 1023.1746 2763.9946 2755072
-2164.2292 1017.8453 2749.5981 3084032
-2166.8052 1026.7865 2773.7517 2689280
-2144.8218 1024.1376 2766.5959 2688768
-2135.4431 1027.5126 2775.7134 2820096
-2118.6943 1027.3665 2775.3186 2754304
-2111.5198 1031.8969 2787.5569 2885632
-2095.8081 1032.2937 2788.6289 2885632
-2079.0408 1032.1727 2788.3022 2951424
-2068.4873 1035.1595 2796.3708 3346176
-2062.3623 1040.4287 2810.6047 3609601
-2028.0454 1031.4454 2786.3376 2820096
-2020.499 1036.0417 2798.7539 3478016
-1989.463 1028.5698 2778.5693 2951680
-1982.4431 1033.4933 2791.8696 3346176
-1963.1562 1032.0508 2787.9729 2951424
-1959.1 1038.6587 2805.8232 2622720
-1929.9984 1031.9878 2787.8025 2754304
-1928.8186 1040.2604 2810.1501 2951680
-1909.9695 1039.0647 2806.9202 2557184
-1904.005 1044.9192 2822.7354 2951680
-1879.5096 1040.6174 2811.1147 3017472
-1861.5808 1039.907 2809.1953 3477760
-1843.5598 1039.1317 2807.1011 3149056
-1837.7246 1045.2734 2823.6924 2754304
-1825.7699 1048.0154 2831.0996 2689280
-1805.8461 1046.1915 2826.1724 2426112
-1787.6803 1045.3613 2823.9299 2754816
-1783.9799 1053.0541 2844.7112 2491904
-1767.002 1052.9817 2844.5151 2294528
-1744.7625 1049.7419 2835.7634 2623232
-1723.0885 1046.7827 2827.7695 2623488
-1704.8817 1045.8926 2825.365 3083520
-1696.3414 1050.9736 2839.0906 2886400
-1679.5186 1050.9736 2839.0906 2425600
-1668.5753 1054.6901 2849.1301 2360320
-1653.0917 1055.583 2851.5425 2163456
-1640.5466 1058.3904 2859.1262 3017472
-1632.0989 1063.9272 2874.0835 2885888
-1612.3749 1062.1527 2869.2898 2556672
-1590.8375 1059.1328 2861.1321 3280640
-1588.9722 1069.2863 2888.5603 2951424
-1570.9104 1068.6428 2886.8223 2885888
-1554.0071 1068.7819 2887.198 3346432
-1539.2168 1070.3936 2891.5515 2885888
-1517.5076 1067.1758 2882.8591 2688512
-1505.5812 1070.8427 2892.7649 2754304
-1488.7794 1071.0865 2893.4238 2754304
-1464.8719 1066.1646 2880.1274 3280384
-1449.5267 1067.4318 2883.5505 2951424
-1436.2899 1070.3003 2891.2996 2951424
-1412.1479 1065.0135 2877.0181 2951168
-1398.3662 1067.5066 2883.7527 3148800
-1385.3063 1070.6191 2892.1611 4003585
-1367.4595 1070.0638 2890.6609 3543296
-1355.2797 1073.9852 2901.2542 3543040
-1339.7314 1075.304 2904.8164 3213824
-1322.0762 1074.9437 2903.8433 3345408
-1305.1208 1075.1505 2904.4021 3476992
-1286.2155 1073.735 2900.5781 3213824
-1274.1841 1078.0974 2912.3625 3476992
-1254.1174 1075.6874 2905.8523 3740160
-1234.9348 1073.9791 2901.2375 3739904
-1221.7269 1077.4918 2910.7271 3805952
-1201.4333 1074.7667 2903.3652 4134659
-1185.7418 1076.139 2907.0725 3805440
-1170.2938 1077.7761 2911.4949 4002817
-1158.2307 1082.6261 2924.5964 3937024
-1133.2861 1075.3999 2905.0757 3805440
-1122.524 1081.6165 2921.8689 3673856
-1099.9331 1076.4514 2907.9163 3871232
-1083.8519 1077.5942 2911.0034 4331524
-1070.3289 1081.3584 2921.1719 4002560
-1049.4762 1077.7195 2911.3418 3871232
-1032.41 1077.9122 2911.8625 4002816
-1007.2691 1069.5377 2889.2397 4134146
-993.64032 1073.3087 2899.4268 4331269
-969.9964 1066.2041 2880.2341 4792073
-957.03113 1070.7928 2892.6304 4265472
-941.36456 1072.4714 2897.1648 4331264
-919.70221 1067.2548 2883.0725 4528901
-912.68384 1079.1556 2915.2214 4660231
-892.17047 1075.2513 2904.6743 4462851
-876.31909 1076.9226 2909.1892 3936512
-859.41144 1077.3369 2910.3083 3870976
-842.60767 1077.9009 2911.832 4593924
-825.71631 1078.3741 2913.1106 4791046
-800.78516 1068.1437 2885.4739 4264704
-786.47644 1071.9448 2895.7424 4199168
-765.11853 1066.0935 2879.9355 4199168
-744.17957 1060.5721 2865.0203 4593666
-735.98737 1073.3833 2899.6279 4330752
-713.32861 1065.2042 2877.533 4659202
-696.27814 1065.2042 2877.533 4856837
-675.54901 1059.4352 2861.949 5054217
-664.09308 1068.2864 2885.8594 4396032
-646.6275 1067.6825 2884.228 4330497
-626.24487 1062.0986 2869.1438 4856581
-609.02594 1061.7185 2868.1169 4593667
-590.87866 1059.6515 2862.5332 5120008
-572.34558 1056.7502 2854.6956 5053959
-555.43951 1056.7675 2854.7424 4725251
-536.4483 1052.6942 2843.739 5054218
-518.54895 1050.569 2837.9978 4988423
-500.73453 1048.4789 2832.3516 5317388
-485.64081 1052.1384 2842.2373 4922630
-464.58911 1042.6891 2816.7112 4922630
-450.81622 1049.4803 2835.0569 4922629
-431.13922 1042.5208 2816.2563 4791301
-416.34705 1047.2882 2829.135 5119496
-400.09479 1048.6288 2832.7563 5119496
-382.02982 1045.1278 2823.2988 4988166
-363.88522 1041.0782 2812.3596 5119752
-349.74008 1048.6317 2832.7644 5053702
-333.30908 1049.7474 2835.7783 5448460
-318.09802 1055.0278 2850.0427 5185288
-298.50781 1045.5616 2824.4709 4658689
-283.46356 1051.8397 2841.4304 4724740
-265.75204 1048.3883 2832.1067 5053703
-249.85701 1052.1205 2842.189 5448459
-233.5582 1054.5692 2848.8037 5053444
-216.97946 1056.0367 2852.7683 4987650
-196.96069 1039.5955 2808.354 5580044
-182.10962 1049.9127 2836.2249 5711886
-163.85381 1040.7029 2811.3455 5317127
-144.86517 1024.2273 2766.8384 5447687
-128.17276 1021.8533 2760.4253 4987395
-111.59002 1019.7869 2754.8433 5053701
-96.844337 1036.6774 2800.4709 4987908
-79.840675 1031.3842 2786.1721 5843218
-62.782932 1022.4507 2762.0393 4461314
-46.858055 1032.1718 2788.2996 6303255
-30.080721 1023.4772 2764.8123 5053703
-13.634429 1018.72 2751.9612 5053702
2.6640182 1015.6593 2743.6929 4658946
19.059208 1023.051 2763.6609 5250566
35.642609 1029.0448 2779.8523 4987137
51.94173 1025.6361 2770.6443 5118982
67.902016 1018.7811 2752.1262 4658945
83.687744 1012.4692 2735.0752 4658945
100.44433 1018.0453 2750.1387 5448203
116.7132 1017.8116 2749.5071 5119495
133.34148 1020.3854 2756.46 5382666
148.98947 1015.7147 2743.8425 5316874
165.0276 1014.3609 2740.1855 4658946
183.10071 1024.6375 2767.9465 4987909
199.37442 1023.9827 2766.1777 5119238
216.67273 1028.2899 2777.8132 6237976
228.73897 1008.9117 2725.4651 5645582
244.75864 1008.377 2724.0205 5053703
259.12747 1001.5278 2705.5186 4592641
275.46786 1002.653 2708.5576 5250567
294.28568 1012.175 2734.2805 5382412
310.48529 1012.1682 2734.2622 4132608
326.0564 1010.2148 2728.9851 4264192
340.67126 1005.6232 2716.5815 5447688
356.97006 1006.1924 2718.1194 5710861
369.65213 996.95825 2693.1741 5908495
387.5134 1001.8785 2706.4658 5645323
403.77771 1002.4431 2707.991 5513737
416.42853 994.33636 2686.0913 5513482
435.09076 1000.652 2703.1523 4658181
453.03653 1004.9299 2714.7085 4855811
464.30673 994.6142 2686.842 4855810
480.5863 995.35767 2688.8503 4526593
493.64673 989.6001 2673.2969 4527362
505.8494 982.53442 2654.2097 4593156
523.95081 987.00671 2666.2913 5250824
538.68262 985.05554 2661.0203 5251081
558.23956 991.78778 2679.2068 4724739
574.3092 992.12347 2680.1135 5514253
587.30182 987.26837 2666.998 4922117
604.22675 989.10486 2671.9592 5448202
617.99237 985.80792 2663.0527 6632735
628.2572 977.22992 2639.8801 5119494
643.51978 976.6535 2638.323 5711375
661.46851 980.08447 2647.5916 5251081
681.45929 986.31207 2664.4146 5251081
691.37262 978.00226 2641.9666 5382666
711.13367 983.68237 2657.3108 5514253
724.77734 980.83777 2649.6265 4790531
743.83313 985.28271 2661.634 4724994
753.49213 977.35455 2640.2168 4527619
767.84222 975.70996 2635.7742 4792329
786.23895 979.17059 2645.1226 4398599
795.87079 971.79346 2625.1941 4136971
817.14667 978.64459 2643.7019 5325098
827.11993 971.9563 2625.634 4997937
844.24097 973.75909 2630.5042 5063731
857.4256 971.0387 2623.1553 5063476
872.53674 970.55811 2621.8569 4866867
878.72308 960.34039 2594.2549 4800817
890.54388 956.526 2583.9509 4866098
902.71234 953.20776 2574.9871 4997170
921.17181 956.53241 2583.968 4668203
936.91711 956.97589 2585.166 4931118
949.80902 954.5376 2578.5793 4996911
966.15796 955.5957 2581.4377 4996397
979.30463 953.50293 2575.7844 5653808
998.31219 957.09338 2585.4834 6244144
1005.1375 949.07251 2563.8159 5186830
1030.9884 958.98724 2590.5996 4856833
1046.3387 958.98724 2590.5996 5579275
1058.7377 956.32141 2583.3982 5053188
1062.9182 946.41376 2556.6338 5908240
1074.8551 943.59399 2549.0164 5250310
1109.5311 960.53778 2594.7883 4526848
1104.6389 943.23181 2548.0381 5711631
1117.2975 941.17682 2542.4866 4790529
1131.4401 940.40991 2540.415 5382667
1154.6227 947.07831 2558.429 5053445
1164.6946 942.95898 2547.301 4856580
1174.5105 938.74072 2535.9058 6040853
1185.4862 935.54407 2527.2705 5514253
1200.8481 935.84552 2528.0847 5185544
1213.0149 933.68018 2522.2354 4987653
1212.1718 921.6756 2489.8062 5382668
1227.6604 922.22809 2491.2988 5185545
1239.1021 919.76349 2484.6409 5185802
1260.9115 924.96216 2498.6846 5382410
1279.1399 927.44379 2505.3884 5382152
1289.928 924.53577 2497.5327 5513738
1301.3402 922.13599 2491.05 4922118
1326.5497 929.45721 2510.8274 5448459
1337.5417 926.76495 2503.5544 5119496
1347.5425 923.45233 2494.606 5185289
1361.9009 923.16553 2493.8311 5119496
1372.5142 920.37347 2486.2886 4527619
1394.3091 925.05914 2498.9465 4856324
1409.89 925.56708 2500.3186 5053703
1423.0762 924.50867 2497.4595 5908755
1438.9761 925.21686 2499.3726 5711633
1446.8419 920.79761 2487.4343 5711632
1466.2267 923.72437 2495.3408 4527362
1477.0028 921.22345 2488.585 4987654
1489.8232 920.03442 2485.3728 5053447
1519.9681 929.46265 2510.842 5053706
1531.4033 927.37787 2505.2102 4396034
1542.4666 925.11011 2499.0842 3738368
1549.486 920.48315 2486.585 4396035
1567.7196 922.54254 2492.1482 4659206
1576.0233 918.77472 2481.9697 4461569
1596.1062 921.87982 2490.3579 5053705
1619.0322 926.5553 2502.9883 3606528
1620.1577 918.78284 2481.9919 4264448
1637.5127 920.27118 2486.0122 4593155
1651.4579 919.83368 2484.8306 4987912
1655.6379 914.01294 2469.1064 5053961
1668.6729 913.13983 2466.7478 6040855
1694.856 919.41449 2483.698 3213568
1709.4276 919.33624 2483.4868 4988428
1725.415 920.0144 2485.3188 3738625
1717.0604 907.8114 2452.3538 4922890
1737.9156 911.12689 2461.3101 4330755
1746.7059 908.11462 2453.1729 4659720
1746.1932 900.35535 2432.2119 4264961
1759.5023 899.79132 2430.6882 4001536
1774.1166 899.89862 2430.978 4264706
1801.5361 906.4472 2448.6685 4593669
1811.5679 904.21222 2442.6309 4330754
1838.0498 910.15851 2458.6941 4264962
1840.2484 904.0813 2442.2771 5514769
1855.783 904.59949 2443.677 4856838
1872.1904 905.53192 2446.1958 4133120
1902.6373 913.18829 2466.8787 5909269
1916.6934 912.92096 2466.1565 5251597
1910.5483 903.1087 2439.6499 4593668
1928.7928 904.88611 2444.4514 4330754
1926.3744 897.01532 2423.1892 4659208
1950.2515 901.41498 2435.0745 4527620
1960.6873 899.58289 2430.1252 4659718
1982.1381 902.79456 2438.8013 6106907
1988.9314 899.33209 2429.4478 4790792
1985.9226 891.51886 2408.3413 4329986
1995.9182 889.61359 2403.1943 4133377
2018.1312 893.14215 2412.7263 4988683
2023.1123 889.04852 2401.668 5186322
2027.2087 884.62628 2389.7214 6700332
2023.0468 876.68628 2368.2727 4068612
2041.4116 878.5506 2373.3088 3016960
2059.2996 880.18561 2377.7256 3345920
2065.1997 876.70929 2368.3347 2294528
2069.948 872.79425 2357.7585 1703936
2089.606 875.17627 2364.1934 1376256
2102.1196 874.5542 2362.5129 1310720
2108.1343 871.25446 2353.5991 1310720
2124.0032 872.04395 2355.7317 1114112
2143.8459 874.44403 2362.2153 1114112
2155.6782 873.56677 2359.8455 1114112
2168.6814 873.17224 2358.7798 1048576
2182.7849 873.22302 2358.9167 983040
2192.6604 871.59241 2354.512 1114112
2213.8193 874.43927 2362.2024 983040
2235.6482 877.51324 2370.5066 917504
2243.8506 875.23395 2364.3491 1114112
2260.6008 876.29626 2367.219 1310720
0 0 0 0
0 0 0 0
0 0 0 0
0 0 0 0
0 0 0 0
0 0 0 0
0 0 0 0
0 0 0 0
-2433.2246 1030.7588 2740.614 2952192
-2412.1724 1028.7061 2735.1562 2886400
-2396.2832 1028.8425 2735.5193 2886144
-2381.3984 1029.415 2737.0413 2951936
-2364.8223 1029.2592 2736.6267 3017984
-2343.1702 1026.8767 2730.2922 3215104
-2329.0781 1027.7972 2732.7397 2886400
-2304.9819 1024.285 2723.4014 2886912
-2301.5352 1029.9641 2738.5012 2031872
-2286.0566 1030.3013 2739.3977 2228992
-2264.2017 1027.7489 2732.6116 2294784
-2253.3274 1030.1802 2739.0754 2294784
-2234.2507 1028.8693 2735.5901 2228736
-2212.1475 1026.1353 2728.321 2557952
-2202.8013 1029.3223 2736.7947 2623744
-2185.9885 1029.0416 2736.0483 2689536
-2164.0227 1026.313 2728.7935 2689280
-2145.0496 1024.973 2725.2307 2886656
-2155.1831 1037.6265 2758.8743 2623744
-2135.1846 1035.8552 2754.1648 2623488
-2122.7271 1037.7433 2759.1846 2557184
-2111.9556 1040.4912 2766.4912 2820096
-2095.1589 1040.2908 2765.958 3017472
-2086.8071 1044.3131 2776.6526 3017472
-2069.0571 1043.6587 2774.9126 3017472
-2055.3584 1045.0537 2778.6218 2688512
-2037.3469 1044.2609 2776.5137 2688512
-2027.4943 1047.6708 2785.5803 2951680
-2009.2589 1046.7697 2783.1843 2622976
-1974.8184 1037.3414 2758.1162 2754560
-1974.3705 1045.7604 2780.501 3083008
-1954.547 1043.9723 2775.7466 2885632
-1942.7841 1046.4955 2782.4556 2754048
-1918.9717 1042.5161 2771.8748 2490880
-1908.4646 1045.7584 2780.4958 2293760
-1897.9178 1049.0356 2789.209 1966336
-1887.7302 1052.5704 2798.6074 2162688
-1878.7625 1056.8541 2809.9971 2885632
-1843.5961 1046.3453 2782.0559 2556928
-1831.3113 1048.7505 2788.4509 2426112
-1818.9037 1051.1285 2794.7739 2491392
-1793.0469 1045.7067 2780.3582 2557440
-1790.3234 1053.8009 2801.8792 2820864
-1772.5369 1053.0973 2800.0083 2557440
-1765.5261 1058.843 2815.2852 2360320
-1746.6038 1057.4862 2811.678 3149568
-1731.2952 1058.3125 2813.875 3083776
-1717.1946 1059.9005 2818.0972 2689280
-1701.8859 1060.7667 2820.4001 2032128
-1686.4006 1061.5388 2822.4531 2557440
-1678.8535 1067.3734 2837.9663 2425856
-1660.3328 1066.2787 2835.0557 1835008
-1647.1523 1068.6262 2841.2974 2163200
-1633.2468 1070.547 2846.4043 2425856
-1614.8745 1069.5493 2843.7517 3346176
-1591.1146 1064.9249 2831.4561 2754048
-1588.9263 1074.7933 2857.6946 2491648
-1580.9851 1080.9412 2874.0408 2754304
-1556.5643 1075.8329 2860.4585 3149056
-1550.6826 1083.5667 2881.0212 3609600
-1533.1696 1083.2545 2880.1914 3872771
-1514.0266 1081.7706 2876.2461 3083264
-1499.7874 1083.7968 2881.6331 2688512
-1481.4182 1082.8506 2879.1174 2951680
-1462.7216 1081.6404 2875.8997 3017472
-1458.6133 1091.3164 2901.6265 3412224
-1425.1436 1078.9933 2868.8616 3345664
-1408.3875 1079.1794 2869.3567 3280128
-1392.2092 1079.8185 2871.0557 3675137
-1379.0006 1082.8051 2878.9963 3477248
-1361.0563 1082.1013 2877.1255 3411456
-1342.8358 1081.1575 2874.6157 3740416
-1331.1804 1085.543 2886.2761 3279616
-1305.1117 1078.136 2866.582 3082240
-1283.543 1074.3002 2856.3831 3477248
-1267.7797 1075.2855 2859.0032 3739648
-1261.8962 1084.7909 2884.2766 3607808
-1245.6477 1085.5248 2886.2275 3937025
-1225.5737 1082.8987 2879.2454 4002816
-1212.4049 1086.3861 2888.5178 3871488
-1185.8335 1077.7919 2865.667 4200193
-1169.5367 1078.4221 2867.3428 4265728
-1152.0377 1077.9459 2866.0767 4594951
-1139.8544 1082.5037 2878.1951 4199937
-1123.6261 1083.3003 2880.3132 4002816
-1116.8732 1093.3975 2907.1599 4397572
-1099.9331 1093.682 2907.9163 4265987
-1079.3259 1090.271 2898.8472 4265729
-1056.8673 1084.8495 2884.4321 4462854
-1040.2416 1085.3353 2885.7239 4594440
-1024.7235 1087.0125 2890.1831 4462596
-1002.825 1081.8633 2876.4922 4462850
-987.74445 1084.0186 2882.2227 4988424
-960.18097 1072.309 2851.0889 4659718
-944.5163 1073.7063 2854.8042 4528130
-930.0437 1076.5344 2862.3237 4659715
-913.96387 1077.5725 2865.084 4528129
-896.5224 1077.0143 2863.5999 4725251
-879.87463 1077.4064 2864.6421 4527872
-861.69763 1075.9045 2860.6489 3804160
-843.45599 1074.2601 2856.2769 4264960
-825.5174 1072.9421 2852.7725 4659460
-810.63391 1075.6229 2859.9001 4593667
-791.86292 1073.1498 2853.3245 4199168
-773.67358 1071.374 2848.6033 4264705
-757.65149 1072.5874 2851.8293 4462080
-733.3056 1061.8035 2823.1565 4725251
-719.2171 1065.7151 2833.5569 4330241
-702.03156 1065.1149 2831.9612 5053959
-685.52765 1065.5447 2833.104 4659202
-666.95636 1062.7021 2825.5461 4725252
-648.49719 1059.8965 2818.0864 4791044
-629.47382 1055.9958 2807.7153 4725252
-612.44861 1055.3268 2805.9363 4922629
-598.17566 1059.495 2817.0188 5119753
-582.48218 1061.3143 2821.8562 4593666
-560.03912 1050.5796 2793.3142 5317132
-548.95221 1061.1429 2821.4004 4724994
-528.0155 1052.7317 2799.0364 4790786
-507.71271 1045.0797 2778.6912 4922629
-491.24756 1045.0791 2778.6895 5251594
-473.83237 1042.9873 2773.1277 5120008
-460.14603 1049.2479 2789.7737 5185545
-439.81729 1040.2643 2765.8875 4725251
-423.42374 1040.2532 2765.8579 5120007
-409.33987 1046.1438 2781.5203 5185031
-396.81332 1056.6758 2809.5229 5316873
-379.26501 1054.1721 2802.8662 5250824
-360.63824 1048.3043 2787.2646 5185288
-343.51334 1046.4484 2782.3298 5777424
-327.3334 1047.4292 2784.9377 5711374
-308.67648 1040.1671 2765.6292 5382666
-295.77582 1052.5756 2798.6211 5382667
-278.63461 1050.4709 2793.0254 5316873
-264.26654 1059.2156 2816.2759 5053702
-245.9744 1052.3507 2798.0232 4987908
-229.36713 1052.2229 2797.6836 5185287
-211.83708 1047.5121 2785.1584 4396290
-192.84964 1034.1898 2749.7366 4790532
-178.09067 1043.1772 2773.6326 4461828
-158.93546 1025.6228 2726.9583 4856578
-142.76538 1025.5385 2726.7339 5251334
-126.7066 1026.3339 2728.8489 5382663
-110.27216 1023.8742 2722.3091 5317128
-94.805161 1031.0933 2741.5034 4988163
-78.124901 1025.374 2726.2971 5448458
-62.104111 1027.585 2732.1753 6632988
-45.404259 1016.1572 2701.791 5251080
-29.613997 1023.7256 2721.9141 5908497
-13.474319 1022.8721 2719.6445 5513481
2.6368306 1021.3856 2715.6921 5908240
18.774157 1023.881 2722.3274 4395520
35.094872 1029.4495 2737.1328 3672576
50.998398 1023.1282 2720.3257 5053702
66.847122 1019.0079 2709.3704 4922118
82.140465 1009.6567 2684.5073 5448461
99.127556 1020.7813 2714.0857 4329986
114.28693 1012.6063 2692.3496 4461312
131.54337 1022.7384 2719.2893 5974805
146.39725 1014.0179 2696.103 5119238
163.55777 1021.4185 2715.7798 5382410
177.05049 1006.6395 2676.4849 5448203
193.04138 1007.3264 2678.3113 4987909
213.79138 1030.8563 2740.8735 4987909
228.01735 1021.8273 2716.8667 5185288
239.78778 1003.7107 2668.6978 5448206
255.88831 1004.8393 2671.6985 5053446
270.83981 1001.5873 2663.052 4198146
293.53415 1025.7505 2727.2979 3935232
305.81152 1012.8896 2693.103 4461056
319.43121 1005.5298 2673.5344 5053190
334.09006 1001.9821 2664.1016 5579531
349.7991 1001.762 2663.5166 5645068
365.52264 1001.6007 2663.0876 5710861
381.08914 1001.0403 2661.5977 6040083
395.97205 998.80011 2655.6414 5381896
412.26416 1000.1498 2659.23 5579274
426.04971 995.54321 2646.9817 5447688
441.82373 995.74512 2647.5186 5710861
458.88165 998.72748 2655.4482 5316103
473.15277 995.64783 2647.26 5316103
482.26343 982.25537 2611.6516 4658945
496.13995 979.10065 2603.2639 5382410
514.01746 983.79395 2615.7424 5251080
528.50201 981.90857 2610.7295 4987139
547.6073 988.47113 2628.1785 4724224
563.77203 989.50964 2630.9397 5052932
573.29187 979.14337 2603.3774 4723968
595.74164 990.82507 2634.437 4987397
605.05487 980.61969 2607.3027 4855810
628.54266 993.32343 2641.0796 4658690
646.70282 997.19482 2651.373 4987651
649.67438 978.0177 2600.3845 4790018
667.04401 980.90192 2608.053 5185031
679.27222 976.26593 2595.7268 5185031
700.79669 984.90033 2618.6843 5119495
710.44904 976.8371 2597.2454 5119495
726.35577 977.53296 2599.0955 4856067
738.0863 972.69617 2586.2354 5185545
751.62109 970.3855 2580.0918 4659720
769.22131 973.31116 2587.8706 4857612
781.48334 969.49994 2577.7371 4267530
800.80377 974.4234 2590.8279 3808781
815.66321 973.83569 2589.2651 4797990
828.67072 971.09955 2581.9902 4733482
844.78912 972.04193 2584.4958 4603696
855.11914 966.40912 2569.519 4208425
866.70032 962.36261 2558.7603 4537646
882.71307 963.29144 2561.2297 4603183
900.68286 966.28827 2569.198 4668462
911.2536 961.37958 2556.1465 4865326
922.00684 956.8208 2544.0254 4864557
938.99719 958.77722 2549.2271 5062193
956.17023 960.85504 2554.752 5324336
969.49005 959.05664 2549.97 4533535
973.61182 948.35376 2521.5129 4137485
978.81189 939.00897 2496.6667 4529675
1016.192 960.35425 2553.4204 5383179
1023.8327 953.38025 2534.8777 5382152
1044.9792 959.00256 2549.8264 5447945
1049.7166 949.62012 2524.8801 5053188
1058.8583 944.42987 2511.0801 5447689
1072.826 943.62817 2508.9485 4921347
1086.8596 942.90552 2507.0271 4921860
1099.6182 941.11115 2502.2561 4461312
1108.6832 936.24561 2489.3193 4593153
1130.5597 942.18439 2505.1096 4198144
1142.7551 940.00598 2499.3176 4592897
1145.4296 930.15155 2473.1165 5250825
1164.7628 933.90326 2483.0916 4790018
1184.4867 937.87054 2493.6399 4394497
1189.4144 930.16901 2473.1628 5381642
1198.7393 926.05164 2462.2156 4723713
1209.3718 923.03156 2454.1855 5184519
1221.8021 921.4389 2449.9509 5118726
1238.6359 923.16571 2454.5422 5447434
1256.8824 925.89319 2461.7939 5381898
1283.7012 934.80023 2485.4766 5579020
1289.7083 928.52209 2468.7839 5447434
1304.4059 928.57123 2468.9146 5579020
1320.9727 929.93512 2472.541 5184519
1338.7031 932.07935 2478.2422 4921347
1335.601 919.82971 2445.6724 5447948
1356.671 924.31165 2457.5891 6698272
1375.278 927.03809 2464.8381 4724482
1400.1451 933.88281 2483.0371 4987909
1405.8352 927.92712 2467.2021 5448461
1392.8586 909.89996 2419.2708 5185289
1424.2161 920.90668 2448.5356 5119240
1438.8156 920.96478 2448.6904 5382668
1452.6824 920.55762 2447.6077 4856327
1473.9255 924.78656 2458.8518 5316876
1480.4664 919.79834 2445.5889 4790532
1495.7389 920.27911 2446.8672 5580303
1521.6788 927.25098 2465.4043 5580306
1524.3446 920.04272 2446.2388 5185548
1537.4324 919.20135 2444.0017 4593412
1559.1014 923.45856 2455.3208 5119756
1585.4888 930.40564 2473.792 4133121
1586.4072 922.41669 2452.5508 4856584
1607.9784 926.47229 2463.3337 6961958
1596.6622 911.67657 2423.9944 4330755
1625.5995 919.92407 2445.9231 3739139
1636.4807 917.89813 2440.5366 4132608
1649.8262 917.27789 2438.8875 4461830
1674.4617 922.89093 2453.8115 9593423
1678.6676 917.24432 2438.7981 4329476
1694.6106 918.05267 2440.9475 3869952
1709.5751 918.32172 2441.6628 3869952
1721.3533 916.88916 2437.8538 3870720
1738.2423 918.17993 2441.2859 3673344
1736.1238 909.49213 2418.1865 4528647
1743.4098 905.83289 2408.4573 4397063
1745.6526 899.63397 2391.9753 4265218
1773.7405 906.74719 2410.8882 4528133
1800.2118 912.927 2427.3191 4462340
1812.7758 912.01178 2424.8857 3738624
1835.5078 916.18652 2435.9856 4067328
1846.9763 914.71777 2432.0806 4396546
1861.7606 914.90118 2432.5681 5383440
1877.0057 915.3064 2433.6458 4528131
1876.1842 907.93048 2414.0344 4528130
1859.4913 893.04395 2374.4534 3804416
1890.708 901.21722 2396.1848 4725255
1905.8091 901.64429 2397.3203 4593415
1919.1985 901.26117 2396.3018 4462086
1917.7147 893.9505 2376.864 4527879
1932.9694 894.49231 2378.3044 4330243
1945.1449 893.61176 2375.9631 3936512
1944.5299 886.90991 2358.1443 5252115
1949.6907 882.91925 2347.5337 4068098
1959.9275 881.26764 2343.1423 3608320
1975.7672 882.14081 2345.4639 3805955
1990.7107 882.60437 2346.6965 2556928
1987.6415 875.13092 2326.8257 2820096
2009.162 878.51227 2335.8162 2360576
2019.6565 877.05908 2331.9524 2426112
2025.6282 873.67499 2322.9548 2031616
2040.0032 873.93652 2323.6501 1376256
2053.6958 873.90436 2323.5645 1310720
2070.9392 875.37329 2327.4702 1245184
2085.3247 875.62286 2328.1338 1376256
2086.696 870.44037 2314.3545 1114112
2102.626 871.35889 2316.7966 1114112
2119.9749 872.84973 2320.7605 1114112
2123.5913 868.70386 2309.7373 1114112
2143.3169 871.15863 2316.2642 1114112
2151.9092 869.08575 2310.7527 983040
2176.3416 873.39594 2322.2129 983040
2198.6975 876.82391 2331.3271 1179648
2211.3611 876.36792 2330.1147 1048576
2207.4397 869.38586 2311.5505 917504
0 0 0 0
0 0 0 0
0 0 0 0
0 0 0 0
0 0 0 0
0 0 0 0
0 0 0 0
0 0 0 0
-2417.7256 1040.3289 2723.157 3083776
-2398.7268 1039.0886 2719.9104 2819840
-2380.4136 1038.1306 2717.4028 2492160
-2346.8298 1030.4545 2697.3098 2623232
-2341.0728 1034.9752 2709.1433 2952192
-2319.6902 1032.6028 2702.9331 2557440
-2306.772 1033.9913 2706.5676 2426112
-2302.4534 1039.2808 2720.4136 2426624
-2290.4741 1041.1628 2725.3401 2360320
-2272.5342 1040.3429 2723.1936 2492160
-2259.9429 1041.9773 2727.4719 2491904
-2238.8669 1039.6951 2721.4978 2097408
-2218.78 1037.8423 2716.6482 2623488
-2203.4038 1038.182 2717.5374 2623488
-2181.1689 1035.2714 2709.9185 2623744
-2172.9629 1039.0255 2719.7451 3084288
-2152.2295 1036.8009 2713.9224 2689536
-2146.0229 1041.5936 2726.4678 2425856
-2137.6543 1045.4016 2736.4355 2491904
-2119.1936 1044.2948 2733.5381 2557184
-2100.9482 1043.2778 2730.876 2754304
-2099.4912 1050.6464 2750.1641 3148800
-2083.3079 1050.7031 2750.3125 2754304
-2076.8354 1055.697 2763.3845 3017472
-2063.5325 1057.2705 2767.5032 2556928
-2046.3782 1056.8802 2766.4817 3214848
-2029.8135 1056.7906 2766.2471 2885888
-2013.8905 1057.0363 2766.8901 2556928
-2002.9202 1059.907 2774.4043 2359808
-1976.8375 1054.7617 2760.936 2820096
-1960.4139 1054.7273 2760.8462 3872771
-1941.5834 1053.3865 2757.3362 3149056
-1932.0632 1057.1169 2767.1013 3411968
-1904.1293 1050.7501 2750.4355 2820096
-1895.3186 1054.9171 2761.343 2293760
-1896.5483 1064.7938 2787.1963 2490880
-1864.5028 1055.998 2764.1724 2097152
-1840.6854 1051.7478 2753.0469 3215104
-1828.7402 1054.2656 2759.6377 3148800
-1819.4969 1058.4006 2770.4617 2755072
-1812.2069 1063.7577 2784.4841 2689024
-1789.1598 1059.8788 2774.3308 2754816
-1776.4757 1062.1238 2780.2073 2426368
-1766.6522 1066.1371 2790.7124 2689280
-1757.8224 1070.8317 2803.0007 3017472
-1743.0515 1071.962 2805.9597 2491648
-1725.3472 1071.2928 2804.2078 2885632
-1709.2994 1071.6492 2805.1406 3017728
-1701.0026 1076.9196 2818.9365 2820352
-1688.2463 1079.4432 2825.5425 2032128
-1669.7869 1078.3344 2822.6399 2623488
-1653.0952 1078.3564 2822.6975 2097152
-1637.7928 1079.2943 2825.1526 2820864
-1629.1746 1084.7018 2839.3071 3083008
-1612.2168 1084.6118 2839.0715 2820352
-1586.3521 1078.4646 2822.981 3083776
-1581.6869 1086.7522 2844.6746 3741443
-1577.1873 1095.3336 2867.137 3215105
-1548.3939 1087.0463 2845.4441 3214848
-1542.7625 1095.0164 2866.3064 3083264
-1523.2517 1093.203 2861.5598 3477248
-1504.0063 1091.5414 2857.2104 2819584
-1493.9534 1096.5892 2870.4238 2885376
-1482.2599 1100.5355 2880.7534 4201222
-1450.4359 1089.4532 2851.7444 3740418
-1445.1561 1098.2826 2874.856 3674624
-1426.8853 1097.3318 2872.3674 3543040
-1404.9512 1093.5071 2862.3557 3412224
-1388.1377 1093.6229 2862.6592 3675392
-1369.993 1092.6799 2860.1909 3345408
-1350.1818 1090.3676 2854.1379 3542784
-1334.2229 1091.147 2856.178 3476736
-1325.2356 1097.7211 2873.3865 3345152
