# .PCD v0.7 - Point Cloud Data file format
VERSION 0.7
FIELDS x y z rgb
SIZE 4 4 4 4
TYPE F F F U
COUNT 1 1 1 1
WIDTH 1284
HEIGHT 1
VIEWPOINT 0 0 0 1 0 0 0
POINTS 1284
DATA ascii
-1594.056 1066.5304 2590.8201 6579813
-1495.3237 1010.2008 2453.9839 6645606
-1544.6056 1053.7411 2559.7522 6645606
-1528.0488 1052.7839 2557.427 6711399
-1529.6572 1064.4484 2585.7622 6645606
-1513.6064 1063.9358 2584.5171 6711399
-1508.8262 1071.4159 2602.688 7500915
-1485.4902 1065.7383 2588.8958 6514020
-1454.8206 1054.6256 2561.9011 6645606
-1456.6237 1067.067 2592.1238 6645606
-1439.9994 1066.1305 2589.8486 6908778
-1429.5347 1069.7834 2598.7222 6514020
-1409.1113 1065.9821 2589.488 6382434
-1390.2437 1063.287 2582.9409 6250848
-1381.2211 1068.1453 2594.7429 6382434
-1369.9623 1071.3643 2602.5625 6250848
-1358.4366 1074.4454 2610.0474 6250848
-1337.1462 1069.7853 2598.7268 6514020
-1329.74 1076.254 2614.4407 6382434
-1305.9617 1069.4679 2597.9558 6382434
-1288.2111 1067.5149 2593.2117 6448227
-1286.1127 1078.6421 2620.2419 6777192
-1277.4797 1084.4939 2634.457 6645606
-1262.6116 1085.1317 2636.0063 7106157
-1251.3806 1088.9504 2645.2827 6579813
-1237.4333 1090.4725 2648.9802 6514020
-1228.46 1096.473 2663.5569 6382434
-1211.4517 1095.3649 2660.8647 6185055
-1197.3632 1096.9021 2664.5991 6119262
-1182.611 1097.8645 2666.937 6053469
-1155.1901 1086.9327 2640.3816 6119262
-1143.5715 1090.7736 2649.7117 6185055
-1120.2466 1083.4001 2631.8 6316642
-1110.75 1089.3806 2646.3279 6053469
-1101.3081 1095.5869 2661.4043 5987676
-1081.6039 1091.6161 2651.7583 6053469
-1071.4657 1097.3252 2665.627 5790297
-1056.6248 1098.3169 2668.0359 6185055
-1040.2216 1097.6899 2666.5132 6053469
-1020.7661 1093.7732 2656.9985 6316641
-1006.5206 1095.4039 2660.9597 6448227
-992.97595 1097.8612 2666.929 6711399
-975.58203 1096.0734 2662.5859 6382434
-959.57617 1095.8119 2661.9509 6382434
-937.90314 1088.9618 2645.3105 6185055
-933.08051 1101.7756 2676.438 5921883
-915.14691 1099.2836 2670.3843 6382434
-895.02515 1094.0292 2657.6201 6448227
-880.58514 1095.6558 2661.5718 6448227
-862.89447 1093.2238 2655.6636 6448225
-849.18494 1095.8386 2662.0156 6448227
-834.89722 1097.7922 2666.7615 6777193
-819.91241 1098.887 2669.4209 7369329
-811.48511 1108.9865 2693.9546 6579814
-790.48212 1101.9601 2676.886 6185055
-777.07214 1105.4479 2685.3584 6316641
-755.39569 1097.0758 2665.021 6711399
-738.66449 1095.6815 2661.6343 6448227
-722.62848 1095.2803 2660.6594 6514020
-702.47064 1088.4742 2644.1262 6382434
-685.65375 1086.6527 2639.7014 6250848
-672.98761 1091.4779 2651.4229 6645606
-654.3139 1086.5577 2639.4705 8553603
-639.57666 1088.0934 2643.2009 6448227
-620.26526 1081.729 2627.7405 6250848
-604.57526 1081.515 2627.2207 6382434
-590.9035 1084.9956 2635.6758 6053469
-578.16669 1090.4285 2648.8735 5856090
-559.69415 1085.045 2635.7961 6185055
-548.07983 1093.0299 2655.1929 6382434
-533.35187 1095.0936 2660.2061 5987676
-518.22736 1096.444 2663.4863 6579813
-504.96124 1101.9347 2676.8245 6448227
-489.54871 1102.9458 2679.2805 6316898
-472.98602 1101.3463 2675.395 6185055
-458.34555 1104.2671 2682.4902 6119261
-445.83615 1112.7166 2703.0156 6185053
-431.27008 1116.4713 2712.1367 6842983
-410.63699 1104.2025 2682.3333 7040362
-395.02713 1104.9969 2684.2632 6711397
-376.4617 1097.2438 2665.4292 5987674
-362.44528 1102.651 2678.5642 5987674
-344.9624 1097.5243 2666.1106 5790294
-331.2457 1104.4633 2682.9668 6448227
-313.39746 1097.6316 2666.3711 6382434
-296.34689 1093.0167 2655.1606 6777192
-281.11383 1094.9635 2659.8899 7040364
-265.01355 1093.5632 2656.4883 7237742
-249.42378 1094.2255 2658.0972 6711140
-234.92673 1100.0941 2672.3533 6711141
-220.65126 1107.9236 2691.3726 6776933
-202.5948 1096.5089 2663.644 7369071
-187.73199 1101.9111 2676.7671 5855575
-172.00305 1102.7572 2678.8225 8750467
-156.60667 1106.1243 2687.0017 7829622
-141.14302 1109.7246 2695.7476 7368814
-125.09024 1109.0208 2694.0378 7105898
-109.69386 1114.7816 2708.0322 7040362
-94.006104 1119.0483 2718.397 7106154
-78.419899 1126.5385 2736.5918 7106155
-61.754974 1118.3975 2716.8157 6711397
-45.499794 1114.5526 2707.4758 6711397
-29.621473 1120.7792 2722.6013 6777190
-13.430375 1115.9109 2710.7754 6514018
2.6609373 1128.1554 2740.5198 6645604
18.637117 1112.4863 2702.4563 5856088
35.242817 1131.5111 2748.6714 6711396
51.367626 1127.9501 2740.021 6645604
67.188271 1121.0245 2723.1975 6842983
83.697884 1126.0504 2735.4065 6711397
99.589615 1122.4814 2726.7366 6908776
117.1454 1136.0464 2759.6887 6908776
133.11142 1132.7595 2751.7043 6579811
149.40636 1132.6837 2751.5198 6514018
165.81895 1133.4269 2753.3254 6974568
182.8627 1137.9647 2764.3486 6908778
201.25302 1149.4471 2792.2419 7040364
217.0688 1145.5979 2782.8911 6579813
232.5625 1140.7124 2771.0232 6777192
248.77112 1139.7465 2768.6768 6645606
264.50223 1136.8479 2761.6357 6711399
280.71188 1136.2239 2760.1199 6711399
299.71756 1146.363 2784.7498 7369585
313.60129 1136.8756 2761.7029 6908778
330.43033 1138.4772 2765.5935 6711655
344.08609 1129.5107 2743.8123 6843241
364.83624 1143.5908 2778.0156 7895673
381.62192 1144.5651 2780.3823 6974571
396.56393 1140.158 2769.6765 7106157
412.95053 1140.0895 2769.51 6579813
430.60999 1143.406 2777.5664 7369329
448.02679 1145.8575 2783.522 6053469
462.5025 1140.8801 2771.4309 6185311
477.81653 1138.2412 2765.0203 6184285
502.48633 1157.3253 2811.3796 6513250
521.43579 1162.4325 2823.7859 6513764
538.85297 1163.9122 2827.3806 6909035
555.58319 1163.8639 2827.2629 6711399
573.33752 1165.9008 2832.2109 6514020
588.33875 1162.3826 2823.6643 6777192
606.94836 1165.9908 2832.4297 6777192
623.76733 1166.0575 2832.5918 7237230
642.4809 1169.5697 2841.1235 6776679
657.83374 1166.9407 2834.7373 6381921
671.90515 1162.2262 2823.2847 7894903
692.27216 1168.3661 2838.1997 7829367
705.87744 1163.0732 2825.3425 6776679
723.87341 1165.0928 2830.2483 7039851
742.61963 1168.2009 2837.7986 7237230
759.13873 1167.7456 2836.6924 6842472
763.13617 1148.4658 2789.8579 6513507
778.30328 1146.4568 2784.9775 6908265
793.43134 1144.4747 2780.1628 7039851
815.55267 1152.4556 2799.5498 6316128
839.84827 1163.1295 2825.479 5921370
847.82953 1151.2334 2796.5811 6513764
868.21094 1156.3085 2808.9092 6381921
885.50134 1157.1532 2810.9614 6381921
910.79248 1168.229 2837.8667 6710886
923.24536 1162.7347 2824.52 9342606
942.38159 1165.7032 2831.7312 6118750
963.91199 1171.4777 2845.7583 6052956
974.53851 1164.0294 2827.665 6316128
983.0592 1154.3601 2804.1765 6447714
1005.8238 1161.4603 2821.4241 6907752
1013.5019 1151.1923 2796.481 6710886
1034.7838 1156.4579 2809.2722 6184285
1061.5524 1167.5916 2836.3181 7039851
1073.1648 1161.9678 2822.657 5855577
1100.4753 1173.2532 2850.0713 6513507
1118.7181 1174.6758 2853.5273 6118749
1138.4795 1177.627 2860.6963 6710886
1148.5248 1170.5889 2843.5991 6315615
1159.7043 1164.8934 2829.7642 7039338
1184.8503 1173.1896 2849.917 6184029
1203.6395 1175.0466 2854.4282 6841959
1215.7456 1170.4185 2843.1853 6381409
1227.8823 1165.9456 2832.3198 6447202
1249.6973 1170.6598 2843.7715 5986907
1279.0844 1182.2472 2871.9199 5920857
1289.5964 1176.3134 2857.5054 5789012
1310.9319 1180.2782 2867.1365 4867911
1329.2473 1181.4572 2870.0007 4999755
1346.4084 1181.5934 2870.3315 5592403
1371.9211 1188.964 2888.2363 6448226
1380.2383 1181.4342 2869.9448 6776676
1392.2372 1177.2008 2859.6611 6119004
1405.8094 1174.3837 2852.8176 5789526
1425.0039 1176.2742 2857.4102 6381150
1432.2617 1168.3831 2838.2407 6315102
1468.2474 1183.838 2875.7842 6183772
1468.5549 1170.5013 2843.3867 4736583
1491.2949 1175.144 2854.6648 6250592
1505.7686 1173.2418 2850.0439 6250592
1542.052 1188.1868 2886.3481 6579044
1577.5404 1202.1979 2920.384 6381408
1586.8512 1196.1724 2905.7468 6644323
1612.1897 1202.2281 2920.4575 6184285
1636.4944 1207.3925 2933.0027 5460563
1664.8562 1215.4103 2952.4795 6053213
1672.7101 1208.4452 2935.5601 6315872
1680.8904 1201.8571 2919.5562 5986392
1697.8344 1201.6055 2918.9448 5722964
1688.3914 1182.8723 2873.4385 4933448
1712.2443 1187.6072 2884.9404 5065291
1740.955 1195.5847 2904.3193 4407619
1771.5364 1204.678 2926.4087 3618360
1797.8418 1210.7155 2941.075 5921370
1809.7026 1207.0031 2932.0566 5526611
1818.9786 1201.6536 2919.0618 8617855
1845.0189 1207.3754 2932.9612 6117977
1839.3453 1192.4307 2896.6575 6644065
1870.5114 1201.4241 2918.5044 6644579
1896.0441 1206.6677 2931.2424 6446685
1904.8793 1201.2863 2918.1694 6709598
1918.6199 1199.0671 2912.7788 7301222
1945.0175 1204.7273 2926.5286 6906464
1975.7589 1212.9541 2946.5132 7038049
1988.9902 1210.3812 2940.2632 6050899
2013.6162 1214.7269 2950.8198 6840160
2035.569 1217.399 2957.3108 7037282
2058.8411 1220.8079 2965.5916 6840415
2082.8762 1224.6077 2974.822 7103589
2094.5911 1221.1608 2966.449 7366247
2125.5779 1228.9135 2985.2817 7300452
2133.2305 1223.1588 2971.3025 6707544
2139.0891 1216.4781 2955.0737 6839128
2164.7678 1221.0859 2966.2671 6707543
2172.3577 1215.4982 2952.6931 7101787
2191.1672 1216.2273 2954.4644 7299424
2217.0598 1220.8453 2965.6824 7167064
2216.4351 1210.9034 2941.5317 7364443
2255.4346 1222.5956 2969.9343 7561306
2293.2778 1233.4849 2996.3867 7824736
2284.9341 1219.5552 2962.5483 7692377
2308.636 1222.8114 2970.4585 7955549
2313.6853 1216.2133 2954.4304 8283740
2339.3474 1220.4684 2964.7668 8612191
2356.4954 1220.2512 2964.2393 8217431
2351.4297 1208.6194 2935.9834 9138534
2375.2493 1211.8965 2943.9438 9006688
2387.4644 1209.248 2937.5103 9532777
2409.2368 1211.4436 2942.844 8809053
2483.6975 1239.9108 3011.9963 9006433
2516.9648 1247.5538 3030.563 9138276
2551.3584 1255.6428 3050.2126 9598569
2556.9043 1249.5208 3035.3408 8809308
2577.0576 1250.5726 3037.896 8743259
2606.4573 1256.0658 3051.2402 9334884
2622.9329 1255.2981 3049.3752 9006433
2641.0017 1255.2981 3049.3752 9203555
2659.7539 1255.6206 3050.1589 9466726
2656.0059 1245.3887 3025.3035 9597796
2669.7507 1243.4413 3020.5728 8939866
2677.7966 1238.8833 3009.5002 9334108
2686.6133 1234.7395 2999.4343 9202522
2705.6892 1235.3346 3000.8799 9136728
2717.7717 1232.7495 2994.6003 9333337
2737.2917 1233.5497 2996.5442 9465180
2787.7043 1248.1716 3032.0637 9004116
2820.0103 1254.551 3047.5605 9201750
2802.6396 1238.8901 3009.5168 9464923
2825.4763 1241.088 3014.8562 9136472
2844.4167 1241.5579 3015.9976 9267803
2857.5623 1239.5081 3011.0183 9333595
2898.3789 1249.412 3035.0769 8939352
0 0 0 0
0 0 0 0
0 0 0 0
0 0 0 0
0 0 0 0
0 0 0 0
0 0 0 0
0 0 0 0
0 0 0 0
-2160.7629 1023.113 2450.0837 1712680
-2146.1211 1023.0538 2449.9421 1778216
-2162.6348 1037.9469 2485.6069 1581094
-2131.3118 1029.9276 2466.4031 1646116
-2119.5603 1031.3207 2469.739 1777445
-2115.7898 1036.6434 2482.4856 1777702
-2102.9243 1037.5532 2484.6646 1909288
-2055.7776 1021.4429 2446.0845 1646630
-2034.0887 1017.8427 2437.4629 1909802
-2014.3029 1015.1501 2431.0146 1778216
-2012.5743 1021.5844 2446.4233 1778216
-1999.074 1022.0936 2447.6426 1909288
-1999.7655 1029.9192 2466.3828 1843495
-1975.5048 1024.9144 2454.3979 1909288
-1958.6777 1023.7209 2451.5396 1843495
-1952.021 1027.8647 2461.4629 1777702
-1942.1627 1030.3726 2467.4685 1646116
-1928.0505 1030.6444 2468.1194 1777702
-1917.6366 1032.9124 2473.5508 1975081
-1907.9178 1035.5927 2479.9692 2172459
-1894.2654 1036.1628 2481.3347 2238251
-1896.0232 1045.2372 2503.0654 2698802
-1879.2291 1044.1469 2500.4543 3027767
-1866.7922 1045.4794 2503.6455 3422268
-1857.0464 1048.3525 2510.5256 3883076
-1834.2684 1043.8555 2499.7566 4277574
-1826.1299 1047.6842 2508.9253 5067346
-1795.1487 1038.363 2486.6035 5132883
-1789.4031 1043.6052 2499.1572 4935503
-1772.1608 1042.1738 2495.7295 5264467
-1750.4128 1038.0466 2485.8459 5856604
-1744.434 1043.28 2498.3787 5987933
-1727.7893 1042.1698 2495.7197 6185312
-1720.7927 1046.9102 2507.0715 6448484
-1697.1335 1041.5073 2494.1333 6777192
-1683.4257 1042.1703 2495.7209 7369329
-1676.0543 1046.8025 2506.8137 6777192
-1658.6807 1045.2146 2503.0115 6842985
-1663.405 1057.6489 2532.7881 7106157
-1644.4597 1055.1223 2526.7378 7040364
-1635.1716 1058.8029 2535.5515 7106157
-1624.6127 1061.7211 2542.5398 6908778
-1584.4692 1045.1786 2502.925 6908778
-1586.2087 1056.2124 2529.3479 6579813
-1555.3264 1045.5273 2503.7603 6579814
-1540.6816 1045.657 2504.0708 6382434
-1542.0952 1056.7939 2530.7407 6645606
-1519.4215 1051.4805 2518.0164 6974572
-1537.4034 1074.4756 2573.0835 6316642
-1515.2847 1069.6245 2561.4666 7961466
-1506.2487 1074.0038 2571.9536 6645605
-1490.1658 1073.3965 2570.4995 6777191
-1469.6625 1069.5597 2561.3113 6514020
-1451.106 1067.0743 2555.3596 7566708
-1432.9795 1064.8562 2550.0479 6645606
-1418.2644 1065.153 2550.7583 6645606
-1406.0187 1067.3304 2555.9729 6316641
-1387.2362 1064.5393 2549.2888 6053470
-1378.3835 1069.3905 2560.906 5921883
-1369.4889 1074.3167 2572.7031 6316641
-1342.783 1065.2241 2550.929 6842985
-1334.2316 1070.4906 2563.5405 6842985
-1322.212 1073.0636 2569.7024 6579813
-1315.3304 1079.915 2586.1096 6579813
-1299.7805 1079.7272 2585.6597 6316641
-1281.715 1077.4202 2580.135 6119262
-1270.6095 1080.9786 2588.6567 6514020
-1255.4913 1081.1687 2589.1118 6250848
-1257.1945 1096.0283 2624.6965 5527125
-1221.9196 1078.6188 2583.0054 5592918
-1210.3723 1081.9783 2591.0505 5527125
-1195.1084 1082.059 2591.2437 5527125
-1191.2937 1092.6428 2616.5894 5724504
-1183.799 1100.0859 2634.4136 5527124
-1149.4249 1082.4159 2592.0984 5461330
-1089.7007 1040.0714 2490.6946 6711139
-1126.3798 1089.8402 2609.8777 6448224
-1101.0795 1080.191 2586.7708 6185053
-1094.111 1088.5073 2606.686 5592915
-1073.0203 1082.8108 2593.0442 5658710
-1058.3035 1083.4744 2594.6331 5790296
-1057.9796 1099.1097 2632.0759 5921881
-1027.9475 1083.8882 2595.6243 5856089
-1018.7428 1090.4985 2611.4543 5856090
-998.48053 1085.2938 2598.9905 5921883
-976.70581 1078.2565 2582.1377 5921882
-977.96521 1096.8287 2626.6133 6250846
-953.76215 1086.9827 2603.0347 5790297
-943.40375 1092.8507 2617.0872 5856090
-934.17767 1100.2487 2634.8032 5856091
-903.46906 1082.1663 2591.5007 5921883
-888.90283 1083.1282 2593.8044 6250848
-872.48132 1081.8236 2590.6802 5724504
-866.94293 1094.2084 2620.3384 6711399
-848.31018 1090.2164 2610.7786 6514020
-830.58502 1087.2642 2603.7087 6711397
-748.09052 997.81024 2389.4905 4540228
-737.2688 1002.3469 2400.3547 6119260
-724.42572 1004.26 2404.936 6251102
-721.47186 1020.2343 2443.1899 6053724
-700.05566 1010.2204 2419.2095 5856088
-708.16864 1043.291 2498.4048 6185053
-696.78729 1048.441 2510.7378 5658709
-694.08594 1067.1614 2555.5681 6777190
-683.54926 1074.4012 2572.9055 5658708
-671.5752 1079.6605 2585.5002 5790294
-661.33331 1088.0153 2605.5073 6909035
-644.37396 1085.4536 2599.373 11514546
-626.55634 1081.2854 2589.3914 8553860
-608.23889 1076.0237 2576.7908 5724761
-596.24518 1081.9664 2591.022 6119263
-581.63501 1083.3496 2594.3345 6777192
-567.24835 1085.2356 2598.8508 5987676
-548.84576 1079.3295 2584.7073 6250848
-537.46838 1087.2961 2603.7854 5921883
-519.91431 1082.8689 2593.1833 7764087
-506.88342 1087.8799 2605.1831 6185055
-491.6351 1088.2969 2606.1821 5921883
-477.29428 1090.8152 2612.2124 5724504
-466.27615 1101.3503 2637.4414 5527126
-452.53152 1105.953 2648.4636 6053467
-432.62009 1095.2736 2622.8892 5987674
-414.27576 1087.9136 2605.2639 5658708
-407.78757 1112.324 2663.7205 5987674
-384.7316 1091.6884 2614.3037 5987674
-369.87073 1093.5508 2618.7637 5856088
-352.35519 1087.384 2603.9958 5724502
-341.28018 1101.4382 2637.6519 5658709
-324.62592 1097.9709 2629.3489 6053469
-309.08456 1098.1082 2629.6772 6579813
-294.35498 1101.297 2637.3137 5987676
-277.57767 1096.7524 2626.4307 6119262
-260.94794 1092.2859 2615.7344 6250846
-244.10822 1086.3207 2601.4495 5987674
-228.67546 1086.2345 2601.2432 5724502
-212.14116 1080.5254 2587.5713 5921881
-198.40649 1089.2974 2608.5779 6184796
-185.22351 1102.8363 2641 6776671
-169.59561 1102.9734 2641.3284 6643790
-154.28085 1105.382 2647.0962 8749160
-138.00778 1100.6927 2635.8665 8288612
-123.37871 1109.5916 2657.177 5657935
-106.60675 1099.0031 2631.8203 6513761
-92.043228 1111.4536 2661.636 6185052
-75.169518 1095.3884 2623.1643 6250846
-60.336971 1108.4456 2654.4326 6185053
-44.568325 1107.4501 2652.0486 5790295
-28.861164 1107.73 2652.719 6119260
-13.228024 1114.9182 2669.9329 6053467
2.5885885 1113.2789 2666.0073 6119262
18.368475 1112.2328 2663.502 5527125
34.369419 1119.353 2680.5532 6053467
50.266438 1119.6573 2681.282 6185053
66.189087 1120.2493 2682.6995 6777190
82.074432 1120.103 2682.3491 6579811
98.701591 1128.4855 2702.4229 6514018
113.39464 1115.5012 2671.3291 6645604
129.77916 1120.2994 2682.8193 6185053
147.1037 1131.2793 2709.1133 6711397
162.03448 1123.501 2690.4863 6908775
180.12711 1137.0758 2722.9944 6316641
195.70789 1133.8657 2715.3071 6382434
212.01193 1135.0155 2718.0605 6514020
228.40085 1136.4252 2721.4363 6250848
244.75595 1137.4917 2723.9905 6119262
259.63565 1131.9937 2710.824 6908778
273.10596 1121.3495 2685.334 6514020
290.8508 1128.4618 2702.3662 6316897
306.2923 1126.3616 2697.3369 7172207
324.24396 1133.2429 2713.8157 6777449
341.58664 1137.446 2723.8811 5921883
358.14474 1138.7751 2727.064 6645862
372.76196 1134.0846 2715.8313 6645606
390.12094 1137.7786 2724.6775 6316641
404.91214 1133.9877 2715.5991 7106157
424.79684 1144.2062 2740.0698 5987676
440.18765 1142.0134 2734.8186 6250848
459.37277 1149.4706 2752.6768 6514020
476.46701 1151.364 2757.2109 6513764
493.91559 1153.9596 2763.4268 7039851
508.55246 1150.0304 2754.0173 6250336
526.5769 1153.7679 2762.9678 6381922
545.44745 1159.0781 2775.6841 6316385
562.78552 1160.916 2780.0854 6184799
580.25543 1162.9138 2784.8694 6776936
593.44 1156.4501 2769.3906 6710886
611.93079 1160.3962 2778.8406 6645350
630.39966 1164.0952 2787.6987 6447715
642.83789 1156.7534 2770.1172 6513507
662.67084 1162.7524 2784.4832 6776680
684.75415 1172.3125 2807.3772 6645093
698.49933 1167.4827 2795.8108 6710886
709.75952 1158.8195 2775.0647 6579300
726.29913 1158.973 2775.4324 6316128
741.53741 1157.0892 2770.9211 6118491
753.34558 1150.0507 2754.0657 6447714
770.85315 1151.8268 2758.3191 5789271
782.0379 1144.2776 2740.2407 5328718
807.80432 1157.9373 2772.9521 6381405
830.3916 1166.5862 2793.6641 7433835
836.72034 1152.5023 2759.937 7433578
865.79968 1169.6947 2801.1082 7169637
880.12018 1166.6761 2793.8794 7103588
892.95868 1161.8407 2782.2998 7037280
909.64441 1162.0956 2782.9102 6642265
933.72101 1171.6154 2805.7073 7628645
945.43652 1165.5627 2791.2131 7826279
958.57953 1161.448 2781.3594 7957865
972.54059 1158.4469 2774.1724 7366242
985.49805 1154.3698 2764.4087 7168865
1002.3416 1154.9034 2765.687 7038306
1019.4557 1155.7269 2767.6589 7959408
1035.9163 1155.795 2767.822 6973028
1067.7522 1172.7483 2808.4207 7368044
1082.6614 1170.8755 2803.9355 7039337
1095.2264 1166.5623 2793.6067 7105129
1120.8531 1176.0829 2816.406 6973031
1122.1595 1160.1797 2778.3223 7301738
1143.4121 1165.0603 2790.01 7170151
1175.6658 1180.8514 2827.8254 7498344
1188.8687 1177.3326 2819.3989 8220779
1206.3495 1178.0895 2821.2112 7824993
1223.6536 1178.655 2822.5657 8745321
1237.2006 1175.6354 2815.3345 8811885
1247.7198 1169.8572 2801.4973 7561818
1276.1554 1180.8085 2827.7227 8022625
1289.8773 1178.0381 2821.0881 7758683
1314.5419 1185.2045 2838.2498 9071973
1323.9994 1178.6522 2822.5588 9203041
1334.8246 1173.4657 2810.1387 9399651
1358.2423 1179.3411 2824.2085 9794921
1364.4845 1170.3417 2802.6572 9005920
1386.9479 1175.3044 2814.5417 9072484
1407.3196 1178.3978 2821.9497 8546142
1427.7325 1181.4529 2829.2656 7954518
1442.6473 1179.9399 2825.6426 8480863
1450.2317 1172.5349 2807.9097 8415584
1479.1005 1182.3115 2831.322 8350045
1489.3848 1177.1801 2819.0334 9204325
1512.4985 1182.1901 2831.0312 8940896
1527.6688 1180.9496 2828.0605 9203811
1544.0293 1180.6461 2827.3337 9268836
1568.9802 1186.8474 2842.1841 11175549
1593.219 1192.3839 2855.4426 9333339
1618.6199 1198.6646 2870.4832 8872275
1656.963 1214.2994 2907.9246 7622464
1662.1796 1205.5856 2887.0571 7425598
1693.5925 1215.8561 2911.6521 6175277
1681.9006 1195.2858 2862.3918 3480079
1694.2512 1192.042 2854.624 6637370
1711.9226 1192.5691 2855.8862 8019538
1764.0382 1216.8458 2914.0225 7362892
1760.4678 1202.6115 2879.9348 7363407
1784.3401 1207.2172 2890.9644 7890264
1813.3341 1215.1676 2910.0034 8482657
1820.3754 1208.3955 2893.7861 8285022
1833.9309 1206.0337 2888.1304 9797236
1844.1527 1201.5437 2877.3779 7691347
1855.7123 1197.9994 2868.8904 7888467
1875.922 1200.0531 2873.8083 8085844
1901.2399 1205.3083 2886.3933 7757391
1925.3982 1209.7411 2897.0085 8282958
1946.9381 1212.4651 2903.5317 7229497
1941.7128 1198.6191 2870.3743 8347467
1975.173 1208.6869 2894.4839 8874327
2012.4333 1220.8867 2923.6992 8347986
2024.8792 1217.9524 2916.6724 8479829
2058.1631 1227.4957 2939.5261 8808795
2068.6409 1223.3912 2929.697 8939610
2083.6802 1222.0305 2926.4382 9202783
2095.5574 1218.8529 2918.8289 9136990
2127.6885 1227.4114 2939.3242 8610645
2102.5918 1203.0856 2881.0703 9531231
2123.1494 1205.0642 2885.8086 9267545
2154.5498 1213.1162 2905.0911 9333340
2143.4934 1197.3251 2867.2754 9004116
2170.5417 1202.8994 2880.6245 8543566
2224.3235 1223.0868 2928.9678 8674635
2248.8259 1226.9861 2938.3059 8609099
2271.3269 1229.7423 2944.906 9266773
2281.9128 1226.0543 2936.0745 9333336
2299.6401 1226.2302 2936.4958 9201236
2327.5542 1231.7946 2949.8208 9135186
2320.7693 1219.0493 2919.2993 8872013
2333.5583 1216.6985 2913.6694 9266000
2349.7852 1216.1613 2912.3831 9529429
2340.8428 1202.7002 2880.1475 8805192
2392.1077 1220.144 2921.9209 8213312
2424.8308 1227.9475 2940.6082 8608071
2468.3391 1241.0625 2972.0149 9661016
2487.8882 1242.0303 2974.3325 9068879
2513.3345 1245.9078 2983.6184 9003343
2531.9238 1246.356 2984.6914 9464150
2549.6707 1246.3859 2984.7632 9134671
2568.0845 1246.7393 2985.6094 9595736
2603.7056 1255.3844 3006.312 9266773
2613.9773 1251.7727 2997.6631 9003603
2613.8923 1243.2838 2977.3345 9332311
2620.8428 1238.2325 2965.238 9332312
2643.9436 1240.8281 2971.4536 9003091
2628.1819 1225.2714 2934.1995 9265748
2680.5469 1241.4716 2972.9944 9595226
2709.9253 1246.8834 2985.9546 8674380
2720.2878 1243.5325 2977.9299 9332566
2746.1462 1247.2627 2986.8628 9464152
2749.5586 1240.8158 2971.4241 9200980
2770.0928 1242.1284 2974.5676 9463895
2792.2083 1244.129 2979.3584 9201236
2805.7415 1242.3044 2974.989 9135187
2813.8789 1238.1285 2964.989 9332310
2819.6284 1232.9602 2952.6123 8937551
0 0 0 0
0 0 0 0
0 0 0 0
0 0 0 0
0 0 0 0
0 0 0 0
0 0 0 0
0 0 0 0
0 0 0 0
-2126.5723 1021.2119 2411.3152 1646116
-2098.0266 1014.3188 2395.0391 1711909
-2097.0037 1020.7288 2410.1743 1712166
-2081.7256 1020.2402 2409.0208 1843753
-2075.5579 1024.2406 2418.4668 1778216
-2043.8301 1015.5958 2398.0542 1778215
-2013.0143 1007.2861 2378.4333 1975338
-2024.5701 1020.211 2408.9519 1646373
-1986.1354 1007.9497 2380 1843752
-1981.6168 1012.8483 2391.5667 1843239
-1965.7992 1012.0004 2389.5649 1843495
-1949.0353 1010.6498 2386.3757 1646117
-1940.1237 1013.3809 2392.8245 1514530
-1934.2368 1017.7437 2403.126 1514528
-1930.3849 1023.2499 2416.1274 1185563
-1910.6508 1020.3568 2409.2959 1382942
-1909.5991 1027.4722 2426.0972 1711906
-1881.3672 1019.9602 2408.3596 2040872
-1888.2036 1031.4905 2435.5852 3027766
-1859.7535 1023.7737 2417.364 3093815
-1842.9755 1022.412 2414.1489 3093559
-1829.1376 1022.6731 2414.7654 3554110
-1833.5664 1033.2317 2439.6968 3817282
-1812.6753 1029.5768 2431.0667 4278087
-1802.387 1031.9337 2436.6321 4409673
-1774.7385 1024.3092 2418.6287 4475210
-1761.4629 1024.9235 2420.0791 5198933
-1751.3815 1027.4218 2425.978 6448741
-1749.6265 1034.8864 2443.6035 6382948
-1719.8892 1025.7859 2422.1155 5790811
-1710.7479 1028.9199 2429.5156 5395539
-1703.0583 1032.9877 2439.1204 5527125
-1701.2582 1040.7277 2457.3965 6250848
-1676.4441 1034.4014 2442.4587 5987676
-1680.9045 1046.1852 2470.283 7369329
-1647.6523 1034.4977 2442.686 6777192
-1654.9419 1048.2832 2475.2368 7106157
-1638.2534 1046.9912 2472.186 6645605
-1647.4166 1062.3464 2508.4434 6448225
0 0 0 0
-1573.0231 1033.0137 2439.1819 6448222
-1508.8658 1000.07 2361.3943 7764587
-1525.34 1020.4519 2409.5208 6053464
-1558.9731 1052.807 2485.9185 5790293
-1550.6099 1057.1477 2496.1677 5987928
-1448.1354 996.79242 2353.6553 6316637
-1481.4559 1029.6439 2431.2253 5922389
-1456.2451 1022.0607 2413.3193 6053719
-1505.0645 1066.8 2518.9592 7172197
-1496.6604 1071.469 2529.9836 6316636
-1446.479 1046.0211 2469.8955 6382429
-1377.3157 1006.186 2375.8357 5724756
-1395.0933 1029.698 2431.353 5461326
-1411.9208 1052.9922 2486.3557 7040616
-1394.9691 1051.3197 2482.4067 5330257
-1357.2324 1033.7802 2440.9917 5001292
-1333.0952 1026.3329 2423.407 4935241
-1315.6263 1023.913 2417.6931 5329743
-1375.6456 1082.4106 2555.8193 6579811
-1286.9116 1023.8628 2417.5747 7500913
-1334.1171 1073.3673 2534.4661 7303536
-1297.6072 1055.8789 2493.1719 5263952
-1276.5394 1050.6979 2480.9382 5790297
-1271.4825 1058.7279 2499.8989 5724504
-1271.0577 1070.8496 2528.5212 5592918
-1274.1183 1086.2321 2564.8425 5527125
-1247.6055 1076.469 2541.7898 5329746
-1212.083 1058.5988 2499.594 5329746
-1182.6084 1045.6335 2468.9802 5000782
-1168.8563 1046.4193 2470.8357 5527124
-1132.6545 1026.8717 2424.6794 4869194
-1122.6652 1030.8918 2434.1716 5461586
-1089.5764 1013.5292 2393.1746 5527635
-1068.7428 1007.2589 2378.3689 5593684
-1066.9762 1019.0311 2406.1658 4212280
-1045.4897 1012.0336 2389.6431 4212535
-1013.6464 994.68066 2348.6689 4804158
-1031.8408 1026.6298 2424.1079 5133127
-1028.3168 1037.567 2449.9333 4408896
-1037.1782 1061.4934 2506.429 5132620
-1013.2137 1052.0314 2484.0869 5395537
-1010.733 1064.9261 2514.5344 5395537
-978.08569 1045.9469 2469.7202 5790291
-998.48376 1083.9788 2559.5222 5790798
-948.98035 1046.1265 2470.1443 4935485
-935.45367 1047.3693 2473.0786 5724999
-955.85596 1087.2441 2567.2324 5396037
-920.12555 1063.5277 2511.2327 5264453
-920.026 1080.8927 2552.2351 5264201
-893.15558 1066.8606 2519.1023 5724755
-889.9447 1081.0928 2552.7075 5724500
-869.45612 1074.4656 2537.0593 5592914
-845.6424 1063.4237 2510.9868 5527118
-832.52087 1065.6727 2516.2974 4606270
-818.54504 1066.8905 2519.1729 6119762
-750.07538 995.80688 2351.3281 4672572
-734.3067 993.32312 2345.4634 3817261
-724.99365 999.64471 2360.3901 5199937
-719.88641 1012.1282 2389.8665 4410934
-705.13928 1011.2875 2387.8813 3884588
-690.82123 1011.0403 2387.2979 4607799
-672.77106 1005.2066 2373.5229 5396808
-665.37982 1015.3895 2397.5671 5264710
-649.38477 1012.6006 2390.9819 6251094
-649.63562 1035.5851 2445.2534 4409144
-646.24963 1053.6882 2487.9993 5659212
-631.19299 1053.1639 2486.7612 5067076
-640.57867 1094.3722 2584.0632 9408906
-619.43823 1084.1702 2559.9741 9408908
-602.90936 1081.73 2554.2124 5856087
-588.755 1083.5343 2558.4727 6053464
-568.8869 1074.6406 2537.4727 6382430
-557.53082 1081.7799 2554.3301 9145737
-543.49341 1083.97 2559.5012 8882564
-523.2738 1073.6014 2535.019 6250844
-508.12305 1073.3274 2534.3718 5527123
-497.46979 1082.8262 2556.8005 5724501
-478.40689 1074.0417 2536.0586 6053209
-469.3313 1087.8365 2568.6313 5329999
-448.84964 1075.2325 2538.8704 4672326
-432.39169 1071.7274 2530.594 5198156
-420.27063 1079.1062 2548.0168 5987929
-395.44278 1053.1925 2486.8289 5593169
-373.74655 1033.9362 2441.3601 6053464
-369.28384 1062.7238 2509.3342 6250844
-354.14172 1061.9042 2507.3989 4606022
-341.58231 1069.0963 2524.3813 6053210
-332.0715 1086.9259 2566.481 5921881
-318.28323 1091.7939 2577.9756 6053725
-305.19452 1099.6735 2596.5811 4934987
-287.92639 1092.5309 2579.7158 5855831
-272.7655 1093.0317 2580.8982 5987672
-256.00797 1086.8138 2566.2163 5263686
-240.59384 1085.8739 2563.9971 6249805
-225.90593 1088.3058 2569.7393 5986372
-211.85869 1094.3986 2584.1257 6841421
-195.68289 1089.5889 2572.7688 7235399
-182.14856 1099.9169 2597.1558 1972232
-165.65485 1092.6316 2579.9536 10587736
-148.79301 1081.1903 2552.9377 12429424
-133.41208 1079.1377 2548.0913 13153411
-118.47469 1080.6069 2551.5603 6905422
-105.08865 1098.7256 2594.3428 5789522
-90.194809 1104.5878 2608.1848 6645603
-74.703178 1104.0397 2606.8906 6711397
-59.0224 1099.6815 2596.6001 5921881
-43.767483 1102.9825 2604.3945 5527123
-28.290161 1101.2216 2600.2363 6119260
-12.930994 1105.3483 2609.9805 6316639
2.5601692 1116.6803 2636.7378 5198158
18.275196 1122.2867 2649.9761 6514018
33.888813 1119.3617 2643.0693 5922137
49.701099 1122.7739 2651.1262 6053211
65.218803 1119.4904 2643.3733 7237484
80.953041 1120.4757 2645.7 7698034
96.604698 1120.1838 2645.0105 7829877
112.30915 1120.5001 2645.7573 7698036
128.27139 1122.9958 2651.6504 7632243
144.69202 1128.522 2664.699 6447969
161.04167 1132.4618 2674.0015 6776934
176.63109 1130.8284 2670.1448 6974314
194.62875 1143.6141 2700.335 7303537
209.3121 1136.4623 2683.4478 6382435
225.29178 1136.8618 2684.3911 7434608
239.4549 1128.6465 2664.9929 5987419
255.8824 1131.4603 2671.637 6842470
271.25848 1129.5679 2667.1685 7104615
286.80646 1128.5603 2664.7893 6709857
303.46762 1131.8096 2672.4617 4735554
321.51358 1139.6451 2690.9634 6380379
338.18698 1142.1049 2696.7712 9537929
351.85684 1134.6571 2679.1853 6182998
369.08261 1138.8241 2689.0247 6972517
386.09457 1142.014 2696.5566 7039081
400.53101 1137.6348 2686.2163 7039081
419.63843 1146.3505 2706.7961 5065548
434.89096 1144.2816 2701.9109 5920854
450.53635 1143.3566 2699.7266 6052440
471.06744 1154.4685 2725.9646 6052441
488.59927 1157.7371 2733.6824 4999236
497.59494 1141.2184 2694.678 6117459
518.66998 1152.5691 2721.4797 6182997
537.31311 1157.9941 2734.2896 6117718
554.51501 1160.0865 2739.2302 6512734
571.91907 1162.4708 2744.8599 6118490
589.04797 1164.1794 2748.8943 5789525
604.328 1162.2404 2744.3157 6118488
614.80969 1151.4165 2718.7581 6776160
635.04523 1158.946 2736.5371 7696235
652.9505 1161.9539 2743.6392 8090478
667.84564 1159.5889 2738.0549 7235170
681.84283 1155.814 2729.1416 7367013
701.49762 1161.5822 2742.7617 7169890
719.62567 1164.6184 2749.9309 7893613
732.53021 1159.2539 2737.2639 8550769
749.1134 1159.8171 2738.594 8615533
764.59222 1158.6829 2735.9155 8548712
779.81201 1157.2114 2732.4412 9008489
793.58673 1153.699 2724.1475 7954774
815.30896 1161.65 2742.9219 9204324
825.72052 1153.49 2723.6541 9269346
851.38806 1166.546 2754.4824 9597540
867.65472 1166.4724 2754.3086 8808023
877.85797 1158.4005 2735.2488 8939608
895.96533 1160.8621 2741.0613 9926502
910.55719 1158.7623 2736.103 9070680
932.12982 1165.4641 2751.9277 9464923
943.73407 1159.6862 2738.2847 9991265
957.84387 1157.1304 2732.2498 9596251
971.21649 1153.7837 2724.3477 9530714
994.76837 1162.4415 2744.7908 8544589
1007.9683 1158.9187 2736.4724 9269082
1027.7953 1163.0063 2746.1243 9598304
1038.4746 1156.7765 2731.4143 10059112
1054.9387 1157.083 2732.1379 9006425
1074.8663 1161.1215 2741.6738 8413519
1094.8063 1165.053 2750.957 8873301
1115.8085 1169.983 2762.5979 9794148
1126.7045 1164.3267 2749.2419 10320494
1146.3936 1167.7889 2757.417 8741719
1170.3904 1175.4802 2775.5781 9004632
1174.3447 1163.1077 2746.3638 8543823
1197.1805 1169.5186 2761.5012 8872528
1202.5859 1158.9585 2736.5664 8806477
1223.5544 1163.4784 2747.239 9134930
1240.7798 1164.3668 2749.3369 9397589
1255.2264 1162.6586 2745.3032 9923675
1268.2274 1159.6721 2738.2515 9462867
1285.2141 1160.3596 2739.8748 9527890
1308.26 1166.4323 2754.2136 9856596
1306.025 1150.0927 2715.6323 9790804
1341.3672 1166.8389 2755.1738 9791061
1365.6382 1173.6675 2771.2979 10251869
1383.6698 1175.0353 2774.5273 9726296
1412.3741 1185.3279 2798.8306 11305328
1425.6853 1182.6129 2792.4199 9397075
1431.5627 1173.8646 2771.7632 9726040
1450.8696 1176.2018 2777.282 9462868
1478.1854 1184.9066 2797.8359 10055004
1487.7135 1179.3179 2784.6396 10318174
1517.9293 1190.0712 2810.0305 10450016
1528.1721 1185.1019 2798.2971 9660244
1544.3951 1184.8271 2797.6484 9200464
1580.9408 1199.984 2833.437 8542534
1591.934 1195.6307 2823.158 9529173
1591.0048 1182.507 2792.1697 9266002
1622.7916 1193.7189 2818.6438 9200209
1628.7971 1185.931 2800.2549 7424052
1651.8362 1190.5774 2811.2261 8213824
1655.0819 1181.0071 2788.6282 8608068
1705.7812 1205.1525 2845.6411 8213566
1705.2417 1192.9788 2816.8962 8739396
1728.0454 1197.2136 2826.8955 8542274
1754.1251 1203.6151 2842.0107 8805705
1779.8016 1209.6206 2856.1912 8608838
1789.3453 1204.652 2844.459 9003594
1801.3804 1201.4375 2836.8691 8740424
1826.8824 1207.1813 2850.4314 8477768
1834.7653 1201.2839 2836.5066 9004627
1856.1179 1204.233 2843.47 9069651
1881.6735 1209.8311 2856.6882 8938321
1889.1954 1203.8379 2842.5371 8609098
1907.8749 1204.9977 2845.2756 9397844
1940.6042 1214.9332 2868.7356 9463378
1947.4028 1208.603 2853.7886 8870984
1983.4341 1220.368 2881.5684 8871242
1996.6538 1218.0166 2876.0161 9266258
2038.3452 1232.9264 2911.2214 9332052
2052.0242 1230.7844 2906.1638 9595482
2068.2034 1230.1652 2904.7019 9398105
2084.5918 1229.6797 2903.5554 9332568
2094.0647 1225.1561 2892.8743 9135188
2104.3784 1221.1938 2883.5186 9068367
2099.5894 1208.6018 2853.7856 9331282
2117.9624 1209.4374 2855.7585 9660247
2126.0789 1204.4492 2843.9805 9068364
2152.7473 1209.9667 2857.0085 8476485
2182.429 1217.0786 2873.8013 9200462
2231.4873 1234.8024 2915.6514 8937291
2240.4314 1230.2272 2904.8481 8739655
2251.8306 1227.0594 2897.3684 9529172
2272.3311 1228.8616 2901.6238 8936779
2297.3372 1233.0549 2911.5251 8738887
2313.4006 1232.4219 2910.0303 8936780
2325.0491 1229.4634 2903.0447 9001545
2339.4548 1227.9957 2899.5793 9002571
2355.082 1227.1862 2897.6675 9002571
2374.1392 1228.1624 2899.9727 9002828
2405.9453 1235.6724 2917.7056 9331022
2422.3093 1235.201 2916.5925 9265229
2456.231 1243.6259 2936.4856 9264972
2471.6946 1242.6525 2934.187 9330509
2477.3501 1236.796 2920.3586 9001544
2496.5962 1237.7587 2922.6316 9067081
2513.6638 1237.6356 2922.3411 8935495
2530.7239 1237.5104 2922.0454 9133132
2548.9558 1237.9561 2923.0979 9264718
2581.5376 1245.3179 2940.4807 9002573
2594.832 1243.3395 2935.8093 9463124
2594.9492 1235.1155 2916.3904 9463123
2616.6963 1237.2272 2921.3767 9200465
2659.0903 1249.0092 2949.1968 9331281
2674.3611 1247.9806 2946.7681 9332051
2690.8564 1247.533 2945.7109 9200979
2711.6023 1249.0491 2949.291 9529688
2727.9744 1248.5438 2948.0981 9859423
2724.5378 1239.037 2925.6499 9333079
2761.686 1247.99 2946.7903 9793630
2778.8792 1247.8698 2946.5063 8675149
2806.2402 1252.2885 2956.9399 8872271
2752.7554 1220.7986 2882.5852 9793373
0 0 0 0
0 0 0 0
0 0 0 0
0 0 0 0
0 0 0 0
0 0 0 0
0 0 0 0
0 0 0 0
0 0 0 0
0 0 0 0
-1997.8534 979.40271 2280.6846 1580065
-1959.9688 967.37421 2252.6743 1317663
-1971.8153 979.89465 2281.8301 1054234
-1961.1959 981.34637 2285.2107 1316892
-1950.24 982.64886 2288.2437 1843492
-1942.8895 985.79889 2295.5789 1712163
-1970.5349 1006.875 2344.6577 1514527
-1960.0306 1008.6188 2348.7185 1514528
-1946.6576 1008.9007 2349.375 1448735
-1918.4902 1001.4641 2332.0576 1975079
-1886.1533 991.72717 2309.3838 2304045
-1911.6943 1012.5021 2357.7615 1711908
-1878.5557 1002.2753 2333.9468 2040873
-1871.1021 1005.7024 2341.9272 1448735
-1875.4446 1015.5684 2364.9016 1514528
-1838.0713 1002.8232 2335.2227 2238250
-1828.9341 1005.407 2341.2393 2369836
-1820.792 1008.5814 2348.6313 3093559
-1813.6671 1012.3724 2357.4592 3422524
-1794.6857 1009.5527 2350.8933 3619903
-1811.131 1026.7733 2390.9939 3817282
-1776.0049 1014.7977 2363.1069 3817537
-1760.7438 1014.0727 2361.4187 5067603
-1738.1821 1009.0978 2349.834 5857118
-1728.6372 1011.6605 2355.8015 5857117
-1715.6346 1012.2247 2357.1155 5593431
-1695.7518 1008.7057 2348.9209 6251616
-1718.4231 1030.6509 2400.0234 5527639
-1687.9219 1020.8051 2377.0962 4869709
-1651.5657 1007.223 2345.4683 4606792
-1605.9827 987.73547 2300.0886 4738121
-1673.3365 1037.9691 2417.0649 5526866
-1665.6798 1042.1393 2426.7759 5856090
-1660.0831 1047.6823 2439.6833 4803402
-1632.7189 1039.4642 2420.5466 5329745
-1621.8617 1041.703 2425.76 5461329
0 0 0 0
-1457.3713 952.94342 2219.0703 5856327
-1439.9788 950.14331 2212.5498 8226377
-1428.1053 950.96686 2214.4675 5265184
-1427.4386 959.33752 2233.9597 8094792
-1423.8296 965.86877 2249.1687 4410925
-1412.2515 967.06647 2251.9578 6714176
-1405.7565 971.80115 2262.9832 4540960
-1401.9639 978.51294 2278.6125 9410144
-1390.8854 980.22064 2282.5894 4607007
-1366.2345 972.30304 2264.1519 9148239
-1357.7316 975.83411 2272.3745 2699799
-1349.0372 979.29712 2280.4387 5265470
-1337.0707 980.43073 2283.0784 5791815
-1322.8713 979.93353 2281.9207 4082226
-1334.7028 998.90784 2326.105 2305048
-1341.118 1014.1822 2361.6738 6054738
-1347.927 1030.0797 2398.6934 5265479
-1298.9983 1003.2675 2336.2573 4673085
-1291.9913 1008.6044 2348.6848 4080179
-1276.3307 1007.2283 2345.4805 5659466
-1258.514 1004.1017 2338.1997 5132867
-1257.199 1014.2178 2361.7566 6185557
-1238.7183 1010.5578 2353.2339 5659211
-1213.3356 1001.1198 2331.2559 5329991
-1230.7363 1027.1711 2391.9204 5067076
-1263.3688 1066.6902 2483.9463 5329994
-1230.9219 1051.5452 2448.679 4606275
-1135.2609 981.3924 2285.3179 4869448
-1129.5396 988.23431 2301.2502 4738118
-1136.3499 1006.3412 2343.4148 5198924
-1148.1699 1029.3876 2397.0818 4738116
-1104.3634 1002.5148 2334.5044 5593678
-1096.2515 1007.774 2346.7515 2567458
-1083.2449 1008.611 2348.7002 4475453
-1092.9094 1030.8535 2400.4954 5067844
-1063.1207 1015.9789 2365.8577 3159844
-1061.7545 1028.2318 2394.3904 2699544
-1037.4673 1018.3188 2371.3064 3291417
-1028.0809 1022.9601 2382.1145 5989181
-1006.4658 1015.3934 2364.4941 2567442
-996.47247 1019.5035 2374.0652 5461822
-997.91412 1035.5981 2411.5439 4804153
-988.17053 1040.384 2422.6887 4014127
-959.5448 1025.1383 2387.1865 5330241
-949.61346 1029.7074 2397.8264 5659719
-938.76062 1033.4009 2406.4272 2831127
-924.60834 1033.5203 2406.7053 5726530
-902.14166 1024.2039 2385.0107 4476463
-897.33124 1034.9553 2410.0471 3950123
-880.62653 1032.1141 2403.4309 6844757
-899.92389 1072.0682 2496.47 5330750
-880.44049 1066.3868 2483.24 4146215
-863.38824 1063.5068 2476.5334 4803373
-845.51556 1059.4991 2467.2009 5132335
-809.92584 1032.759 2404.9326 4672552
-784.99463 1018.8954 2372.6492 4475434
-763.21771 1008.6951 2348.8962 4015655
-738.19556 993.74707 2314.0874 4148012
-725.96136 995.77393 2318.8074 4542513
-722.88904 1010.6884 2353.5381 5134646
-709.18652 1011.0351 2354.3452 3819035
-691.4306 1005.5011 2341.4585 4213797
-683.90991 1014.9296 2363.4141 5069107
-671.42358 1017.2291 2368.769 4345131
-658.72272 1019.295 2373.5796 3950373
-640.49963 1012.7195 2358.2676 5726270
-640.50421 1035.3141 2410.8823 1515269
-626.84503 1036.3494 2413.2935 3883552
-610.22571 1032.425 2404.1548 4869941
-607.5127 1052.403 2450.6765 6843737
-613.44861 1088.7091 2535.2207 8356471
-589.09241 1071.7279 2495.6772 6514268
-573.83514 1070.8521 2493.6377 6383196
-558.88043 1070.5093 2492.8396 5264203
-553.92444 1089.8201 2537.8076 6251101
-535.75531 1083.4868 2523.0598 4672068
-515.94958 1073.3853 2499.5366 4408894
-499.91599 1070.766 2493.4375 4540731
-482.24664 1064.377 2478.5596 4738105
-458.74963 1044.3202 2431.8545 4540979
-446.76999 1050.0315 2445.1543 4409643
-432.11319 1049.6228 2444.2024 2502160
-418.06726 1050.7209 2446.7595 4607278
-402.65619 1048.3438 2441.2239 5265461
-391.76035 1057.9833 2463.6709 5922877
-369.69839 1037.0466 2414.917 4146467
-359.07828 1047.8121 2439.9858 5462583
-347.77045 1057.3898 2462.2891 5198901
-335.68387 1065.335 2480.7905 6251079
-325.85281 1081.4937 2518.4185 5724478
-316.77148 1101.8112 2565.731 6250572
-295.10825 1078.2081 2510.7676 8093034
-285.00085 1096.5607 2553.5042 6973527
-267.19714 1085.6987 2528.2107 7368015
-254.38161 1095.0188 2549.9138 8024648
-238.70306 1092.4136 2543.8469 6050340
-221.81787 1083.5626 2523.2363 7563320
-207.01341 1084.3312 2525.0261 5128975
-191.38834 1080.5862 2516.3054 8617026
-177.8896 1089.2283 2536.4297 8155453
-162.10387 1084.1696 2524.6497 4207367
-149.15218 1098.9636 2559.1001 7429690
-133.33325 1093.5896 2546.5857 10192997
-117.93468 1090.7316 2539.9302 3285520
-103.42915 1096.5048 2553.3743 5127980
-88.892975 1103.8762 2570.5396 8879206
-74.575356 1117.571 2602.4299 7958616
-58.422169 1103.7278 2570.1938 7037773
-43.334549 1107.3517 2578.6326 9078646
-28.083109 1108.4564 2581.2053 8288877
-12.815038 1110.7627 2586.5759 9341570
2.5095675 1109.9241 2584.623 9999245
17.84959 1111.4867 2588.2617 9801609
33.296169 1115.174 2596.8479 8814195
48.663132 1114.7064 2595.7593 9668731
64.030556 1114.4716 2595.2124 9799546
79.726273 1118.9353 2605.6067 9536375
95.47049 1122.5209 2613.9563 9010031
110.67757 1119.6713 2607.3208 9207157
126.50729 1123.0474 2615.1824 7824734
142.47369 1126.7676 2623.8455 8941928
157.47769 1122.8932 2614.8235 9138792
175.0426 1136.338 2646.1316 8940896
190.45119 1134.7245 2642.3743 9072481
205.10992 1129.2279 2629.5747 9927788
219.91357 1125.2489 2620.3088 9730152
233.97505 1118.2476 2604.0054 9203550
252.73219 1133.1664 2638.7461 9269343
265.95953 1122.9974 2615.0662 10322031
280.28226 1118.3188 2604.1714 9861483
300.4314 1136.1627 2645.7234 11243138
318.53088 1144.8698 2665.999 9663336
333.97186 1143.6501 2663.1592 9334884
349.94901 1144.2939 2664.6582 10255467
365.59375 1143.842 2663.606 9991009
380.14481 1140.1473 2655.0022 9529944
394.759 1136.9281 2647.5059 9399386
410.70306 1137.6387 2649.1604 9071197
427.52402 1140.6365 2656.1414 8085843
441.63593 1136.4503 2646.3931 8676697
459.77219 1142.5519 2660.6016 8610646
477.97098 1148.3992 2674.2178 9136215
495.86359 1153.1589 2685.3018 9201237
511.71402 1153.0215 2684.9817 8345926
529.79285 1157.7618 2696.0203 8872783
545.8905 1158.0221 2696.6262 10912885
565.63257 1165.7787 2714.6887 9334883
573.203 1148.7141 2674.9512 9729384
585.13831 1141.0797 2657.1733 9860713
608.14764 1154.875 2689.2979 9268571
620.55762 1148.3516 2674.1072 9399642
639.7666 1154.4214 2688.2415 9859167
654.00848 1151.4512 2681.325 10516326
665.12347 1143.2472 2662.2207 9660761
681.11914 1143.6183 2663.0847 10582375
710.14526 1165.3555 2713.7031 10187875
720.77753 1156.6139 2693.3472 9333080
732.95697 1150.6802 2679.5293 10846062
756.47766 1162.4252 2706.8796 9859423
763.83905 1149.3673 2676.4724 9267287
775.40656 1143.0409 2661.7402 9530459
795.73016 1149.6168 2677.0535 10057061
808.87506 1145.7673 2668.0891 9333081
837.53625 1163.6227 2709.668 11307383
857.92029 1169.5227 2723.4072 9267543
871.75183 1166.4376 2716.2231 9794143
886.62744 1164.8361 2712.4937 9925728
897.60809 1158.2653 2697.1926 9398870
914.09967 1158.9114 2698.6973 9201232
928.55951 1157.0038 2694.2549 9727833
934.24457 1144.4119 2664.9329 10055771
951.13507 1145.7366 2668.0176 10252895
979.98615 1161.1901 2704.0034 9857878
990.91229 1155.2488 2690.1682 10186842
999.08752 1146.3392 2669.4209 10384220
1016.4877 1148.127 2673.584 10187099
1036.0518 1152.2665 2683.2234 10187870
1070.5757 1172.6674 2730.73 9727576
1086.4292 1172.3142 2729.9077 9200978
1101.6804 1171.3312 2727.6184 9200464
1115.817 1169.2086 2722.6758 9200463
1143.406 1181.0419 2750.2312 9201234
1155.2201 1176.4771 2739.6016 9135441
1170.0471 1175.0649 2736.313 8872271
1184.847 1173.6644 2733.0518 8609097
1189.5729 1162.4573 2706.9543 9398357
1204.2828 1161.1752 2703.9685 9266258
1220.1461 1161.0239 2703.6165 9397587
1234.8998 1159.8346 2700.8469 9528661
1244.5697 1153.9619 2687.1716 9594711
1273.2012 1165.5967 2714.2649 9528147
1295.6772 1171.3765 2727.7239 9857366
1300.4587 1161.2136 2704.0583 9593937
1332.0712 1174.965 2736.0801 10054745
1342.701 1170.0999 2724.7512 9725524
1362.4243 1173.181 2731.926 10186331
1386.9248 1180.255 2748.3989 9988695
1409.5397 1185.5787 2760.7961 9857623
1422.5748 1182.8153 2754.3611 10318431
1429.2809 1174.9117 2735.9563 9528916
1462.8744 1189.0399 2768.856 5910563
1469.7446 1181.3748 2751.0063 10186846
1495.7258 1189.0703 2768.9268 9265230
1509.3312 1186.8673 2763.7966 9199179
1527.2078 1188.0342 2766.5137 8870471
1555.324 1197.0573 2787.5254 9068107
1559.4961 1187.6555 2765.6321 9199950
1566.731 1180.7577 2749.5696 9265488
1591.2938 1186.9266 2763.9348 9199952
1604.5641 1184.6327 2758.593 10252381
1620.9583 1184.6681 2758.6753 9725524
1619.5371 1171.8125 2728.7393 9659986
1645.7516 1179.0092 2745.4978 8870213
1670.1816 1184.7991 2758.9805 8936006
1698.9354 1193.5142 2779.2747 9331021
1728.7827 1202.8228 2800.9512 9331536
1731.5571 1193.2971 2778.7693 9200208
1764.3993 1204.4768 2804.803 9068878
1791.7196 1211.7135 2821.6548 9332049
1788.6779 1198.4729 2790.822 10384479
1830.8943 1215.5215 2830.5222 10186329
1842.3705 1212.0376 2822.4094 9988950
1851.0883 1206.818 2810.2549 10252636
1868.5126 1207.317 2811.417 10121051
1884.9988 1207.2065 2811.1597 9397582
1919.0393 1218.2417 2836.8567 9528656
1940.4314 1221.1256 2843.5723 9264970
1957.2806 1221.1256 2843.5723 9001798
1985.1133 1227.9194 2859.3928 9264970
1986.5198 1218.3905 2837.2031 9133642
2008.3384 1221.4357 2844.2942 9923159
2036.635 1228.3373 2860.3655 9266000
2054.1277 1228.6626 2861.123 9529174
2062.5269 1223.5879 2849.3059 9594968
2060.3521 1212.3734 2823.1914 9529174
2080.0911 1214.1307 2827.2834 9529430
2095.7976 1213.5248 2825.8726 9266001
2107.1953 1210.4535 2818.7205 9265744
2119.7246 1208.0753 2813.1826 9331538
2141.1328 1210.7551 2819.4229 9528658
2173.7593 1219.6879 2840.2244 9331536
2198.4688 1224.0754 2850.4412 8805192
2240.6785 1238.0657 2883.0195 8871241
2257.6426 1238.0004 2882.8674 8870985
2287.2986 1244.8435 2898.803 9791830
2314.3923 1250.2006 2911.2776 10186331
2319.9475 1243.9297 2896.675 9067337
2331.6272 1241.0107 2889.8777 9133128
2334.0002 1233.2169 2871.7285 9264457
2362.2476 1239.1083 2885.4473 9264457
2355.2424 1226.5562 2856.218 8803649
2367.2661 1224.0222 2850.3174 9067078
2417.7839 1241.287 2890.521 9197895
2398.2971 1222.6216 2847.0557 9198409
2442.6997 1236.5593 2879.512 9264459
2436.4788 1224.8546 2852.2556 9133130
2474.261 1235.2797 2876.532 9067850
2491.7869 1235.5183 2877.0876 9199438
2506.8621 1234.5468 2874.8254 9133389
2534.9734 1239.965 2887.4424 8804938
2538.325 1233.2806 2871.877 9133902
2555.0793 1233.1537 2871.5815 9199952
2568.6174 1231.4868 2867.6997 9463637
2615.6323 1245.7861 2900.9978 9134158
2649.3247 1253.5948 2919.1816 9331794
2615.469 1229.5475 2863.1838 8410949
2627.8057 1227.3854 2858.1489 8937036
2685.3713 1246.2412 2902.0576 9529173
2708.7754 1249.104 2908.7241 9726552
2723.1614 1247.7983 2905.6836 9463637
2710.1523 1234.0352 2873.634 9858395
2724.3135 1232.738 2870.6135 9332307
2711.9944 1219.5494 2839.9019 9529431
0 0 0 0
0 0 0 0
0 0 0 0
0 0 0 0
0 0 0 0
0 0 0 0
0 0 0 0
0 0 0 0
0 0 0 0
0 0 0 0
-1939.4709 963.90106 2214.0371 856339
-1912.14 956.78986 2197.7029 987924
-1900.2167 957.34344 2198.9744 790545
-1903.9211 965.83252 2218.4734 1579804
-1901.4598 971.29004 2231.0093 1185305
-1901.7434 978.23596 2246.9636 1382684
-1917.0967 993.08612 2281.0737 1317148
-1904.2115 993.41541 2281.8301 1382941
-1892.7867 994.5166 2284.3596 1646113
-1890.713 1000.5825 2298.2925 1646368
-1845.5049 983.74353 2259.6143 1909796
-1830.8717 983.07562 2258.0801 1909796
-1831.282 990.53473 2275.2134 2106918
-1807.5063 984.92535 2262.3289 2106916
-1810.2109 993.76935 2282.6431 1514780
-1789.9155 990.0249 2274.0422 2567724
-1791.537 998.43805 2293.3669 2831152
-1807.6582 1015.1223 2331.6899 2765615
-1790.1707 1013.0448 2326.918 3751740
-1759.6227 1003.4868 2304.9636 4014656
-1743.4069 1002.0166 2301.5867 4541258
-1682.3607 974.55402 2238.5063 3093811
-1739.5548 1015.6933 2333.0012 5330774
-1701.3295 1001.3316 2300.0132 5396564
-1703.8125 1010.8907 2321.9702 5067854
-1685.2928 1008.043 2315.429 4738629
-1658.1262 999.9339 2296.8027 4607040
-1636.6305 995.13879 2285.7886 4804672
-1599.2279 980.51074 2252.1887 4014900
-1590.5327 983.38574 2258.7925 4080697
-1575.485 982.34851 2256.4099 4672834
-1553.2061 976.74615 2243.5415 4343871
-1548.8032 982.38556 2256.4951 4540738
-1577.7123 1009.4365 2318.6299 5790807
0 0 0 0
-1486.6348 968.02344 2223.5059 4409919
-1388.1273 911.96246 2094.7363 4738364
-1406.8508 932.60229 2142.145 4738080
-1424.0376 952.58997 2188.0559 9805094
-1414.5959 954.96863 2193.5195 7303188
-1412.2258 962.20941 2210.1514 8488225
-1399.1515 962.22437 2210.1858 4737793
-1391.1271 965.74536 2218.2732 11712819
-1386.7577 971.89508 2232.3989 9541686
-1390.7618 984.0882 2260.406 9146672
-1367.7184 977.19391 2244.5701 10266675
-1351.481 975.07452 2239.7019 10465082
-1349.6378 983.40143 2258.8284 3555082
