# .PCD v0.7 - Point Cloud Data file format
VERSION 0.7
FIELDS x y z rgb
SIZE 4 4 4 4
TYPE F F F U
COUNT 1 1 1 1
WIDTH 1306
HEIGHT 1
VIEWPOINT 0 0 0 1 0 0 0
POINTS 1306
DATA ascii
-944.13495 859.32886 2249.3728 332544
-929.43774 858.06519 2246.0649 333056
-923.11804 864.61139 2263.2002 333056
-895.03284 850.664 2226.6917 925184
-891.36011 859.84875 2250.7334 990976
-870.90338 852.87592 2232.4814 727808
-857.07843 852.28265 2230.9285 68864
-835.58911 843.92987 2209.0645 267520
-823.49341 844.94965 2211.7339 1649410
-797.98816 832.021 2177.8918 662272
-792.87836 840.2821 2199.5161 465152
-783.61169 844.34039 2210.1389 399616
-769.14099 842.83386 2206.1956 465408
-759.06873 846.17865 2214.9507 1517571
-743.53436 843.44489 2207.7949 991488
-729.3139 842.13037 2204.354 333568
-722.96301 850.02051 2225.0073 69888
-709.60736 849.81506 2224.4695 399104
-697.84247 851.54291 2228.9922 333312
-688.18579 855.95953 2240.5532 793856
-684.22345 867.77203 2271.4734 1978123
-669.97595 866.75238 2268.8044 2109964
-663.50665 875.95978 2292.9058 1121540
-652.14429 878.95734 2300.752 858881
-650.15442 894.9848 2342.7053 528640
-644.96777 907.21503 2374.719 3485718
-640.57587 921.13348 2411.1521 7627845
-623.64655 917.24738 2400.9797 3417613
-610.05853 918.20874 2403.4963 7494971
-595.33032 917.45892 2401.5334 8019517
-583.77032 921.67444 2412.5681 8084795
-567.44189 918.38422 2403.9556 8940104
-555.21802 921.73846 2412.7356 9070922
-542.9472 925.19025 2421.771 9070665
-529.81995 927.33032 2427.3728 9530703
-514.26276 925.21802 2421.8438 9004357
-503.11285 931.14142 2437.3486 8280377
-487.79224 929.46777 2432.9678 8214839
-471.87454 926.51978 2425.2512 8872255
-460.38 932.34418 2440.4971 9201477
-444.63284 929.65485 2433.4575 9333319
-430.87836 931.09131 2437.2175 9662028
-416.23737 930.64545 2436.0503 8872513
-399.65329 925.66669 2423.0181 9662028
-385.53415 926.23895 2424.5161 9398856
-369.92258 923.13129 2416.3813 9990223
-357.21423 927.30988 2427.3193 10451030
-341.73734 924.35059 2419.5732 10056016
-325.89203 920.09216 2408.4263 9333064
-313.79562 926.51257 2425.2322 9990738
-301.35904 932.49646 2440.8958 10253396
-284.64197 925.17102 2421.7207 10056272
-269.86316 923.70215 2417.8757 10056271
-256.03888 925.51892 2422.6313 9792843
-243.49956 932.47229 2440.8325 10253395
-229.01888 932.39996 2440.6431 10121809
-213.06723 925.92548 2423.6956 9332547
-200.23485 933.05023 2442.3452 9332291
-185.02354 929.3363 2432.6235 9003325
-170.34726 927.909 2428.8875 9200448
-155.90637 927.61902 2428.1284 9727048
-142.68546 935.26648 2448.1465 9924427
-127.32555 929.03778 2431.8423 9727048
-112.61877 926.59302 2425.4429 9858634
-98.628487 930.19037 2434.8594 9661255
-83.992592 927.88843 2428.8337 9857865
-69.785576 930.35211 2435.2827 10054986
-55.513428 933.00562 2442.2283 9989450
-40.786034 927.18127 2426.9827 9923657
-26.322367 924.27301 2419.3701 9792071
-12.12083 934.62128 2446.4575 10186572
2.3640134 930.1355 2434.7156 10121035
16.787596 929.96466 2434.2683 9660741
31.142654 927.91003 2428.8901 10252365
45.5341 927.89569 2428.8525 9989449
59.785114 925.71375 2423.1411 9857863
73.948662 923.28479 2416.7832 9660484
88.529518 926.00909 2423.9143 9792071
102.81026 925.27167 2421.9841 10120779
116.69041 921.55139 2412.2461 10121035
131.42717 924.66986 2420.4087 9923658
146.30453 928.06659 2429.3 10252366
160.45911 926.68048 2425.6719 9923401
175.2912 929.1134 2432.0403 10054987
190.04187 930.77789 2436.3972 10121037
204.53502 931.03522 2437.0708 10515794
219.02286 931.2359 2437.5962 9660486
234.4043 934.97626 2447.3867 9857608
248.90605 934.97626 2447.3867 9858121
263.62314 935.7406 2449.3875 9923914
278.67059 937.53668 2454.0889 9595463
294.23676 940.81305 2462.665 9398339
308.6311 940.21002 2461.0867 9200961
323.29654 940.45013 2461.7151 9003839
337.47144 939.30402 2458.7151 8871997
349.83328 933.41528 2443.3008 10056271
367.10681 940.57898 2462.0525 9858892
384.08575 946.46924 2477.4707 9529672
394.49506 936.33276 2450.9375 9463623
412.78885 944.96533 2473.5342 9068864
424.88004 939.29376 2458.6882 10253140
437.77594 935.71832 2449.3291 9332038
451.40076 933.88013 2444.5176 9463883
470.63416 943.39905 2469.4341 9727054
485.4371 943.73059 2470.302 9595727
500.77457 945.05145 2473.7595 9529934
513.78156 942.02423 2465.8354 8937285
528.54663 942.29883 2466.5542 9727058
543.16193 942.29883 2466.5542 9529679
566.05872 956.28937 2503.1758 9858644
572.84119 943.03735 2468.4875 9727056
588.20245 944.21637 2471.5735 9398092
599.5553 939.05994 2458.0762 9332298
609.84796 932.52692 2440.9753 8871492
626.62024 935.97504 2450.0012 9398092
640.34711 934.82123 2446.981 8937542
655.7691 936.13837 2450.4287 9332300
675.10596 942.86603 2468.0388 9923924
678.88867 928.04565 2429.2454 9266250
704.38965 942.91339 2468.1631 8608577
717.34857 940.7287 2462.4443 9134920
735.46417 945.25879 2474.3022 8937542
751.3371 946.78564 2478.2991 8542785
769.26184 950.79004 2488.7808 9595472
779.81995 945.71002 2475.4834 9397839
797.87921 949.74652 2486.0493 9726547
810.96814 947.82751 2481.0261 9068617
825.28827 947.39014 2479.8813 9003850
843.45905 951.31116 2490.145 8806726
856.87207 949.82343 2486.2507 8609348
866.81403 944.60352 2472.5872 9135691
883.34137 946.61432 2477.8503 8609348
898.53668 947.15509 2479.2659 8938312
915.60608 949.62219 2485.7239 8280126
930.14465 949.42792 2485.2153 8609091
941.88324 946.42615 2477.3579 8741191
949.65131 939.58826 2459.459 9135695
963.16071 938.55151 2456.7451 8938572
990.60889 950.92603 2489.1367 8806987
999.61176 945.49084 2474.9097 8346181
1010.4681 941.94061 2465.6167 8346694
1030.8721 947.26495 2479.5537 9070672
1051.6249 952.75568 2493.926 9004108
1064.4806 951.0387 2489.4316 8411972
1080.1388 951.8382 2491.5244 7622709
1091.571 948.94232 2483.9443 8412225
1109.4978 951.69446 2491.1482 7951674
1117.6356 946.08783 2476.4724 7030317
1130.2338 944.35339 2471.9321 7820091
1150.0654 948.62976 2483.126 8083262
1163.407 947.51227 2480.2009 8806986
1179.1194 948.32959 2482.3403 8609350
1196.739 950.64178 2488.3928 8411458
1212.3677 951.33545 2490.2085 7951164
1220.2349 945.99524 2476.23 8543300
1225.4387 938.74176 2457.2432 7951677
1242.4474 940.5954 2462.0952 7951676
1266.6522 947.79059 2480.9294 7491126
1274.611 942.80389 2467.8762 7293235
1292.313 945.05536 2473.7698 6437924
1306.4135 944.65222 2472.7146 7424820
1317.4304 942.05304 2465.9109 6963756
1331.5225 941.68567 2464.9492 6635304
1332.1018 931.87347 2439.2649 6898221
1359.4554 940.80084 2462.6331 6437670
1367.5541 936.35474 2450.9951 7753530
1397.5 946.80365 2478.3459 6306086
1414.0027 948.02222 2481.5356 7095859
1422.0177 943.58374 2469.9175 7359031
1451.7413 953.49359 2495.8577 6964530
1456.1656 946.75482 2478.2183 6503722
1486.4723 956.81049 2504.54 6635051
1485.5314 946.75287 2478.2131 6437929
1498.7393 945.82104 2475.7739 6701101
1514.0509 946.22211 2476.8237 6437672
1521.8431 941.96118 2465.6704 6372136
1546.4983 948.11951 2481.7905 6898737
1557.8285 946.06964 2476.4246 6109221
1576.2393 948.31793 2482.3098 6832944
1586.8497 945.87512 2475.9155 6108964
1600.4723 945.25598 2474.2949 6766895
1622.3411 949.4743 2485.3367 6767152
1610.8777 934.28442 2445.5759 6767151
1629.0571 936.40466 2451.1257 6240551
1643.1412 936.15399 2450.4697 6240808
1634.3885 923.01093 2416.0664 6043429
1646.2703 921.64795 2412.4988 5977637
1667.3416 925.40894 2422.3435 5911587
1682.9736 926.11267 2424.1855 6043431
1693.4606 923.99701 2418.6477 5385501
1689.1128 913.89069 2392.1934 5319708
1718.6449 922.13062 2413.7622 5188121
1722.2908 916.46008 2398.9189 5517087
1715.0812 905.15326 2369.3223 6109223
1729.9795 905.60303 2370.4995 5319451
1749.4781 908.43427 2377.9106 5451294
1753.6096 903.3045 2364.4829 5714209
1764.0695 901.48993 2359.7332 5385500
1794.3723 909.76459 2381.3928 4924950
1797.9718 904.47681 2367.5518 5319451
1801.2048 899.08813 2353.4463 5385501
1810.0428 896.55841 2346.8245 5516830
1823.749 896.46033 2346.5676 5122585
1837.9725 896.61591 2346.9751 4530449
1848.9958 895.21985 2343.3208 4990743
1858.3146 893.02551 2337.5769 4398863
1864.4459 889.34314 2327.938 5122072
1873.2737 886.9917 2321.7827 4727571
1879.8163 883.60034 2312.9055 4464399
1896.2988 884.89661 2316.2986 4267020
1888.869 875.0957 2290.6438 5583137
1911.2762 879.1593 2301.2808 3872520
1901.7496 868.58038 2273.5894 4135690
1904.4646 863.7019 2260.8196 4595985
1907.2549 858.92548 2248.3169 4201484
1908.4764 853.51379 2234.1514 4464656
1923.9951 854.52667 2236.8025 3872519
1932.8279 852.57648 2231.6978 4597270
1932.9136 846.82074 2216.6313 4333589
1932.3489 840.8595 2201.0273 3544330
1956.8689 845.82062 2214.0137 4202001
1957.2531 840.35303 2199.7017 3346952
1967.1038 838.99518 2196.1475 4004882
1972.9598 835.96277 2188.2097 4859934
1959.3013 824.75525 2158.873 3938832
1963.6427 821.22113 2149.6221 4333586
1977.7798 821.80267 2151.1443 4728343
1987.2198 820.43756 2147.5713 4464916
1987.2388 815.2251 2133.927 4728603
2003.0234 816.50525 2137.2778 4465430
2005.0155 812.18219 2125.9619 5057823
1997.4001 804.04572 2104.6638 2953481
2011.9224 804.86627 2106.8118 3676173
0 0 0 0
0 0 0 0
0 0 0 0
0 0 0 0
0 0 0 0
0 0 0 0
0 0 0 0
0 0 0 0
0 0 0 0
0 0 0 0
-1842.689 816.086 2103.554 1280
-1833.2952 817.45514 2107.083 1280
-1820.6113 817.36609 2106.8533 1280
-1801.1801 814.22552 2098.7583 1280
-1789.1927 814.42981 2099.2847 1280
-1776.4071 814.27094 2098.8752 1280
-1763.0217 813.83301 2097.7463 1536
-1747.4059 812.35193 2093.9287 1536
-1737.4448 813.49725 2096.8811 1536
-1725.2094 813.58661 2097.1113 1536
-1712.5854 813.49274 2096.8694 1536
-1702.9465 814.82568 2100.3052 1280
-1687.3798 813.32111 2096.427 1792
-1675.9487 813.80231 2097.6675 1280
-1659.4767 811.82471 2092.5698 1280
-1645.3784 810.98743 2090.4116 1536
-1637.7478 813.34924 2096.4995 1792
-1625.9861 813.68005 2097.3521 1024
-1613.3251 813.56226 2097.0486 1280
-1600.2769 813.24597 2096.2334 67840
-1586.7466 812.67792 2094.769 1280
-1571.928 811.43579 2091.5674 1536
-1558.7443 811.02454 2090.5073 1280
-1545.9949 810.83453 2090.0176 2304
-1533.0262 810.52557 2089.2212 265472
-1522.1891 811.34766 2091.3401 199168
-1514.8043 814.03851 2098.2761 1536
-1510.2924 818.33044 2109.3391 462336
-1492.7906 815.59711 2102.2935 1024
-1496.3502 824.42139 2125.0393 2304
-1496.7261 831.62659 2143.6113 1024
-1488.6969 834.245 2150.3606 67840
-1478.4995 835.68317 2154.0676 265728
-1462.9349 834.08618 2149.9514 768
-1448.2041 832.94086 2146.999 1792
-1408.0674 817.03333 2105.9956 1536
-1427.1609 835.51697 2153.6394 1280
-1415.7344 836.30542 2155.6716 1536
-1406.9805 838.70135 2161.8474 2560
-1394.9775 839.18677 2163.0986 1792
-1378.7262 837.10168 2157.7241 1536
-1370.8969 840.13898 2165.553 1536
-1357.3684 839.70801 2164.4421 1536
-1345.885 840.5459 2166.6021 1536
-1336.579 842.77301 2172.3425 1536
-1324.6184 843.35333 2173.8384 1536
-1311.8704 843.43878 2174.0586 1536
-1297.6638 842.5788 2171.8418 1536
-1289.9954 845.98932 2180.6331 1536
-1278.8496 847.16541 2183.6646 1536
-1265.2861 846.74756 2182.5874 1536
-1252.9908 847.17865 2183.6985 1536
-1240.9497 847.79218 2185.28 1280
-1225.0127 845.72906 2179.9622 1536
-1213.6857 846.83856 2182.822 1536
-1200.2217 846.46484 2181.8586 1280
-1187.4764 846.59546 2182.1953 1280
-1176.3668 847.90784 2185.5781 1536
-1160.1625 845.53632 2179.4653 1792
-1149.5023 847.19751 2183.7473 133888
-1136.3921 847.07031 2183.4194 331264
-1124.7859 848.07422 2186.0071 1280
-1118.7516 853.35162 2199.6101 67840
-1097.0383 846.65295 2182.3435 1280
-1090.3071 851.495 2194.8245 133888
-1078.918 852.77234 2198.1169 331008
-1058.0778 846.51953 2181.9998 331264
-1059.1128 857.8299 2211.1536 133888
-1044.0172 856.19495 2206.9392 726528
-1022.8228 849.45337 2189.562 726016
-1016.5541 855.09375 2204.1008 397056
-1009.8279 860.49097 2218.0127 2048
-989.47797 854.26868 2201.9739 1449728
-981.41925 858.63336 2213.2244 792320
-967.74573 858.13739 2211.946 2372370
-964.82544 867.29407 2235.5483 1648902
-942.54761 859.06268 2214.3311 1714693
-937.51721 866.54065 2233.6062 858882
-922.67908 865.0376 2229.7322 530176
-903.05493 858.93872 2214.0115 1536
-881.19788 850.50494 2192.2725 1319680
-866.21881 848.55646 2187.2502 199680
-860.13269 855.39294 2204.8718 135424
-847.62537 855.95581 2206.3228 596224
-823.97632 845.10883 2178.3635 267520
-806.33984 840.18158 2165.6628 859904
-791.68939 838.25665 2160.7012 596736
-790.93994 851.22894 2194.1387 397825
-771.43158 844.1087 2175.7856 3072
-765.35596 851.69446 2195.3386 464896
-754.37219 853.98627 2201.2461 201472
-727.31982 837.84833 2159.6487 1385473
-715.26392 838.7171 2161.8879 268032
-717.65729 856.86963 2208.6782 925440
-705.65674 858.19128 2212.085 200960
-697.06915 863.79236 2226.5222 267520
-685.11676 865.35938 2230.5615 596480
-676.6582 871.48785 2246.3584 2109452
-671.8078 882.60254 2275.0078 4873014
-662.28021 887.90192 2288.6675 2108426
-650.81799 890.7749 2296.0728 1316096
-647.82434 905.60895 2334.3093 1446923
-643.60687 919.34216 2369.7083 3746572
-624.60168 912.09375 2351.0247 7625787
-611.50415 913.33826 2354.2324 8545858
-599.19897 915.85199 2360.7119 8874566
-587.40002 919.27808 2369.543 9794893
-569.46667 913.03668 2353.4551 8939066
-556.29108 914.30151 2356.7153 8939319
-544.72046 918.33728 2367.1179 8939575
-529.97852 917.09857 2363.925 9267776
-523.02496 929.63586 2396.2415 9662282
-505.0491 922.73492 2378.4534 9267528
-489.98862 920.91711 2373.7678 9399371
-477.44696 923.86584 2381.3684 9136199
-466.68207 930.53693 2398.564 9135941
-451.02985 927.57587 2390.9316 9135940
-437.18951 928.26996 2392.7207 9596235
-422.87891 927.97864 2391.9697 9135684
-406.69632 923.41663 2380.2107 9925202
-393.33932 925.17297 2384.7378 9727823
-380.98196 929.49902 2395.8887 9925459
-363.89081 922.16376 2376.9812 9793359
-351.09152 925.552 2385.7148 10384982
-334.80258 919.63916 2370.4739 9858638
-321.28973 921.16785 2374.4141 10122066
-307.04324 920.63666 2373.0449 10056017
-296.19595 930.73578 2399.0767 9529929
-279.90433 923.88318 2381.4131 9924430
-267.03897 928.21228 2392.572 10056272
-253.03928 928.86298 2394.2493 10056016
-239.21877 930.28784 2397.9219 9463879
-224.53821 928.33673 2392.8928 10056273
-210.74815 930.05249 2397.3154 9793100
-196.4761 929.73553 2396.4983 9792844
-182.17073 929.19916 2395.1157 10122065
-167.69576 927.63391 2391.0813 9858894
-153.97629 930.34473 2398.0686 9792844
-139.11948 926.03613 2386.9626 10055503
-125.56491 930.40149 2398.2148 9792842
-111.15759 928.75616 2393.9739 10121807
-96.531815 924.53705 2383.0986 10253393
-82.861069 929.58618 2396.1133 9595205
-68.545578 927.99463 2392.011 9726278
-54.304401 926.84167 2389.0391 9726278
-40.089172 925.47479 2385.5156 9726021
-25.973549 926.17065 2387.3093 9923657
-11.825511 925.9928 2386.8508 9792070
2.3273554 929.9151 2396.9612 9857607
16.434351 924.51672 2383.0461 9857864
30.397394 919.75232 2370.7654 9989193
44.959805 930.40302 2398.2188 9857863
58.751244 923.815 2381.2375 10515794
73.669769 934.06921 2407.6687 10054986
87.045692 924.61041 2383.2876 9594692
102.19055 933.95923 2407.3853 9463105
115.70422 927.93585 2391.8594 10054985
129.82112 927.53699 2390.8313 9660229
145.39261 936.58667 2414.158 10186060
159.36514 934.63776 2409.1343 9988937
173.07516 931.59625 2401.2944 9725765
187.3038 931.59625 2401.2944 9594180
202.31345 935.20642 2410.6001 9462851
214.86893 927.7442 2391.3655 9857866
229.91998 931.31378 2400.5664 9594436
245.34514 935.89447 2412.3738 9528899
260.93768 940.57428 2424.4363 9792072
275.19125 940.19086 2423.4482 9265984
289.10403 938.73907 2419.7058 8542261
304.67889 942.56628 2429.571 9200447
318.37091 940.48621 2424.2095 9332291
334.54761 945.60864 2437.4131 9529670
347.01874 940.26672 2423.6436 9266498
362.57013 943.36383 2431.6267 9595207
375.93127 940.74323 2424.8718 8937277
391.68973 944.09375 2433.5083 9134144
406.02148 943.88983 2432.9824 9397830
419.03448 940.73914 2424.8613 9332039
434.45703 943.02747 2430.7598 9002818
448.2739 941.79565 2427.5845 8806466
465.91367 948.4223 2444.6655 9332811
478.34549 944.36761 2434.2141 8740417
488.9682 937.08319 2415.4377 8937797
511.62018 952.61096 2455.4624 10056022
519.45068 940.44629 2424.1064 9200457
534.80371 942.18915 2428.5989 9727057
547.38348 939.0827 2420.5918 9003335
568.36725 950.18469 2449.2083 9989973
579.85077 945.24689 2436.4807 9661265
594.87738 946.18451 2438.8975 9332301
607.95667 944.05377 2433.4053 9003336
619.1875 939.2179 2420.9402 9069129
632.4668 937.63794 2416.8677 9726802
643.05176 932.22205 2402.9075 9069129
655.68469 929.94519 2397.0388 8805957
672.21936 933.18158 2405.3809 9332046
698.38489 949.37555 2447.1226 9397838
706.94513 941.46503 2426.7324 9397838
722.48364 942.97797 2430.6321 9332044
735.92218 941.74445 2427.4526 8542785
756.94666 950.07965 2448.9375 9068875
766.23773 943.65125 2432.3674 9134668
777.52423 939.87219 2422.6267 8279358
796.39233 945.2287 2436.4336 8345405
813.3692 948.18982 2444.0662 8345662
826.08136 946.1626 2438.8408 8806727
842.15967 947.99414 2443.562 8740933
860.10364 951.82861 2453.4458 9464658
865.63611 942.02869 2428.1853 9661781
879.9624 941.96277 2428.0154 8148542
897.18494 944.94928 2435.7134 8674629
911.75092 945.08759 2436.0698 8477504
919.62976 938.39789 2418.8264 9333328
933.15491 937.58673 2416.7356 9530196
947.45197 937.5639 2416.6768 9135694
958.85413 934.71967 2409.3455 8806985
982.72607 943.93658 2433.103 8938317
996.32239 943.15948 2431.1001 8346435
1008.0889 940.69733 2424.7534 8083263
1024.4323 942.51483 2429.4385 8609348
1045.7303 948.77771 2445.5815 9727828
1067.3877 955.19067 2462.1118 8807240
1071.1542 945.63629 2437.4844 8280639
1081.6167 942.16895 2428.5469 8214847
1104.1705 949.18683 2446.6362 7885626
1111.5043 943.10858 2430.9688 8609350
1131.4639 947.76178 2442.9629 8149056
1145.4838 947.38495 2441.9917 8938571
1163.0341 949.90094 2448.4768 7820091
1166.0101 940.59814 2424.498 7424564
1193.225 950.83679 2450.8892 8016958
1206.859 950.13739 2449.0864 7490613
1214.9059 945.10815 2436.1228 8214336
1225.9709 942.51733 2429.4448 7359027
1247.8765 948.22394 2444.1543 6964269
1256.9939 944.19397 2433.7666 7490612
1274.7263 946.65308 2440.1052 7621942
1287.2654 945.24365 2436.4722 6635303
1294.8448 940.26385 2423.6362 6963498
1307.9966 939.39532 2421.3975 6701353
1322.6287 939.59729 2421.9182 5779996
1336.6017 939.33185 2421.2339 6832685
1362.156 947.12463 2441.3206 6964525
1371.8402 943.83484 2432.8408 8806474
1382.2615 941.11523 2425.8308 6701101
1397.1362 941.45264 2426.7004 6306600
1431.5038 954.78461 2461.0649 8017218
1440.2594 950.93707 2451.1477 7161909
1440.025 941.2901 2426.2815 6898480
1474.472 954.2796 2459.7634 5977378
1470.8165 942.59619 2429.6482 6964530
1482.6937 940.99719 2425.5266 6108965
1508.9218 948.4494 2444.7354 6503466
1513.2683 942.13666 2428.4636 6175014
1533.3116 945.62347 2437.4512 8017219
1559.3459 952.70532 2455.7056 7622203
1558.7502 943.53687 2432.0728 6372392
1562.7373 937.28485 2415.9575 6109221
1572.2372 934.42285 2408.5803 7293238
1589.3763 936.11163 2412.9333 7556668
1609.6906 939.62372 2421.9861 5648414
1622.1473 938.52759 2419.1609 5846049
1628.546 933.97644 2407.4297 6832431
1633.5623 928.71826 2393.8762 5450778
1649.4943 929.703 2396.4146 5780256
1659.9796 927.62744 2391.0645 6043429
1662.2699 921.04608 2374.1003 5714463
1685.204 925.91779 2386.6577 6175015
1689.671 920.64624 2373.0696 6109222
1691.6241 914.10339 2356.2046 6109223
1698.3613 910.23151 2346.2244 5451294
1711.0453 909.58374 2344.5549 5451294
1733.8176 914.2663 2356.6248 6372396
1740.2057 910.30334 2346.4097 5582879
1744.8713 905.50934 2334.0525 5582880
1759.1119 905.72058 2334.5972 5122072
1776.0963 907.33038 2338.7463 5516830
1786.8799 905.77191 2334.7292 4924950
1783.4209 897.0733 2312.3076 5122329
1784.8381 890.94147 2296.5022 5056536
1808.4004 895.87286 2309.2134 5056536
1816.3914 893.07422 2301.9995 5319708
1824.4567 890.35352 2294.9868 5451294
1839.4263 891.01764 2296.6985 4727314
1845.3707 887.33234 2287.1992 4793364
1858.3796 887.07281 2286.5303 4662035
1865.1694 883.86981 2278.2744 4333070
1860.6631 875.39844 2256.4385 7030326
1870.3818 873.69275 2252.0417 5188122
1878.5927 871.31177 2245.9045 4464656
1884.4794 867.89392 2237.0947 4267021
1890.9856 864.80725 2229.1384 3872519
1897.7675 861.88855 2221.615 4201484
1900.7303 857.28754 2209.7554 3543558
1906.0712 853.81464 2200.8037 4136205
1904.4856 847.30743 2184.0305 4859928
1906.4756 842.46814 2171.5566 4004877
1952.8185 857.16174 2209.4312 4399377
1932.3842 842.54395 2171.7522 4004366
1934.3328 837.81409 2159.5605 4004368
1949.3347 838.76331 2162.0071 4004881
1948.4835 832.92316 2146.9534 4860190
1952.7267 829.32245 2137.6721 4465687
1951.2104 823.33777 2122.2461 4530967
1953.4561 819.00696 2111.083 4662810
1968.8495 820.20862 2114.1804 4005138
1965.155 813.49341 2096.8711 3939089
1972.5034 811.40521 2091.4885 4399895
1970.2583 805.42133 2076.0645 4005649
1987.2435 807.32422 2080.9692 3808528
0 0 0 0
0 0 0 0
0 0 0 0
0 0 0 0
0 0 0 0
0 0 0 0
0 0 0 0
0 0 0 0
0 0 0 0
0 0 0 0
-1815.2172 816.19794 2072.1929 1280
-1802.2002 815.86365 2071.3442 1280
-1788.8857 815.38934 2070.1399 1280
-1775.0681 814.67725 2068.3323 1280
-1764.4883 815.45184 2070.2986 1280
-1750.8706 814.82336 2068.7031 1280
-1736.9559 814.04688 2066.7317 1536
-1722.8998 813.19269 2064.563 1280
-1712.6613 814.14093 2066.9705 1024
-1702.5814 815.17877 2069.6055 1280
-1689.5001 814.7843 2068.604 1024
-1679.8497 816.05066 2071.8191 1536
-1667.7825 816.15308 2072.0789 2816
-1641.7295 809.362 2054.8376 1536
-1634.7185 811.92725 2061.3503 2816
-1623.812 812.58173 2063.012 1280
-1610.2725 811.91852 2061.3281 1792
-1598.3949 812.08942 2061.7622 1792
-1586.6606 812.33661 2062.3896 1024
-1577.0901 813.70374 2065.8606 1024
-1565.8024 814.1994 2067.1191 1024
-1547.6149 811.08704 2059.217 768
-1535.0818 810.91187 2058.7725 1024
-1524.7371 811.89929 2061.2793 768
-1507.455 809.17877 2054.3723 1252358
-1499.8662 811.65955 2060.6707 1024
-1491.7367 813.88593 2066.3232 199680
-1485.3219 817.09259 2074.4644 67072
-1477.9974 819.84821 2081.4602 1280
-1486.3815 831.43689 2110.8821 2304
-1448.6672 817.21747 2074.7815 1280
-1432.6592 815.10437 2069.4165 1024
-1428.7792 819.91449 2081.6287 1280
-1422.6566 823.51025 2090.7578 1024
-1434.4943 837.65698 2126.6738 1280
-1424.9893 839.48108 2131.3049 1280
-1414.9789 841.03741 2135.2563 1280
-1402.163 840.93927 2135.0071 1536
-1387.0835 839.46942 2131.2754 1536
-1372.2498 838.12268 2127.8562 1792
-1362.7607 840.04559 2132.738 1536
-1353.7126 842.27869 2138.4077 1536
-1342.1842 842.99622 2140.2295 1536
-1329.1677 842.78406 2139.6907 2048
-1319.0065 844.39557 2143.782 1536
-1309.1798 846.25464 2148.502 1536
-1292.1354 843.4389 2141.3533 1536
-1284.6493 846.86829 2150.0601 1536
-1267.6643 844.04199 2142.8843 1536
-1255.7159 844.54572 2144.1633 1536
-1243.8208 845.09595 2145.5603 1792
-1229.9989 844.3349 2143.6282 1280
-1218.0537 844.8598 2144.9607 1536
-1204.067 843.96484 2142.6885 1536
-1189.9789 842.97876 2140.1851 1536
-1181.0504 845.66602 2147.0076 1280
-1166.1917 844.11938 2143.0808 1280
-1152.1274 843.11993 2140.5435 1280
-1138.28 842.25879 2138.3572 1280
-1133.8719 848.44147 2154.054 1280
-1118.9791 846.83008 2149.9629 1024
-1105.9679 846.62195 2149.4346 1536
-1102.4756 853.78064 2167.6094 2304
-1085.4392 850.49573 2159.2695 2304
-1072.8857 850.68683 2159.7546 1024
-1062.254 852.42487 2164.167 1792
-1046.3425 849.91644 2157.7988 68096
-1041.5721 856.50775 2174.533 1280
-1035.4984 862.17896 2188.9312 463360
-1014.0646 855.04279 2170.8135 594176
-1003.1055 856.66864 2174.9414 67328
-992.76874 858.87531 2180.5437 199936
-978.72888 857.89417 2178.0527 1186818
-969.63959 861.28424 2186.6597 792320
-963.44482 867.37207 2202.1155 2305294
-956.40778 872.85822 2216.0442 1318658
-938.16949 868.13214 2204.0454 1646852
-933.97382 876.45038 2225.1641 2765844
-914.6297 870.58789 2210.28 4148007
-887.56183 857.09637 2176.0273 332032
-877.21777 859.59485 2182.3706 1583363
-860.79041 856.11792 2173.5432 68608
-849.41974 857.64105 2177.4102 662016
-848.29761 869.71838 2208.0725 1188613
-833.70953 868.15186 2204.0955 69888
-803.39825 849.90222 2157.7625 1320706
-783.74591 842.52045 2139.0215 596992
-778.50629 850.64435 2159.6467 1650183
-766.00891 850.97699 2160.4912 398592
-752.99103 850.73285 2159.8713 201984
-742.04932 852.86646 2165.2883 333056
-723.50635 846.185 2148.3252 1123072
-713.89337 849.89545 2157.7454 596480
-708.24719 858.54987 2179.7175 991232
-696.67102 860.20386 2183.9167 990720
-690.40796 868.60492 2205.2456 662016
-680.59399 872.77637 2215.8364 267008
-676.18115 884.17462 2244.7747 1582854
-672.09332 896.46381 2275.9749 4147752
-658.37158 896.14301 2275.1604 2502412
-658.25275 914.71136 2322.3025 1842693
-644.32123 914.46881 2321.6865 6182711
-632.5603 917.36346 2329.0356 1905155
-617.14484 914.96912 2322.9568 4729871
-603.19067 914.6814 2322.2263 9794131
-590.74268 916.71765 2327.396 9858886
-570.57611 906.5871 2301.6763 10912811
-553.02118 900.21161 2285.49 12031531
-542.05695 904.51385 2296.4126 11373598
-528.56946 904.71875 2296.9326 11571489
-516.96063 908.23499 2305.8599 10914079
-506.70734 914.38837 2321.4822 9333047
-494.29465 916.87952 2327.8069 9267527
-483.28766 922.19598 2341.3047 8938563
-468.22751 919.86407 2335.3843 9136200
-457.19089 925.5354 2349.783 9070150
-442.25003 923.41107 2344.3894 9333066
-429.64581 926.18591 2351.4343 9925203
-415.6384 926.02045 2351.0144 9201480
-401.43768 925.39801 2349.4341 8740930
-388.32767 927.33563 2354.3533 9859409
-374.46332 927.54895 2354.8948 9990225
-358.71341 922.92743 2343.1616 9266502
-345.42953 924.53412 2347.2407 9990482
-333.29068 929.46875 2359.769 9793103
-318.93091 928.37091 2356.9817 9727310
-304.72406 927.63782 2355.1206 9727310
-290.01724 925.23944 2349.0315 9990481
-277.52924 930.03485 2361.2061 9924431
-263.17273 928.74524 2357.9321 9792845
-249.18953 928.70227 2357.823 9661258
-235.66995 930.4848 2362.3486 10122067
-221.19 928.46124 2357.2112 9464136
-208.50998 934.22937 2371.8555 9792845
-193.55252 929.88983 2360.8381 9332551
-179.55011 929.81995 2360.6606 9924687
-165.00685 926.70087 2352.7417 9990480
-151.52771 929.53369 2359.9338 9661002
-137.38921 928.48651 2357.2754 9463366
-123.38551 928.21649 2356.5896 9792587
-109.51687 929.02325 2358.6379 9661001
-95.285851 926.5423 2352.3391 9594951
-80.877274 921.18878 2338.7473 9858123
-67.131302 922.72882 2342.6575 9726021
-53.255341 922.81934 2342.8872 9791815
-39.452728 924.69299 2347.644 9594692
-25.502636 923.26801 2344.0264 9792072
-11.633635 924.88147 2348.1226 10055243
2.2868221 927.67523 2355.2156 10055243
16.1994 925.2182 2348.9775 9792072
30.153214 926.29889 2351.7212 10515538
44.057465 925.65503 2350.0867 10055243
58.10947 927.67932 2355.2258 10120780
72.500977 933.28992 2369.4702 10120780
86.303291 930.72589 2362.9607 10186829
101.00088 937.18494 2379.3591 9792073
114.241 930.19446 2361.6113 10449746
128.13275 929.45636 2359.7375 10384467
140.94534 921.80566 2340.3137 9989708
155.28264 924.60419 2347.4187 9594951
169.90747 928.51385 2357.3447 9858125
183.74258 927.8418 2355.6384 9726539
198.34357 930.85895 2363.2983 10384467
212.45337 931.32501 2364.4817 11108704
226.61842 931.96057 2366.0952 9792585
240.30531 930.67023 2362.8193 9727050
257.57355 942.62842 2393.1792 10581332
270.38934 937.89453 2381.1606 9660999
285.27701 940.46051 2387.675 8674103
298.90656 938.83221 2383.5413 9002298
314.08914 942.00879 2391.606 8805175
328.55865 942.86481 2393.7793 9331520
344.35324 947.29504 2405.0271 8937276
358.71442 947.58679 2405.7678 8740153
371.34528 943.46014 2395.2908 9003326
387.48752 948.22998 2407.4006 8542778
402.43097 949.83179 2411.4673 9463368
415.86523 947.88373 2406.5215 9397831
427.14893 941.32556 2389.8716 9397834
441.76346 942.29309 2392.3279 9200454
456.21936 942.87256 2393.7991 9397833
468.85498 939.76862 2385.9187 9265991
483.0723 939.92389 2386.3127 9266247
498.27481 941.93268 2391.4128 9463629
515.06818 946.75458 2403.6548 9661008
530.8847 949.5697 2410.802 9266506
544.2962 948.04834 2406.9395 9398092
559.44696 949.5567 2410.769 9200713
573.40228 949.01141 2409.3845 9661264
589.78174 952.40729 2418.0061 9858644
602.65015 950.10669 2412.1653 9200458
608.8139 937.5874 2380.3809 8871749
624.84448 940.48615 2387.7402 9858644
635.59674 935.48779 2375.0503 8740164
652.30457 939.28149 2384.6819 9332300
660.44214 930.83539 2363.2388 9923925
680.55713 939.27069 2384.6545 9792595
691.84058 935.42194 2374.8831 9595473
715.65192 948.32758 2407.6484 9595218
726.52893 943.92407 2396.4688 9661010
743.38934 947.31433 2405.0759 9332047
756.99744 946.51044 2403.0349 9398095
769.80566 944.75452 2398.5771 8871494
780.5921 940.62604 2388.0955 8937287
789.12701 933.97974 2371.2217 9068871
813.00861 945.41187 2400.2461 9069128
826.42694 944.49298 2397.9131 8805956
840.68628 944.54993 2398.0576 8016440
856.73523 946.58234 2403.2175 9003079
865.77692 940.93274 2388.8743 8345663
885.22083 946.58826 2403.2327 8872266
903.96826 951.33185 2415.2756 8345921
913.34491 946.2193 2402.2959 9266767
926.85168 945.47699 2400.4111 9266767
937.04016 941.4231 2390.1191 9727318
947.22675 937.48816 2380.1289 8938059
968.51172 944.49182 2397.9099 8806473
985.26825 946.94067 2404.1272 8346178
1002.0386 949.33276 2410.2004 9004363
1015.7586 948.80835 2408.8691 8478017
1030.6224 949.35211 2410.2495 8280382
1043.755 948.30811 2407.5991 8807239
1058.9994 949.18506 2409.8254 8544066
1069.9507 946.24194 2402.3533 8609860
1077.9323 940.78424 2388.4971 8477765
1091.0771 939.91602 2386.2927 8740938
1098.7076 934.38019 2372.2383 8609609
1110.8765 932.79523 2368.2144 8411973
1071.6743 888.65204 2256.1418 8872523
1154.119 945.22534 2399.7725 7951165
1168.7961 945.59558 2400.7124 8016957
1179.8463 943.05774 2394.2693 8345922
1203.0992 950.21802 2412.448 7424820
1214.1748 947.70538 2406.0688 6700841
1229.5006 948.53003 2408.1624 6766120
1242.277 947.39142 2405.2717 6831913
1248.4265 941.28229 2389.7615 6700327
1270.6132 947.26617 2404.9536 7489843
1287.2351 949.01453 2409.3926 7292464
1291.8405 941.96259 2391.4888 6042140
1316.4702 949.50635 2410.6411 6700840
1327.7563 947.36725 2405.2104 6766633
1351.6377 954.1651 2422.469 6306339
1357.3859 948.15381 2407.2073 7293749
1356.3813 937.59961 2380.4119 5977888
1390.6863 951.41925 2415.4976 6175011
1416.4126 959.14807 2435.1199 6570026
1436.8621 963.18384 2445.366 7951679
1434.1855 951.79144 2416.4426 8083264
1441.0924 946.92139 2404.0784 6240550
1464.3384 952.77789 2418.947 6635564
1473.7008 949.57489 2410.8152 6701101
1477.4714 942.86511 2393.78 6832945
1487.2032 940.05078 2386.635 6701359
1486.5712 930.80023 2363.1494 6701359
1509.4302 936.29388 2377.0969 7095860
1542.2849 947.82892 2406.3823 6832943
1537.3158 936.12042 2376.6565 5779999
1556.8699 939.42188 2385.0383 8412487
1571.7648 939.87787 2386.196 6898992
1589.849 942.21588 2392.1318 5714462
1604.0907 942.25543 2392.2322 5517085
1594.6222 928.48877 2357.281 7622461
1613.7589 931.47223 2364.8555 6043172
1629.3617 932.3822 2367.1658 5846050
1649.4915 935.84497 2375.957 5911843
1665.5344 936.95013 2378.7629 6175015
1660.4236 926.23639 2351.5625 5780000
1667.5157 922.4516 2341.9536 5582621
1675.8976 919.43677 2334.2996 4990740
1688.3739 918.69934 2332.4272 5714207
1700.371 917.71515 2329.9285 5780000
1706.3597 913.53015 2319.3035 5319708
1712.5881 909.53931 2309.1714 4924949
1729.7104 911.35156 2313.7725 5253658
1744.2 911.75903 2314.8069 5385244
1751.5071 908.43488 2306.3674 5516318
1752.4486 901.88629 2289.7417 4266766
1765.5782 901.66254 2289.1736 4200972
1757.6594 890.77509 2261.532 4924695
1772.8424 891.67157 2263.8081 5911844
1791.4005 894.2395 2270.3276 5122328
1808.4977 896.04523 2274.9121 5516831
1823.9171 896.99915 2277.334 5451295
1835.6476 896.13812 2275.1479 5122329
1842.9132 893.12598 2267.5005 5187866
1838.7485 884.6579 2246.0017 4924951
1843.7365 880.68353 2235.9114 4793364
1842.4399 873.78546 2218.3982 5517087
1851.0458 871.64807 2212.9717 4267020
1871.7338 875.19012 2221.9644 4793621
1883.8141 874.68591 2220.6843 4201485
1886.696 869.94757 2208.6543 5056795
1892.9362 866.81219 2200.6941 4201229
1903.238 865.56683 2197.5325 4267793
1892.9583 855.04181 2170.8113 4268049
1896.0814 850.67212 2159.7173 4597015
1899.8163 846.63361 2149.4641 5123103
1923.4191 851.44385 2161.6765 4333331
1907.0262 838.60266 2129.0747 4267795
1928.2021 842.34222 2138.5688 4859934
1922.9458 834.56122 2118.8145 3807246
1937.5386 835.44006 2121.0454 4070675
1949.3358 835.1098 2120.207 4334103
1940.3672 825.94458 2096.938 4597018
1940.5713 820.77551 2083.8147 4268052
1935.4019 813.41357 2065.1238 4334101
1939.6379 810.0722 2056.6406 4663066
1946.4775 807.85303 2051.0066 4334101
1946.0889 802.68018 2037.8734 4465687
0 0 0 0
0 0 0 0
0 0 0 0
0 0 0 0
0 0 0 0
0 0 0 0
0 0 0 0
0 0 0 0
0 0 0 0
0 0 0 0
-1783.8575 814.16388 2036.3939 1280
-1771.031 813.81458 2035.5204 1280
-1761.6406 815.05017 2038.611 1280
-1749.2793 814.91901 2038.2828 1280
-1738.2614 815.4162 2039.5262 1280
-1724.5607 814.65289 2037.6172 1536
-1709.3071 813.1402 2033.8335 1536
-1689.9716 809.65039 2025.1049 1280
-1692.6389 816.72748 2042.806 332288
-1678.455 815.7168 2040.2782 1536
-1664.5575 814.83167 2038.0645 1536
-1648.4896 812.86353 2033.1416 3072
-1637.162 813.22101 2034.0356 2560
-1624.0548 812.69318 2032.7156 2560
-1610.7069 812.03619 2031.0721 2304
-1605.6498 815.58044 2039.9371 1280
-1589.9795 813.74677 2035.3507 768
-1578.015 813.79614 2035.4742 1536
-1565.5918 813.60791 2035.0035 1024
-1553.2079 813.43738 2034.5769 1024
-1533.9268 809.62372 2025.0381 1024
-1525.3369 811.43744 2029.5746 1024
-1516.2385 813.00714 2033.5009 768
-1498.7456 810.065 2026.1417 1536
-1491.5582 812.69019 2032.7081 331264
-1478.8752 812.3396 2031.8311 1024
-1470.8065 814.53857 2037.3312 1280
-1462.3356 816.54932 2042.3606 1280
-1453.6698 818.48407 2047.1996 1280
-1464.0557 831.26837 2079.176 1280
-1431.9928 819.96362 2050.9004 1792
-1439.3772 831.24615 2079.1204 1280
-1431.3586 833.75153 2085.3867 1280
-1426.7905 838.32776 2096.833 1024
-1413.5938 837.87012 2095.6882 2048
-1403.4751 839.24487 2099.127 1280
-1390.6534 839.01361 2098.5483 1280
-1377.1458 838.36035 2096.9146 1536
-1370.403 841.85107 2105.6455 1536
-1352.3026 838.36481 2096.9255 1536
-1343.698 840.75525 2102.9045 1536
-1332.7998 841.742 2105.3726 1536
-1315.8052 838.86078 2098.166 1536
-1308.7006 842.28973 2106.7427 1536
-1294.5948 841.23547 2104.1057 1792
-1279.1699 839.29517 2099.2527 1536
-1275.7445 845.26721 2114.1899 1536
-1263.3274 845.341 2114.3745 1536
-1252.6207 846.57233 2117.4543 1536
-1240.8425 847.09698 2118.7666 1536
-1227.3722 846.46545 2117.187 1792
-1217.0015 847.98053 2120.9766 1280
-1203.9368 847.63062 2120.1013 1280
-1190.3412 846.89551 2118.2627 1280
-1176.2118 845.76099 2115.425 1280
-1165.1952 846.86432 2118.1846 1280
-1152.6578 846.87439 2118.21 1024
-1139.5497 846.46075 2117.1753 1280
-1123.3782 843.73712 2110.3628 1280
-1114.7744 846.70001 2117.7737 1280
-1100.4084 845.30402 2114.282 1024
-1085.6577 843.5769 2109.9622 1280
-1077.1376 846.70709 2117.7915 1280
-1065.1509 847.1543 2118.9099 1536
-1054.8588 848.97577 2123.4658 67328
-1042.5801 849.22308 2124.0845 1280
-1032.2439 851.07819 2128.7244 1280
-1026.6998 856.979 2143.4836 1280
-1015.3167 858.09283 2146.2695 1536
-1002.5992 858.09283 2146.2695 133632
-978.80493 848.49072 2122.2527 858624
-967.1698 849.31622 2124.3174 595456
-969.07959 862.2149 2156.5796 1648392
-955.29871 861.3111 2154.3191 1845768
-949.09082 867.30347 2169.3071 3622947
-942.26025 872.8833 2183.2637 5134130
-934.12 877.38849 2194.532 5660471
-912.62616 869.30121 2174.304 7306325
-896.72632 866.38696 2167.0149 3293719
-882.12805 864.66394 2162.7053 1451522
-866.79712 862.16138 2156.4458 1977863
-856.23071 864.39386 2162.0298 529664
-846.05542 867.09503 2168.7859 2048
-831.39905 865.21613 2164.0864 1451521
-812.65649 858.95947 2148.437 267776
-781.67438 839.36072 2099.4165 662528
-781.93646 853.22058 2134.083 530944
-773.09094 857.43494 2144.624 399104
-762.18182 859.4632 2149.697 465152
-744.18097 853.42755 2134.6006 464896
-733.22815 855.40558 2139.5481 134912
-725.60571 861.40692 2154.5588 267264
-711.89343 860.26422 2151.7007 398592
-699.64972 860.88678 2153.2578 464384
-692.75055 868.23096 2171.627 464128
-681.50031 870.29651 2176.7935 1911564
-680.08929 885.24927 2214.1934 1319429
-677.46765 899.18329 2249.0454 1713929
-669.03711 905.81207 2265.6252 726016
-660.52942 912.60553 2282.6172 4803628
-649.85779 916.63086 2292.6853 5196841
-634.82642 914.5473 2287.4739 6116401
-621.80005 915.3244 2289.4175 5325086
-608.76184 916.1181 2291.4028 1115904
-592.83746 912.50562 2282.3674 4139021
-578.73163 911.58923 2280.0752 7952430
-563.82068 909.33026 2274.425 8479253
-548.02802 905.50397 2264.8547 12097069
-534.30127 904.98474 2263.5559 11176222
-522.93951 908.54755 2272.4673 11768358
-506.76584 903.71771 2260.387 11109924
-499.58722 915.10199 2288.8613 9662265
-489.11792 920.92572 2303.4277 9201721
-476.85159 923.60333 2310.125 9727557
-461.51843 920.32349 2301.9214 9135938
-450.12891 924.94751 2313.4871 9925459
-434.71375 921.33014 2304.4392 9859154
-424.76636 929.4422 2324.7292 9201481
-411.81467 931.30396 2329.386 9793362
-396.20813 927.08276 2318.8279 8872260
-381.09103 923.74475 2310.4788 9595983
-367.52335 924.05359 2311.2512 9727569
-353.87253 924.16925 2311.5405 9595982
-339.83539 923.24457 2309.2278 9332552
-329.45804 932.60229 2332.6333 9003846
-311.83817 921.38025 2304.5645 9003846
-299.40872 925.16858 2314.04 9464653
-284.25717 920.50574 2302.3772 9398859
-273.81622 931.396 2329.616 10188631
-260.09238 931.68274 2330.3333 9990995
-245.60457 929.11157 2323.9023 9990995
-231.80807 929.00574 2323.6375 10319447
-219.33559 934.52759 2337.4487 9858639
-205.1815 933.14612 2333.9934 9135173
-191.00191 931.44043 2329.7273 9464138
-177.4476 932.75604 2333.0178 9464136
-162.06107 923.84888 2310.7393 9858381
-149.57587 931.36377 2329.5354 9726538
-135.75938 931.27423 2329.3115 9463622
-122.22626 933.32812 2334.4487 9529416
-107.65491 926.96667 2318.5374 8937279
-94.616676 933.87598 2335.8191 9332036
-80.026772 925.21387 2314.1533 10055760
-65.880547 919.15961 2299.0103 10186573
-52.234932 918.75415 2297.9961 9857864
-38.725758 921.30859 2304.3853 10318159
-25.14743 924.10431 2311.3782 10055500
-11.422006 921.71735 2305.4077 9594436
2.2508688 926.8266 2318.187 9857608
15.864885 919.74377 2300.4714 10449745
29.519112 920.4613 2302.2661 9529413
43.518871 928.09418 2321.3574 9003071
57.661594 934.37732 2337.073 10187346
70.651726 923.16681 2309.0332 10516052
84.409325 923.995 2311.1045 9989708
99.610107 938.18457 2346.5957 10318161
112.22574 927.5321 2319.9517 9791817
125.02941 920.58899 2302.5854 10712919
140.35625 931.76227 2330.5322 9529159
153.48561 927.65253 2320.2529 9660490
168.37012 933.95441 2336.0151 10581336
181.11125 928.31268 2321.9041 9791820
194.73685 927.68085 2320.3237 9923406
209.49803 932.18536 2331.5906 10252624
223.93431 934.77625 2338.0708 10384211
237.47514 933.5451 2334.9915 9923660
250.11905 929.1178 2323.9177 10055245
266.27579 937.52063 2344.9351 9397313
279.01376 933.64996 2335.2537 9331520
293.84903 936.83154 2343.2114 9265470
309.25287 941.45703 2354.7808 8870712
324.68063 945.75281 2365.5254 9462849
339.35016 947.57562 2370.0847 9331519
351.66586 942.9422 2358.4956 9068349
365.76685 943.26709 2359.3081 9397827
380.55396 945.27228 2364.3235 9199937
394.1795 944.35229 2362.0225 9199937
408.03708 944.03223 2361.2219 9529418
420.30322 940.17346 2351.5703 9397831
435.74518 943.43835 2359.7366 9661005
448.33908 940.52557 2352.4509 9463370
461.88242 939.72015 2350.4365 9266248
476.33002 940.74774 2353.0068 9134661
493.01086 946.0022 2366.1492 8937029
504.48972 941.26025 2354.2886 9726288
518.57483 941.50537 2354.9019 8739907
542.77869 959.62738 2400.2288 9398094
548.87775 945.63232 2365.2241 9200715
564.30518 948.00525 2371.1594 9134922
576.55219 945.0498 2363.7671 9595472
589.73248 943.72809 2360.4612 9661009
605.20685 946.05359 2366.2778 9661010
617.49738 943.40955 2359.6646 8937288
630.32581 941.68622 2355.354 9331790
644.86578 942.53912 2357.4873 9726804
660.61731 945.08923 2363.8657 10055768
674.38678 944.75665 2363.0339 9463886
685.05341 940.1792 2351.5847 9134665
699.08966 940.31659 2351.9285 9134921
714.59698 942.38873 2357.1111 8805446
728.68488 942.54529 2357.5027 8937288
741.40808 940.96393 2353.5476 8805703
756.90356 942.89459 2358.3765 8937289
769.30304 940.96832 2353.5583 9332046
783.30652 941.03754 2353.7317 9003337
794.51031 937.79999 2345.6338 9595218
815.67755 946.23163 2366.7231 8608580
826.34778 942.40717 2357.1572 9464403
843.91754 946.44745 2367.2629 8477252
852.38409 940.31348 2351.9204 8609095
862.60712 936.28326 2341.8401 8806471
886.37286 946.84741 2368.2632 8872266
895.35333 941.53448 2354.9744 8543557
907.11267 939.26178 2349.29 9004108
923.74408 942.02637 2356.2048 9201743
933.42767 937.72876 2345.4556 8872265
952.97382 943.31989 2359.4402 8609350
969.62946 945.9295 2365.9675 8083006
990.26642 952.29352 2381.885 8609348
1007.1241 954.89514 2388.3923 10254429
1010.1141 944.45844 2362.2881 7885625
1022.6612 943.12091 2358.9424 9069899
1044.8893 950.62701 2377.7168 8280640
1053.8983 946.06696 2366.311 8741190
1063.7526 942.37524 2357.0774 8478019
1082.3208 946.39893 2367.1416 7885627
1090.9904 941.7749 2355.5759 8280642
1109.022 945.24719 2364.2607 8872779
1122.1909 944.54004 2362.4919 8083264
1128.2997 937.9809 2346.0862 8543044
1142.9288 938.57843 2347.5808 8345922
1157.2913 938.94513 2348.498 8214079
1172.0948 939.65692 2350.2783 7885627
1189.9299 942.75372 2358.0242 7162161
1202.8483 941.92853 2355.96 7425333
1215.1102 940.61401 2352.6721 7622456
1224.718 937.2981 2344.3784 7358770
1252.2322 947.60687 2370.1628 6503717
1269.2369 949.82245 2375.7043 6831656
1281.0452 948.14325 2371.5044 7293234
1305.5989 955.83142 2390.7341 6108960
1311.8645 950.10956 2376.4226 7622198
1331.9962 954.44507 2387.2666 7754041
1329.1027 942.36401 2357.0493 6767402
1346.6161 944.85278 2363.2742 8083263
1354.5261 940.62128 2352.6904 7162163
1390.6355 955.85913 2390.8035 7622457
1404.5931 955.71698 2390.448 7096113
1410.4186 950.09973 2376.3979 7293492
1410.7903 940.95587 2353.5273 6833198
1449.1895 957.10602 2393.9224 7820093
1443.4348 944.06482 2361.3035 7491385
1462.234 947.17896 2369.0925 7030323
1463.4049 938.92346 2348.4438 7030066
1481.7363 941.7301 2355.4639 7688254
1498.6749 943.60736 2360.1592 7293496
1496.3477 933.43164 2334.7078 6964274
1523.7568 941.82239 2355.6946 6109222
1549.1417 948.82086 2373.1992 6832945
1580.6824 959.42975 2399.7344 7226933
1565.6785 941.85028 2355.7644 5582108
1577.1078 940.34204 2351.9919 5845537
1585.1548 936.86108 2343.2854 6371624
1599.7218 937.26074 2344.2852 6437673
1611.33 935.93494 2340.969 6832688
1631.4591 939.53888 2349.9832 6109222
1642.4069 937.83905 2345.7314 8083524
1628.6948 922.20471 2306.6267 5846306
1648.8442 925.84436 2315.7302 6503981
1660.064 924.45105 2312.2454 6569517
1685.1703 930.75049 2328.0015 4990742
1693.0757 927.52429 2319.9321 5253912
1687.325 916.92902 2293.4312 6701618
1706.6405 920.01581 2301.1519 6306603
1714.5598 916.95886 2293.5059 6964532
1721.541 913.45233 2284.7351 6109222
1733.8558 912.80841 2283.1245 4793362
1742.3182 910.16199 2276.5054 5648672
1748.387 906.31543 2266.8843 5714463
1748.2963 899.35895 2249.4846 5451292
1753.0994 895.00616 2238.5974 5187865
1766.2725 894.95978 2238.4814 5911842
1790.8431 900.64624 2252.7043 4530189
1801.2596 899.18274 2249.0439 5583135
1796.9656 890.45123 2227.2046 5517856
1806.8812 888.83698 2223.167 5123099
1814.8597 886.30017 2216.822 4465168
1834.3859 889.39862 2224.5718 6504239
1850.6605 890.88763 2228.2961 4004112
1850.0511 884.28534 2211.7825 5188636
1849.8955 877.99127 2196.0398 4991258
1857.0831 875.24609 2189.1733 4859928
1849.1769 865.47455 2164.7327 4793878
1864.0031 866.40381 2167.0569 4069899
1869.8549 863.17749 2158.9873 4267279
1871.2504 857.95184 2145.917 4925978
1878.9703 855.67706 2140.2271 4465171
1893.319 856.43109 2142.113 4794392
1878.6189 844.1225 2111.3269 4925978
1888.7836 843.0755 2108.708 4662551
1896.0852 840.77264 2102.948 4531480
1898.6361 836.40692 2092.0286 4662555
1913.4349 837.45856 2094.6589 3806990
1917.0642 833.63959 2085.1067 4135955
1928.2108 833.11737 2083.8008 4070418
1920.1377 824.35046 2061.8728 3939088
1923.4607 820.55609 2052.3823 4926239
1926.3018 816.60504 2042.4999 4663067
1933.8342 814.67975 2037.6844 4597274
1943.188 813.54089 2034.8358 4597017
0 0 0 0
0 0 0 0
0 0 0 0
0 0 0 0
0 0 0 0
0 0 0 0
0 0 0 0
0 0 0 0
0 0 0 0
0 0 0 0
0 0 0 0
-1744.8505 813.66718 2005.4298 1280
-1733.0515 813.7066 2005.527 1792
-1718.1903 812.29889 2002.0575 1280
-1710.5769 814.3219 2007.0436 1280
-1693.8149 811.98761 2001.2903 1536
-1677.3612 809.76917 1995.8225 1280
-1674.2073 813.98535 2006.2142 1280
-1668.7218 817.12036 2013.9409 1536
-1650.4192 813.97906 2006.1986 1536
-1640.8866 815.14905 2009.0823 2048
-1630.0011 815.659 2010.3391 1792
-1617.6348 815.43005 2009.7748 1280
-1605.8057 815.47046 2009.8743 133632
-1591.0793 814.02924 2006.3223 1024
-1579.4774 814.17682 2006.6859 1280
-1565.7722 813.23425 2004.3628 1024
-1556.113 814.39471 2007.223 1792
-1546.5968 815.64856 2010.3132 67072
-1519.1791 807.40765 1990.002 67072
-1517.783 812.97577 2003.7257 1024
-1502.89 811.34534 1999.7072 1024
-1491.7074 811.70801 2000.6011 68096
-1475.9341 809.55835 1995.3029 331264
-1462.3163 808.56598 1992.8569 331008
-1456.9932 812.18121 2001.7673 1024
-1455.0276 817.74261 2015.4745 1280
-1462.5831 828.7915 2042.7064 1280
-1436.0804 820.56403 2022.4285 1280
-1446.0399 833.20776 2053.5911 1280
-1435.278 834.0249 2055.6052 1280
-1423.0573 834.00128 2055.5469 1280
-1412.2618 834.81976 2057.5642 1280
-1402.0739 836.01453 2060.509 1280
-1392.3322 837.49896 2064.1675 1280
-1388.3287 842.49176 2076.4731 2304
-1371.6134 839.79077 2069.8162 1280
-1355.4827 837.40222 2063.9292 1536
-1344.4354 838.13947 2065.7461 1536
-1333.6311 839.04279 2067.9727 1536
-1325.9139 841.92334 2075.0723 1536
-1314.507 842.49292 2076.4761 1536
-1307.1982 845.72467 2084.4414 1536
-1308.4878 854.63409 2106.4001 1536
-1286.9093 848.63507 2091.6145 1536
-1272.9733 847.60803 2089.0833 1536
-1259.5084 846.87775 2087.2832 1536
-1244.0011 844.74591 2082.0291 1280
-1231.5271 844.65186 2081.7971 1280
-1219.7755 845.05634 2082.7942 1280
-1212.5919 848.6662 2091.6912 2048
-1195.5596 845.38647 2083.6079 1280
-1185.1753 846.78821 2087.0627 1280
-1169.7838 844.60425 2081.6799 1024
-1160.6293 846.92499 2087.3997 1280
-1145.332 844.76495 2082.0759 1280
-1137.6733 848.25317 2090.6733 1024
-1123.6255 847.00201 2087.5896 1280
-1111.1447 846.91748 2087.3811 1280
-1101.1373 848.73749 2091.8669 1280
-1088.9336 848.88666 2092.2346 1024
-1076.0819 848.52832 2091.3516 1280
-1064.321 849.03192 2092.5925 1536
-1050.5219 847.9021 2089.8081 1280
-1039.4209 848.94922 2092.3889 1280
-1026.4645 848.48785 2091.2517 1792
-1016.871 850.82904 2097.022 1280
-1006.1231 852.25012 2100.5247 1536
-997.63068 855.64142 2108.8831 2048
-986.10828 856.48706 2110.9673 1792
-973.93384 856.78076 2111.6912 726272
-958.60211 854.26855 2105.4993 1515525
-953.59283 861.01031 2122.1155 2502930
-948.13367 867.52057 2138.1611 395776
-942.88501 874.40234 2155.1226 2371345
-934.20093 878.24347 2164.5898 858624
-915.00928 872.17596 2149.6353 1451269
-894.31696 864.48639 2130.6829 1845771
-883.33264 866.09521 2134.6482 1977867
-873.91089 869.30511 2142.5596 1912329
-849.43286 857.41193 2113.2466 333056
-821.33099 841.45026 2073.9062 3293725
-837.27063 870.80927 2146.2668 200192
-827.80554 874.24414 2154.7327 1977865
-799.95154 858.06183 2114.8486 2306832
-791.22528 862.20831 2125.0684 661760
-776.29053 859.61401 2118.6741 859648
-765.19397 861.25446 2122.7173 793856
-759.39618 869.01331 2141.8403 464128
-741.68726 863.17371 2127.4478 68096
-724.35876 857.58264 2113.6675 1056000
-708.95001 854.10767 2105.1028 134400
-709.62555 870.23273 2144.8459 464384
-695.78021 868.81384 2141.3489 1780234
-690.06586 877.68402 2163.2109 858882
-686.25653 889.3587 2191.9854 2240787
-680.09113 898.37164 2214.1992 1384972
-670.82465 903.56207 2226.9922 396544
-659.36719 905.95056 2232.8789 3354135
-653.44965 916.20441 2258.1514 4997669
-640.35822 916.61816 2259.1711 7759687
-628.74335 919.20819 2265.5547 6838327
-618.61237 924.12805 2277.6807 5389598
