# .PCD v0.7 - Point Cloud Data file format
VERSION 0.7
FIELDS x y z rgb
SIZE 4 4 4 4
TYPE F F F U
COUNT 1 1 1 1
WIDTH 1333
HEIGHT 1
VIEWPOINT 0 0 0 1 0 0 0
POINTS 1333
DATA ascii
-1027.171 738.20587 4705.9893 3673600
-997.77966 737.09296 4698.8945 3409920
-820.42572 623.47363 3974.5825 3475968
-947.80902 741.56439 4727.3994 3541760
-923.93243 744.89825 4748.6523 3936512
-909.56378 756.3479 4821.6426 3738368
-880.53577 755.95483 4819.1372 4199168
-854.93878 758.57977 4835.8706 4396032
-825.15875 757.54645 4829.2832 4790787
-797.90253 758.83911 4837.5239 4396032
-786.94275 776.3042 4948.8623 4922627
-759.45587 778.18671 4960.8628 5383178
-739.43756 788.18158 5024.5791 5120519
0 0 0 0
-685.83887 795.07532 5068.5259 4596739
0 0 0 0
0 0 0 0
0 0 0 0
0 0 0 0
0 0 0 0
0 0 0 0
0 0 0 0
0 0 0 0
-1064.8209 2037.373 12988.051 1515776
-1035.614 2135.8582 13615.884 1647360
-1001.5302 2240.0767 14280.267 1844224
-916.91388 2240.0767 14280.267 1910272
-839.11298 2258.4197 14397.202 1844736
-690.16858 2067.7671 13181.81 1910272
-694.96143 2347.8347 14967.213 1976320
-601.30792 2328.6006 14844.598 1647616
-512.65894 2325.4763 14824.681 1778944
-422.06454 2310.4106 14728.639 1713152
-336.17993 2319.9924 14789.722 1844736
-244.4286 2281.5698 14544.781 2041600
0 0 0 0
0 0 0 0
0 0 0 0
0 0 0 0
0 0 0 0
0 0 0 0
346.37476 2202.2087 14038.861 2699520
436.09854 2235.7263 14252.532 3094016
517.58862 2223.0051 14171.437 2830592
595.31946 2199.9434 14024.421 2830592
665.91077 2159.3799 13765.832 3027712
748.88635 2163.446 13791.754 3685120
826.6673 2153.1819 13726.32 3618816
893.45557 2118.689 13506.432 3619072
969.37189 2109.7339 13449.344 3553280
1059.4608 2130.6411 13582.625 3684864
1141.0962 2132.7957 13596.361 3355648
1227.5791 2143.1294 13662.237 3355648
1309.5706 2144.8281 13673.066 3553024
1392.0936 2147.1487 13687.86 3487232
1463.2722 2132.6797 13595.622 3486720
1546.304 2136.095 13617.394 3421952
1589.7186 2087.158 13305.424 3092992
1656.4855 2072.0557 13209.149 3158528
1730.6648 2067.1704 13178.006 2896640
1792.3622 2048.4414 13058.61 2896640
1856.245 2033.6569 12964.361 3093760
1906.9152 2006.1473 12788.99 3159552
1963.2183 1986.4403 12663.359 3158784
2027.1477 1975.6165 12594.358 3224576
1270.3159 1194.0658 7612.0513 3355904
1171.7056 1063.6096 6780.4053 3356160
2211.53 1940.9514 12373.372 3421952
2240.0186 1902.87 12130.606 3092992
2322.8586 1911.8921 12188.122 2895616
2388.1086 1906.3285 12152.655 2895872
2408.8884 1866.631 11899.587 2632448
2476.7761 1864.657 11887.003 2632448
2536.1785 1856.5803 11835.516 2500864
2569.762 1830.5465 11669.553 2632448
2658.5393 1844.1638 11756.361 2698240
2685.3469 1815.1965 11571.698 2764288
2685.9304 1770.3864 11286.037 2764288
2820.4822 1813.9111 11563.504 2830080
2912.6685 1828.7715 11658.236 2566912
2935.4453 1800.3729 11477.198 2567168
2959.0471 1773.7549 11307.512 2370048
3026.0488 1773.7549 11307.512 2172672
3041.3254 1744.0925 11118.417 2370048
3097.5142 1738.6522 11083.735 2501632
3137.5791 1724.5753 10993.996 2633216
3229.9946 1739.2601 11087.611 2567168
3283.8875 1733.03 11047.894 2501120
3279.3306 1696.7998 10816.931 2435072
3289.5889 1669.4778 10642.755 2040320
3309.2212 1647.8514 10504.89 1974784
3358.7136 1641.618 10465.152 1974528
3416.0723 1639.3856 10450.921 2040576
3509.0405 1654.0179 10544.2 1975040
3540.4155 1639.6133 10452.372 1843200
3599.7986 1638.452 10444.969 1974016
3647.2512 1631.9917 10403.785 1842176
3691.8008 1624.4686 10355.826 1183488
3767.053 1630.4806 10394.151 1775616
3763.6526 1602.8036 10217.714 1841664
3849.926 1613.5874 10286.459 2367232
3901.7974 1609.8408 10262.576 2301184
3977.2366 1615.7844 10300.465 1117952
4069.3604 1628.2238 10379.765 1117184
4091.2847 1612.6228 10280.311 1904896
4229.043 1642.467 10470.564 2365440
4351.9902 1665.7791 10619.177 1707776
4394.1934 1657.9614 10569.34 1905664
4464.7144 1660.8978 10588.059 2432512
4592.502 1684.7612 10740.186 2433288
4596.9302 1663.3363 10603.604 2631442
4683.5664 1671.8337 10657.774 2631448
4755.3672 1674.8802 10677.195 3287323
4726.6138 1642.8955 10473.296 4734744
4766.9346 1635.4377 10425.753 5521945
4829.6689 1635.762 10427.82 6574368
4770.1587 1595.1981 10169.229 9141310
0 0 0 0
0 0 0 0
4980.6187 1604.7642 10230.212 11182704
5164.7261 1644.0743 10480.811 10985333
5027.0889 1581.2469 10080.292 11313783
0 0 0 0
0 0 0 0
0 0 0 0
0 0 0 0
0 0 0 0
5300.2964 1556.2395 9920.8721 5915172
5329.5322 1547.6586 9866.1699 6177824
5246.6997 1507.0731 9607.4414 5191189
5261.9834 1495.2396 9532.0039 10851179
5383.4575 1513.5118 9648.4873 10128489
5498.3447 1529.5676 9750.8418 9733476
5476.9658 1507.7762 9611.9238 524288
5539.2603 1509.2312 9621.1992 655360
5596.2695 1509.2312 9621.1992 524288
5598.1914 1494.5247 9527.4463 655360
5542.0952 1464.7776 9337.8115 1246464
0 0 0 0
6679.4829 1730.8296 11033.867 6111773
5967.2217 1531.2755 9761.7295 5190927
5863.645 1490.2509 9500.2012 5256720
5600.3262 1409.7937 8987.2949 3678473
5711.8584 1424.3264 9079.9395 3285008
5803.1968 1433.5991 9139.0518 4733467
5654.3198 1383.9072 8822.2705 917760
5935.9395 1439.5255 9176.832 655360
6152.998 1478.6194 9426.0518 589824
6281.0605 1495.8159 9535.6777 458752
6397.5576 1509.976 9625.9463 524288
6560.0757 1534.6517 9783.2529 655360
6656.48 1543.5643 9840.0693 2759682
6846.2388 1573.782 10032.704 4666898
6654.4214 1516.5197 9667.6621 4337162
6504.1333 1469.6183 9368.6709 2691841
6092.5918 1364.9796 8701.6094 2889229
6505.0015 1445.1456 9212.6602 2825229
7057.7856 1554.9032 9912.3535 1576450
7020.8496 1534 9779.0977 786432
6792.6567 1471.9927 9383.8076 720896
6599.0732 1418.4318 9042.3613 655360
6516.8604 1389.4789 8857.79 655360
6499.1899 1374.6403 8763.1953 458752
6415.7754 1346.2415 8582.1553 655360
6388.5288 1329.9824 8478.5059 3154442
6511.3291 1344.9707 8574.0547 5060633
6809.2017 1395.6096 8896.873 4862485
7003.9453 1424.4955 9081.0176 3810828
6968.3662 1406.4541 8966.0049 3613965
7054.2637 1413.0182 9007.8506 3351051
7246.8481 1440.6934 9184.2773 2693126
7217.8159 1424.2263 9079.3018 786432
7027.0454 1376.3248 8773.9346 655360
7089.4854 1378.3567 8786.8867 655360
7048.5371 1360.4044 8672.4434 655360
6985.0088 1338.3855 8532.0752 524288
6927.8433 1317.8937 8401.4414 589824
6917.1738 1306.476 8328.6543 524288
6954.917 1304.2991 8314.7773 524544
6653.1216 1238.925 7898.0239 656384
6655.7764 1230.762 7845.9854 2498057
6955.1255 1277.1954 8141.9937 4339737
7292.3052 1329.8881 8477.9043 1181696
7127.4077 1290.9232 8229.5068 852480
7258.4541 1305.725 8323.8672 655360
7151.2539 1277.7582 8145.5815 720896
7142.98 1267.7235 8081.6118 720896
7158.2275 1261.9695 8044.9297 655360
7127.2612 1248.198 7957.1382 655360
7188.8765 1250.7147 7973.1821 458752
7228.3516 1249.3719 7964.6221 458752
7282.3755 1250.5449 7972.0996 458752
7278.2188 1241.7761 7916.1997 262400
7552.6982 1280.3549 8162.1353 4341288
7579.8306 1276.7784 8139.3364 3419929
7575.5913 1267.9965 8083.3516 1709568
7769.1719 1292.2277 8237.8232 1643010
7745.1948 1280.1963 8161.1245 2958612
7787.3257 1279.1735 8154.604 4076577
0 0 0 0
0 0 0 0
0 0 0 0
0 0 0 0
0 0 0 0
0 0 0 0
0 0 0 0
-4212.0669 767.18719 4712.7246 3936768
-4204.5923 770.93689 4735.7583 3739648
-4125.8921 761.58966 4678.3394 3410688
-4097.0493 761.38116 4677.0586 3410944
-4045.084 756.84351 4649.1846 3279360
-4001.5474 753.83154 4630.6826 3871232
-3955.7385 750.34698 4609.2773 3279360
-3908.1526 746.47461 4585.4897 2884608
-3873.3879 745.01398 4576.5176 3081984
-3817.677 739.47552 4542.4956 3213568
-3187.1487 621.72699 3819.1826 3081728
-3749.2412 736.60632 4524.8706 3081472
-3698.4312 731.85748 4495.6992 3147264
-3643.2539 726.16919 4460.7568 3279104
-3630.2288 728.86102 4477.292 3015936
-3591.0244 726.29755 4461.5449 2950144
-3028.0632 616.97864 3790.0142 3213312
-3537.4236 726.14813 4460.627 3016704
-3525.9868 729.24921 4479.6768 3148288
-3492.6472 727.83307 4470.9775 3148288
-2922.9055 613.76001 3770.2424 3214080
-3431.8767 726.18549 4460.8569 3477504
-3398.512 724.70721 4451.7759 3543040
-3367.5005 723.71167 4445.6602 3411712
-3333.9253 722.14496 4436.0361 2885376
-3319.4802 724.72992 4451.9155 3016704
-3295.2507 725.20306 4454.8218 3345664
-3268.1567 725.0484 4453.8716 3148544
-2762.7212 617.90601 3795.7109 3148288
-2788.5649 628.80524 3862.6633 3148288
-2724.9497 619.54547 3805.7817 3082496
-2845.4919 652.35059 4007.2991 2885120
-3167.335 732.24597 4498.0854 2885120
-3136.2615 731.21527 4491.7539 2885120
-3143.3638 739.14386 4540.458 3082240
-3116.6697 739.19366 4540.7642 2688256
-3092.5088 739.85034 4544.7979 2819584
-2717.8037 655.91791 4029.2124 2885632
-3043.4607 741.02179 4551.9941 2951168
-2995.1504 735.77997 4519.7944 3280384
-2954.0916 732.24103 4498.0552 3279872
-2924.9456 731.61749 4494.2246 2950912
-2903.6104 732.9541 4502.4351 3148288
-2861.0837 728.91644 4477.6328 3477248
-2827.6174 727.13318 4466.6782 3411456
-2799.5425 726.71576 4464.1143 2490880
-2785.7729 730.03925 4484.5298 3148032
-2757.2109 729.51288 4481.2964 3082752
-2725.7598 728.20447 4473.2588 3805696
-2701.5022 728.81104 4476.9849 3542528
-2692.1296 733.48505 4505.6968 3278848
-2672.3855 735.39874 4517.4521 3147264
-2634.2537 732.23987 4498.0479 2818560
-2597.9446 729.5282 4481.3906 3015936
-2566.8599 728.2428 4473.4946 2819584
-2582.8933 740.43793 4548.4077 2819328
-2169.5342 628.49829 3860.7781 3148544
-2176.176 637.14087 3913.8677 3016704
-2157.4622 638.46582 3922.0068 2753536
-2474.5999 740.29169 4547.5093 3609088
-2449.8909 740.9682 4551.665 3016960
-2427.7449 742.4436 4560.728 3017472
-2403.4956 743.30182 4566 2360064
-2389.929 747.52081 4591.9165 2228224
-2361.4365 747.11469 4589.4219 2228480
-2338.1003 748.34955 4597.0073 2425600
-2306.4131 746.90906 4588.1587 2162944
-2277.3687 746.30023 4584.4189 2097408
-2255.5986 748.08936 4595.4092 2294272
-2225.3945 747.09082 4589.2754 2359552
-2005.2722 681.52106 4186.4893 2359808
-1967.0026 676.88818 4158.0303 2359552
-2135.8174 744.30396 4572.1558 3148544
-2120.9624 748.62311 4598.688 3016960
-1847.1425 660.45978 4057.1128 2622464
-2058.1594 745.61444 4580.2061 2951424
-2040.7322 749.17999 4602.1089 3017216
-2029.6433 755.2005 4639.0918 3017216
-1983.0156 747.98138 4594.7456 2688000
-1962.9211 750.70856 4611.4985 2950912
-1944.2946 754.08228 4632.2227 3411456
-1917.4482 754.31891 4633.6763 3543040
-1886.181 752.79785 4624.333 3543040
-1846.5398 747.8407 4593.8813 3279872
-1822.0833 748.97687 4600.8608 3214080
-1795.9492 749.44745 4603.752 3148032
-1620.1086 686.49683 4217.0547 3016448
-1534.8074 660.53949 4057.6023 2819840
-1719.256 751.69659 4617.5679 3280384
-1701.2603 755.85748 4643.1274 3675136
-1671.5876 754.88202 4637.1353 3082752
-1642.7357 754.25061 4633.2568 3017216
-1613.6311 753.4798 4628.522 2951424
-1590.072 755.31665 4639.8052 2951424
-1556.8937 752.56836 4622.9229 2754304
-1540.7614 758.10876 4656.957 2951424
-1504.7668 753.90021 4631.1045 2951424
-1476.4442 753.45044 4628.3413 2885632
-1331.1669 692.17035 4251.9062 2622464
-1245.1455 659.93164 4053.8687 2820352
-1237.6644 668.8703 4108.7773 2556928
-1368.931 754.65546 4635.7437 2359552
-1341.4624 754.65546 4635.7437 2622464
-1313.3363 754.27789 4633.4243 2951424
-1290.595 757.04279 4650.4087 2885376
-1270.2776 761.38116 4677.0591 2425088
-1235.6276 757.1308 4650.9497 3279872
-1217.2585 762.89026 4686.3291 3345408
-1191.8389 764.39667 4695.5825 2884864
-1163.4727 764.03998 4693.3916 3279616
-1131.2827 761.09344 4675.2915 3148032
-1105.4553 762.38702 4683.2378 3607808
-1072.5234 758.72131 4660.7197 3213312
-1049.8168 762.2865 4682.6201 3147520
-1015.1373 757.11566 4650.8564 3410688
-987.74048 757.23932 4651.6162 3475968
-964.44708 760.60626 4672.2988 3739392
-942.88135 765.57513 4702.8218 3081216
-912.52649 763.4928 4690.0303 3081472
-888.10095 766.39648 4707.8672 3673600
-858.38226 764.77258 4697.8916 3805184
-837.93439 771.57635 4739.6865 3935744
-810.73566 772.42035 4744.8711 4001792
-787.86462 777.59625 4776.666 4067840
-776.578 795.01733 4883.6812 4462080
-754.66022 802.48212 4929.5366 4659715
-724.11761 801.00757 4920.478 4988932
-703.32843 810.65088 4979.7158 4988932
-687.66016 827.2995 5081.9858 4988930
-664.29663 835.79114 5134.1489 4857858
-643.87 848.97034 5215.1069 4924421
-607.46606 841.34955 5168.2935 4727555
0 0 0 0
0 0 0 0
0 0 0 0
0 0 0 0
0 0 0 0
0 0 0 0
0 0 0 0
0 0 0 0
0 0 0 0
0 0 0 0
-693.26465 2155.5007 13240.942 3224576
-615.71515 2158.6855 13260.506 3290624
-517.13043 2078.2649 12766.493 3291136
-448.91699 2113.2561 12981.439 3159552
-369.5856 2099.5588 12897.299 2896640
-292.17148 2092.4514 12853.638 2896640
-215.71651 2089.6226 12836.262 2962432
-142.261 2128.5928 13075.649 2896384
-64.723213 2126.6436 13063.677 2765056
0 0 0 0
89.576118 2114.4695 12988.894 3159808
0 0 0 0
0 0 0 0
0 0 0 0
0 0 0 0
457.92911 2041.0642 12537.975 3028224
534.73077 2050.6868 12597.085 3027968
608.94391 2049.241 12588.202 3159040
685.27734 2054.4673 12620.308 3158784
760.76074 2056.3674 12631.98 2961408
842.86816 2074.2285 12741.698 3158272
916.2027 2069.3386 12711.659 3092480
978.00781 2041.129 12538.372 3158272
569.27771 1104.2157 6783.0439 2960896
1135.2087 2056.7305 12634.209 2698240
1218.979 2071.8701 12727.211 2764032
1304.3649 2087.832 12825.262 2698240
1370.7913 2073.3594 12736.359 2829568
1439.646 2063.8784 12678.119 2699008
1513.2528 2061.8127 12665.43 2501632
1572.274 2041.0083 12537.631 2435840
1645.981 2040.285 12533.188 2436096
1701.2933 2017.8074 12395.11 2436608
1747.2726 1986.5786 12203.277 2502144
1788.9161 1953.0985 11997.613 2370560
1867.1401 1960.5889 12043.626 2501632
1907.2262 1928.9552 11849.305 2501632
1098.4846 1071.552 6582.3955 2304256
1989.004 1873.7086 11509.933 2567424
2029.2045 1848.2059 11353.272 2501888
2087.7173 1840.4834 11305.834 2370048
2132.8298 1821.7949 11191.033 2370048
2176.1797 1802.7734 11074.187 2303488
2250.5583 1809.8176 11117.458 2500864
2315.3826 1808.9962 11112.413 2566912
2382.9893 1810.3342 11120.632 2566912
2430.7241 1796.91 11038.169 2435584
2485.6079 1789.3356 10991.64 2369792
2543.1021 1783.979 10958.735 2632960
2614.929 1788.6934 10987.695 3093248
2680.0354 1788.6934 10987.695 3619840
2696.8 1757.1945 10794.202 3159296
2739.1011 1743.4088 10709.519 3093248
2842.4602 1768.2302 10861.993 2764544
2891.2236 1758.7418 10803.707 2303232
2957.9358 1760.3463 10813.562 2039808
2974.3811 1732.6017 10643.132 1973760
2977.5876 1698.4576 10433.39 1775872
3006.1687 1679.8823 10319.284 986368
3023.1042 1655.6694 10170.548 1117952
2989.4795 1605.254 9860.8525 525568
3025.3489 1593.3722 9787.8643 394496
3058.6018 1580.5851 9709.3154 327936
3084.96 1564.7732 9612.1846 788225
3118.3999 1553.0614 9540.2412 590848
3144.1843 1538.022 9447.8555 984833
3240.0139 1557.1727 9565.4961 1445120
3303.0784 1560.1888 9584.0234 3024133
3373.0308 1566.3013 9621.5713 5127966
3409.4724 1556.908 9563.8701 7890755
3511.2678 1577.1775 9688.3818 3547907
3641.2263 1609.2413 9885.3457 5455128
3702.9927 1610.6295 9893.874 4534538
3812.5918 1632.4553 10027.946 4863766
3908.2405 1647.7296 10121.774 11445129
4058.6113 1685.2645 10352.347 8088144
3885.3105 1589.2843 9762.7529 2560000
4049.3835 1632.098 10025.751 2231040
4199.6558 1668.1917 10247.47 6309404
4273.1182 1673.1808 10278.118 8284472
4274.9873 1650.3907 10138.122 8284729
4243.9961 1615.7222 9925.1572 7099690
4221.2432 1585.095 9737.0176 6178850
4253.3198 1575.6045 9678.7197 5389340
4289.3477 1567.8107 9630.8438 4272152
4387.0938 1582.4844 9720.9824 3154441
4461.0928 1588.3228 9756.8467 2364928
4488.2886 1577.5615 9690.7412 2167040
4572.4434 1586.839 9747.7314 2363137
0 0 0 0
0 0 0 0
4708.4419 1574.3738 9671.1602 5780506
4784.4448 1580.5505 9709.1025 5649436
4753.5952 1551.701 9531.8838 2426881
4749.2573 1532.0815 9411.3643 1311744
5058.7886 1612.9945 9908.4014 1442561
5242.8662 1652.5089 10151.133 1048832
5306.7163 1653.6622 10158.217 1310720
5262.6738 1621.5452 9960.9277 1048576
5194.0532 1582.6519 9722.0107 1245184
5150.0996 1552.0453 9533.999 2231040
5151.3091 1535.5658 9432.7676 1310720
5209.6226 1536.2797 9437.1523 1835264
5225.894 1524.7122 9366.0947 1835520
5349.8003 1544.4613 9487.4111 1245440
5122.6328 1463.5004 8990.0801 917504
5518.6064 1560.4008 9585.3252 1048576
5473.6797 1531.9312 9410.4404 3743498
5234.3633 1450.1801 8908.2549 4268295
5292.2974 1451.5924 8916.9307 4859403
0 0 0 0
5487.0562 1475.5488 9064.0918 2754304
5485.9199 1460.9434 8974.3721 2425856
5700.4199 1503.4926 9235.7461 2361856
5648.2432 1475.5651 9064.1914 6769454
5762.7378 1491.2953 9160.8203 1246208
5560.2676 1425.4724 8756.4795 1181440
5672.3066 1440.7512 8850.335 1115648
5707.9009 1436.5112 8824.2891 852736
5915.3745 1475.2126 9062.0264 1773578
6200.8501 1532.4952 9413.9053 524288
6367.7607 1559.7153 9581.1143 589824
6488.9082 1575.3438 9677.1182 917504
6630.3926 1595.5929 9801.5059 1442560
6670.7793 1591.3726 9775.5801 2165508
6484.2183 1533.5505 9420.3877 2953728
6306.5591 1478.803 9084.0811 2690816
6064.6909 1410.0531 8661.7607 2823172
6316.7329 1456.3287 8946.0254 6178089
6434.3135 1471.0919 9036.7139 918016
6415.3706 1454.6555 8935.7471 1180416
6406.3716 1440.7241 8850.1689 983808
6320.165 1409.7972 8660.1885 918784
6345.9302 1404.1439 8625.4609 2824452
6226.7793 1366.7719 8395.8896 5192744
6198.6221 1349.8069 8291.6768 2494978
6273.7588 1355.4254 8326.1904 2033920
6174.9312 1323.6648 8131.0894 4072462
6164.7729 1311.2562 8054.8652 4664342
6334.4067 1336.9866 8212.9229 3151108
6236.3828 1306.2614 8024.1821 1114112
6644.3149 1381.1759 8484.3721 1048576
6686.3735 1379.4811 8473.9609 1245696
6813.0469 1395.1384 8570.1416 1180928
6892.0796 1400.881 8605.417 1313027
6944.2734 1401.1237 8606.9082 984578
6876.5757 1377.349 8460.8643 918786
6775.4565 1347.2729 8276.1113 1114625
6816.2998 1345.655 8266.1719 1707008
6477.4937 1269.6454 7799.2549 4928282
6361.8154 1238.1379 7605.7095 7888962
6348.3398 1226.8245 7536.2124 9467474
6089.6519 1168.6125 7178.625 9336143
6422.0679 1223.855 7517.9717 5323818
6623.8574 1253.6144 7700.7793 1770752
6757.1182 1270.0858 7801.9604 2298381
6912.7622 1290.5116 7927.4341 2102024
6940.1763 1286.8849 7905.1553 1641991
6951.6953 1280.3792 7865.1914 1115906
7036.3394 1287.3389 7907.9438 787200
7058.0405 1282.7667 7879.8579 1114368
7122.0425 1285.8921 7899.0566 1114112
7182.334 1288.3112 7913.917 1706755
7203.9624 1283.8088 7886.2598 2166021
7241.1362 1282.1171 7875.8667 2363141
7359.7764 1294.7788 7953.646 2561026
7373.0312 1288.8574 7917.2725 2692102
7375.3169 1281.1056 7869.6538 1903104
7358.748 1270.1965 7802.6416 1772291
7376.0488 1265.2336 7772.1548 1509122
7330.5874 1249.6334 7676.3247 1180928
0 0 0 0
0 0 0 0
0 0 0 0
0 0 0 0
0 0 0 0
0 0 0 0
0 0 0 0
-4141.8696 781.8609 4634.1836 3476480
-4067.1079 772.87207 4580.9058 3608064
-4006.4578 766.46198 4542.9126 3081728
-3995.2524 769.48846 4560.8506 3213312
-3178.6343 616.37646 3653.3376 3279104
-3921.5371 765.6488 4538.0928 3081728
-3878.8042 762.5343 4519.6328 3344896
-3814.8447 755.1745 4476.0103 3344640
-3794.4968 756.40527 4483.3052 3476480
-3738.9614 750.5896 4448.835 3279360
-3716.5894 751.39612 4453.6152 3081984
-3050.3965 621.11969 3681.4514 3081472
-3160.8081 648.23743 3842.1812 3147520
-3617.134 747.20532 4428.7759 3147520
-3023.446 629.12927 3728.925 3213312
-3564.0806 747.08612 4428.0693 3542272
-3529.5466 745.33429 4417.686 3805440
-3508.2966 746.38232 4423.8979 3543040
-3474.7837 744.81763 4414.624 3345408
-3447.6724 744.61188 4413.4043 3345408
-3411.677 742.4696 4400.7065 2950912
-3398.5173 745.30212 4417.4956 3016448
-3381.2205 747.26428 4429.1255 3016960
-3344.9229 745.02521 4415.854 2819584
-3327.3992 746.96515 4427.3525 2425088
-3314.3396 749.94617 4445.0215 3477248
-2924.0225 666.92786 3952.9617 3740672
-2748.9958 632.06995 3746.3547 3543296
-3236.7224 750.27039 4446.9429 3543296
-3189.0625 745.2901 4417.4243 2819584
-3194.8962 752.83252 4462.1289 2490880
-3168.4563 752.83252 4462.1289 3214336
-3148.6235 754.41559 4471.5122 2885120
-3127.2537 755.65417 4478.853 2950912
-3109.1748 757.71594 4491.0737 2819328
-3081.4016 757.43036 4489.3809 2885120
-3048.0129 755.7475 4479.4062 2753280
-3042.1541 760.9209 4510.0698 2819328
-3009.6919 759.4729 4501.4873 2885632
-2972.5535 756.80847 4485.6948 3017216
-2954.5925 759.02252 4498.8179 2556672
-2913.5186 755.28522 4476.6665 2556928
-2870.2529 750.90594 4450.71 2951424
-2835.2395 748.62421 4437.186 2951424
-2816.6191 750.66882 4449.3047 2490880
-2762.2275 743.12854 4404.6123 2490880
-2752.4626 747.56482 4430.9067 2688256
-2729.2939 748.41119 4435.9233 2951424
-2451.4036 678.74634 4023.0112 3280384
-2690.4126 752.23828 4458.6069 2425600
-2643.9971 746.5918 4425.1396 2622464
-2633.8306 751.17059 4452.2783 2555904
-2608.0347 751.33917 4453.2778 2425344
-2584.5208 752.17554 4458.2349 2293760
-2571.5588 756.13177 4481.6841 2819840
-2547.26 756.80231 4485.6582 3477760
-2506.6011 752.57507 4460.603 3016960
-2489.0723 755.27625 4476.6133 2951424
-2441.6594 748.87006 4438.6431 2425344
-2434.3721 754.76514 4473.584 3477760
-2434.1689 763.0105 4522.4551 2819840
-2404.1665 761.99463 4516.4341 2622720
-2373.0903 760.61182 4508.2378 2162688
-2355.5918 763.59888 4525.9424 2556672
-2031.6465 666.17163 3948.4795 2294272
-2105.2944 698.36285 4139.2808 2557696
-2281.6633 765.78906 4538.9238 2426368
-2260.1323 767.61084 4549.7217 3084032
-2239.7732 769.87933 4563.1675 1966080
-1950.5089 678.64288 4022.3979 2556928
-2184.2998 769.38763 4560.2529 2820096
-2154.8044 768.50519 4555.0229 2557184
-2133.2915 770.48346 4566.7485 2556928
-2100.9775 768.56146 4555.3564 2622464
-2068.8503 766.65863 4544.0781 2490880
-2048.7654 769.22693 4559.3008 2885632
-2029.6177 772.22052 4577.0439 2885632
-2006.8013 773.88049 4586.8828 2688256
-1728.0958 675.55292 4004.0835 3016704
-1941.0223 769.35364 4560.0518 3148288
-1921.1339 772.22034 4577.043 3345408
-1899.689 774.53455 4590.7593 3279872
-1618.0284 669.28052 3966.906 3345408
-1841.0579 772.76025 4580.2432 3345920
-1799.3657 766.56079 4543.498 3016960
-1784.5084 771.77863 4574.4248 2688256
-1760.2626 773.0343 4581.8677 1900544
-1724.8472 769.34741 4560.0146 3083008
-1695.2578 768.18311 4553.1138 2819840
-1695.1902 780.57483 4626.561 3543296
-1656.3549 775.22937 4594.8779 3345920
-1627.5494 774.47809 4590.4248 3083008
-1609.8447 779.0733 4617.6611 2622464
-1578.2822 777.00507 4605.4023 2951168
-1544.6274 773.81586 4586.5 2951168
-1517.7535 773.97046 4587.416 3280384
-1492.4421 774.94189 4593.1738 2951168
-1463.8859 774.23328 4588.9736 2688256
-1433.6941 772.61633 4579.3901 2951168
-1405.3495 771.95178 4575.4512 2753792
-1377.592 771.58997 4573.3066 3016960
-1354.683 773.98364 4587.4941 2754048
-1334.5677 778.10419 4611.9175 2754048
-1310.7733 780.20715 4624.3818 2951424
-1280.1854 778.27002 4612.8999 3017216
-1254.9313 779.56158 4620.5552 2884864
-1225.839 778.47333 4614.105 3016704
-1205.4442 782.98468 4640.8447 3147776
-1180.9534 784.98413 4652.6958 2950656
-1150.6946 783.15356 4641.8457 2950656
-1120.8601 781.5293 4632.2183 3411200
-1089.9857 779.08002 4617.7012 3345664
-1058.5442 776.08887 4599.9722 3213824
-1032.36 776.89587 4604.7554 2950400
-1001.1487 773.86108 4586.7676 2950912
-980.4895 779.04089 4617.4692 3476224
-949.86176 776.3703 4601.6401 3278848
-923.74133 777.33472 4607.3564 3279104
-895.91284 776.87683 4604.6426 3147520
-877.78198 785.06342 4653.1655 3476224
-848.18756 783.19586 4642.0962 3213312
-824.55823 786.89575 4664.0259 3147520
-800.27185 790.20349 4683.6313 4068096
-769.8028 787.42468 4667.1606 3607808
-752.7356 798.6582 4733.7432 3804672
-729.70862 804.19318 4766.5498 3870464
-713.84528 818.38666 4850.6763 3673344
-686.0658 819.53662 4857.4922 3936768
-657.74561 820.11316 4860.9097 4265728
-631.77484 823.80609 4882.7979 4463362
-610.3078 834.00793 4943.2656 4660740
-574.92828 825.26807 4891.4634 4923651
-553.02771 835.97546 4954.9272 5845264
-510.59927 815.11304 4831.2734 5319687
0 0 0 0
0 0 0 0
0 0 0 0
0 0 0 0
0 0 0 0
0 0 0 0
0 0 0 0
0 0 0 0
0 0 0 0
0 0 0 0
0 0 0 0
-438.10416 2137.4229 12668.763 3159552
-353.73383 2082.6514 12344.125 2962176
-269.83368 2002.8142 11870.921 3027968
-198.53761 1993.2153 11814.027 2962176
-135.61494 2103.0093 12464.789 2962176
-60.929855 2074.8743 12298.029 3027712
11.777691 2046.5139 12129.935 3159296
85.548889 2092.9099 12404.93 3225088
159.13683 2094.0122 12411.462 2764544
232.40816 2091.5681 12396.976 2962176
295.51096 2020.7634 11977.309 2764800
354.80606 1956.3867 11595.739 2698752
420.22787 1941.1998 11505.726 2698752
491.92111 1955.1792 11588.583 2764032
580.5379 2024.7585 12000.988 2697984
625.07727 1942.1981 11511.643 2895360
701.93842 1966.4304 11655.271 2566656
760.44427 1939.5068 11495.69 2369280
825.00244 1931.1772 11446.32 2172672
890.0827 1925.2426 11411.145 2106880
962.03699 1933.9645 11462.84 2040832
1045.6018 1963.3372 11636.937 1975040
1107.8893 1951.5947 11567.337 2238208
1177.7301 1953.7509 11580.116 2172416
1252.1512 1962.8495 11634.045 2106624
1296.6447 1926.5327 11418.791 2041344
1346.3091 1901.1198 11268.166 2041344
1428.067 1921.2863 11387.695 1909760
1512.1339 1942.5994 11514.021 1778176
1561.2178 1919.0706 11374.562 1975552
1616.9458 1905.3182 11293.051 1975552
1673.0929 1893.1332 11220.829 2041344
1736.4318 1889.7063 11200.517 2040832
1783.2996 1869.2665 11079.367 2106624
1860.778 1881.2252 11150.248 2238208
1923.2023 1877.6659 11129.152 2106624
1963.7104 1853.655 10986.837 1908992
2014.4669 1840.5486 10909.153 2040832
2085.5696 1846.2687 10943.057 2303488
2115.6648 1816.4365 10766.237 2500864
2159.6299 1799.91 10668.283 1974272
2196.9814 1778.9685 10544.16 2105600
2229.6826 1755.5236 10405.199 1775872
2280.4065 1747.1487 10355.561 723456
2359.2742 1760.2102 10432.978 788736
2431.2175 1767.5707 10476.604 722944
2498.0764 1770.9597 10496.692 854528
2551.637 1764.9858 10461.283 263168
2640.4146 1783.0773 10568.514 1774337
2688.0691 1773.2035 10509.99 2498305
2722.4841 1755.241 10403.524 2960398
2781.9224 1753.8496 10395.278 4539436
2779.2056 1714.1823 10160.164 7235644
2837.781 1713.1997 10154.341 7695935
2841.8723 1680.0482 9957.8477 8682063
2743.6489 1588.9893 9418.1309 10985074
2810.5947 1595.3121 9455.6074 12170630
2760.1409 1536.0535 9104.374 13091988
2786.3252 1520.8995 9014.5547 12892813
2803.9658 1501.7395 8900.9912 10917221
2930.8477 1540.7141 9131.998 7887143
3082.0334 1590.8203 9428.9834 8478504
3128.8291 1586.2196 9401.7148 8413487
3150.9282 1569.4785 9302.4883 5652259
3019.4429 1478.1279 8761.042 3877395
2987.3838 1437.7155 8521.5127 4205332
2978.927 1409.8165 8356.1523 1048832
3468.2883 1614.5769 9569.792 1245184
3589.3438 1644.0518 9744.4932 1245184
3697.3176 1666.6965 9878.7109 2296064
3679.9014 1632.9922 9678.9414 4004869
3797.0911 1659.1385 9833.9141 4661765
3776.6421 1625.2623 9633.125 3477248
3856.4929 1634.9155 9690.3408 3345920
3909.6504 1633.1353 9679.79 3083264
3927.3921 1616.8268 9583.127 3543042
3974.7935 1613.0192 9560.5586 4134658
4034.8662 1614.3887 9568.6758 4596495
4077.1477 1608.7002 9534.96 3149313
3957.905 1540.3066 9129.583 2425856
3967.2864 1523.1395 9027.8311 2886400
4277.0103 1620.2039 9603.1436 6108433
4344.7754 1624.2648 9627.2129 6633744
4322.6567 1595.0535 9454.0742 6699026
4328.9961 1576.9562 9346.8096 6304527
4273.8872 1537.2147 9111.2568 6107921
4269.9702 1516.6476 8989.3525 6240025
0 0 0 0
4457.9961 1544.889 9156.7432 4661770
4562.5137 1562.0969 9258.7363 3149312
4639.8389 1569.6964 9303.7803 2557184
4802.5605 1605.6688 9516.9922 4332047
4867.7451 1608.5743 9534.2139 6766891
4895.644 1599.2333 9478.8486 5319446
5054.3984 1632.3654 9675.2256 1310720
5133.4951 1639.3163 9716.4248 1048576
5131.9023 1620.6317 9605.6797 1114112
5051.7861 1577.8319 9351.999 1376768
2198.5237 679.21759 4025.8044 2164481
5036.4888 1539.2843 9123.5234 3346436
4968.8242 1502.4771 8905.3623 3478532
5137.9482 1537.2911 9111.71 5319183
5379.5244 1592.8336 9440.917 7029538
5326.6733 1560.9528 9251.9551 6832671
5186.9546 1504.5245 8917.498 5845266
5154.3501 1479.9905 8772.082 5844241
5152.5654 1464.7075 8681.498 5712656
0 0 0 0
5341.3369 1488.6449 8823.3779 2425088
5513.2451 1521.6619 9019.0732 2097152
5518.3677 1508.4537 8940.7871 1572864
5717.0044 1547.8912 9174.5381 1638913
5700.2192 1528.8092 9061.4365 5780504
5653.6699 1502.175 8903.5723 5385746
5556.2354 1462.6382 8669.2324 5517591
5483.9219 1430.3779 8478.0225 1771008
5834.6265 1508.0382 8938.3242 3611918
5993.2202 1535.0942 9098.6885 8083514
5958.9565 1512.7101 8966.0146 5121800
6108.9683 1537.0874 9110.502 6107921
6088.9624 1518.6339 9001.126 6239255
6284.7285 1553.8488 9209.8486 6173205
6232.6343 1527.7035 9054.8828 4462595
6070.4004 1475.2382 8743.9141 4463362
5918.2563 1426.092 8452.6191 4068352
6124.9678 1463.5168 8674.4404 6042134
6071.7524 1438.7278 8527.5127 5976338
6144.8564 1444.033 8558.957 6042648
6224.5449 1450.7859 8598.9824 5780509
6150.0752 1421.7904 8427.123 2098688
6014.1987 1379.1802 8174.5669 983040
6012.8374 1367.8516 8107.4209 851968
6144.9922 1386.8351 8219.9385 851968
6093.2612 1364.3461 8086.6436 983040
6212.6899 1380.2334 8180.8096 2033408
6145.7559 1354.7924 8030.0171 3480845
6220.5259 1360.7399 8065.269 4004360
6127.4106 1330.152 7883.9707 4398600
6184.4312 1332.3719 7897.1294 5253139
6215.4536 1328.9998 7877.1416 5713172
6254.4688 1327.374 7867.5059 5581839
6336.0654 1334.7427 7911.1802 4463622
6483.2886 1355.7261 8035.5518 4661250
6458.9395 1340.7876 7947.0093 5713168
6276.2817 1293.4403 7666.377 5450000
6325.1489 1294.1444 7670.5498 4265730
6039.333 1226.8497 7271.686 2556928
6009.4565 1212.1326 7184.4556 2229248
6004.7314 1202.6599 7128.3101 1703936
6022.9624 1197.8853 7100.0103 2754816
5752.9365 1136.2441 6734.6553 1114368
5961.8569 1169.3956 6931.1489 1638400
6099.292 1188.168 7042.415 2886659
6678.0337 1292.0695 7658.2515 6570017
6911.1353 1328.1451 7872.0762 7031337
6991.1392 1334.5129 7909.8188 7293227
6618.7417 1255.0137 7438.6172 6242335
6790.8052 1279.1213 7581.5063 5451795
7046.8389 1318.6248 7815.6479 5582612
7081.6763 1316.4921 7803.0068 5451026
6923.3882 1278.7173 7579.1113 4792840
7044.3594 1292.675 7661.8408 5252622
6901.7383 1258.3933 7458.6484 5121036
6989.7754 1266.3361 7505.7266 4923915
6921.3267 1246.0072 7385.2349 4990220
6932.3599 1240.1525 7350.5332 4793353
7060.042 1255.1083 7439.1782 5516817
7018.7227 1240.0205 7349.751 7951415
0 0 0 0
0 0 0 0
0 0 0 0
0 0 0 0
0 0 0 0
0 0 0 0
0 0 0 0
-4066.7986 794.65143 4550.1895 3410688
-3986.7029 784.19971 4490.3428 3344896
-3947.0581 781.61798 4475.5596 3015680
-3942.3401 785.96436 4500.4473 3213568
-3905.5784 783.93823 4488.8452 3147520
-3871.083 782.34216 4479.7065 3016192
-3812.0537 775.73157 4441.854 2753280
-3788.563 776.31128 4445.1733 3147520
-3754.947 774.80988 4436.5762 2950144
-3732.7708 775.66437 4441.4692 3147520
-3699.4646 774.20178 4433.0942 3081472
-3648.8975 769.0802 4403.7681 2686976
-3614.772 767.37518 4394.0054 2884352
-3586.2219 766.83777 4390.9277 2884352
-2885.2874 621.46637 3558.5286 3147520
-3543.3953 768.83594 4402.3696 3739648
-3516.2134 768.59631 4400.9976 3081728
-3489.5571 768.46893 4400.2681 3344896
-3451.7908 765.87451 4385.4126 3740160
-3410.4539 762.4425 4365.7607 5517064
-3406.3257 767.34003 4393.8037 8149535
-3362.6057 763.32544 4370.8164 9794354
-3326.1653 760.91394 4357.0078 2689280
-3322.5935 766.0426 4386.375 2951168
-3301.6433 767.21405 4393.0825 2622464
-3283.668 769.10083 4403.8862 2556672
-3266.7683 771.27173 4416.3169 2228480
-3251.7275 773.9201 4431.4814 2097152
-3209.6953 770.13538 4409.8101 2556416
-3189.0273 771.45667 4417.376 2556416
-2733.9563 666.84387 3818.3608 2951168
-3165.4832 778.54132 4457.9424 2951168
-3117.9507 773.30377 4427.9521 2753536
-2757.3289 689.66705 3949.0469 2556160
-3082.5671 777.61517 4452.6396 2819328
-3058.4446 778.19049 4455.9341 2950912
-3037.5933 779.61548 4464.0933 2687744
-2983.7429 772.52167 4423.4741 2754048
-2995.7043 782.49243 4480.5669 3148544
-2954.197 778.55029 4457.9941 3016960
-2919.1216 776.24744 4444.8081 2688000
-2902.0781 778.74139 4459.0884 3214592
-2835.1692 767.77728 4396.3076 3017216
-2811.7314 768.49121 4400.3955 3017216
-2787.3762 768.96545 4403.1108 2622464
-2749.771 765.75879 4384.7495 2490880
-2727.6306 766.83856 4390.9326 2490880
-2700.4939 766.521 4389.1143 2490368
-2709.676 776.60645 4446.8638 3345408
-2671.0269 773.04675 4426.4805 3213824
-2646.6819 773.59735 4429.6333 2950656
-2614.4119 771.8194 4419.4526 2687488
-2593.2222 773.30951 4427.9854 2556160
-2566.9382 773.29553 4427.9053 2621952
-2534.4502 771.39301 4417.0112 2490624
-2515.4207 773.58972 4429.5898 2228480
-2504.8738 778.46918 4457.5293 2491136
-2471.55 776.2984 4445.0996 2359296
-2452.0291 778.46289 4457.4937 2622720
-2426.8975 778.87402 4459.8477 2885632
-2416.4941 784.073 4489.6172 2622464
-2380.1301 780.87054 4471.2798 2228480
-2356.092 781.68536 4475.9458 2162688
-2058.0898 690.59033 3954.3335 2294272
-2312.2324 784.80249 4493.7944 2228736
-2022.3147 694.39728 3976.1321 2491904
-1946.0448 676.08508 3871.2764 2557440
-2216.4417 779.20996 4461.771 2360320
-2203.6255 784.05652 4489.5229 2163456
-2185.8823 787.24707 4507.792 2556928
-2152.4436 784.79388 4493.7451 2754304
-2150.7925 794.01447 4546.542 2885888
-2116.6785 791.3324 4531.1846 2622720
-2089.8293 791.3324 4531.1846 2097152
-2065.4014 792.26117 4536.5029 2951168
-2037.6558 791.92493 4534.5776 2885376
-2013.3219 792.92346 4540.2949 2885632
-1983.9423 791.93481 4534.6343 2819840
-1954.5659 790.92047 4528.8262 2884864
-1679.4719 689.06335 3945.5903 2950912
-1903.4487 791.98279 4534.9087 2885120
-1873.0348 790.48755 4526.3472 3148032
-1839.61 787.65985 4510.1553 2819584
-1809.6801 786.26709 4502.1807 2754304
-1773.9576 782.27826 4479.3408 2622208
-1755.6222 785.95221 4500.3774 2688000
-1738.1747 790.14294 4524.374 2490624
-1711.6831 790.28949 4525.2129 3017216
-1684.3158 790.02972 4523.7256 2885376
-1666.4696 794.29968 4548.1758 2885632
-1635.319 792.26459 4536.5225 2951168
-1612.939 794.48145 4549.2163 2819840
-1586.9324 794.95703 4551.9395 2425088
-1566.5299 798.30493 4571.1094 2819840
-1536.5554 796.80688 4562.5317 2622208
-1509.5206 796.80688 4562.5317 2885632
-1484.7006 797.99738 4569.3481 3214592
-1460.7672 799.71741 4579.1973 2754048
-1429.4052 797.35858 4565.6909 2688256
-1400.8606 796.5108 4560.8364 2622720
-1372.5927 795.79004 4556.7095 3083008
-1349.9888 798.3902 4571.5977 2754048
-1321.1591 797.33936 4565.5806 2688000
-1296.5486 798.8443 4574.1978 2754048
-1270.1759 799.30438 4576.8325 2819840
-1247.0355 801.86304 4591.4834 2687744
-1224.27 804.78229 4608.1992 2621952
-1190.4569 800.40692 4583.1455 2687744
-1166.345 802.50201 4595.1421 2819328
-1141.4374 804.13672 4604.5024 2819584
-1111.0734 801.91345 4591.772 2819328
-1085.5854 803.18616 4599.0596 3148288
-1054.8617 800.55072 4583.9692 3279872
-872.76648 679.86188 3892.9023 3477248
-997.96375 798.49109 4572.1758 2819328
-896.99042 737.72766 4224.2427 3213056
-943.18988 797.99207 4569.3179 3410688
-912.45508 794.80414 4551.064 3213312
-884.81689 794.2016 4547.6138 3279104
-862.28668 798.2901 4571.0244 3279104
-830.97491 794.25018 4547.8921 3015680
-808.06165 798.23602 4570.7148 2949888
-789.63635 807.08533 4621.3862 3344640
-765.5683 810.59589 4641.4878 3475968
-740.95422 813.76837 4659.6533 3870976
-720.45996 821.88617 4706.1362 3804928
-695.71948 825.61871 4727.5088 3475200
-663.45697 820.3634 4697.417 3739136
-643.27875 830.24451 4753.9961 3739136
-619.92328 836.742 4791.2007 3607552
-588.95264 833.09131 4770.2969 3739136
-565.3631 840.03967 4810.0835 3673600
-537.70105 841.35339 4817.606 3673856
-507.4881 838.5993 4801.8359 3608832
-478.90604 838.37305 4800.54 4398593
-461.39816 858.72882 4917.0977 4990466
-429.8504 853.93713 4889.6606 5779982
0 0 0 0
0 0 0 0
0 0 0 0
-321.12155 873.42261 5001.2349 4535553
0 0 0 0
0 0 0 0
0 0 0 0
0 0 0 0
0 0 0 0
0 0 0 0
-253.13286 1944.8403 11136.193 2370304
-178.70988 1857.167 10634.174 2041344
-106.90467 1716.0157 9825.9395 2041600
-49.358967 1739.8772 9962.5703 1909760
10.336789 1859.2216 10645.938 1844224
73.509094 1861.5221 10659.111 1712640
137.61533 1874.4169 10732.947 1712896
203.22482 1893.1643 10840.296 1910016
270.33054 1913.4979 10956.726 1646592
332.88171 1899.9602 10879.209 1712128
396.61514 1896.4685 10859.215 1383168
448.72058 1846.1121 10570.873 1514496
515.15002 1859.8048 10649.278 1645824
583.54333 1876.8254 10746.738 1645824
648.07672 1879.3037 10760.93 1711872
718.40997 1896.6501 10860.255 1975040
778.81494 1887.0878 10805.502 2106368
839.50433 1879.6151 10762.713 2106112
907.51007 1888.4224 10813.143 2369024
971.92548 1889.0894 10816.962 2106112
1049.1321 1912.9974 10953.86 2369280
1122.8292 1928.0933 11040.3 2369280
1178.8232 1912.8013 10952.737 2040320
1229.9872 1891.6766 10831.777 1974784
1284.6444 1877.7534 10752.053 1908224
1350.0599 1880.1283 10765.65 1579264
1407.8329 1872.1259 10719.829 1381888
1462.2469 1860.5405 10653.491 921088
1532.6676 1869.4377 10704.437 1644288
1586.0935 1857.7227 10637.355 986112
1650.0862 1858.8064 10643.562 590848
1722.9666 1869.4536 10704.528 262400
1788.0986 1871.2362 10714.735 262400
1846.9934 1866.5931 10688.148 393728
1885.2085 1842.0518 10547.624 2102272
1961.0646 1854.6842 10619.958 4468757
2003.4501 1835.8607 10512.174 5521941
2028.8273 1803.0565 10324.337 6641192
2053.3848 1771.4658 10143.447 8090181
2038.3206 1708.4618 9782.6855 8552024
2054.47 1674.3811 9587.5391 9735785
2051.1055 1626.6588 9314.2803 9275235
2165.7861 1672.6019 9577.3516 9735790
2263.3557 1703.3217 9753.2529 10195829
2338.9861 1716.412 9828.208 10195826
2375.6204 1700.9451 9739.6445 9472096
2431.2766 1699.5085 9731.4189 8681292
2473.2139 1688.7709 9669.9355 6903342
2533.5159 1690.7754 9681.4131 6441243
2607.2683 1701.4691 9742.6445 5124876
2616.1794 1670.301 9564.1768 4334605
2641.2764 1650.5697 9451.1943 3742471
2604.5537 1593.8279 9126.2891 4136714
2717.303 1629.0013 9327.6934 5714703
2734.9414 1606.8911 9201.0898 4990989
2802.0505 1614.1431 9242.6143 8015664
2860.05 1615.97 9253.0752 5778185
2935.7419 1627.5365 9319.3057 5448448
2963.9355 1612.8297 9235.0938 9527078
3047.4766 1628.2275 9323.2627 9921826
3159.0557 1657.7906 9492.542 7289605
3221.3613 1660.9143 9510.4277 8473885
3267.9485 1655.9658 9482.0928 6106386
3257.0339 1622.5392 9290.6904 5252875
3345.9238 1639.1162 9385.6113 1507328
3461.5122 1668.0165 9551.0947 1310720
3505.9771 1662.2656 9518.166 1245184
3517.0759 1641.1279 9397.1299 1376256
3589.6357 1648.8807 9441.5234 5122321
3728.1089 1686.208 9655.2598 5712139
3786.5576 1686.7593 9658.416 6171404
3838.6826 1684.519 9645.5889 6039819
3869.5039 1673.1331 9580.3926 5909779
3874.7727 1651.1874 9454.7314 1769472
3839.8232 1612.973 9235.915 1638400
3684.377 1525.9276 8737.4912 1638400
3774.7856 1541.7073 8827.8457 1638400
3881.3191 1563.5513 8952.9248 1703936
4055.8147 1611.8149 9229.2832 3542784
4016.3906 1574.9117 9017.9756 3083008
4017.4692 1554.6514 8901.9639 4134404
4010.1504 1531.7084 8770.5918 7422500
4189.2344 1579.6396 9045.0479 6303505
4196.6123 1562.4325 8946.5186 6171661
4179.0093 1536.4698 8797.8564 5579782
0 0 0 0
4425.7183 1587.5679 9090.4443 4528902
4374.0586 1550.17 8876.3037 4660997
4520.3838 1582.993 9064.249 4464389
4729.1108 1636.6415 9371.4404 4070403
4818.3218 1648.1625 9437.4102 3281152
4771.4185 1613.3939 9238.3252 6172180
4666.999 1560.1865 8933.6582 6107154
4669.7939 1543.6123 8838.7539 6238227
4654.0093 1521.3324 8711.1787 6304022
4732.542 1530.0342 8761.0059 6172696
4725.3813 1511.1429 8652.834 3871235
4899.3916 1549.9728 8875.1738 2691588
5105.127 1597.9075 9149.6494 4597782
5133.9302 1590.0372 9104.584 8808773
5012.4473 1536.2692 8796.707 8611392
5017.459 1521.9783 8714.877 6965282
4880.3452 1465.3059 8390.3701 5778960
4962.0444 1474.8118 8444.8008 4923141
4982.0435 1465.9725 8394.1875 5843729
0 0 0 0
5083.0796 1466.4221 8396.7617 7027743
5191.8521 1483.2833 8493.3086 6830362
5195.6807 1470.1267 8417.9736 6633240
5219.9399 1462.9462 8376.8584 6435607
5339.2729 1482.2955 8487.6533 5910035
5492.8223 1510.6943 8650.2646 3740417
5349.1943 1457.5907 8346.1924 2097408
5389.936 1455.2383 8332.7227 1900544
5505.1714 1472.8586 8433.6172 1900800
5680.1123 1505.9921 8623.3398 3609604
5921.2573 1555.9312 8909.292 6305565
5763.9868 1501.2208 8596.0195 5910290
5720.1182 1476.7458 8455.875 5975823
5723.937 1464.9001 8388.0469 5844751
5733.3384 1454.6748 8329.4961 7159841
5726.7471 1440.601 8248.9092 7160098
5562.731 1387.4994 7944.8481 6370324
5762.2896 1425.2134 8160.7998 6304532
5817.5991 1426.9189 8170.5654 6107155
5890.1572 1432.7921 8204.1953 6041107
5978.1357 1442.2894 8258.5771 5975829
5989.7021 1433.3469 8207.3721 4463112
5957.5703 1414.1757 8097.5972 3938567
6004.4385 1413.9135 8096.0957 3544839
6036.9268 1410.2961 8075.3828 3415820
6078.6162 1408.8683 8067.207 4469538
6149.6479 1414.2104 8097.7969 4533278
6200.9141 1414.9597 8102.0864 5716773
5796.2739 1312.4655 7515.2026 6109726
5833.6489 1310.8575 7505.9956 5845524
5795.4106 1292.4119 7400.375 5712905
5927.7666 1312.0007 7512.542 5976332
6051.248 1329.3484 7611.8745 8673319
6036.189 1316.2295 7536.7559 8870698
6040.3618 1307.4662 7486.5771 9265199
6163.9414 1324.4884 7584.0464 7752217
6198.8208 1322.3427 7571.7598 8739375
5970.5186 1264.4886 7240.4868 8805942
5670.4521 1192.37 6827.5332 4661004
5728.5933 1196.0624 6848.6763 3806464
5609.7393 1163.0084 6659.4087 1769728
5561.9863 1145.0538 6556.6006 1638400
5679.1416 1161.0627 6648.2676 1441792
5769.6011 1171.4309 6707.6357 1376256
5856.8867 1181.0172 6762.5273 1507328
5872.7461 1176.1682 6734.7622 2032896
5735.4985 1140.928 6532.9761 2032898
5958.7651 1177.3947 6741.7847 1966592
6118.6504 1200.9353 6876.5786 1507328
6477.2852 1262.916 7231.4814 6900023
6983.6406 1352.6946 7745.5552 6768177
7069.6987 1360.4231 7789.8091 5913120
7276.9707 1391.2252 7966.1826 8412486
6956.2407 1321.3364 7565.998 6899250
6837.6758 1290.498 7389.4165 3545354
6657.8203 1248.5582 7149.2686 4003848
6635.9751 1236.5933 7080.7568 4201478
6650.3628 1231.4883 7051.5254 4266756
6611.9282 1216.7264 6966.9995 4595461
6856.4297 1253.8907 7179.8032 5977369
0 0 0 0
0 0 0 0
0 0 0 0
0 0 0 0
0 0 0 0
0 0 0 0
0 0 0 0
-3237.4502 654.0603 3622.2625 3476480
-3948.2468 802.98572 4447.0288 3279616
-3921.3489 802.87366 4446.4082 2556160
-3893.3918 802.54175 4444.5698 2688000
-3835.1521 795.92059 4407.9014 2424832
-3826.9666 799.66785 4428.6538 2753024
-3791.7952 797.78894 4418.2485 2818560
-3750.8604 794.66302 4400.9365 2884352
-3191.1072 680.80603 3770.3835 3213056
-3165.1162 680.02179 3766.0403 3081728
-3093.0579 669.25873 3706.4331 2950144
-3628.4619 790.72095 4379.105 3081728
-3592.0776 788.43024 4366.4189 3015680
-3005.2825 664.41937 3679.6323 3015680
-3527.3335 785.53546 4350.3872 3278848
-3498.2427 784.79224 4346.271 3344896
-2940.365 664.5307 3680.2485 3081728
-2878.2202 655.34619 3629.3835 3279104
-3419.8726 784.53772 4344.8613 3015424
-3433.0496 793.5343 4394.6855 5383424
-3446.3303 802.69269 4445.4058 4726017
-3377.6919 792.76514 4390.4258 3477504
-3328.1155 787.1922 4359.5625 3674624
-3321.6917 791.81873 4385.1846 3346176
-3288.8059 790.16052 4376.0015 2031616
-3251.2664 787.34906 4360.4307 1900544
-2796.1948 682.56995 3780.1523 1966080
-3218.6211 792.03174 4386.3643 2359552
-3192.8035 792.07465 4386.6021 2951424
-3171.9956 793.37146 4393.7837 3477760
-3150.4482 794.50311 4400.0513 3280128
-3124.6328 794.56842 4400.4126 3214336
-3115.9014 799.01569 4425.042 2556672
-3085.593 797.95844 4419.187 2490880
-3055.7698 797.00958 4413.9321 2951424
-3034.7576 798.3623 4421.4238 2951424
-3008.5588 798.3623 4421.4238 3017216
-2514.718 673.17694 3728.1326 3214592
-2965.1211 800.7821 4434.8247 2097152
-2925.4412 797.13031 4414.6006 2359296
-2888.3997 794.13806 4398.0293 2951424
-2837.7988 787.32941 4360.3223 3148544
-2795.45 782.70612 4334.7178 3083008
-2787.7483 787.78796 4362.8618 2951168
-2763.4883 788.24194 4365.376 2951424
-2742.1689 789.55127 4372.627 3016960
-2693.1997 782.84839 4335.5059 2425344
-2673.991 784.75037 4346.0391 2622464
-2675.2456 792.75317 4390.3599 2820096
-2655.2854 794.56494 4400.3936 3082752
-2638.0203 797.22705 4415.1367 3280384
-2595.5657 792.25378 4387.5942 2951424
-2575.6094 794.1167 4397.9111 2490880
-2546.0945 793.04047 4391.9507 2359552
-2520.0349 793.0293 4391.8887 2228480
-2073.0784 659.18378 3650.637 2951424
-2478.2004 796.31091 4410.063 3017472
-2468.3765 801.60687 4439.3921 2293760
-2440.0664 800.94873 4435.7476 2294016
-2390.7163 793.29468 4393.3589 3017472
-2361.207 792.12823 4386.8989 2819840
-2356.1777 799.23975 4426.2832 2754816
-2341.5173 803.20764 4448.2578 2491904
-2308.6394 800.9455 4435.73 2360320
-1998.0734 701.1825 3883.2305 2097152
-2255.6697 800.80255 4434.938 2360320
-2238.2869 803.99805 4452.6348 2491648
-2213.6992 804.65082 4456.2505 2294528
-2194.9478 807.46643 4471.8433 2425856
-2168.4504 807.46643 4471.8433 3017216
-2137.0242 805.60846 4461.5537 2688512
-2120.8486 809.52502 4483.2441 2622464
-2120.259 819.56555 4538.8496 2491136
-2076.5037 812.96448 4502.292 2425344
-2047.537 812.05664 4497.2646 2688256
-2031.2986 816.23962 4520.4302 2819840
-1822.5282 742.13513 4110.0312 3017216
-1976.1005 815.56799 4516.7109 3214592
-1943.6525 813.18964 4503.5391 3082496
-1755.4315 744.6651 4124.0425 3148288
-1882.4321 809.81262 4484.8369 3279616
-1843.1108 804.25049 4454.0332 2687488
-1819.1147 805.31116 4459.9072 2622208
-1795.946 806.77472 4468.0127 2490880
-1774.2786 808.96655 4480.1514 2622208
-1747.8274 809.01074 4480.396 2425088
-1721.3619 809.04962 4480.6113 2885120
-1695.9255 809.58093 4483.5537 2754048
-1466.3918 711.14911 3938.4268 2622464
-1467.3151 723.10461 4004.6379 2754048
-1445.932 724.27972 4011.146 2754048
-1603.2876 816.52222 4521.9951 2885632
-1579.4806 818.06958 4530.5649 3016960
-1559.2471 821.55334 4549.8584 2490880
-1528.9188 819.74725 4539.856 3016960
-1370.0848 747.74274 4141.0864 2885376
-1473.5709 818.88763 4535.0952 2622464
-1444.749 817.784 4528.9834 2556416
-1244.5981 717.82434 3975.395 2754048
-1391.7911 818.20398 4531.3091 2753792
-1368.3361 820.23889 4542.5786 2819584
-1342.1833 820.70599 4545.1655 2754048
-1154.9426 720.67462 3991.1802 2885632
-1290.1111 821.84729 4551.4863 3148800
-1257.312 818.05426 4530.48 2622208
-1233.1948 819.86774 4540.5234 2951168
-1207.5393 820.71655 4545.2241 2820096
-1156.8707 804.21594 4453.8418 2622464
-1159.1763 824.63025 4566.8989 2688000
-1138.4232 829.22479 4592.3438 2885376
-1010.7764 754.27643 4177.271 2687744
-1079.0752 825.45721 4571.4785 3082240
-1047.2238 821.71942 4550.7783 3608064
-1024.3033 824.97717 4568.8198 3673856
-994.25842 822.51776 4555.1997 3805440
-962.11554 818.13721 4530.9395 3871232
-934.10986 817.12415 4525.3291 3476224
-904.66058 814.75122 4512.1875 3345408
-880.50226 817.14392 4525.4385 3279616
-847.41351 811.13879 4492.1812 3082240
-826.92627 817.19733 4525.7344 3279872
-802.41064 819.54767 4538.7505 2819328
-781.6875 826.06873 4574.8652 3213568
-754.52319 826.00702 4574.5234 3344896
-721.2674 819.02356 4535.8481 3936768
-707.9267 834.9892 4624.2676 4068608
-676.3736 829.89417 4596.0508 3213568
-656.31555 839.06763 4646.8545 3805184
-628.43433 838.60486 4644.2915 3541760
-609.27441 850.27075 4708.8989 3015936
-581.8877 851.0246 4713.0737 3739392
-552.4881 848.76202 4700.5435 3476736
-525.59534 850.31482 4709.1431 3608064
-498.21545 851.20959 4714.0981 3542784
-473.20215 856.4942 4743.3647 3411200
-444.26874 854.90259 4734.5503 3411200
-417.8313 858.22321 4752.9404 3674368
-388.57019 855.80493 4739.5474 4529664
-355.48331 843.92725 4673.7676 5121540
-339.84146 874.95654 4845.6118 5123077
-320.74945 902.01044 4995.4395 5122819
-298.09143 923.51746 5114.5474 5058052
-263.45688 908.5885 5031.8691 5059846
0 0 0 0
0 0 0 0
0 0 0 0
0 0 0 0
0 0 0 0
-165.56799 1778.9735 9852.1631 2172672
-105.07848 1743.9302 9658.0889 2238464
-49.079071 1788.7086 9906.0771 2304256
9.6123991 1787.5903 9899.8838 1975296
70.016388 1833.2324 10152.655 2501632
130.07631 1831.8433 10144.962 2501632
190.14972 1831.4622 10142.852 1975552
250.02454 1829.8109 10133.706 1712128
313.27185 1848.7008 10238.321 1317376
370.53 1831.8522 10145.011 1251584
433.29901 1843.1492 10207.575 1382656
490.17575 1829.6842 10133.005 1645312
548.27795 1823.2333 10097.279 1316352
613.38977 1839.0679 10184.973 723712
671.4856 1832.9147 10150.896 394240
738.78473 1850.8296 10250.11 460032
795.03094 1840.436 10192.55 460032
849.37708 1827.4221 10120.478 591360
920.35431 1849.5465 10243.005 1182466
