# .PCD v0.7 - Point Cloud Data file format
VERSION 0.7
FIELDS x y z rgb
SIZE 4 4 4 4
TYPE F F F U
COUNT 1 1 1 1
WIDTH 1350
HEIGHT 1
VIEWPOINT 0 0 0 1 0 0 0
POINTS 1350
DATA ascii
1082.8802 1041.9395 2568.0481 9592635
1100.75 1044.4568 2574.2524 9855807
1113.0334 1041.6771 2567.4016 9855807
1134.0858 1047.0686 2580.6897 10052930
1143.6868 1041.8844 2567.9124 9789759
1156.8427 1040.0323 2563.3477 10053443
1176.7891 1044.254 2573.7529 9856065
1189.593 1042.1108 2568.4705 10316616
1210.1211 1046.7028 2579.7881 9921602
1234.0016 1054.0438 2597.8813 10513996
1226.6315 1034.8394 2550.5486 9855810
1247.1594 1039.3521 2561.6709 9855810
1268.2466 1044.2164 2573.6604 9790273
1286.0205 1046.2699 2578.7214 9790017
1301.7462 1046.6283 2579.6047 9921860
1321.5022 1050.1813 2588.3616 9658688
1335.7224 1049.3038 2586.199 9921603
1347.1101 1046.2465 2578.6636 9921859
1361.7811 1045.7791 2577.5115 9790274
0 0 0 0
1395.7892 1048.3798 2583.9214 9658945
1414.0269 1050.5542 2589.281 9921860
1435.3733 1054.967 2600.157 9856323
1448.3499 1053.1997 2595.801 9658944
1463.334 1052.9141 2595.0969 9724737
1477.2306 1051.86 2592.499 10053189
1496.7998 1054.8252 2599.8074 8803379
1498.3237 1045.1426 2575.9429 9922117
1518.947 1048.8436 2585.0647 9263930
1521.9984 1040.4583 2564.3975 9921860
1546.3546 1046.6591 2579.6804 9066807
1560.8291 1046.1154 2578.3403 8737586
1574.5126 1045.0571 2575.7322 8869429
1590.4774 1045.5189 2576.8706 9658688
1592.4116 1036.8367 2555.4714 10120266
1607.0494 1036.5114 2554.6697 8278063
1630.6877 1041.943 2568.0569 9593922
1656.7888 1048.8333 2585.0393 9001785
1662.8003 1042.9961 2570.6526 9067578
1676.7584 1042.2043 2568.7009 9199163
1688.3101 1039.9443 2563.1309 8804149
1698.2433 1036.7367 2555.2251 7882535
1711.5204 1035.6091 2552.4458 7882535
1721.119 1032.2948 2544.2773 7487009
1731.0986 1029.2649 2536.8093 7487522
1745.1938 1028.7129 2535.4487 7619365
1760.5223 1028.891 2535.8879 6698006
1763.9646 1022.1784 2519.3435 7158814
1763.3115 1013.2252 2497.2769 7158557
1782.5219 1015.7399 2503.4746 6829592
1782.41 1007.2935 2482.657 7158557
1802.1304 1010.1014 2489.5774 6895642
0 0 0 0
0 0 0 0
1825.8079 998.84393 2461.8315 7093020
1829.6852 993.03119 2447.5049 7093020
1835.7151 988.46912 2436.2607 6698006
1845.9552 986.22748 2430.7358 6106126
1840.2859 975.58643 2404.5093 7355937
1855.4386 976.06262 2405.6829 6566422
1860.3442 971.18213 2393.6538 7026974
1873.3109 970.5517 2392.1001 6631959
1885.2145 969.38416 2389.2224 6631959
1899.694 969.54865 2389.6279 6697752
1907.1129 966.13385 2381.2117 6435093
1918.0944 964.56073 2377.3345 6106641
1912.4569 954.71442 2353.0662 6566936
1919.8207 951.45386 2345.03 7093537
1917.1357 943.29578 2324.9231 6896158
1908.9146 932.54968 2298.4373 7093536
1914.9667 928.87921 2289.3906 6632985
1927.7324 928.49396 2288.4412 7027487
1929.4722 922.84058 2274.5073 6501143
1937.7418 920.367 2268.4109 6435606
1953.1373 921.28882 2270.6829 6698778
1979.8644 927.50653 2286.0076 6896157
1982.4678 922.41534 2273.4592 7553831
1966.0299 908.59296 2239.3916 7422501
1969.9735 904.31195 2228.8403 6896157
1984.2798 904.81335 2230.0762 6830365
1972.0062 893.26819 2201.6208 6830109
1992.7379 896.72687 2210.1455 6632988
2008.615 897.97028 2213.21 7027746
2009.7133 892.63324 2200.0559 6698781
2029.347 895.54474 2207.2319 7422504
2033.8563 891.78729 2197.9709 7883055
2041.2491 889.33398 2191.9243 5909521
2043.264 884.58337 2180.2156 6501402
2050.1177 881.97406 2173.7847 6501658
2053.8008 878.04205 2164.0933 6501912
2071.3401 880.04584 2169.032 6633242
0 0 0 0
0 0 0 0
0 0 0 0
0 0 0 0
0 0 0 0
0 0 0 0
0 0 0 0
0 0 0 0
0 0 0 0
-2024.36 944.92548 2295.4167 1536
-2032.6469 955.21143 2320.4036 1280
-2003.4635 947.909 2302.6646 1280
-1986.6727 946.41016 2299.0234 1280
-2003.6044 961.06604 2334.6257 264452
-2028.2039 979.62933 2379.7197 857100
-1994.0702 969.88568 2356.0503 68098
-1965.7576 962.85583 2338.9734 265478
-1951.1664 962.49481 2338.0964 200198
-1922.0151 954.89496 2319.6348 265735
-1869.4536 935.47113 2272.4502 331530
-1820.1687 917.41699 2228.593 1976354
-1928.5121 979.12866 2378.5034 1186579
-1877.1498 960.06763 2332.2002 768
-1912.5402 985.42255 2393.7925 768
-1904.0253 988.3653 2400.9412 512
-1882.448 984.52094 2391.6023 512
-1874.5494 987.82648 2399.6321 768
-1848.9435 981.77979 2384.9436 768
-1910.5562 1022.3096 2483.3987 768
-1750.3726 943.86743 2292.8467 1024
-1738.76 944.94 2295.4521 1024
-1717.6553 940.83008 2285.4683 1024
-1705.0103 941.3255 2286.6719 1024
-1714.6427 954.22656 2318.0112 1024
-1690.8665 948.59344 2304.3271 1024
-1675.9791 947.89581 2302.6326 1024
-1665.2656 949.56689 2306.6919 1024
-1645.5874 946.11145 2298.2979 1024
-1638.6693 949.99585 2307.7339 1024
-1616.8993 945.263 2296.2368 1024
-1606.8706 947.37219 2301.3604 1024
-1588.7325 944.6955 2294.8582 1024
-1576.5405 945.53857 2296.9062 1024
-1587.6804 960.51184 2333.2793 1024
-1572.2883 959.55573 2330.9568 1024
-1545.4287 951.52228 2311.4419 1024
-1541.9249 957.85394 2326.8228 768
0 0 0 0
0 0 0 0
-1491.1223 951.8277 2312.1838 1024
-1490.7961 960.44415 2333.115 1024
-1480.2214 962.5575 2338.2488 1024
-1465.0964 961.724 2336.2239 1024
-1455.9264 964.82074 2343.7466 1024
-1441.3792 964.37939 2342.6743 1024
-1422.504 961.00568 2334.479 768
-1404.0482 957.85175 2326.8174 1024
-1391.3356 958.59222 2328.6162 1024
-1381.9828 961.68542 2336.1304 1024
-1369.9497 962.9574 2339.22 1024
-1366.6464 970.45422 2357.4314 512
-1349.8621 968.4342 2352.5244 768
-1347.5762 976.88226 2373.0464 768
-1332.006 975.77692 2370.3613 768
-1312.4263 971.6795 2360.4077 768
-1296.7688 970.42877 2357.3696 768
-1281.8241 969.69019 2355.5754 512
-1271.7688 972.67493 2362.8259 512
-1261.3416 975.43829 2369.5388 132096
-1262.0807 986.99652 2397.6162 394496
-1260.1665 996.71942 2421.2349 919808
-1254.9835 1004.051 2439.0447 1116160
-1239.5168 1003.2299 2437.0503 1642503
-1224.7565 1002.968 2436.4141 1708039
-1215.5908 1007.3361 2447.0249 1575427
-1220.9822 1024.0182 2487.5493 3154715
-1188.2698 1008.7606 2450.4856 1443841
-1165.332 1001.5263 2432.9119 1246720
-1154.4611 1004.6111 2440.4055 1444097
-1164.9685 1026.6136 2493.8542 1379074
0 0 0 0
0 0 0 0
0 0 0 0
0 0 0 0
-791.38031 744.61969 1808.8333 1182983
-769.06 733.55304 1781.9501 393216
-758.89893 733.93768 1782.8845 327680
-749.21765 734.80365 1784.9882 262144
0 0 0 0
0 0 0 0
0 0 0 0
0 0 0 0
-971.63422 1025.3135 2490.6958 2429450
-949.27545 1017.1696 2470.9124 983040
-932.8681 1015.2473 2466.2429 2363401
-930.02698 1028.2632 2497.8611 2560523
-914.24121 1027.1566 2495.1731 2560523
-898.19318 1025.7141 2491.6689 2428681
-888.09912 1031.1362 2504.8406 2626573
-872.39075 1030.1135 2502.3562 2560780
-854.60242 1026.557 2493.7166 2297608
-836.90491 1022.9861 2485.0422 2494985
-823.13171 1024.1703 2487.9187 2756874
-808.46722 1024.2684 2488.1572 2888716
-797.10651 1028.6335 2498.7607 2691594
-780.43158 1026.1763 2492.7917 2888973
-763.31183 1023.0281 2485.144 2757387
-750.16431 1025.1846 2490.3826 2757387
-732.1275 1020.6117 2479.2742 2757130
-722.97253 1028.4868 2498.4043 2823180
-704.50507 1023.1663 2485.4797 2691337
-689.94867 1023.42 2486.0962 2888460
-672.76025 1019.6955 2477.0486 2888459
-659.27515 1021.5431 2481.5369 3020300
-643.50043 1019.8463 2477.415 3086093
-628.34253 1019.0709 2475.531 2822920
-614.02277 1019.6498 2476.9377 2691335
-600.97388 1022.4195 2483.6658 3349264
-582.60046 1016.0424 2468.1743 3283471
-568.13354 1016.3251 2468.8611 3217678
-552.64111 1014.7396 2465.0095 3086093
-538.28406 1015.2095 2466.1511 2888714
-523.40033 1014.6844 2464.8757 2625542
-507.81784 1012.7358 2460.1421 2888457
-494.61938 1015.567 2467.0195 3086093
-479.6214 1014.7632 2465.0669 3414286
-464.63406 1013.9321 2463.0481 3151114
-449.84094 1013.4847 2461.9614 3216907
-435.09784 1013.1238 2461.0847 3479822
-422.33322 1017.5046 2471.7263 3282700
-406.37149 1014.2207 2463.7493 3809044
-391.15302 1012.6163 2459.8518 3151114
-378.14542 1016.8326 2470.094 3216650
-365.44635 1022.2516 2483.2578 3348495
-345.35211 1006.5711 2445.1667 3151116
-332.31345 1010.9822 2455.8821 3150859
-318.50909 1013.3611 2461.6611 3282702
-302.819 1009.6808 2452.7209 3282189
-289.23624 1013.0102 2460.8086 3084553
-271.75406 1002.3109 2434.8176 3019017
-257.20334 1001.8301 2433.6497 3347982
-242.66528 1001.3442 2432.4697 3282443
-228.73825 1003.4778 2437.6526 3479821
-214.16228 1002.8602 2436.1521 3414029
-200.57735 1007.1293 2446.5227 3611408
-186.03241 1006.8679 2445.8877 3414028
-171.9845 1009.4797 2452.2322 3545101
-157.7766 1011.5476 2457.2556 3676428
-143.55708 1013.9542 2463.1016 4202514
-128.73761 1012.1882 2458.8118 4662805
-114.9771 1019.36 2476.2334 5385752
-99.895943 1015.2087 2466.1492 6109214
-84.436546 1005.1324 2441.6719 7292459
-70.234863 1008.9565 2450.9614 8212529
-55.358517 1002.5561 2435.4133 8475440
-41.204197 1009.3287 2451.8655 9330491
-26.560436 1004.9596 2441.252 9461818
-12.287408 1020.9432 2480.0796 9329974
2.3897324 1013.1729 2461.2039 9198388
17.027985 1016.434 2469.1255 9790523
31.578695 1013.8703 2462.8979 9659194
46.420307 1019.3149 2476.124 10382407
60.864532 1015.514 2466.8909 9921856
75.61235 1017.2698 2471.156 9790270
90.295662 1017.7286 2472.2708 9724476
105.66483 1024.7108 2489.2317 9724730
118.96594 1012.3835 2459.2864 10185281
134.06842 1016.4032 2469.0508 9790523
148.87328 1017.5977 2471.9524 9856317
164.39119 1023.0154 2485.1133 10119232
178.03864 1016.8594 2470.1589 9856317
192.49106 1015.8868 2467.7966 10053440
207.3604 1017.0967 2470.7356 10448454
222.81523 1020.8295 2479.8032 10119235
237.50507 1020.8123 2479.7615 10184771
250.51582 1014.0007 2463.2148 9921855
266.68387 1020.0153 2477.8254 10447943
279.80704 1014.3638 2464.0969 10382407
296.77914 1022.5341 2483.9441 10250820
312.07257 1024.4219 2488.5298 10382150
327.63495 1026.9823 2494.7495 10382406
343.63974 1030.6484 2503.6555 10448199
360.56107 1036.6464 2518.2258 10776908
369.93491 1021.3302 2481.0195 10184770
388.13681 1030.6261 2503.6013 10316357
402.82388 1030.2482 2502.6831 10185027
417.19724 1029.1233 2499.9504 9987392
432.79446 1030.991 2504.4875 10184771
443.25327 1020.9 2479.9744 10644809
460.19653 1025.9122 2492.1504 10644808
474.81235 1025.5857 2491.3572 10250307
492.10452 1030.8855 2504.2312 10776648
509.34415 1035.7681 2516.092 9723704
521.71716 1030.7581 2503.9216 9395765
536.76617 1031.1658 2504.9121 10316357
552.64038 1033.0942 2509.5967 10250820
569.75073 1037.1719 2519.5024 10316358
581.83911 1032.1327 2507.2612 10448202
597.87317 1034.1696 2512.209 10053187
609.97119 1029.4645 2500.7793 10447945
622.12946 1025.0819 2490.1331 10119236
638.19702 1027.1943 2495.2649 10053446
653.80829 1028.4935 2498.4207 10382668
670.47748 1031.3624 2505.3899 10251338
682.5119 1027.1321 2495.1135 9856324
697.69342 1027.7168 2496.5337 10251339
712.19202 1027.2921 2495.5024 10120008
727.98712 1028.7169 2498.9634 9856837
743.86603 1030.2009 2502.5684 9725250
747.98065 1015.6527 2467.2278 10185032
773.74127 1030.491 2503.2729 10053703
790.14307 1032.5411 2508.2532 9790016
815.10114 1045.4905 2539.7097 10053444
820.29779 1033.0826 2509.5686 9921858
840.64618 1039.859 2526.0298 9724222
841.6037 1022.8318 2484.6672 9790272
871.12311 1040.5057 2527.6008 10185029
883.32495 1037.2469 2519.6846 10382409
892.56793 1030.6798 2503.7317 9921858
904.11945 1026.9495 2494.6699 10250823
0 0 0 0
0 0 0 0
0 0 0 0
0 0 0 0
0 0 0 0
0 0 0 0
0 0 0 0
1039.6932 1044.3455 2536.9282 10250053
1058.9614 1048.5397 2547.1167 10118722
1062.3823 1037.145 2519.437 9987134
1086.4835 1045.9757 2540.8884 10513221
1092.4045 1037.3016 2519.8174 10052670
1103.5419 1033.7479 2511.1848 9789499
1125.8042 1040.5715 2527.7607 9723452
1140.8306 1040.6158 2527.8682 10184003
1155.8921 1040.6903 2528.0493 9658685
1171.8315 1041.5433 2530.1213 9921858
1192.8951 1046.8717 2543.0652 10382409
1206.7976 1045.8611 2540.6101 10316359
1220.1907 1044.4392 2537.156 10579789
1233.2291 1042.7522 2533.0579 10118982
1253.8708 1047.4574 2544.4878 9921860
1269.1797 1047.6486 2544.9524 10185031
1274.719 1039.8658 2526.0464 9921860
1295.691 1044.7069 2537.8064 10185031
1310.114 1044.2172 2536.6167 9856067
1327.942 1046.4215 2541.9717 9921860
1341.5194 1045.2648 2539.1614 10250568
0 0 0 0
1383.88 1054.6149 2561.875 9724480
1404.7343 1058.8921 2572.2649 9987910
1418.4653 1057.7655 2569.5286 10119496
1441.1548 1063.2723 2582.9058 9658688
1448.4552 1057.4291 2568.7109 8803379
1448.9552 1046.7941 2542.8765 9461309
1470.6509 1051.5332 2554.3889 9724481
1480.5338 1047.8157 2545.3582 9198137
1490.9254 1044.5294 2537.3752 9724737
1502.5164 1042.1405 2531.5723 9593152
1525.6244 1047.7084 2545.0977 9593151
1534.8938 1043.7566 2535.4978 10185288
1547.5887 1042.1882 2531.688 9264956
1554.9072 1037.0641 2519.2402 8804406
1573.0836 1039.2103 2524.4541 9264956
1597.7434 1045.5588 2539.876 9199164
1599.5312 1036.9613 2518.9907 9133371
1628.3019 1045.8536 2540.592 8804406
1644.2769 1046.4398 2542.0159 9329723
1657.4043 1045.2195 2539.0515 8474671
1664.1781 1040.0504 2526.4946 8211243
1683.5045 1042.7484 2533.0486 7619105
1686.337 1035.2728 2514.8892 7619106
1701.2389 1035.2728 2514.8892 8079145
1714.8669 1034.5045 2513.0227 7488035
1726.7618 1032.7129 2508.6704 7421729
1738.2247 1030.6956 2503.77 7356193
1746.6473 1026.925 2494.6106 7027227
1753.6206 1022.3727 2483.552 7290143
1768.6827 1022.5728 2484.0381 6895385
1778.1779 1019.5776 2476.762 8868662
1762.4403 1002.2818 2434.7471 6763286
0 0 0 0
0 0 0 0
1790.8745 994.0412 2414.729 6829592
1792.076 986.82397 2397.1968 6895131
1811.2427 989.53485 2403.7822 6500628
1825.4861 989.53485 2403.7822 6632215
1839.8184 989.5827 2403.8984 6829594
1826.4243 974.8313 2368.0642 6566423
1848.0101 978.83234 2377.7837 7092510
1851.0994 973.05011 2363.7373 6631959
1866.3258 973.68683 2365.2839 6632216
1885.8456 976.53711 2372.208 6960924
1889.6317 971.2583 2359.3848 6829338
1895.3689 967.05255 2349.1682 6172434
1889.8602 957.21204 2325.2634 6172178
1893.1399 951.93317 2312.4399 6040335
1895.0868 946.06464 2298.1841 6633243
1907.7047 945.56909 2296.9805 6566936
1911.743 940.85822 2285.5366 6040848
1914.041 935.36304 2272.1877 6369814
1916.5428 930.04364 2259.2659 5974799
1929.0525 929.62073 2258.2385 6238484
1942.4333 929.62073 2258.2385 6501658
1945.3777 924.66003 2246.188 6567194
1954.9456 922.89368 2241.8972 5514508
1959.2909 918.70233 2231.7156 5711630
1955.1298 910.60522 2212.0461 5843470
1953.8243 903.93726 2195.8481 6632729
1966.8356 903.93726 2195.8481 6698778
1962.1511 895.85785 2176.2217 6764317
1991.7841 903.45007 2194.6646 6567195
1995.0516 899.06219 2184.0056 6435866
2019.4426 904.18878 2196.4592 6633245
2001.8512 890.57288 2163.3833 6370072
2013.4607 890.03821 2162.0845 7027746
2018.7147 886.71869 2154.0208 6896416
2032.3833 887.11383 2154.9805 6830877
2038.8049 884.36053 2148.2922 6896414
2027.0327 873.7984 2122.6348 6633242
0 0 0 0
0 0 0 0
0 0 0 0
0 0 0 0
0 0 0 0
0 0 0 0
0 0 0 0
0 0 0 0
0 0 0 0
-2028.5865 960.52808 2300.2095 1536
-2023.5194 964.60974 2309.9841 1280
-2007.6136 963.5451 2307.4346 1280
-1993.5077 963.33557 2306.9329 1280
-1987.4351 967.0321 2315.7849 1280
-1952.6859 956.72968 2291.1135 768
-1922.7128 948.63947 2271.7395 1024
-1936.6896 962.27228 2304.3865 132865
-1904.7393 953.11713 2282.4624 528135
-1885.2765 950.12445 2275.2957 2305
-1873.5728 951.02716 2277.4573 67329
-1812.9973 926.95563 2219.8125 923920
-1809.4464 931.90094 2231.6553 1251856
-1899.9509 985.71631 2360.5286 768
-1909.1268 997.82263 2389.52 768
-1893.4601 997.02863 2387.6187 768
-1891.0813 1003.2724 2402.5708 768
-1857.5043 992.93359 2377.8123 1024
-1875.536 1010.2354 2419.2454 1024
-1753.8318 951.95679 2279.6836 67584
-1733.7988 948.38763 2271.1365 1024
-1772.6045 977.19916 2340.1323 1024
-1765.5171 980.96558 2349.1521 1024
-1679.8903 940.80676 2252.9822 1024
-1689 953.48572 2283.345 1024
-1676.687 954.17816 2285.0032 1024
-1853.6465 1063.4709 2546.7305 1024
-1649.2935 953.9964 2284.5679 1280
-1819.5099 1061.1638 2541.2056 1280
-1801.3445 1059.3363 2536.8289 1280
-1610.7795 955.23981 2287.5457 1024
-1594.8574 953.82404 2284.155 1024
-1574.4094 949.65381 2274.1687 1024
-1563.8575 951.43256 2278.4282 1024
-1566.7378 961.48529 2302.5017 1024
-1542.2936 954.79865 2286.489 1024
-1522.8273 951.10248 2277.6377 768
-1516.1145 955.37683 2287.8738 1024
0 0 0 0
0 0 0 0
-1468.5947 950.94141 2277.252 1024
-1460.5242 954.48547 2285.739 1024
-1296.264 855.06702 2047.6583 1024
-1440.0288 958.87512 2296.2512 1024
-1437.1979 966.11847 2313.5972 1024
-1420.4773 964.07471 2308.7026 512
-1400.4312 959.71191 2298.2551 132352
-1387.215 959.99005 2298.9211 67072
-1379.5226 964.13422 2308.8452 512
-1369.0668 966.41071 2314.2969 1024
-1360.5953 970.14825 2323.2473 768
-1354.3103 975.53711 2336.1521 263680
-1345.6846 979.33368 2345.2441 768
-1373.3894 1009.9254 2418.5029 768
-1322.8977 983.05377 2354.1526 768
-1307.3226 981.83282 2351.2288 512
-1291.9786 980.76093 2348.6619 512
-1281.7433 983.58594 2355.427 394752
-1271.7025 986.62408 2362.7026 262400
-1261.8289 989.86108 2370.4543 459520
-1262.0807 1001.2034 2397.6162 1248002
-1254.9044 1006.8442 2411.1245 1839625
-1245.4525 1010.7681 2420.5212 1839625
-1232.3407 1011.7786 2422.9409 1641219
-1220.3042 1013.7062 2427.5571 1575683
-1214.0725 1020.5592 2443.9683 1444099
-1196.212 1017.6846 2437.0842 1246464
-1187.8889 1022.9527 2449.7 1641219
-1172.2026 1021.9321 2447.2559 1773062
-1132.9333 1000.0684 2394.8982 1904391
0 0 0 0
0 0 0 0
0 0 0 0
0 0 0 0
-792.22961 746.04431 1786.5779 262144
-779.50629 744.00446 1781.693 525829
-771.01599 746.00433 1786.4822 196608
-759.93982 745.52307 1785.3297 65537
-749.80865 745.96844 1786.3962 0
-739.84967 746.60028 1787.9093 1052173
-726.16937 743.44067 1780.3429 131072
0 0 0 0
0 0 0 0
0 0 0 0
-937.58057 1019.0989 2440.4712 1443072
-921.85156 1017.6989 2437.1184 2626575
-915.89905 1027.219 2459.9165 2494987
-901.44763 1027.3608 2460.2563 2363401
-884.11511 1024.17 2452.615 2297608
-864.68219 1018.3987 2438.7944 2626573
-851.45483 1019.8642 2442.3037 2626572
-843.09259 1027.3085 2460.1309 2626828
-822.05103 1019.2932 2440.9363 2560778
-815.74866 1029.5938 2465.6033 2757131
-797.1416 1024.4564 2453.301 2691594
-777.93091 1018.3381 2438.6492 2757387
-768.93622 1025.6145 2456.0742 2757387
-748.09467 1017.0652 2435.6011 2625801
-734.83899 1018.6959 2439.5059 2691594
-719.62659 1017.6249 2436.9412 3020302
-704.95734 1017.2939 2436.1484 2822667
-691.07104 1018.1024 2438.0847 3086095
-677.10956 1018.8325 2439.833 3086096
-659.39709 1013.827 2427.8464 3217935
-646.5329 1016.2191 2433.5747 3217422
-633.17969 1017.934 2437.6814 2954507
-618.06732 1016.8347 2435.0488 3020299
-603.70221 1016.9418 2435.3054 3020299
-587.9342 1014.633 2429.7764 2954250
-574.12653 1015.6763 2432.2749 3086093
-562.11353 1020.0298 2442.7004 2625542
-543.55872 1012.429 2424.4983 2625798
-529.07562 1012.2053 2423.9626 2822664
-514.24335 1011.2822 2421.7522 2822920
-499.82129 1011.1361 2421.4023 2954507
-485.91498 1012.0556 2423.6042 3085579
-469.62228 1007.9094 2413.6753 3216907
-455.70892 1008.7698 2415.7356 3150857
-441.86636 1009.8477 2418.3169 3151114
-428.30811 1011.6694 2422.6794 3216650
-414.97882 1014.177 2428.6846 3085321
-398.43839 1008.735 2415.6523 3348492
-385.56561 1012.519 2424.7141 3479822
-370.52521 1010.6832 2420.3179 3151113
-355.68173 1009.2585 2416.906 3216908
-340.85739 1007.7708 2413.3433 3348495
-327.45712 1010.5474 2419.9927 3480081
-313.56519 1011.9916 2423.4512 3414287
-297.9642 1007.7941 2413.3989 3216139
-282.50952 1003.6929 2403.5779 3084810
-266.72583 997.92548 2389.7664 3150604
-255.22165 1008.4204 2414.8989 3414030
-239.12318 1000.931 2396.9639 3084807
-225.51227 1003.5657 2403.2732 3348236
-210.95203 1002.0463 2399.6345 3281930
-197.82585 1007.6114 2412.9617 3216137
-183.80917 1009.1548 2416.6575 3216137
-169.9592 1011.9513 2423.3545 3084550
-155.66139 1012.3515 2424.313 3084549
-141.54208 1014.112 2428.5288 3676170
-127.06222 1013.3954 2426.8127 4399631
-113.80268 1023.4707 2450.9404 5978146
-98.311592 1013.4886 2427.0361 6569764
-83.496078 1008.2438 2414.4761 7029284
-68.934891 1004.5359 2405.5967 8541750
-54.948849 1009.4609 2417.3906 8738869
-40.610649 1009.1082 2416.5461 9067575
-26.258287 1007.8281 2413.4805 9922369
-11.97185 1009.0421 2416.3877 10185540
2.3460038 1008.95 2416.1672 9922368
16.582766 1004.1061 2404.5671 9461818
31.186182 1015.6804 2432.2847 9856575
45.776505 1019.6466 2441.7827 10053185
60.217384 1019.1784 2440.6616 9461817
75.113083 1025.0986 2454.8389 10777678
88.911751 1016.5552 2434.3796 10580042
103.21803 1015.3905 2431.5906 9790270
117.47897 1014.1197 2428.5474 9856318
131.47989 1011.1266 2421.3796 10974542
147.11336 1020.0421 2442.73 10448198
160.65688 1014.1674 2428.6614 9856316
176.01152 1019.7516 2442.0342 9790524
189.69971 1015.566 2432.0107 10382661
202.7993 1009.0427 2416.3894 9922109
216.79619 1007.5501 2412.8147 9921856
231.67395 1010.0826 2418.8794 10316614
248.25206 1019.3015 2440.9563 10053185
261.2355 1013.5585 2427.2034 9987648
274.61905 1009.8862 2418.4092 10513992
289.16772 1010.6503 2420.239 9592634
308.04562 1025.7581 2456.418 9855806
323.00974 1027.0581 2459.5312 10118978
339.57822 1033.127 2474.0645 9921856
353.9039 1032.1525 2471.731 10711371
368.8457 1032.9808 2473.7146 10316614
380.89172 1025.946 2456.8682 10053442
393.48422 1020.847 2444.6572 10184260
411.09711 1028.6722 2463.3967 10249797
424.02164 1024.6318 2453.7209 10052674
439.1084 1025.911 2456.7842 10250053
451.5376 1021.0981 2445.2588 10250306
464.30872 1017.3339 2436.2444 10184257
486.23703 1033.2556 2474.3726 10907980
502.88248 1037.3478 2484.1724 10381893
514.00616 1030.1409 2466.9138 10119234
528.72083 1030.3302 2467.3672 10053441
543.54889 1030.7246 2468.3115 10250822
561.98254 1037.7562 2485.1504 10316615
574.69073 1034.1262 2476.4575 10580044
590.74622 1036.5502 2482.2622 10514251
601.47253 1029.7329 2465.9365 10185286
615.26154 1028.3577 2462.6436 10053957
629.56537 1027.887 2461.5164 10448460
636.21631 1015.2257 2431.1958 10382668
654.4472 1021.1943 2445.4893 9922116
668.71765 1020.8585 2444.6848 10185289
682.84167 1020.3179 2443.3904 10185288
696.84833 1019.6281 2441.7385 10053701
714.56903 1024.2903 2452.9031 9856578
733.1861 1030.0258 2466.6382 9724991
750.383 1033.5809 2475.1519 10185030
762.8327 1030.5864 2467.9807 10118978
774.83807 1027.1155 2459.6687 10382407
791.76135 1030.1715 2466.9871 9855805
805.14172 1028.5906 2463.2012 9987648
825.98669 1036.4323 2481.98 9724476
834.7265 1029.0762 2464.364 10053187
849.32892 1029.0762 2464.364 10053187
859.68774 1024.0214 2452.2593 9921858
871.2157 1020.5043 2443.8367 9921858
887.65393 1022.7598 2449.238 9855808
903.92474 1024.7528 2454.0107 9987650
0 0 0 0
0 0 0 0
0 0 0 0
0 0 0 0
0 0 0 0
1003.1423 1037.1301 2483.6509 9921601
1017.6533 1036.9205 2483.1492 9328950
1031.3273 1035.8763 2480.6484 9657915
1053.2026 1042.9832 2497.6675 9921086
1061.0286 1036.1727 2481.3584 10513225
1072.7955 1033.3447 2474.5859 10512967
1091.7704 1037.4421 2484.3982 9921085
1103.3198 1034.4683 2477.2766 9986624
1121.2441 1037.4712 2484.468 10118467
1142.8054 1043.7181 2499.4275 10579274
1156.9943 1043.158 2498.0862 9987137
1166.5002 1038.4431 2486.7954 10250824
1186.8287 1043.3602 2498.5706 9921603
1194.0576 1036.782 2482.8174 10777168
1210.6997 1038.4377 2486.7825 10513997
1227.066 1039.8199 2490.0925 10052933
1239.004 1037.4613 2484.4441 9987396
1260.7323 1043.2596 2498.3296 10053189
1265.6178 1035.1477 2478.9036 10118982
1291.1255 1043.895 2499.8513 10250825
1307.6541 1045.2667 2503.1362 9921603
1315.2656 1039.5598 2489.4695 9592895
0 0 0 0
1361.4 1052.4171 2520.2595 9790530
1385.1527 1059.1608 2536.4084 9987910
1390.2153 1051.6215 2518.354 10250825
1393.1013 1042.6135 2496.7822 9856067
1421.7473 1052.8712 2521.3467 9987653
1434.3898 1051.1875 2517.3147 9790531
1439.8616 1044.3374 2500.9106 9658945
1459.7693 1047.9907 2509.6594 9527358
1463.3734 1039.9838 2490.4849 10382668
1479.2468 1040.7692 2492.3657 8671793
1494.2491 1040.9324 2492.7563 10316618
1506.8743 1039.4524 2489.2122 9724481
1530.4756 1045.4991 2503.6926 9791043
1536.3357 1039.4268 2489.1511 8672563
1557.217 1043.5361 2498.9917 9528129
1576.5444 1046.5365 2506.1768 9659458
1587.6149 1044.0509 2500.2244 9725251
1589.4719 1035.6084 2480.0068 9264957
1618.4062 1044.8009 2502.0205 8541234
1633.1659 1044.7588 2501.9197 8474415
1647.1013 1044.1949 2500.5693 8277293
1666.7645 1047.2399 2507.8613 7487007
1667.0662 1038.1735 2486.1497 7684643
1680.2797 1037.2365 2483.9058 7487007
1696.6956 1038.2754 2486.3938 7487776
1705.9653 1034.9611 2478.4568 7619106
1718.3103 1033.5531 2475.085 7882278
1725.6571 1029.1879 2464.6316 7224348
1725.6346 1020.5379 2443.9172 7355936
1740.9431 1021.0231 2445.0791 7224607
1748.5994 1017.0494 2435.5632 7684901
1756.1844 1013.0999 2426.105 7027227
1758.1011 1005.9709 2409.033 7224607
0 0 0 0
0 0 0 0
1768.366 987.78406 2365.4805 7290143
1774.7461 983.55212 2355.3459 7290143
1784.6102 981.30194 2349.9575 7158560
1800.8455 982.56274 2352.9768 6632216
1817.0559 983.79071 2355.9175 6566423
1833.126 984.9245 2358.6326 6368787
1838.3053 980.23407 2347.4001 6895131
1852.8541 980.57251 2348.2107 7290146
1857.9984 975.96588 2337.179 5974285
1871.4432 975.75531 2336.6748 6829338
1886.7266 976.49933 2338.4565 8343604
1890.2422 971.1864 2325.7334 6830365
1883.2457 960.5885 2300.3542 6567449
1882.6094 953.36371 2283.0527 5975056
1891.3336 950.94843 2277.2688 6303764
1906.6554 951.86096 2279.4541 6632987
1915.2745 949.43823 2273.6523 7093794
1918.6667 944.47614 2261.7695 6961696
1901.1262 929.35028 2225.5469 5974802
1926.0592 935.05243 2239.2021 6105617
1936.7118 933.79132 2236.1821 6171410
1948.0024 932.85303 2233.9351 5909008
1940.8701 923.16431 2210.7334 6830366
1944.4058 918.64594 2199.9128 5909265
1950.0286 915.16705 2191.582 6040592
1937.8485 903.43457 2163.4858 7159330
1942.666 899.72852 2154.6108 6764573
1963.5237 903.45123 2163.5256 6567451
1967.1104 899.23041 2153.418 6896416
1976.7997 897.83582 2150.0784 6501659
1974.3214 890.9682 2133.6321 6501659
1989.9524 892.30817 2136.8411 5909265
2001.3887 891.76221 2135.5334 6830623
2010.9789 890.40564 2132.2849 7028257
2009.8805 884.36304 2117.8145 6501912
2008.809 878.4071 2103.5515 7356965
0 0 0 0
0 0 0 0
0 0 0 0
0 0 0 0
0 0 0 0
0 0 0 0
0 0 0 0
0 0 0 0
0 0 0 0
0 0 0 0
-2063.3267 997.54266 2355.4268 1280
-1985.2125 966.31372 2281.688 1280
-1976.7349 968.78491 2287.5232 1280
-1965.3539 969.85748 2290.0557 1280
-1921.5294 954.82355 2254.5571 1024
-1937.208 969.35364 2288.866 1024
-1915.0065 965.00024 2278.5867 1792
-1903.8152 966.17273 2281.3552 1280
-1895.0869 968.62085 2287.1357 134147
-1833.1318 943.70288 2228.2986 768
-1809.1395 938.10858 2215.0891 67842
-1806.7125 943.69659 2228.2837 791817
-1899.9141 999.68402 2360.4829 768
-1885.757 999.59375 2360.2698 1024
-1872.2532 999.85095 2360.8772 1024
-1876.4045 1009.6117 2383.9243 67328
-1803.717 977.8631 2308.9587 1792
-1874.8638 1024.2031 2418.3782 1024
-1711.2151 942.00476 2224.2891 1024
-1856.1429 1029.7169 2431.3975 1024
-1687.4958 943.48102 2227.7749 1024
-1674.3363 943.50409 2227.8293 1024
-1658.8494 942.20563 2224.7632 1024
-1655.5863 947.88489 2238.1733 1024
-1658.2166 957.05737 2259.8315 1024
-1644.8262 957.05737 2259.8315 1024
-1626.9481 954.42468 2253.6152 1024
-1603.0146 948.16681 2238.8391 1024
-1597.2217 952.62396 2249.3633 1024
-1583.7367 952.52966 2249.1409 1024
-1575.3707 955.53894 2256.2463 1024
-1560.0714 954.35815 2253.4583 1024
-1541.4288 951.09418 2245.7512 1024
-1540.8469 959.01422 2264.4521 1024
-1513.0089 949.96027 2243.0737 1024
-1504.1503 952.76782 2249.7031 1024
-1491.4086 953.1441 2250.5916 1024
0 0 0 0
0 0 0 0
-1454.4446 955.1424 2255.3101 1024
-1447.2252 959.21484 2264.926 1024
-1441.9298 964.65057 2277.761 768
-1424.9872 962.32343 2272.2661 768
-1411.8719 962.56128 2272.8276 768
-1399.0513 963.00653 2273.8789 1024
-1389.6995 965.87128 2280.6433 264448
-1374.5121 964.69659 2277.8696 66560
-1358.7836 963.11505 2274.1353 1053700
-1357.5923 971.90918 2294.9001 768
-1349.5422 975.92133 2304.3738 66560
-1340.9379 979.61066 2313.085 198400
-1334.2168 984.76599 2325.2581 527360
-1323.004 986.67926 2329.7756 395776
-1314.2793 990.50781 2338.8159 512
-1300.1936 990.33466 2338.407 65792
-1278.9111 984.61725 2324.9067 66048
-1276.2177 993.24237 2345.2727 393984
-1273.9652 1002.4045 2366.9067 787712
-1262.915 1004.7712 2372.4949 918528
-1260.9534 1014.5033 2395.4746 1379074
-1245.1097 1013.1611 2392.3054 1904648
-1252.6879 1031.066 2434.583 2036234
-1220.6692 1016.417 2399.9934 1838855
-1206.7957 1016.7098 2400.6846 1575684
-1189.4281 1014.0305 2394.3584 1970184
-1182.8909 1020.6315 2409.9446 2167564
-1156.4608 1010.0199 2384.8882 2298637
-1130.191 999.28741 2359.5464 2232844
-1132.6301 1013.9878 2394.2573 2101255
0 0 0 0
0 0 0 0
0 0 0 0
-814.07898 767.24573 1811.6428 196608
-799.49963 763.57379 1802.9727 196608
-780.4303 755.45618 1783.8051 65537
-770.06677 755.65851 1784.2828 1
-758.85315 755.02075 1782.7769 260
-750.20026 756.94867 1787.3292 4476497
-737.9436 755.24365 1783.3032 6188398
-731.95123 759.99329 1794.5183 5661796
-727.29187 766.28741 1809.3801 262144
0 0 0 0
0 0 0 0
-922.9325 1017.4121 2402.343 2692366
-909.69727 1018.5314 2404.9858 2626830
-894.32654 1017.2571 2401.9771 2823949
-883.22333 1020.8743 2410.5181 2758158
-870.72278 1022.9688 2415.4636 2692366
-849.06671 1014.1971 2394.7517 2494730
-840.07721 1020.5145 2409.6685 2757132
-829.83325 1025.5 2421.4404 2625802
-807.54156 1015.5106 2397.853 2757131
-793.11963 1015.237 2397.207 2428422
-782.52893 1019.9471 2408.3286 2691594
-762.54541 1012.3622 2390.4192 2954509
-750.87018 1015.7291 2398.3691 2888972
-736.2196 1015.1234 2396.939 2757387
-722.40027 1015.6626 2398.2122 2757387
-707.68054 1014.9321 2396.4873 2954253
-692.40369 1013.3563 2392.7664 3020046
-678.51794 1013.7931 2393.7976 2954253
-665.13055 1015.0091 2396.6689 3020046
-651.06818 1015.2256 2397.1802 2954253
-635.46753 1012.9996 2391.9241 3020300
-622.43488 1014.8591 2396.3147 3020300
-607.2699 1013.2476 2392.5095 3086093
-593.98505 1014.7709 2396.1067 2888714
-582.04065 1018.7151 2405.4197 2888200
-561.48816 1007.4128 2378.7324 3414544
-549.89807 1012.0228 2389.6177 3282958
-534.57336 1009.8216 2384.4199 3085322
-519.88965 1008.7445 2381.877 3151115
-505.56064 1008.3148 2380.8623 3019530
-490.08862 1005.5154 2374.2522 3150860
-475.06235 1003.492 2369.4746 2953737
-463.41348 1008.697 2381.7646 2690565
-449.30057 1008.697 2381.7646 3414285
-436.70441 1012.2126 2390.0657 3151114
-419.68365 1005.3646 2373.896 2887685
-405.11411 1004.1172 2370.9507 3019528
-391.31958 1004.7701 2372.4924 3151114
-377.19962 1004.605 2372.1025 2822148
-362.95251 1004.0754 2370.8521 3348236
-348.73895 1003.5997 2369.7288 3216909
-334.93967 1004.3262 2371.4443 3348495
-321.98669 1007.7653 2379.5647 3085322
-307.5271 1006.5879 2376.7844 3282188
-291.61963 1000.3308 2362.0103 3414029
-278.84607 1004.735 2372.4094 3019014
-263.6673 1000.4803 2362.363 3611151
-250.76257 1004.8611 2372.7073 3019014
-236.45084 1003.7892 2370.1763 3216650
-222.26131 1003.1335 2368.6279 3347979
-209.02647 1006.9886 2377.731 3742994
-194.46237 1004.5345 2371.936 3019271
-180.71823 1006.2635 2376.0188 3479308
-167.53081 1011.6467 2388.7295 3347465
-154.06291 1016.1732 2399.4177 3544586
-139.53134 1013.8912 2394.0293 3675913
-125.55068 1015.5488 2397.9434 5649185
-110.43892 1007.3126 2378.4958 5648668
-96.884727 1012.9517 2391.811 6305822
-82.659439 1012.3045 2390.2827 8146996
-67.65802 999.91913 2361.0381 8607286
-53.360058 994.18311 2347.4941 9199161
-39.975304 1007.416 2378.74 9067319
-26.002577 1012.1752 2389.9773 9724990
-11.776545 1006.6653 2376.9675 10251332
2.3229308 1013.2029 2392.4043 10580297
16.480267 1012.0594 2389.7041 9659196
30.70035 1014.0455 2394.3936 9527097
44.977242 1016.0593 2399.1489 9921856
59.138214 1015.1162 2396.9219 9592890
73.580505 1018.432 2404.7512 10052413
87.029083 1009.1493 2382.8328 9065774
101.71382 1014.7913 2396.1548 9328946
116.54633 1020.3447 2409.2676 10315584
130.22571 1015.6923 2398.2822 10645576
143.80475 1011.2499 2387.7925 9921853
158.83589 1016.8999 2401.1335 9790267
172.74001 1014.9986 2396.6443 9987646
187.4837 1017.9448 2403.6008 10250818
200.74251 1012.9819 2391.8823 10382661
216.01086 1018.1454 2404.0745 9987392
229.81874 1016.212 2399.5093 9921599
244.17291 1016.7788 2400.8477 9724477
258.51956 1017.2537 2401.969 9724476
272.14026 1014.9715 2396.5801 9921856
288.70782 1023.3611 2416.3899 9921599
301.37579 1017.7883 2403.2314 9987649
318.49857 1027.0842 2425.1812 10053440
330.84076 1020.8269 2410.406 9921854
345.70309 1022.5416 2414.4548 9987646
358.78622 1019.0664 2406.2493 10250818
376.08646 1027.3772 2425.8728 10184771
390.10312 1026.4363 2423.6511 10447429
403.21307 1023.2611 2416.1538 10184514
418.56287 1025.793 2422.1323 10184514
431.73767 1023.0034 2415.5452 9592120
446.48401 1023.9971 2417.8916 10513994
460.37793 1023.0347 2415.6191 11106132
472.849 1019.064 2406.2434 10185287
491.63251 1028.5317 2428.5991 10645064
508.28488 1033.1294 2439.4551 9395511
521.0141 1029.7191 2431.4026 10184514
534.35419 1027.6671 2426.5574 10184514
549.02734 1028.2192 2427.8611 9724219
566.7829 1034.3685 2442.3811 9592634
579.0224 1030.3956 2433 10250821
590.35968 1025.0491 2420.3757 9856063
606.53046 1028.1495 2427.6965 10053186
615.35883 1018.9484 2405.9707 10185289
629.89838 1019.4068 2407.053 9987652
645.68341 1021.8159 2412.7412 10185288
658.92499 1020.1826 2408.8848 9856323
675.5777 1023.788 2417.3979 9658688
690.02759 1023.9747 2417.8389 9856323
709.2655 1031.1145 2434.6975 9987909
719.93127 1025.7562 2422.0454 10185544
732.40863 1023.1381 2415.8633 9856066
726.12866 994.91943 2349.2327 10053444
762.2597 1024.7797 2419.7395 10119493
779.08948 1028.0679 2427.5039 10382923
787.26349 1020.022 2408.5056 10908754
801.45447 1019.9197 2408.2639 10513996
815.51636 1019.6595 2407.6497 10185033
831.68823 1022.0012 2413.179 10447947
849.62299 1026.3932 2423.5496 10316617
865.72827 1028.4661 2428.4441 10316617
876.54736 1024.2938 2418.5923 10316615
891.87311 1025.4375 2421.2927 10118980
0 0 0 0
0 0 0 0
0 0 0 0
0 0 0 0
0 0 0 0
981.75061 1029.4164 2430.688 10447945
999.39899 1032.7703 2438.6072 9987651
1011.8091 1030.6927 2433.7017 9921344
1024.2834 1028.7379 2429.0857 9920831
1040.8932 1030.933 2434.269 10052417
1053.0448 1028.7131 2429.0273 9723709
1064.0156 1025.4153 2421.2402 10118467
1080.6575 1027.5975 2426.3931 10315846
1102.0461 1034.177 2441.9287 10249796
1119.6355 1037.067 2448.7527 10184260
1142.309 1044.5319 2466.3789 9855038
1155.0276 1042.8203 2462.3376 9592123
1166.9648 1040.4548 2456.7522 10184516
1178.1782 1037.5103 2449.7993 10974034
1191.3748 1036.3623 2447.0889 9724224
1213.5168 1042.9302 2462.5972 10185032
1212.9589 1030.0648 2432.2188 9724480
1233.443 1035.1608 2444.2517 9592894
1246.8018 1034.228 2442.0493 9592895
1271.0889 1042.278 2461.0569 9987653
1292.7283 1047.9987 2474.5649 10119239
1298.0564 1040.516 2456.8965 10185031
0 0 0 0
1334.525 1046.2805 2470.5078 10119239
1351.9607 1048.4493 2475.6292 9658944
1371.6566 1052.3059 2484.7354 10316618
1377.5359 1045.5933 2468.885 9987653
1392.4275 1045.7903 2469.3506 9856323
1410.4833 1048.3351 2475.3594 9461566
1426.2822 1049.1674 2477.3245 9856067
1446.1791 1052.9664 2486.2949 9132344
1456.0688 1049.4761 2478.0535 10185289
1461.7252 1043.0348 2462.844 9461823
1462.0389 1032.946 2439.0222 9330494
1490.6718 1042.8667 2462.447 8475185
1514.2378 1049.0847 2477.1294 9264958
1524.5999 1046.1233 2470.1367 9264958
1532.6743 1041.6635 2459.606 9462080
1555.7802 1047.4072 2473.1685 9067579
1558.2015 1039.2484 2453.9036 9133371
1581.5454 1045.0657 2467.6394 9132601
1593.6653 1043.4276 2463.7715 9198651
1604.1062 1040.73 2457.4019 8606770
1627.3212 1046.2939 2470.5398 8475184
1627.8015 1037.2719 2449.2363 7948326
1647.5585 1040.584 2457.0571 7619105
1665.3563 1042.6117 2461.845 7355421
1670.6802 1036.8625 2448.2698 7355422
1685.3182 1036.9432 2448.4604 7553313
1693.691 1033.2006 2439.623 7487777
1699.1904 1027.7831 2426.8313 7421984
1707.0157 1023.8517 2417.5483 8145449
1718.9635 1022.4377 2414.2095 8145451
1724.6226 1017.3375 2402.1667 8145707
1735.0924 1015.1354 2396.967 7882534
1742.1904 1011.0122 2387.2314 7356705
0 0 0 0
1731.1844 988.57245 2334.2458 7356450
1752.2864 992.69122 2343.9714 7619878
1750.2853 983.76019 2322.8831 7158814
1769.2058 986.63586 2329.6731 7093021
1776.1074 982.81616 2320.6541 6763800
1778.7997 976.74384 2306.3159 6434837
1810.3433 986.48578 2329.3188 6960925
1803.8101 975.48846 2303.3518 6697753
1828.3599 981.33972 2317.168 6698011
1837.36 978.81995 2311.218 6895387
1857.7534 982.36206 2319.5818 6829595
1863.1853 977.99872 2309.2791 6435606
1856.207 967.2323 2283.8569 6632729
1866.0247 965.31049 2279.3191 6632986
1873.5609 962.24451 2272.0796 6764572
1874.7063 955.96338 2257.2485 7290659
1877.6051 950.65912 2244.7239 6566166
1881.9363 946.14954 2234.0757 6961438
1890.0028 943.56781 2227.9797 5975057
1906.1207 945.01367 2231.3938 6369815
1919.9745 945.32489 2232.1284 5909008
1929.4591 943.49512 2227.8081 5776910
1914.4308 929.78516 2195.4355 4855811
1920.7141 926.54071 2187.7749 6105617
1925.9368 922.83179 2179.0171 5710859
1928.1399 917.7348 2166.9822 5843472
1933.3484 914.12634 2158.4617 7619881
1935.9363 909.33435 2147.1467 7093536
1946.7339 908.4361 2145.0256 6830621
1937.4172 898.22406 2120.9126 6896159
1952.2913 899.28662 2123.4216 6632731
1958.3116 896.28345 2116.3306 6698524
1974.7621 898.06165 2120.5293 6369816
1973.2889 891.71796 2105.5503 6896160
1988.5223 892.95605 2108.4739 5975058
1992.5909 889.19641 2099.5964 6369816
1998.609 886.34796 2092.8706 7028003
0 0 0 0
0 0 0 0
0 0 0 0
0 0 0 0
0 0 0 0
0 0 0 0
0 0 0 0
0 0 0 0
0 0 0 0
0 0 0 0
-1984.5671 972.88934 2265.5173 1280
-1970.6787 972.66034 2264.9839 1280
-1953.9178 971.00049 2261.1187 1280
-1944.4108 972.94745 2265.6523 1280
-1931.0652 972.98743 2265.7456 1280
-1919.5892 973.9765 2268.0488 1280
-1859.4805 950.12988 2212.5186 331520
-1897.0371 976.2027 2273.2329 1024
-1838.9368 953.07196 2219.3694 1024
-1868.9557 975.60675 2271.845 1024
-1801.818 947.38416 2206.1245 768
-1800.6444 953.6861 2220.7996 768
-1895.2689 1011.1924 2354.7117 1024
-1820.4467 978.47552 2278.5254 1024
-1806.5944 978.2854 2278.0828 1024
-1731.5566 944.71057 2199.8987 198400
-1854.1569 1019.2724 2373.5271 1024
-1722.5481 954.16168 2221.907 1024
-1782.5813 995.02057 2317.053 1024
-1698.5679 955.48413 2224.9866 1024
-1856.3281 1052.3965 2450.6614 1024
-1674.2336 956.64618 2227.6926 1024
-1658.8494 955.38824 2224.7632 1280
-1647.3331 956.35553 2227.0159 1024
-1634.7317 956.70355 2227.8262 1024
-1631.6714 962.6864 2241.7581 1024
-1610.8341 958.19305 2231.2947 1024
-1593.3154 955.6156 2225.2927 1024
-1578.6544 954.72339 2223.2151 1024
-1569.9413 957.44354 2229.5493 1024
-1555.9089 956.93835 2228.373 1024
-1543.4009 957.37012 2229.3784 1024
-1523.4609 953.15942 2219.5732 1024
-1519.4755 958.94434 2233.0442 1024
-1502.9088 956.82117 2228.1001 1024
-1488.2704 955.89874 2225.9521 1024
-1481.9299 960.33722 2236.2878 768
0 0 0 0
0 0 0 0
-1436.8569 956.79462 2228.0381 512
-1430.0267 961.0769 2238.0103 768
-1422.0908 964.68927 2246.4221 198144
-1407.1385 963.56537 2243.8049 66304
-1395.087 964.42529 2245.8074 395520
-1385.8926 967.29596 2252.4922 132608
-1370.9008 966.13666 2249.7925 263680
-1364.6047 971.14313 2261.4509 198656
-1351.7374 971.52606 2262.3425 790272
-1353.3252 982.40985 2287.687 1053188
-1338.1606 981.22992 2284.9395 657920
-1333.2867 987.64893 2299.887 986626
-1353.7135 1013.1357 2359.2368 920064
-1314.5789 994.11267 2314.939 1380614
-1300.3687 993.73578 2314.0613 1314564
-1291.8469 997.7442 2323.3955 1379330
-1282.641 1001.3049 2331.687 1379332
-1268.236 1000.8402 2330.605 1839368
-1262.4368 1007.2314 2345.4878 1839111
-1251.3551 1009.5034 2350.7786 2036491
-1237.1995 1009.3187 2350.3484 1773061
-1237.3146 1020.9047 2377.3281 2036234
-1222.2914 1020.123 2375.5078 2102027
-1185.3856 1000.8472 2330.6211 2167820
-1194.3936 1020.3399 2376.0129 2299406
-1161.799 1004.3337 2338.74 2035721
-1154.9274 1010.446 2352.9736 2101257
-1132.5957 1003.0165 2335.6729 2233100
-1113.8177 998.58923 2325.3633 2233100
-1120.3213 1017.001 2368.2378 2496015
0 0 0 0
0 0 0 0
0 0 0 0
-799.61627 764.15894 1779.4575 196608
-796.11151 770.97595 1795.3319 196608
-779.19928 764.81763 1780.9912 2
-770.97229 767.13214 1786.381 3
-760.47791 767.22357 1786.5939 5
-750.84674 768.20074 1788.8695 3949385
-737.14203 764.97858 1781.3661 5596007
-730.93408 769.5556 1792.0244 6122604
-728.37366 778.16449 1812.0715 196608
0 0 0 0
-919.12512 1011.7858 2356.0935 2298379
-905.62701 1012.303 2357.2979 2560780
-883.10547 1002.5921 2334.6846 2626573
-878.38263 1013.1005 2359.155 2888718
-861.42523 1009.6097 2351.0261 2823182
-853.43329 1016.6846 2367.501 2823182
-842.83026 1020.8334 2377.1621 2625803
-828.46771 1020.4923 2376.3677 2428424
-811.0838 1016.3534 2366.7297 2822924
-797.47015 1016.8765 2367.9478 2625801
-784.94757 1018.8344 2372.5071 2691594
-771.3028 1019.3806 2373.7788 2757387
-752.16016 1012.546 2357.8635 2625801
-737.02948 1010.9556 2354.1602 2625801
-723.10522 1010.9907 2354.2419 3020559
-708.78906 1010.4686 2353.0259 2954253
-695.41321 1011.2927 2354.9451 3020046
-681.64056 1011.5618 2355.5718 3020046
-668.16333 1012.2898 2357.2668 2822411
-653.67828 1011.4894 2355.4031 2954253
-639.56195 1011.2369 2354.8152 2954253
-625.73511 1011.4412 2355.291 3020300
-612.29901 1012.3009 2357.2927 2954507
-597.69318 1011.2216 2354.7793 2822664
-584.25165 1012.1075 2356.8425 2888200
-570.15289 1011.8705 2356.2908 3151116
-554.94086 1009.5963 2350.9949 3348239
-540.742 1009.0958 2349.8293 3151116
-527.87671 1011.123 2354.55 2822151
-511.57181 1006.4932 2343.7688 3151115
-497.68405 1006.4932 2343.7688 3216908
-485.18085 1009.3737 2350.4763 3019530
-469.31561 1005.2233 2340.8115 3085323
-454.89355 1004.0053 2337.9753 3216907
-441.04013 1004.0054 2337.9756 3151114
-426.06198 1001.3621 2331.8201 3282443
-412.26074 1001.4003 2331.9092 3282700
-398.81323 1002.3301 2334.0745 3019528
-384.76608 1001.7657 2332.76 3019528
-370.9111 1001.678 2332.5559 3019528
-357.00156 1001.4305 2331.9797 3019527
-344.55576 1005.4346 2341.3035 3414288
-331.2019 1007.0135 2344.9802 3216652
-315.1105 1000.0427 2328.7478 2955020
-301.401 1000.339 2329.4377 4797739
-283.68127 986.71521 2297.7126 3677203
-273.52414 999.34833 2327.1309 3347979
-259.97653 1000.2778 2329.2952 3414028
-246.18326 1000.3134 2329.3779 3611151
-232.51796 1000.9038 2330.7532 3216393
-220.00203 1006.8292 2344.551 4400924
-205.92865 1005.9451 2342.4924 3085063
-192.29408 1007.2317 2345.4885 3150857
-179.1833 1011.6762 2355.8381 3347723
-165.40106 1012.7603 2358.3625 3018756
-151.13622 1010.8166 2353.8364 3544585
-137.42622 1012.5662 2357.9104 4531221
-123.15329 1010.0943 2352.1545 5122839
-109.23257 1010.2491 2352.5149 6306851
-95.408577 1011.4747 2355.3689 6832162
-81.212173 1008.4955 2348.4316 8344626
-67.042282 1004.6819 2339.551 8739123
-52.883717 999.09393 2326.5383 9593918
-39.231651 1002.5081 2334.4888 9395511
-25.374647 1001.552 2332.2625 9264438
-11.692448 1013.4606 2359.9934 10382662
2.2731328 1005.3544 2341.1169 9329718
16.387615 1020.4501 2376.2695 9264182
30.184992 1010.9725 2354.1995 10053441
44.232304 1013.2112 2359.4128 9526842
58.016121 1009.7885 2351.4424 10185027
72.468834 1017.0793 2368.4199 9921600
85.948372 1010.5619 2353.2432 9001264
99.675072 1008.3643 2348.126 9592118
113.50993 1007.6655 2346.4985 10250048
128.23615 1014.1684 2361.6416 9527352
142.36957 1015.1649 2363.9622 9856316
155.98596 1012.6265 2358.051 9987646
169.75665 1011.4247 2355.2524 9329972
184.47446 1015.6198 2365.0212 10053695
199.01369 1018.3087 2371.283 10053695
210.9873 1008.3812 2348.1653 9921856
225.70129 1011.9689 2356.5198 10053185
240.59894 1015.914 2365.7065 9658684
254.15266 1014.0625 2361.395 9658427
270.01401 1021.1312 2377.8555 9526841
283.43491 1018.7271 2372.2571 9658684
299.36737 1025.151 2387.2161 9394998
313.7551 1025.9438 2389.0625 9987135
328.61334 1028.1405 2394.1777 10316355
343.40506 1029.9559 2398.405 9395252
356.6066 1027.047 2391.6313 10119232
369.23438 1022.7714 2381.6748 10053442
386.16183 1030.282 2399.1646 10776650
396.81561 1021.1154 2377.8186 10381893
410.55746 1020.2514 2375.8066 9855548
422.79309 1015.8257 2365.501 10645065
441.37433 1026.4412 2390.2205 10052671
455.43433 1026.209 2389.6799 10644808
467.52676 1021.6913 2379.1597 10447686
486.81418 1032.7008 2404.7971 10316100
500.84161 1032.2434 2403.7319 10316615
514.56171 1031.1953 2401.2913 10316614
525.9682 1025.6918 2388.4756 10053442
542.00574 1029.2712 2396.8108 9658683
549.9165 1017.629 2369.7002 10382406
571.72644 1031.647 2402.343 10645837
586.01904 1031.7485 2402.5796 10382409
593.25507 1019.7162 2374.5605 10316616
609.97083 1024.1582 2384.9043 9987651
619.32373 1016.3165 2366.6438 10119237
633.25787 1016.1734 2366.3105 10645324
646.34277 1014.7032 2362.887 9198137
662.94031 1018.6931 2372.178 9395516
674.98224 1015.6622 2365.1204 10645840
692.62311 1021.0082 2377.5693 11237976
703.96912 1017.0468 2368.3442 10448204
724.05017 1025.6133 2388.2925 10711376
737.79547 1025.0487 2386.978 10185286
750.53552 1023.1351 2382.522 10185543
758.52026 1014.9294 2363.4138 10317128
770.422 1012.1673 2356.9817 10119493
784.86377 1012.7811 2358.4111 10250824
797.25574 1010.7747 2353.739 9921603
813.8443 1014.0663 2361.4038 10447947
831.57172 1018.6417 2372.0583 10316361
848.76056 1022.4162 2380.8479 10447947
864.39362 1024.2239 2385.0574 9790015
878.02039 1023.6344 2383.6846 10513994
0 0 0 0
0 0 0 0
0 0 0 0
0 0 0 0
0 0 0 0
966.58704 1027.6969 2393.1448 10185029
984.35522 1031.4565 2401.8994 10447431
1000.5792 1033.5137 2406.6899 10250052
1007.9698 1026.5175 2390.3982 10052417
1022.4224 1026.8071 2391.0728 9986880
1035.4463 1025.6737 2388.4333 9592122
1050.509 1026.5632 2390.5049 10776140
1069.5787 1031.2928 2401.5183 9986624
1086.6108 1033.9591 2407.7271 10513224
1105.8218 1038.6028 2418.5405 10250055
1120.0699 1038.5261 2418.3621 9987396
1136.6115 1040.5509 2423.0771 9987396
1149.1553 1038.911 2419.2585 9987139
1163.2101 1038.6608 2418.6758 9855554
1180.2046 1041.0095 2424.1453 9921602
1190.7042 1037.642 2416.3032 9461051
1207.8035 1040.0372 2421.8811 9592637
1221.2397 1039.2593 2420.0693 9395514
1226.5057 1031.6271 2402.2966 9592637
1242.4912 1033.0828 2405.6865 9461563
1263.7762 1038.8619 2419.1443 9724478
1279.6627 1040.1235 2422.082 9856065
0 0 0 0
1309.6571 1041.1497 2424.4717 10777169
1316.5776 1035.2949 2410.8379 9856324
1342.8291 1044.6036 2432.5146 10119496
1358.561 1045.6182 2434.8772 10185289
1367.7471 1041.6265 2425.5818 10777169
1385.3859 1044.0881 2431.3142 9724481
1394.525 1040.1592 2422.165 9592895
1416.1136 1045.5017 2434.606 9592895
1432.8719 1047.2063 2438.5752 9922117
1439.1711 1041.3092 2424.8428 9198137
1458.7356 1045.0317 2433.5115 8803635
1470.6898 1043.2828 2429.439 10185289
1491.1052 1047.5121 2439.2871 9329979
1506.7664 1048.3519 2441.2432 9198137
1528.2769 1053.2072 2452.5491 8606770
1531.7118 1045.6315 2434.908 9001784
1548.4209 1047.1743 2438.5007 9659716
1557.5862 1043.6339 2430.2566 8869943
1580.6896 1049.4119 2443.7112 9199164
1591.3577 1046.9042 2437.8718 8804406
1596.4148 1040.7836 2423.6189 9199163
1609.8759 1040.2021 2422.2649 8935222
1621.6382 1038.5431 2418.4016 8014119
1636.3342 1038.7754 2418.9426 8014120
1639.0997 1031.4957 2401.991 7553570
1654.7188 1032.3606 2404.0049 7421727
1669.525 1032.708 2404.814 8014120
1674.0115 1026.7201 2390.8701 7750948
1696.8247 1031.9786 2403.1152 7948327
1690.3961 1019.5134 2374.0881 7948071
1700.1656 1016.9425 2368.1016 8145706
1699.2372 1008.0673 2347.4343 8343086
1705.703 1003.6872 2337.2346 7816999
0 0 0 0
1705.9116 987.77008 2300.1692 7421728
1713.351 984.21417 2291.8889 7026971
1727.9594 984.80005 2293.2532 6895642
1739.3311 983.54657 2290.3342 7158813
1747.8414 980.70709 2283.7219 6895387
1761.8016 980.9455 2284.2771 6369043
1788.5952 988.27124 2301.3362 6895131
1790.5859 981.88525 2286.4656 7290145
1801.85 980.64203 2283.5706 7158046
1811.5707 978.5838 2278.7776 7026717
1817.2932 974.41217 2269.0635 6632216
1829.1318 973.55719 2267.0723 6764573
1826.9746 965.31958 2247.8899 6106386
1859.5906 975.44135 2271.46 6435350
1855.9789 966.55115 2250.7578 7027743
1863.6313 963.61212 2243.9138 6764572
