# .PCD v0.7 - Point Cloud Data file format
VERSION 0.7
FIELDS x y z rgb
SIZE 4 4 4 4
TYPE F F F U
COUNT 1 1 1 1
WIDTH 1311
HEIGHT 1
VIEWPOINT 0 0 0 1 0 0 0
POINTS 1311
DATA ascii
4509.9492 2056.9001 9263.4551 8813924
4730.3267 2131.4685 9599.2803 8484699
4647.188 2069.1265 9318.5166 10721146
4700.2725 2068.1885 9314.293 12233355
4781.5649 2079.5403 9365.417 10654321
4873.7778 2095.3264 9436.5117 6114860
5075.1597 2157.156 9714.9668 11313280
5163.6729 2170.1624 9773.543 13223076
5222.5942 2170.582 9775.4326 13617834
5304.5732 2180.4702 9819.9648 13552299
5291.4883 2151.4912 9689.4551 13289128
5343.479 2149.3101 9679.6318 12894371
5279.9824 2101.2158 9463.0342 12170390
5145.6934 2026.2559 9125.4453 11709326
5068.0723 1974.9373 8894.3271 12630941
4986.9341 1923.3187 8661.8574 12828067
5044.2671 1925.6124 8672.1875 13881015
4913.7031 1856.8547 8362.5303 13946811
5000.1548 1870.6597 8424.7021 13815735
5078.9663 1881.3618 8472.9004 13552043
5150.1152 1889.0442 8507.498 10854530
5167.1899 1876.9351 8452.9639 6376758
5067.5601 1823.0739 8210.3945 5716770
5156.1021 1837.2887 8274.4131 6441512
4940.3223 1743.8174 7853.4551 1508608
4628.4712 1618.4961 7289.0581 720896
4727.9165 1637.9855 7376.8306 655360
4809.4326 1650.9631 7435.2769 459264
4988.5171 1696.894 7642.1318 328192
5102.9331 1720.1989 7747.0869 1117440
5133.5703 1715.0983 7724.1157 5393197
5085.8203 1684.1302 7584.6484 2169602
5098.3472 1673.4901 7536.7295 1710080
4905.8486 1596.3215 7189.1929 1710336
4902.9404 1581.6414 7123.0796 1710337
5063.0015 1619.3354 7292.8384 2369285
5143.8569 1631.2731 7346.6006 1580032
5239.9209 1647.7927 7420.9985 1119232
5112.2256 1594.2581 7179.8994 1711619
5147.501 1592.0099 7169.7749 856064
5156.5107 1581.7418 7123.5317 1052672
5171.5825 1573.485 7086.3467 394240
5054.6177 1525.5116 6870.2935 1446656
5014.5449 1501.3262 6761.3716 2433024
4973.7896 1477.3209 6653.2622 2564869
5206.2329 1534.2013 6909.4282 2301440
5107.6929 1493.4188 6725.7603 1775360
5188.1733 1505.2059 6778.8447 1775104
5173.3545 1489.3756 6707.5513 1906688
5155.8228 1473.0117 6633.855 1841152
5104.8242 1447.4065 6518.5391 1841152
5027.499 1414.7771 6371.5898 1379328
4974.7178 1389.4897 6257.7056 1641728
4887.3691 1354.9927 6102.3447 4469008
4951.5811 1362.7133 6137.1147 2824192
5071.4424 1385.5245 6239.8477 3480832
4891.75 1326.7595 5975.1938 5586205
5028.9541 1354.1715 6098.646 851968
5103.2935 1364.3849 6144.6436 983040
5090.7007 1351.3768 6086.0601 851968
5011.7808 1321.0682 5949.5625 720896
5060.0518 1324.4757 5964.9082 3482901
5448.5352 1416.2692 6378.3091 1509888
5292.7344 1366.2936 6153.2393 1839360
5354.8301 1372.866 6182.8384 1641728
5349.6533 1362.2188 6134.8882 1575936
5293.771 1338.8912 6029.8301 1773056
5295.7329 1330.4081 5991.6255 1970432
5272.5454 1315.7621 5925.6655 1115392
5250.7134 1301.6455 5862.0903 1970944
5291.9912 1303.2568 5869.3472 589824
5378.2339 1315.8483 5926.0537 524288
5430.9805 1320.1342 5945.356 524288
5487.938 1325.382 5968.9897 458752
5520.5298 1324.7156 5965.9883 1049856
5549.5166 1323.1982 5959.1548 1312512
5644.8569 1337.4209 6023.2085 1114880
5717.0952 1346.0258 6061.9614 983296
5729.3945 1340.4994 6037.0728 1377024
5744.7935 1335.7623 6015.7388 2890503
0 0 0 0
0 0 0 0
0 0 0 0
-6951.9346 1727.4014 7577.3188 1280
-6794.9624 1699.3728 7454.3696 1280
-6990.5112 1759.7169 7719.0723 1280
-6802.1372 1723.5751 7560.5342 1280
-6767.5776 1726.1866 7571.9902 1536
-6719.2446 1725.2968 7568.0869 1536
-6686.8564 1728.5165 7582.2104 1536
-6529.2769 1699.1996 7453.6108 1536
-6542.1982 1714.1573 7519.2231 1536
-6514.6636 1718.6473 7538.9185 1536
-6458.2559 1715.5297 7525.2427 1536
-6412.3271 1715.1718 7523.6729 1536
-6367.083 1714.993 7522.8887 1536
-6367.3765 1727.1638 7576.2769 1536
-6306.7832 1722.875 7557.4629 1536
-6242.0713 1717.3911 7533.4087 1536
-6149.6636 1704.1537 7475.3418 1536
-6103.52 1703.6378 7473.0781 1536
-4586.8291 1289.6495 5657.1016 1536
-4630.314 1311.4601 5752.7744 1536
-4615.4434 1316.9432 5776.8267 1536
-4585.8604 1318.2791 5782.6865 1536
-4516.8301 1308.21 5738.5181 1536
-4513.1919 1317.0712 5777.3877 1536
-4492.9619 1321.189 5795.4512 1536
-4462.9917 1322.484 5801.1313 1536
-4503.2202 1344.762 5898.8545 1536
-4461.2842 1342.6604 5889.6362 1536
-4427.5991 1343.0283 5891.2505 1536
-4434.6011 1355.842 5947.458 1536
-4442.1265 1369.0223 6005.2739 1536
-4424.6279 1374.6409 6029.9199 1536
-4365.8027 1367.4073 5998.1895 1536
-4365.9512 1378.6775 6047.6265 1536
-4350.376 1385.1278 6075.9214 1536
-4312.3022 1384.4629 6073.0049 1536
-4347.043 1407.3605 6173.4458 1792
-4299.519 1403.7874 6157.772 1792
-4246.6978 1398.4086 6134.1777 1792
-4243.0117 1409.2566 6181.7632 1792
-4232.9473 1418.1566 6220.8037 1792
-4195.3359 1417.9031 6219.6914 1792
-4159.5034 1418.2513 6221.2192 1792
-4120.5322 1417.5262 6218.0381 1792
-4080.6255 1416.4633 6213.3755 1792
-4102.2563 1436.9362 6303.1807 1792
-4062.1665 1435.9672 6298.9302 1792
-4047.8618 1444.1799 6334.9556 1792
-4029.2979 1451.0125 6364.9268 1792
-4022.8704 1462.3859 6414.8169 1792
-3999.8845 1467.8997 6439.0034 1536
-4674.3579 1731.9421 7597.2363 1792
-4590.0586 1717.2456 7532.77 1792
-4474.0024 1690.2627 7414.4082 1792
-4619.041 1762.3639 7730.6831 1792
-4521.4116 1742.3934 7643.082 1792
-4479.6001 1743.7466 7649.0181 1792
-4497.6685 1768.6752 7758.3682 1792
-4498.7012 1787.3502 7840.2861 1792
-4403.4238 1767.7512 7754.3149 1536
-4420.022 1793.1246 7865.6167 1536
-4141.6206 1698.0876 7448.7329 1536
-3992.8877 1654.7408 7258.5898 1536
-4021.5386 1684.7621 7390.2793 1536
-3993.4602 1691.4167 7419.4707 1536
-3957.3479 1694.7791 7434.2197 1536
-3924.8367 1699.7766 7456.1416 1536
-3829.4534 1677.3491 7357.7627 1536
-3812.0022 1688.9337 7408.5786 1536
-3803.2512 1704.6876 7477.6836 1536
-3811.6953 1728.6107 7582.6235 1536
-3745.0974 1718.6671 7539.0059 1536
-3776.6125 1754.0522 7694.2236 1536
-3837.5735 1804.1451 7913.9585 1536
-3823.9219 1819.9666 7983.3599 1536
-3684.4116 1775.5323 7788.4468 1536
-3772.2566 1840.9237 8075.2896 1536
-3638.2725 1798.3486 7888.5317 1536
-3614.9993 1810.1003 7940.0811 1536
-3577.8733 1815.134 7962.1611 1536
-3579.9243 1840.4432 8073.1816 1536
-3542.9395 1846.0978 8097.9854 1536
-3423.1489 1808.1681 7931.6055 1536
-3384.1379 1812.4457 7950.3691 1280
-3348.0837 1818.45 7976.7075 1280
-3344.9258 1842.7491 8083.2964 1280
-3288.9541 1838.2361 8063.4995 1280
-3223.7063 1828.3287 8020.0405 1536
-3170.8921 1825.2823 8006.6777 1536
-3116.2678 1821.0857 7988.269 1536
-3184.5703 1889.7035 8289.2637 1536
-3136.2688 1890.1952 8291.4199 1536
-3050.05 1867.4865 8191.8071 1280
-2992.5906 1861.9365 8167.4629 1280
-2907.3772 1838.6527 8065.3267 1280
-2788.4836 1792.9348 7864.7837 1280
-2887.9004 1888.4174 8283.6221 1280
-2700.6094 1796.4801 7880.3354 1280
-2607.9414 1765.3597 7743.8247 1280
-2596.665 1789.2065 7848.4297 1280
-2377.8262 1668.2963 7318.0518 1280
-2441.8413 1745.0325 7654.6577 1024
-2233.6619 1626.4711 7134.5835 1024
-2169.406 1610.1567 7063.02 1280
-2270.6477 1718.4509 7538.0571 1280
-2466.7896 1904.3539 8353.5283 1280
-2171.0369 1710.3535 7502.5371 1280
-2113.2634 1699.642 7455.5513 1280
-2083.0898 1711.1453 7506.0103 1024
-2069.9692 1737.464 7621.4585 1024
-1993.6993 1710.7692 7504.3608 1024
-1975.6235 1733.9312 7605.9619 768
-1875.8845 1684.8287 7390.5718 66816
-1878.3644 1727.3812 7577.2305 1024
-1879.8516 1771.0828 7768.9287 1024
-1937.9911 1871.6925 8210.2578 1024
-1814.1912 1797.2435 7883.6846 1024
-1756.1024 1785.6774 7832.9482 1024
-1679.9498 1754.6165 7696.6987 1024
-1576.9042 1692.9496 7426.1948 1024
-1637.009 1807.9274 7930.5498 1024
-1522.3536 1730.9907 7593.063 1024
-1364.4774 1598.7267 7012.8818 1024
-1347.6776 1628.6418 7144.1055 768
-1297.9237 1619.3813 7103.4844 768
-1265.2206 1631.4869 7156.5854 512
-1230.2917 1641.4625 7200.3442 66048
-1180.4998 1631.6119 7157.1338 263168
-1120.9976 1607.1063 7049.6392 1052680
-1065.2 1586.2203 6958.0225 2434846
-988.45605 1531.2048 6716.6938 2434592
-962.13922 1552.9662 6812.1514 2500898
-924.49957 1557.5571 6832.29 2500642
-866.20428 1526.1755 6694.6328 2500643
-837.10858 1545.6976 6780.2676 2500386
-798.32721 1548.4022 6792.1313 2369059
-757.1626 1546.5261 6783.9019 2303266
-716.7984 1546.1661 6782.3228 2237473
-684.34705 1563.8457 6859.8745 2302753
-643.31702 1562.9164 6855.7983 2434339
-602.03351 1561.2045 6848.2891 2434339
-566.94745 1576.4779 6915.2866 2500133
-527.00842 1579.5856 6928.9185 2565924
-484.83646 1575.9602 6913.0156 2500643
-444.02353 1576.4911 6915.3438 2500642
-405.07101 1584.4062 6950.0649 2434850
-361.55737 1574.2538 6905.5308 2434852
-322.93118 1585.5062 6954.8896 2434852
-282.78455 1591.4937 6981.1538 2434852
-240.97391 1588.5634 6968.2998 2303266
-199.16536 1584.438 6950.2036 2565925
-159.14043 1596.0499 7001.1396 2565925
-117.62302 1595.6044 6999.1855 2631718
-77.398651 1621.7671 7113.9492 2763304
-35.242069 1621.6028 7113.2285 2697511
6.8960505 1619.1102 7102.2954 2565925
49.072201 1622.1581 7115.6646 2697511
91.449242 1625.9607 7132.3447 2565925
132.70326 1613.7034 7078.5776 2565925
176.28697 1628.8594 7145.0601 2631718
219.48933 1635.3042 7173.3301 2565669
262.65714 1639.442 7191.481 2565925
306.51697 1646.1412 7220.8677 2566179
348.35745 1641.6829 7201.311 2500386
392.54813 1648.0646 7229.3042 2500386
440.36774 1666.9269 7312.0449 2697765
487.01855 1678.3824 7362.2944 2631972
527.76257 1669.2715 7322.3296 2566179
577.21973 1687.0101 7400.1406 2566179
620.41412 1685.2325 7392.3433 2631972
670.26172 1700.5697 7459.6206 2895144
719.27808 1712.0308 7509.8945 2829351
763.9527 1712.4241 7511.6201 2895144
841.27881 1781.934 7816.5283 2960937
850.03961 1706.5382 7485.8013 3026217
901.35571 1719.8174 7544.0518 2960424
964.60168 1753.5291 7691.9292 2763045
991.4259 1720.9755 7549.1313 2763046
1063.808 1766.9009 7750.5845 2696995
1152.1482 1834.4332 8046.8184 2763044
1204.4159 1841.4463 8077.5815 2828837
1296.6761 1906.7317 8363.958 3026214
1382.2924 1957.7997 8587.9707 3223077
1434.6555 1959.816 8596.8154 4210226
1490.0177 1965.6505 8622.4082 5065534
1478.3574 1885.6122 8271.3174 5920329
1512.2156 1866.9055 8189.2593 6841686
1537.9565 1839.6522 8069.7119 7170652
1609.9318 1867.6792 8192.6533 7631199
1661.0419 1870.568 8205.3252 7565407
1673.9508 1831.4961 8033.9346 7631200
1725.6858 1835.8907 8053.2119 7631200
1772.9159 1835.385 8050.9937 7696992
1832.0568 1846.9132 8101.5625 7696993
1872.5623 1839.5459 8069.2456 7631199
1956.6454 1874.2889 8221.6475 7631199
2019.4491 1887.4554 8279.4023 7565662
2145.7388 1957.9264 8588.5264 7959393
2161.4929 1926.6083 8451.1475 7959648
2218.1211 1932.3159 8476.1846 8090721
2239.4468 1907.6979 8368.1963 8748649
2273.9402 1895.1202 8313.0244 9077356
2332.5906 1902.7822 8346.6338 9077098
2397.0359 1914.7546 8399.1514 9537648
2435.0911 1905.5886 8358.9443 9340526
2491.3301 1910.7339 8381.5146 9274734
2528.3 1901.1886 8339.6436 9143663
2589.2437 1909.691 8376.9395 8814444
2614.7385 1892.2201 8300.3027 8288101
2708.1736 1923.6533 8438.1855 8222307
2735.7463 1908.0118 8369.5742 8024929
2793.134 1913.3514 8392.9961 8024929
2859.0037 1924.2126 8440.6396 8024929
2930.6719 1938.536 8503.4697 7959392
2983.2571 1939.9657 8509.7412 7959392
3039.572 1943.733 8526.2666 8025186
3098.6863 1949.1383 8549.9766 7762270
3184.7144 1971.0264 8645.9893 7761757
3211.5137 1956.1447 8580.7109 7761756
3300.0491 1978.7449 8679.8477 7959136
3345.7161 1975.3416 8664.918 8024928
3426.2498 1992.3153 8739.375 8025185
3494.5 2001.7474 8780.749 8156257
3544.7715 2000.7551 8776.3965 8287843
3607.2781 2006.5978 8802.0254 8353636
3668.7268 2011.6935 8824.3779 8287843
3733.7795 2018.5945 8854.6494 8484965
3802.064 2027.0271 8891.6396 8551015
3873.2874 2036.7745 8934.3975 8616551
3817.2222 1980.2272 8686.3496 8551014
3985.3374 2039.933 8948.252 8485222
4026.8799 2034.1343 8922.8154 8485221
4093.6106 2041.0446 8953.1279 8419429
4134.418 2035.0181 8926.6924 8419429
4227.0693 2054.3398 9011.4482 8616808
4273.2568 2050.8799 8996.2715 8747622
4313.5083 2044.6917 8969.126 8747620
4343.6865 2033.9373 8921.9512 8681827
4356.4082 2015.3656 8840.4854 8681826
4389.3096 2006.4601 8801.4209 8616033
4558.4731 2059.3206 9033.2959 8747874
4644.6377 2073.8945 9097.2246 8747617
4927.5913 2174.9944 9540.7041 9471342
5008.7437 2185.738 9587.832 12169107
5040.7759 2175.0459 9540.9297 12893598
5107.6074 2179.4402 9560.2051 11644041
5263.1167 2221.1619 9743.2197 12499098
5323.4565 2222.2502 9747.9941 13618607
5356.3467 2211.9797 9702.9414 13816244
5280.6992 2157.5808 9464.3193 13685427
5328.6982 2154.3137 9449.9883 13618864
5245.9492 2098.8049 9206.4961 13420971
5116.2192 2025.8361 8886.415 13289126
5232.6777 2050.8423 8996.1055 13288612
5151.228 1998.5604 8766.7686 13354406
5139.6401 1974.1566 8659.7207 13552041
5169.8193 1966.1194 8624.4648 13552555
5113.8989 1925.8159 8447.6719 13618092
5169.3896 1927.8425 8456.5625 13749937
5407.688 1997.3512 8761.4648 13882040
5210.8213 1906.3367 8362.2256 14210238
5039.7749 1826.3936 8011.5518 12825249
4635.4214 1664.1818 7300.0034 7100750
4747.6743 1688.7239 7407.6582 2103575
4894.2925 1724.9277 7566.4683 1772290
5137.5962 1794.2408 7870.5127 2495747
5047.355 1746.8682 7662.7109 2626817
5181.0405 1777.1494 7795.5405 5588003
5124.5078 1742.2252 7642.3442 1774338
5090.0718 1715.3595 7524.4966 1509888
5148.0249 1719.8254 7544.0859 459008
5142.2129 1703.0952 7470.6982 262912
5003.0859 1642.8737 7206.5347 723712
5055.0972 1645.9049 7219.8311 921344
5102.4351 1647.3765 7226.2856 1973760
5100.7554 1633.1292 7163.7896 1513216
5047.8486 1602.851 7030.9731 724224
5038.8228 1586.8879 6960.9502 2039299
5060.8042 1580.8701 6934.5527 1709824
5090.2007 1577.2467 6918.6587 1906432
5038.918 1548.8817 6794.2349 2366976
5170.9829 1576.8778 6917.041 2366976
5197.4844 1572.4952 6897.8169 1577728
5140.7734 1543.2021 6769.3208 1972736
5126.2002 1526.9135 6697.8701 3223049
5179.4102 1530.9104 6715.4028 1051904
5270.5601 1545.9751 6781.4844 1051904
5119.3105 1490.2484 6537.0371 1250048
4964.2905 1434.2694 6291.4829 1183232
5047.7642 1447.5161 6349.5903 722176
5020.4688 1429.0374 6268.5322 4404241
5012.46 1416.2795 6212.5693 3218688
5079.5176 1424.7631 6249.7832 3415296
4891.5957 1362.1221 5975.0054 5981470
5078.5645 1404.0237 6158.8086 786432
5060.7354 1389.1127 6093.4009 917504
5081.4912 1384.9291 6075.0498 655360
5081.8252 1375.2777 6032.7134 589824
5103.1875 1371.4122 6015.7573 1116160
5427.4658 1448.4403 6353.6445 2366216
5320.9014 1410.2191 6185.9854 2168581
5245.7808 1380.7976 6056.9268 2365700
5262.6328 1375.8206 6035.0947 1642240
5189.9395 1347.6587 5911.5615 1445376
5219.4224 1346.2284 5905.2871 1116928
5129.356 1314.1875 5764.7388 1511680
5244.939 1334.9113 5855.644 459520
5246.6064 1326.5599 5819.0107 327936
5303.5176 1332.1945 5843.7266 458752
5380.4116 1342.7428 5889.9976 393216
5456.7026 1353.0056 5935.0161 524288
5512.0293 1357.9723 5956.8022 458752
5535.2476 1355.0155 5943.8325 655872
5619.7529 1367.0043 5996.4219 458752
5663.8853 1369.0835 6005.542 589824
5703.6558 1370.0887 6009.9517 655360
5816.874 1388.6152 6091.2188 852224
0 0 0 0
0 0 0 0
0 0 0 0
-6539.9932 1667.2814 7128.3198 1280
-6343.4839 1627.6963 6959.0776 1280
-6443.0322 1664.0568 7114.5342 1280
-6399.2969 1663.6462 7112.7788 1536
-6330.4834 1656.6676 7082.9424 1536
-6283.8335 1655.4344 7077.6699 1536
-6301.5137 1671.246 7145.2705 1792
-6179.957 1650.0941 7054.8379 1792
-6137.5337 1649.9275 7054.125 1792
-6082.6099 1646.3749 7038.936 1792
-6038.1958 1645.6376 7035.7837 1536
-5991.1514 1644.168 7029.501 1536
-5957.7256 1646.4415 7039.2212 1536
-5912.167 1645.3705 7034.6421 1536
-5869.2017 1645.0111 7033.106 1536
-5700.9448 1609.2791 6880.3359 1536
-4440.2285 1262.4283 5397.4053 1536
-4420.5601 1265.9546 5412.4814 1536
-4397.8521 1268.6555 5424.0293 1536
-4364.0303 1268.1666 5421.939 1536
-4374.9722 1280.7751 5475.8457 1536
-4739.9141 1397.9801 5976.9453 1536
-4452.8354 1323.1964 5657.2144 1536
-4422.7959 1324.2389 5661.6709 1536
-4392.2173 1325.1346 5665.501 1536
-4352.4785 1323.2593 5657.4829 1536
-4316.3457 1322.4597 5654.0645 1536
-4275.3037 1320.1317 5644.1113 1536
-4254.0283 1323.9186 5660.3018 1536
-4248.6626 1332.7563 5698.0869 1536
-4233.8403 1338.7457 5723.6938 1536
-4197.2168 1337.8823 5720.0024 1536
-4225.5659 1357.8838 5805.5171 1536
-4131.4341 1338.5315 5722.7783 1536
-4139.3013 1352.1788 5781.126 1536
-4132.3545 1361.1742 5819.585 1536
-4095.4958 1360.385 5816.2109 1792
-4079.4595 1366.5579 5842.6025 1792
-4101.6235 1385.7424 5924.624 1792
-4065.1599 1385.2798 5922.646 1792
-4030.8376 1385.545 5923.7808 1792
-4068.5481 1410.7926 6031.7246 1792
-4037.9719 1412.5994 6039.4487 1792
-4000.3181 1411.9402 6036.6304 1792
-3960.634 1410.546 6030.6699 1792
-3934.9717 1414.1656 6046.1455 1792
-3918.5911 1421.2181 6076.2979 1792
-3893.1987 1425.1028 6092.9062 1792
-3869.0427 1429.517 6111.7783 1792
-3895.3809 1452.8469 6211.5239 1792
-4387.7856 1652.1075 7063.4458 1536
-4371.5889 1661.8611 7105.146 1792
-4403.2329 1690.1678 7226.1694 1792
-4378.1675 1697.049 7255.5889 1792
-4329.8965 1694.9825 7246.7544 1792
-4285.54 1694.4225 7244.3594 1792
-4295.2427 1715.4412 7334.2236 1792
-4218.3271 1701.9425 7276.5107 1792
-3962.3528 1615.175 6905.5439 1792
-3942.9534 1624.0383 6943.438 1536
-3928.7871 1635.2666 6991.4434 1536
-3822.2354 1607.8712 6874.3169 1536
-3845.1409 1634.9298 6990.0034 1536
-3790.5576 1629.2712 6965.811 1536
-3784.9263 1644.7606 7032.0342 1536
-3742.8433 1644.578 7031.2539 1536
-3748.2524 1665.4941 7120.6787 1536
-3687.7566 1657.2687 7085.5117 1536
-3725.2305 1693.3883 7239.938 1536
-3682.3772 1693.4094 7240.0288 1536
-3646.304 1696.5862 7253.6104 1536
-3637.0879 1712.4836 7321.5786 1536
-3604.2136 1717.4916 7342.9893 1536
-3549.9658 1712.3121 7320.8457 1536
-3525.6172 1721.6051 7360.5762 1536
-3460.5994 1711.0225 7315.3315 1536
-3369.3696 1687.0472 7212.8271 1536
-3341.3013 1694.4871 7244.6362 1536
-3441.9592 1768.2518 7560.0107 1536
-3439.4246 1790.2494 7654.0591 1536
-3415.6384 1801.6252 7702.6958 1536
-3279.8652 1753.4401 7496.6846 1536
-3286.8418 1781.2948 7615.7749 1536
-3301.2637 1814.0161 7755.6724 1536
-3216.488 1792.3837 7663.1841 1536
-3188.6108 1802.2922 7705.5479 1536
-3074.4851 1763.0305 7537.6875 1536
-3032.3396 1764.4958 7543.9526 1536
-3036.1909 1793.1708 7666.5498 1536
-2961.8918 1775.8601 7592.5396 1536
-2942.7751 1791.6115 7659.8833 1536
-3000.9597 1855.656 7933.7002 1536
-2839.1035 1783.5104 7625.2476 1280
-2774.8442 1771.3329 7573.1836 1280
-2729.7632 1771.1986 7572.6099 1280
-2740.8984 1808.1451 7730.5718 1024
-2661.322 1785.4893 7633.7075 1024
-2568.4082 1752.9465 7494.5747 1024
-2507.8843 1741.7542 7446.7222 1024
-2447.8701 1730.5211 7398.6963 512
-1964.7869 1414.3358 6046.8726 1448710
-2305.2908 1690.2688 7226.6006 1024
-2237.6414 1671.7192 7147.2939 1280
-2176.9536 1657.7554 7087.5928 1280
-2107.2043 1636.2062 6995.4604 1280
-2112.1804 1672.9791 7152.6807 1280
-1927.9344 1558.3136 6662.438 1280
-2018.2555 1665.4205 7120.3647 1280
-1966.8936 1657.6914 7087.3193 1280
-1949.4449 1678.8307 7177.6982 1024
-1748.3412 1539.2244 6580.8232 1024
-1881.6 1694.3336 7243.98 1024
-1723.334 1588.0459 6789.5557 1024
-1706.4844 1610.1068 6883.875 1024
0 0 0 0
-1550.6237 1536.502 6569.1841 1024
-1508.1172 1532.8618 6553.6206 1024
-1717.0482 1791.3467 7658.751 1024
-1637.3005 1754.5198 7501.3003 1024
-1575.2854 1735.1698 7418.5713 1024
-1525.4097 1728.4642 7389.9028 1024
-1348.2729 1572.8995 6724.7983 1024
-1303.1406 1566.546 6697.6348 768
-1233.955 1529.9698 6541.2563 768
-1210.9373 1550.1211 6627.4111 512
-1199.9033 1587.4777 6787.126 256
-1159.6869 1587.4777 6787.126 921607
-1080.7629 1532.588 6552.4502 2500382
-1033.0103 1519.4574 6496.3115 2368799
-997.83521 1524.5272 6517.9868 2434592
-954.04993 1516.3204 6482.8994 2368799
-922.80011 1528.1842 6533.6221 2171421
-887.0575 1533.3209 6555.584 2105885
-848.26709 1533.4186 6556.001 2303264
-803.57953 1522.3538 6508.6948 2434851
-770.69403 1533.6591 6557.0293 2434851
-730.59619 1531.0504 6545.8765 2434851
-693.10132 1533.91 6558.1021 2369059
-658.84479 1544.7018 6604.2412 2434082
-616.90045 1537.6936 6574.2783 2434339
-582.45306 1549.6873 6625.5566 2236960
-537.50177 1533.4478 6556.126 2236960
-504.85898 1552.5288 6637.7056 2434339
-467.28091 1558.375 6662.7007 2500645
-428.08856 1559.4199 6667.168 2369059
-389.21429 1561.9539 6678.001 2303266
-348.95483 1558.8729 6664.8296 2500645
-310.58441 1564.5217 6688.9805 2434852
-269.81845 1557.9906 6661.0571 2171680
-229.19609 1550.1927 6627.7178 2171680
-191.79413 1565.4556 6692.9722 2302753
-153.52716 1579.7747 6754.1924 2434339
-111.36424 1549.9677 6626.7554 2302753
-72.62426 1561.28 6675.1201 2171167
-32.996132 1557.7223 6659.9102 2236960
6.5328355 1573.6991 6728.2173 2302753
46.455143 1575.5616 6736.1807 2434339
86.198898 1572.4457 6722.8579 2302753
125.57545 1566.718 6698.3701 2566179
166.62448 1579.5966 6753.4312 2631718
208.13211 1590.9927 6802.1543 2565925
248.69989 1592.6722 6809.3354 2500130
289.60257 1595.7284 6822.4014 2631972
332.86523 1609.4464 6881.0522 2631972
376.08615 1619.9911 6926.1343 2631972
419.12778 1627.7643 6959.3682 2631972
459.35565 1624.1959 6944.1123 2895144
504.70898 1637.8473 7002.4771 2763558
549.88379 1648.889 7049.6855 2566179
589.19244 1642.0234 7020.3315 2631972
633.90448 1650.1288 7054.9858 2697765
673.48145 1644.6912 7031.7373 2763558
708.14923 1628.597 6962.9282 2829351
761.06665 1653.9347 7071.2578 2829351
802.28088 1652.522 7065.2178 2961194
886.13593 1734.7245 7416.6675 2960681
915.82306 1708.1283 7302.958 2829095
966.09125 1720.5868 7356.2231 2828838
941.24475 1603.9672 6857.626 2828837
971.16968 1586.4729 6782.8306 2697251
1086.1118 1703.7314 7284.1592 2763044
1129.4902 1704.0585 7285.5576 2894631
1257.6462 1827.5566 7813.5635 2960677
1323.4771 1854.9324 7930.606 3157799
1388.6964 1879.6031 8036.0835 3288871
1414.1552 1850.6061 7912.1094 3683626
1449.0198 1835.384 7847.0288 4736313
1502.5673 1844.037 7884.0239 4275503
1572.3776 1871.5248 8001.5459 6644307
1599.3911 1847.9559 7900.7788 7039065
1648.1995 1850.1934 7910.3447 7368030
1690.1378 1844.8081 7887.3208 7565407
1744.2247 1852.6162 7920.7041 7631200
1788.382 1849.745 7908.4277 7762785
1818.0035 1832.3698 7834.1411 7828579
1838.4197 1806.8125 7724.874 7828579
1929.4098 1850.1726 7910.2563 7631200
1960.4301 1835.333 7846.8105 7893345
2018.5392 1845.9537 7892.2183 7828063
2097.3667 1874.6113 8014.7417 7959136
2098.8506 1834.4012 7842.8271 8090720
2136.9666 1827.2562 7812.2793 8222047
2182.2122 1826.3813 7808.5391 8551267
2229.6599 1827.3479 7812.6709 9537647
2277.7991 1828.83 7819.0078 9602925
2322.1279 1827.2546 7812.272 9208428
2368.4187 1827.2546 7812.272 8616547
2437.0115 1844.1309 7884.4253 8748392
2472.9492 1836.1265 7850.2026 8748650
2518.0891 1835.1239 7845.9165 8551272
2575.3979 1842.8651 7879.0137 8419686
2640.0273 1855.476 7932.9307 8222308
2709.5938 1871.0548 7999.5361 8090722
2781.2856 1887.5404 8070.0186 8024929
2836.9438 1892.7712 8092.3833 7959136
2906.9089 1907.2147 8154.1353 7827550
2937.0327 1895.4738 8103.9375 7827550
2992.8772 1900.4427 8125.1821 7761757
3062.0601 1913.5901 8181.3921 7761757
3118.7832 1918.6626 8203.0791 7761757
3166.425 1918.078 8200.5801 7827550
3257.3933 1943.3599 8308.6709 7827550
3313.4197 1947.353 8325.7432 7958622
3320.2366 1922.7319 8220.4775 7958623
3438.6416 1962.5085 8390.5391 8024416
3490.8877 1963.9314 8396.6221 8221539
3547.9983 1968.0121 8414.0693 8287843
3572.8213 1954.3187 8355.5244 8222564
3554.8743 1917.9246 8199.9238 8222307
3630.2661 1932.1909 8260.918 8353893
3807.1528 1999.3788 8548.1748 8485479
3874.2395 2007.8967 8584.5928 8617065
3928.1377 2009.4474 8591.2217 8551015
3854.7334 1946.6694 8322.8203 8616808
4049.6228 2019.2565 8633.1602 8485222
4114.085 2025.8091 8661.1748 8747366
4166.7773 2026.4761 8664.0264 8813414
4247.3486 2040.5204 8724.0723 8879206
4307.8223 2044.6877 8741.8896 8813412
4305.3232 2019.2216 8633.0107 8747619
4371.9956 2026.4146 8663.7637 8616292
4430.2329 2029.5759 8677.2803 8484706
4491.1851 2033.8944 8695.7432 8682082
4550.9502 2037.5833 8711.5146 8418397
4726.7236 2092.5471 8946.5078 7958613
4882.1841 2137.3989 9138.2676 9208423
5022.8535 2174.8621 9298.4385 12038291
5212.9814 2232.6953 9545.6992 12893599
5176.21 2193.1499 9376.626 13025443
5235.8472 2194.8586 9383.9326 12894371
5157.4985 2139.2961 9146.3799 12763556
5214.186 2140.3191 9150.7529 13816503
5136.6758 2086.8022 8921.9463 13750972
5150.1978 2070.9812 8854.3047 13750714
5174.8237 2059.8997 8806.9258 13816246
5204.02 2050.8401 8768.1934 13684657
5209.667 2032.771 8690.9404 13618349
5223.1235 2018.0731 8628.1006 13354408
5279.2715 2019.995 8636.3174 12630683
5351.1831 2027.8538 8669.917 12827294
5386.3135 2021.7572 8643.8516 13024162
5326.125 1980.3344 8466.752 13155750
5409.0703 1992.4073 8518.3691 13287596
5485.354 2001.8264 8558.6387 13617593
5345.208 1932.8121 8263.5742 14078143
0 0 0 0
0 0 0 0
0 0 0 0
0 0 0 0
5224.6958 1806.4929 7723.5073 2431762
5209.5728 1785.6229 7634.2798 918272
5156.9062 1752.355 7492.0454 1182208
5092.6514 1715.7506 7335.5464 2300424
5001.1343 1670.6587 7142.7593 3485715
5043.9395 1670.8181 7143.4414 1117696
5000.3604 1642.5981 7022.7896 3223056
5023.3496 1636.5309 6996.8491 3354636
5108.5918 1650.6779 7057.3335 3749139
5095.9116 1633.2118 6982.6582 2499075
5063.1362 1609.6383 6881.8721 1445888
5121.2695 1615.1119 6905.2739 2235398
5169.4868 1617.396 6915.0396 2432003
5164.1543 1603.0216 6853.583 2695173
5018.3076 1545.5947 6608.0591 2564352
5134.5947 1569.1667 6708.8389 2761733
5145.25 1560.3425 6671.1123 1775360
5202.5649 1565.6953 6693.9976 1315072
5223.606 1560.1328 6670.2158 592128
5037.7437 1493.3224 6384.5732 920320
5053.8438 1486.9287 6357.2378 459264
5093.647 1487.552 6359.9023 4535826
5088.0938 1475.0175 6306.312 3810816
4932.5542 1419.5022 6068.9614 3217920
4937.2378 1410.5662 6030.7563 6113313
5073.8149 1439.1698 6153.0483 1048832
5089.1602 1433.2235 6127.626 851968
5064.0605 1416.0522 6054.2114 655360
5068.3457 1407.2812 6016.7119 524288
5117.0669 1410.8849 6032.1187 459008
5206.9248 1425.7021 6095.4688 327680
5242.4199 1425.5326 6094.7441 393984
5153.3926 1391.7368 5950.2529 722688
5130.5479 1376.1522 5883.6221 788736
5116.3335 1363.0773 5827.7212 854016
5140.04 1360.2126 5815.4736 919808
5116.6763 1345.0128 5750.4883 393984
5162.3906 1348.0524 5763.4839 393984
5221.4575 1354.516 5791.1182 327936
5247.6523 1352.4233 5782.1714 327680
5302.8257 1357.7777 5805.0635 393984
5397.6836 1373.1587 5870.8237 788736
5388.6548 1362.0835 5823.4727 262400
5493.6338 1379.7833 5899.147 722432
5510.9653 1375.385 5880.3423 262144
5573.4214 1382.2333 5909.6211 985344
5655.6094 1393.8586 5959.3247 1641984
5751.7603 1408.76 6023.0342 1181440
0 0 0 0
0 0 0 0
0 0 0 0
-6236.1895 1630.1068 6797.1865 1280
-5984.2915 1574.4305 6565.0283 1536
-6123.5483 1621.6091 6761.7529 1536
-5985.0186 1595.3627 6652.3115 1536
-6015.7212 1614.1777 6730.7661 1536
-5955.0923 1608.5737 6707.3989 1536
-6004.8535 1632.9133 6808.8887 1536
-5864.4668 1605.5248 6694.6851 1536
-5788.0737 1595.4021 6652.4761 1792
-5806.6562 1611.499 6719.5962 1792
-5765.2158 1611.045 6717.7036 1792
-5731.3062 1612.7041 6724.6211 1792
-5694.0449 1613.4365 6727.6753 1792
-5443.0962 1553.2029 6476.5142 1792
-4279.1787 1229.746 5127.77 1536
-4321.7783 1250.8699 5215.8521 1536
-4277.5425 1246.984 5199.6489 1536
-4275.2354 1255.3534 5234.5474 1536
-4279.4673 1265.7793 5278.021 1536
-4251.3257 1266.7126 5281.9131 1536
-4222.7163 1267.5197 5285.2778 1536
-4192.6533 1267.899 5286.8599 1536
-4162.8008 1268.3483 5288.7329 1536
-4128.9199 1267.5674 5285.4771 1536
-4208.7334 1301.9456 5428.8262 1536
-4175.1309 1301.4983 5426.9614 1536
-4194.356 1317.6396 5494.2676 1536
-4166.9341 1319.265 5501.0449 1536
-4116.7803 1313.6622 5477.6826 1536
-4074.2766 1310.4312 5464.2095 1536
-4074.832 1321.1085 5508.7314 1536
-4063.2622 1327.9954 5537.4482 1536
-4029.0161 1327.5226 5535.4771 1536
-4022.134 1336.1324 5571.3784 1536
-4012.3169 1343.9016 5603.7739 1536
-4019.324 1357.4827 5660.4038 1536
-3989.0688 1358.6016 5665.0693 1792
-3955.0178 1358.4354 5664.377 1792
-3921.0708 1358.3027 5663.8237 1792
-3888.3196 1358.5856 5665.0024 1792
-3878.9263 1367.1056 5700.5293 1792
-3860.8777 1372.6979 5723.8481 1792
-3888.6755 1394.8341 5816.1514 1792
-3852.5649 1394.238 5813.6655 1792
-3817.4419 1393.9915 5812.6377 1792
-3783.947 1394.3406 5814.0933 1792
-3765.7898 1400.3998 5839.3589 1792
-3733.5991 1401.3042 5843.1304 1536
-3737.0076 1415.7118 5903.207 1536
-4015.5212 1535.5962 6403.0981 1536
-4008.7126 1547.6152 6453.2148 1536
-3973.4578 1548.7778 6458.063 1792
-4209.1699 1656.608 6907.6909 1792
-4210.5039 1673.4056 6977.7334 1792
-4127.2261 1656.5751 6907.5532 1792
-3907.0042 1583.8907 6604.4756 1792
-3850.7886 1576.8956 6575.3081 1792
-3830.3398 1584.5542 6607.2427 1792
-3793.1235 1585.3627 6610.6133 1792
-3774.5874 1594.0769 6646.9502 1536
-3770.2214 1609.0225 6709.2695 1536
-3747.7776 1616.4891 6740.4038 1536
-3687.0801 1607.4395 6702.6685 1536
-3634.0125 1601.5552 6678.1323 1536
-3617.9958 1612.0499 6721.8936 1536
-3596.0439 1620.1044 6755.479 1536
-3502.4016 1595.6782 6653.6274 1536
-3511.9966 1618.2661 6747.8135 1536
-3508.804 1635.4138 6819.3159 1536
-3520.0547 1659.7716 6920.8828 1536
-3508.3306 1673.7427 6979.1387 1536
-3415.9678 1649.1176 6876.457 1536
-3361.5071 1642.4164 6848.5146 1536
-3318.821 1641.3749 6844.1724 1536
-3289.7507 1647.125 6868.1484 1536
-3332.9695 1689.6663 7045.5361 1536
-3218.2271 1652.1918 6889.2759 1536
-3150.6135 1638.2604 6831.1851 1536
-3120.2129 1643.5685 6853.3184 1536
-3122.6819 1666.5586 6949.1831 1536
-3068.7078 1659.6376 6920.3232 1536
-3016.877 1653.7036 6895.5806 1536
-3095.2119 1719.937 7171.7593 1536
-2956.2561 1665.5903 6945.145 1536
-3074.4995 1756.6636 7324.9009 1536
-3013.6628 1746.5601 7282.7715 1536
-3030.0706 1781.5801 7428.7969 1536
-2978.54 1777.0981 7410.1079 1536
-2975.2913 1801.7198 7512.7749 1536
-2989.2722 1837.6813 7662.7266 1536
-3018.9109 1884.5266 7858.061 1280
-2951.0437 1871.0187 7801.7363 1280
-2726.4995 1756.1637 7322.8164 1280
-2651.6401 1735.5668 7236.9316 1280
-2585.9915 1720.4202 7173.7734 1024
-2600.304 1758.8534 7334.0317 1024
-2455.8474 1689.3759 7044.3257 1024
-2434.2227 1703.4528 7103.0234 1280
-2368.4282 1686.5715 7032.6318 1280
-2183.8662 1582.9956 6600.7437 1280
-2120.6021 1565.1697 6526.4131 1024
-2146.6421 1613.8191 6729.27 1280
-2102.8164 1610.7915 6716.6465 1024
-2072.6084 1618.2802 6747.8721 1024
-1999.9482 1592.2649 6639.394 1280
-1912.8536 1553.4829 6477.6816 1280
-1866.2614 1546.6792 6449.3115 1280
-1810.3065 1531.6696 6386.7251 1280
-1789.2578 1546.1832 6447.2437 1024
-1759.1017 1553.2882 6476.8701 1024
-1690.0811 1525.6272 6361.5298 1024
-1623.5186 1498.9739 6250.3911 1024
-1588.562 1500.9387 6258.584 1024
-1561.9404 1511.061 6300.792 1280
-1532.8483 1519.2302 6334.856 1280
-1501.3706 1525.3861 6360.5244 1024
-1468.4891 1530.3959 6381.4141 1024
-1464.2979 1566.3605 6531.3784 1024
-1406.2362 1545.0881 6442.6777 768
-1368.0538 1545.0804 6442.6455 768
-1313.5529 1526.1128 6363.5547 768
-1279.1296 1530.0403 6379.9312 66048
-1221.6693 1505.8119 6278.9038 66048
-1189.8441 1512.6511 6307.4224 131328
-1169.151 1534.5453 6398.7163 197376
-1146.1082 1554.7198 6482.8394 2171158
-1068.5286 1499.7476 6253.6172 2566430
-1053.8452 1532.2759 6389.2534 2631969
-1003.085 1512.8186 6308.1206 2566176
-973.87152 1525.6086 6361.4526 2566177
-941.43335 1534.174 6397.168 2434593
-900.62567 1529.2467 6376.6221 2369057
-857.48541 1519.7535 6337.0381 2171680
-819.07056 1518.1498 6330.3506 1974301
-786.43719 1527.6222 6369.8481 2040094
-747.21252 1524.6008 6357.25 2237473
-708.61511 1522.6066 6348.9341 2171680
-679.10944 1541.0193 6425.7114 2369059
-641.03455 1541.0193 6425.7114 2565668
-593.92566 1517.9305 6329.4365 2500132
-560.01385 1527.7317 6370.3047 2697511
-523.60925 1531.6571 6386.6733 2565925
-484.37488 1527.2719 6368.3877 2500389
-448.37198 1533.1957 6393.0889 2500645
-412.13547 1539.3402 6418.71 2500645
-375.83722 1546.4802 6448.4819 2434852
-336.09372 1539.4553 6419.1899 2434852
-297.16388 1534.8402 6399.9458 2369059
-259.18634 1534.5127 6398.5806 2303266
-222.85889 1545.5164 6444.4634 2303266
-185.54039 1552.7769 6474.7378 2434339
-147.74097 1558.7484 6499.6377 2434339
-108.86102 1553.5115 6477.8008 2368546
-70.53701 1554.8242 6483.2749 2368546
-32.243519 1560.7546 6508.0034 2302753
6.3123727 1559.1136 6501.1611 2500132
44.805309 1558.1034 6496.9482 2631718
83.318665 1558.4088 6498.2217 2500132
121.97961 1560.4092 6506.563 2566180
161.06406 1565.5652 6528.0625 2697510
199.93832 1567.077 6534.3662 2697510
240.16571 1576.983 6575.6724 2697764
279.91962 1581.4484 6594.292 2829351
319.65179 1584.7125 6607.9023 2960937
360.36685 1591.6051 6636.6426 2895144
400.3454 1594.2084 6647.498 2960937
440.48352 1596.9238 6658.8208 2960937
481.00372 1600.4641 6673.5835 3026730
527.11469 1620.6559 6757.7783 2763558
564.25348 1612.3584 6723.1797 2895144
611.52856 1632.2096 6805.9551 2829351
648.32544 1623.3678 6769.0869 2829351
689.85266 1626.7107 6783.0259 2829351
734.92542 1637.5861 6828.373 2828838
780.97253 1649.384 6877.5684 2894631
811.34637 1628.5518 6790.7026 2829608
856.46002 1637.8767 6829.5854 2829351
894.12683 1632.7612 6808.2554 2763815
934.65839 1633.0933 6809.6392 2763301
976.43518 1635.4833 6819.6055 2763045
1013.9883 1630.8901 6800.4526 2763045
1088.5697 1683.9276 7021.6079 2828839
1125.7052 1677.2671 6993.8345 3026216
1220.9149 1754.5359 7316.0283 3092009
1264.2654 1754.5359 7316.0283 3026216
1298.9506 1742.9091 7267.5474 3092010
1337.0839 1736.5065 7240.8501 3289129
1374.4241 1729.5042 7211.6519 3683628
1416.24 1728.3864 7206.9902 4275764
1525.5328 1807.2725 7535.9287 5262143
1610.4469 1853.6124 7729.1558 5986376
1648.1951 1844.6027 7691.5874 6644307
1694.9772 1845.9166 7697.0664 7302236
1729.2949 1833.9429 7647.1382 7630944
1798.1942 1858.3184 7748.7788 7894372
1815.0446 1829.0304 7626.6538 7894372
1867.7448 1836.4135 7657.4395 7960164
1901.5177 1825.2781 7611.0078 8025187
1941.9965 1820.9464 7592.9463 7959649
1971.3467 1806.6125 7533.1768 8024929
2041.9606 1829.8916 7630.2451 8156515
2087.095 1829.8232 7629.96 8287587
2110.9089 1811.4619 7553.3975 8222049
2138.0532 1796.6616 7491.6831 8353634
2156.7063 1775.4729 7403.3315 8616804
2220.1292 1791.2504 7469.1201 9208941
2222.4546 1758.08 7330.8066 8682596
2249.7874 1745.5841 7278.7017 8419939
2369.7905 1804.1078 7522.7324 8156514
2401.6736 1794.6238 7483.186 8156515
2455.9248 1801.8948 7513.5049 8156515
2522.9021 1818.078 7580.9849 8024929
2582.021 1828.1309 7622.9028 7827550
2636.2036 1834.4031 7649.0571 7761757
2692.8159 1842.1255 7681.2578 7827293
2735.6362 1840.3131 7673.7002 7827550
2785.3108 1843.0955 7685.3022 7827550
2838.6658 1848.1844 7706.5225 7827293
2896.9849 1856.2933 7740.3345 7695707
3007.4141 1897.0195 7910.1538 7827550
3049.3394 1893.9478 7897.3452 7761757
3025.1777 1850.5425 7716.3555 7893599
3143.356 1894.2048 7898.4175 8024416
3224.9216 1914.8468 7984.4897 8024415
3274.8401 1916.3727 7990.8521 7958622
3328.6042 1920.073 8006.2817 8024416
3392.3254 1929.3324 8044.8916 8156257
3409.6738 1912.3269 7973.9824 8287842
3450.3469 1908.6891 7958.8135 8287842
3428.6562 1871.1157 7802.1411 8287843
3608.0554 1942.8229 8101.1436 8287843
3545.3459 1883.9905 7855.8262 8485222
3727.2021 1954.9609 8151.7563 8617065
3799.7312 1967.5054 8204.0645 8682601
3846.7092 1966.6697 8200.5801 8748137
3943.8547 1991.1838 8302.7979 8616808
3944.5151 1966.98 8201.874 8682344
4016.6416 1978.5696 8250.1992 8748136
4081.8447 1986.5107 8283.3125 8616549
4140.7041 1991.2125 8302.918 8551269
4227.563 2009.1104 8377.5479 8551013
4327.9761 2032.9596 8476.9941 8616806
4399.1143 2042.6681 8517.4766 8551013
4391.3999 2015.9579 8406.1006 8419427
4444.5161 2017.4589 8412.3594 8353634
4485.1772 2013.3356 8395.166 8222305
4588.9175 2037.3075 8495.124 8484962
4510.4292 1980.7344 8259.2266 8484704
5292.2349 2299.115 9586.8037 8287581
5062.6636 2176.0249 9073.5449 8814437
4957.0518 2108.2419 8790.9053 11577741
5059.3008 2129.353 8878.9336 13945775
5099.2549 2124.0808 8856.9492 13551273
5093.9331 2100.2483 8757.5732 12960165
5126.8491 2092.5034 8725.2783 13552561
5144.4023 2078.7056 8667.7441 13750455
5185.6567 2074.6624 8650.8857 13816761
5229.8794 2071.8745 8639.2607 13684917
5302.9678 2080.4651 8675.082 13750451
5387.8652 2093.4795 8729.3486 13486251
5455.5205 2099.6106 8754.9141 13090981
5531.833 2108.9263 8793.7588 12629661
5445.5864 2056.6736 8575.876 11840148
5444.7456 2037.3445 8495.2783 11182218
5616.6084 2082.4009 8683.1533 11313546
0 0 0 0
0 0 0 0
0 0 0 0
0 0 0 0
0 0 0 0
0 0 0 0
5216.8281 1817.626 7579.1006 14736584
5212.3774 1800.5753 7508.0024 11641742
5022.4316 1720.277 7173.1768 3878692
5109.1255 1735.2861 7235.7607 1576965
5164.688 1739.5596 7253.5806 2890247
5096.4214 1702.3986 7098.6279 4732696
5063.9058 1677.691 6995.6021 4404244
5071.4277 1666.5409 6949.1089 5260067
4883.1011 1591.7306 6637.1665 1576704
5052.418 1633.7643 6812.4375 1379328
5046.5107 1618.9197 6750.5386 1576704
5086.9761 1619.0679 6751.1567 2037248
5066.043 1599.8246 6670.916 2630145
5016.1055 1571.7905 6554.021 2498819
5174.3315 1608.9141 6708.8179 2367488
5123.1094 1580.8422 6591.7637 2171137
5136.2739 1572.9125 6558.6987 1052416
5022.2925 1526.4574 6364.9917 985856
5000.2251 1508.4229 6289.791 1313024
4990.7349 1494.421 6231.4067 4076298
5059.5576 1503.9028 6270.9438 4666636
5030.2427 1484.2885 6189.1562 3350531
4999.7549 1464.6145 6107.1201 6507298
5072.2676 1475.1792 6151.1724 1179648
5089.5396 1469.6418 6128.083 851968
5089.3613 1459.1798 6084.459 720896
5072.7275 1444.1803 6021.9141 589824
5125.2549 1448.9424 6041.771 458752
5141.2998 1443.3964 6018.645 854016
5120.8955 1427.7642 5953.4624 1248512
5079.5444 1406.5457 5864.9858 591616
5098.0024 1402.0643 5846.2998 920320
5089.3037 1390.2252 5796.9331 1051904
5121.4106 1389.6167 5794.396 920320
5120.8818 1380.2202 5755.2144 657664
5154.6333 1380.1263 5754.8232 328448
5188.4087 1380.0402 5754.4639 262656
5204.9722 1375.4069 5735.144 591616
5245.2959 1377.0715 5742.085 262656
5293.249 1380.7047 5757.2349 262656
5364.3892 1390.3009 5797.2485 591360
5425.9902 1397.3184 5826.5103 1577728
5305.9365 1357.7627 5661.5718 459520
5497.9424 1398.0568 5829.5889 1379840
5501.98 1390.3481 5797.4458 1839618
5629.6553 1413.7844 5895.1699 2300167
0 0 0 0
0 0 0 0
0 0 0 0
0 0 0 0
-5869.3848 1582.3525 6438.9702 1043
-5820.2114 1579.3621 6426.8018 1041
-5773.644 1577.0443 6417.3701 780
-5728.4766 1575.0806 6409.3794 772
-5684.4648 1573.4105 6402.583 1280
-5618.6318 1565.6376 6370.9526 1280
-5607.7656 1573.1794 6401.6431 1536
-5523.9126 1560.2095 6348.8647 1536
-5503.7905 1565.1854 6369.1133 1792
-5462.7734 1564.2469 6365.2944 1792
-5281.6113 1522.8862 6196.9878 1792
-4163.4346 1208.8787 4919.2158 1792
-4161.9473 1216.9668 4952.1284 1792
-5179.9536 1525.3898 6207.1748 1536
-5247.3574 1556.2892 6332.9121 1536
-4183.894 1249.8191 5085.8125 1536
-4191.4419 1261.1578 5131.9521 1536
-4166.4692 1262.8054 5138.6567 1536
-4141.7983 1264.5695 5145.835 1536
-4113.8516 1265.3521 5149.0195 1536
-4082.2747 1265.0215 5147.6743 1536
-4048.9929 1264.1536 5144.1426 1536
-4024.6375 1266.0807 5151.9844 1536
-3996.4878 1266.8342 5155.0513 1536
-3967.189 1267.2325 5156.6719 1536
-3981.2822 1281.6053 5215.1582 1536
-4004.5986 1299.1952 5286.7354 1536
-3944.9612 1289.9377 5249.0649 1536
-3925.8525 1293.8909 5265.1509 1536
-3943.498 1310.1178 5331.1821 1536
-3938.6384 1319.0697 5367.6099 1536
-3884.8704 1311.6545 5337.4351 1536
-3856.719 1312.8374 5342.2485 1536
-3823.4453 1312.2817 5339.9878 1536
-3851.0325 1332.7798 5423.3994 1536
-3829.8569 1336.605 5438.9648 1792
-3815.5269 1342.9043 5464.5981 1792
-3816.739 1354.8285 5513.1206 1792
-3783.7185 1354.702 5512.606 1792
-3749.0369 1353.9735 5509.6416 1792
-3713.9929 1353.1002 5506.0879 1792
-3700.197 1360.0212 5534.251 1792
-3687.2061 1367.3645 5564.1323 1792
-4046.0945 1513.9924 6160.7964 1792
-4127.1069 1558.3662 6341.3643 1792
-3882.4832 1479.4678 6020.3076 1792
-4162.5181 1600.8876 6514.394 1792
-4076.7981 1582.5961 6439.9609 1792
-4106.7173 1609.2737 6548.5186 1792
-4114.7812 1627.8141 6623.9639 1536
-4003.7312 1599.1361 6507.2666 1792
-4018.9336 1620.8175 6595.4937 1792
-3864.5598 1573.8639 6404.4277 1536
-3822.9473 1572.3569 6398.2959 1792
-3860.946 1603.8916 6526.6177 1792
-3748.5393 1572.9518 6400.7158 1792
-3778.8 1601.8568 6518.3374 1792
-3708.406 1588.25 6462.9683 1792
-3609.3657 1561.9626 6355.999 1536
-3565.6562 1559.318 6345.2368 1536
-3511.5134 1552.0055 6315.481 1536
-3509.4602 1567.8059 6379.7764 1536
-3456.9153 1561.1483 6352.6855 1536
-3417.5139 1560.3452 6349.417 1536
-3414.0537 1576.1167 6413.5947 1536
-3407.093 1590.6086 6472.5664 1536
-3365.2236 1588.9482 6465.8101 1536
-3306.1045 1579.0109 6425.3721 1536
-3323.2493 1605.6903 6533.9375 1536
-3222.4705 1575.3502 6410.4761 1536
-3182.4995 1574.3676 6406.4775 1536
-3182.9827 1593.6152 6484.8013 1536
-3199.959 1621.692 6599.0518 1536
-3117.9299 1599.6678 6509.4307 1536
-3035.999 1577.1432 6417.7725 1536
-2994.9321 1575.5447 6411.2671 1536
-3015.0527 1606.5073 6537.2617 1536
-3000.6233 1619.6271 6590.6489 1536
-3015.7651 1649.2648 6711.252 1536
-2891.6233 1602.5049 6520.9751 1024
-2822.1177 1585.1677 6450.4258 1280
-2806.5364 1598.059 6502.8833 1280
-2792.0364 1611.9336 6559.3428 1280
-2760.2844 1616.0992 6576.2935 1536
-3015.0212 1790.52 7286.0537 1536
-2947.729 1775.9884 7226.9204 1536
-2977.2041 1820.1893 7406.7847 1536
-2917.3025 1810.2526 7366.3501 1536
-2866.3582 1805.6567 7347.6479 1536
-2836.4346 1814.3652 7383.085 1280
-2782.1204 1807.5002 7355.1499 1280
-2782.6511 1836.6158 7473.6284 1280
-2706.2141 1815.051 7385.876 1280
-2632.3586 1794.5374 7302.4004 1280
-2580.156 1788.3456 7277.2056 1280
-2425.2183 1709.5261 6956.4697 1280
-2340.6436 1678.437 6829.9609 1280
-2244.5337 1637.8368 6664.749 1280
-2166.1521 1608.9502 6547.2026 1280
-2141.2808 1619.4807 6590.0542 1024
-2095.1917 1614.0571 6567.9839 1024
-1867.0334 1465.5144 5963.5278 1024
-1941.746 1553.5627 6321.8179 1024
-1963.4005 1601.7893 6518.0635 1024
-1881.6276 1565.8796 6371.9375 1024
-1846.6215 1568.2151 6381.4414 1024
-1747.6573 1515.1976 6165.7007 1024
-1714.7103 1518.374 6178.626 1280
-1677.8723 1518.1683 6177.7896 1280
-1613.573 1492.552 6073.5503 1024
-1574.4235 1489.5612 6061.3799 1024
-1543.8008 1494.6862 6082.2349 1024
-1503.0061 1489.9723 6063.0532 1024
-1464.4915 1487.3433 6052.355 1024
-1443.7427 1503.0784 6116.3848 1024
-1402.2535 1497.4751 6093.5835 1024
-1363.4832 1494.5555 6081.7031 1024
-1326.6118 1493.6156 6077.8784 768
-1287.415 1489.932 6062.8892 66048
-1246.8926 1484.4586 6040.6167 66048
-1224.2666 1500.5977 6106.29 256
-1195.6182 1510.1132 6145.0112 263425
-1160.254 1511.4779 6150.5645 2237464
-1125.5095 1513.7644 6159.8687 2434334
-1075.2783 1494.6769 6082.1973 2303005
-1046.2701 1504.7897 6123.3481 2368797
-1008.0948 1501.9708 6111.8779 2368797
-975.37378 1507.3708 6133.8521 2368799
-932.49487 1496.8834 6091.1758 2368799
-896.7287 1497.4285 6093.394 2105628
-867.43481 1509.2808 6141.6235 2040092
-836.9187 1519.9515 6185.0454 1908507
-798.05115 1515.7374 6167.8975 1842715
-760.01184 1512.7676 6155.8125 1776922
-722.79047 1511.2085 6149.4683 1711129
-686.65399 1511.8726 6152.1704 1908508
-649.94879 1511.2886 6149.7939 2040094
-612.53741 1508.8958 6140.0571 2105374
-574.62512 1504.8889 6123.752 2105374
-539.336 1507.6747 6135.0884 2171167
-500.38956 1499.9006 6103.4536 2302753
-464.72601 1501.5221 6110.0518 2434339
-429.56171 1505.1669 6124.8833 2434852
-393.68668 1506.7644 6131.3838 2632231
-356.51062 1503.2008 6116.8828 2698024
-322.50269 1513.7007 6159.6094 2500645
-285.8374 1512.816 6156.0098 2500645
-249.62312 1514.4089 6162.4917 2632231
-212.81262 1512.3108 6153.9536 2698024
-176.36096 1512.4222 6154.4067 2565925
-141.12764 1525.7632 6208.6948 2631718
-104.36573 1526.1595 6210.3071 2565925
-67.923752 1534.2139 6243.0825 2565925
-30.950649 1535.1895 6247.0522 2565925
6.0187678 1523.3256 6198.7754 2565925
43.138039 1537.1886 6255.1875 2565925
80.00209 1533.3468 6239.5542 2631718
117.4529 1539.625 6265.1016 2566179
154.82954 1542.1489 6275.3721 2565925
192.87523 1549.0688 6303.5308 2631718
230.86232 1553.349 6320.9482 2565925
269.38879 1559.557 6346.2095 2829351
307.61658 1562.7266 6359.1074 2829351
345.92432 1565.5664 6370.6636 2763558
382.45129 1560.5812 6350.377 3026730
422.82114 1570.7649 6391.8174 2960937
464.58698 1584.0341 6445.813 3026730
501.88104 1581.1986 6434.2749 2960937
544.33514 1593.8728 6485.8491 2829351
579.36542 1584.5713 6447.9985 2829351
623.54663 1599.8997 6510.374 2895144
665.4588 1607.9597 6543.1719 2829351
701.30408 1601.2795 6515.9888 2895144
742.79828 1607.5216 6541.3896 2895144
778.18195 1600.5765 6513.1279 2895144
816.74585 1600.5199 6512.897 2829607
862.59479 1614.1 6568.1577 2763301
894.22302 1601.0463 6515.0396 2828838
954.0777 1637.5192 6663.4565 2697252
987.75055 1627.9423 6624.4858 2763045
1010.4933 1601.7717 6517.9917 2894631
1053.3066 1608.1714 6544.0332 2960423
1092.3079 1608.5028 6545.3823 2960423
1150.3198 1635.8466 6656.6499 2960423
1172.5197 1612.1379 6560.1743 2960423
1290.9504 1718.0164 6991.0186 2960676
1315.1019 1695.7438 6900.3867 2959908
1352.0909 1690.8685 6880.5479 3222823
1393.6052 1691.772 6884.2236 3223078
1434.0869 1691.406 6882.7354 3617579
1519.7161 1742.8365 7092.0181 4538679
1590.458 1774.8855 7222.4331 5130814
1632.3102 1773.8602 7218.2607 6052169
1663.4565 1761.5498 7168.167 6710098
1714.0669 1769.9513 7202.3545 7236441
1785.514 1798.9379 7320.3076 7631199
1813.8015 1784.0968 7259.9155 7893602
1853.2853 1780.7012 7246.0977 7959648
1894.1652 1778.7701 7238.2402 7959136
1945.2784 1786.3219 7268.9702 7959136
1988.5219 1786.4762 7269.5981 8024416
2022.9601 1778.8813 7238.6924 8090464
2060.5996 1774.3584 7220.2881 8090464
2085.4363 1759.2194 7158.6831 8024671
2147.3052 1775.3003 7224.1206 8221791
2170.2935 1759.2363 7158.7524 8090718
2193.2932 1743.7974 7095.9277 8945771
2279.3967 1778.1664 7235.7837 8485222
2304.5676 1764.6105 7180.6216 8353893
2376.4983 1786.7008 7270.5122 8288101
2396.894 1769.9495 7202.3472 7695964
2450.9463 1778.2026 7235.9312 7893343
2513.2893 1792.0836 7292.416 7893343
2560.0647 1794.5826 7302.585 7893342
2618.8354 1805.2675 7346.064 7827550
2678.8909 1816.4739 7391.666 7630171
2739.7051 1827.826 7437.8608 7564378
2764.8176 1815.3771 7387.2031 7432792
2804.0027 1812.412 7375.1372 7301206
2845.2278 1810.8365 7368.7261 7564121
2911.7791 1825.1837 7427.1084 7564377
2938.6106 1814.577 7383.9468 7629657
3040.9583 1850.2283 7529.0205 7892830
3136.0061 1880.4712 7652.0864 7958622
3048.5581 1801.9802 7332.6875 6445383
3054.5681 1780.1611 7243.9009 8024159
3274.5066 1881.8938 7657.8755 8024416
3319.9666 1881.9417 7658.0693 8090465
3384.8887 1892.8712 7702.5449 8156001
3292.3491 1816.6272 7392.29 8222049
3281.5686 1786.9052 7271.3442 8222050
3579.1672 1923.6989 7827.9897 8222050
3585.4004 1902.3951 7741.2998 8419428
3633.0164 1903.3096 7745.0205 8551271
3743.5527 1936.7537 7881.1128 8879465
3769.5876 1926.1946 7838.1455 8813415
3861.8457 1949.3199 7932.248 8813928
3932.2832 1961.0071 7979.8057 8616806
3995.9089 1969.0602 8012.5757 8748391
3999.4246 1947.6514 7925.458 8551013
4043.3511 1946.1906 7919.5137 8484963
4132.8745 1966.4586 8001.9893 8748135
4135.019 1945.1627 7915.3311 8551013
4213.5737 1959.8859 7975.2432 8682598
4285.229 1971.1088 8020.9116 8551013
4371.1133 1988.5585 8091.9194 8419427
4372.7197 1967.7051 8007.062 8287841
4451.1411 1981.4949 8063.1753 8418914
4534.8887 1997.3373 8127.6421 8550496
4505.1055 1963.369 7989.4175 8681825
4593.853 1981.2269 8062.0854 8550239
4696.2729 2004.5533 8157.0059 8813409
4640.2158 1960.4491 7977.5352 9997685
4851.9897 2029.2495 8257.501 11970960
4758.2686 1970.1846 8017.1514 13023905
4683.5132 1920.0625 7813.1929 10853248
4965.5356 2015.7554 8202.5898 9604466
5232.5879 2103.5747 8559.9482 13157801
5360.0864 2134.144 8684.3418 13750195
5357.2876 2112.7468 8597.2715 13881783
5367.0249 2096.6499 8531.7695 13684405
5533.2725 2141.4243 8713.9668 13289906
5663.3364 2171.4968 8836.3389 13486255
5663.8159 2151.7871 8756.1348 13222825
5703.896 2147.3433 8738.0527 12893603
5713.7339 2131.6968 8674.3828 13091237
5712.127 2112.0972 8594.6279 12630686
