# .PCD v0.7 - Point Cloud Data file format
VERSION 0.7
FIELDS x y z rgb
SIZE 4 4 4 4
TYPE F F F U
COUNT 1 1 1 1
WIDTH 1303
HEIGHT 1
VIEWPOINT 0 0 0 1 0 0 0
POINTS 1303
DATA ascii
-1290.8988 1144.6897 2950.5669 1049344
-1278.3754 1149.1481 2962.0591 983552
-1260.442 1148.8 2961.1619 1180928
-1242.2949 1148.2445 2959.7297 1049344
-1225.8458 1149.265 2962.3604 851968
-1205.6714 1146.7717 2955.9336 786432
-1188.5352 1147.1375 2956.8762 852224
-1170.1512 1146.2917 2954.6965 786432
-1152.2925 1145.9426 2953.7966 917760
-1131.9609 1143.0858 2946.4326 720896
-1113.4624 1142.0194 2943.6838 720896
-1097.0913 1143.1357 2946.5615 1049344
-1077.7521 1141.1456 2941.4316 1114624
-1059.8938 1140.6837 2940.241 1180416
-1040.9796 1139.051 2936.0327 720896
-1024.8784 1140.4933 2939.75 720896
-1006.0276 1138.8727 2935.5728 983040
-987.92609 1138.0581 2933.4731 852224
-968.94604 1136.1842 2928.6431 851968
-950.91345 1135.3733 2926.5527 786432
-931.49731 1132.8496 2920.0476 851968
-915.35693 1134.2897 2923.7595 852224
-897.42078 1133.517 2921.7678 1049344
-877.78864 1130.5295 2914.0676 1115136
-860.68042 1130.7383 2914.6055 917760
-845.23047 1133.1786 2920.8958 917504
-824.45056 1128.4259 2908.645 851968
-806.95239 1128.0579 2907.6965 917504
-788.78705 1126.7207 2904.2498 917504
-771.53967 1126.6646 2904.105 1049088
-753.88977 1126.0044 2902.4036 1114624
-736.21289 1125.2723 2900.5166 1246208
-719.64856 1126.2465 2903.0273 1180416
-699.16351 1120.9819 2889.4575 1180416
-683.82654 1123.9144 2897.0164 1049088
-665.38013 1121.7557 2891.4521 1180416
-647.17957 1119.9084 2886.6907 1180416
-629.89807 1119.5944 2885.8809 1048832
-612.38281 1118.8357 2883.9253 917504
-595.19897 1118.6564 2883.4631 983040
-577.16412 1116.8198 2878.729 786432
-560.02319 1116.6537 2878.301 917504
-542.11365 1114.8964 2873.7712 786432
-524.93536 1114.5779 2872.9502 917504
-506.90649 1112.3713 2867.2627 786432
-490.57025 1113.855 2871.0869 983040
-470.30173 1106.1962 2851.3455 1114112
-453.96964 1107.5704 2854.8877 1179904
-436.89133 1107.16 2853.8298 1245440
-420.11023 1107.5 2854.7063 1311488
-402.54077 1105.7031 2850.0745 1508864
-384.13315 1101.3458 2838.843 1508864
-364.23325 1092.1149 2815.0493 1114112
-351.42572 1104.2843 2846.4175 1245440
-330.69092 1091.515 2813.5032 1245440
-312.53888 1086.3674 2800.2349 1245696
-299.96411 1101.1158 2838.2505 1245696
-282.65854 1099.2189 2833.3608 917504
-265.51675 1097.7595 2829.5991 1179904
-249.95436 1103.0735 2843.2964 1245696
-232.82574 1101.7439 2839.8694 1048576
-215.50577 1099.2313 2833.3928 1114112
-198.79388 1099.6578 2834.4924 1311232
-182.22534 1101.0292 2838.0271 1245440
-165.00336 1098.3298 2831.0691 1442816
-148.06813 1097.1442 2828.0129 1377280
-130.08234 1086.8782 2801.5513 1377280
-114.39615 1095.6333 2824.1187 1179904
-98.065422 1100.158 2835.7812 1377024
-81.490784 1103.2515 2843.7551 983040
-64.745918 1105.0526 2848.3977 1114112
-47.903831 1105.8794 2850.5288 917504
-31.029644 1106.462 2852.0308 851968
-14.112068 1105.0409 2848.3677 851968
2.7535634 1100.2102 2835.916 851968
19.625498 1104.035 2845.7751 786432
36.038345 1090.434 2810.7166 1180416
53.180191 1100.5165 2836.7056 1311488
70.337181 1105.9944 2850.8252 1114112
87.179436 1105.3601 2849.1904 1114112
103.33223 1097.608 2829.2087 1114112
120.39806 1100.3647 2836.3145 1180160
137.33913 1101.4456 2839.1003 1114112
154.22893 1101.9242 2840.334 1048576
171.29636 1103.4529 2844.2744 1179904
187.57307 1100.0704 2835.5557 1245696
204.70952 1101.8717 2840.1985 1377024
221.96111 1103.9718 2845.6121 1377024
237.74261 1098.9801 2832.7451 1180160
253.31136 1093.7279 2819.2073 1179648
271.00488 1097.7322 2829.5288 1311232
287.91275 1098.2732 2830.9231 1245184
303.46884 1093.8818 2819.6038 1376768
321.42804 1098.1589 2830.6287 1376768
337.93872 1097.3083 2828.4363 1310976
356.28494 1102.2167 2841.0881 983040
371.1543 1096.4113 2826.124 1180160
389.15344 1099.9536 2835.2546 1179648
406.23938 1100.7284 2837.2515 1508352
420.87726 1095.0719 2822.6714 1179648
438.48221 1097.2728 2828.3445 1310720
455.58612 1098.1039 2830.4868 983040
471.45291 1096 2825.064 1310976
487.96649 1095.4926 2823.7559 1507840
500.73383 1086.8872 2801.5745 1573888
516.09924 1084.2925 2794.8862 1837057
537.2854 1093.7079 2819.1555 1705216
553.8576 1093.4465 2818.4817 1968387
570.11633 1092.5995 2816.2986 2165766
583.08856 1085.6814 2798.4666 1967616
604.67383 1094.7396 2821.8149 1836288
613.6521 1081.1 2786.6572 1836288
631.56049 1083.4955 2792.832 1704704
648.17993 1083.6139 2793.1372 2164736
668.82489 1090.2886 2810.3418 1967360
686.5036 1091.921 2814.5496 1966848
707.22327 1098.198 2830.7292 2098432
718.2016 1089.408 2808.072 2361088
737.8656 1093.8927 2819.6318 2689280
754.69037 1094.0629 2820.0703 3017216
767.44696 1088.4556 2805.6172 4200453
781.74756 1085.2297 2797.302 4791045
792.85687 1077.7996 2778.1499 7488034
806.90894 1074.5907 2769.8787 7553565
827.96497 1080.6511 2785.5002 8671786
847.58252 1084.6338 2795.7661 8474407
866.28406 1087.3142 2802.6753 8276517
883.63263 1088.2275 2805.0295 7881502
900.78259 1088.8671 2806.6777 8210467
915.33899 1086.405 2800.3318 8013344
936.1394 1091.3097 2812.9741 8802603
942.04156 1078.979 2781.1902 8736809
968.57587 1090.2972 2810.3643 8802859
976.77802 1080.9457 2786.2595 8671273
987.20367 1074.3247 2769.1931 8342051
1011.9739 1083.2756 2792.2651 8737066
1014.7177 1068.7393 2754.7959 8737065
1037.196 1075.1193 2771.2415 8539430
1045.21 1066.541 2749.1299 8539687
1061.5007 1066.5422 2749.1328 8407844
1081.9285 1070.637 2759.6875 8539430
1102.5161 1074.7656 2770.3298 7881500
1116.2859 1072.2246 2763.78 8342307
1132.5359 1072.1049 2763.4712 7881756
1153.5621 1076.4454 2774.6597 8671017
1159.0647 1066.3817 2748.7192 8473896
1184.7086 1074.8708 2770.6008 7487001
1198.8647 1072.8477 2765.386 8868654
1211.708 1069.7201 2757.3242 8144674
1223.2234 1065.519 2746.4956 8605481
1236.9248 1063.3074 2740.7949 8079138
1259.3483 1068.5538 2754.3181 7947295
1278.713 1071.1038 2760.8909 7684895
1293.8534 1070.0956 2758.2922 7882273
1306.2594 1066.8794 2750.002 8342567
1324.2666 1068.2606 2753.5625 8342567
1346.5413 1073.0089 2765.8018 8868654
1358.4102 1069.4507 2756.6299 7750430
1369.3119 1065.2246 2745.7368 7487258
1373.843 1056.2002 2722.4753 8342310
1407.8845 1069.8094 2757.5544 7881756
1428.0472 1072.6812 2764.9565 8013086
1435.115 1065.7629 2747.1243 7684121
1451.3364 1065.7214 2747.0173 6829069
1450.4222 1053.2378 2714.8394 8408101
1475.6458 1059.8 2731.7542 8013342
1493.6273 1061.0751 2735.0408 8276001
1504.3143 1057.1963 2725.0427 7486742
1528.6757 1062.9078 2739.7649 8474153
1540.9117 1060.1571 2732.6746 8079651
1560.8557 1062.7115 2739.2588 8342823
1583.5408 1067.0604 2750.4685 9527097
1598.8815 1066.422 2748.8232 8079136
1614.6342 1066.0688 2747.9126 8210722
1640.5293 1072.3522 2764.1086 7749914
1647.7379 1066.4174 2748.8113 7684377
1661.7246 1064.9427 2745.0103 8210721
1675.4314 1063.319 2740.8247 6499851
1696.299 1066.2274 2748.3215 8078623
1714.5352 1067.4421 2751.4526 7749915
1737.8204 1071.7482 2762.5518 7684377
1765.3495 1078.5663 2780.1265 8276514
1774.6171 1074.2045 2768.8833 8473637
1797.0878 1077.8416 2778.2583 7947806
1798.5018 1068.8979 2755.2051 8737579
1824.1354 1074.3801 2769.3359 8474152
1831.8914 1069.3289 2756.3157 8342566
1856.3553 1074.0336 2768.4429 7618586
1863.9928 1069.0059 2755.4834 8604971
1889.6575 1074.3143 2769.1665 8342056
1902.6287 1072.3771 2764.1729 8342055
1922.8389 1074.5181 2769.6917 8210725
1955.8928 1083.7395 2793.4609 8671019
1969.8483 1082.3126 2789.783 8144675
1973.2321 1075.1494 2771.3188 7618329
1971.6978 1065.4468 2746.3093 8013090
1999.4371 1071.5922 2762.1497 7881505
2005.5266 1066.1287 2748.0671 7354904
2019.8298 1065.0845 2745.3755 8671020
2039.3612 1066.7919 2749.7766 7816482
2068.1626 1073.2828 2766.5078 7816482
2080.9604 1071.432 2761.7371 7882018
2084.1685 1064.7108 2744.4126 7553309
2129.4495 1079.421 2782.3293 8737328
2140.8904 1076.8829 2775.7874 8211241
2100.5193 1048.5206 2702.6804 7947812
2153.3965 1066.7822 2749.7517 7882020
2179.3611 1071.5374 2762.0085 7816484
2180.1606 1063.9408 2742.4275 7684641
2178.0396 1055.0417 2719.4893 6829332
2201.8601 1058.7474 2729.041 7750690
2203.0686 1051.6053 2710.6316 7158554
2191.7966 1038.6526 2677.2441 7487519
2240.6321 1054.1649 2717.2292 8144678
2254.1865 1052.9756 2714.1636 7750691
2285.5254 1060.0516 2732.4028 6895638
2279.9312 1050.0187 2706.5417 7685152
2296.8381 1050.4164 2707.5669 7948068
2338.1621 1061.8978 2737.1616 7750948
2340.8223 1055.7823 2721.3984 6434830
2355.2024 1055.0007 2719.3835 5711110
2332.9934 1037.9509 2675.4358 8079914
2386.9165 1054.774 2718.7993 6961433
2363.9126 1037.6056 2674.5457 7224348
2379.6699 1037.5663 2674.4441 6566675
2403.5752 1041.0564 2683.4404 8079657
2460.8018 1058.8383 2729.2751 7290141
2452.3647 1048.3185 2702.1594 6961946
2457.1877 1043.5668 2689.9114 7554083
2461.1543 1038.5149 2676.8896 7488547
2463.6484 1032.9105 2662.4436 7817511
2468.1213 1028.2018 2650.3062 7949097
2503.9817 1036.5455 2671.8132 8146477
2499.634 1028.2446 2650.4167 7422497
2514.394 1027.8584 2649.4211 7421726
2534.9524 1029.8325 2654.5098 6632469
0 0 0 0
0 0 0 0
0 0 0 0
0 0 0 0
0 0 0 0
0 0 0 0
0 0 0 0
0 0 0 0
-2503.7251 1110.7533 2820.0208 1280
-2479.1924 1107.2593 2811.1501 1024
-2466.7974 1109.1758 2816.0159 1024
-2450.8887 1109.5277 2816.9092 1024
-2433.4192 1109.1731 2816.0088 1024
-2414.8418 1108.3049 2813.8047 1024
-2401.6655 1109.9209 2817.9075 1024
-2378.4165 1106.8718 2810.1665 1024
-2365.8352 1108.7794 2815.0093 1024
-2347.6206 1108.0551 2813.1702 1280
-2329.6614 1107.4418 2811.6135 1280
-2313.9819 1107.9113 2812.8052 1024
-2297.4082 1107.9562 2812.9194 1024
-2280.5771 1107.8768 2812.718 768
-2261.9006 1106.8932 2810.2205 1280
-2244.4353 1106.4921 2809.2021 1280
-2229.5095 1107.3463 2811.3711 1280
-2217.8069 1109.8263 2817.6672 1024
-2196.3735 1107.4376 2811.6028 1024
-2178.2551 1106.6965 2809.7212 1024
-2155.866 1103.7576 2802.2595 1024
-2137.3406 1102.7664 2799.7434 1024
-2120.1482 1102.4531 2798.948 1024
-2107.8369 1104.6927 2804.634 1024
-2091.0723 1104.6157 2804.4385 1024
-2077.9507 1106.4771 2809.1641 1024
-2061.2471 1106.4459 2809.085 1024
-2043.9656 1106.1014 2808.2104 1024
-2023.3883 1103.9531 2802.7563 1024
-2008.8506 1105.0918 2805.647 1024
-1991.6901 1104.7943 2804.8921 1024
-1975.0233 1104.7683 2804.8259 1024
-1960.0282 1105.6848 2807.1528 1024
-1942.6526 1105.2627 2806.0808 1024
-1926.9739 1105.8069 2807.4626 1024
-1907.6249 1104.2361 2803.4746 1024
-1895.0486 1106.5925 2809.4573 1024
-1875.587 1104.9346 2805.2478 1024
-1865.5051 1108.8219 2815.1172 1024
-1851.9735 1110.7106 2819.9124 1280
-1833.7971 1109.8226 2817.658 1280
-1822.418 1113.0698 2825.9021 1280
-1803.3936 1111.6644 2822.334 1280
-1784.4512 1110.2839 2818.8289 1280
-1769.0527 1111.103 2820.9087 1280
-1752.297 1111.0771 2820.843 1280
-1739.8375 1113.8013 2827.759 1280
-1729.137 1117.7152 2837.696 1280
-1715.4928 1119.7847 2842.95 1024
-1700.6263 1121.0894 2846.2622 1024
-1690.1266 1125.3276 2857.0227 1024
-1674.0691 1125.9138 2858.5107 768
-1658.0421 1126.5327 2860.082 512
-1646.3269 1130.124 2869.2 132096
-1627.6798 1128.9825 2866.3018 592128
-1617.4646 1133.7271 2878.3472 263168
-1616.6675 1145.2443 2907.5876 591360
-1600.8618 1146.2631 2910.1743 459520
-1589.7473 1150.6997 2921.4382 459520
-1575.8503 1153.198 2927.7808 393216
-1564.0707 1157.3184 2938.2417 590336
-1546.2363 1157.001 2937.436 853248
-1537.4509 1163.5245 2953.9983 984577
-1521.9515 1165.0588 2957.8936 984576
-1497.9431 1160.0392 2945.1497 721664
-1479.318 1159.1195 2942.8145 721152
-1456.6167 1154.9457 2932.218 852736
-1440.7213 1156.1326 2935.2314 852480
-1418.8977 1152.5333 2926.0933 918272
-1401.1631 1152.2074 2925.2659 984064
-1383.1443 1151.6367 2923.8169 852480
-1366.0742 1151.8514 2924.3623 984320
-1353.3739 1155.8036 2934.396 852480
-1331.6603 1152.0609 2924.894 720896
-1309.4777 1147.8085 2914.0977 721152
-1291.7714 1147.4183 2913.1074 983808
-1273.0214 1146.0782 2909.7051 852224
-1252.6738 1143.243 2902.5071 851968
-1240.6993 1148.0773 2914.7803 655360
-1220.8289 1145.6382 2908.5876 589824
-1203.4531 1145.5038 2908.2463 655360
-1185.5009 1144.8086 2906.4817 720896
-1167.4935 1144.0392 2904.5281 720896
-1149.4886 1143.2491 2902.5222 851968
-1132.0249 1142.9814 2901.8428 655360
-1114.2244 1142.3601 2900.2654 589824
-1097.0066 1142.3262 2900.1792 852224
-1078.13 1140.5366 2895.6355 720896
-1060.725 1140.2708 2894.9607 1114624
-1044.095 1140.8431 2896.4138 1114368
-1026.0946 1139.9122 2894.0503 1180416
-1005.1633 1135.6382 2883.1995 720896
-986.60706 1133.9463 2878.9038 786432
-968.4809 1132.6976 2875.7339 786432
-953.68829 1135.3733 2882.5266 851968
-934.84119 1133.2312 2877.0884 852224
-918.45215 1134.0448 2879.1538 983552
-899.19415 1131.2795 2872.1335 852224
-881.47662 1130.3832 2869.8579 1115136
-863.71771 1129.3975 2867.3552 1049344
-846.81885 1129.5194 2867.6648 1049088
-827.38391 1126.1943 2859.2229 1114624
-809.24091 1124.5254 2854.9858 1114624
-792.14703 1124.2742 2854.3481 1048832
-775.94818 1125.3102 2856.9783 917504
-757.89838 1123.6481 2852.7585 983040
-740.92291 1123.5394 2852.4824 917504
-723.32043 1122.4525 2849.7231 917504
-705.15594 1120.4207 2844.5647 1180416
-688.5752 1120.8674 2845.6987 1048832
-670.77515 1119.302 2841.7244 1114624
-654.8399 1120.8479 2845.6492 1048832
-637.09991 1119.3047 2841.7312 917504
-619.7785 1118.433 2839.5181 786432
-602.06866 1116.7922 2835.3525 720896
-584.9621 1116.2085 2833.8704 720896
-567.46161 1114.8162 2830.3357 720896
-549.20087 1111.8 2822.6782 851968
-532.59821 1112.0565 2823.3293 720896
-515.29437 1110.8181 2820.1853 851968
-497.91977 1109.3391 2816.4304 655360
-480.03857 1106.5897 2809.45 983040
-463.22363 1106.1888 2808.4324 917504
-446.03281 1104.8271 2804.9751 1048576
-428.08679 1101.4171 2796.3176 983040
-411.99896 1102.7057 2799.5891 983040
-393.80923 1098.2407 2788.2534 917504
-376.59195 1096.2155 2783.1116 851968
-362.38846 1103.1792 2800.7915 917504
-346.41284 1105.158 2805.8149 1114368
-328.798 1101.8428 2797.3984 1114112
-311.65747 1099.8495 2792.3376 1114112
-293.49176 1093.812 2777.0095 1179648
-277.70596 1096.4536 2783.7163 851968
-261.61826 1098.1619 2788.0532 1114368
-244.8223 1096.9269 2784.9177 1114368
-227.92212 1095.0127 2780.0581 1114624
-211.91051 1097.402 2786.1238 1114880
-195.08531 1095.6255 2781.6138 1180416
-178.66541 1096.0076 2782.5837 1311744
-162.22414 1096.3229 2783.3843 1312000
-145.5526 1094.9772 2779.9678 1311744
-129.04956 1094.7177 2779.3088 1180160
-112.717 1096.0396 2782.665 1246208
-96.776321 1102.2782 2798.5039 983040
-79.941406 1098.8054 2789.687 1048832
-63.499298 1100.3289 2793.5547 983040
-46.980225 1101.1223 2795.5693 917504
-30.427767 1101.5718 2796.7104 786432
-13.840761 1100.3495 2793.6072 786432
2.7171457 1102.2408 2798.4092 983040
19.286579 1101.5404 2796.6306 786432
35.546303 1091.9733 2772.3413 851968
52.270756 1098.2178 2788.1951 1114112
69.00753 1101.6597 2796.9333 1245696
85.38784 1099.1798 2790.6375 1179904
101.50885 1094.7083 2779.2849 1180160
118.69281 1101.348 2796.1423 720896
135.30479 1101.704 2797.0461 1048576
151.49666 1098.9349 2790.0156 1311232
167.36603 1094.6013 2779.0137 1048576
184.39925 1097.9742 2787.5767 917504
201.1469 1099.2319 2790.7698 1245696
217.76175 1099.6278 2791.7749 1245696
233.17073 1094.3086 2778.2703 1180160
249.55452 1093.9641 2777.3958 1311232
264.79602 1088.9647 2764.7031 1245440
281.15677 1088.8824 2764.4941 1377024
299.14377 1094.7609 2779.4185 1114112
316.24893 1096.9669 2785.0193 1114112
333.71423 1100.1414 2793.0789 1114112
350.05841 1099.4945 2791.4365 1310976
365.66046 1096.6804 2784.2917 1114112
384.20123 1102.5422 2799.1743 1179648
398.11163 1095.1813 2780.4858 1573632
414.57193 1095.1411 2780.384 1639424
430.53601 1093.8433 2777.0891 1310720
445.66708 1090.6025 2768.8613 1179648
462.9621 1092.6995 2774.1848 1771008
479.32059 1092.5178 2773.7239 1508096
491.13098 1082.3256 2747.8472 1639424
510.82043 1089.5934 2766.2993 1508096
529.00641 1093.3021 2775.7151 1573632
543.05737 1088.4993 2763.5212 1771264
555.00775 1079.8901 2741.6643 1770752
574.35199 1085.748 2756.5366 1967873
590.4162 1085.2528 2755.2793 1836288
603.18536 1078.8907 2739.127 2033666
618.48376 1077.2673 2735.0054 1902081
638.41718 1083.5939 2751.0674 1507328
659.03772 1090.7427 2769.217 1704192
673.64648 1087.8361 2761.8376 2032896
690.12433 1088.014 2762.2893 2032896
705.89465 1087.094 2759.9536 1901312
722.70221 1087.7769 2761.6875 2229504
737.70441 1085.7725 2756.5984 2624258
756.51929 1089.3447 2765.668 2754816
772.08191 1088.182 2762.7158 3477248
783.83203 1081.8055 2746.5271 5317904
798.23883 1079.2805 2740.1165 6632473
807.70306 1070.3068 2717.3337 7750690
832.86908 1082.0839 2747.2339 7948065
850.17755 1083.3965 2750.5662 8210724
866.27777 1083.1489 2749.9377 8276259
880.51404 1080.6229 2743.5247 7684379
906.1839 1091.9662 2772.3232 7618332
917.7301 1086.1892 2757.6567 6434320
934.9129 1087.1691 2760.1443 8210723
953.46722 1089.6826 2766.5259 8802860
965.88165 1085.2128 2755.1775 8671272
977.03528 1079.4984 2740.6699 7486742
989.3869 1075.2729 2729.9421 8407844
1003.9866 1073.5875 2725.6628 8342051
1022.2997 1075.8633 2731.4407 9197616
1046.6454 1084.3177 2752.9053 9000237
1047.8364 1068.8929 2713.7441 8144928
1063.8053 1068.7811 2713.4604 8605479
1083.6188 1072.4779 2722.8457 7684378
1103.8196 1076.444 2732.9148 7750171
1123.6284 1079.9185 2741.7363 7815963
1131.623 1072.1013 2721.8896 8934446
1146.7168 1071.1349 2719.436 8013088
1165.6371 1073.7202 2725.9998 7749916
1177.6871 1069.9927 2716.5361 7025939
1178.3971 1056.2017 2681.5229 8144676
1211.5156 1071.4388 2720.208 7815711
1229.5857 1073.1423 2724.5327 8078884
1225.634 1055.8309 2680.5818 8013091
1238.2223 1053.0284 2673.4668 7749918
1264.9033 1062.1305 2696.5754 8868653
1291.543 1070.9711 2719.0203 7947551
1296.8499 1062.1222 2696.5544 7684379
1321.0444 1068.7695 2713.4309 8144674
1341.059 1071.916 2721.4192 8276515
1338.7224 1057.3344 2684.3989 7947549
1346.8881 1051.2927 2669.0601 7947549
1378.5302 1063.5027 2700.0593 8342307
1386.713 1057.5421 2684.926 8473894
1408.4733 1061.9535 2696.1262 8473894
1417.1064 1056.4796 2682.2288 8342308
1428.0156 1052.8051 2672.8997 9065774
1460.5559 1064.9838 2703.8193 7486998
1470.3961 1060.5258 2692.5012 7552791
1472.3311 1050.5228 2667.1055 7421205
1513.6494 1068.5344 2712.834 8473637
1533.3516 1071.0684 2719.2671 8210722
1553.6588 1073.9678 2726.6284 7815964
1566.6223 1071.7834 2721.0828 7815707
1580.5421 1070.2913 2717.2942 7881758
1603.3514 1074.788 2728.7107 8539946
1605.3241 1065.3668 2704.792 8342566
1633.9233 1073.6279 2725.7656 8276771
1638.3181 1065.9785 2706.345 8342821
1658.7015 1068.7797 2713.4565 8474150
1668.8529 1064.9972 2703.8535 8605482
1698.361 1073.5221 2725.4968 8013345
1708.6675 1069.8635 2716.2083 7420951
1736.2899 1077.0142 2734.3625 7486488
1724.775 1059.9802 2691.1162 7684123
1758.767 1070.969 2719.0149 7881502
1772.6447 1069.6212 2715.5933 8078882
1786.213 1068.1129 2711.7637 8276517
1809.9248 1072.6427 2723.2642 8539689
1823.626 1071.2123 2719.6326 8473895
1846.8669 1075.3615 2730.1667 8210213
1869.9867 1079.3687 2740.3403 8342056
1874.1669 1072.4689 2722.823 8078627
1887.4814 1070.8695 2718.7622 8144676
1907.0181 1072.7972 2723.6565 8473385
1920.8853 1071.53 2720.4395 8210469
1920.0262 1062.1376 2696.5935 8014116
1944.155 1066.609 2707.9458 7882275
1953.1434 1062.769 2698.1965 9332039
1978.6503 1067.9066 2711.24 8607284
1980.1752 1060.1221 2691.4766 7553825
2015.1591 1070.2318 2717.1436 7618847
2023.7444 1066.2725 2707.0913 7750432
2056.929 1075.2343 2729.8438 7355676
2034.34 1055.1288 2678.7991 7684641
2043.4661 1051.6565 2669.9836 8013861
2087.1636 1065.8929 2706.1274 7158297
2071.0276 1049.5889 2664.7344 7816484
2099.3845 1055.9098 2680.782 7158554
2162.0034 1079.2386 2740.0103 7882277
2120.0134 1050.3899 2666.7681 6829332
2142.6792 1053.7657 2675.3386 7289883
2159.4775 1054.2274 2676.511 7158554
2169.1311 1051.22 2668.8752 7355676
2183.6143 1050.5796 2667.2498 7289883
2204.6177 1053.0629 2673.5544 7750691
2212.0378 1049.069 2663.4143 7092760
2241.5642 1055.5411 2679.8462 8013606
2254.1362 1053.9948 2675.9202 7750690
2269.2153 1053.634 2675.0044 7750690
2297.8186 1059.5143 2689.9333 7553313
2306.3938 1056.1423 2681.3723 7355933
2318.3008 1054.3317 2676.7756 6829846
2313.1199 1044.8273 2652.6453 7750948
2328.8916 1044.8513 2652.7065 8145706
2323.7969 1035.5762 2629.1584 7421983
2273.2664 1006.3114 2554.8599 7816741
2363.7166 1039.4292 2638.9407 7882277
2379.3816 1039.4415 2638.9719 8277293
2405.7275 1044.0892 2650.7717 8079914
2429.1941 1047.4352 2659.2664 7421727
2416.5315 1035.26 2628.3555 7684899
2430.106 1034.4088 2626.1946 7290141
2428.9417 1027.3346 2608.2341 7619107
2426.7256 1019.9078 2589.3789 6961176
2438.1946 1018.2899 2585.2712 7882792
2463.7595 1022.5424 2596.0676 7290657
2482.2717 1023.8332 2599.3447 7093278
0 0 0 0
0 0 0 0
0 0 0 0
0 0 0 0
0 0 0 0
0 0 0 0
0 0 0 0
0 0 0 0
-2456.7974 1106.3308 2767.1646 1280
-2444.6431 1108.2539 2771.9749 1024
-2429.6877 1108.9247 2773.6526 1024
-2413.064 1108.8381 2773.4358 1024
-2390.5388 1106.0198 2766.3865 1024
-2372.9353 1105.4552 2764.9746 1024
-2355.248 1104.8438 2763.4453 1024
-2346.6443 1108.5146 2772.6267 1024
-2326.1677 1106.589 2767.8103 1024
-2307.0762 1105.2998 2764.5857 1024
-2288.3904 1104.1876 2761.8042 1024
-2272.4741 1104.4058 2762.3496 1024
-2257.8789 1105.2736 2764.5203 1024
-2237.7275 1103.4143 2759.8699 1024
-2223.345 1104.3933 2762.3184 1024
-2209.9988 1105.9054 2766.1006 1024
-2192.8359 1105.5159 2765.1262 1024
-2169.9521 1102.2145 2756.8689 1024
-2154.2454 1102.5364 2757.6741 1024
-2137.1274 1102.1354 2756.6709 1024
-2119.0903 1101.2504 2754.4575 1024
-2104.9766 1102.4065 2757.3491 1024
-2090.5947 1103.4393 2759.9324 1024
-2073.552 1103.0728 2759.0156 1024
-2057.314 1103.132 2759.1636 1024
-2039.6052 1102.3971 2757.3254 1024
-2022.8502 1102.1699 2756.7573 1024
-2006.5632 1102.1963 2756.8232 1024
-1990.208 1102.1852 2756.7954 1024
-1974.9167 1102.7681 2758.2534 1024
-1959.5229 1103.303 2759.5913 1024
-1942.2393 1102.7738 2758.2678 1024
-1924.313 1101.8677 2756.0015 1024
-1909.4156 1102.6953 2758.0713 1024
-1893.5798 1102.9906 2758.8098 1024
-1879.3617 1104.2413 2761.9385 1024
-1869.0768 1107.8456 2770.9534 1024
-1850.6042 1106.6176 2767.8818 1024
-1836.1249 1107.7769 2770.7815 1024
-1827.2729 1112.3828 2782.302 1280
-1806.7122 1109.8798 2776.0413 1280
-1795.3137 1113.011 2783.873 1280
-1775.9963 1111.2454 2779.457 1280
-1764.8623 1114.615 2787.885 1280
-1749.5171 1115.3635 2789.7573 1280
-1735.9508 1117.2714 2794.5291 1280
-1721.3452 1118.5404 2797.7034 1280
-1704.0818 1118.0905 2796.5779 1024
-1693.2644 1121.9025 2806.1125 1024
-1672.7568 1119.306 2799.6184 1024
-1664.8115 1125.1477 2814.2295 768
-1647.2125 1124.5172 2812.6526 768
-1632.2522 1125.6936 2815.595 263424
-1616.2415 1126.1622 2816.7673 724224
-1606.8369 1131.2919 2829.5977 789506
-1598.0983 1137.0035 2843.8835 657920
-1595.9717 1147.5914 2870.366 920322
-1578.1588 1147.0066 2868.9031 525312
-1565.1224 1149.9182 2876.1858 459520
-1546.4967 1148.7422 2873.2444 393216
-1535.8232 1153.5127 2885.1765 590080
-1519.0505 1153.7582 2885.7903 918784
-1505.223 1156.2716 2892.0769 655872
-1487.6556 1155.937 2891.24 1050368
-1468.4783 1154.329 2887.218 787200
-1452.0844 1154.8969 2888.6384 787200
-1433.2434 1153.5089 2885.1667 852480
-1413.8756 1151.6582 2880.5378 852736
-1388.2676 1144.6172 2862.927 655360
-1380.9697 1152.6855 2883.1074 918272
-1359.7592 1149.1976 2874.3835 655616
-1341.8672 1148.4615 2872.5422 655360
-1327.7328 1150.9637 2878.8008 852480
-1309.4241 1149.8654 2876.0537 589824
-1284.9263 1143.2317 2859.4614 655360
-1268.5679 1143.7592 2860.7808 917760
-1260.5431 1151.9164 2881.1836 1114880
-1235.1135 1144.1743 2861.8191 983552
-1216.7646 1142.8674 2858.5503 786432
-1200.9746 1143.9609 2861.2854 851968
-1181.7592 1141.7762 2855.821 983552
-1166.2747 1143.1852 2859.345 983552
-1148.6683 1142.5251 2857.6943 917760
-1131.4274 1142.2142 2856.9165 851968
-1112.833 1140.5068 2852.646 655360
-1097.4164 1142.0537 2856.5151 720896
-1076.5001 1137.8362 2845.9661 786432
-1060.4161 1138.6731 2848.0596 786432
-1040.2789 1135.1145 2839.1584 786432
-1025.0763 1136.9119 2843.6543 983296
-1003.7772 1131.8948 2831.1052 1048832
-985.91394 1130.6472 2827.9849 851968
-968.04034 1129.3445 2824.7266 786432
-950.81134 1128.761 2823.2673 786432
-935.60205 1130.5974 2827.8606 983552
-917.26196 1128.6487 2822.9861 917760
-900.6524 1128.7963 2823.3555 1049344
-881.64734 1125.8903 2816.0869 917760
-864.73267 1125.5933 2815.344 1049344
-844.94427 1121.4703 2805.0315 917760
-830.11182 1123.8917 2811.0881 983552
-811.44409 1121.1134 2804.1389 1048832
-794.47296 1120.6118 2802.8845 983296
-778.4267 1121.4215 2804.9097 1048832
-760.85614 1120.0227 2801.4106 917504
-743.00525 1118.1394 2796.7002 917504
-725.80499 1117.1716 2794.2798 1114880
-709.98041 1118.3257 2797.1663 1246464
-692.67633 1117.1488 2794.2227 983296
-676.29468 1117.4384 2794.9468 1048832
-658.65228 1115.6071 2790.3662 1048832
-642.34857 1116.0072 2791.3672 983296
-624.65485 1113.9497 2786.2209 720896
-608.15369 1113.965 2786.259 851968
-590.8501 1112.4702 2782.5205 851968
-574.59698 1112.9242 2783.656 851968
-557.47253 1111.6676 2780.5129 851968
-537.41101 1104.2991 2762.083 720896
-522.50446 1107.3933 2769.822 851968
-506.4444 1108.1639 2771.7498 917504
-489.2182 1106.3492 2767.2107 917504
-472.80066 1106.3008 2767.0896 983296
-455.2962 1103.6143 2760.3699 1180416
-438.64902 1102.8828 2758.5405 1048832
-421.2218 1100.0579 2751.4746 1114624
-404.6228 1099.2552 2749.467 1180416
-389.02573 1101.2214 2754.385 1114624
-372.84146 1101.6251 2755.3945 1048832
-356.29529 1100.9473 2753.6992 1048576
-339.49255 1099.3737 2749.7632 1179904
-323.71304 1101.1218 2754.1357 1114112
-304.91278 1092.2349 2731.9077 983040
-289.16019 1093.8807 2736.0244 1114368
-273.83386 1097.4303 2744.9026 1048832
-256.12198 1091.2642 2729.4797 1048832
-240.6713 1094.5503 2737.699 983296
-224.62611 1095.4125 2739.8555 1311744
-207.66237 1091.5803 2730.2705 1048832
-192.30284 1096.246 2741.9402 1048832
-175.51178 1092.8588 2733.4683 1048832
-159.59869 1094.8057 2738.3376 917504
-143.63863 1096.8345 2743.4124 917504
-126.41285 1088.4825 2722.5225 1114624
-111.09119 1096.4811 2742.5283 1114368
-94.771439 1095.6815 2740.5283 1180160
-78.558327 1096.0389 2741.4224 1114624
-62.329208 1096.301 2742.0781 917504
-45.933201 1092.7778 2733.2659 1049088
-29.858469 1097.2231 2744.3843 1246208
-13.614476 1098.6423 2747.9341 720896
2.6641793 1097.0129 2743.8586 983296
18.929121 1097.3884 2744.7979 983040
34.678921 1081.3538 2704.6917 1114880
51.330555 1094.6881 2738.0437 1377280
67.526627 1094.2354 2736.9114 1377280
83.544098 1091.6243 2730.3804 1574400
99.954636 1094.1632 2736.731 1245440
116.10873 1093.578 2735.2671 1048576
132.7505 1097.1667 2744.2432 786432
147.46756 1085.8005 2715.8142 1311488
164.65518 1093.072 2734.0015 1048576
181.44083 1096.6113 2742.854 1114112
197.60228 1096.1062 2741.5906 1048576
213.86832 1096.2139 2741.8599 1245952
229.98869 1095.6124 2740.3557 1377280
245.65186 1093.0559 2733.9614 1311488
258.98596 1081.0935 2704.0408 1048576
275.92831 1084.7094 2713.085 983040
294.34503 1093.4042 2734.8323 1377280
310.96429 1094.8628 2738.4805 1377024
327.08456 1094.507 2737.5906 1179904
342.85184 1093.0593 2733.97 1310976
359.05267 1093.0624 2733.9773 1245184
375.52994 1093.8702 2735.998 1310976
390.54749 1090.535 2727.6562 1048576
407.3046 1092.1298 2731.6448 1179648
423.12155 1091.1777 2729.2634 1442560
436.00836 1083.0176 2708.8533 1377024
451.92935 1082.7059 2708.074 1442560
470.99957 1089.7018 2725.572 1376768
482.4588 1079.2087 2699.3267 1705728
503.09979 1089.2688 2724.489 1573888
518.95752 1088.6689 2722.9885 1639680
535.97925 1090.4733 2727.5017 1508096
551.31079 1088.8342 2723.4019 1573888
564.12994 1082.4674 2707.4771 1442304
580.58282 1083.2323 2709.3904 1836288
597.05737 1083.9952 2711.2988 2033923
614.06842 1085.667 2715.48 1770496
622.54114 1072.5431 2682.6543 1902081
639.41296 1074.1829 2686.7556 1639168
661.28125 1083.9326 2711.1421 1638912
678.66052 1086.0365 2716.4043 1836544
693.92059 1084.7301 2713.1367 1901824
706.49298 1079.3766 2699.7466 2032896
721.80511 1078.3533 2697.187 2361600
743.38007 1086.5282 2717.634 2492672
757.72754 1084.0166 2711.3521 2821121
777.49677 1089.2047 2724.3286 3083008
796.57739 1093.2367 2734.4133 3739649
809.16357 1088.3726 2722.2473 5382668
823.77509 1086.3694 2717.2371 7158300
830.1759 1073.8226 2685.855 8013345
850.31659 1079.186 2699.27 8276516
861.45599 1073.1383 2684.1431 8144928
877.43671 1073.2314 2684.376 8276260
900.76605 1082.1494 2706.6819 8276260
910.54913 1074.7662 2688.2151 8276517
933.57581 1083.0002 2708.8101 8342310
940.30847 1072.3733 2682.23 7092241
947.03278 1062.0905 2656.5103 8868651
970.22015 1070.3052 2677.0569 8210721
986.23016 1070.465 2677.4568 8079136
996.06128 1064.0195 2661.3352 8144928
1027.0488 1080.0225 2701.3621 7815451
1038.1155 1074.9073 2688.5681 7617815
1046.425 1067.1353 2669.1284 7880987
1061.1353 1066.0248 2666.3508 6762506
1077.8015 1066.8831 2668.4973 7749658
1092.1523 1065.4576 2664.9324 8210465
1111.7531 1069.1215 2674.0964 8408100
1128.4285 1069.9087 2676.0654 8144930
1138.7469 1064.7305 2663.1133 7552283
1168.405 1077.5291 2695.1255 7486746
1172.7672 1066.9689 2668.7119 6631440
1189.7955 1068.0596 2671.4402 7157783
1203.4614 1066.1429 2666.6465 7420954
1217.7186 1064.7931 2663.27 7289368
1229.8638 1061.6545 2655.4199 6828561
1247.0308 1062.8756 2658.4739 7420697
1264.5504 1064.3629 2662.1941 7223575
1286.0333 1069.1084 2674.0635 8013344
1299.2875 1066.9808 2668.7422 9526584
1312.9423 1065.2295 2664.3616 7815966
1327.8831 1064.5508 2662.6641 8013088
1345.0475 1065.6497 2665.4126 8079137
1355.4789 1061.4507 2654.9102 8210724
1361.1737 1053.6814 2635.4773 8210724
1382.1957 1057.8185 2645.825 8144929
1400.2565 1059.6219 2650.3359 8144672
1421.4728 1063.7468 2660.6531 8473893
1439.199 1065.198 2664.2827 8276514
1455.1293 1065.303 2664.5454 8013342
1477.8486 1070.3225 2677.1003 7947549
1489.6234 1067.3933 2669.7737 8013087
1525.1515 1081.3671 2704.7251 7815964
1521.7853 1067.76 2670.6912 8539687
1539.9288 1069.3702 2674.7185 8407844
1557.3463 1070.4484 2677.4153 7947293
1574.4979 1071.3241 2679.6055 7881756
1593.0261 1073.1096 2684.0713 8144928
1599.7394 1066.9794 2668.7385 8013086
1628.0189 1075.2126 2689.3315 8276515
1628.3787 1065.0255 2663.8516 7881756
1642.6974 1064.0762 2661.4768 8605224
1659.2943 1064.6066 2662.8035 8934446
1666.9385 1059.4369 2649.873 9394741
1687.5907 1062.554 2657.6694 8473895
1708.6882 1065.8911 2666.0166 7815966
1715.1133 1060.0983 2651.5273 8473896
1745.4763 1069.0721 2673.9729 8210723
1754.3221 1064.8243 2663.3481 8407846
1783.1755 1072.6879 2683.0166 8342053
1795.8579 1070.7705 2678.2209 8802604
1802.1857 1065.1312 2664.1157 8802604
1824.6414 1069.0388 2673.8896 8868653
1841.2151 1069.4628 2674.95 8342310
1857.0651 1069.4628 2674.95 8341800
1865.9307 1065.4745 2664.9744 8276263
1873.3722 1060.7468 2653.1494 7684125
1907.8379 1071.2721 2679.4756 7750688
1911.6014 1064.5265 2662.603 7487260
1929.6322 1065.7712 2665.7166 7553310
1959.7003 1073.5903 2685.2737 7684898
1966.0038 1068.3691 2672.2146 7355677
1992.2698 1073.9929 2686.2808 7816483
1994.3306 1066.5824 2667.7454 7882018
2003.9303 1063.2885 2659.5068 7816483
2024.3533 1065.7441 2665.6487 7882020
2022.5961 1056.5751 2642.7151 7158297
2042.4247 1058.7363 2648.1208 7158296
2063.1121 1061.3065 2654.5496 8145446
2083.7549 1063.8151 2660.8237 8013605
2093.9758 1061.0051 2653.7957 7684639
2123.2244 1067.8064 2670.8071 7947811
2090.5137 1043.5774 2610.2051 7619362
2139.6289 1060.2512 2651.9099 7882533
2141.137 1053.2634 2634.4319 8014120
2153.4634 1051.6597 2630.4207 7553312
2179.6021 1056.7759 2643.2175 7882277
2206.9082 1062.3813 2657.2378 8342828
2215.8225 1059.1163 2649.0713 8145450
2237.73 1062.064 2656.4441 7026969
2235.2434 1053.4735 2634.9575 6566674
2254.2881 1055.0796 2638.9746 7158042
2256.7439 1048.953 2623.6506 6895127
2276.6562 1050.9685 2628.6919 6763541
2292.2324 1050.9685 2628.6919 7026456
2309.3926 1051.6899 2630.4963 7158300
2292.9482 1037.2008 2594.2561 7750436
2325.2134 1044.7914 2613.2417 7092505
2313.3259 1032.5739 2582.6829 7684387
2347.6448 1041.0056 2603.7727 6763285
2390.2812 1052.9916 2633.7522 7223835
2378.6377 1041.0652 2603.9216 7289630
2392.1152 1040.2166 2601.7991 7289374
2403.0867 1038.2958 2596.9949 6500114
2419.7185 1038.8297 2598.3303 6500627
2449.0486 1044.7739 2613.198 6171150
2459.5693 1042.6699 2607.9353 5514248
2460.5527 1036.5742 2592.6887 6566420
2468.6978 1033.5524 2585.1304 6632470
0 0 0 0
0 0 0 0
0 0 0 0
0 0 0 0
0 0 0 0
0 0 0 0
0 0 0 0
0 0 0 0
-2412.1902 1102.3424 2716.9221 1024
-2397.1587 1102.8334 2718.1323 1024
-2379.3203 1102.0311 2716.1548 1024
-2362.4507 1101.6696 2715.2637 1024
-2343.4065 1100.2821 2711.844 1024
-2333.5491 1103.2186 2719.0815 1024
-2318.0605 1103.5151 2719.8125 1024
-2298.1489 1101.6957 2715.3281 1024
-2284.8726 1103.0536 2718.675 1024
-2262.6479 1100.0803 2711.3469 1024
-2248.0176 1100.7832 2713.0793 1024
-2232.1992 1100.9104 2713.3926 1024
-2218.0876 1101.8872 2715.8003 1024
-2199.8599 1100.8185 2713.1663 1024
-2183.4211 1100.636 2712.7163 1024
-2165.4404 1099.6677 2710.3298 1024
-2148.8643 1099.4036 2709.6787 1024
-2133.5176 1099.7692 2710.5798 1024
-2117.9287 1100.0145 2711.1846 1024
-2100.9314 1099.5265 2709.9819 1024
-2085.6687 1099.9458 2711.0154 1024
-2069.1575 1099.708 2710.4292 1024
-2052.7275 1099.5101 2709.9414 1024
-2036.9805 1099.6777 2710.3545 1024
-2023.145 1100.8881 2713.3376 768
-2004.0317 1099.223 2709.2339 768
-1993.458 1102.2528 2716.7014 768
-1975.6489 1101.2987 2714.3499 768
-1958.2449 1100.5566 2712.521 1024
-1939.5247 1099.0565 2708.8235 1024
-1924.6169 1099.7096 2710.4331 1024
-1906.6357 1098.6029 2707.7053 1024
-1891.4104 1099.0786 2708.8782 1024
-1878.1534 1100.7163 2712.9143 1024
-1865.2803 1102.6091 2717.5796 1024
-1850.1968 1103.2168 2719.0774 1024
-1836.915 1104.9189 2723.2727 1024
-1822.7582 1106.1202 2726.2334 1024
-1804.0193 1104.5376 2722.3328 1024
-1788.1183 1104.6797 2722.6829 1280
-1774.2721 1106.1055 2726.1968 1280
-1759.5956 1107.0348 2728.4875 1280
-1741.1156 1105.5663 2724.8682 1280
-1729.8236 1108.6772 2732.5356 1280
-1714.7745 1109.4164 2734.3572 1280
-1701.1774 1111.1179 2738.551 1024
-1684.7618 1110.9935 2738.2444 1024
-1671.0704 1112.6807 2742.4026 768
-1660.0624 1116.2051 2751.0894 768
-1642.6628 1115.4594 2749.2512 768
-1635.6932 1121.8522 2765.0076 512
-1621.8572 1123.6172 2769.3579 512
-1607.7411 1125.2223 2773.3137 328960
-1589.2742 1123.7842 2769.7693 197376
-1576.1909 1126.1625 2775.6311 591616
-1561.6461 1127.5356 2779.0156 525568
-1556.5573 1135.8384 2799.479 656896
-1545.7637 1140.1122 2810.0125 655872
-1546.3712 1152.9797 2841.7271 393216
-1528.5991 1152.2759 2839.9922 458752
-1516.9801 1156.2463 2849.7781 787200
-1497.6058 1154.3284 2845.051 721408
-1479.8417 1153.6219 2843.3101 852992
-1457.0083 1148.9022 2831.6772 984576
-1446.0555 1153.5498 2843.1321 918784
-1419.1833 1145.458 2823.1882 984576
-1410.9268 1152.3774 2840.2427 918272
-1387.9274 1147.2775 2827.6726 852480
-1373.343 1149.0936 2832.1492 786688
-1355.2356 1147.9707 2829.3813 852480
-1336.8005 1146.5385 2825.8513 786688
-1320.7201 1147.1151 2827.2725 1247235
-1298.2942 1142.1243 2814.9719 1378820
-1280.4512 1141.0878 2812.417 852480
-1262.9365 1140.3203 2810.5256 852480
-1245.8665 1139.9391 2809.5859 851968
-1232.959 1143.4078 2818.1355 917760
-1217.4827 1144.557 2820.9678 983552
-1199.0247 1142.8959 2816.8735 655360
-1180.2144 1140.8474 2811.8247 655360
-1163.1317 1140.4342 2810.8062 655360
-1146.451 1140.4088 2810.7437 918016
-1130.0979 1140.7133 2811.4941 786432
-1111.8693 1139.1053 2807.5312 983552
-1094.9469 1138.8074 2806.7966 720896
-1077.4408 1137.8835 2804.5198 851968
-1060.6337 1137.6807 2804.0195 851968
-1043.3337 1136.9341 2802.1797 589824
-1025.3668 1135.4249 2798.4602 786432
-1008.3105 1134.8911 2797.1443 786432
-990.63623 1133.6323 2794.0417 917504
-972.75537 1132.0902 2790.241 786432
-954.04596 1129.5138 2783.8911 917504
-938.85968 1131.0913 2787.7791 851968
-921.92303 1130.5789 2786.5159 720896
-904.08136 1128.9175 2782.4214 852224
-886.2702 1127.2333 2778.2703 1049344
-868.0282 1124.9269 2772.5857 917760
-851.06396 1124.2195 2770.8423 786432
-835.1806 1124.9402 2772.6184 1049344
-816.30072 1121.5725 2764.3181 917760
-798.11078 1119.0344 2758.0625 917760
-780.76227 1117.5946 2754.5139 1180416
-764.28253 1117.3633 2753.9438 1114624
-746.95404 1115.8541 2750.2241 851968
-730.57251 1115.7238 2749.9028 1048576
-714.68994 1116.3668 2751.488 983040
-697.07458 1114.2701 2746.3201 851968
-680.92505 1114.4724 2746.8186 983040
-664.29193 1113.8735 2745.3428 851968
-647.33368 1112.6858 2742.4153 851968
-630.33368 1111.3633 2739.1555 983040
-613.91425 1111.0214 2738.3132 1048832
-597.75647 1111.1475 2738.624 983040
-580.71619 1109.5945 2734.7961 851968
-565.1189 1110.7885 2737.739 851968
-548.08325 1109.1425 2733.6819 786432
-530.11206 1105.4452 2724.5693 851968
-514.80859 1107.2532 2729.0256 983040
-498.06503 1105.981 2725.8899 851968
-481.92746 1106.014 2725.9714 851968
-464.87381 1103.874 2720.6973 917504
-446.72079 1098.8761 2708.3789 917504
-431.57773 1101.1857 2714.0713 983040
-413.04135 1094.6808 2698.0388 1114624
-398.75806 1099.3779 2709.6155 1180416
-382.71024 1099.4 2709.6702 983040
-366.74872 1099.683 2710.3674 1114624
-349.89163 1097.1836 2704.2073 983040
-333.51865 1096.0352 2701.3767 917504
-317.96481 1097.5985 2705.23 1180160
-301.51178 1096.0591 2701.4358 1245696
-285.24167 1095.0494 2698.9475 1245952
-265.18536 1078.5212 2658.2104 1114624
-252.81499 1093.1383 2694.2371 917504
-236.78015 1092.8134 2693.4363 983040
-218.071 1079.2067 2659.9001 1312000
-204.94351 1093.2549 2694.5242 1246208
-188.66182 1091.4292 2690.0247 917504
-172.9846 1093.0865 2694.1094 786432
-157.26784 1094.8053 2698.3457 917504
-140.60269 1089.5641 2685.4275 1114624
-124.65972 1089.2955 2684.7659 1180416
-109.25713 1094.3611 2697.2507 1246208
-93.211395 1093.6167 2695.416 1048832
-77.1091 1091.7638 2690.8491 1114624
-61.308949 1094.3379 2697.1936 1245952
-45.159481 1090.2936 2687.2256 1114624
-29.192373 1088.6445 2683.1614 1246208
-13.36806 1094.7454 2698.1978 1114624
2.6263793 1097.4761 2704.9282 1377792
18.315868 1077.5732 2655.874 1312000
34.673771 1097.2173 2704.2903 1049088
50.588051 1094.8424 2698.4373 1245440
66.704002 1096.9249 2703.5696 1377280
81.554863 1081.4254 2665.3684 1442816
98.1996 1090.8831 2688.6785 1377024
114.43799 1093.8163 2695.908 1114112
130.58784 1095.2885 2699.5364 983040
146.61377 1095.5133 2700.0906 720896
160.84544 1083.6062 2670.7432 1245696
176.92496 1085.1658 2674.5872 1245696
193.513 1089.3317 2684.8547 917760
208.94115 1086.8312 2678.6919 917504
226.67987 1095.8541 2700.9307 1048576
239.97849 1083.6373 2670.8201 1574656
255.64914 1082.9806 2669.2014 1574400
273.6102 1091.5377 2690.2922 983040
288.27469 1086.7253 2678.4309 983040
302.59189 1081.1743 2664.7495 1245440
321.71149 1092.4822 2692.6196 1310720
336.40414 1088.3984 2682.5547 1573888
353.13147 1090.9692 2688.8909 1245184
368.883 1090.4335 2687.5703 851968
381.93134 1082.282 2667.4797 1639680
396.4649 1078.8199 2658.9468 1508352
415.02271 1086.1543 2677.0237 1508352
427.28876 1077.0886 2654.6797 1507840
444.05228 1079.6013 2660.8726 1705216
462.05618 1084.8539 2673.8186 1639681
477.66827 1084.3287 2672.5242 1902594
494.86353 1087.3157 2679.8862 1705472
503.51837 1071.9355 2641.9788 1508096
526.9671 1088.0275 2681.6406 1508096
538.07294 1078.4393 2658.0085 1376512
558.41095 1087.3738 2680.0293 1705216
566.31329 1072.2682 2642.7988 1705473
588.05841 1083.4806 2670.4338 1508096
604.96051 1085.416 2675.2039 1771521
617.66486 1079.9132 2661.6414 1573376
625.61438 1066.5782 2628.7751 1704704
644.20081 1071.5851 2641.1152 1704960
665.49451 1080.7509 2663.7058 1638912
681.63727 1081.3208 2665.1106 1967616
697.28296 1081.0941 2664.552 1901824
711.48688 1078.6918 2658.6309 2295808
728.64502 1080.7751 2663.7659 2427393
745.03326 1081.6526 2665.9285 2492673
761.83325 1083.0791 2669.4441 2624001
780.58521 1087.1658 2679.5168 2689536
801.50507 1094.0491 2696.4819 3214592
811.91852 1086.6024 2678.1279 4264963
822.03625 1079.053 2659.521 6172178
839.40515 1081.1268 2664.6326 7026968
854.05139 1079.682 2661.0715 7882018
870.77649 1080.8702 2664 7750173
886.00763 1080.1946 2662.335 8276260
902.02582 1080.4855 2663.0518 8276517
918.48596 1081.2865 2665.0261 8342567
934.40778 1081.4375 2665.3984 7355671
943.8775 1074.2404 2647.6594 8671017
961.48187 1076.3851 2652.9458 8144674
977.16675 1076.3468 2652.8513 7158036
980.8045 1063.2498 2620.5713 8210724
1006.8008 1074.4213 2648.1055 7880989
1018.2767 1069.9919 2637.1885 8012832
1036.7692 1072.958 2644.499 7420695
1035.9165 1056.1135 2602.9827 8012831
1055.8547 1060.6486 2614.1602 8210210
1083.2692 1072.4539 2643.2566 8013343
1097.6194 1071.1736 2640.1008 8605225
1117.6285 1075.374 2650.4536 8473895
1109.329 1052.5969 2594.3154 7749917
1151.3357 1077.5238 2655.7522 7618333
1159.8524 1070.858 2639.3232 7749919
1179.1892 1074.2266 2647.6257 7815713
1179.7773 1060.6512 2614.1667 8868143
1197.1129 1062.2891 2618.2034 8276006
1219.3528 1068.1812 2632.7256 8079395
1236.2124 1069.2706 2635.4109 7552794
1237.3713 1056.922 2604.9753 8276005
1252.8644 1056.9706 2605.095 6960145
1283.5938 1069.7155 2636.5071 6500110
1295.6232 1066.7573 2629.2161 8473897
1306.678 1063.0763 2620.1438 8210213
1327.5325 1067.361 2630.7041 7420697
1335.7472 1061.5016 2616.2625 7420951
1341.9763 1054.2168 2598.3079 8605482
1349.9655 1048.4641 2584.1294 8079138
1374.1329 1055.2646 2600.8906 8539689
1389.7526 1055.4229 2601.2805 8079395
1410.7057 1059.5835 2611.5352 8079395
1415.5441 1051.6815 2592.0593 8276516
1435.974 1055.4086 2601.2451 7947296
1468.1716 1067.6135 2631.3267 6894863
1485.0309 1068.5256 2633.5747 7552283
1506.7802 1072.9008 2644.3577 7881248
1511.4985 1065.1836 2625.3376 7289112
1540.9362 1074.8666 2649.2029 7881248
1542.9072 1065.3882 2625.8418 7749918
1539.5082 1052.4282 2593.8994 8013089
1574.5459 1065.7404 2626.71 7815710
1574.2021 1055.0784 2600.4314 7750172
1598.6956 1061.1083 2615.2932 8079135
1619.2856 1064.4564 2623.5454 8210467
1629.296 1060.8524 2614.6626 8276260
1650.8507 1064.7622 2624.2991 9066289
1664.1591 1063.3298 2620.7686 8802860
1683.8524 1065.9661 2627.2661 9066032
1687.3236 1058.3784 2608.5652 8868910
1702.0544 1057.9272 2607.4529 8473896
1704.6356 1050.0004 2587.9158 8210723
1730.4302 1056.386 2603.6543 8671274
1753.6726 1061.1145 2615.3086 8671018
1770.5437 1061.9388 2617.3403 8276516
1787.8121 1062.9851 2619.9189 8407846
1807.3655 1065.3602 2625.7727 8144674
1824.6073 1066.3438 2628.197 8342053
1844.2557 1068.7053 2634.0176 8473895
1854.7609 1065.7733 2626.7913 8210727
1838.3975 1047.5796 2581.9495 7421724
1849.6683 1045.3031 2576.3386 7618846
1876.6554 1051.873 2592.5312 7421724
1904.9342 1059.0542 2610.2307 7816227
1936.5979 1067.9865 2632.2458 7948070
1968.2767 1076.7843 2653.9297 6895125
1963.6 1065.7113 2626.6382 7882020
1987.8584 1070.3929 2638.177 6960918
2007.6051 1072.5912 2643.595 8277033
2010.0236 1065.5691 2626.2878 7947813
2016.714 1060.9023 2614.7856 7421726
2044.4803 1067.3092 2630.5767 8079655
2042.2252 1058.0652 2607.793 7816481
2056.7007 1057.563 2606.5552 8210983
2056.4329 1049.5436 2586.79 7750432
2079.354 1053.3904 2596.271 7750691
2112.7644 1062.4554 2618.6135 7882533
2118.228 1057.437 2606.2446 7816741
2136.8748 1059.0248 2610.1582 8079913
2150.4385 1058.0887 2607.8511 8079656
2149.5327 1050.0973 2588.1545 8211499
2206.7954 1070.4344 2638.2793 7684898
2226.0649 1072.1859 2642.5962 7882533
2197.2817 1050.9303 2590.2075 6829589
2211.0889 1050.1984 2588.4038 7553570
2207.4253 1041.2356 2566.3135 7421214
2238.3955 1048.6205 2584.5149 6960664
2254.3708 1048.9281 2585.2729 7026969
2275.1919 1051.4709 2591.5403 6434832
2276.8896 1045.2012 2576.0872 7816484
2282.522 1040.8091 2565.2622 7553312
2300.896 1042.2467 2568.8054 6631955
2340.9297 1053.4122 2596.325 6105612
2350.2988 1050.7233 2589.6973 6500114
2364.877 1050.3826 2588.8577 7289630
2422.8142 1069.1805 2635.1887 7223837
2392.9971 1049.2601 2586.0913 6566164
2411.1179 1050.4788 2589.095 6960922
2429.0542 1051.6022 2591.8635 6631700
2450.8464 1054.3704 2598.6863 7487008
2440.1804 1043.2272 2571.2222 6829849
2461.8638 1045.9667 2577.9741 6369298
0 0 0 0
0 0 0 0
0 0 0 0
0 0 0 0
0 0 0 0
0 0 0 0
0 0 0 0
0 0 0 0
-2372.0769 1099.8423 2671.7415 1024
-2355.4263 1099.4597 2670.8123 1024
-2340.3047 1099.7905 2671.6157 1024
-2325.3887 1100.2231 2672.6667 1024
-2308.6589 1099.7977 2671.6333 1024
-2293.1572 1099.9554 2672.0164 1024
-2275.863 1099.2496 2670.3018 1024
-2258.4182 1098.4604 2668.3848 1024
-2241.9956 1098.1611 2667.6577 1024
-2226.4646 1098.2972 2667.9883 1024
-2212.8013 1099.3632 2670.5776 1024
-2194.7866 1098.2671 2667.915 1024
-2179.1377 1098.3475 2668.1104 1024
-2162.6196 1097.9878 2667.2366 1024
-2144.3042 1096.7036 2664.1169 1024
-2128.1406 1096.509 2663.6443 1024
-2116.2239 1098.516 2668.5198 1024
-2098.9382 1097.7455 2666.6477 1024
-2080.031 1096.1085 2662.6711 1024
-2063.77 1095.8517 2662.0474 768
-2050.0681 1096.9604 2664.7407 768
-2031.4597 1095.4403 2661.0481 768
-2015.9156 1095.5619 2661.3435 768
-2001.6847 1096.4047 2663.3906 768
-1987.2555 1097.1512 2665.2043 768
-1972.3568 1097.6486 2666.4126 768
-1958.9431 1098.9872 2669.6643 768
-1936.5907 1095.292 2660.6877 1024
-1922.7969 1096.4163 2663.4189 1024
-1909.6377 1097.9242 2667.082 1024
-1892.9521 1097.4128 2665.8398 1024
-1876.2451 1096.8802 2664.5461 1024
-1861.496 1097.4932 2666.0349 1024
-1847.3752 1098.49 2668.4565 1024
-1830.9211 1098.1047 2667.5208 1024
-1818.2955 1100.0289 2672.1948 1024
-1805.4196 1101.8341 2676.5798 1024
-1790.9318 1102.6788 2678.6318 1024
-1775.9569 1103.2362 2679.9858 1024
-1763.9343 1105.6539 2685.8591 1280
-1749.7632 1106.7568 2688.5383 1280
-1737.2283 1108.9244 2693.804 1280
-1723.2584 1110.2078 2696.9214 1280
-1708.6704 1111.1134 2699.1211 1280
-1694.2516 1112.1467 2701.6316 1280
-1679.5784 1113.0315 2703.7808 1024
-1665.6713 1114.4459 2707.2166 1024
-1647.2279 1112.8232 2703.2747 768
-1636.6459 1116.5316 2712.2832 768
-1617.5402 1114.4409 2707.2046 768
-1623.2739 1129.5936 2744.0137 256
-1604.6786 1127.9517 2740.0249 256
-1585.2888 1125.7119 2734.5842 460544
-1572.1346 1127.8998 2739.8987 592129
-1560.9974 1131.5952 2748.8757 328192
-1541.6736 1129.3713 2743.4736 328192
-1534.3187 1135.9615 2759.4827 722688
-1522.7627 1139.55 2768.1995 721920
-1516.0848 1146.9067 2786.0706 721920
-1495.6757 1143.9235 2778.8235 721920
-1480.9537 1145.272 2782.0994 787456
-1471.6498 1150.8878 2795.7415 721664
-1450.7686 1147.4746 2787.4502 655872
-1432.1528 1145.7954 2783.3708 918528
-1406.7629 1138.5941 2765.8777 787456
-1389.2896 1137.7062 2763.7205 852992
-1379.2306 1142.941 2776.437 852480
-1368.9108 1148.0835 2788.9292 984064
-1350.9893 1146.8986 2786.0505 918272
-1321.4309 1135.683 2758.8059 786944
-1315.532 1144.775 2780.8921 852480
-1300.3783 1145.9419 2783.7266 721152
-1276.9863 1139.7856 2768.772 786688
-1262.3468 1141.3829 2772.6521 524288
-1244.5723 1140.1503 2769.658 458752
-1226.9025 1138.9819 2766.8198 720896
-1211.9371 1140.3268 2770.0864 655360
-1194.4482 1139.3014 2767.5957 655360
-1177.2836 1138.5612 2765.7974 655360
-1161.2766 1138.9352 2766.7061 655360
-1141.9539 1136.0215 2759.6282 655360
-1126.3535 1136.7799 2761.4707 786432
-1108.2593 1135.0068 2757.1631 655360
-1091.7822 1134.8616 2756.8105 655360
-1074.6248 1133.9939 2754.7026 655360
-1057.8545 1133.5143 2753.5376 655360
-1040.2374 1132.0983 2750.0977 655360
-1021.3434 1129.2251 2743.1182 589824
-1003.4791 1127.4159 2738.7234 720896
-988.85675 1129.2498 2743.178 655360
-971.84216 1128.3671 2741.0339 917504
-954.60138 1127.1874 2738.1682 917504
-934.69269 1122.7621 2727.4185 786432
-919.5589 1124.0178 2730.4688 917760
-901.08667 1121.1647 2723.5378 851968
-887.47333 1124.3634 2731.3081 983552
-867.79755 1119.8574 2720.3623 983552
-854.11774 1123.0651 2728.1543 1049344
-836.78894 1121.5057 2724.3665 1049344
