# .PCD v0.7 - Point Cloud Data file format
VERSION 0.7
FIELDS x y z rgb
SIZE 4 4 4 4
TYPE F F F U
COUNT 1 1 1 1
WIDTH 1306
HEIGHT 1
VIEWPOINT 0 0 0 1 0 0 0
POINTS 1306
DATA ascii
255.91057 975.35443 1948.6102 9592888
266.42618 971.59558 1941.1007 9790013
278.30182 972.90253 1943.7117 10184771
289.6217 972.23999 1942.3881 10185028
301.10147 972.14417 1942.1967 9329462
312.17889 970.80426 1939.5198 10382150
321.84799 965.33539 1928.5939 10579529
329.78995 955.23901 1908.4226 9658427
342.98331 960.51831 1918.9701 10447943
355.88089 964.65735 1927.239 9592890
369.42511 970.23712 1938.3866 9921856
379.93134 967.74213 1933.4021 9790269
391.6076 968.28644 1934.4895 10250050
401.34454 964.14081 1926.2072 9986879
413.63705 966.19385 1930.3088 10052417
425.40704 966.94879 1931.8171 9920831
435.42062 963.77649 1925.4794 10513224
447.07761 964.31085 1926.5469 9658170
464.63672 977.23206 1952.3615 9658169
471.01974 966.59088 1931.1019 9789498
483.6666 969.00354 1935.9221 10842444
497.87024 974.35126 1946.6061 10052929
505.81192 967.47931 1932.877 10316100
517.51715 967.95093 1933.8192 10118720
526.62067 963.64142 1925.2094 9855547
534.48425 957.29382 1912.5278 10447684
551.05774 966.48578 1930.892 9987133
559.85321 961.9397 1921.8097 10447427
569.96686 959.79462 1917.524 9592376
579.62231 956.97687 1911.8948 9855292
590.94153 956.96155 1911.864 9855806
602.12915 956.73749 1911.4164 10053444
612.43738 955.15039 1908.2456 9921601
622.08478 952.60876 1903.1678 9790015
625.19849 940.33069 1878.6382 10185029
643.66577 951.17084 1900.2952 10053186
652.48663 947.62836 1893.2179 9526842
668.84637 954.96954 1907.8844 10250821
678.8512 953.1441 1904.2374 10053443
690.33246 953.41742 1904.7833 9855808
698.11774 948.65936 1895.2777 9592893
716.05518 957.62939 1913.1985 10053444
718.85797 946.39459 1890.7529 10185542
730.81476 947.37115 1892.704 9658945
741.74548 947.00812 1891.9788 10185032
749.72693 942.94666 1883.8645 9921859
761.98541 944.30469 1886.5776 10711374
774.72961 946.21661 1890.3975 9592893
785.75647 946.00659 1889.9777 9526584
798.02271 947.2735 1892.5089 9658172
810.73334 949.02557 1896.0093 9921857
819.65607 946.35645 1890.6766 9921858
829.60168 944.92413 1887.8152 10053444
836.42181 940.01746 1878.0125 9921858
849.99219 942.72632 1883.4243 10053187
860.92578 942.47845 1882.9291 9395514
870.93024 941.23273 1880.4403 9723965
880.10242 939.13043 1876.2402 9263927
885.95282 933.58026 1865.1517 9921601
896.72406 933.28827 1864.5684 9658685
912.28021 937.92273 1873.8274 9724480
925.68524 940.2608 1878.4985 9526843
938.93201 942.38458 1882.7415 9526844
956.44794 948.69299 1895.3447 9790271
962.89294 944.0011 1885.9711 9790272
971.06964 941.09521 1880.1656 9723452
980.9715 939.9082 1877.7942 10447175
986.71295 934.80634 1867.6013 10052417
1001.442 938.23792 1874.457 10184003
1014.3169 939.8761 1877.73 10315591
1018.8621 933.84412 1865.6791 10052419
1032.5245 936.20856 1870.4027 9724481
1041.8658 934.64618 1867.2814 10316617
1055.6539 937.06384 1872.1116 9790274
1071.0447 940.83905 1879.6538 9328694
1084.6682 943.00024 1883.9716 9197365
1093.036 940.59473 1879.1656 9394743
1109.9359 945.50568 1888.9769 9723452
1111.256 937.17938 1872.3423 9657916
1118.7635 934.18439 1866.3588 9394489
1138.3612 941.24451 1880.4639 9790017
1143.3131 936.17548 1870.3367 9526845
1154.3956 936.17548 1870.3367 9461308
1166.0786 936.65784 1871.3004 9921603
1176.176 935.86951 1869.7253 9527101
1183.1866 932.66254 1863.3185 9658431
1197.582 935.28241 1868.5525 9856066
1204.481 932.05328 1862.1011 8079399
1214.562 931.32275 1860.6417 8934964
1229.7501 934.48621 1866.9618 9855811
1241.9014 935.30621 1868.6 9790274
1245.054 929.39453 1856.7893 9592639
1263.8188 935.13837 1868.2646 9658431
1284.4504 942.15161 1882.2761 10119495
1290.401 938.36829 1874.7175 9920833
1303.0653 939.49011 1876.9587 9065781
1312.7434 938.45795 1874.8967 9723711
1324.1127 938.64215 1875.2646 9328952
1336.0052 939.19104 1876.3613 9394745
1342.8451 936.20837 1870.4023 9460538
1353.6879 936.04224 1870.0706 8803379
1355.6932 929.81775 1857.6348 10119238
1366.767 929.86298 1857.7252 10185032
1382.8014 933.25537 1864.5028 9987652
1382.0383 925.34735 1848.7037 9922117
1398.8192 929.21796 1856.4365 9461310
1410.2368 929.49304 1856.9861 9395773
1419.7944 928.54755 1855.0972 9790532
1433.6693 930.41833 1858.8347 9791045
1448.8402 933.09528 1864.1829 9593666
1461.053 933.841 1865.6726 9001786
1464.3972 928.94965 1855.9006 8870199
1490.62 938.53632 1875.0532 9133117
1499.5847 937.19519 1872.374 9067324
1510.027 936.79065 1871.5656 9724999
1514.1559 932.50378 1863.0011 8540724
1522.4354 930.81653 1859.6302 8606773
1524.5017 925.38208 1848.7732 5646609
1522.9026 917.81628 1833.6577 8475189
1547.0947 925.7912 1849.5905 8804665
1554.7422 923.82318 1845.6587 8607031
1581.0309 932.88177 1863.7565 8672569
1588.4603 930.76422 1859.5258 8277810
1590.2439 925.39026 1848.7894 8211758
1590.9937 919.49231 1837.0062 8672309
1598.1914 917.37585 1832.7778 9856584
1600.2347 912.34918 1822.7354 8343347
1619.0206 916.87134 1831.77 8277811
1627.2308 915.38416 1828.7988 8409397
1643.2794 918.29688 1834.618 8540726
1648.8062 915.33014 1828.6908 8343604
1652.3164 911.28992 1820.6191 9067070
1637.9364 897.49927 1793.0675 7816233
1651.1149 898.88965 1795.8452 7948076
1672.8658 904.89935 1807.8517 7553317
1685.9808 906.19073 1810.4318 7882026
1682.5386 898.6228 1795.3121 7684904
1691.9453 897.96936 1794.0066 7224353
1704.2637 898.85974 1795.7854 7684647
1707.7339 895.10132 1788.2769 6895642
0 0 0 0
0 0 0 0
0 0 0 0
0 0 0 0
0 0 0 0
0 0 0 0
0 0 0 0
0 0 0 0
0 0 0 0
0 0 0 0
-1716.7031 992.53375 1959.7325 768
-1724.1174 1003.6091 1981.6006 768
-1710.9225 1002.7574 1979.9188 512
-1698.0129 1002.0623 1978.5465 768
-1686.4911 1002.1823 1978.7834 264192
-1609.7527 963.2782 1901.9683 512
-1746.7832 1052.6471 2078.4248 329984
-1739.0576 1055.4329 2083.925 132352
-1724.4937 1054.0782 2081.2507 1536
-1704.0319 1049.0734 2071.3687 2048
-1657.2593 1027.6803 2029.1285 1024
-1680.7153 1049.8423 2072.8867 1024
-1664.8047 1047.5594 2068.3794 1024
-1624.2865 1029.6439 2033.0055 768
-1640.4657 1047.6699 2068.5974 768
-1612.223 1037.384 2048.2883 768
-1590.698 1031.2975 2036.2704 768
-1585.0724 1035.5048 2044.5776 132608
-1589.92 1046.6715 2066.6262 592896
-1563.1844 1037.0583 2047.6453 724737
-1582.0752 1057.8015 2088.6021 1185287
-1560.1423 1051.3611 2075.8857 593152
-1523.1696 1034.6027 2042.7964 264192
-1503.8346 1029.652 2033.0215 198400
-1501.5051 1036.3588 2046.2639 66816
-1483.316 1032.1392 2037.9324 1024
-1460.3481 1024.4978 2022.8446 1280
-1449.2134 1025.1 2024.0336 1280
-1432.2118 1021.5276 2016.9803 1280
-1418.5699 1020.3118 2014.5796 1280
-1407.7094 1021.0928 2016.1217 1280
-1391.7308 1018.1429 2010.2972 1280
-1376.5065 1015.6986 2005.4711 1280
-1339.636 997.10046 1968.7494 1280
-1330.9999 999.37518 1973.2408 1280
-1323.6959 1002.6993 1979.8042 1280
-1312.2374 1002.9077 1980.2156 1280
-1317.5706 1016.069 2006.2023 1280
-1286.7936 1001.3694 1977.1785 1280
-1290.4076 1013.4084 2000.949 1024
-1276.9025 1012.1016 1998.3687 1024
-1265.6343 1012.5599 1999.2738 512
-1265.2737 1021.8359 2017.589 512
-1247.4618 1017.0607 2008.1605 256
-1234.2117 1015.9488 2005.965 256
-1231.0468 1023.1976 2020.2775 256
-1225.8676 1028.8981 2031.5328 256
-1218.6752 1033.0051 2039.6422 512
-1216.3386 1041.3517 2056.1223 790275
-1201.7242 1039.2494 2051.9712 790530
-1192.8774 1042.1428 2057.6843 1053703
-1187.7162 1048.3491 2069.9385 395520
-1175.717 1048.5864 2070.407 66048
-1171.0111 1055.4019 2083.864 256
-1162.4177 1058.8215 2090.6162 65792
-1149.5815 1058.4087 2089.801 1512455
-1140.843 1061.8007 2096.4983 1379845
-1122.7194 1056.4362 2085.9062 1379075
-1118.9828 1064.6406 2102.1057 1707269
0 0 0 0
0 0 0 0
0 0 0 0
-1067.3976 1062.8861 2098.6416 2035977
-1062.6157 1070.5972 2113.8667 2035976
-1047.8828 1068.3466 2109.4231 1904390
-1036.2032 1069.1923 2111.0928 2299148
-1022.3615 1067.8003 2108.3445 2035976
-1007.4598 1065.2533 2103.3154 1838597
-998.32288 1068.8141 2110.3462 1904390
-982.05975 1064.7393 2102.3005 1838341
-965.30109 1060.0155 2092.9734 1969413
-955.73193 1063.1665 2099.1951 2364171
-939.90204 1059.3441 2091.6479 2100997
-928.69385 1060.6984 2094.3218 2100997
-911.07965 1054.6735 2082.426 2692877
-901.07996 1057.4191 2087.8469 2692877
-883.57654 1051.3127 2075.79 2232069
-875.69861 1056.6483 2086.3252 2100485
-868.78949 1063.3226 2099.5034 2034948
-849.30725 1054.5789 2082.239 2232071
-841.0141 1059.6754 2092.302 2298119
-827.81128 1058.6459 2090.2693 2494987
-808.93054 1050.2135 2073.6196 2626573
-795.62366 1048.869 2070.9651 2494987
-785.44159 1051.6665 2076.4885 2692366
-769.66583 1046.944 2067.1641 2429194
-758.51642 1048.4636 2070.1646 2955538
-742.93988 1043.813 2060.9822 2692366
-729.49457 1042.0515 2057.5042 2626573
-718.62866 1043.9773 2061.3066 2692109
-705.75092 1042.9966 2059.3701 2691595
-693.69452 1043.2164 2059.8042 3020303
-681.22882 1042.8175 2059.0166 2823180
-667.12823 1039.856 2053.1689 2757388
-655.80005 1041.1859 2055.7949 2428422
-642.49817 1039.3733 2052.2161 3020559
-630.67035 1039.9213 2053.2981 2691594
-616.71796 1036.9188 2047.3698 2888973
-605.47278 1038.439 2050.3711 2691594
-592.10767 1036.3109 2046.1694 2954766
-578.88208 1034.3433 2042.2844 2954766
-566.72589 1034.2432 2042.0868 3085837
-552.51617 1030.3093 2034.3196 2954507
-541.49933 1032.287 2038.2242 2954506
-528.00287 1029.5198 2032.7605 2888713
-515.79327 1029.1913 2032.1118 2757385
-502.55923 1026.7539 2027.2994 3019530
-490.32544 1026.2909 2026.3851 3151116
-476.2504 1021.854 2017.6246 3085323
-463.30524 1019.6752 2013.3228 3808789
-450.83466 1018.4535 2010.9104 3282446
-441.67758 1024.8539 2023.548 2558722
-428.92084 1023.0259 2019.9386 3019530
-417.36557 1024.041 2021.9427 3019530
-401.52225 1014.2839 2002.6777 2887944
-390.0965 1015.4317 2004.944 3480081
-378.16861 1015.3033 2004.6904 3216652
-367.49158 1018.6339 2011.2666 3414288
-353.82437 1013.6216 2001.37 3348494
-340.53192 1009.3726 1992.9802 3085322
-328.45752 1008.5582 1991.3724 2756358
-316.5354 1008.1682 1990.6023 3019530
-305.73105 1011.446 1997.0742 2821894
-293.67749 1010.6885 1995.5786 2887943
-280.28485 1005.0657 1984.4766 3282445
-269.3866 1008.2867 1990.8364 3348238
-255.99828 1002.0558 1978.5337 3282445
-244.51933 1003.0594 1980.5154 2953737
-231.08884 995.75513 1966.0931 2558979
-218.67577 992.29211 1959.2554 3282702
-206.69 990.48834 1955.694 3216908
-195.13515 990.65796 1956.0289 3151114
-183.75473 991.79059 1958.2651 3085321
-172.43245 993.41077 1961.4642 3151114
-161.11731 995.30933 1965.2129 2953735
-148.76677 990.60907 1955.9324 3282442
-137.68866 994.30341 1963.2267 3216648
-126.06839 994.40302 1963.4235 3216649
-113.90562 989.80878 1954.3522 3414027
-102.57567 992.23071 1959.1343 3216135
-90.93103 991.83826 1958.3594 3742480
-79.191116 990.13971 1955.0055 3479562
-67.835785 993.49146 1961.6235 4465687
-56.203518 993.3349 1961.3143 4531476
-44.774506 997.62543 1969.786 4991767
-32.925968 992.29828 1959.2676 7689017
-21.137941 983.98517 1942.8536 7819571
-9.6708899 988.59918 1951.9639 7884332
1.8887223 985.17841 1945.2096 8673589
13.326961 978.72235 1932.4623 8409648
24.608747 972.05359 1919.295 9461563
35.970161 971.75159 1918.6987 9724733
47.703922 979.23798 1933.4803 9855806
58.736786 972.22339 1919.6304 9395255
70.169754 973.03308 1921.2289 9395255
81.726929 975.09863 1925.3073 9527098
93.092766 974.65485 1924.4312 9066291
104.88984 978.3302 1931.688 9132340
116.25375 977.63971 1930.3246 9987649
127.52617 976.37231 1927.8223 10250564
139.57217 980.74921 1936.4642 10118978
149.90588 973.3432 1921.8413 9856062
162.1422 978.46423 1931.9528 9527354
173.7979 979.63739 1934.2689 10317126
183.92136 972.56281 1920.3004 10514506
194.91965 970.66919 1916.5615 9856319
206.25064 970.54956 1916.3254 10185284
218.87207 976.19806 1927.4781 9132083
230.28323 976.15601 1927.3951 9658681
242.88625 980.93134 1936.824 10053439
254.5493 981.651 1938.2449 9987903
265.22638 978.67023 1932.3595 9921856
275.52936 974.61304 1924.3485 9987648
286.41339 972.85187 1920.8711 9724733
296.40714 968.31683 1911.9169 9593147
307.87503 968.75421 1912.7804 9527354
318.45926 966.47876 1908.2876 10053185
328.1918 961.86328 1899.1746 9987651
339.19562 961.15613 1897.7782 10118980
350.19077 960.47058 1896.4247 10185031
364.46216 968.53412 1912.3459 10118981
374.78534 965.93555 1907.2151 9198135
386.93597 968.06116 1911.4121 9724478
400.05447 972.41846 1920.0155 10250566
408.56168 965.63611 1906.6238 10053185
420.46552 967.03064 1909.3772 10053442
432.34171 968.28998 1911.8639 9790013
444.2399 969.53326 1914.3187 10645066
455.87662 970.15814 1915.5524 10645324
466.71796 969.10107 1913.4653 10184773
482.39569 977.89825 1930.8352 9461307
489.83752 969.97925 1915.1992 10710860
500.17731 968.02728 1911.3452 10118723
511.28735 967.61957 1910.5402 10184771
519.01587 960.96857 1897.408 10053442
530.94385 962.21014 1899.8593 10119235
542.97131 963.5766 1902.5574 9921858
553.58563 962.43079 1900.295 10513995
564.70416 962.1897 1899.819 9592634
578.19037 965.91339 1907.1714 9132085
584.95691 958.48376 1892.5018 9132341
593.32745 953.9126 1883.4761 10250823
603.78143 952.79791 1881.2751 10119238
616.58057 955.35742 1886.3287 10185029
624.68823 950.68585 1877.105 10382409
636.28741 951.3985 1878.512 10513994
650.354 955.71246 1887.0298 10119237
656.17065 947.96204 1871.7268 10316360
668.48126 949.69513 1875.1488 9921858
681.30469 952.08813 1879.8738 10119750
689.98145 948.70264 1873.1891 9724735
701.54688 949.33331 1874.4343 10908752
714.30127 951.52814 1878.7679 9593405
715.95776 939.09875 1854.2264 9527102
727.44324 939.74255 1855.4978 10316618
738.51599 939.8421 1855.6943 10316617
752.34576 943.39575 1862.7109 10053187
765.44568 945.94489 1867.744 9527099
776.49518 945.92334 1867.7015 9921341
788.99066 947.63922 1871.0894 9658683
797.89069 945.04895 1865.975 9329464
808.18414 944.15729 1864.2145 9856065
821.83545 947.15973 1870.1426 9921601
830.06091 943.91211 1863.7303 10118980
840.34961 943.06519 1862.0581 9921857
851.42993 943.11719 1862.1608 9527099
862.04767 942.66193 1861.262 9921601
869.39777 938.69006 1853.4197 9592893
877.85437 935.99707 1848.1024 9855808
890.57349 937.85944 1851.7795 9856065
904.15063 940.56897 1857.1294 9724480
914.57947 939.97754 1855.9617 9921860
924.59845 938.98401 1854 10185032
937.3866 940.79297 1857.5717 10053190
943.9176 936.35297 1848.8051 10184776
950.95837 932.51477 1841.2266 8868915
960.65436 931.33777 1838.9027 10382155
967.3092 927.27203 1830.8749 9855297
989.77362 938.28345 1852.6167 9526332
988.92297 927.1936 1830.7201 10447177
1000.8138 928.16101 1832.6302 10118725
1021.61 937.27789 1850.6312 9987396
1047.7378 951.04047 1877.8052 9658176
1047.3802 940.72571 1857.439 10447947
1055.2593 937.94635 1851.951 9987653
1067.5934 939.14319 1854.3142 9855039
1080.8917 941.15515 1858.2867 9723452
1094.4614 943.3606 1862.6414 9394744
1102.3896 940.70776 1857.4036 9920831
1109.9956 937.83527 1851.7317 9526075
1124.4647 940.7608 1857.5083 9395259
1135.5652 940.83862 1857.6619 9658687
1146.7782 941.00739 1857.995 9790273
1154.6573 938.46326 1852.9718 10316618
1160.3213 934.18365 1844.5217 10316361
1169.8181 933.04077 1842.2653 10250824
1177.5754 930.54468 1837.3367 9856066
1195.1073 935.74756 1847.6096 8934965
1207.0919 936.55194 1849.1979 9263673
1219.0356 937.31049 1850.6956 9658176
1229.6012 937.00525 1850.0929 9658688
1230.8033 929.63312 1835.5367 9461052
1246.8516 933.50525 1843.1824 9329466
1267.5972 940.79657 1857.5789 9066037
1280.1649 941.94501 1859.8463 9131574
1287.7495 939.43854 1854.8975 9394746
1298.5172 939.27704 1854.5786 9263160
1312.0848 941.12653 1858.2303 9394746
1321.7457 940.16632 1856.3345 9197880
1330.8365 938.81989 1853.6759 9592639
1332.5299 932.3197 1840.8416 9658431
1342.0791 931.37701 1838.9801 9329722
1360.1946 936.34631 1848.7919 9197880
1367.4424 933.81488 1843.7936 9197880
1380.5234 935.27539 1846.6774 10053702
1376.8904 925.47858 1827.3337 9527872
1388.4894 925.99286 1828.3494 9659715
1397.6364 924.87665 1826.1454 9791558
1410.679 926.33582 1829.0264 9528130
1423.4237 927.57855 1831.4801 9922888
1438.0564 930.02338 1836.3074 9857095
1448.1138 929.49487 1835.2639 9527874
1458.2228 929.00708 1834.3008 8080173
1470.0757 929.62921 1835.5292 9198655
1476.5397 926.85956 1830.0605 8738360
1479.5765 921.99463 1820.4548 9264447
1493.198 923.74823 1823.9174 9330496
1476.0194 906.55939 1789.9784 9067837
1516.2711 924.63745 1825.6731 9199425
1528.6376 925.57513 1827.5245 9133633
1539.8068 925.77985 1827.9286 8870460
1552.6406 926.97546 1830.2893 8935740
1559.5621 924.64917 1825.6962 7817003
1576.5792 928.29926 1832.9031 9396291
1579.4143 923.60596 1823.6364 9001277
1596.0421 926.98749 1830.3131 9133120
1600.459 923.27893 1822.9907 8540982
1602.8896 918.48206 1813.5194 8475190
1612.3215 917.73413 1812.0427 8277555
1629.8037 921.5481 1819.5731 7948845
1622.9039 911.61609 1799.9628 8277554
1628.1415 908.58698 1793.9818 7685673
1628.7412 903.02594 1783.0016 7027487
1640.8835 903.89471 1784.717 7685674
1652.9369 904.70374 1786.3145 7750440
1665.6958 905.88623 1788.6493 7684904
1671.813 903.4646 1783.8677 7816233
1667.8361 895.65259 1768.4431 6697752
1680.0325 896.56927 1770.2531 7487525
1687.0576 894.73193 1766.6254 7158560
0 0 0 0
0 0 0 0
0 0 0 0
0 0 0 0
0 0 0 0
0 0 0 0
0 0 0 0
0 0 0 0
0 0 0 0
0 0 0 0
0 0 0 0
-1723.9197 1015.2344 1981.3733 768
-1705.199 1011.0955 1973.2955 512
-1696.219 1012.7149 1976.4562 198400
-1749.9775 1052.0751 2053.2729 66816
-1740.6829 1053.8136 2056.666 132608
-1684.4515 1026.9609 2004.259 329984
-1665.3896 1022.5488 1995.6482 198400
-1710.1327 1057.5299 2063.9189 768
-1699.0347 1058.2346 2065.2942 768
-1650.8445 1035.6793 2021.2745 768
-1611.4596 1018.3589 1987.4712 768
-1630.9135 1038.2401 2026.2722 768
-1643.2522 1053.8533 2056.7434 768
-1592.6064 1029.0046 2008.2477 768
-1600.4025 1041.826 2033.2706 768
-1586.2052 1040.4163 2030.5192 512
-1602.5543 1059.174 2067.1274 527360
-1566.5066 1043.3234 2036.1926 724737
-1506.3485 1011.0439 1973.1948 395776
-1491.8682 1009.1577 1969.5138 1053700
-1547.0568 1054.7402 2058.4744 461568
-1504.5258 1033.8951 2017.7924 512
-1479.5958 1024.9083 2000.2533 768
-1483.0417 1035.5908 2021.1018 1024
-1468.7612 1033.9685 2017.9354 1280
-1452.598 1030.9832 2012.1093 1280
-1442.2676 1032.1226 2014.3328 1280
-1422.5076 1026.4766 2003.3138 1280
-1409.4346 1025.6014 2001.6061 1280
-1398.5048 1026.2844 2002.9387 1280
-1384.8811 1024.9851 2000.4032 1280
-1368.9283 1021.9247 1994.4303 1280
-1330.6127 1001.9713 1955.4885 1280
-1321.1559 1003.5896 1958.6467 1280
-1307.984 1002.3895 1956.3044 1280
-1297.2041 1003.0173 1957.5298 1024
-1284.1101 1001.851 1955.2535 1024
-1272.7197 1002.0048 1955.5537 1024
-1266.079 1005.9349 1963.2241 1024
-1272.9581 1020.7798 1992.1958 1024
-1263.078 1022.3374 1995.2357 512
-1253.9821 1024.5653 1999.5836 512
-1243.3571 1025.5743 2001.553 512
-1231.1105 1025.2523 2000.9246 256
-1224.9371 1030.0311 2010.251 256
-1216.8253 1033.2576 2016.5479 256
-1202.9799 1031.631 2013.3735 131840
-1196.7645 1036.5808 2023.0338 328960
-1197.8884 1048.0521 2045.4215 592130
-1187.2622 1049.3722 2047.998 0
-1179.8037 1053.5486 2056.1487 0
-1174.1193 1059.4126 2067.5933 526596
-1161.5414 1059.1149 2067.0122 788226
-1149.264 1059.0878 2066.9592 1314566
-1135.6133 1057.7808 2064.4084 1708296
-1120.764 1055.3168 2059.5996 1576453
0 0 0 0
-1098.2911 1057.1793 2063.2346 1904648
-1092.6646 1063.6028 2075.7708 2036234
0 0 0 0
0 0 0 0
-1056.1549 1063.9954 2076.5371 2233355
-1046.4084 1066.6024 2081.6252 1904390
-1034.787 1067.338 2083.0608 2035976
-1024.2031 1069.1743 2086.6445 1838597
-1009.0551 1066.2327 2080.9036 2035976
0 0 0 0
-979.94238 1061.4103 2071.4919 2036233
-967.87701 1061.6395 2071.9395 2101255
-953.51532 1059.3236 2067.4197 2100998
-939.86536 1057.7483 2064.3452 2100742
-928.32379 1058.5356 2065.8818 2034946
-915.08948 1057.3882 2063.6423 2363912
-902.81317 1057.3315 2063.5317 2363911
-889.15955 1055.6382 2060.2268 2363912
-875.13092 1053.4462 2055.9487 2429705
-866.22882 1057.4504 2063.7637 2561291
-854.71716 1058.3383 2065.4963 2232326
-838.09863 1052.8364 2054.7588 2363912
-827.66565 1055.0573 2059.0933 2495242
-809.5415 1047.3939 2044.137 2955538
-794.80707 1043.9498 2037.4154 2560780
-782.40521 1043.5106 2036.5582 2363401
-774.60028 1049.2847 2047.827 2297608
-760.48163 1046.5537 2042.4972 2231815
-752.48737 1052.299 2053.71 2494987
-733.32764 1042.3622 2034.317 2231816
-721.72278 1043.0115 2035.5842 2626572
-713.41516 1048.5289 2046.3523 2494987
-697.47919 1042.8317 2035.2333 2757389
-684.44501 1041.3489 2032.3394 2099459
-671.9953 1040.7181 2031.1084 2230788
-656.74005 1035.6403 2021.1981 2625546
-646.26318 1038.0488 2025.8988 2823180
-632.18036 1034.647 2019.2596 3349524
-621.7204 1037.1576 2024.1594 2954766
-612.15613 1041.2904 2032.2253 2494215
-594.29449 1031.1921 2012.517 2691337
-582.27734 1031.0289 2012.1985 2691594
-571.17267 1032.5083 2015.0857 2625288
-557.2359 1028.822 2007.8914 2690824
-544.59033 1027.4109 2005.1375 2888715
-532.92346 1027.8245 2005.9443 2954507
-519.70319 1025.1924 2000.8075 2757128
-506.76538 1023.0077 1996.5439 2888715
-495.16983 1023.4929 1997.491 2888200
-483.05673 1022.9061 1996.3456 2953737
-471.49268 1023.4816 1997.4686 2953737
-457.8295 1019.4126 1989.5275 2624515
-445.2944 1017.7068 1986.1985 2690565
-435.65155 1022.698 1995.9396 3085322
-423.20111 1021.1932 1993.0026 3150859
-410.03882 1017.8345 1986.4479 3216908
-398.36044 1018.0701 1986.9075 3480081
-385.7608 1015.8938 1982.6602 3150859
-371.12985 1008.0633 1967.3778 3282702
-360.39478 1010.65 1972.4261 3874839
-346.05475 1002.962 1957.4219 3216652
-334.78909 1003.9602 1959.37 3216909
-324.48083 1008.0042 1967.2626 2690565
-310.73996 1001.2888 1954.1565 3545874
-299.23468 1001.5361 1954.639 2953480
-288.35965 1003.9976 1959.4431 2953737
-277.77322 1007.7128 1966.6937 3085323
-265.13153 1003.9707 1959.3905 3085323
-253.59964 1004.2806 1959.9954 3151116
-239.88319 995.55414 1942.9644 2756358
-229.12642 998.85016 1949.397 2756358
-215.98535 991.55029 1935.1504 2690308
-204.05696 989.31116 1930.7804 2887943
-192.20912 987.21967 1926.6986 3216908
-181.81252 992.78864 1937.5671 3019527
-170.35539 992.92706 1937.8373 3085321
-158.36617 989.75989 1931.6561 3611408
-145.71188 981.6189 1915.7678 3150857
-135.78827 992.05231 1936.1301 3150857
-124.31593 992.05231 1936.1301 3019271
-112.86372 992.22943 1936.4757 2821892
-101.41667 992.49707 1936.9982 3215879
-90.155098 994.87982 1941.6483 3544331
-78.381378 991.48114 1935.0154 3873551
-66.840645 990.36993 1932.8468 4202256
-55.033451 984.03497 1920.483 4596495
-44.286213 998.29028 1948.3043 5517338
-32.408073 988.11719 1928.4501 6042908
-20.937706 986.0672 1924.4493 7358507
-9.5308247 985.67993 1923.6934 6962974
1.8620501 982.62927 1917.7396 8607028
13.190035 979.99957 1912.6075 8607281
24.477377 978.17633 1909.0492 9331001
36.032421 984.82233 1922.0197 8869680
47.15657 979.32739 1911.2957 10251077
58.626862 981.7572 1916.0377 9987905
69.912422 980.80701 1914.1833 9922368
81.333649 981.75958 1916.0424 9592889
92.230141 976.92078 1906.5988 10119488
103.29526 974.72919 1902.3217 9856062
114.41274 973.41449 1899.7557 9790269
126.35485 978.72266 1910.1154 9790269
137.0403 974.22424 1901.3362 9856062
148.84669 977.77313 1908.2622 9856062
159.94623 976.50507 1905.7875 10448199
171.2881 976.78625 1906.3362 9658683
182.26859 975.09937 1903.0441 9856063
193.17131 973.21729 1899.3708 10053185
204.6423 974.24774 1901.382 9855806
216.84163 978.45709 1909.5972 10250820
228.01144 977.83405 1908.3811 10119234
239.88704 980.15344 1912.9077 10118978
251.17845 979.98438 1912.5778 9724477
262.15207 978.64349 1909.9609 10119491
272.45862 975.02649 1902.9019 10251333
283.27341 973.44342 1899.8123 10119748
293.34991 969.54132 1892.1968 10053955
303.07581 964.81036 1882.9635 9395255
312.55487 959.65747 1872.9071 9263926
323.93817 960.50433 1874.5598 10119235
336.37906 964.32678 1882.0198 9724220
346.58951 961.71497 1876.9225 10448200
357.55795 961.30334 1876.1191 10316357
368.76236 961.53192 1876.5653 10316613
383.33636 970.276 1893.6305 10579785
394.24026 969.49738 1892.111 9987391
403.67816 965.25641 1883.8341 10382664
414.39093 964.20996 1881.7917 10053699
425.02374 963.03729 1879.5032 11106130
438.77341 968.8064 1890.7625 9658428
450.09164 969.05341 1891.2445 9856063
461.60471 969.69763 1892.5018 9790270
468.16907 960.16205 1873.8918 10118979
482.51892 966.66559 1886.5844 10777166
490.02863 959.48157 1872.5637 9790012
502.68793 962.4754 1878.4065 10316611
513.20929 961.33472 1876.1804 12224360
523.28656 959.42804 1872.4594 10052931
535.40338 961.26251 1876.0396 10316358
548.40265 964.57452 1882.5033 10513738
559.50726 964.48834 1882.3351 10053442
570.82422 964.76447 1882.874 9790270
580.0213 961.51587 1876.5339 9592636
590.84106 961.02875 1875.5833 9263671
599.6366 957.32794 1868.3607 9395514
610.52118 957.03607 1867.7909 10184773
620.67365 955.62738 1865.0416 10250566
629.44794 952.18317 1858.3198 11237718
639.44696 950.67816 1855.3827 10185029
651.87762 952.7782 1859.4811 10579788
661.98547 951.46979 1856.9276 9921858
674.56805 953.70294 1861.2858 9922114
683.06848 950.18573 1854.4215 9790530
693.34021 949.20477 1852.5072 10251335
704.6673 949.67688 1853.4285 10317129
706.70392 937.80579 1830.2604 9658943
724.36987 946.72046 1847.6586 10448714
729.79572 939.61053 1833.7826 9264440
740.92365 939.94305 1834.4314 9856578
756.73987 946.1275 1846.5012 9856319
768.11041 946.65649 1847.5337 9395766
777.49664 944.75952 1843.8315 9528899
786.43524 942.37866 1839.1849 11042140
791.91064 935.96967 1826.677 9790270
806.44409 940.2951 1835.1187 9987393
819.94366 943.31598 1841.0142 8803376
830.37457 942.77344 1839.9554 9790272
842.49792 944.14166 1842.6256 9790271
852.40381 943.02155 1840.4396 10250822
864.22223 944.01886 1842.3861 11303767
873.10901 941.82904 1838.1123 9987653
880.22766 937.80933 1830.2672 9921860
891.19476 937.93774 1830.5178 9461308
906.90356 942.99341 1840.3848 10513998
911.1651 936.16772 1827.0635 9395259
920.76886 934.92664 1824.6412 9987396
930.99084 934.33472 1823.4861 9198137
941.02832 933.5733 1822.0001 9987139
949.44873 931.24335 1817.4528 10184775
961.73199 932.71173 1820.3186 9658688
972.57587 932.76715 1820.4268 9526332
983.53418 932.92987 1820.7443 9986626
995.65173 934.1767 1823.1776 9263673
1005.4511 933.24512 1821.3595 9790017
1021.974 938.50769 1831.6302 9724224
1033.281 938.92004 1832.4349 9921604
1047.3158 941.77686 1838.0105 9789762
1050.8901 935.2652 1825.3021 9658433
1069.2506 941.91144 1838.2732 10382154
1075.6826 938.02179 1830.682 9921089
1083.3527 935.27875 1825.3284 9855039
1096.7107 937.45166 1829.5693 10052419
1101.8042 932.5871 1820.0753 9395259
1115.564 935.08075 1824.9421 9263930
1126.8685 935.4884 1825.7377 10053446
1135.3654 933.57959 1822.0123 10119239
1147.4369 934.61841 1824.0398 10645326
1154.583 931.66345 1818.2727 9724481
1166.4575 932.54321 1819.9897 9592638
1180.345 935.00153 1824.7874 9790274
1188.5474 932.95251 1820.7886 9724224
1209.5585 940.90442 1836.3077 9592383
1220.0874 940.633 1835.7781 9132344
1229.7677 939.71802 1833.9923 9394745
1241.0502 940.03265 1834.6063 9789247
1252.969 940.81952 1836.1421 9394745
1264.0481 940.96783 1836.4315 9263159
1280.1571 944.82593 1843.9612 8802608
1283.2876 939.12097 1832.8271 8473642
1290.89 936.7569 1828.2134 9460539
1301.7408 936.76978 1828.2385 9592124
1312.6162 936.79999 1828.2974 9328953
1325.1056 937.97229 1830.5852 9066295
1332.3096 935.41443 1825.5933 9461054
1338.1182 931.92615 1818.7854 8803380
1339.7213 925.58801 1806.4156 9132602
1350.1687 925.41235 1806.0728 9263930
1365.2897 928.41754 1811.9379 8803379
1369.6681 924.12775 1803.5657 9461566
1381.566 924.93842 1805.1479 9329979
1377.5406 915.15826 1786.0605 9395773
1400.6487 923.41571 1802.176 8540978
1416.0055 926.47656 1808.1498 9001272
1432.5603 930.26941 1815.5521 9133371
1449.1494 934.02789 1822.8872 9462082
1441.4091 922.16559 1799.7363 9791560
1448.0159 919.58881 1794.7074 8014893
1466.3608 924.44995 1804.1946 8673081
1473.7036 922.35455 1800.1052 9396547
1496.858 930.11438 1815.2495 9659975
1512.6552 933.22443 1821.3192 8607030
1523.8331 933.46094 1821.7806 8672824
1533.0162 932.48053 1819.8674 9265218
1543.9402 932.56537 1820.033 9988685
1556.9591 933.9057 1822.6488 9462085
1567.4297 933.70953 1822.2659 7948846
1571.4952 929.72668 1814.4929 8738105
1574.5402 925.1983 1805.655 8935484
1569.8876 916.23846 1788.1686 8672312
1578.1271 914.8725 1785.5028 9067584
1585.246 912.87958 1781.6134 8935998
1602.2026 916.54059 1788.7583 8936254
1601.6827 910.22174 1776.4263 8146737
1614.6263 911.58673 1779.0901 7948587
1614.0857 905.37024 1766.9579 7817259
1612.0385 898.39441 1753.3435 8014382
1639.9916 908.12012 1772.3246 7159330
1643.1837 904.09833 1764.4755 7817260
1640.8828 897.12415 1750.8644 8014639
1644.6172 893.5166 1743.8237 7356452
1660.7792 896.6637 1749.9658 7948076
1665.7933 893.79047 1744.3582 7684647
0 0 0 0
0 0 0 0
0 0 0 0
0 0 0 0
0 0 0 0
0 0 0 0
0 0 0 0
0 0 0 0
0 0 0 0
0 0 0 0
0 0 0 0
-1701.1884 1013.4333 1955.2471 768
-1684.7202 1010.5048 1949.597 512
-1681.0219 1015.2479 1958.7482 66816
-1745.783 1061.6906 2048.3513 198144
-1656.5653 1014.4863 1957.2787 264192
-1686.855 1040.3191 2007.1187 264192
-1691.7169 1050.7256 2027.1963 768
-1667.4243 1043.0436 2012.3751 768
-1624.4486 1023.4797 1974.6299 768
-1654.8037 1050.1689 2026.1222 768
-1606.7539 1027.1273 1981.6675 768
-1653.3206 1064.676 2054.1113 768
-1614.953 1047.6815 2021.3234 768
-1603.5918 1048.0842 2022.1001 768
-1593.3745 1049.2461 2024.3418 768
-1582.849 1050.2211 2026.2229 66560
-1597.879 1068.2966 2061.0967 461568
-1559.4521 1050.6359 2027.0231 264192
-1546.3533 1049.8971 2025.5979 659457
-1543.6166 1056.2373 2037.8302 66816
-1532.5396 1056.9255 2039.1581 1280
-1501.3556 1043.6477 2013.5406 1024
-1489.1765 1043.4738 2013.2052 1024
-1475.4302 1042.1903 2010.7288 1280
-1461.1592 1040.512 2007.4908 1280
-1443.9165 1036.6729 2000.0837 1280
-1433.6783 1037.8405 2002.3367 1280
-1415.0697 1032.9177 1992.8391 1280
-1404.5026 1033.8314 1994.6019 1280
-1390.3833 1032.1238 1991.3073 1280
-1377.7767 1031.5194 1990.1412 1280
-1364.0989 1030.0956 1987.3942 1024
-1319.236 1004.8926 1938.7692 1280
-1313.0789 1008.9889 1946.6724 1280
-1297.7834 1006.0735 1941.0477 1280
-1288.72 1007.9804 1944.7268 1024
-1273.778 1005.2823 1939.5212 1024
-1261.6984 1004.8148 1938.6191 1024
-1252.8816 1006.9609 1942.7598 768
-1268.6799 1029.114 1985.5004 768
-1260.0822 1031.7072 1990.5034 512
-1250.5618 1033.5867 1994.1296 512
-1238.9822 1033.7839 1994.5101 512
-1227.1237 1033.75 1994.4447 256
-1212.3529 1031.2383 1989.5989 256
-1208.4637 1038.024 2002.6908 256
-1201.5798 1042.3466 2011.0304 1250318
-1197.2701 1049.0111 2023.8885 256
-1194.694 1057.3447 2039.9668 256
-1187.2622 1061.5074 2047.998 591875
-1175.6403 1061.9712 2048.8928 920580
-1163.9391 1062.3721 2049.6663 1445639
-1150.8783 1061.5276 2048.0369 1379335
-1142.7712 1065.2827 2055.2817 1839112
-1133.4084 1067.9358 2060.4004 1904648
0 0 0 0
-1100.5211 1059.7794 2044.6641 2035977
-1091.4244 1062.7188 2050.335 2101257
-1075.9304 1059.425 2043.9805 2101513
0 0 0 0
-1056.2034 1063.9539 2052.718 2167049
-1039.3867 1059.2117 2043.5686 2298378
-1032.0059 1064.0867 2052.9741 2100743
-1024.4532 1068.8989 2062.2585 2100999
-1010.4194 1066.9832 2058.5625 1706241
-992.84009 1061.231 2047.4647 2298378
-981.54224 1062.1335 2049.2061 2429707
-966.92627 1059.4235 2043.9773 2232585
-957.78711 1062.7212 2050.3398 2495244
-944.76056 1061.7352 2048.4375 1968643
-930.77863 1059.6359 2044.3871 2363658
-917.3916 1058.1672 2041.5536 2298118
-905.80457 1058.7633 2042.7036 2627084
-896.46204 1062.0347 2049.0151 2627084
-883.49402 1061.0417 2047.0995 2363912
-876.80084 1067.6619 2059.8718 2561034
-853.63892 1054.1321 2033.7686 2034434
-837.99854 1049.6362 2025.0945 2757901
-835.71716 1061.9854 2048.9202 2429191
-819.73901 1057.0371 2039.3733 2231558
-803.76276 1051.9431 2029.5453 2297608
-786.14886 1044.5186 2015.2208 2231815
-771.22955 1040.5004 2007.4686 2099972
-761.71436 1043.7615 2013.7603 2231815
-754.35828 1050.1321 2026.0511 2231815
-742.47723 1050.3077 2026.39 2231558
-723.33313 1040.0458 2006.5914 2363401
-717.08832 1048.2982 2022.5129 2626573
-704.49109 1047.3867 2020.7546 3218453
-688.42621 1041.1992 2008.8169 2297095
-676.0802 1040.5175 2007.5015 2362374
-665.90039 1043.205 2012.6864 2231045
-651.01691 1038.4872 2003.5844 2822926
-639.29321 1038.7283 2004.0494 2494215
-625.6347 1035.7751 1998.3521 1640450
-612.05908 1032.8481 1992.7047 2428421
-602.75983 1037.1642 2001.0319 2757130
-588.35352 1032.6893 1992.3984 2691594
-575.10992 1030.114 1987.4298 2560008
-561.38861 1026.5573 1980.5677 2625801
-550.50653 1028.1515 1983.6434 2494215
-538.69623 1028.0439 1983.4358 3085837
-526.38599 1026.9562 1981.3372 2625542
-511.96448 1021.6056 1971.0143 2559494
-496.84338 1014.5769 1957.4535 2427907
-488.95633 1022.3374 1972.426 2887945
-477.76489 1023.3998 1974.4758 3019530
-465.23328 1021.5728 1970.9508 2756357
-451.32834 1016.5583 1961.2765 3282702
-440.3302 1017.9991 1964.0563 3151116
-430.72675 1022.83 1973.3766 2427394
-417.61484 1019.3668 1966.6947 2887944
-403.6012 1013.4403 1955.2606 2756102
-392.26236 1014.0786 1956.4922 2822153
-378.23837 1007.6025 1943.9977 2822151
-368.15479 1011.5464 1951.6067 2822151
-354.96265 1006.928 1942.6963 3282702
-344.35309 1009.5716 1947.7966 3414288
-331.68121 1006.1425 1941.1809 2887944
-318.93622 1002.2374 1933.6466 2756358
-308.56668 1005.7841 1940.4893 3085323
-297.87637 1008.5193 1945.7665 3216652
-285.66153 1006.1053 1941.1091 2887944
-271.80728 997.47247 1924.4535 3150859
-261.58392 1001.9918 1933.1727 3085323
-250.26253 1002.5263 1934.2039 3019529
-237.82199 998.41376 1926.2695 3085323
-225.67929 995.19989 1920.069 2690565
-214.41667 995.73199 1921.0955 2953737
-201.67734 989.08148 1908.2644 3085323
-190.35118 988.98303 1908.0746 3151113
-179.6304 992.21625 1914.3125 3085320
-168.67255 994.48755 1918.6945 3151114
-157.23598 994.06049 1917.8706 3085064
-145.02203 988.26947 1906.6979 2953478
-133.90216 989.58557 1909.2371 2690306
-123.13533 993.99445 1917.7432 3414029
-111.79978 994.24213 1918.2209 3611408
-100.43354 994.24213 1918.2209 3676943
-88.811806 991.38989 1912.718 3610637
-77.483894 991.46301 1912.8591 3874063
-66.143082 991.36774 1912.6753 4136463
-54.893559 992.88416 1915.6011 4662288
-43.383224 989.24432 1908.5786 5517335
-32.018883 987.54041 1905.2911 6634530
-20.833338 992.49835 1914.8567 7292969
-9.4514275 988.77222 1907.6677 7489577
1.8527339 989.01953 1908.1449 7949612
13.102407 984.74664 1899.9011 7620644
24.420729 987.19818 1904.631 9067576
35.687794 986.68298 1903.6368 9724990
47.110268 989.67993 1909.4189 9330232
58.102276 984.2243 1898.8933 9330232
69.188667 981.8783 1894.3671 9856575
80.301193 980.50629 1891.7201 9395255
91.143089 976.57074 1884.127 10250821
101.4016 967.92548 1867.4475 9724221
112.93181 971.92596 1875.1658 10382150
124.24529 973.51154 1878.2249 10777164
136.76913 983.54053 1897.5741 10053185
148.35585 985.81866 1901.9694 9790013
157.58736 973.22974 1877.6812 9592634
170.1398 981.45807 1893.5564 9395771
179.80467 973.04187 1877.3187 9922115
191.79211 977.44293 1885.8098 10053444
202.96762 977.44922 1885.822 9724478
213.84206 976.08075 1883.1818 9856062
226.0972 980.83765 1892.3594 10053441
236.7646 978.58276 1888.0089 9921855
247.66269 977.44165 1885.8074 9724220
258.41293 975.84076 1882.7188 9790013
271.28799 982.06439 1894.7261 10250820
278.89368 969.47595 1870.439 9921856
290.92117 972.63336 1876.5306 9790272
301.17773 969.85547 1871.1711 10185030
311.67926 968.03571 1867.6603 9592892
321.57861 964.53467 1860.9055 10579531
332.97284 965.60065 1862.9623 9856065
344.45511 966.84546 1865.3639 10382407
354.29315 963.5412 1858.9888 9724476
367.0531 968.14294 1867.8671 9592891
378.73605 969.71777 1870.9055 10119234
389.32809 968.48938 1868.5355 9329720
399.01248 965.13336 1862.0607 10185030
411.95627 969.62994 1870.736 10579788
421.64755 966.43567 1864.5732 10448202
433.64871 968.56384 1868.6792 10053701
443.03314 964.88702 1861.5853 9527100
455.63867 968.23364 1868.0421 9921857
467.18945 969.23328 1869.9708 9461050
476.84076 966.33746 1864.3837 10250822
486.32846 963.24847 1858.4241 9592893
499.6618 967.74475 1867.0988 9856065
509.66412 965.73425 1863.22 8934964
517.04181 958.94122 1850.114 10185031
528.10559 959.12488 1850.4683 9921858
542.745 965.6629 1863.0823 10119237
553.42316 965.03278 1861.8666 10447945
565.82172 967.36865 1866.3733 10382152
575.46289 964.99097 1861.786 10250822
585.09589 962.68951 1857.3456 9592892
596.83612 963.8761 1859.6349 10119237
608.48358 964.8725 1861.5573 9724222
612.20227 953.48462 1839.5863 9987650
622.49341 952.55249 1837.7878 9066292
636.21136 956.80597 1845.9944 9856065
647.22614 956.91913 1846.2126 9658431
658.86151 957.93079 1848.1646 9526846
663.12622 948.36829 1829.7152 9856067
675.98187 951.20215 1835.1826 9461307
683.91418 947.12793 1827.3223 9987907
698.91272 952.81409 1838.2927 9922370
704.69336 945.95197 1825.0533 9724993
718.1123 949.39563 1831.6973 9856321
724.03198 942.96991 1819.2999 9461819
737.44043 946.34271 1825.8074 9132598
746.58099 944.2204 1821.7126 10119237
759.24005 946.5451 1826.1978 9987651
768.85889 945.06757 1823.347 9921857
778.09338 943.16498 1819.6763 9329464
786.29559 940.08032 1813.725 9593406
799.61005 943.1084 1819.5673 9724478
810.50513 943.24042 1819.8219 10119237
823.97821 946.32971 1825.7821 10580047
833.01166 944.30615 1821.8781 9264187
844.315 944.87463 1822.9749 10251081
859.80994 950.06036 1832.9799 10382411
864.30035 943.10876 1819.568 10053447
874.84943 942.85803 1819.0842 9856325
884.70746 941.87787 1817.193 10251596
891.66553 937.87091 1809.4623 9462593
905.23645 940.83203 1815.1753 9988938
917.63184 942.5163 1818.4248 11041881
919.14459 933.11334 1800.2834 9198137
931.22455 934.53088 1803.0184 9526845
945.04242 937.64062 1809.0181 10118469
953.82117 935.73694 1805.3452 10118212
961.33698 932.65033 1799.3901 10052419
967.18005 928.02637 1790.469 10315591
977.0274 927.30328 1789.074 9987139
990.87268 930.34943 1794.9509 9855810
1009.8822 938.12811 1809.9586 9658431
1012.999 931.13501 1796.4666 9658431
1035.1495 941.60101 1816.6589 9855810
1047.2367 942.79175 1818.9563 9658431
1056.9824 941.87183 1817.1815 10119239
1066.4056 940.6861 1814.8938 9790017
1074.7539 938.58508 1810.8403 9921603
1085.6093 938.6936 1811.0496 9724480
1100.1787 941.97998 1817.39 9526845
1110.4921 941.59381 1816.645 9263673
1122.843 942.92621 1819.2157 9724224
1130.6212 940.42963 1814.399 8934965
1139.9915 939.29199 1812.204 9000501
1151.0654 939.56622 1812.7332 9987396
1163.7129 941.10785 1815.7075 10053189
1170.7422 938.11932 1809.9415 10053445
1182.7831 939.16449 1811.9581 10250568
1196.6112 941.59717 1816.6515 9987398
1207.056 941.34802 1816.1708 9658688
1219.0751 942.32007 1818.0461 9592638
1230.2932 942.66138 1818.7047 9658174
1242.3766 943.65399 1820.6198 9855553
1252.1581 942.89612 1819.1576 9723710
1260.3589 940.97107 1815.4436 9592124
1274.9896 943.83844 1820.9757 9789503
1278.7478 938.67664 1811.017 9855039
1291.2413 939.95972 1813.4923 9394489
1285.6636 928.17511 1790.756 9986626
1308.5281 936.9491 1807.684 9132344
1325.6761 941.52075 1816.504 9922118
1333.8308 939.68268 1812.9579 9790532
1326.9882 927.39294 1789.2469 9593668
1340.6431 929.5097 1793.3308 9264703
1350.1422 928.73438 1791.835 8540980
1369.4922 934.69452 1803.334 8475442
1366.1234 925.17657 1784.9707 9133116
1377.5262 925.73181 1786.042 9658945
1385.7111 924.13239 1782.9563 9658688
1397.5774 924.9939 1784.6183 9132602
1408.2277 925.0437 1784.7144 9001531
1419.2235 925.31781 1785.2434 9330497
1422.0746 920.31708 1775.5952 8409907
1432.541 920.28198 1775.5275 7620135
1445.88 922.07935 1778.9951 9199425
1464.9886 927.50348 1789.4601 9462598
1479.4216 929.91058 1794.1042 9528133
1502.5557 937.71368 1809.1589 8673081
1508.2554 934.60284 1803.1571 8212273
1508.7463 928.33075 1791.0562 8936253
1519.2319 928.25305 1790.9064 8607032
1535.9795 931.97607 1798.0892 9133376
1546.6528 931.98743 1798.1112 8146738
1555.4633 930.88373 1795.9818 8475702
1563.2963 929.21423 1792.7607 7948846
1564.0707 923.39984 1781.543 7949358
1568.962 920.07776 1775.1335 8738618
1578.1346 919.29382 1773.621 8869948
1584.8849 917.11859 1769.4242 8409396
1587.6366 912.67322 1760.8477 8014638
1602.4323 915.16437 1765.6539 7751210
1601.3578 908.61841 1753.0245 8145968
1608.2366 906.64044 1749.2084 8343604
1610.1018 901.87952 1740.0231 8212017
1610.6904 896.46863 1729.5837 8606776
1625.1045 898.77252 1734.0286 8803898
1631.2878 896.52393 1729.6903 6369814
1640.9529 896.20496 1729.075 8409397
1652.1158 896.70276 1730.0355 8277554
0 0 0 0
0 0 0 0
0 0 0 0
0 0 0 0
0 0 0 0
0 0 0 0
0 0 0 0
0 0 0 0
0 0 0 0
0 0 0 0
0 0 0 0
-1693.8051 1020.5703 1946.7614 512
-1736.6027 1053.532 2009.6365 329984
-1743.5334 1065.0397 2031.5876 658944
-1662.1694 1022.3974 1950.2465 395776
-1708.0323 1057.9629 2018.0885 856321
-1725.1127 1076.0763 2052.6401 512
-1641.2124 1031.0105 1966.6763 768
-1677.6686 1061.4491 2024.7386 768
-1688.0715 1075.7238 2051.9678 768
-1677.8043 1076.9379 2054.2837 768
-1665.4291 1076.8069 2054.0337 768
-1616.4438 1052.8287 2008.295 768
-1606.9376 1054.3994 2011.2911 768
-1594.1089 1053.7972 2010.1425 768
-1510.3394 1005.9368 1918.8477 768
-1569.1511 1053.0349 2008.6882 768
-1559.4349 1054.5131 2011.5079 512
-1490.2015 1015.4578 1937.009 512
-1473.4468 1011.8339 1930.0963 1024
-1516.6984 1049.6826 2002.2938 1280
-1505.245 1049.9694 2002.8406 1280
-1493.6893 1050.1886 2003.259 1280
-1478.972 1048.1709 1999.4099 1280
-1465.4285 1046.959 1997.0983 1280
-1451.7014 1045.5952 1994.4969 1280
-1438.5142 1044.6011 1992.6006 1280
-1425.3981 1043.6426 1990.7721 1280
-1410.7501 1041.5371 1986.7559 1280
-1396.0236 1039.3376 1982.5604 1280
-1380.5017 1036.5038 1977.1548 1280
-1368.5513 1036.3259 1976.8154 1280
-1325.3868 1012.3042 1930.9935 1280
-1308.6896 1008.2553 1923.2701 1280
-1300.9298 1011.0815 1928.6611 1280
-1283.4037 1006.3001 1919.5405 1280
-1272.1871 1006.4246 1919.7782 1280
-1262.8802 1008.0759 1922.928 1024
-1252.4497 1008.8521 1924.4086 1024
-1243.1685 1010.5767 1927.6982 768
-1263.339 1036.4969 1977.1417 768
-1253.3057 1037.8898 1979.7987 512
-1246.4131 1041.9346 1987.5142 512
-1233.2848 1040.7941 1985.3385 256
-1219.865 1039.3832 1982.6473 256
-1220.5936 1050.1173 2003.1228 256
-1208.6854 1050.0835 2003.0583 0
-1198.3597 1051.4375 2005.6411 0
-1188.3688 1053.1152 2008.8414 393984
-1180.3373 1056.5811 2015.4526 1643532
-1166.2069 1054.6024 2011.6783 1445381
-1160.6708 1060.4349 2022.8041 1379073
-1132.1375 1045.1588 1993.6644 1905161
-1131.3018 1055.3999 2013.1995 1575683
-1130.2622 1065.667 2032.7843 2299406
-1109.7393 1057.5875 2017.3724 2233356
-1097.6825 1057.4883 2017.1832 2299148
-1079.9102 1051.8199 2006.3707 2101769
-1074.1891 1057.8939 2017.9569 2298378
-1062.7512 1058.4111 2018.9436 2627343
-1041.3624 1048.9169 2000.8331 1969413
-1039.4678 1059.0659 2020.1926 2100999
-1029.3021 1060.9261 2023.7408 2232328
-1018.7418 1062.4187 2026.588 2166792
-1008.6622 1064.4541 2030.4706 1837570
-993.58691 1061.203 2024.269 1837827
-983.12811 1062.8634 2027.4363 2035206
-967.14258 1058.5159 2019.1433 2232585
-960.15149 1064.0271 2029.6562 2364171
-942.87103 1058.1309 2018.4089 2297865
-930.45245 1057.6096 2017.4146 2561037
-918.47162 1057.5785 2017.3553 2495244
-904.49921 1055.2235 2012.863 2495498
-894.59869 1057.6193 2017.4331 2561291
-878.49512 1052.6471 2007.9486 2363912
-871.28113 1058.3367 2018.8016 2364168
-857.42535 1056.0045 2014.3529 2626315
-842.86969 1052.7325 2008.1113 2429194
-829.06244 1050.3148 2003.4996 2363145
-818.85394 1052.4523 2007.5768 2166023
-803.14136 1047.4741 1998.0811 2099972
-791.69849 1047.9991 1999.0824 2034438
-779.61664 1047.6814 1998.4762 2429194
-767.63312 1047.4879 1998.1072 2363401
-757.02081 1049.1888 2001.3518 2429194
-740.82294 1043.0793 1989.6979 2626316
-732.70667 1048.3353 1999.7238 2363144
-717.49738 1043.4487 1990.4025 2363400
-705.21082 1042.7203 1989.0129 2429193
-696.86664 1047.8954 1998.8846 2692109
-685.34045 1048.382 1999.8126 2757389
-668.86102 1041.175 1986.0654 3021073
-656.04639 1039.5171 1982.9027 2757902
-646.5191 1043.1024 1989.7418 2625803
-630.99609 1036.9677 1978.0397 2954766
-615.40143 1030.4807 1965.6656 3020559
-602.66077 1028.6147 1962.1062 2625800
-593.10406 1032.2166 1968.9767 2493958
-581.2887 1031.9531 1968.4742 2757387
-568.76886 1030.4026 1965.5167 2560008
-554.41522 1025.3956 1955.9657 2888203
-543.66132 1026.9749 1958.9781 3348754
-530.68152 1024.3265 1953.9263 2625542
-519.59821 1025.3022 1955.7875 2559749
-505.70529 1020.6519 1946.917 2559749
-493.27936 1018.8145 1943.412 2691335
-480.5553 1016.2587 1938.5367 2887944
-470.54962 1019.4671 1944.6569 2756358
-457.82663 1016.8017 1939.5726 3282702
-446.22687 1016.558 1939.1077 2953737
-433.56885 1013.8268 1933.8978 2821894
-422.76221 1015.3939 1936.8871 2624772
-411.57538 1016.1099 1938.2529 2887687
-398.3472 1011.6824 1929.8075 2822151
-386.25232 1009.9567 1926.5157 2821894
-374.09894 1007.9683 1922.7227 3611667
-363.34189 1009.7353 1926.0933 3151116
-351.12753 1007.4357 1921.7069 3282702
-337.5394 1000.9084 1909.2559 3282445
-327.06866 1003.4929 1914.1857 3611667
-314.25958 998.83105 1905.2931 2624773
-302.96237 998.80597 1905.2452 2690308
-292.04752 1000.0884 1907.6915 3611410
-281.5726 1003.0413 1913.3243 3085323
-268.90591 998.10669 1903.9114 3085066
-257.17862 996.37933 1900.6165 3348238
-247.04211 1000.9391 1909.3143 2756358
-234.57243 996.02966 1899.9493 3677203
-222.39375 991.92285 1892.1157 3743253
-211.48373 993.33923 1894.8174 2756358
-200.02751 992.20496 1892.6538 2953737
-187.18233 983.63702 1876.3102 2953736
-176.87495 988.16522 1884.9479 3085321
-166.19016 991.05316 1890.4565 3216906
-154.7757 989.69269 1887.8616 3348493
-143.87593 991.66797 1891.6294 2953221
-132.66948 991.68445 1891.6609 3611408
-121.31739 990.51495 1889.4301 3282443
-110.17336 990.97906 1890.3153 3150601
-98.708672 988.33771 1885.2769 3150343
-88.500435 999.20795 1906.0121 3413516
-76.782791 993.72375 1895.5508 3741707
-65.28363 989.67212 1887.8224 4465428
-54.183239 991.24023 1890.8135 5056533
-42.864029 988.57916 1885.7374 4990224
-31.592783 985.53778 1879.936 6766117
-20.434921 984.64703 1878.2368 6371354
-9.3556576 989.94238 1888.3378 7883820
1.8435681 995.3772 1898.7048 7751976
12.944209 983.97858 1876.9618 9331006
24.27512 992.53052 1893.2747 9396541
35.617992 996.01074 1899.9135 8606254
46.453243 987.03357 1882.7892 8474667
57.617325 987.1673 1883.0442 8935219
68.383049 981.53961 1872.3093 9329975
79.338341 979.82434 1869.0374 9592891
90.216599 977.6944 1864.9745 9724732
101.2533 977.55896 1864.7162 9198389
112.27034 977.27917 1864.1824 10053955
123.36858 977.69299 1864.9718 9395769
134.76663 980.21936 1869.7909 9724991
146.05209 981.60516 1872.4344 9593147
156.68962 978.74805 1866.9844 9396024
167.17117 975.35767 1860.5172 9527611
178.22536 975.52118 1860.8291 9988162
190.56696 982.30188 1873.7633 10317126
201.12106 979.62933 1868.6654 9527354
211.97687 978.62842 1866.7561 9922369
223.60387 981.11066 1871.4911 9527613
233.87312 977.68237 1864.9515 9988163
245.1512 978.59045 1866.6837 9396025
253.81238 969.42493 1849.2004 9461819
263.73221 965.62659 1841.955 9724735
275.50436 968.6427 1847.7081 10251335
286.47784 968.72742 1847.8698 8803888
298.04535 970.74066 1851.7102 9790272
307.75662 966.77985 1844.1548 9724220
317.31317 962.62128 1836.2223 10184772
328.1254 962.42151 1835.8411 9790013
337.7598 958.89069 1829.106 10119235
349.5629 961.54492 1834.1689 9329718
363.1373 968.76447 1847.9404 9658684
374.64026 970.1969 1850.6729 9724477
385.88809 970.90613 1852.0256 10184514
395.51422 967.60852 1845.7356 9921599
408.08246 971.49255 1853.1444 9921599
418.68869 970.62463 1851.4889 9658683
430.68414 972.93939 1855.9042 10185028
440.62262 970.60773 1851.4565 9856065
453.09805 973.84198 1857.626 10185029
462.58295 970.64771 1851.5328 10250822
471.67285 966.79187 1844.1777 9987650
483.51901 968.63226 1847.6882 9526843
490.54617 960.95099 1833.036 9724222
505.9155 969.59039 1849.5159 10250822
515.52209 967.05304 1844.6759 9593662
