# .PCD v0.7 - Point Cloud Data file format
VERSION 0.7
FIELDS x y z rgb
SIZE 4 4 4 4
TYPE F F F U
COUNT 1 1 1 1
WIDTH 1275
HEIGHT 1
VIEWPOINT 0 0 0 1 0 0 0
POINTS 1275
DATA ascii
-2396.9517 1289.6953 3045.2661 5843213
-2376.0593 1288.1515 3041.6206 5909263
-2354.6724 1286.3136 3037.281 5711627
-2349.9912 1293.6439 3054.5896 5711883
-2319.0818 1286.5376 3037.8098 5448713
-2308.7327 1290.8152 3047.9104 5382923
-2297.7937 1294.8281 3057.3857 4791044
-2265.7988 1286.9454 3038.7727 4396288
-2226.168 1274.5642 3009.5381 4659202
-2188.4006 1263.0587 2982.3708 4724994
-2171.7949 1263.679 2983.8354 5382667
-2173.6489 1275.1387 3010.8943 5251079
-2135.7417 1263.2695 2982.8687 4790786
-2118.2021 1263.3501 2983.0588 4987652
-2098.8604 1262.348 2980.6929 5053445
-2076.8896 1259.7345 2974.5215 4921602
-2059.6096 1259.9457 2975.0203 5184774
-2041.4329 1259.6073 2974.2212 5184775
-2006.0725 1248.5677 2948.1545 5777425
-1974.4254 1239.6659 2927.1353 5185031
-1967.1858 1246.0665 2942.2485 5119238
-1960.4819 1252.9241 2958.4409 5382153
-1930.7795 1245.0746 2939.9065 5842446
-1909.9097 1242.8298 2934.606 5447689
-1884.7369 1237.718 2922.5359 5447432
-1866.1504 1236.8767 2920.5493 5447689
-1846.6223 1235.3899 2917.0383 5579789
-1829.4357 1235.4561 2917.1946 5513996
-1800.1053 1227.2444 2897.8049 5185287
-1753.4774 1206.968 2849.928 4790530
-1767.5682 1228.4983 2900.7656 4790274
-1742.0563 1222.6561 2886.9712 5053445
-1724.4835 1222.3257 2886.1909 5053958
-1700.5475 1217.433 2874.6382 4724994
-1689.5194 1221.7759 2884.8926 4133120
-1665.7554 1216.9032 2873.3872 5119494
-1639.9973 1210.4581 2858.1689 4987652
-1618.8065 1207.2848 2850.676 5053702
-1602.9845 1208.0907 2852.5789 4395777
-1585.0092 1207.2738 2850.6499 4395776
-1567.1191 1206.5048 2848.834 4527361
-1547.2174 1204.1536 2843.2822 5382921
-1526.4497 1201.069 2835.999 5382920
-1512.7032 1203.502 2841.7437 5185286
-1495.6975 1203.3673 2841.4258 5382666
-1479.6404 1204.0015 2842.9233 5580302
-1447.6698 1191.5524 2813.5281 5120007
-1427.009 1188.2303 2805.6841 4461312
-1419.0002 1195.4893 2822.824 4856066
-1407.9133 1200.297 2834.1763 4593152
-1395.0078 1203.6519 2842.0977 5053957
-1379.4049 1204.7328 2844.6501 5777679
-1358.4073 1201.0707 2836.0029 4922370
-1341.7922 1201.2401 2836.4031 5382664
-1302.8119 1181.1376 2788.9363 5777422
-1301.4934 1195.1016 2821.9084 4922114
-1265.1709 1176.868 2778.855 5053958
-1237.0645 1165.897 2752.95 4395776
-1216.0377 1161.3945 2742.3186 4658946
-1202.9301 1164.4357 2749.4993 5448459
-1191.7427 1169.4447 2761.3269 5645582
-1174.8782 1168.9447 2760.1462 5053445
-1155.8552 1166.2527 2753.7898 4593153
-1134.1649 1160.7538 2740.8054 4527105
-1124.0487 1167.1125 2755.8201 4790530
-1100.0867 1159.0707 2736.8313 5119239
-1084.2858 1159.5154 2737.8813 4987910
-1073.5925 1165.5187 2752.0566 4659202
-1058.0642 1166.3771 2754.0835 5053956
-1042.6376 1167.3763 2756.4429 5580299
-1027.8558 1169.1409 2760.6094 3935488
-1010.399 1167.8705 2757.6096 4987652
-989.76178 1162.8218 2745.6885 4856323
-971.14508 1160.0179 2739.0679 5251081
-947.0188 1150.4257 2716.4185 5251080
-932.0152 1151.7755 2719.6057 5316874
-915.59113 1151.3866 2718.6873 5514253
-900.34808 1152.4954 2721.3057 5645839
-877.21179 1143.3566 2699.7268 4987909
-858.51562 1139.7731 2691.2654 4987909
-839.79126 1136.0159 2682.3936 5448715
-822.50446 1134.0957 2677.8599 6764833
-806.57343 1134.0063 2677.6487 4593666
-788.61383 1131.0039 2670.5593 4988678
-772.27576 1130.2518 2668.7834 4396290
-757.92566 1132.4384 2673.9465 4593666
-738.69806 1127.2753 2661.7551 5843730
-722.51312 1126.6315 2660.2349 5053702
-702.56006 1119.9519 2644.4629 4461824
-687.23694 1120.5167 2645.7966 4922629
-671.96765 1121.1978 2647.4045 4461825
-643.46344 1099.3005 2595.7002 4527875
-629.14801 1101.1647 2600.1021 4724995
-612.64752 1099.2021 2595.468 4790274
-597.91827 1100.3983 2598.2925 5119238
-581.42163 1098.319 2593.3828 5119237
-566.01672 1098.2451 2593.2083 4790272
-547.48834 1091.9375 2578.3147 4856323
-529.68628 1086.7581 2566.0845 4856067
-514.00995 1085.7625 2563.7339 5580300
-503.52859 1096.0142 2587.9407 5119496
-485.91342 1090.8942 2575.8511 5120007
-466.69 1081.7145 2554.1755 4330496
-450.10025 1078.2285 2545.9443 4856583
-437.68109 1084.8378 2561.5505 4593156
-421.64539 1082.636 2556.3516 4198656
-406.82739 1083.5134 2558.4233 4593668
-386.82101 1070.1055 2526.7642 4856580
-374.18875 1076.8391 2542.6636 5382925
-358.78104 1075.8153 2540.2463 4725252
-343.41574 1074.8347 2537.9309 4396546
-328.00848 1073.627 2535.0791 4791302
-311.66806 1069.1022 2524.395 3804416
-294.93964 1062.7233 2509.333 4857867
-279.29407 1059.7759 2502.3735 4791818
-263.85992 1057.3451 2496.634 3936257
-248.01927 1052.9 2486.1379 3935744
-234.93648 1060.3406 2503.7068 4593669
-220.90503 1064.2137 2512.8525 4527879
-206.53185 1066.8817 2519.1521 4593669
-191.12334 1064.2006 2512.8213 4725255
-175.48961 1059.7064 2502.2095 3673088
-163.15028 1076.1121 2540.947 4528646
-146.44415 1064.1226 2512.637 4660488
-129.74275 1049.4574 2478.0093 3541760
-115.05325 1049.3999 2477.8735 4068354
-100.32375 1048.9075 2476.7107 4462082
-85.711624 1049.6836 2478.5435 3738624
-70.256584 1038.3232 2451.7192 4330498
-55.47118 1033.5167 2440.3696 4659717
-41.005596 1033.3804 2440.0476 4264960
-26.725824 1040.3282 2456.4531 4791045
-12.082477 1032.8165 2438.7166 4594439
2.3628051 1030.5952 2433.4712 4462854
16.781506 1030.5586 2433.385 3344128
31.479752 1039.7894 2455.1812 4068097
46.00684 1039.3185 2454.0691 4397063
60.487934 1038.2843 2451.6272 4528647
74.760132 1034.7593 2443.3037 4396804
88.991844 1031.9086 2436.5725 4133889
103.50017 1032.6135 2438.2371 3870464
117.31709 1027.0927 2425.2009 5054984
131.63673 1026.6976 2424.2681 4199940
146.14471 1027.7047 2426.6462 5251853
161.41248 1033.3956 2440.084 4922631
172.29692 1012.3951 2390.4968 3738368
186.81673 1014.3235 2395.05 4198912
200.27658 1010.6309 2386.3308 4857095
215.6501 1016.4451 2400.0596 4856838
231.34135 1022.9448 2415.407 5252880
245.60114 1022.7263 2414.8909 4002306
259.60614 1021.5293 2412.0647 2819072
271.96375 1014.313 2395.0254 2753024
285.01132 1010.2583 2385.4512 4725512
299.2995 1010.7765 2386.6748 5185804
314.06503 1012.7872 2391.4226 4922633
328.20377 1012.6904 2391.1938 4198659
342.99506 1014.5316 2395.5415 4396034
355.30637 1009.1826 2382.9111 4396036
371.27798 1014.2415 2394.8567 4264450
382.47208 1006.3574 2376.2405 4791049
398.91721 1012.3592 2390.4119 3871236
411.4841 1008.4448 2381.1689 4198912
424.31195 1005.4081 2373.9988 4659462
440.21198 1009.6123 2383.926 4330755
452.02689 1004.4773 2371.801 4002050
464.34299 1000.7321 2362.9578 4331269
478.7731 1001.6288 2365.0752 4133893
489.92749 995.81653 2351.3508 3936513
506.9411 1001.9056 2365.7285 3476224
520.27698 1000.5939 2362.6313 3410432
529.75104 992.11859 2342.6191 3213056
542.74286 990.49585 2338.7876 2819584
555.07965 987.78845 2332.3948 3476486
566.91479 984.34131 2324.2554 4199429
579.95923 983.10779 2321.3428 4396551
591.99237 980.2569 2314.6111 3476993
609.79388 986.87036 2330.2271 4002306
627.10565 992.41589 2343.3213 4594440
636.9649 986.1828 2328.6035 4331270
648.54138 982.81647 2320.6548 3543813
658.70557 977.49396 2308.0872 4594698
675.35345 981.81396 2318.2876 4528129
685.65894 976.92511 2306.7439 4462084
698.89551 976.32184 2305.3196 4396295
711.18494 974.44403 2300.8855 4593676
716.09009 962.70941 2273.1775 5053963
733.09851 967.37927 2284.2041 5053961
747.35107 968.3092 2286.3999 5119499
761.66492 969.28406 2288.7017 5053704
776.54114 970.92798 2292.5833 4461830
789.54523 970.21472 2290.8992 4461569
801.41541 968.15582 2286.0376 3738368
807.50012 959.29236 2265.1089 4659205
821.49988 959.9679 2266.7041 4856583
830.15784 954.47986 2253.7456 3804417
848.99646 960.68555 2268.3987 4527364
861.85522 960.03693 2266.8669 4132866
872.18951 956.63904 2258.844 5579791
887.29382 958.49677 2263.2305 5579790
893.86877 951.2226 2246.0544 5053446
905.04285 948.98425 2240.7693 4593152
925.02173 955.90948 2257.1213 5909012
929.40265 946.74823 2235.4895 5185290
943.16718 947.26886 2236.7188 4790532
958.08502 948.9173 2240.6111 4790533
970.42883 948.00623 2238.4597 4790276
981.54303 945.93451 2233.5681 4658690
993.28784 944.5177 2230.2227 4724483
1001.3625 939.69397 2218.8328 4592640
1020.921 945.63226 2232.8542 6434840
1035.6842 947.03363 2236.1633 6040081
1040.2079 939.15485 2217.5598 5053189
1058.656 943.88776 2228.7351 5710858
1069.6078 941.9024 2224.0474 5908240
1079.8203 939.32263 2217.9558 6171408
1099.1136 944.60889 2230.438 6896158
1108.0719 940.99292 2221.8999 6895901
1115.8779 936.49493 2211.2791 6829852
1132.0983 939.08099 2217.3853 5842956
1161.6927 952.5744 2249.2463 5447942
1183.9149 959.78497 2266.2722 6171408
1196.713 959.27966 2265.0789 6500630
1194.8453 947.15979 2236.4612 5842700
1205.1536 944.85187 2231.0117 5974285
1218.4382 944.90228 2231.1309 5447944
1239.9856 951.29071 2246.2153 6303250
1243.5935 943.92676 2228.8271 5579528
1273.8651 956.74341 2259.0903 5513736
1292.3835 960.55804 2268.0977 6237201
1310.8395 964.24817 2276.8108 6434834
1340.4924 976.01575 2304.5967 6105870
1360.8069 980.81512 2315.9292 7093021
1371.0221 978.31219 2310.0193 7355936
1385.3777 978.78406 2311.1333 6764054
1413.3818 988.79498 2334.7715 7356190
1421.184 984.61572 2324.9033 7158555
1456.3026 999.26025 2359.4824 7750692
1469.4607 998.70117 2358.1621 7816742
1478.0562 995.08075 2349.6135 7685155
1510.0178 1007.1121 2378.0222 7553569
1531.7278 1012.1469 2389.9104 8079656
1557.3998 1019.6833 2407.7058 8145706
1568.6051 1017.6971 2403.0161 7553568
1604.5426 1031.6484 2435.9583 7750692
1626.7701 1036.6146 2447.6846 7619363
1649.1652 1041.5989 2459.4534 7750692
1689.7035 1057.8545 2497.8367 7816743
1705.4746 1058.4568 2499.259 7816742
1737.3113 1068.9335 2523.9968 7685158
1768.6646 1078.9365 2547.6162 7290399
1795.9808 1086.3284 2565.0701 7027485
1816.3258 1089.4147 2572.3577 8079916
1829.0918 1087.942 2568.8801 7751465
1852.0437 1092.502 2579.6472 7290914
1871.838 1095.1399 2585.8762 7224353
1875.863 1088.584 2570.396 7684904
1893.1066 1089.7426 2573.1318 7553317
1921.016 1096.9735 2590.2056 7026717
1914.6716 1084.6844 2561.1885 7355425
1950.8225 1096.4735 2589.0251 6105615
1962.5239 1094.4438 2584.2324 7487781
1964.3934 1087.005 2566.6677 7355682
1996.7469 1096.4193 2588.8972 7290146
2014.3136 1097.6326 2591.762 6105871
2017.946 1091.2919 2576.79 6697753
2034.057 1091.744 2577.8577 6171410
2081.4341 1108.8459 2618.2393 6237460
2059.8674 1089.238 2571.9404 6434839
2059.3726 1080.9788 2552.4385 6566425
2081.9922 1084.8844 2561.6606 6632218
2095.3594 1083.9473 2559.4478 7092769
2117.9727 1087.7722 2568.4795 6566423
2122.5232 1082.332 2555.6338 6961181
2115.4424 1071.0797 2529.0645 7026974
2130.4282 1071.0797 2529.0645 7028000
2158.5354 1077.6304 2544.5322 6698777
2151.1252 1066.4816 2518.2073 7882537
2168.5874 1067.7325 2521.1611 7750440
2221.3867 1086.2462 2564.876 6500373
2186.8225 1062.0781 2507.8098 6961180
2174.3401 1048.8884 2476.6658 6763802
2198.1672 1053.2737 2487.0203 7421986
2227.2463 1060.1001 2503.1392 6435089
2232.2893 1055.4717 2492.2104 6303250
2225.198 1045.2045 2467.967 7092767
2264.9319 1056.9219 2495.6348 7093023
2285.0623 1059.3989 2501.4836 7027745
2263.2935 1042.5439 2461.6851 6961696
2297.9592 1051.7339 2483.3845 6896160
2307.5891 1049.4213 2477.9241 7159332
2333.0464 1054.2903 2489.4209 6829596
2349.7566 1055.1703 2491.4985 6435352
2362.8572 1054.4282 2489.7466 6040080
2348.2559 1041.4103 2459.0081 6632731
0 0 0 0
0 0 0 0
0 0 0 0
0 0 0 0
0 0 0 0
0 0 0 0
0 0 0 0
-2763.1882 1327.6493 3091.6284 5513734
-2744.8813 1327.6552 3091.6421 5710858
-2738.7837 1333.6063 3105.5002 5711368
-2718.5312 1332.6989 3103.387 5776904
-2719.218 1342.114 3125.3115 5382402
-2690.4893 1337.0399 3113.4958 5316100
-2679.8835 1340.9646 3122.635 5316099
-2635.0637 1327.7045 3091.7568 5184771
-2603.6851 1321.0786 3076.3274 5514249
-2615.1985 1336.2756 3111.7161 5777679
-2565.1355 1320.0017 3073.8198 5448713
-2546.7051 1319.8893 3073.5581 5514249
-2528.5845 1319.9371 3073.6694 4724993
-2490.9756 1309.7388 3049.9211 5909262
-2459.8489 1302.8245 3033.8201 6040848
-2445.5627 1304.7936 3038.4053 5580298
-2398.887 1289.3826 3002.5186 5382662
-2387.1252 1292.6476 3010.1216 5382919
-2365.1108 1290.3679 3004.8132 5185541
-2352.2195 1293.0688 3011.1028 5580043
-2346.7373 1299.9153 3027.0457 4724737
-2330.2646 1300.7324 3028.9485 4790528
-2317.8452 1303.8423 3036.1902 3672832
-2306.0391 1307.3484 3044.3547 4724483
-2252.3384 1286.9716 2996.9043 4593153
-2239.1819 1289.6216 3003.0752 4856067
-2190.1182 1271.4683 2960.8025 5777676
-2166.0886 1267.6725 2951.9636 5185542
-2148.5317 1267.634 2951.874 5843472
-2132.4497 1268.4722 2953.8257 5053700
-2107.5725 1264.0493 2943.5264 4922370
-2095.4358 1267.2574 2950.9968 5053956
-2086.6116 1272.5397 2963.2976 5777679
-2066.4783 1270.9564 2959.6106 5316872
-2045.4634 1268.799 2954.5867 5382924
-2018.6056 1262.9487 2940.9634 5053702
-1965.8381 1240.6449 2889.0256 4856068
-1963.0648 1249.7777 2910.293 4987906
-1953.4393 1254.6715 2921.6887 5842958
-1915.4459 1241.2693 2890.4797 6895390
-1929.1049 1261.3999 2937.3567 5711629
-1888.3257 1245.9768 2901.4419 6106387
-1870.7291 1245.7074 2900.8147 5448457
-1839.8181 1236.485 2879.3389 5382921
-1807.9492 1226.4402 2855.948 5646096
-1803.5502 1235.0159 2875.9177 4856324
-1798.4277 1243.2552 2895.1042 6106389
-1758.7001 1227.5001 2858.4163 5185545
-1751.153 1234.1178 2873.8264 5119752
-1726.9557 1229.0161 2861.9463 5382923
-1708.0094 1227.5873 2858.6191 4791043
-1687.132 1224.7278 2851.9604 5251337
-1668.0272 1223.1104 2848.1941 4198912
-1650.5776 1222.6862 2847.2061 4593154
-1628.5131 1218.7991 2838.1545 4791043
-1610.0579 1217.5604 2835.27 5054215
-1593.3229 1217.6101 2835.3857 4659457
-1573.7356 1215.4579 2830.374 4133120
-1547.4678 1208.0443 2813.1104 5843731
-1535.4409 1211.7075 2821.6406 4462083
-1516.0387 1209.567 2816.6562 5185801
-1492.4821 1204.0273 2803.7563 5317387
-1476.4957 1204.5388 2804.9475 5579789
-1459.8752 1204.5388 2804.9475 5513996
-1438.5057 1200.5753 2795.7178 5316873
-1411.8489 1192.0551 2775.8772 5711375
-1398.2582 1194.4962 2781.5618 5251081
-1377.8231 1191.079 2773.604 5448458
-1373.4436 1201.626 2798.1643 5185543
-1361.8356 1206.0293 2808.4182 4987907
-1344.2316 1205.1659 2806.4077 4396032
-1338.4076 1214.9745 2829.2485 4856577
-1295.7572 1191.1779 2773.8342 5053700
-1280.3116 1192.1001 2775.9822 4856322
-1280.3607 1207.6613 2812.2185 4263938
-1250.7986 1195.3346 2783.5139 4856323
-1218.033 1179.5762 2746.8181 4658688
-1195.3875 1173.3242 2732.2595 4987908
-1186.098 1180.1901 2748.2478 5513996
-1171.7128 1182.1062 2752.7097 5777424
-1149.609 1176.1794 2738.9084 4592897
-1131.6311 1174.3647 2734.6824 4461314
-1112.1976 1170.9647 2726.7651 4987908
-1095.3322 1170.2079 2725.0027 4658691
-1074.8428 1165.499 2714.0374 4987908
-1067.4598 1175.0747 2736.3359 5316617
-1048.661 1172.1853 2729.6074 4921860
-1034.6984 1174.6959 2735.4539 4395776
-1013.1238 1168.5072 2721.0422 5185031
-987.98181 1157.937 2696.428 4593152
-977.2887 1164.2321 2711.0872 4329728
-962.19281 1165.4049 2713.8184 4987909
-941.7514 1160.0332 2701.3093 4856069
-918.61243 1151.0955 2680.4966 5119493
-907.71533 1157.4531 2695.3013 4922372
-883.58429 1146.8613 2670.637 5251080
-870.56091 1150.5636 2679.2581 5053443
-855.24683 1151.3195 2681.0183 4790273
-837.31488 1148.5133 2674.4839 5185031
-817.08447 1142.3854 2660.2139 5120007
-799.87793 1140.3271 2655.4209 4264704
-787.68439 1145.4764 2667.4119 4462080
-768.41809 1140.3406 2655.4521 3409664
-748.4118 1133.8688 2640.3818 4988166
-723.52484 1119.5686 2607.0815 5119751
-708.2287 1119.8087 2607.6406 4066816
-695.95398 1124.9434 2619.5974 4593665
-670.60162 1108.6913 2581.7522 4330498
-661.646 1119.4216 2606.7393 4659458
-646.23743 1119.4865 2606.8901 4462084
-629.43781 1117.0857 2601.2998 5054471
-609.5802 1109.001 2582.4734 4988422
-590.3028 1101.5828 2565.199 4593666
-575.58466 1102.5054 2567.3474 3935488
-562.19379 1106.0895 2575.6936 3672576
-545.63263 1103.4622 2569.5754 4593409
-528.90283 1100.3331 2562.2891 4462081
-513.35901 1099.5594 2560.4873 5711887
-496.68488 1096.2439 2552.7666 5448716
-478.80392 1089.9728 2538.1633 5251595
-462.86627 1087.8622 2533.2485 4396289
-446.83865 1085.3916 2527.4954 4659459
-431.97214 1085.6678 2528.1387 4264449
-418.73831 1090.2147 2538.7268 4461824
-403.70071 1090.2291 2538.7605 4067072
-387.96088 1088.2751 2534.21 4659206
-368.51337 1075.3442 2504.0986 4396289
-357.03903 1085.5708 2527.9126 4330496
-339.9761 1078.9569 2512.5112 4528130
-322.9718 1071.9316 2496.1519 4593667
-308.01007 1071.3368 2494.7666 4199168
-293.39838 1071.9609 2496.22 4067328
-278.26752 1070.6537 2493.176 4659718
-262.50381 1066.6284 2483.8025 4264960
-247.99297 1067.5181 2485.8743 4199169
-233.38937 1068.0957 2487.2192 4593669
-218.51578 1067.4323 2485.6743 4462343
-204.88776 1073.197 2499.0986 4659718
-189.38182 1069.2574 2489.9246 3344384
-174.03386 1065.6194 2481.4529 4462340
-159.9384 1069.6866 2490.9241 4396290
-144.48026 1064.5408 2478.9412 4396289
-129.51616 1062.282 2473.6814 3672832
-114.49046 1058.8773 2465.7529 3540992
-98.479408 1044.0302 2431.1792 4133376
-84.241333 1046.1118 2436.0266 3804416
-69.689644 1044.3549 2431.9351 4264705
-55.239597 1043.6018 2430.1816 4725254
-40.614201 1037.837 2416.7576 3804416
-26.213778 1034.6729 2409.3894 3672833
-12.005345 1040.5815 2423.1484 3738368
2.3692563 1047.8677 2440.1152 4593669
16.701658 1040.0054 2421.8069 3738625
31.133026 1042.7247 2428.1392 3475712
45.774963 1048.5483 2441.7004 3936512
59.832981 1041.4115 2425.0813 3015680
73.956772 1037.9619 2417.0483 4857611
88.533363 1040.9556 2424.0195 3541760
102.12497 1033.1488 2405.8403 4989705
116.51047 1034.3021 2408.5261 5712149
129.97879 1027.9503 2393.7349 4988683
144.14091 1027.7954 2393.3743 4594185
158.91727 1031.6559 2402.3638 3673600
173.21077 1032.0046 2403.1758 5186058
185.80969 1022.9709 2382.1394 4133377
200.84035 1027.6554 2393.0481 4857095
214.55995 1025.4561 2387.9268 4791303
228.32471 1023.7313 2383.9104 4856838
244.57594 1032.7067 2404.8108 4922633
258.48886 1031.3638 2401.6836 2818816
271.5238 1026.8408 2391.1511 5054474
285.14246 1024.8644 2386.5488 3804416
298.41302 1021.8828 2379.6057 4264960
312.24979 1021.0216 2377.6003 4724996
329.51956 1030.976 2400.7803 4658948
343.09146 1029.0154 2396.2148 4724996
351.48413 1012.294 2357.2769 5383184
367.89801 1019.0695 2373.0547 4396547
379.35596 1012.1238 2356.8806 4659720
393.18628 1011.776 2356.0706 5449234
408.06296 1014.0525 2361.3716 5186060
420.74106 1010.8954 2354.0198 4462084
435.53757 1012.8674 2358.6121 4856583
448.23602 1009.9895 2351.9104 5909527
464.0567 1014.108 2361.501 4396803
474.94879 1007.5303 2346.1838 4462597
488.70526 1007.2301 2345.4849 4068099
504.12613 1010.2821 2352.5918 4133890
514.74542 1003.8063 2337.512 4002564
526.76929 1000.3372 2329.4336 3804929
537.65259 994.93457 2316.8528 2621440
547.67944 988.25549 2301.2996 4528905
562.43335 990.22351 2305.8823 4396807
575.72498 989.58466 2304.3948 3936001
586.89697 985.4165 2294.6885 3607809
602.1192 988.08368 2300.8994 4067584
617.95709 991.62048 2309.1355 4396547
632.29218 992.64496 2311.521 4462855
650.57776 999.69647 2327.9414 10779242
661.80121 995.82843 2318.9343 4200193
666.32056 982.23523 2287.2805 4462596
679.71802 982.0105 2286.7571 4396547
692.26617 980.59149 2283.4526 4527621
701.34937 974.41278 2269.0647 4856328
715.9259 975.95514 2272.6562 5119498
727.90454 973.96448 2268.0208 4988169
739.57471 971.64056 2262.6094 5317139
757.00281 976.82959 2274.6926 5119499
772.49243 979.37933 2280.6301 4988169
775.56671 966.3717 2250.3398 4593411
791.80798 969.9328 2258.6323 4396037
806.69324 971.74194 2262.8455 5974550
814.82733 965.49274 2248.293 3803648
822.44684 958.84442 2232.8115 4922119
837.07086 960.44342 2236.5352 4856325
862.70715 974.43115 2269.1077 6303770
868.38281 965.78992 2248.9851 5645840
882.11786 966.23792 2250.0283 5251081
894.90765 965.6524 2248.665 5382667
903.42651 960.54333 2236.7676 5053703
915.38824 959.18945 2233.615 4790275
925.13312 955.58435 2225.22 4593155
940.55243 957.85938 2230.5178 4198656
948.4079 952.47528 2217.98 5119755
964.97009 955.86273 2225.8682 3872009
977.12115 954.84827 2223.5059 4790532
984.56165 949.31885 2210.6299 4658947
994.92334 946.71429 2204.5647 7356457
1019.8101 957.8194 2230.4246 5053702
1026.6724 951.9281 2216.7058 5645837
1039.9719 952.07892 2217.0569 5842704
1051.6923 950.7981 2214.0745 5579529
1061.9496 948.24255 2208.1235 4068102
1066.8544 941.02802 2191.3235 5776652
1087.9132 948.06451 2207.709 6763545
1093.9058 941.96027 2193.4941 6105615
1106.8622 941.92542 2193.4131 6632216
1119.4006 941.53986 2192.5151 7289889
1141.5659 949.16742 2210.2771 5842699
1161.2213 954.55878 2222.8318 5513738
1182.1472 960.86194 2237.5095 5513480
1183.0425 950.92474 2214.3694 5381895
1200.0464 954.01147 2221.5574 5908494
1221.2671 960.34723 2236.311 6105872
1225.5261 953.35229 2220.0222 5118982
1239.156 953.71808 2220.874 6632472
1254.1505 955.11548 2224.1282 6500373
1276.0081 961.65613 2239.3589 6500627
1285.1063 958.54517 2232.1147 6500883
1317.4865 972.68634 2265.0444 5316609
1330.9296 972.70227 2265.0815 6303250
1347.3643 974.88245 2270.1584 6368786
1373.5623 984.01385 2291.4224 6631700
1380.8862 979.5777 2281.092 6236942
1402.679 985.39185 2294.6311 7882280
1418.4116 986.87805 2298.092 6829847
1449.5933 998.98254 2326.2791 7158811
1461.8969 997.97186 2323.9255 7355934
1483.2777 1003.1188 2335.9111 7290398
1497.0518 1003.0739 2335.8064 7356190
1523.2916 1011.3057 2354.9753 6500882
1536.5901 1010.8743 2353.9707 6829590
1567.0731 1021.6542 2379.0735 7093018
1580.4382 1021.1814 2377.9724 8079913
1621.5247 1038.4703 2418.2322 7750949
1655.1978 1050.7504 2446.8281 6961433
1662.6012 1046.2854 2436.4307 7619364
1699.2017 1060.113 2468.6306 8013866
1703.3147 1053.6091 2453.4851 7619108
1715.0044 1051.8622 2449.4172 7093021
1777.4016 1080.984 2517.2317 7356192
1780.4363 1073.8185 2500.5457 7553318
1799.8024 1076.5396 2506.8821 7224353
1821.1674 1080.4021 2515.8765 7289889
1836.5819 1080.7003 2516.571 7421475
1881.5526 1098.2454 2557.4275 6763802
1886.2462 1092.1888 2543.3237 6302994
1902.4506 1092.8403 2544.8408 6434580
1934.944 1102.765 2567.9519 7750440
1924.7782 1088.4122 2534.5293 7158560
1942.3835 1089.8639 2537.9097 7224353
1932.4929 1075.9839 2505.5881 7421475
1948.8425 1076.8143 2507.522 7291172
1960.199 1074.8942 2503.0505 6896157
1993.0811 1084.7181 2525.927 7553061
2020.1556 1091.2583 2541.157 6763544
2006.4628 1075.8428 2505.2595 6566167
2025.4225 1078.033 2510.3596 6632215
2044.9431 1080.4877 2516.0759 6566422
2053.2549 1077.0272 2508.0176 6895130
2086.4995 1086.601 2530.3115 6895387
2079.1135 1075.0297 2503.3662 6434837
2088.4246 1072.1943 2496.7637 7026974
2112.6296 1076.9919 2507.9355 6829338
2105.2434 1065.7301 2481.7107 6895130
2112.0471 1061.7578 2472.4607 7158813
2118.6504 1057.7404 2463.1055 6500883
2105.9385 1044.2007 2431.5762 7619365
2116.9465 1042.5262 2427.677 7158558
2131.6287 1042.6715 2428.0154 6829338
2137.9009 1038.729 2418.8347 6566166
2161.604 1043.2513 2429.3657 6040079
2179.4609 1044.9111 2433.2307 6829338
2191.5461 1043.8002 2430.6436 7092510
2215.9724 1048.5432 2441.6885 6303251
2229.9617 1048.3181 2441.1643 6763801
2249.1204 1050.5105 2446.2698 6698009
2273.7507 1055.2141 2457.2227 6960925
2280.9045 1051.7988 2449.2698 6961180
2303.3074 1055.4143 2457.6887 7093282
2302.9011 1048.5983 2441.8167 6369816
2324.3962 1051.7776 2449.2202 7093539
2334.1572 1049.6409 2444.2444 6106387
0 0 0 0
0 0 0 0
0 0 0 0
0 0 0 0
0 0 0 0
0 0 0 0
0 0 0 0
-2725.9111 1327.8104 3049.9204 5711627
-2709.7397 1328.7424 3052.061 5842443
-2698.8521 1332.2953 3060.2219 5710857
-2682.5046 1333.1827 3062.2603 5776906
-2674.626 1338.3199 3074.0601 5381892
-2656.1785 1338.2026 3073.7908 5316355
-2638.5322 1338.4905 3074.4519 5316355
-2632.0691 1344.4946 3088.2432 5711627
-2581.1965 1327.7393 3049.7568 5251332
-2571.7329 1332.198 3059.9983 5317126
-2552.0032 1331.3643 3058.0833 5185796
-2519.2566 1323.6793 3040.4314 5185540
-2488.8728 1317.134 3025.3972 5251078
-2445.3425 1303.4861 2994.0483 5382405
-2431.886 1305.7866 2999.3328 5580298
-2397.8743 1297.0028 2979.1565 5777933
-2366.9866 1289.7908 2962.5908 5119491
-2351.5308 1290.9431 2965.2375 5448455
-2341.9941 1295.3866 2975.4441 5711627
-2319.1128 1292.4602 2968.7224 5382149
-2314.9688 1300.0116 2986.0676 5381892
-2322.5703 1314.3259 3018.947 5579270
-2309.9465 1317.3282 3025.8433 5645065
-2273.3059 1306.5741 3001.1414 5842702
-2238.7244 1296.8431 2978.7898 5711629
-2197.9304 1283.3302 2947.751 5251334
-2171.3955 1277.9929 2935.4917 5777679
-2149.2896 1275.1971 2929.0701 6040851
-2133.3828 1276.0638 2931.0608 5317128
-2123.0413 1280.301 2940.7935 5646093
-2102.7158 1278.5378 2936.7432 5580043
-2080.0066 1275.2833 2929.2681 5316871
-2058.5327 1272.7382 2923.4216 5777679
-2036.3363 1269.6991 2916.4412 7422504
-2021.9955 1271.5481 2920.6882 5645323
-1988.2941 1261.1488 2896.8018 5053186
-1979.5477 1266.535 2909.1736 5711375
-1952.4741 1260.1868 2894.5918 5579790
-1913.9471 1246.2682 2862.6216 6040338
-1905.2085 1251.6709 2875.0312 5250565
-1887.4352 1251.182 2873.9082 4724994
-1870.6885 1251.3708 2874.342 5646095
-1846.8234 1246.7577 2863.7458 5580044
-1820.9707 1240.7047 2849.8425 5316874
-1804.0842 1240.7047 2849.8425 4922117
-1786.239 1240.0391 2848.3135 5842961
-1770.25 1240.6617 2849.7437 5120007
-1746.9087 1236.094 2839.2517 5382924
-1733.8353 1238.7734 2845.4062 5251336
-1719.9019 1240.885 2850.2566 4988164
-1691.0032 1232.1342 2830.1562 4659457
-1674.9664 1232.6737 2831.3955 5120007
-1659.9705 1233.9978 2834.437 5119751
-1637.0081 1229.3665 2823.7988 5185544
-1614.5045 1224.9874 2813.7405 4922628
-1602.2552 1228.3785 2821.5298 5317387
-1582.835 1226.2855 2816.7222 4265216
-1553.733 1216.5673 2794.3997 4594177
-1532.1405 1212.5826 2785.2473 5053960
-1510.8522 1208.7548 2776.4546 4791043
-1484.2212 1200.521 2757.5422 5383180
-1473.7506 1205.321 2768.5676 4791047
-1463.2393 1210.1953 2779.7637 5185031
-1440.0139 1204.5458 2766.7869 5514250
-1427.5413 1207.8639 2774.4084 5711885
-1400.7775 1199.0266 2754.1096 6566682
-1379.4692 1194.7058 2744.1848 4725251
-1367.9152 1198.8303 2753.6587 5251592
-1358.213 1204.697 2767.1343 5054214
-1334.5922 1198.2109 2752.2361 4593665
-1323.4333 1202.8911 2762.9863 5053959
-1319.9709 1214.7717 2790.2754 4001537
-1293.9291 1205.91 2769.9207 4922630
-1270.3911 1199.1844 2754.4722 4264704
-1252.3895 1197.5778 2750.7817 4593410
-1235.4663 1196.9734 2749.3936 5251337
-1212.2803 1190.2042 2733.845 5316874
-1197.4734 1191.5896 2737.0273 4658689
-1182.7554 1193.1028 2740.5029 4724481
-1155.2241 1181.5526 2713.9727 4395520
-1148.811 1191.5809 2737.0073 4856066
-1116.2388 1174.3746 2697.4854 5579789
-1106.1948 1180.7146 2712.0479 4987909
-1093.9314 1184.8375 2721.5181 5382666
-1082.5836 1190.0903 2733.5835 4658688
-1058.2684 1181.0311 2712.7749 4461312
-1030.3108 1167.5646 2681.8428 5185031
-1024.7062 1179.4039 2709.0374 4593152
-1001.4402 1170.969 2689.6626 4329984
-981.09094 1165.7268 2677.6213 4658945
-965.89435 1166.535 2679.478 4922115
-939.91467 1154.13 2650.9841 5711632
-929.34851 1160.5511 2665.7332 5251079
-912.56866 1159.3008 2662.8611 5514507
-898.30292 1161.2563 2667.353 5119749
-878.57086 1156.0889 2655.4836 5185288
-863.55811 1157.0564 2657.7061 4856067
-852.13635 1162.9607 2671.2678 4461568
-827.33899 1150.4884 2642.6196 5448202
-808.70898 1146.2767 2632.9456 4725250
-795.12927 1149.1984 2639.6565 5120008
-777.64581 1146.4822 2633.4175 4330496
-751.44965 1130.5464 2596.8137 4856836
-746.3512 1146.3492 2633.1123 4988423
-718.74127 1127.5123 2589.8447 5185801
-704.21155 1128.8207 2592.8499 4593152
-685.44501 1123.2443 2580.0413 4725250
-668.23181 1120.0172 2572.6287 5120008
-652.93512 1119.9265 2572.4204 4856835
-636.55023 1117.9205 2567.8127 4527618
-621.56165 1118.3284 2568.7495 4462080
-604.56689 1115.0566 2561.2346 5382923
-585.48676 1107.6713 2544.2705 5251593
-567.85852 1102.7147 2532.8857 4725251
-552.91479 1102.8436 2533.1816 4724737
-541.07117 1109.3357 2548.0938 5513997
-524.16864 1105.5309 2539.3542 4856067
-503.87851 1094.145 2513.2014 4132608
-486.98145 1089.658 2502.8948 5251593
-473.94064 1093.7886 2512.3828 5120006
-460.68961 1097.6864 2521.3357 4725506
-449.04803 1105.8087 2539.9924 4728347
-428.58713 1092.0232 2508.3276 5186061
-413.97699 1092.6903 2509.8599 4988168
-401.13144 1098.2382 2522.6033 5120009
-381.1665 1083.9692 2489.8281 4396032
-368.22351 1089.3246 2502.1289 4659458
-353.76318 1090.4521 2504.719 4593921
-338.26672 1088.3447 2499.8784 4198912
-321.85895 1082.9779 2487.551 4856839
-307.48383 1084.2637 2490.5044 4527618
-291.76071 1080.6859 2482.2866 5382670
-276.21832 1077.4336 2474.8159 4988168
-259.78552 1070.1483 2458.0823 4987913
-245.20789 1070.0936 2457.9565 4462083
-231.21509 1072.7456 2464.0481 4199169
-215.56592 1067.5522 2452.1189 4593669
-202.84023 1077.1323 2474.124 3935744
-186.05565 1064.9724 2446.1934 5186064
-172.40028 1070.1824 2458.1604 5186063
-157.31882 1066.6846 2450.126 4462340
-143.36101 1070.8689 2459.7373 4396547
-128.24107 1066.3372 2449.3281 4264705
-112.76045 1057.2668 2428.4941 4659460
-98.038765 1053.7 2420.3008 5251341
-83.527473 1051.5592 2415.3838 4264708
-69.138954 1050.3986 2412.7178 4199168
-54.502403 1043.8822 2397.75 4330752
-40.214157 1041.7937 2392.9529 4199170
-26.13682 1045.87 2402.3159 4725254
-11.906349 1046.2406 2403.1672 3870720
2.3390107 1048.7648 2408.9651 3870720
16.60166 1048.0428 2407.3069 4001536
30.707306 1042.6571 2394.936 3804928
45.308643 1052.1873 2416.8264 3804929
59.181625 1044.2877 2398.6814 3804928
73.315033 1043.1531 2396.0752 4462853
87.325317 1040.9189 2390.9436 5252113
101.56309 1041.6416 2392.6035 3344640
115.1111 1035.9796 2379.5981 4791559
129.76532 1040.4227 2389.8037 4593924
143.57933 1037.9176 2384.0496 4264192
156.99403 1033.2333 2373.29 4790788
170.65562 1030.8105 2367.7251 6896422
186.36945 1040.2102 2389.3157 5712146
201.24455 1043.932 2397.8643 5514767
215.07899 1042.1205 2393.7034 4068352
230.48502 1047.6769 2406.4661 4724740
242.45374 1037.8716 2383.9438 4462081
258.49564 1045.6221 2401.7466 3607040
270.87927 1038.5382 2385.4751 4001536
280.60944 1022.4882 2348.6089 5054478
292.29529 1014.7444 2330.8218 3409664
308.92517 1024.0889 2352.2856 5054218
325.67563 1033.0089 2372.7744 5317134
335.60513 1020.4507 2343.929 4856581
350.1705 1022.4263 2348.4668 4658948
363.89316 1021.8845 2347.2222 4396291
378.31525 1023.2744 2350.4148 4264706
390.39218 1018.4474 2339.3276 4857096
408.35257 1028.774 2363.0474 4199168
419.51456 1021.8564 2347.1577 5186060
431.27939 1016.8038 2335.5522 2425088
442.86105 1011.6472 2323.7075 4791301
452.16925 1001.7646 2301.0078 4593927
468.5376 1007.6443 2314.5134 4330753
486.08041 1015.6436 2332.8872 4133376
498.38696 1012.5621 2325.8091 4462338
508.92664 1006.1532 2311.0881 4791047
520.26477 1001.6175 2300.6699 4396809
533.29346 1000.4849 2298.0684 3936513
541.47443 990.54059 2275.2268 4199426
556.02411 992.4469 2279.6055 2885120
570.30341 993.79169 2282.6943 3541760
590.66736 1005.4315 2309.4304 4659462
599.62433 997.56671 2291.3655 4396804
613.17078 997.51666 2291.2505 4923405
623.93262 993.03687 2280.9604 4725770
638.30011 994.36395 2284.0088 3936513
663.62378 1012.3494 2325.3206 4726025
669.64752 1000.7603 2298.7009 3411458
674.48718 987.89886 2269.1589 4133635
689.66376 990.38458 2274.8684 4331013
703.5965 991.02295 2276.3347 3214339
710.74683 982.26392 2256.2156 4198401
719.74573 976.33582 2242.5991 5251341
742.20508 988.55084 2270.6565 5251087
758.24603 991.93445 2278.4285 5843477
764.47937 982.59369 2256.9731 3278080
775.41559 979.51501 2249.9014 3212288
782.96643 972.33606 2233.4119 4593413
801.90497 979.3028 2249.4141 4132865
813.15009 976.79993 2243.665 5382670
823.97803 973.8844 2236.9683 5119497
831.27466 966.95361 2221.0486 4067073
847.52637 970.49329 2229.179 5843219
858.93207 968.46014 2224.509 4724998
875.03662 971.70673 2231.9661 4264448
884.53625 967.63104 2222.6045 5448461
900.409 970.54449 2229.2966 4790791
904.94476 961.3302 2208.1318 5119495
919.16718 962.52234 2210.8701 5119495
931.33136 961.55585 2208.6501 5514506
937.02271 954.02588 2191.354 4527364
957.41443 961.46429 2208.4397 7290662
966.50287 957.50409 2199.3433 5119755
971.16315 949.32056 2180.5461 4724738
990.94427 955.93872 2195.7478 5777424
999.33563 951.54034 2185.645 5185032
1017.5446 956.48285 2196.9978 4592640
1030.4315 956.36121 2196.7183 4658692
1030.3809 944.38464 2169.2087 5580047
1048.149 948.8338 2179.4282 4921859
1062.3218 949.95947 2182.0137 7158818
1076.7377 951.27277 2185.0303 5908751
1086.4487 948.44763 2178.5413 5776650
1093.9922 943.81891 2167.9092 7092766
1113.8427 949.79187 2181.6289 6434835
1112.4303 937.7049 2153.8655 8013867
1142.7324 952.32184 2187.4399 6895642
1170.0479 964.14984 2214.6084 5381893
1173.4376 956.21887 2196.3914 5776907
1189.2192 958.44891 2201.5137 6566424
1197.8937 954.96484 2193.511 5908236
1209.0659 953.52545 2190.2046 5776907
1216.7189 949.37061 2180.6611 5776650
1242.6431 959.40985 2203.7207 4790020
1259.5972 962.3866 2210.5583 6171665
1276.6483 965.37561 2217.4238 6302994
1298.7068 972.05145 2232.7581 6566166
1310.5573 971.02936 2230.4104 6237201
1326.0129 972.67218 2234.1838 5776652
1336.3372 970.55566 2229.3223 5775882
1351.5717 972.01178 2232.667 6171154
1364.3972 971.72418 2232.0063 5974031
1383.0148 975.52759 2240.7424 7355682
1378.0426 962.7774 2211.4561 6631957
1437.2219 994.6651 2284.7007 6566419
1447.5398 992.45752 2279.6299 6237709
1454.2692 987.85321 2269.054 8277292
1487.8602 1001.4126 2300.1992 7750947
1521.2644 1014.6011 2330.4927 7816484
1540.8092 1018.3921 2339.2004 6961432
1547.6497 1013.7935 2328.6377 7882278
1575.4036 1022.8544 2349.4502 7092763
1597.7086 1028.2499 2361.8435 7356193
1617.7367 1032.0991 2370.6848 7093020
1641.4727 1038.2272 2384.7607 6829849
1652.6614 1036.3823 2380.5232 7158557
1663.5244 1034.3662 2375.8921 8079659
1676.2671 1033.5427 2374.0007 7553571
1711.3455 1046.3901 2403.5105 7421476
1743.8762 1057.4805 2428.9846 6829338
1765.8942 1062.0665 2439.5186 6829338
1791.9655 1068.9961 2455.4355 6829594
1831.7627 1083.9364 2489.7527 8211248
1835.1371 1077.257 2474.4104 7158560
1858.2499 1082.1786 2485.7151 6500629
1871.5861 1081.3739 2483.8667 6237201
1880.4308 1078.007 2476.1331 7026974
1887.1046 1073.4573 2465.6826 6697753
1914.827 1080.8588 2482.6833 6829338
1904.2461 1066.6912 2450.1411 7092768
1913.809 1063.9363 2443.8135 7750697
1911.5278 1054.6881 2422.5708 7355684
1972.5797 1080.2612 2481.311 7355940
1969.1353 1070.3967 2458.6526 6763547
1991.8965 1074.8175 2468.8069 6961440
2008.0776 1075.649 2470.717 6764317
2018.9473 1073.644 2466.1116 6698524
2043.089 1078.675 2477.6675 7619626
2057.6111 1078.5916 2477.4758 6698266
2078.4797 1081.8126 2484.8745 6369300
2087.4026 1078.8146 2477.9883 6961437
2072.3796 1063.5691 2442.97 7553831
2068.6558 1054.2937 2421.6646 7027487
2081.2375 1053.399 2419.6099 7159072
2080.8621 1046.0034 2402.6223 8079916
2097.0103 1046.9578 2404.8145 6764055
2111.8442 1047.2476 2405.4802 7158046
2126.9648 1047.6748 2406.4614 6829337
2143.3911 1048.7351 2408.8967 6698009
2156.3987 1048.1195 2407.4832 6698008
2170.3362 1047.9614 2407.1199 6631702
2198.9863 1054.8629 2422.9722 6896157
2220.3958 1058.224 2430.6924 6961694
2236.1675 1058.8722 2432.1814 6369045
2236.9009 1052.4368 2417.3994 7092512
2250.3718 1052.0378 2416.4832 6500632
2270.9292 1054.936 2423.1401 6369816
2266.0051 1046.0349 2402.6948 6369559
2280.6577 1046.2257 2403.1331 7159075
2311.092 1053.6088 2420.0916 6764317
0 0 0 0
0 0 0 0
0 0 0 0
0 0 0 0
0 0 0 0
0 0 0 0
0 0 0 0
-2684.6956 1325.5328 3003.8059 5514505
-2672.5493 1328.3424 3010.1726 5447942
-2676.7358 1339.3619 3035.144 5776650
-2676.9895 1348.5494 3055.9641 5842699
-2657.4395 1347.818 3054.3066 5513993
-2628.2573 1342.1577 3041.4797 5843213
-2613.4092 1343.7897 3045.178 5710857
-2593.8833 1343.0225 3043.4392 5053698
-2557.4802 1333.4448 3021.7351 5317126
-2527.1851 1326.9392 3006.9927 5513735
-2507.2251 1325.8063 3004.4255 5447942
-2473.2878 1317.2133 2984.9526 5513734
-2453.668 1316.1764 2982.603 5908239
-2424.4243 1309.9249 2968.4365 5119747
-2393.0161 1302.4039 2951.3931 4658944
-2340.0742 1282.9661 2907.3447 5580297
-2339.8052 1292.3325 2928.5701 5645834
-2322.8716 1292.5658 2929.0989 5514505
-2319.1023 1300.1832 2946.3606 5909263
-2308.2686 1303.9254 2954.8408 5382662
-2301.0667 1309.792 2968.1353 5646090
-2278.2986 1306.8204 2961.4014 5646091
-2266.7134 1310.267 2969.2117 6106128
-2245.3247 1308.0562 2964.2017 5645579
-2201.5286 1292.6537 2929.2979 5447687
-2194.1118 1298.5366 2942.6294 5711886
-2150.2368 1282.7642 2906.8872 5646092
-2132.6965 1282.5743 2906.457 5645836
-2099.2812 1272.7566 2884.2087 5251334
-2085.5647 1274.8187 2888.8818 5382664
-2074.322 1278.4396 2897.0872 5514506
-2043.6582 1270.0515 2878.0789 5580299
-2019.1056 1265.3519 2867.4292 4987907
-1998.3743 1262.9879 2862.072 4790531
-1978.6147 1261.2028 2858.0266 5185543
-1978.2407 1271.8501 2882.1545 5317127
-1937.9313 1256.7841 2848.0134 5843215
-1930.4171 1262.9084 2861.8918 5382921
-1901.436 1254.9729 2843.9092 4921601
-1897.6356 1263.6637 2863.6035 5514506
-1864.2767 1252.6503 2838.6458 4855553
-1861.066 1261.8781 2859.5569 5447686
-1823.8347 1247.9961 2828.0989 4790532
-1789.0698 1235.5601 2799.9172 4987909
-1775.514 1237.6755 2804.7112 5053701
-1765.6324 1242.4164 2815.4546 5119748
-1753.6469 1245.7532 2823.0161 5448713
-1729.1848 1240.2057 2810.4451 6040851
-1716.0151 1242.7284 2816.1616 5317385
-1693.8711 1238.7375 2807.1179 5119749
-1680.1694 1240.9028 2812.0247 6699037
-1651.6161 1232.0325 2791.9236 4922630
-1651.8684 1244.6882 2820.6028 4988421
-1628.1418 1239.3495 2808.5046 4856579
-1589.9781 1222.7975 2770.9961 5580302
-1575.168 1224.0479 2773.8296 4856836
-1576.2842 1237.8314 2805.0647 4396289
-1547.4044 1228.1023 2783.0173 4461824
-1530.4081 1227.6965 2782.0979 5383181
-1512.8564 1226.8317 2780.1379 5382923
-1476.9486 1210.8981 2744.0305 5646095
-1467.1732 1216.2733 2756.2114 5054215
-1440.2521 1207.3959 2736.0942 5843472
-1431.2482 1213.5078 2749.9446 5645581
-1412.9393 1211.7803 2746.0298 5974547
-1396.9417 1212.0177 2746.5679 5513996
-1364.3207 1197.6678 2714.0496 5185031
-1362.2316 1210.098 2742.2175 4659460
-1342.8147 1207.2496 2735.7629 4791043
-1328.2427 1208.7407 2739.1418 4856581
-1316.4813 1212.8582 2748.4724 4856580
-1286.9315 1200.4851 2720.4336 4856836
-1284.0063 1212.9495 2748.6792 4462081
-1253.2394 1199.0951 2717.2837 4659201
-1237.2649 1199.2177 2717.5615 5185545
-1221.5887 1199.6365 2718.5107 4593409
-1203.0962 1197.2638 2713.1338 5251081
-1193.2512 1203.5491 2727.377 4592896
-1169.8463 1196.142 2710.5918 3474944
-1142.2952 1184.2305 2683.5989 5250824
-1128.9227 1186.8893 2689.624 4987910
-1111.8206 1185.6467 2686.8083 4856324
-1104.9568 1195.4452 2709.0125 5909011
-1085.4573 1191.6604 2700.4358 5514252
-1064.9265 1186.6132 2688.9983 4461568
-1046.6571 1183.9706 2683.01 4593155
-1025.7769 1178.2479 2670.0415 5579789
-1010.2127 1178.5476 2670.7207 4987909
-990.87549 1174.3849 2661.2876 4922115
-973.10565 1171.9753 2655.8274 4856323
-954.47211 1168.4293 2647.7917 4987138
-932.59442 1160.7271 2630.3376 4921346
-919.88092 1164.3628 2638.5764 5316103
-908.44482 1169.769 2650.8276 5118725
-887.53192 1162.948 2635.3704 4987652
-874.15253 1165.9307 2642.1294 4922116
-858.24219 1165.5848 2641.3457 4527362
-842.05261 1164.8398 2639.6575 4790531
-822.39398 1159.177 2626.8247 5120008
-800.31036 1149.8116 2605.6018 5120007
-789.83563 1157.0845 2622.083 4593665
-763.64807 1141.1683 2586.0154 4133376
-747.92041 1140.5516 2584.6177 5383693
-733.33777 1141.6917 2587.2012 5383179
-720.06458 1144.9624 2594.613 4593664
-698.28064 1134.548 2571.0127 4593152
-683.40051 1135.1362 2572.3457 4593665
-664.44836 1128.8334 2558.0627 4527618
-648.21655 1126.9657 2553.8303 4659460
-629.32184 1120.2683 2538.6536 5119752
-617.73547 1126.5714 2552.937 4659202
-599.88916 1121.488 2541.4175 5185031
-583.14746 1118.2611 2534.105 5513996
-567.86816 1117.7421 2532.9287 4724481
-549.74841 1111.452 2518.6748 4461568
-533.24652 1108.1733 2511.2449 4198401
-521.80023 1115.5143 2527.8801 4593153
-502.56396 1106.1434 2506.6448 4329984
-487.83914 1106.4338 2507.303 4264704
-472.56216 1105.4509 2505.0754 5251593
-458.42496 1107.1569 2508.9414 5185288
-453.32471 1131.5342 2564.1831 6303025
-427.58463 1104.2969 2502.4604 4724740
-410.03259 1097.0093 2485.9458 4132864
-396.06726 1099.132 2490.7561 4790787
-381.36526 1099.2954 2491.1265 4922373
-366.55804 1099.1566 2490.812 4001792
-351.39627 1097.8984 2487.9607 3672832
-335.57013 1094.3634 2479.95 3607040
-321.3092 1095.8427 2483.3022 4330497
-303.1824 1083.6466 2455.6646 4790536
-285.71884 1072.7108 2430.8828 4724741
-271.7515 1074.437 2434.7947 4922376
-256.76965 1072.121 2429.5461 4395778
-242.69456 1073.5405 2432.7632 4791048
-228.82852 1076.1227 2438.6145 4133120
-213.5627 1072.0264 2429.3318 3935745
-199.80672 1075.4646 2437.123 4330498
-184.15456 1068.4373 2421.1982 4330755
-171.59186 1079.6614 2446.6335 3148288
-155.38832 1067.9349 2420.0601 4527876
-141.04694 1067.9232 2420.0334 4133120
-124.97496 1053.3228 2386.9473 4264962
-111.66943 1061.288 2404.9973 4528131
-97.062454 1057.4052 2396.1985 5120011
-82.863792 1057.4023 2396.1921 4462340
-68.359047 1052.6848 2385.5017 4264705
-54.194126 1052.1051 2384.1877 4264705
-40.066856 1052.1051 2384.1877 3672832
-26.073462 1057.535 2396.4927 4462599
-11.818838 1052.6858 2385.5039 4462597
2.3057878 1047.9397 2374.7485 3870720
16.449404 1052.5646 2385.229 4068097
30.632252 1054.265 2389.0825 4528389
45.099037 1061.5741 2405.6458 3279617
58.782543 1051.3629 2382.5061 4462853
73.209846 1055.8337 2392.6375 3805184
86.581078 1046.0941 2370.5664 4068352
100.58403 1045.6407 2369.5391 4660486
114.79073 1047.1572 2372.9756 4331270
128.79523 1046.6995 2371.938 4395776
142.01129 1040.5546 2358.0132 5317134
156.66908 1045.1283 2368.3777 5251341
170.46109 1043.6493 2365.0261 4659459
184.18784 1042.0255 2361.3467 5053959
197.44891 1038.1829 2352.6387 6304283
211.19463 1037.2269 2350.4724 3738624
226.52902 1043.7092 2365.1619 5448973
240.66127 1044.22 2366.3193 4791300
253.49271 1039.3411 2355.2632 4725253
267.20749 1038.4041 2353.1399 3213312
280.76181 1036.9674 2349.8843 4133376
293.62689 1033.2412 2341.4402 4922888
312.11487 1048.7448 2376.573 4856326
321.37137 1033.2301 2341.415 5120008
334.08551 1029.6559 2333.3154 5580049
349.19208 1033.4463 2341.905 4659203
359.78177 1024.09 2320.7026 4133377
373.99213 1025.3491 2323.5559 3607040
389.86661 1030.9192 2336.1785 4528133
402.802 1028.6022 2330.9275 4264705
413.76166 1021.5606 2314.9707 4396544
426.09433 1018.252 2307.4731 4659460
435.36948 1008.0699 2284.3992 3804416
449.94565 1010.4057 2289.6924 4857099
464.82089 1013.2568 2296.1533 4462083
472.21524 1000.102 2266.343 4002050
490.57727 1010.2607 2289.3638 4265219
502.74902 1007.468 2283.0352 4462596
511.72607 998.58728 2262.9106 5251856
524.92755 998.19336 2262.0178 4396549
536.07111 994.00305 2252.5222 4265218
554.18561 1002.6282 2272.0679 4265476
567.13165 1001.7155 2269.9993 3344384
582.18188 1004.4753 2276.2534 3081216
592.33539 998.85284 2263.5122 3607552
607.85748 1002.3318 2271.3962 3148032
614.30493 991.02063 2245.7637 3804928
630.22638 995.1488 2255.1187 4199428
646.31311 999.36121 2264.6643 4068098
657.73651 996.3382 2257.814 4331010
673.55835 999.9657 2266.0342 4659719
687.80957 1001.1652 2268.7524 4988684
695.39642 992.80408 2249.8052 4857095
702.28003 983.7724 2229.3384 3541248
718.93292 988.50659 2240.0667 5053962
722.97589 976.04529 2211.8279 5053705
746.59625 989.98737 2243.4224 4724996
758.67657 988.40723 2239.8416 5645842
767.53015 982.75 2227.0215 4462340
777.82684 979.10046 2218.7512 3672576
795.617 984.84796 2231.7756 4001536
802.11755 976.66119 2213.2236 4724742
812.22638 973.06067 2205.0645 4527364
827.66211 975.85492 2211.3965 5053446
842.49341 977.86041 2215.9412 4724739
856.17804 978.4939 2217.3767 4264193
870.91571 980.29352 2221.4548 5909011
873.99194 969.10895 2196.1094 5448204
882.92261 964.64893 2186.0024 4790275
901.01166 970.17932 2198.5349 5382410
920.1283 976.64276 2213.1819 4461569
925.71753 968.76807 2195.3369 5251081
930.61652 960.39929 2176.3723 5317130
942.56342 959.43335 2174.1833 4987655
947.06787 951.01984 2155.1174 5513999
965.54633 956.67596 2167.9348 3935489
977.6156 955.91663 2166.2141 5580045
991.83643 957.25342 2169.2434 5119240
1006.7456 959.21198 2173.6816 4461825
1018.012 957.69403 2170.2419 5646353
1027.1698 954.255 2162.4487 5514510
1038.1627 952.58459 2158.6633 5579533
1051.7701 953.32471 2160.3406 6435099
1066.4878 955.04114 2164.2302 4790787
1076.524 952.57452 2158.6404 6237202
1089.4515 952.69391 2158.9111 5513481
1102.6111 953.01123 2159.6301 6500374
1110.5968 948.90076 2150.3154 4855812
1128.8359 953.54468 2160.8391 5908749
1145.4988 956.76794 2168.1433 7422245
1156.436 955.19037 2164.5684 6304021
1141.5823 932.57843 2113.3271 5645325
1176.9446 951.03424 2155.1501 5513480
1173.4712 938.04956 2125.7253 5118980
1210.7911 957.6037 2170.0371 6105872
1217.4686 952.76672 2159.0759 5842443
1235.0127 956.4458 2167.4133 7618854
1249.9247 958.0318 2171.0073 5184773
1263.3577 958.46344 2171.9854 6237201
1290.4598 969.15204 2196.207 6303252
1302.5775 968.48608 2194.6978 5907469
1307.1329 962.26617 2180.6028 5578760
1322.657 964.16364 2184.9028 6368532
1328.5942 959.10376 2173.4365 4986882
1357.7482 970.74023 2199.8059 5710601
1368.0165 968.78113 2195.3665 5776398
1386.8551 972.87097 2204.6345 6303250
1405.9971 977.09528 2214.2073 7816489
1426.2468 982.00421 2225.3315 5645319
1456.4625 993.62207 2251.6589 6566675
1486.9753 1005.23 2277.9639 7750692
1501.676 1006.0358 2279.7898 7948327
1521.8646 1010.4711 2289.8408 7816998
1537.652 1011.9316 2293.1501 7948327
1545.5768 1008.2374 2284.7788 7553826
1572.8118 1017.0946 2304.8503 7093277
1588.1417 1018.1671 2307.2805 7290399
1614.7847 1026.4121 2325.9648 7092764
1632.5868 1028.9456 2331.7061 7421985
1661.5439 1038.4082 2353.1492 7356192
1675.5364 1038.4386 2353.218 7619110
1706.7004 1049.0229 2377.2036 7290146
1719.3497 1048.1472 2375.219 7750441
1750.5596 1058.5088 2398.6992 7684904
1775.733 1065.0826 2413.5964 7158560
1819.3698 1082.5372 2453.1506 6895387
1827.9844 1079.042 2445.23 7421475
1832.4169 1073.1525 2431.8835 7092510
1850.0637 1075.0334 2436.146 6763801
1852.2203 1067.9539 2420.103 6698009
1865.6732 1067.4462 2418.9526 7619625
1872.6572 1063.2734 2409.4966 7355941
1924.0167 1084.1691 2456.8484 6172436
1910.4211 1068.4238 2421.168 5448459
1909.8735 1060.1562 2402.4329 5580046
1917.2526 1056.3785 2393.8721 6764063
1958.9851 1071.4456 2428.0156 6895391
1965.1866 1067.0012 2417.9443 6237203
1990.9883 1073.1862 2431.96 6895390
2011.4714 1076.4362 2439.3247 5054223
2015.8923 1071.1052 2427.2444 6171666
2036.4933 1074.3859 2434.6787 6697753
2024.1606 1060.368 2402.9126 6631959
2040.1002 1061.2531 2404.9182 6303250
2037.4473 1052.5211 2385.1306 5316619
2055.6299 1054.5986 2389.8386 6040848
2079.2646 1059.426 2400.7778 6830365
2093.5684 1059.4655 2400.8674 5843214
2113.6731 1062.4203 2407.5635 7619881
2113.8259 1055.3741 2391.5959 8013869
2113.1938 1048.0326 2374.959 6631959
2143.4995 1056.0299 2393.082 6105871
2150.8518 1052.6885 2385.5098 6566423
2161.5557 1051.0199 2381.7288 6632984
2188.9578 1057.4398 2396.2769 6435092
2183.3713 1047.9434 2374.7571 9264447
2193.3706 1046.0016 2370.3567 7422245
2205.1582 1044.9316 2367.9321 6829337
2244.0688 1056.6466 2394.4795 6763545
2225.4546 1041.2981 2359.6982 6566938
2242.3281 1042.6427 2362.7451 6764574
2241.4583 1035.7711 2347.1733 6962209
0 0 0 0
0 0 0 0
0 0 0 0
0 0 0 0
0 0 0 0
0 0 0 0
0 0 0 0
0 0 0 0
-2638.4514 1329.0034 2971.7668 5711114
-2621.6025 1329.3888 2972.6287 5645321
-2661.1807 1358.5867 3037.9175 5710857
-2619.1663 1346.2438 3010.3179 5513734
-2603.2629 1347.2448 3012.5559 5645320
-2563.9939 1336.0836 2987.5986 5579014
-2557.8882 1342.1688 3001.2058 5513991
-2517.0696 1329.9972 2973.989 5381892
-2486.0107 1322.8472 2958.001 5447942
-2465.0542 1321.0095 2953.8916 5908236
-2439.2981 1316.5552 2943.9314 5711114
-2418.7349 1314.8595 2940.1396 5316101
