# .PCD v0.7 - Point Cloud Data file format
VERSION 0.7
FIELDS x y z rgb
SIZE 4 4 4 4
TYPE F F F U
COUNT 1 1 1 1
WIDTH 1278
HEIGHT 1
VIEWPOINT 0 0 0 1 0 0 0
POINTS 1278
DATA ascii
1741.1224 1139.197 2223.3037 2885120
1761.1077 1143.6201 2231.936 2819328
1769.3472 1140.4066 2225.6646 2819840
1785.1355 1142.0703 2228.9114 2228480
1797.1532 1141.3148 2227.437 1900544
1809.4613 1140.7535 2226.3416 1900544
1824.2871 1141.7761 2228.3372 1507328
1841.3843 1144.1954 2233.0588 1638400
1851.2997 1142.1494 2229.0657 1310720
1865.1301 1142.5306 2229.8098 1441792
1877.1902 1141.8296 2228.4417 1572864
1887.8907 1140.3173 2225.49 1310720
1906.2009 1143.3903 2231.4875 1310720
1916.1263 1141.4263 2227.6545 1179648
1934.3844 1144.4188 2233.4949 1310720
1949.798 1145.6995 2235.9941 1310720
1962.9696 1145.6542 2235.9058 1507584
1969.7983 1141.9323 2228.6421 1639168
1982.8931 1141.8685 2228.5176 1638912
1997.7886 1142.8356 2230.405 1310720
2019.1161 1147.4454 2239.4016 1048576
2032.1102 1147.2899 2239.0981 1114112
2047.0798 1148.2446 2240.9614 1114112
2060.9531 1148.5762 2241.6084 917504
2073.0378 1147.9128 2240.314 983040
2100.0337 1155.4625 2255.0481 983040
2106.9504 1151.9385 2248.1707 983040
2125.4915 1154.7745 2253.7053 983040
2142.4375 1156.7136 2257.49 983040
2157.6753 1157.7123 2259.439 983040
0 0 0 0
0 0 0 0
0 0 0 0
0 0 0 0
0 0 0 0
0 0 0 0
0 0 0 0
0 0 0 0
-2637.7808 1539.9191 2971.0117 1966080
-2600.5833 1528.4037 2948.7949 2688768
-2582.3176 1527.9346 2947.8899 2820096
-2565.1807 1528.1316 2948.2698 2885376
-2551.7563 1530.558 2952.9512 3148800
-2537.3447 1532.4216 2956.5469 3083008
-2517.7878 1531.1821 2954.1555 3016960
-2504.7861 1533.9396 2959.4756 3017216
-2505.4944 1545.1913 2981.1838 3083008
-2485.4055 1543.6858 2978.2791 2622464
-2464.0212 1541.3481 2973.769 2097152
-2442.0442 1538.6035 2968.4736 3477760
-2421.9111 1536.9893 2965.3594 3806464
-2402.7126 1535.9489 2963.3521 3740928
-2384.5491 1535.5594 2962.6008 3083008
-2357.6038 1529.4674 2950.8472 3083520
-2341.4663 1530.3481 2952.5464 2557184
-2324.647 1530.7931 2953.4048 2754304
-2291.3345 1520.3016 2933.1633 2622720
-2285.7476 1528.1862 2948.3752 2556672
-2252.7473 1517.7234 2928.189 3149312
-2228.8848 1513.3022 2919.6592 3214848
-2198.02 1504.0205 2901.7517 3280384
-2183.2654 1505.7028 2904.9973 2754048
-2179.5276 1515.0701 2923.0701 2754304
-2158.832 1512.705 2918.5068 2820096
-2138.0654 1510.2517 2913.7737 3346176
-2107.6306 1500.8734 2895.6799 3214592
-2116.9753 1519.9015 2932.3914 3478016
-2109.5417 1527.0983 2946.2764 2820096
-2065.9438 1508.0177 2909.4636 2425344
-2057.7083 1514.6456 2922.251 2951424
-2043.9111 1517.2573 2927.2898 3280384
-2029.0089 1519.0864 2930.8188 3280384
-2014.741 1521.4261 2935.333 3412224
-1993.4963 1518.4923 2929.6726 3280640
-1995.8286 1533.6237 2958.866 3477504
-1962.2703 1521.2001 2934.8967 3675136
-1950.0695 1525.2592 2942.728 4529159
-1924.9402 1519.1884 2931.0154 3937024
-1902.5204 1515.1646 2923.2522 4266240
-1874.3605 1506.4535 2906.4456 4199936
-1865.1399 1512.944 2918.968 3936768
-1839.2181 1505.8815 2905.342 4594693
-1820.1936 1504.3861 2902.457 4002560
-1791.9332 1495.1561 2884.6494 3739392
-1774.8632 1495.175 2884.686 3607552
-1753.1028 1491.205 2877.0264 4199937
-1760.455 1512.1635 2917.4622 3870720
-1745.2443 1513.9646 2920.9373 4397831
-1716.6125 1504.043 2901.7949 2951680
-1728.6418 1529.907 2951.6951 2950912
-1726.5424 1543.6672 2978.2432 3147520
-1695.6431 1531.6965 2955.1477 4001792
-1670.1565 1524.4163 2941.1018 3936256
-1656.3081 1527.7173 2947.4707 4594437
-1633.985 1523.1886 2938.7334 4528900
-1606.9209 1514.0951 2921.189 4923658
-1594.9739 1519.2026 2931.043 4397313
-1574.6777 1516.3824 2925.6021 4463106
-1549.6827 1508.9242 2911.2126 4528643
-1529.199 1505.7402 2905.0696 4857862
-1510.6096 1504.3704 2902.4265 5251338
-1478.8793 1489.7313 2874.1831 5777684
-1456.6903 1484.4746 2864.0413 4461824
-1447.2942 1492.2845 2879.1091 5053699
-1426.952 1488.8599 2872.502 5053956
-1402.2209 1480.718 2856.7935 4658176
-1395.6195 1491.7555 2878.0884 5776906
-1369.5225 1481.9697 2859.2085 5184514
-1345.6949 1474.4255 2844.6533 5447686
-1337.0334 1483.5176 2862.1946 4592384
-1323.6578 1487.5453 2869.9656 4527104
-1303.455 1483.9054 2862.9431 5118979
-1286.9669 1484.4547 2864.0027 4922370
-1264.8967 1478.4935 2852.5017 5053956
-1248.4092 1478.9847 2853.4495 5185542
-1230.573 1477.87 2851.2986 4856320
-1211.0165 1474.629 2845.0459 4329984
-1192.176 1472.1812 2840.323 4790272
-1177.9655 1475.4622 2846.6533 4329472
-1159.9615 1474.0181 2843.8672 5579529
-1129.2524 1456.1484 2809.3906 4987908
-1121.5608 1467.8688 2832.0029 4658691
-1098.0701 1458.9535 2814.8025 5119241
-1085.934 1465.0824 2826.6272 4856067
-1067.1229 1462.2567 2821.1755 4132608
-1044.4894 1454.0195 2805.2834 4658689
-1032.4312 1460.4761 2817.7402 4856322
-1008.7343 1450.4103 2798.3198 5119493
-993.31995 1452.1161 2801.6111 5317127
-978.2254 1454.3552 2805.9312 5185543
-961.95245 1454.8896 2806.9622 5053699
-930.3335 1431.8247 2762.4622 4790017
-915.18799 1433.7408 2766.1592 4855552
-901.98926 1438.8325 2775.9824 5382150
-878.38586 1427.2076 2753.5544 5118723
-863.24683 1429.1562 2757.3137 5184772
-848.58075 1431.9778 2762.7576 5447687
-833.26703 1433.796 2766.2654 5316099
-811.78064 1424.853 2749.0115 6566168
-791.26154 1417.2762 2734.3933 5447687
-777.71588 1422.1343 2743.7661 3344128
-759.22388 1417.9618 2735.7161 4132608
-744.23444 1420.2915 2740.2107 5053186
-726.17023 1416.7264 2733.3325 5118464
-705.54828 1407.8948 2716.2935 5842187
-688.87024 1406.7045 2713.9968 5644807
-668.65216 1398.0555 2697.3103 5315842
-657.65546 1408.7356 2717.9158 5118464
-634.26892 1392.7461 2687.0667 5447685
-617.35168 1390.5044 2682.7417 5579269
-598.14783 1382.8577 2667.9885 5644036
-583.40961 1385.4003 2672.894 5841414
-567.27515 1384.6764 2671.4976 5775878
-553.45007 1389.71 2681.209 5841671
-532.08685 1375.5536 2653.8965 5710084
-515.13928 1372.2977 2647.615 5907467
-497.7334 1367.5782 2638.5095 5644037
-485.44217 1377.0614 2656.8057 5776137
-468.04843 1372.2207 2647.4663 5973515
-450.4874 1366.5367 2636.5002 5184257
-437.25723 1374.054 2651.0034 4855552
-416.97876 1359.1571 2622.2625 5118722
-402.89218 1364.0709 2631.7429 4986625
-384.49832 1354.2106 2612.7188 6696981
-369.26141 1355.1077 2614.4497 5579014
-351.96613 1348.1989 2601.1204 5052672
-334.35425 1339.3892 2584.1235 5447429
-320.28912 1344.6237 2594.2224 5381637
-305.26352 1346.1503 2597.168 5184517
-287.69244 1336.0181 2577.6196 4789505
-273.24789 1340.0831 2585.4624 5118467
-257.75479 1339.1832 2583.7263 5250308
-245.96191 1358.6085 2621.2041 4789761
-226.89282 1337.7523 2580.9653 4986881
-209.56534 1324.8916 2556.1531 5316102
-195.36017 1331.3047 2568.5259 5250052
-180.81702 1336.3035 2578.1702 5250308
-165.00142 1331.9532 2569.7771 5578760
-149.06483 1325.6426 2557.6018 5052672
-134.55965 1332.0734 2570.009 5118466
-119.49961 1333.9521 2573.6338 4986880
-103.76247 1327.7164 2561.603 4986881
-87.9692 1318.5026 2543.8264 5315589
-73.26442 1325.1661 2556.6826 5052673
-58.023605 1323.0809 2552.6597 5512967
-42.992344 1325.9886 2558.2695 4723712
-27.441753 1307.3225 2522.2563 4394496
-12.606865 1318.8821 2544.5586 4789504
2.4745483 1320.9542 2548.5564 5052160
17.557945 1319.6146 2545.9719 5183746
32.719803 1322.6851 2551.8958 4262912
47.5807 1315.4935 2538.021 4920832
62.723343 1317.6753 2542.2302 4855296
77.583061 1314.2192 2535.5625 4723456
92.517548 1312.9458 2533.1055 5381638
107.2562 1309.6366 2526.7209 5316101
121.84116 1305.4913 2518.7234 5250309
137.50258 1312.526 2532.2957 5381894
151.65616 1305.1996 2518.1606 5381894
166.15962 1301.9271 2511.8469 5184259
181.13625 1302.5953 2513.136 5907982
195.86075 1301.4868 2510.9973 5250051
212.11636 1309.9905 2527.4038 5118467
226.48178 1306.4691 2520.6099 5183747
241.98259 1309.5276 2526.5107 5315073
256.66452 1308.0565 2523.6726 5578244
270.1315 1300.8965 2509.8584 5315074
283.27997 1293.0297 2494.6807 5249795
298.11633 1293.2656 2495.136 5184260
311.74091 1288.4707 2485.885 5052419
328.75101 1297.47 2503.2476 4789248
342.04111 1291.6445 2492.0083 5052160
353.97653 1281.3972 2472.238 4789504
369.15167 1283.2262 2475.7666 5184258
384.047 1283.9799 2477.2207 5184258
399.86722 1287.6562 2484.3137 4986880
416.95898 1295.021 2498.5227 5118210
428.72217 1285.8982 2480.9219 5184259
442.4415 1283.053 2475.4324 5512968
457.39249 1283.8475 2476.9653 5052417
471.90921 1283.4115 2476.1243 4921088
483.29935 1274.7552 2459.4233 5118211
497.74078 1274.4181 2458.7729 4657664
513.84564 1278.2383 2466.1433 4657920
525.1084 1270.1349 2450.5093 4723456
539.09222 1268.8724 2448.0735 4921090
556.21185 1274.8633 2459.6318 4789248
566.92407 1266.2373 2442.9895 5184259
582.43121 1268.4836 2447.3232 5249280
599.30768 1273.5308 2457.0608 5446915
612.46857 1270.63 2451.4646 5644293
619.55066 1255.5448 2422.3601 5578244
631.18677 1250.1627 2411.9763 5578244
645.29413 1249.8052 2411.2866 5380866
658.91949 1248.5499 2408.8647 5052928
672.1402 1246.5974 2405.0977 5250049
685.15588 1244.3536 2400.7686 5184003
698.84314 1243.3959 2398.9209 5447431
715.54156 1247.7271 2407.2771 5381637
725.57098 1240.4873 2393.3091 5184515
727.05957 1219.2028 2352.2444 4921601
747.84503 1230.4694 2373.9812 5711115
763.18073 1232.5187 2377.9351 5316101
773.17169 1226.0184 2365.394 4987394
787.3772 1226.3137 2365.9636 4921604
799.61646 1223.5898 2360.7085 4922116
816.63434 1228.1462 2369.4993 4856067
822.64496 1216.2745 2346.595 5383179
833.31958 1211.5785 2337.5347 3606784
843.43719 1206.2395 2327.2339 4527872
860.38849 1210.6882 2335.8169 4001536
873.43768 1209.5922 2333.7024 4329986
887.4408 1209.8307 2334.1626 4921860
904.84595 1214.6287 2343.4194 4855553
910.17584 1203.3173 2321.5959 4855810
926.53174 1206.7029 2328.1279 5184517
939.25311 1205.325 2325.4695 4790017
946.7915 1197.4319 2310.2412 4921347
957.45398 1193.6587 2302.9612 4592640
967.12329 1188.7705 2293.5305 4132608
983.54193 1192.1992 2300.1455 4527361
993.65381 1187.9939 2292.032 4658945
1004.0562 1184.2445 2284.7983 4922117
1022.4008 1189.8379 2295.5898 5580047
1048.8608 1204.605 2324.0803 4856326
1057.0442 1198.2706 2311.8594 5382668
1065.0619 1191.913 2299.5933 3606528
1073.006 1185.6346 2287.4802 5185032
1094.1218 1193.8857 2303.3994 3737856
1107.8505 1193.972 2303.5659 4395776
1113.0242 1184.9485 2286.1565 3803648
1134.746 1193.5475 2302.7468 4461312
1143.5397 1188.5059 2293.0198 4396288
1158.1923 1189.6002 2295.1311 5251595
1165.156 1182.8635 2282.1338 4396288
1182.3502 1186.5482 2289.2429 4264192
1195.0598 1185.6998 2287.606 4461568
1202.8376 1180.0322 2276.6714 4527105
1213.447 1177.2374 2271.2793 4527362
1219.6954 1170.3195 2257.9321 4461570
1223.6121 1161.3384 2240.605 3936002
1243.5492 1167.5923 2252.6707 4658946
1268.1986 1178.0907 2272.9255 4330240
1282.9373 1179.2587 2275.179 4724739
1299.6636 1182.2103 2280.8738 4263936
1315.3008 1184.1208 2284.5598 4264193
1324.6239 1180.366 2277.3152 4395777
1319.2101 1163.6873 2245.1365 4724999
1328.2495 1159.9635 2237.9521 3672320
1343.2826 1161.496 2240.9089 3277824
1364.2134 1168.0481 2253.55 4001024
1388.6321 1177.4305 2271.6519 4066560
1401.3466 1176.8041 2270.4434 4987913
1413.0137 1175.3184 2267.5769 5514255
1411.376 1162.8983 2243.6145 5185033
1430.0551 1167.2937 2252.0945 4724739
1449.681 1172.3735 2261.8953 4790789
1451.8877 1163.4021 2244.5864 4856326
1454.7583 1155.1208 2228.6091 4856584
1487.5148 1170.5052 2258.2908 3935488
1505.1382 1173.8135 2264.6736 4264451
1511.8212 1168.6068 2254.6279 5053705
1522.4236 1166.4941 2250.552 5251084
1544.0695 1172.8064 2262.7305 4856069
1546.791 1164.7596 2247.2056 5645584
1553.2343 1159.6288 2237.3064 4593156
1570.5073 1162.6018 2243.0425 4724997
1583.314 1162.2465 2242.3567 4659204
1599.2659 1164.1864 2246.0996 4593411
1609.001 1161.6062 2241.1216 4724742
1615.1823 1156.5236 2231.3154 4527619
1633.9207 1160.4418 2238.875 4790790
1648.6874 1161.499 2240.9148 5053708
1652.6859 1155.0137 2228.4023 4396034
1659.6146 1150.6626 2220.0078 4790792
1673.3273 1151.0465 2220.7485 4528134
1702.4741 1161.9586 2241.8015 4330754
1699.5616 1150.9901 2220.6396 3410176
1709.7961 1149.0254 2216.8489 3410944
1725.2487 1150.5704 2219.8298 2819328
1732.2094 1146.4717 2211.9221 2490880
1744.87 1146.1788 2211.3572 2623488
1760.3322 1147.717 2214.3247 2228480
1778.1908 1150.7831 2220.2402 1769472
1784.7637 1146.5542 2212.0813 1441792
1799.328 1147.4833 2213.8738 1572864
1814.1901 1148.5874 2216.0039 1441792
1826.5057 1148.0752 2215.0156 1310720
1842.4501 1149.8347 2218.4104 1245184
1853.496 1148.5339 2215.9009 1441792
1867.55 1149.1025 2216.9978 1179648
1881.6261 1149.6765 2218.1052 1179648
1894.5896 1149.5674 2217.8948 1048576
1908.6454 1150.1182 2218.9573 1179648
1927.8485 1153.7418 2225.9485 1114112
1939.4641 1152.8062 2224.1433 1179648
1952.9305 1152.9758 2224.4707 1245184
1963.0522 1151.1819 2221.0095 1638656
1972.3877 1148.9537 2216.7109 1245184
1990.2152 1151.6693 2221.95 1048576
2007.2916 1153.9174 2226.2871 1245184
2021.9479 1154.7538 2227.9009 1114112
2035.2053 1154.7856 2227.9624 1114112
2050.4565 1155.941 2230.1917 983040
2065.3748 1156.8953 2232.0325 983040
2080.4373 1157.9175 2234.0049 983040
2095.9192 1159.1589 2236.3999 983040
2113.1443 1161.3428 2240.6133 983040
2127.1565 1161.7445 2241.3884 983040
2144.988 1164.2142 2246.1533 983040
0 0 0 0
0 0 0 0
0 0 0 0
0 0 0 0
0 0 0 0
0 0 0 0
0 0 0 0
0 0 0 0
-2621.6592 1548.004 2952.8533 2952192
-2601.948 1546.6879 2950.3425 2885888
-2579.0239 1543.431 2944.1301 2885888
-2558.8015 1541.7576 2940.938 3148544
-2541.4045 1541.7754 2940.9719 3017216
-2523.9597 1541.7642 2940.9504 3214592
-2506.5334 1541.7642 2940.9504 3148800
-2494.0649 1544.835 2946.8081 3083008
-2494.3062 1555.8771 2967.8713 3411968
-2453.3889 1541.2203 2939.9131 3280384
-2423.5107 1533.3383 2924.8779 2688256
-2388.626 1522.1522 2903.5403 2820352
-2367.3291 1519.5254 2898.5295 3148800
-2367.0903 1530.4758 2919.4177 3017216
-2337.7251 1522.6166 2904.426 2819840
-2322.1206 1523.67 2906.4355 3214592
-2306.0002 1524.3979 2907.8242 3214848
-2297.9617 1530.5199 2919.502 3214848
-2274.8179 1526.5978 2912.0203 3543552
-2260.4919 1528.5784 2915.7983 3280640
-2231.8921 1520.8628 2901.0808 3346432
-2178.0166 1495.6705 2853.0259 3675393
-2176.6809 1506.4459 2873.5803 3346432
-2175.2817 1517.3472 2894.3745 3214848
-2157.116 1516.6332 2893.0127 3214592
-2149.5813 1523.4423 2906.001 3017472
-2122.2449 1516.2141 2892.2134 3149056
-2108.8091 1518.8804 2897.2991 3083264
-2094.9819 1521.3062 2901.9263 2885888
-2090.0735 1530.3021 2919.0864 3280640
-2066.4197 1525.6088 2910.1338 3872512
-2047.2401 1524.1675 2907.3845 3477760
-2027.7454 1522.4652 2904.1372 3345920
-2018.8269 1528.7426 2916.1113 3214336
-2007.3096 1533.1432 2924.5059 2819584
-1980.8019 1526.0717 2911.0166 3609088
-1957.7985 1521.5991 2902.4854 3805696
-1945.1073 1525.1333 2909.2268 3739392
-1923.1781 1521.4224 2902.1482 5054986
-1896.0922 1513.5282 2887.0898 3607552
-1871.2972 1507.3356 2875.2773 4528642
-1868.4637 1518.8818 2897.302 4726279
-1835.5555 1505.9677 2872.668 4199937
-1803.9266 1493.8711 2849.5935 4528642
-1784.0033 1491.3312 2844.7485 4462849
-1774.5588 1497.5863 2856.6802 4528899
-1762.4188 1501.665 2864.4604 4594177
-1753.2384 1508.3691 2877.2488 4725507
-1730.0636 1503.0471 2867.0969 4593923
-1723.6879 1512.3589 2884.8594 4659715
-1699.7559 1506.2992 2873.3003 4199168
-1690.9603 1513.6663 2887.353 4396288
-1682.9821 1521.9229 2903.1028 4593665
-1664.703 1520.9388 2901.2258 4528129
-1632.385 1506.974 2874.5874 4264704
-1624.5657 1515.5695 2890.9836 4001536
-1610.8502 1518.7892 2897.1252 4198912
-1579.0518 1504.8448 2870.5261 3738368
-1554.7833 1497.8513 2857.1858 4396288
-1541.0217 1500.9374 2863.0725 4922887
-1524.931 1501.7981 2864.7144 4199424
-1504.4783 1498.3342 2858.1069 4725506
-1493.8741 1504.7114 2870.2715 4922372
-1463.6989 1491.2953 2844.6802 4856836
-1443.0549 1487.391 2837.2324 4659200
-1418.0663 1478.8635 2820.9661 5053699
-1408.4824 1486.3895 2835.322 4790785
-1392.3226 1487.0737 2836.6272 5184770
-1372.1058 1483.3885 2829.5977 4855552
-1353.3927 1481.2581 2825.5337 4855552
-1335.0348 1479.4679 2822.1189 5776649
-1321.9121 1483.5073 2829.8242 5250309
-1301.6616 1479.5486 2822.2729 4724993
-1287.618 1482.634 2828.1584 5185541
-1269.7218 1481.3062 2825.6255 5448713
-1257.6414 1486.8182 2836.1399 4461824
-1235.8359 1480.8268 2824.7112 5053443
-1212.9603 1473.3711 2810.4893 4856321
-1196.4343 1473.5277 2810.7881 4526848
-1180.6971 1474.6742 2812.9749 4855808
-1164.7546 1475.5933 2814.728 4461056
-1145.7911 1472.6564 2809.1257 4856321
-1125.1116 1467.3947 2799.0889 5448458
-1108.4727 1467.3242 2798.9546 4856321
-1074.3906 1443.8108 2754.1023 4658688
-1061.5846 1448.6047 2763.2468 5053699
-1042.4335 1444.755 2755.9033 5251334
-1029.0605 1448.9182 2763.8447 4922370
-1013.1033 1449.5187 2764.9902 4396032
-992.90942 1443.9775 2754.4204 4790787
-976.28351 1443.5269 2753.5605 5185285
-960.56482 1444.4249 2755.2737 5843215
-914.43213 1398.8291 2668.2986 4987906
-919.2204 1430.8942 2729.4636 5184515
-904.38007 1433.0061 2733.4922 5513736
-892.38556 1439.7866 2746.426 5250308
-869.24811 1428.5067 2724.9094 5447944
-853.4552 1429.0984 2726.0381 5579529
-830.25043 1417.0623 2703.0786 5184773
-821.21851 1429.2186 2726.2673 4658433
-798.05316 1416.7717 2702.5247 5250052
-775.62939 1405.1589 2680.3728 5250565
-769.75726 1423.6726 2715.6882 5579016
-741.71643 1401.1005 2672.6313 5447429
-732.22485 1413.3474 2695.9927 4723968
-714.65686 1410.2036 2689.9958 5513221
-691.61743 1395.8737 2662.6609 5908236
-676.11157 1396.4343 2663.7305 5973771
-660.64209 1397.0988 2664.998 5513219
-644.9931 1397.4069 2665.5857 5447683
-624.9231 1387.9115 2647.4731 5776648
-610.50244 1390.7972 2652.9778 5644805
-590.53723 1380.8705 2634.0422 5841671
-574.8371 1380.6486 2633.6189 5841414
-556.75049 1374.5226 2621.9333 5973000
-537.17957 1364.275 2602.386 6301965
-520.17389 1360.1294 2594.478 5841413
-508.34909 1369.6904 2612.7161 5249281
-493.78821 1372.2485 2617.5957 5183488
-478.31503 1372.3552 2617.7991 5578245
-459.09924 1361.3707 2596.8459 5381891
-444.32776 1363.2604 2600.4504 5250306
-426.84659 1356.6733 2587.8855 5710600
-412.68909 1360.553 2595.2859 5381892
-395.20526 1353.342 2581.531 5184514
-379.28091 1351.106 2577.2656 4920321
-362.68445 1346.1874 2567.8833 4328448
-347.90314 1347.8705 2571.0938 4526336
-330.44415 1338.8586 2553.9036 5184259
-314.8761 1337.0109 2550.3789 6039568
-298.8363 1332.8729 2542.4856 5513224
-282.2605 1325.7778 2528.9517 4855041
-270.83444 1343.4315 2562.6265 5644553
-256.50217 1347.9104 2571.1702 4723712
-238.82388 1334.2616 2545.1345 5381382
-224.03754 1336.0183 2548.4856 5184259
-208.05055 1330.3517 2537.6765 5447174
-192.37843 1325.9725 2529.323 5118212
-175.86395 1314.5568 2507.5471 5250052
-162.93137 1330.2789 2537.5376 5513223
-147.86009 1329.9609 2536.9309 4986624
-132.92766 1330.9612 2538.8391 5052417
-118.57872 1338.8048 2553.8008 5447430
-101.3218 1311.3077 2501.3496 5447430
-87.387283 1324.7542 2526.999 5512967
-71.999031 1317.1663 2512.5249 5052674
-57.051746 1315.7925 2509.9043 5184003
-42.056313 1311.9479 2502.5708 5118209
-27.258505 1313.4382 2505.4136 4986880
-12.412924 1313.4382 2505.4136 4855297
2.4206033 1306.9293 2492.9978 5381125
17.263477 1312.316 2503.2729 5644296
32.2467 1318.4624 2514.9973 5249796
46.837906 1309.7611 2498.3994 4921088
61.666096 1310.2747 2499.3789 5052674
76.380981 1308.6479 2496.2761 5052673
91.430099 1312.3467 2503.3313 5315844
106.12476 1310.635 2500.0664 4986112
120.45957 1305.4432 2490.1628 5118209
135.41692 1307.3948 2493.8855 4789504
149.99605 1305.67 2490.5955 5974535
164.22089 1301.4464 2482.5388 4660224
178.42688 1297.7803 2475.5457 4922881
191.06973 1284.1653 2449.575 5381633
208.05328 1299.5867 2478.9915 5512708
222.79324 1299.8839 2479.5583 5117696
239.22241 1309.3904 2497.6921 5577734
254.51541 1311.9324 2502.5413 5512455
267.15125 1301.252 2482.168 4723200
276.03091 1274.3452 2430.8428 5973260
290.75919 1275.7693 2433.5591 5052161
309.8316 1295.219 2470.6599 5710603
324.17542 1294.038 2468.4072 5249539
334.58142 1277.9188 2437.6594 5315588
349.02551 1277.9188 2437.6594 4921090
365.39233 1284.6787 2450.5542 5052673
379.07425 1281.843 2445.145 4855296
395.74637 1288.9552 2458.7117 5447433
405.76901 1274.6738 2431.4695 4460544
423.65588 1285.2294 2451.6045 4855297
438.54602 1286.295 2453.6375 4657664
448.56119 1273.4528 2429.1404 5184003
465.91608 1281.5984 2444.6782 5118212
479.71399 1279.7633 2441.178 4591872
491.06952 1271.7109 2425.8179 4394496
505.91736 1272.9033 2428.0923 4789248
516.38458 1263.3127 2409.7981 4789504
527.4494 1255.6609 2395.2019 4657664
546.23798 1266.3157 2415.5261 4789504
561.46057 1268.3706 2419.446 5249796
573.61328 1263.5608 2410.2712 5710346
588.82092 1265.5508 2414.0671 5841416
600.67462 1260.4084 2404.2581 5710087
612.87256 1256.2101 2396.2498 5578501
625.23724 1252.536 2389.2412 5316099
638.85291 1251.4751 2387.2175 5052929
652.07538 1249.7068 2383.8442 5315842
663.54968 1244.7339 2374.3584 5316099
678.49426 1246.3422 2377.4263 6039311
693.39423 1247.8048 2380.2163 5184259
705.73694 1244.699 2374.2917 4591872
716.86102 1239.6072 2364.5791 4723456
730.34808 1238.7184 2362.8838 4526848
739.10333 1229.9885 2346.2314 4921603
748.60992 1222.8082 2332.5349 4790017
761.66119 1221.5735 2330.1794 4790017
776.30133 1222.8855 2332.6821 5513482
786.18506 1216.79 2321.0549 4987908
801.06409 1218.5027 2324.3218 4724739
811.71661 1213.8368 2315.4216 4724482
818.28436 1203.3196 2295.3596 4593152
835.06714 1207.922 2304.1389 4527362
845.21771 1202.9374 2294.6306 4263936
861.61365 1206.8584 2302.1101 5316618
878.1933 1210.9105 2309.8396 4790017
892.01013 1211.087 2310.1765 4855553
895.83093 1197.892 2285.0063 4987139
910.96631 1199.994 2289.0161 4921603
922.50409 1197.365 2284.0012 4921602
938.41705 1200.4086 2289.8069 5250567
951.16284 1199.3717 2287.8291 5580048
961.83148 1195.7817 2280.981 4066560
971.92975 1191.5919 2272.9888 4724737
979.27161 1184.1833 2258.8569 5251079
992.41327 1183.8936 2258.3042 3606528
1019.6655 1200.2206 2289.4482 4790276
1030.8585 1197.4642 2284.1904 4724740
1039.7959 1192.193 2274.1355 4856323
1050.7715 1189.3636 2268.7385 4395776
1069.1382 1194.8663 2279.2349 4395778
1085.4894 1198.0071 2285.2261 4593154
1088.0973 1186.0895 2262.4929 4461312
1107.9032 1192.9806 2275.6379 3935232
1121.8745 1193.499 2276.6267 4527363
1130.6556 1188.549 2267.1846 3869697
1141.4039 1185.759 2261.8625 3935234
1159.5902 1190.6711 2271.2324 4132864
1160.5704 1178.0059 2247.0732 3474944
1167.9579 1172.0577 2235.7271 4396032
1183.8861 1174.7177 2240.8008 4396032
1193.0924 1170.7227 2233.1802 3146496
1214.4827 1178.6396 2248.2822 3607040
1228.0553 1178.8802 2248.7412 3541248
1233.8859 1171.7633 2235.1655 3738624
1256.2212 1180.3052 2251.4592 3672832
1258.0947 1169.644 2231.1228 4001792
1283.7161 1181.0533 2252.8865 4396290
1298.2656 1182.1464 2254.9712 4067072
1296.4587 1168.4752 2228.8933 4395776
1306.0419 1165.2419 2222.7258 4395776
1320.9207 1166.7509 2225.604 4396033
1338.6447 1170.718 2233.1716 4658946
1350.7943 1169.7805 2231.3831 4330240
1384.1113 1187.014 2264.2566 4067072
1391.3911 1181.8016 2254.3137 4593155
1405.4258 1182.3712 2255.4001 3672320
1398.2045 1165.2158 2222.676 3410688
1412.473 1166.1227 2224.4058 3475200
1427.204 1167.3909 2226.825 4396033
1452.2448 1176.9916 2245.1384 5053962
1451.4565 1165.6747 2223.551 4658947
1477.9501 1176.2742 2243.77 4658691
1484.2144 1170.7281 2233.1909 5053705
1489.4061 1164.4418 2221.1995 4461569
1500.5746 1162.8973 2218.2532 4987910
1523.8656 1170.6926 2233.123 4790531
1527.83 1163.634 2219.6587 4856324
1527.3895 1153.3698 2200.0793 4658945
1553.2321 1162.9583 2218.3694 4856324
1569.2725 1165.1082 2222.4705 5777170
1585.1847 1167.1279 2226.3232 5843219
1599.9734 1168.2938 2228.5474 4856068
1604.8108 1162.2338 2216.9875 4329986
1613.0242 1158.6973 2210.2417 5119754
1626.8927 1159.2474 2211.291 4790276
1639.3052 1158.7594 2210.3601 4724997
1652.3215 1158.7026 2210.252 4790792
1663.3136 1157.2385 2207.459 4462340
1684.9724 1163.1605 2218.7554 4397061
1679.3577 1150.3092 2194.2412 3673600
1693.5996 1151.1521 2195.8491 3411200
1705.4706 1150.3831 2194.3821 2951680
1718.4731 1150.3831 2194.3821 2952192
1719.0475 1142.1257 2178.6311 1966080
1735.2848 1144.3204 2182.8174 1376256
1752.2755 1146.9757 2187.8826 1441792
1770.85 1150.6211 2194.8362 1376256
1783.9525 1150.6838 2194.9558 1376256
1798.5768 1151.7201 2196.9326 1310720
1813.9785 1153.2358 2199.8237 1179648
1828.1635 1153.9618 2201.2085 1245184
1842.7678 1154.9403 2203.0752 1245184
1856.4674 1155.3419 2203.8413 1179648
1871.0872 1156.3068 2205.6816 1179648
1886.7827 1157.9183 2208.7556 1114112
1894.1052 1154.4044 2202.053 1114112
1907.5612 1154.6515 2202.5242 1114112
1921.9303 1155.444 2204.0359 1114112
1935.1864 1155.5612 2204.2595 1114112
1948.4349 1155.6725 2204.4717 1114112
1962.0952 1156.0247 2205.1436 1114112
1976.0265 1156.5308 2206.1091 1114112
1997.1736 1161.226 2215.0652 1114112
2008.8434 1160.3851 2213.4614 1048576
2021.1672 1159.9309 2212.5947 1114112
2033.9745 1159.7579 2212.2649 1048576
2050.7756 1161.8499 2216.2554 983040
2065.3127 1162.6409 2217.7642 983040
2081.0886 1164.1146 2220.5754 983040
2097.9263 1166.1602 2224.4773 983040
2114.2708 1167.9077 2227.8108 983040
2128.8296 1168.6532 2229.2329 983040
0 0 0 0
0 0 0 0
0 0 0 0
0 0 0 0
0 0 0 0
0 0 0 0
0 0 0 0
0 0 0 0
-2629.3535 1570.0955 2961.5198 2820096
-2600.4148 1563.2482 2948.604 3082752
-2572.8489 1557.1389 2937.0808 3280384
-2551.5168 1554.745 2932.5654 3083008
-2536.3743 1556.1156 2935.1506 3082752
-2517.866 1555.4259 2933.8499 3280128
-2493.7629 1551.2466 2925.9666 3214592
-2484.5662 1556.3459 2935.5852 4004096
-2468.8281 1557.3907 2937.5559 3609344
-2455.0403 1559.6896 2941.8921 3017216
-2409.4163 1541.6511 2907.8677 3214848
-2374.5796 1530.3046 2886.4658 3214848
-2365.0808 1535.2411 2895.7771 2951680
-2318.4685 1515.9821 2859.4507 2557440
-2296.6519 1512.7721 2853.396 3346432
-2297.7393 1524.7129 2875.9189 2885888
-2298.9055 1536.885 2898.8779 2885888
-2265.4932 1525.9496 2878.2515 2951680
-2262.4556 1535.4626 2896.1951 2688512
-2242.1753 1533.3296 2892.1716 3017472
-2220.0891 1529.9192 2885.739 1966848
-2178.1746 1512.6855 2853.2327 3412224
-2169.5801 1518.5032 2864.2061 3214592
-2173.0032 1532.89 2891.3425 3609600
-2152.2498 1530.3154 2886.4863 3477760
-2135.52 1530.5834 2886.9917 3411968
-2102.834 1519.3269 2865.7598 4004098
-2088.6484 1521.3629 2869.6001 3938304
-2072.7031 1522.1403 2871.0662 3872256
-2053.687 1520.6564 2868.2673 4201219
-2051.2312 1531.5123 2888.7439 3872256
-2038.6312 1534.9132 2895.1587 3740672
-2019.2513 1533.2239 2891.9722 3543296
-1995.8007 1528.3879 2882.8508 3937792
-1963.5659 1516.6838 2860.7744 4331521
-1946.045 1516.2402 2859.9375 4134144
-1932.5912 1518.9851 2865.115 4397313
-1916.6567 1519.8118 2866.6743 4463107
-1895.91 1516.8032 2860.9995 4397056
-1879.4023 1517.1624 2861.677 4331777
-1840.005 1498.882 2827.1963 4133888
-1827.3848 1502.2789 2833.6038 4463106
-1805.3315 1497.9121 2825.3669 4331264
-1787.8853 1497.3219 2824.2537 4331009
-1764.3954 1491.6111 2813.4819 4462592
-1746.9484 1490.9489 2812.2329 4133376
-1736.8081 1496.5698 2822.8352 4133632
-1721.5438 1497.8419 2825.2346 4265216
-1718.8246 1510.1611 2848.4712 4265216
-1703.2438 1511.3125 2850.6428 4462336
-1689.1111 1513.7847 2855.3059 4527873
-1678.5968 1519.5825 2866.2419 4330753
-1654.788 1513.3408 2854.4688 4462336
-1640.6182 1515.8762 2859.251 4462080
-1607.1302 1500.4288 2830.1143 4133632
-1591.6217 1501.6187 2832.3584 4988680
-1578.5256 1505.1342 2838.9893 4659714
-1566.7209 1509.9698 2848.1104 4988679
-1526.6045 1487.3275 2805.4023 4857349
-1515.0629 1492.3328 2814.8433 4594178
-1494.6146 1488.5787 2807.7625 4659970
-1478.353 1488.9569 2808.4758 4791556
-1461.6252 1488.8689 2808.3098 4593408
-1437.8854 1481.5538 2794.512 4593666
-1431.3596 1492.0118 2814.238 4856321
-1400.7065 1477.2701 2786.4321 4724480
-1386.2279 1479.439 2790.5229 4987392
-1368.3513 1477.9897 2787.7896 4921600
-1353.2174 1479.5039 2790.6455 5118978
-1333.0571 1475.4921 2783.0784 4987136
-1308.4935 1466.4448 2766.0134 4592640
-1309.0988 1485.7329 2802.3948 5184770
-1283.7916 1475.7301 2783.5273 4592640
-1270.5374 1479.5021 2790.6421 4658432
-1240.6306 1463.7266 2760.8862 5513480
-1229.0267 1469.4122 2771.6104 5381894
-1235.252 1496.8568 2823.3765 5118722
-1206.2977 1481.8398 2795.0515 4987393
-1187.1625 1478.6345 2789.0056 5381892
-1167.2124 1474.3097 2780.8481 5711113
-1138.6938 1458.8828 2751.75 5381892
-1118.6348 1454.0035 2742.5466 5184513
-1110.5885 1464.825 2762.958 5316358
-1088.231 1456.8116 2747.8433 5184771
-1066.8756 1449.9169 2734.8384 5316357
-1052.5111 1452.4568 2739.6292 5053186
-1034.8051 1450.3926 2735.7356 5118723
-1013.3762 1442.9622 2721.7202 5053442
-1005.5414 1454.9608 2744.3521 5118978
-984.48828 1447.9133 2731.0593 4790017
-969.87299 1450.2571 2735.48 5118979
-947.10205 1440.278 2716.6572 5184516
-913.41327 1413.0636 2665.3254 5645067
-897.62012 1413.0636 2665.3254 4724224
-883.24506 1415.3359 2669.6116 5381893
-868.58746 1417.2302 2673.1846 5315845
-863.75262 1435.5198 2707.6824 5250308
-845.65833 1432.0479 2701.1338 5776394
-823.64258 1421.6732 2681.5652 5316099
-808.38531 1422.7858 2683.6636 4855298
-792.91797 1423.5659 2685.135 5184258
-773.12726 1416.4568 2671.7258 4526592
-752.54834 1407.5764 2654.9756 4789760
-735.67474 1405.3951 2650.8613 5579271
-718.33813 1402.215 2644.8628 5578499
-701.22437 1399.3375 2639.4353 5315072
-686.77271 1401.7625 2644.0093 4459520
-665.66388 1390.3955 2622.5688 5709828
-651.78809 1393.9543 2629.2815 6104843
-632.78479 1386.4526 2615.1318 5578500
-616.23907 1384.0944 2610.6836 6104843
-597.24615 1375.9764 2595.3716 6104586
-582.97705 1378.6002 2600.3206 5841414
-568.86902 1381.7577 2606.2761 5512449
-546.04236 1363.3232 2571.5051 5512706
-533.50781 1370.2645 2584.5979 5117696
-515.65515 1363.5538 2571.9399 5578246
-499.86996 1362.0676 2569.1367 5117952
-486.94086 1368.5149 2581.2976 5775878
-470.30194 1364.6161 2573.9436 5446657
-454.10492 1361.7811 2568.5962 5052161
-438.3869 1360.2357 2565.6814 5184513
-421.99863 1356.4249 2558.4934 5315843
-402.56897 1342.1899 2531.6433 5315842
-388.93979 1346.9407 2540.6042 5184513
-374.68488 1349.8198 2546.0349 5447685
-354.36777 1330.1849 2508.9995 5118465
-340.90997 1335.7056 2519.4126 4920833
-323.8356 1326.9131 2502.8281 4986624
-310.06857 1331.4788 2511.4399 5513223
-294.54825 1328.5962 2506.0029 5973518
-283.67386 1347.4764 2541.6147 6039311
-267.18396 1340.3038 2528.0857 5184001
-250.9621 1333.7037 2515.6367 5776139
-238.29767 1346.3694 2539.5266 5118210
-219.94124 1326.4153 2501.8892 5250052
-205.0732 1326.135 2501.3606 5644808
-190.33989 1326.7502 2502.521 5381891
-174.8231 1321.5469 2492.7063 6565909
-160.85699 1328.1868 2505.2307 5513477
-144.85985 1317.702 2485.4541 5184259
-131.03748 1326.8652 2502.7378 5381638
-115.56639 1319.5421 2488.925 5118466
-100.95691 1321.3536 2492.3418 5447173
-86.033546 1318.9735 2487.8525 4986881
-70.435043 1303.1185 2457.9468 5973774
-55.753365 1300.3815 2452.7842 4526081
-41.083778 1296.0956 2444.7 5052673
-26.955359 1313.5116 2477.5503 5118466
-12.264462 1312.3972 2475.4482 5315845
2.3943133 1307.3466 2465.9216 5315587
17.004713 1307.2562 2465.7512 4657664
31.870863 1317.8243 2485.6848 5184260
46.405678 1312.3418 2475.3438 4789248
60.988319 1310.5204 2471.9082 5579018
75.319244 1305.0431 2461.5767 5315844
90.222542 1309.6512 2470.2688 5644805
105.24986 1314.522 2479.4561 4329472
118.54655 1299.2324 2450.6167 10384423
132.16972 1290.4672 2434.0837 10713635
145.46263 1280.5195 2415.3206 11766321
158.03735 1266.5981 2389.062 11503147
172.49753 1268.8345 2393.28 10318620
188.70921 1282.6359 2419.3123 8344330
203.21884 1283.7366 2421.3884 7553298
215.56947 1271.9528 2399.1619 5512448
234.82852 1299.8682 2451.8159 5249281
248.8896 1297.4342 2447.2249 4920576
260.97882 1285.5552 2424.8186 4986368
274.50833 1281.6401 2417.4341 5183489
289.86569 1286.2244 2426.0808 5381124
301.3963 1274.197 2403.395 5973261
316.36972 1277.1536 2408.9714 5644295
331.43408 1280.2059 2414.729 4788736
345.84909 1280.6013 2415.4746 4789251
361.07022 1283.8315 2421.5674 4855296
374.28259 1279.9453 2414.2373 4986626
387.7811 1277.2877 2409.2246 4526592
404.16666 1283.9908 2421.8679 3802880
417.62943 1281.2672 2416.7307 4394752
431.10727 1278.7687 2412.0181 5052675
443.81308 1274.2142 2403.4275 4328960
458.24069 1274.7327 2404.4053 4789248
471.73383 1272.6985 2400.5684 4723456
487.91876 1277.8333 2410.2537 5381382
492.96091 1254.3235 2365.9094 5052419
509.64041 1260.9059 2378.3252 5118211
523.93787 1261.3993 2379.2559 4657920
539.78339 1265.4962 2386.9834 4789504
552.74139 1262.7871 2381.8733 5315844
563.58362 1255.4995 2368.1274 5447431
575.82397 1251.6049 2360.7815 5118464
590.24121 1252.5145 2362.4973 5315843
605.20563 1254.5164 2366.2732 5184513
619.03424 1254.1262 2365.5374 5250051
633.75214 1255.5154 2368.1575 5250052
641.55585 1243.4434 2345.3872 5118466
658.43805 1249.1057 2356.0676 4855296
670.39441 1245.3824 2349.0447 4394752
683.26868 1243.481 2345.4583 4657922
689.8678 1230.463 2320.9036 5052419
705.89978 1234.4496 2328.4231 4855040
719.00604 1233.2651 2326.189 4723456
728.92883 1226.7675 2313.9331 4460802
736.91162 1217.3049 2296.085 4592640
750.99628 1218.0826 2297.5518 4724224
764.11737 1217.2976 2296.071 4789760
774.35504 1212.0269 2286.1292 4592897
788.41559 1212.818 2287.6216 4395520
801.48065 1212.0769 2286.2236 4856069
814.43451 1211.1952 2284.5605 4658689
826.3717 1208.855 2280.1465 4527104
837.23285 1205.0414 2272.9531 5382411
847.06219 1199.8868 2263.2307 4526848
860.47943 1199.8961 2263.2483 4921604
875.1604 1201.6404 2266.5383 4855809
888.63654 1201.7025 2266.6555 5118724
900.79828 1200.0118 2263.4666 5184774
913.38892 1198.9338 2261.4331 5250310
920.01221 1190.1672 2244.8977 5710603
936.04242 1193.6465 2251.4602 5842445
945.46698 1188.7225 2242.1726 5974032
965.87573 1197.5541 2258.8308 5052932
975.18805 1192.5741 2249.4375 4789763
981.82422 1184.5 2234.208 4790020
998.96362 1189.1434 2242.9666 4921861
1005.454 1181.155 2227.8987 4132352
1024.3561 1187.7654 2240.3672 4987655
1042.4921 1193.3297 2250.8625 4724482
1060.684 1198.8164 2261.2117 4592897
1078.6825 1203.9506 2270.8958 4198657
1077.9681 1188.3295 2241.4312 4988165
1089.4183 1186.3354 2237.6699 4724738
1101.8511 1185.4463 2235.9929 4790532
1117.9517 1188.4777 2241.7107 3803392
1115.8379 1172.3018 2211.1997 4461312
1134.265 1177.8312 2221.6292 4395520
1151.2721 1181.776 2229.0701 3869440
1163.8627 1181.1493 2227.8879 4264192
1171.246 1175.3113 2216.8762 4791047
1177.9332 1168.912 2204.8059 3475712
1198.5065 1176.2816 2218.7065 3738368
1218.6638 1183.0876 2231.5439 3935232
1233.1804 1184.3302 2233.8877 3803904
1245.3597 1183.3254 2231.9927 3804160
1257.0469 1181.879 2229.2644 4264448
1272.5869 1184.0477 2233.355 4001792
1281.2194 1179.8108 2225.3633 3606784
1287.9042 1173.885 2214.186 3541248
1301.9487 1174.7192 2215.7595 4462339
1313.1145 1172.9653 2212.4514 4264448
1332.5856 1178.5917 2223.0637 4527618
1348.8848 1181.33 2228.2288 4724740
1362.4614 1181.6538 2228.8396 4658948
1367.5435 1174.6749 2215.676 3869440
1379.0186 1173.2681 2213.0222 3869696
1395.6931 1176.2697 2218.6838 4790535
1394.6335 1164.4086 2196.3115 4395777
1415.4139 1170.833 2208.4292 4659204
1421.4131 1165.0245 2197.4734 4461825
1437.3503 1167.3932 2201.9412 4461824
1451.2762 1168.1001 2203.2747 4527619
1465.8763 1169.3325 2205.5991 3541504
1466.9403 1159.8407 2187.6956 4593154
1482.6284 1161.9766 2191.7241 4527618
1499.319 1164.854 2197.1516 5120009
1511.3424 1164.0872 2195.7053 4527104
1518.8202 1159.8619 2187.7358 4592896
1536.6963 1163.5822 2194.7527 4329984
1539.1543 1155.6632 2179.8159 5119239
1566.2258 1166.2031 2199.6963 4856323
1582.2543 1168.4142 2203.8669 5316874
1582.2522 1158.8483 2185.8237 5185801
1589.2803 1154.5449 2177.7068 4988167
1601.7365 1154.2224 2177.0984 4461826
1625.5436 1162.0192 2191.8047 4856841
1632.4756 1157.725 2183.7048 4133377
1654.8983 1164.3976 2196.2908 4264962
1666.7723 1163.6017 2194.7896 3937025
1668.704 1155.9312 2180.3213 3542528
1673.4479 1150.3114 2169.7214 2951424
1687.5872 1151.1864 2171.3718 2359552
1704.5162 1153.9369 2176.5598 2228736
1711.16 1149.7355 2168.635 2032384
1730.1475 1153.8285 2176.3552 1376256
1741.6157 1152.8834 2174.5728 1376256
1759.4426 1156.1306 2180.6978 1310720
1778.1528 1159.9067 2187.8201 1310720
1788.9191 1158.4836 2185.1357 1179648
1802.2638 1158.7388 2185.6172 1179648
1814.9083 1158.5433 2185.2485 1114112
1829.7944 1159.7715 2187.5649 1048576
1850.2589 1164.493 2196.4709 1114112
1862.2747 1163.8687 2195.2932 1179648
1875.149 1163.7858 2195.1367 1114112
1888.4626 1163.9747 2195.4932 1114112
1900.8616 1163.6012 2194.7886 1114112
1909.3224 1160.8384 2189.5774 1114112
1920.4236 1159.7074 2187.4441 1114112
1939.7686 1163.5363 2194.6663 1114112
1951.3264 1162.6746 2193.0408 1114112
1967.9528 1164.8241 2197.0952 1114112
1983.314 1166.2015 2199.6934 1048576
1993.8693 1164.7535 2196.9622 983040
2007.0388 1164.8416 2197.1282 1048576
2023.6226 1166.8972 2201.0056 983040
2037.7069 1167.4945 2202.1321 983040
2051.0054 1167.6367 2202.4006 983040
2066.6562 1169.1079 2205.1755 983040
2083.7463 1171.3699 2209.4419 983040
2101.9844 1174.2448 2214.8645 983040
2114.4956 1173.9045 2214.2229 983040
0 0 0 0
0 0 0 0
0 0 0 0
0 0 0 0
0 0 0 0
0 0 0 0
0 0 0 0
-2644.9812 1586.4918 2959.3711 3148544
-2624.7808 1584.8827 2956.3694 3017216
-2603.7961 1582.7751 2952.438 3345920
-2578.7297 1578.1412 2943.7942 3411968
-2552.2927 1572.5995 2933.457 3148544
-2533.2825 1571.5895 2931.5728 2951424
-2505.6113 1565.1554 2919.5708 2753792
-2485.7449 1563.5405 2916.5588 2885632
-2476.053 1568.3483 2925.5266 2819840
-2450.1741 1562.8982 2915.3606 3477504
-2409.1086 1547.615 2886.8518 2951424
-2366.9651 1531.4156 2856.6343 3149056
-2342.9258 1526.7808 2847.9885 3017472
-2326.8816 1527.3263 2849.0063 3214848
-2304.6274 1523.774 2842.3801 3017216
-2296.7483 1529.7439 2853.5159 2754304
-2272.5051 1524.8223 2844.3354 2622720
-2266.877 1532.4109 2858.4907 2688512
-2245.8948 1529.6562 2853.3523 3083264
-2222.502 1525.2054 2845.05 2951424
-2213.696 1530.7736 2855.4365 3609089
-2202.4878 1534.7533 2862.8601 3872516
-2192.0073 1539.3059 2871.3525 2951680
-2158.1282 1527.3699 2849.0876 3740416
-2135.6956 1523.4106 2841.7021 3937793
-2123.9546 1527.0754 2848.5383 4266498
-2105.1045 1525.6467 2845.8733 4134144
-2090.6445 1527.4025 2849.1482 4528644
-2076.4817 1529.4054 2852.8845 4660228
-2062.6018 1531.6514 2857.074 4528642
-2044.3749 1530.6798 2855.2617 4200450
-2033.5142 1535.2533 2863.793 4002817
-2019.0809 1537.184 2867.3943 3871232
-1998.3265 1534.2941 2862.0037 3937024
-1977.0541 1530.9535 2855.7722 4002560
-1957.3933 1528.8141 2851.7815 4199936
-1940.2981 1528.6587 2851.4917 4331008
-1925.7045 1530.4888 2854.9053 4396289
-1893.2467 1518.0275 2831.6606 4988423
-1879.7946 1520.7186 2836.6807 4527873
-1852.4108 1512.0862 2820.5781 4330496
-1823.6141 1502.1329 2802.0117 4659458
-1800.7867 1496.9586 2792.3599 4199424
-1779.953 1493.3612 2785.6492 4659970
-1769.0627 1498.1168 2794.5203 4659971
-1743.9229 1490.7814 2780.8369 4725763
-1735.2953 1497.5559 2793.4739 4659713
-1706.0571 1486.5027 2772.8557 4462336
-1712.15 1506.318 2809.8184 3870208
-1695.1007 1505.9629 2809.1558 4330752
-1680.3052 1507.6226 2812.2517 4198912
-1660.8182 1505.0641 2807.4792 4659202
-1646.3037 1507.0055 2811.1008 4593922
-1630.0559 1507.3838 2811.8064 4330752
-1609.7213 1503.9518 2805.4043 4330496
-1561.4399 1474.0651 2749.655 4330752
-1556.3788 1484.7799 2769.6421 4791044
-1533.8713 1478.9022 2758.6782 4462080
-1521.7098 1482.9805 2766.2856 4462080
-1507.486 1485.1157 2770.2686 4724994
-1489.3621 1483.4137 2767.0935 4461824
-1472.7495 1483.1957 2766.687 4659200
-1454.0604 1480.858 2762.3264 4462080
-1436.9368 1480.0796 2760.8743 4593408
-1419.9979 1479.4757 2759.748 4922370
-1410.3922 1486.5873 2773.0134 4198400
-1376.7384 1468.2201 2738.7522 4921600
-1370.6476 1479.1602 2759.1592 4724224
-1359.7115 1485.0723 2770.1875 4526592
-1333.6978 1474.4597 2750.3914 5118978
-1318.9866 1476.2349 2753.7026 4921601
-1296.7073 1469.478 2741.0986 5250563
-1289.5472 1479.9006 2760.5405 5250306
-1272.0625 1478.5902 2758.0962 4987137
-1256.3992 1479.3903 2759.5886 4987392
-1231.17 1468.7993 2739.8328 5250565
-1222.52 1477.9689 2756.937 5447687
-1207.5547 1479.6483 2760.0698 5118464
-1187.7174 1475.3221 2752 5842442
-1168.5598 1471.7316 2745.3025 5513476
-1150.3555 1469.2573 2740.687 5776646
-1131.5679 1465.9564 2734.5295 5776647
-1110.9203 1460.115 2723.6333 5447938
-1093.3904 1458.2594 2720.1719 5513475
-1073.9249 1453.7281 2711.7197 5447683
-1055.3698 1450.3104 2705.3442 5513219
-1031.2926 1439.0817 2684.3987 4921344
-1020.6581 1446.553 2698.3352 5447684
-1004.6693 1446.553 2698.3352 5447428
-976.79578 1429.1639 2665.8987 4987138
-963.08905 1432.2717 2671.6958 5052928
-957.20074 1447.3053 2699.7385 5579270
-935.73608 1438.8975 2684.0552 5382148
-916.11011 1433.0754 2673.1948 5842443
-893.23083 1421.8698 2652.2922 5907979
-874.7265 1417.3514 2643.864 4855553
-858.78223 1416.8923 2643.0076 5513476
-841.75708 1414.5996 2638.731 4855808
-825.38269 1413.3346 2636.3711 5250306
-815.32617 1423.0475 2654.4893 5381892
-799.5351 1422.9368 2654.2827 5842186
-779.3775 1414.8948 2639.2815 5250048
-766.80261 1420.5709 2649.8696 5184513
-745.61353 1410.1921 2630.5095 5184257
-720.28101 1391.3666 2595.3931 5316099
-703.19836 1388.0033 2589.1194 4723968
-685.50476 1383.2571 2580.2661 4987136
-673.38098 1389.79 2592.4524 5118720
-659.8042 1393.5593 2599.4832 5908234
-643.53918 1391.6951 2596.0059 5315585
-623.02563 1380.3268 2574.7998 5644548
-608.12103 1381.1266 2576.2917 6039306
-591.08234 1376.9957 2568.5864 5578499
-573.4552 1371.2397 2557.8494 5644035
-551.68597 1354.9976 2527.5518 5183488
-542.30212 1369.1177 2553.8911 5775878
-527.85181 1370.8901 2557.1973 5117952
-509.30115 1361.8037 2540.2478 5841159
-497.4837 1370.7159 2556.8723 6039049
-477.30099 1356.4152 2530.1963 5578241
-464.68826 1363.3972 2543.2202 5446913
-449.28192 1362.376 2541.3154 5447428
-436.56522 1369.7229 2555.0198 5118721
-415.5986 1350.7834 2519.6912 4789760
-401.17145 1352.4795 2522.8547 5118467
-386.34204 1352.8979 2523.6355 5118721
-370.23239 1348.6865 2515.7795 5052672
-353.23608 1340.7562 2500.9868 5184513
-336.50073 1333.1654 2486.8271 5250306
-321.61929 1332.5605 2485.699 5249795
-307.86465 1336.7903 2493.5889 4855296
-293.21246 1337.3528 2494.6382 4723712
-279.73605 1343.6226 2506.3335 4855040
-263.46719 1336.4307 2492.918 5118466
-247.05844 1327.6326 2476.5066 4920320
-233.18567 1332.2118 2485.0483 5512710
-218.07001 1329.829 2480.6035 5052160
-202.89308 1326.701 2474.7688 5644040
-188.27742 1327.0417 2475.4043 4788736
-171.82188 1313.3763 2449.9136 5447173
-156.51662 1306.7925 2437.6323 4855297
-142.09213 1306.9717 2437.9666 5249796
-129.34311 1324.3463 2470.3765 4592128
-114.25764 1319.1797 2460.7388 4986882
-100.08377 1324.566 2470.7864 5447431
-84.895508 1316.0729 2454.9436 4592128
-70.462234 1318.1917 2458.8958 5447173
-55.809296 1316.2343 2455.2446 4986880
-41.075539 1310.3184 2444.2095 4723712
-26.541021 1307.7764 2439.4675 5315587
-12.141025 1313.709 2450.5339 5118466
2.3754573 1311.5472 2446.5017 4000000
16.757021 1302.6122 2429.8347 4986880
31.14481 1302.1959 2429.0581 4394752
45.622593 1304.6163 2433.573 4526592
59.870167 1300.8719 2426.5884 5052934
74.42543 1303.9686 2432.365 5118464
89.21727 1309.5333 2442.7449 5381888
102.93568 1299.9877 2424.939 4527104
116.9567 1296.1342 2417.7507 11173930
130.52548 1288.6569 2403.803 11634985
144.18098 1283.4229 2394.0396 12029742
157.37822 1275.4127 2379.0979 11371810
170.46899 1267.9277 2365.1357 8804622
187.15866 1286.3145 2399.4336 5120515
199.42615 1273.8578 2376.1975 5512704
214.17227 1277.8326 2383.6121 5117696
228.36563 1278.2217 2384.3376 5841926
242.67451 1279.1744 2386.1147 5183490
259.02936 1290.2128 2406.7053 5447428
270.59711 1277.4995 2382.9905 4855296
284.88251 1278.2407 2384.3733 5644809
300.03778 1282.6306 2392.562 5184004
314.58234 1284.1313 2395.3613 5381380
326.90823 1276.8372 2381.7549 4526080
340.02066 1273.0914 2374.7678 4394496
355.99518 1279.9336 2387.531 4920833
370.70828 1281.8909 2391.1819 5184261
385.11191 1282.6732 2392.6414 3080704
399.26553 1282.597 2392.4993 4921088
412.7218 1280.3627 2388.3313 5184003
424.07126 1271.9572 2372.6521 4197632
437.29214 1269.5243 2368.1138 4592128
451.99097 1271.3999 2371.6125 4000256
469.18365 1279.9659 2387.5913 4000256
480.86697 1273.4403 2375.4187 4921089
492.86578 1268.0977 2365.4529 4657920
505.1459 1263.7543 2357.3508 3999744
518.22174 1261.5818 2353.2983 5644812
533.47986 1264.6965 2359.1084 4526080
544.38892 1257.6053 2345.8809 5578760
554.88306 1249.9327 2331.5686 5250050
571.99323 1257.174 2345.0762 5381892
585.05249 1255.3795 2341.729 5579270
596.14209 1249.5399 2330.8359 4987136
610.96027 1251.6029 2334.6841 5841933
623.50201 1249.0143 2329.8555 4592128
634.40393 1243.3241 2319.2412 4855296
650.64099 1248.1095 2328.1677 4526336
664.73224 1248.6653 2329.2046 4658176
679.70996 1250.8298 2333.2422 3934720
684.53021 1234.5886 2302.9465 4263680
697.69415 1233.7363 2301.3567 4789760
710.5744 1232.4248 2298.9102 4986882
721.40057 1227.667 2290.0352 4987396
733.7793 1225.6781 2286.3252 3539968
744.51685 1221.0697 2277.729 4264448
757.42725 1220.1257 2275.968 4263936
769.48199 1217.8604 2271.7424 3409408
781.54492 1215.6858 2267.686 4658690
792.96295 1212.5984 2261.927 4001024
806.62805 1212.9928 2262.6626 4724737
818.59283 1210.8594 2258.6829 4856324
829.44641 1207.1771 2251.8142 4790273
840.79089 1204.3146 2246.4746 4461569
851.17291 1200.1842 2238.77 5580047
868.7608 1206.1853 2249.9641 4460800
877.88501 1200.4315 2239.2314 5118981
891.59833 1201.031 2240.3496 5052931
899.51538 1193.9194 2227.084 5579019
913.76031 1195.2911 2229.6426 5842191
923.34326 1190.6122 2220.9148 5118979
938.64868 1193.3401 2226.0032 5579532
955.94977 1198.4941 2235.6174 5184774
970.57941 1200.204 2238.8069 5184517
980.37018 1195.9647 2230.8992 5513227
989.65393 1191.228 2222.0635 5185033
999.30029 1187.0464 2214.2632 4395776
1015.1334 1190.2271 2220.1963 3869440
1023.3564 1184.5176 2209.5461 3672064
1042.5537 1191.4945 2222.5608 3081728
1067.3252 1204.5886 2246.9858 4461828
1072.1293 1195.1023 2229.2905 3213312
1082.0176 1191.4452 2222.4688 4329984
1095.5941 1191.8885 2223.2957 4132608
1105.8984 1188.804 2217.5417 4396032
1109.9434 1179.142 2199.5188 4725250
1132.7014 1189.3534 2218.5667 5514767
1142.4597 1185.8372 2212.0078 5317388
1150.9861 1181.1365 2203.2393 4527874
1150.9104 1167.8129 2178.386 4790787
1179.6196 1183.6687 2207.9626 5843478
1185.0756 1176.0991 2193.8428 4264193
1206.2302 1184.1049 2208.7764 4329986
1220.7815 1185.526 2211.4272 4329985
1235.9641 1187.5236 2215.1533 4461572
1254.4916 1192.6591 2224.7329 3803648
1260.5017 1185.9111 2212.1458 4593413
1273.8593 1186.1438 2212.5796 4396034
1271.6182 1171.9948 2186.1868 4067072
1284.0485 1171.5171 2185.2957 3541248
1301.6664 1175.7345 2193.1626 4198658
1320.3771 1180.8458 2202.697 4593411
1336.42 1183.4948 2207.6382 4724997
1353.4307 1186.9407 2214.0662 4922375
1360.9172 1182.0485 2204.9404 4527362
1372.4202 1180.7045 2202.4333 4922375
1381.347 1177.1904 2195.8784 4593412
1392.0975 1175.2816 2192.3179 4988171
1393.5499 1165.6306 2174.3154 4329984
1415.5603 1173.1947 2188.425 4329987
1429.8654 1174.2935 2190.4746 4001281
1428.9977 1163.0236 2169.4521 3408896
1426.7223 1150.8192 2146.6868 4396034
1466.9403 1172.8036 2187.6956 4132864
1474.8145 1168.7709 2180.1729 4132864
1481.1448 1163.5952 2170.5186 4790534
1487.9509 1158.8793 2161.7217 4132864
1500.0419 1158.3247 2160.6873 4329984
1524.1136 1166.9529 2176.7817 5251083
1531.3807 1162.6775 2168.8066 5316874
1539.4844 1159.103 2162.1389 4461568
1560.1838 1164.9929 2173.1257 5711375
1573.8374 1165.5682 2174.199 4724994
1581.1097 1161.4468 2166.511 4724995
1592.8453 1160.6439 2165.0134 4001537
1598.1772 1155.2251 2154.9053 3672832
1616.6421 1159.3099 2162.5249 3344384
1632.1375 1161.2177 2166.0835 2950656
1645.3866 1161.5101 2166.6292 2951168
1656.7328 1160.4651 2164.6797 2819584
