# .PCD v0.7 - Point Cloud Data file format
VERSION 0.7
FIELDS x y z rgb
SIZE 4 4 4 4
TYPE F F F U
COUNT 1 1 1 1
WIDTH 1276
HEIGHT 1
VIEWPOINT 0 0 0 1 0 0 0
POINTS 1276
DATA ascii
-2983.5105 1303.5033 3762.1526 2236960
-2940.3784 1294.3297 3735.676 2039581
-2936.6912 1302.512 3759.2915 2039581
-2953.2488 1319.8672 3809.3818 1973788
-2918.7046 1314.4755 3793.8203 2039581
-2910.4109 1320.9139 3812.4031 2236960
-2883.887 1319.1146 3807.21 2236960
-2864.7253 1320.681 3811.7307 2302753
-2846.5886 1322.7484 3817.6978 2565925
-2822.3259 1321.9797 3815.479 2500132
-2799.8423 1322.0385 3815.6487 2566180
-2778.0037 1322.4053 3816.7075 2697766
-2778.9021 1333.6906 3849.2786 2565925
-2765.6458 1338.3127 3862.6194 2368546
-2753.8333 1343.7169 3878.2168 2236960
-2728.3184 1342.4696 3874.6167 2368546
-2715.6846 1347.593 3889.4038 2368546
-2691.8882 1347.2177 3888.3206 2368546
-2634.4302 1329.8436 3838.1758 2302753
-2606.6418 1327.2743 3830.7603 2236960
-2587.1055 1328.8988 3835.449 2236960
-2540.0781 1316.3058 3799.1033 2302753
-2527.1008 1321.2905 3813.4902 2302753
-2453.9009 1294.594 3736.4387 2368800
-2429.5916 1293.4391 3733.1055 2368545
-2419.8499 1300.0895 3752.2998 2368801
-2404.2834 1303.705 3762.7346 2237215
-2328.6042 1274.4871 3678.4065 2237214
-2356.8254 1302.121 3758.1631 2500386
-2314.2029 1290.7684 3725.3977 2500386
-2316.7493 1304.6332 3765.4138 2434593
-2289.2083 1301.6598 3756.832 2500129
-2277.8076 1307.8955 3774.8296 2499873
-2244.7188 1301.6783 3756.8855 2565666
-2220.2358 1300.3768 3753.1294 2697252
-2194.5352 1298.3289 3747.2185 2828838
-2171.1865 1297.6447 3745.2437 2828838
-2186.969 1320.5751 3811.425 2763045
-2133.4951 1301.7281 3757.0293 2828838
-2142.0164 1320.7081 3811.8091 2697252
-2111.7612 1315.9294 3798.0171 2565666
-2083.9067 1312.5598 3788.2917 2565666
-2068.3521 1316.9484 3800.9578 2499873
-2057.3657 1324.3743 3822.3904 2631459
-2037.2379 1326.0155 3827.1272 2565666
-2006.1527 1320.4813 3811.1543 2565666
-1988.7927 1323.958 3821.189 2565666
-1962.0554 1321.2004 3813.23 2565666
-1947.1466 1326.4363 3828.3418 2631716
-1912.2267 1318.0031 3804.002 2697508
-1883.8707 1313.9467 3792.2944 2763045
-1840.6754 1299.3176 3750.072 2631459
-1813.5308 1295.7993 3739.9175 2697252
-1807.5165 1307.4789 3773.627 2697252
-1788.2008 1309.7086 3780.0625 2697252
-1760.527 1305.7958 3768.7695 2499873
-1740.9576 1307.8708 3774.7583 2499872
-1712.3228 1303.1008 3760.9912 2499872
-1694.52 1306.5571 3770.9668 2565665
-1681.4686 1313.8184 3791.9238 2565665
-1654.1788 1310.0002 3780.9043 2565665
-1629.6632 1308.3047 3776.0105 2499872
-1614.4034 1314.0957 3792.7246 2565665
-1591.9301 1314.0957 3792.7246 2631458
-1571.9126 1316.1521 3798.6597 2828837
-1552.1802 1318.5105 3805.4661 2828837
-1526.2604 1315.6049 3797.0801 2763044
-1500.8828 1313.0867 3789.812 2499872
-1478.7131 1313.3411 3790.5464 2696737
-1460.2844 1316.9772 3801.0408 2697251
-1436.9454 1316.2295 3798.8828 2763044
-1418.1006 1319.64 3808.7263 2894630
-1386.0525 1310.6758 3782.8538 2763044
-1350.3838 1297.9368 3746.0864 2434078
-1343.3514 1312.7561 3788.8582 2499873
-1322.5048 1314.3501 3793.4585 2499873
-1299.2028 1313.5167 3791.0532 2565409
-1275.6384 1312.3842 3787.7844 2499873
-1251.9971 1311.1305 3784.166 2565665
-1229.5745 1311.1305 3784.166 2631458
-1212.8561 1317.3262 3802.0481 3223595
-1190.432 1317.4419 3802.3823 3157802
-1154.2352 1302.0258 3757.8884 2960423
-1133.7057 1304.0244 3763.6567 2894630
-1112.7588 1305.6134 3768.2427 2697251
-1082.5254 1296.1483 3740.925 2631458
-1062.7684 1299.0936 3749.4258 2565665
-1035.443 1292.7158 3731.0181 2499872
-1023.2161 1305.3209 3767.3987 2434079
-1000.5537 1304.8787 3766.1223 2434080
-975.89246 1301.7501 3757.0925 2499873
-956.68689 1305.9227 3769.1357 2499873
-940.31677 1314.2578 3793.1921 2499873
-902.85828 1292.8044 3731.2739 2434337
-892.53802 1310.109 3781.2183 2697251
-865.23175 1302.7299 3759.9204 2631458
-845.32355 1306.3938 3770.4954 2763044
-820.33215 1302.1876 3758.3555 2697251
-805.31293 1314.0183 3792.5007 2763044
-777.36169 1304.8214 3765.957 2894630
-756.4115 1307.1797 3772.7634 2763044
-727.34161 1295.2223 3738.2522 2894629
-696.59357 1279.4315 3692.677 3223847
-680.36884 1290.1565 3723.6313 4078899
-656.33301 1286.2921 3712.478 4144949
-627.55914 1272.5519 3672.8213 3158054
-614.51184 1290.8602 3725.6624 2960678
-600.43848 1308.2974 3775.9893 2763045
-576.59705 1304.9767 3766.4053 2763044
-553.61346 1303.4086 3761.8792 2894631
-529.91528 1299.9556 3751.9133 2894631
-510.92197 1308.2474 3775.8452 2894631
-486.59128 1303.0061 3760.7178 2828839
-464.78021 1304.3326 3764.5464 2894631
-441.17474 1300.5033 3753.4944 2894630
-416.96445 1294.39 3735.8501 2828837
-392.69376 1287.3931 3715.6558 2960423
-373.65891 1297.7494 3745.5459 3157802
-350.93341 1295.7865 3739.8804 3289388
-327.80878 1291.9857 3728.9106 3157802
-305.30209 1290.2471 3723.8926 3026216
-282.3772 1286.3325 3712.5947 2829093
-260.56168 1287.2369 3715.2051 3158056
-238.17377 1285.2198 3709.3831 3092263
-216.39378 1286.4065 3712.8081 3092520
-195.10065 1291.0834 3726.3064 3091493
-172.77304 1289.2346 3720.9707 2959908
-151.04375 1291.9628 3728.8447 2959908
-128.90926 1291.566 3727.6995 2959906
-106.88557 1292.3451 3729.948 2959907
-85.118637 1297.444 3744.6643 3025700
-62.834358 1295.4722 3738.9734 3091493
-40.656666 1294.7469 3736.8801 3025701
-18.512188 1294.6095 3736.4836 2959907
3.6368437 1297.7727 3745.613 3025700
25.930527 1302.7677 3760.0295 3223080
48.451912 1309.2991 3778.8804 3354663
70.376579 1300.6735 3753.9851 3420456
92.658951 1301.2141 3755.5457 3420456
114.78243 1299.7462 3751.3091 3354662
136.75124 1297.2871 3744.2117 3223077
158.97604 1297.6042 3745.127 3288872
181.3838 1299.1541 3749.5999 3025700
204.54408 1305.1674 3766.9556 2894113
225.76778 1298.8561 3748.74 2696735
247.92213 1298.55 3747.8567 2762530
271.88568 1306.9913 3772.2197 3288874
295.18832 1311.2145 3784.4084 2828323
318.25711 1313.8757 3792.0896 1907221
339.27509 1308.278 3775.9331 1709587
364.21616 1317.5646 3802.7363 1775380
386.47977 1316.6477 3800.0901 2235674
406.67474 1309.1725 3778.5151 2828068
429.28104 1309.835 3780.427 3025960
451.59805 1309.5927 3779.7278 2170908
473.49371 1308.2091 3775.7344 1907736
497.3063 1312.0079 3786.6985 1841943
517.04144 1305.1855 3767.0081 2170651
541.03326 1309.2286 3778.677 2104858
563.03558 1308.3275 3776.0762 2236701
588.36737 1314.936 3795.1497 2367774
609.20483 1311.3835 3784.8965 2499103
633.34601 1314.9424 3795.168 2630689
653.27551 1309.8129 3780.3633 2367516
672.29333 1303.2561 3761.4392 2367517
699.49316 1312.472 3788.0383 2499360
734.50684 1335.3207 3853.9834 2433566
750.19836 1322.7229 3817.6243 2236701
767.83588 1314.1936 3793.0068 2499873
788.56567 1311.2914 3784.6306 2565666
813.40259 1315.1904 3795.884 2828581
840.54486 1322.5071 3817.001 2959910
871.30725 1334.9866 3853.0193 3288875
883.56793 1319.2051 3807.4709 2828324
915.82257 1333.3181 3848.2039 2762532
938.56952 1333.2397 3847.9775 2828838
963.96436 1336.837 3858.3601 2763045
983.88281 1332.8491 3846.8501 2894633
999.23602 1322.9972 3818.4158 3026219
1015.6479 1314.9524 3795.1968 2894633
1039.1041 1316.1787 3798.7363 2828840
1075.1268 1332.9327 3847.0916 2959656
1086.038 1318.5045 3805.449 2893863
1113.0219 1323.7794 3820.6733 2959656
1137.2869 1325.6747 3826.1433 2696997
1151.8218 1316.3757 3799.3049 2368033
1178.5112 1321.0581 3812.8191 2499875
1205.2981 1325.6713 3826.1335 2499875
1227.7103 1325.3916 3825.3264 2565925
1238.8906 1313.2161 3790.1858 2762276
1274.5334 1326.9426 3829.8032 2696482
1288.2122 1317.7218 3803.1899 2499103
1313.6384 1320.6282 3811.5781 2433310
1333.3892 1317.8267 3803.4927 2564896
1351.6077 1313.6293 3791.3782 2697252
1372.8495 1312.4596 3788.0022 2894631
1390.4301 1307.8834 3774.7947 3223596
1411.5214 1306.7024 3771.386 3223598
1433.6113 1306.4681 3770.7097 3157805
1475.0474 1323.601 3820.1582 3026219
1478.0157 1306.2194 3769.9917 3157292
1512.5441 1316.8317 3800.6211 3091755
1532.7576 1314.8529 3794.9099 2828840
1553.1606 1313.0916 3789.8264 2828840
1573.7228 1311.5131 3785.2705 2894633
1595.7043 1311.1454 3784.2092 3092012
1599.853 1296.338 3741.4722 3223598
1624.4479 1298.2762 3747.0664 3157805
1661.113 1309.6786 3779.9758 2894633
1691.7261 1316.0696 3798.4214 2894633
1711.6539 1314.0895 3792.7063 2894633
1737.4807 1316.6306 3800.0405 2828840
1762.6118 1318.5863 3805.6851 2894633
1768.9171 1306.5874 3771.054 3026219
1792.3687 1307.3944 3773.3831 2763047
1830.7789 1318.9584 3806.759 2697254
1857.2349 1321.7335 3814.7686 2763047
1882.2736 1323.4454 3819.7092 2894633
1908.0027 1325.5961 3825.9167 2697254
1934.2921 1328.0813 3833.0894 2763047
1958.0496 1328.7902 3835.1355 2960426
1982.6697 1330.0618 3838.8054 3026219
2008.6353 1332.1968 3844.9673 3026219
2033.5695 1333.6075 3849.0393 2960426
2057.8406 1334.5569 3851.7793 3026219
2083.7605 1336.5432 3857.512 2960426
2106.8718 1336.7043 3857.9773 2960426
2130.7712 1337.3567 3859.8601 2960426
2151.6396 1336.1129 3856.2703 2828840
2174.0024 1335.8136 3855.4065 2960424
2207.1174 1342.0586 3873.4304 3026217
2216.4333 1333.8525 3849.7463 3026217
2250.4695 1340.5388 3869.0442 3026217
2261.793 1333.6975 3849.2988 3157033
2284.0422 1333.3708 3848.3562 3157033
2299.3772 1329.0544 3835.8979 3157033
2313.761 1324.2778 3822.1118 3025447
2363.2778 1339.5074 3866.0674 2959654
2392.6082 1343.1125 3876.4724 2893861
2398.4907 1333.6118 3849.0515 2893861
2468.7595 1359.7529 3924.4995 2893861
2437.4775 1329.9956 3838.6143 2828068
2467.3279 1333.8365 3849.7 2762275
2481.9436 1329.4468 3837.0305 2762275
2506.1963 1330.2518 3839.354 3025447
2506.9907 1318.7031 3806.0222 2959654
2564.75 1337.0571 3858.9954 2828068
2578.592 1332.3943 3845.5376 2630689
2596.7097 1330.0032 3838.6362 2762275
2614.2314 1327.3508 3830.9812 2893861
2636.8105 1327.2899 3830.8054 2959654
2673.8196 1334.4316 3851.4177 2959654
2692.7769 1332.5195 3845.8992 2828070
2717.4973 1333.4675 3848.6353 2762275
2733.6565 1330.2338 3839.3018 2893861
2731.0833 1318.0132 3804.031 2959654
2754.2568 1318.3162 3804.9055 2959654
2775.78 1317.8307 3803.5044 3025193
2819.0173 1327.5792 3831.6404 2631461
2845.5962 1329.3895 3836.865 2631461
2853.0818 1322.3219 3816.4666 2565668
2883.0498 1325.7034 3826.2263 2499875
2910.4585 1327.8644 3832.4634 2434082
2941.1133 1331.4615 3842.8455 2499875
2965.1694 1332.0393 3844.5127 2434082
2990.0215 1332.9629 3847.1785 2434082
3021.7805 1336.9282 3858.6235 2631459
3055.1069 1341.5225 3871.8831 2763301
3055.7864 1331.8193 3843.8782 2894376
3097.5771 1340.0453 3867.6196 2894633
3104.5264 1333.188 3847.8284 2499875
3129.7927 1334.2394 3850.863 2236702
3156.6584 1335.9526 3855.8074 2170910
3179.5056 1335.9526 3855.8074 2105117
3197.7478 1334.0315 3850.2627 2170910
3220.7739 1334.119 3850.5156 2170910
3244.1519 1334.3502 3851.1829 2368289
3286.7092 1342.4119 3874.45 2434082
3264.3333 1324.0245 3821.3809 2565668
3322.9612 1338.5193 3863.2156 2500131
3350.4939 1340.3763 3868.5752 2499875
3387.0974 1345.812 3884.2637 2499874
3428.7578 1353.1703 3905.5007 2630946
3412.6938 1337.8014 3861.1436 2762275
3478.8254 1354.6438 3909.7539 2762275
3446.2537 1333.083 3847.5251 2828068
3471.9568 1334.1992 3850.7471 2762276
3451.1228 1317.5345 3802.6494 2762277
3491.1355 1324.1649 3821.7859 2762277
3522.2424 1327.3534 3830.9885 2630691
3555.625 1331.3533 3842.533 2564896
3564.4739 1326.1744 3827.5857 2696482
3607.6584 1333.755 3849.4648 2630689
3613.9844 1327.6992 3831.9868 2564896
3602.0005 1315.0344 3795.4338 2696482
3709.2378 1345.7826 3884.1787 2762275
0 0 0 0
0 0 0 0
0 0 0 0
0 0 0 0
0 0 0 0
0 0 0 0
0 0 0 0
-3274.1084 1290.9518 3663.2781 2631718
-3252.8743 1291.1392 3663.8098 2697511
-3243.6848 1296.1421 3678.0063 2763304
-3250.2183 1307.538 3710.3438 2763304
-3230.1719 1308.3231 3712.572 2763560
-3132.4407 1277.4385 3624.9321 2763560
-3116.9324 1279.8905 3631.8899 2368544
-3157.9092 1305.7318 3705.2185 2368800
-3097.0222 1289.5215 3659.2192 2368543
-3083.7039 1293.0286 3669.1711 2302752
-3055.2559 1290.1964 3661.1345 2105373
-3061.1433 1301.9269 3694.4214 2105374
-3037.5535 1301.1991 3692.3564 2105375
-3012.8154 1299.9653 3688.8555 2434339
-2986.5786 1298.0621 3683.4548 2500132
-2977.0542 1303.4481 3698.7385 2500132
-2930.7 1292.6692 3668.1516 2500132
-2937.397 1305.3038 3704.0042 2368546
-2889.2708 1293.5833 3670.7451 2434339
-2892.0332 1304.6414 3702.1245 2434339
-2843.531 1292.5657 3667.8577 2697511
-2851.9526 1306.3787 3707.0542 2960683
-2831.1584 1306.9194 3708.5889 2829097
-2809.5559 1307.0927 3709.0803 2763304
-2797.3496 1311.6746 3722.0823 2697511
-2793.8799 1320.4583 3747.0073 2631718
-2797.8452 1332.925 3782.3835 2565925
-2756.1011 1323.6406 3756.0378 2631718
-2744.8857 1328.9863 3771.2068 2565925
-2732.9734 1334.0792 3785.6589 2631718
-2716.8352 1337.1768 3794.4487 2565925
-2671.5471 1325.8591 3762.3333 2500132
-2648.8062 1325.6351 3761.6975 2500132
-2606.0637 1315.3124 3732.405 2434339
-2551.6167 1298.8547 3685.7041 2368546
-2495.877 1281.4493 3636.3135 2302753
-2515.7915 1302.922 3697.2454 2368546
-2503.7219 1308.0619 3711.8308 2500132
-2485.8057 1310.2113 3717.9299 2565925
-2399.4609 1276.0094 3620.8767 2565925
-2396.3569 1285.8564 3648.8191 2697765
-2348.6731 1271.7439 3608.7727 2895144
-2334.6863 1275.7858 3620.2419 2829351
-2282.0039 1258.5615 3571.3655 2960937
-2267.0085 1261.994 3581.106 2763558
-2301.3611 1293.2222 3669.7205 2828838
-2262.6362 1283.5892 3642.3857 2828838
-2243.9937 1285.2732 3647.1643 2828838
-2227.9995 1288.5215 3656.3818 2894631
-2193.1399 1280.8162 3634.5164 2960424
-2176.9338 1283.9596 3643.4368 3092010
-2157.0122 1284.9528 3646.2549 3092009
-2148.635 1292.9128 3668.8428 2960423
-2125.4409 1292.0284 3666.3333 2960424
-2097.5989 1288.2714 3655.6719 2894631
-2081.9783 1292.02 3666.3093 2894631
-2069.9351 1298.0913 3683.5376 2763045
-2028.1899 1285.4668 3647.7136 2763045
-2032.8781 1302.3167 3695.5278 2697252
-2036.7649 1319.0148 3742.9111 2631459
-1995.8993 1306.7794 3708.1917 2631459
-1962.4099 1299.1552 3686.5564 2565666
-1937.1975 1296.9003 3680.158 2499873
-1905.7784 1290.3916 3661.6885 2499873
-1898.812 1300.4805 3690.3171 2565666
-1877.6511 1300.9694 3691.7046 2697252
-1850.0663 1296.9666 3680.3457 2763045
-1817.0881 1289.042 3657.8589 2763045
-1801.0051 1293.0563 3669.25 2763045
-1779.2909 1293.0765 3669.3071 2697252
-1762.7944 1296.9357 3680.2583 2631459
-1740.2942 1296.4193 3678.793 2697252
-1732.4387 1306.9376 3708.6406 2697252
-1705.9686 1303.5033 3698.8948 2763044
-1687.058 1305.8306 3705.499 2631458
-1657.2206 1299.6501 3687.9612 2565665
-1639.9089 1303.2592 3698.2019 2565665
-1616.7317 1302.241 3695.3127 2631458
-1591.4716 1299.4941 3687.5183 2763044
-1567.1621 1297.458 3681.7405 2697251
-1548.7349 1300.3031 3689.8137 2499872
-1525.7462 1299.3448 3687.0947 2499872
-1503.5719 1299.0625 3686.2937 2631458
-1478.5675 1296.2906 3678.428 2565665
-1459.5569 1298.7693 3685.4617 2434079
-1444.2631 1304.681 3702.2368 2565665
-1423.1479 1305.4352 3704.3767 2631458
-1400.3096 1304.6073 3702.0276 2763044
-1378.9696 1305.1714 3703.6284 2828837
-1358.1534 1306.2576 3706.7107 3092009
-1334.7568 1304.8568 3702.7358 3092009
-1299.306 1291.4282 3664.6299 2763044
-1290.5897 1304.567 3701.9136 2697251
-1266.9172 1302.7808 3696.8445 2697251
-1235.2769 1292.5939 3667.9377 2894630
-1222.8572 1302.5149 3696.0903 3157802
-1198.4348 1299.7802 3688.3301 3749939
-1163.7905 1285.6516 3648.238 4276538
-1150.6605 1295.205 3675.3472 3947572
-1115.7772 1280.1688 3632.6797 3486767
-1091.1267 1276.5123 3622.3037 2894630
-1072.7709 1280.2212 3632.8281 2697251
-1052.8302 1282.1516 3638.3062 2697251
-1031.0404 1281.864 3637.49 2697251
-1011.3615 1284.2445 3644.2451 2697251
-983.25354 1275.792 3620.2598 2894629
-961.8822 1275.8983 3620.5615 2631459
-941.85638 1277.8348 3626.0569 2631459
-919.19812 1276.2072 3621.4377 2565666
-901.77844 1281.9487 3637.7302 2565666
-874.5567 1273.6957 3614.3113 2565665
-866.82544 1294.1267 3672.2874 2631458
-846.97803 1297.0553 3680.5977 2631458
-820.29907 1289.4004 3658.8757 2565665
-792.69568 1279.8373 3631.739 2565665
-774.63879 1285.5839 3648.0459 2697251
-754.37158 1287.8867 3654.5806 2697251
-730.86176 1284.6263 3645.3286 2697251
-703.55426 1274.2889 3615.9946 2828837
-690.74091 1290.3787 3661.6519 2960163
-660.61017 1274.1122 3615.4929 2762528
-637.40442 1270.5591 3605.4104 2828321
-618.40442 1275.4335 3619.2427 2763298
-599.8219 1281.5505 3636.6006 2697249
-582.03613 1289.8889 3660.262 2763044
-555.61627 1278.9977 3629.3564 2828837
-533.9502 1278.6129 3628.2644 2960424
-511.82184 1277.0424 3623.8079 3026217
-491.05432 1278.8784 3629.0181 2894631
-468.77005 1276.7516 3622.9827 2828838
-447.32089 1276.8043 3623.1323 2828838
-425.81195 1276.683 3622.7883 2894630
-404.65637 1277.6648 3625.5742 2894630
-383.51117 1278.7911 3628.7703 2828837
-361.70407 1277.713 3625.7109 2763044
-341.40726 1282.1707 3638.3604 2697251
-319.92892 1282.493 3639.2751 2631458
-298.57312 1283.3888 3641.8167 2828837
-276.48245 1281.0193 3635.0928 3092007
-254.3817 1278.1985 3627.0884 3092263
-233.63307 1282.2781 3638.665 3092263
-212.44949 1284.5575 3645.1331 3026470
-190.84824 1284.5414 3645.0876 3157286
-169.26978 1284.6943 3645.5217 2959907
-147.76974 1285.5743 3648.0188 2894114
-126.49987 1289.1013 3658.0271 2828321
-104.989 1291.1229 3663.7639 2959907
-83.42366 1293.3546 3670.0964 2959907
-61.577259 1291.2659 3664.1694 2762528
-39.967121 1294.5547 3673.502 3025700
-18.180719 1293.1727 3669.5803 3025700
3.5623918 1292.9451 3668.9346 2959907
25.353395 1295.556 3676.3433 3025699
47.175117 1296.5979 3679.3 3157284
68.757362 1292.4796 3667.6135 3420199
90.380165 1290.9188 3663.1846 3420456
111.24556 1281.2393 3635.717 3025698
133.50641 1288.1648 3655.3696 3157284
154.326 1281.1918 3635.5825 2959907
178.14819 1297.8007 3682.7129 2433563
198.03366 1285.2355 3647.0574 2236184
218.86688 1280.6885 3634.1545 2301977
241.91583 1288.7603 3657.0591 2828323
264.78137 1294.6078 3673.6526 2894116
289.83698 1309.4615 3715.8022 2301979
311.64865 1308.5967 3713.3484 2104600
331.40985 1299.8041 3688.3977 1775380
355.96863 1309.7513 3716.6248 1907223
372.61481 1291.1223 3663.762 2236444
400.16223 1310.238 3718.0059 2828838
417.45129 1295.5227 3676.249 2763045
436.76196 1288.23 3655.5544 2236444
463.29941 1301.9344 3694.4431 2105115
486.68625 1305.9481 3705.8325 2105115
504.11288 1294.3125 3672.8147 1907736
525.77838 1294.0728 3672.1343 1907736
555.57086 1313.0597 3726.0129 2105115
577.21631 1312.0762 3723.2217 2302238
599.90521 1313.4496 3727.1191 2499103
625.62537 1321.1267 3748.9041 2499103
637.729 1300.5094 3690.3992 2301467
667.31287 1315.7244 3733.574 2104345
679.17676 1296.1458 3678.0168 2302751
708.49811 1310.0649 3717.5146 2368287
736.88843 1321.4749 3749.8923 2631459
755.05511 1314.4196 3729.8716 2894631
769.32001 1301.1663 3692.2632 2763045
792.28156 1302.948 3697.3191 2105115
820.08234 1312.3781 3724.0784 2631458
838.05231 1305.9938 3705.9622 2762789
869.90424 1321.0165 3748.5916 2763046
889.20898 1316.7117 3736.376 2894632
906.82404 1310.1748 3717.8264 3092011
928.76031 1310.0431 3717.4529 3092010
950.59021 1309.771 3716.6807 3092012
972.01239 1308.9622 3714.3853 3092012
991.93268 1306.2113 3706.5793 3157805
1015.8171 1308.6868 3713.604 2763304
1052.0417 1326.6182 3764.4871 3025449
1058.1029 1306.5586 3707.5649 2893863
1079.408 1305.7556 3705.2864 2959656
1107.1312 1312.5941 3724.6917 2959656
1122.0359 1304.2648 3701.0557 2762534
1144.3508 1304.7035 3702.3005 2828583
1181.6157 1321.8496 3750.9556 2499619
1201.4413 1319.214 3743.4766 2499875
1223.0044 1318.5471 3741.5842 2499105
1244.8264 1318.1783 3740.5376 2564896
1260.1688 1311.0809 3720.3977 2499103
1278.8949 1307.6874 3710.7681 2499103
1299.028 1305.823 3705.4775 2630689
1307.3862 1292.3809 3667.3335 2828581
1335.0115 1298.1128 3683.5986 2762789
1357.5154 1298.7607 3685.437 2893861
1375.7733 1295.39 3675.8721 2828070
1403.325 1300.7388 3691.0503 2696484
1416.2186 1292.5454 3667.8003 2828070
1448.0294 1301.604 3693.5054 2828070
1462.042 1294.6326 3673.7229 2696484
1473.8082 1285.9056 3648.959 2564898
1490.0059 1281.2417 3635.7241 2630691
1536.8346 1302.6747 3696.5437 2630948
1546.2528 1292.2405 3666.9348 2565154
1550.3459 1277.7068 3625.6931 2499875
1585.282 1288.6418 3656.7231 2697254
1616.2207 1296.0767 3677.8206 2631461
1628.3984 1288.469 3656.2327 2565668
1653.1794 1290.9022 3663.1375 2434082
1671.121 1288.0013 3654.9055 2631461
1714.6198 1304.6202 3702.0647 2697254
1736.2435 1304.3856 3701.3987 2828840
1767.2429 1311.1124 3720.4871 2763047
1774.0773 1299.9664 3688.8586 2763047
1812.5463 1311.9902 3722.9778 2631461
1838.2255 1314.5782 3730.322 2828840
1863.34 1316.7059 3736.3594 3026219
1890.2819 1320.0597 3745.8762 3026219
1912.8651 1320.327 3746.635 3026219
1936.8027 1321.5125 3749.9985 3092012
1957.9526 1320.7904 3747.95 3092012
1984.3186 1323.5638 3755.8198 3026219
2010.8224 1326.3666 3763.7729 2960426
2033.3682 1326.5256 3764.2246 2960426
2058.3076 1328.226 3769.0493 2960426
2077.3284 1326.1115 3763.0491 2960426
2097.3826 1324.6946 3759.0283 3289391
2118.5139 1323.9806 3757.0024 3157803
2142.7681 1325.2128 3760.4988 3289388
2163.699 1324.3854 3758.1511 3223596
2182.6299 1322.3634 3752.4133 3223596
2202.4177 1320.8959 3748.2493 3354669
2233.2356 1326.0071 3762.7529 3354412
2256.5508 1326.6063 3764.4534 3354412
2273.3228 1323.3848 3755.3118 3288362
2283.675 1316.5248 3735.8455 3222826
2329.5818 1330.0968 3774.3579 2828068
2345.3867 1326.3871 3763.8313 2696482
2340.9558 1311.4111 3721.3345 2959654
2367.1597 1313.7163 3727.8757 3025447
2399.0981 1319.1317 3743.2429 2959654
2420.3542 1318.6284 3741.8147 2893861
2431.8381 1312.8583 3725.4412 3025447
2461.1072 1316.7073 3736.3633 3025447
2466.76 1307.9655 3711.5571 2893861
2491.5129 1309.4163 3715.6738 2893861
2521.5234 1313.5806 3727.4907 2893861
2531.2524 1307.1987 3709.3811 2893861
2538.4443 1299.6278 3687.8975 2893861
2575.637 1307.4146 3709.9937 2893861
2597.9463 1307.5787 3710.4597 2828071
2625.6724 1310.4435 3718.5889 2893863
2640.271 1306.7634 3708.146 2893863
2662.3369 1306.8093 3708.2764 2893863
2681.9749 1305.6726 3705.0508 2762277
2702.8843 1305.1683 3703.6196 2828070
2720.6921 1303.1864 3697.9956 2763304
2756.1619 1309.6284 3716.2761 2697254
2778.2285 1309.6503 3716.3379 2697254
2816.3877 1317.198 3737.7559 2631461
2847.4312 1321.326 3749.4697 2565668
2876.6487 1324.5493 3758.6165 2565668
2893.2207 1321.9452 3751.2268 2631461
2896.3113 1313.2681 3726.604 2565668
2950.6128 1327.767 3767.7468 2697254
2970.3943 1326.6307 3764.5227 2763047
2997.4714 1328.7456 3770.5239 2893864
2999.3369 1319.7357 3744.957 2828840
3029.1633 1323.0709 3754.4214 2631461
3054.9236 1324.5946 3758.7449 2499875
3078.0464 1324.9609 3759.7842 2434082
3105.1101 1327.006 3765.5874 2368289
3120.2402 1323.9583 3756.9392 2434082
3148.7798 1326.6034 3764.4453 2434082
3173.2524 1327.5099 3767.0173 2499875
3201.9807 1330.1715 3774.5701 2499875
3206.9863 1323.0098 3754.2476 2434082
3248.5681 1330.9318 3776.7275 2434082
3268.8394 1330.0742 3774.2942 2302496
3272.7449 1322.6146 3753.1262 2434082
3281.7961 1317.3212 3738.1052 2565668
3315.4651 1321.9139 3751.1379 2697254
3316.3584 1313.4647 3727.1619 2697254
3341.6187 1314.714 3730.707 2894374
3366.1328 1315.6552 3733.3777 2828325
3385.4639 1314.5714 3730.3025 2828067
3414.9675 1317.4263 3738.4036 2959654
3432.0381 1315.4789 3732.8774 2499103
3445.3755 1312.1345 3723.3875 2564896
3472.1509 1313.918 3728.4482 2762275
3438.5886 1292.9904 3669.063 2762275
3478.8459 1299.9093 3688.6965 2564896
3499.4084 1299.4286 3687.3325 2564896
3519.3235 1298.715 3685.3074 2499103
0 0 0 0
0 0 0 0
0 0 0 0
0 0 0 0
0 0 0 0
0 0 0 0
0 0 0 0
-3191.335 1279.4725 3570.6658 2894890
-3091.3872 1247.6731 3481.9221 2829097
-3067.7734 1246.4615 3478.541 2565925
-3061.6147 1252.3735 3495.0398 2434338
-3050.2881 1256.2378 3505.824 2368545
-3079.407 1276.9265 3563.5605 2237214
-3102.3459 1295.3206 3614.8933 2105372
-3024.2793 1271.5044 3548.4287 2105629
-3007.2141 1273.1813 3553.1084 2171165
-2996.1445 1277.4381 3564.988 2302753
-2984.9932 1281.7201 3576.9382 2368546
-2968.5525 1283.7761 3582.676 2434339
-2946.7153 1283.5111 3581.9365 2565925
-2942.1262 1290.8097 3602.3047 2763304
-2908.6094 1285.4304 3587.2927 3026477
-2884.7573 1284.2747 3584.0674 2894891
-2872.9888 1288.5212 3595.9185 2697512
-2857.3655 1291.0896 3603.0859 2763305
-2846.0435 1295.6547 3615.8257 2894889
-2826.2983 1296.4253 3617.9763 2894634
-2786.9497 1288.1469 3594.8735 3092269
-2769.9412 1290.1462 3600.4534 2894890
-2786.2717 1307.8254 3649.791 2894891
-2754.9158 1303.2228 3636.9465 3092269
-2741.2996 1307.0056 3647.5034 3026476
-2741.4175 1317.4487 3676.6475 2565925
-2709.053 1312.3241 3662.3459 2500132
-2685.084 1311.2167 3659.2551 2500132
-2668.5327 1313.7429 3666.3052 2565925
-2641.5271 1311.1216 3658.9897 2631718
-2614.2961 1308.344 3651.2383 2697511
-2585.0762 1304.5164 3640.5564 2697768
-2560.8135 1303.1469 3636.7346 2697510
-2506.8464 1286.51 3590.3057 2763303
-2511.061 1299.7028 3627.123 2829351
-2464.3008 1286.5114 3590.3093 2763558
-2408.9456 1268.564 3540.2229 2894887
-2400.9746 1275.4734 3559.5051 2894887
-2364.7747 1267.3761 3536.908 2894632
-2350.3459 1270.9065 3546.7603 2894631
-2337.0972 1275.1444 3558.5872 2894374
-2330.5237 1283.1346 3580.886 3026216
-2309.4084 1283.1919 3581.0457 3157546
-2270.5769 1273.3151 3553.4819 3092009
-2248.8188 1272.9176 3552.3726 3092009
-2236.5366 1277.927 3566.3525 3289388
-2208.8093 1274.1226 3555.7354 3355181
-2138.5576 1245.479 3475.7988 3355181
-2149.4202 1263.9781 3527.425 3355181
-2153.8813 1279.0391 3569.4561 3289388
-2131.8286 1278.4979 3567.946 3289388
-2098.0166 1270.8231 3546.5276 3355182
-2092.2485 1280.1519 3572.5615 3157803
-2074.6987 1282.3888 3578.8044 3223596
-2063.0972 1288.3866 3595.5425 3092010
-2040.597 1287.6324 3593.438 3157803
-2018.627 1287.2004 3592.2324 3026217
-1981.5333 1277.0127 3563.8013 2697252
-1973.4513 1285.5038 3587.4973 2697252
-1953.6926 1286.4906 3590.2512 2565666
-1925.2848 1281.7411 3576.9968 2565666
-1912.3478 1287.3002 3592.5105 2631459
-1884.5066 1282.8384 3580.0591 2697252
-1862.6477 1282.394 3578.8188 2763045
-1845.516 1285.2313 3586.7368 2631459
-1827.1677 1287.2777 3592.4478 2565666
-1798.9613 1282.3451 3578.6824 2828838
-1777.0585 1281.8419 3577.2781 2894631
-1759.5962 1284.5681 3584.8862 2894631
-1736.337 1283.0775 3580.7266 2894631
-1719.4408 1286.3099 3589.7473 2960424
-1686.7776 1277.6807 3565.665 2697252
-1669.9935 1281.0127 3574.9639 2697251
-1649.9408 1281.891 3577.415 2697251
-1634.6278 1286.5225 3590.3401 2697251
-1622.4156 1293.7488 3610.5068 2697251
-1595.8516 1289.5706 3598.8467 2763044
-1573.6317 1288.8373 3596.8003 2631458
-1554.6522 1290.7743 3602.2061 2697251
-1531.8767 1289.5697 3598.8442 2697251
-1517.3931 1295.4098 3615.1426 2763044
-1494.7104 1294.3176 3612.0945 2828837
-1480.0618 1300.2515 3628.6541 2894630
-1459.4092 1301.0079 3630.7654 2894630
-1433.1918 1296.7521 3618.8884 3092009
-1410.8082 1295.8884 3616.4783 2960423
-1396.0612 1302.1208 3633.8713 2894630
-1373.6855 1301.3219 3631.6414 3026216
-1352.156 1301.3116 3631.6128 3026217
-1329.91 1300.6005 3629.6282 3092009
-1309.0438 1301.2374 3631.4058 3092009
-1280.3217 1293.9561 3611.0854 2763044
-1251.2341 1286.0516 3589.0264 2960423
-1238.0535 1294.5061 3612.6204 3025959
-1219.6603 1297.712 3621.5674 2894630
-1197.0682 1296.4851 3618.1433 2960423
-1173.4749 1294.1091 3611.5127 3092008
-1148.2114 1289.7692 3599.4009 3026216
-1117.491 1279.0188 3569.3997 3157545
-1094.303 1276.6414 3562.7649 3223594
-1069.2007 1271.8932 3549.5139 3223595
-1043.478 1266.2018 3533.6309 3092009
-1023.1638 1266.9744 3535.7869 2828837
-1004.7998 1270.2449 3544.9136 2763044
-983.01617 1269.2395 3542.1082 2565665
-954.33276 1259.0873 3513.7759 2434078
-926.21991 1249.2516 3486.3271 2565666
-917.8446 1266.1958 3533.614 2565666
-899.09045 1269.2789 3542.218 2697252
-875.30933 1265.243 3530.9551 2697252
-852.01996 1261.7378 3521.1729 2763044
-829.72101 1259.5601 3515.0952 2565665
-804.95337 1253.426 3497.9771 2499615
-795.4726 1271.4006 3548.1392 2565408
-772.56012 1268.3005 3539.4878 2697251
-746.44086 1259.6161 3515.2517 2697251
-724.53101 1257.7404 3510.0171 2697251
-704.79749 1259.6433 3515.3276 2631458
-677.83606 1248.3506 3483.813 2499872
-660.96283 1255.5114 3503.7966 2499872
-645.21698 1265.3474 3531.2466 2565665
-627.12494 1271.0876 3547.2656 2631458
-600.97675 1260.3309 3517.2466 2631458
-579.97815 1259.9886 3516.2915 2565665
-558.9563 1259.5687 3515.1196 2631458
-538.48901 1260.4142 3517.479 2697251
-516.02258 1256.46 3506.4438 2631459
-494.78113 1255.2817 3503.156 2631458
-474.28845 1255.9834 3505.1138 2828837
-453.5683 1256.1193 3505.4932 3026216
-431.77731 1253.1603 3497.2354 2960423
-411.98318 1255.9905 3505.1338 3026216
-390.17834 1252.6661 3495.8562 2697251
-373.02295 1264.7327 3529.531 2894630
-352.93991 1267.717 3537.8594 3026216
-333.91641 1275.1243 3558.531 2960423
-311.16852 1268.3492 3539.6235 2960423
-290.41116 1269.2947 3542.262 2960423
-270.00732 1272.053 3549.9597 2828837
-248.97316 1272.057 3549.9709 2828836
-227.98204 1272.302 3550.6545 2828835
-207.25853 1274.2418 3556.0684 2763041
-187.07726 1280.332 3573.0642 2959907
-166.17413 1282.4058 3578.8516 2894114
-145.22748 1284.7012 3585.2573 2894114
-123.81809 1282.9883 3580.4773 2894114
-103.14178 1289.7339 3599.3022 2762528
-81.896774 1291.0312 3602.9233 2696734
-60.171764 1283.009 3580.5352 2762528
-39.119713 1288.4122 3595.614 2762528
-17.832024 1289.6971 3599.2 2762528
3.4992838 1291.3954 3603.9392 2828321
24.883144 1292.906 3608.155 2828321
45.978802 1284.9661 3585.9966 2959907
67.360947 1287.521 3593.127 2894371
88.014175 1278.2625 3567.2888 3090980
107.19526 1255.3499 3503.3457 2104087
127.11232 1247.0922 3480.3008 854280
148.90086 1256.938 3507.7778 2893860
170.60745 1263.7646 3526.8293 2828323
192.6373 1271.2346 3547.676 2828577
211.06815 1255.8213 3504.6614 3091493
236.41479 1280.6312 3573.8994 2696994
259.27032 1288.9772 3597.1907 2433564
280.65103 1289.28 3598.0356 2301210
304.43057 1299.782 3627.344 2498845
324.64774 1294.692 3613.1392 3419948
346.86411 1297.7115 3621.5659 3551534
369.14111 1300.5928 3629.6067 2235930
387.99011 1291.7439 3604.9116 2630689
407.29425 1285.2546 3586.802 2367517
432.74091 1297.8311 3621.8997 2433823
453.04138 1294.5143 3612.6436 2434080
473.3103 1291.4109 3603.9827 2170908
494.59442 1291.2257 3603.4658 2039322
515.64465 1290.4706 3601.3584 2236701
535.75513 1287.5171 3593.116 2434080
559.74573 1293.7573 3610.531 2236444
580.06433 1291.3636 3603.8508 2301724
601.41626 1291.3588 3603.8372 2499103
626.63647 1299.3752 3626.2087 2301724
652.26794 1307.6847 3649.3982 2169882
671.16064 1302.3843 3634.6064 2368287
692.19696 1301.4438 3631.9819 2499873
712.37915 1299.0027 3625.1692 2763045
733.17792 1297.7959 3621.8013 2828838
754.25024 1297.1281 3619.9375 2828838
773.07697 1292.7421 3607.6975 2105115
801.8645 1304.8004 3641.3491 2302494
821.37915 1301.5333 3632.2317 2302496
843.72839 1302.8099 3635.7944 2368289
863.05206 1299.4677 3626.467 1973531
880.98383 1294.2429 3611.8857 2565668
900.21759 1291.1333 3603.2078 2828583
928.68951 1301.1106 3631.0518 3157549
957.05756 1310.4937 3657.2375 3091242
973.06354 1302.9091 3636.0708 3091242
989.789 1296.5952 3618.4507 2893863
1013.7112 1299.777 3627.3301 2696484
1043.2001 1309.8159 3655.3462 2959656
1067.4238 1312.9702 3664.1489 2762277
1077.4961 1298.939 3624.9912 2762790
1109.3977 1311.2572 3659.3684 2697254
1133.4401 1313.9922 3667.001 2631461
1141.9923 1299.0043 3625.1738 2368289
1169.9612 1306.2485 3645.3904 2368289
1190.063 1304.6057 3640.8057 2564897
1211.3505 1304.298 3639.947 2433310
1235.1682 1306.6779 3646.5884 2499102
1250.4971 1300.1499 3628.3706 2564896
1269.647 1297.7482 3621.6682 2630689
1288.2488 1294.8754 3613.6511 2762275
1309.7057 1294.9194 3613.7742 2762275
1338.1934 1301.8016 3632.9805 2828068
1343.4542 1286.2286 3589.52 2762276
1364.6428 1286.1525 3589.3079 2696484
1379.6477 1280.3401 3573.0869 2564898
1397.6014 1277.3987 3564.8782 2367519
1430.0375 1287.5845 3593.3042 2499105
1453.6111 1289.6089 3598.9536 2498848
1484.1019 1297.6228 3621.3181 2564641
1501.7063 1294.3016 3612.0496 2631204
1520.9569 1292.4727 3606.9456 2630691
1549.6432 1298.6014 3624.0496 2499875
1574.6077 1301.4866 3632.1011 2697254
1587.8903 1294.7684 3613.3525 2631461
1596.9012 1284.7924 3585.512 2434082
1623.0768 1288.7067 3596.4358 2302496
1657.1188 1298.6844 3624.281 2631461
1677.0758 1297.5098 3621.0029 2697254
1688.0143 1289.4755 3598.5815 2631461
1711.8817 1291.3949 3603.938 2894633
1751.0551 1304.6711 3640.9883 2894633
1776.0023 1307.1537 3647.9165 2565668
1785.7461 1298.5211 3623.8252 2565668
1809.2531 1299.9828 3627.9045 2828840
1837.1854 1304.5526 3640.6575 2894633
1852.9136 1300.4509 3629.2109 3223598
1882.4379 1306.015 3644.7388 3092012
1911.9601 1311.4514 3659.9102 3092012
1928.6968 1308.0944 3650.5415 3092012
1943.3384 1303.4065 3637.4592 3092012
1963.3174 1302.3622 3634.5447 3157805
2001.1281 1313.0406 3664.3455 3157805
2019.1006 1310.6129 3657.5703 3157805
2037.2793 1308.3693 3651.3086 3026219
2068.5054 1314.4635 3668.3162 3092010
2085.6758 1311.5924 3660.3037 3092010
2105.3059 1310.311 3656.728 2763047
2127.7988 1310.8196 3658.147 2763302
2149.999 1311.1393 3659.0391 3222826
2173.2839 1312.1074 3661.741 3354155
2190.3071 1309.3134 3653.9434 3222826
2208.9944 1307.559 3649.0474 3091240
2234.5518 1309.8657 3655.4851 3091240
2254.3838 1308.8043 3652.5232 3222826
2270.4978 1305.6252 3643.6509 3091240
2286.4956 1302.4397 3634.761 2828068
2292.1191 1293.4594 3609.6992 3157033
2329.5671 1302.438 3634.7561 3091240
2343.9648 1298.4827 3623.718 2959654
2349.3994 1289.6791 3599.1494 2893861
2394.3269 1302.5182 3634.98 2828068
2433.9348 1312.2601 3662.1672 2959654
2452.3088 1310.483 3657.2078 3025447
2462.3 1304.2964 3639.9426 3091240
2482.1606 1303.3998 3637.4402 3091240
2503.272 1303.1697 3636.7981 2893861
2527.9995 1304.8101 3641.376 2959654
2557.7878 1309.0126 3653.1042 2959655
2571.4285 1304.95 3641.7664 2959656
2576.084 1296.4331 3617.9983 2959656
2593.7275 1294.5392 3612.7129 3025449
2618.4521 1296.1816 3617.2964 3025449
2656.9814 1304.5754 3640.7214 3025449
2679.7483 1305.157 3642.3442 2763047
2685.7791 1297.6432 3621.3752 2763047
2714.0786 1300.9224 3630.5266 2894633
2736.8105 1301.5026 3632.1455 2828840
2784.2498 1313.7313 3666.2729 2697254
2813.0718 1317.0546 3675.5471 2631461
2836.6057 1317.8698 3677.8223 2565668
2843.3989 1310.9543 3658.5232 2434082
2879.396 1317.5061 3676.8074 2565668
2903.397 1318.5117 3679.6138 2499875
2923.6819 1317.8274 3677.7039 2828840
2944.0979 1317.2119 3675.9861 2763047
2952.1631 1311.12 3658.9854 2828840
2972.7625 1310.6432 3657.6548 2631461
3011.5347 1318.1273 3678.541 2434082
2989.1787 1298.9409 3624.9968 2302496
2991.8242 1290.8149 3602.3193 2368289
3064.9355 1312.9911 3664.207 2434082
3086.6006 1312.9712 3664.1516 2368289
3104.4233 1311.3285 3659.5671 2368289
3127.0496 1311.7236 3660.6699 2368289
3149.4844 1312.0334 3661.5344 2499875
3162.7769 1308.5566 3651.8315 2697254
3162.6545 1299.6145 3626.8767 2697254
3217.1826 1313.0988 3664.5078 2631461
3228.0942 1308.7195 3652.2861 2499874
3261.0747 1313.286 3665.03 2565666
3281.5718 1312.7981 3663.6685 2828067
3316.7788 1318.1625 3678.6389 2893861
3290.7659 1299.2856 3625.959 2827812
3318.3452 1301.6761 3632.6301 2630946
3342.6328 1302.7528 3635.635 2631202
3351.6423 1297.8995 3622.0906 2696482
3359.0806 1292.5033 3607.0312 2762275
3366.321 1287.0999 3591.9517 2762275
3380.2197 1284.2939 3584.1211 2367517
3375.1448 1274.3591 3556.3958 2367517
3424.8152 1285.0896 3586.3416 2564896
0 0 0 0
0 0 0 0
0 0 0 0
0 0 0 0
0 0 0 0
0 0 0 0
0 0 0 0
-3128.2266 1274.9103 3500.0559 2829097
-3116.675 1278.6797 3510.4045 2697511
-3003.1475 1240.3811 3405.2617 2631718
-3053.3367 1269.641 3485.5901 2697511
-3053.8579 1278.5059 3509.927 2631718
-3030.7251 1277.5216 3507.2249 2368546
-3005.2524 1275.5305 3501.7588 2302753
-2970.4363 1269.5184 3485.2539 2368546
-2944.9963 1267.4578 3479.5964 2368546
-2920.5505 1265.7987 3475.0417 2302753
-2898.1318 1265.001 3472.8518 2500132
-2869.5342 1261.4755 3463.1731 2631461
-2860.707 1266.6531 3477.3875 2829095
-2863.4282 1277.0564 3505.9478 2895145
-2848.0967 1279.5015 3512.6602 3092523
-2835.9846 1283.4393 3523.4714 2960937
-2821.7551 1286.4706 3531.793 2960937
-2798.9927 1285.6276 3529.4788 2895144
-2783.1497 1287.9741 3535.9209 2895144
-2751.5012 1282.9865 3522.228 2894889
-2737.3784 1286.157 3530.9319 2829353
-2705.8523 1281.1362 3517.1484 2829098
-2692.9578 1284.9277 3527.5571 2894891
-2694.8894 1295.9078 3557.7014 2894633
-2648.0642 1283.4304 3523.4468 2828839
-2652.8579 1295.9716 3557.8762 2763046
-2639.6167 1299.8325 3568.4761 2828838
-2599.4197 1290.3748 3542.5112 2960424
-2580.9749 1291.6489 3546.0093 3092010
-2568.2471 1295.8285 3557.4836 3026217
-2533.26 1288.7532 3538.0596 2894888
-2519.0569 1292.2217 3547.5815 2829351
-2470.9548 1278.2128 3509.1223 2895143
-2465.3538 1286.1379 3530.8799 2829350
-2440.3184 1283.9738 3524.9382 3026473
-2407.8181 1277.8104 3508.0181 2960423
-2383.3118 1275.8191 3502.5513 3092522
-2364.5674 1276.9043 3505.5305 3092522
-2341.2302 1275.5067 3501.6936 2960937
-2316.9397 1273.5601 3496.3494 3026730
-2308.8127 1280.543 3515.5198 3092522
-2248.9365 1258.6901 3455.5261 3026473
-2254.0618 1273.1498 3495.2231 3025960
-2201.8674 1255.2021 3445.9507 3157802
-2192.2051 1261.3914 3462.9421 3289388
-2168.6138 1259.6068 3458.0432 3355181
-2114.0869 1239.6488 3403.2515 3486767
-2096.5227 1241.1888 3407.4795 3092009
-2108.595 1260.4751 3460.4268 3289388
-2079.2952 1255.1658 3445.8508 3355182
-2059.6257 1255.6221 3447.1035 3486768
-2050.5554 1262.6139 3466.2983 3486768
-2026.4772 1260.4127 3460.2554 3223596
-2016.3717 1266.946 3478.1917 3157803
-1989.5482 1263.0015 3467.3623 3157803
-1973.8422 1266.1056 3475.8845 2960424
-1960.6182 1270.8843 3489.0034 2960424
-1948.6461 1276.5848 3504.6533 2763045
-1926.6219 1275.7521 3502.3669 2763045
-1892.3339 1266.6919 3477.4939 2894632
-1865.1177 1262.2181 3465.2119 2894631
-1863.2565 1274.9948 3500.2881 2960424
-1841.2296 1274.1047 3497.8447 2960424
-1819.8662 1273.6586 3496.6199 2894631
-1793.1862 1269.4386 3485.0344 2828838
-1778.5604 1273.7532 3496.8796 2894631
-1755.7131 1272.212 3492.6484 2763045
-1731.941 1269.9559 3486.4548 2763045
-1715.0579 1272.7578 3494.147 2828838
-1692.6417 1271.4718 3490.6165 2828838
-1674.0647 1273.0736 3495.0139 3223596
-1659.3582 1277.6957 3507.7031 3092010
-1621.8743 1264.6743 3471.9548 2828838
-1608.2406 1270.1547 3487.0002 2697251
-1586.1896 1269.0432 3483.949 2697251
-1569.777 1272.473 3493.365 2565665
-1543.7623 1268.1071 3481.3789 2697251
-1528.5796 1272.6411 3493.8264 2697251
-1513.449 1277.3435 3506.7361 2960423
-1498.959 1282.7251 3521.5105 2960423
-1481.8756 1286.0082 3530.5234 2894630
-1467.301 1291.5934 3545.8569 2960423
-1446.5271 1291.8049 3546.4375 3092009
-1427.6699 1293.7594 3551.8032 3157802
-1399.684 1287.3762 3534.2793 3157545
-1372.712 1281.746 3518.8223 3157802
-1362.481 1291.8143 3546.4636 3223595
-1342.0089 1292.3367 3547.8972 3355181
-1316.1088 1287.5651 3534.7976 3289388
-1296.892 1289.2831 3539.5144 3223595
-1278.5726 1291.9646 3546.8757 3025959
-1256.2323 1290.6047 3543.1426 2894630
-1231.7283 1286.9379 3533.0759 2828837
-1206.1848 1282.0396 3519.6284 2828068
-1187.5533 1284.4447 3526.2312 2762530
-1163.3776 1280.8319 3516.313 2828323
-1141.0836 1279.1971 3511.825 2894116
-1117.8187 1276.3927 3504.1257 3025702
-1094.803 1273.7722 3496.9316 3354924
-1067.4705 1265.9312 3475.4053 3355181
-1043.114 1261.3804 3462.9119 3223852
-1019.3311 1257.3545 3451.8596 3289388
-997.31732 1255.3906 3446.468 3092009
-978.89996 1257.9664 3453.5396 3157545
-953.78076 1251.8558 3436.7642 3157802
-929.36932 1246.428 3421.8625 3026216
-925.92859 1269.5101 3485.231 2894631
-898.39136 1259.8538 3458.7207 2960424
-876.47968 1257.8197 3453.1367 3026217
-852.97675 1253.3503 3440.8667 3026217
-827.80377 1246.1478 3421.0938 3092009
-809.07129 1248.5226 3427.613 3092009
-790.18127 1250.7703 3433.7837 2960423
-771.5722 1253.5931 3441.5334 2894630
-754.34119 1258.869 3456.0176 2828837
-733.48706 1258.2244 3454.2478 2763044
-709.7124 1252.389 3438.2278 2763044
-686.71283 1247.6168 3425.1265 2763044
-664.85577 1244.6929 3417.0994 2565665
-643.29553 1242.1584 3410.1414 2368286
-622.62372 1241.2307 3407.5945 2434079
-600.87952 1238.0314 3398.811 2565665
-586.49457 1250.2987 3432.489 2565665
-564.89893 1247.5232 3424.8694 2434079
-545.39844 1249.3403 3429.8579 2499872
-528.22028 1256.8237 3450.4023 2565665
-504.24173 1248.0776 3426.3914 2565666
-484.62442 1249.8453 3431.2444 2368286
-460.89154 1240.689 3406.1072 2499872
-442.32077 1245.2264 3418.5642 2631458
-425.63947 1255.7742 3447.521 2631458
-406.64542 1260.2178 3459.7205 2631458
-386.32358 1260.8002 3461.3191 2763044
-366.04642 1261.6016 3463.5193 2763044
-341.62369 1247.3617 3424.4258 3092009
-323.78329 1256.8749 3450.543 3157802
-302.97614 1255.3778 3446.4329 2565665
-283.83026 1261.0454 3461.9922 2763044
-264.11703 1264.8789 3472.5166 2105114
-243.64587 1265.4236 3474.012 2631458
-224.49992 1273.5868 3496.4229 2697251
-204.70091 1279.3285 3512.1855 2368286
-182.50754 1269.712 3485.7854 2367772
-162.2431 1272.7734 3494.1897 2367772
-142.42679 1280.7603 3516.1162 2433565
-122.10358 1286.1447 3530.8984 2367772
-100.76163 1280.8065 3516.2432 2499357
-79.585121 1275.3364 3501.2258 2565151
-59.313717 1285.6268 3529.4766 2565151
-38.319988 1282.9431 3522.1089 2630944
-17.437841 1282.0435 3519.6389 2565151
3.4221628 1283.8185 3524.512 2630943
24.10688 1273.2848 3495.5935 2762785
44.851685 1274.1942 3498.0901 3222824
65.592667 1274.4543 3498.8044 3354410
85.500336 1262.287 3465.4009 2696479
104.9586 1249.4821 3430.2471 459779
126.07298 1257.3489 3451.844 196608
145.34198 1247.184 3423.9382 393216
165.53474 1246.4653 3421.9653 3286818
188.58067 1265.0432 3472.9678 6115914
210.52502 1273.3029 3495.6433 5589058
230.2188 1267.6899 3480.2339 2235671
252.43463 1275.746 3502.3503 2367772
276.16846 1289.6667 3540.5676 2433565
297.03839 1289.1921 3539.2646 2433565
316.56116 1283.3188 3523.1404 2696482
338.42419 1287.0726 3533.4458 3156518
357.08591 1278.9232 3511.073 4340022
378.20288 1279.9807 3513.9761 3682349
396.39297 1271.5391 3490.801 2959654
423.18005 1290.1443 3541.8784 2696738
439.85239 1277.6116 3507.4719 2631459
458.21548 1270.8992 3489.0444 2302494
483.88464 1284.1556 3525.4377 2302494
508.10757 1292.6357 3548.7183 2697252
529.82819 1294.3287 3553.3662 2631716
542.82275 1275.3899 3501.3728 2960168
569.15576 1288.0314 3536.0779 2630689
590.25714 1288.356 3536.9688 2301724
610.08887 1285.9821 3530.4517 2235931
634.18152 1292.4491 3548.2058 2235931
656.41382 1294.8314 3554.7463 2236958
679.58215 1298.8547 3565.7915 2236701
691.45758 1281.7026 3518.7034 1973529
711.43726 1280.137 3514.405 2170908
734.83105 1284.629 3526.7373 2631461
753.89087 1281.5056 3518.1624 2236702
779.85333 1289.9678 3541.394 2368289
807.9035 1301.3496 3572.6409 2368288
830.37811 1303.3983 3578.2654 2565925
848.37531 1298.4923 3564.7966 2499875
857.48535 1280.5525 3515.5459 2236703
886.245 1292.1122 3547.281 2301983
907.26404 1292.1122 3547.281 2236190
926.83038 1290.0901 3541.7297 2763047
949.59375 1292.509 3548.3706 2828840
972.82672 1295.4485 3556.4404 2631717
998.83124 1301.8759 3574.0854 2500132
1016.9982 1298.033 3563.5356 2894118
1043.251 1304.4567 3581.1707 2893861
1060.2026 1299.2262 3566.8113 2827812
1082.5674 1300.704 3570.8684 2696483
1102.7751 1299.583 3567.791 2696997
1128.1416 1304.4695 3581.2061 2565411
1143.6021 1297.9325 3563.2598 2631461
1165.2852 1298.567 3565.0017 2433312
1185.9485 1298.0627 3563.6172 2433312
1208.1997 1299.2837 3566.969 2696483
1223.8251 1293.4597 3550.9805 2828069
1248.2719 1296.9985 3560.6958 2762277
1272.3359 1300.0286 3569.0142 2762277
1295.8279 1302.3845 3575.4819 2762276
1315.8136 1301.1974 3572.2231 2762275
1314.9735 1279.7794 3513.4236 2696483
1333.9351 1278.0005 3508.5398 2696484
1349.2579 1272.8434 3494.3818 2104603
1363.424 1266.7676 3477.7014 2499361
1383.5814 1266.3561 3476.572 2630691
1410.0481 1271.647 3491.0972 2499105
1448.3989 1287.3474 3534.2004 2564898
1475.7203 1292.937 3549.5457 2499105
1471.6222 1271.2285 3489.9485 2499362
1513.4608 1289.2532 3539.4324 2631461
1528.1493 1283.9733 3524.937 2828840
1557.9139 1291.332 3545.1394 2894633
1575.3175 1288.3854 3537.0498 2763047
1577.3702 1273.1263 3495.1584 2763047
1608.1674 1281.1621 3517.2195 2828840
1640.3772 1290.1035 3541.7666 2631461
1655.0508 1285.2013 3528.3083 2894633
1685.4701 1292.4962 3548.3352 2828840
1706.2155 1292.2841 3547.7529 2828840
1725.908 1291.2894 3545.0225 2828840
1747.2291 1291.5227 3545.6626 2631461
1774.7694 1296.2927 3558.7581 2565668
1797.7402 1297.6525 3562.491 2565668
1804.0864 1287.1199 3533.5757 2763047
1823.6731 1286.1669 3530.9595 2894633
1862.7367 1298.816 3565.6855 2894633
1880.016 1296.1626 3558.4009 2697254
1905.3909 1299.0875 3566.4307 2960426
1928.8101 1300.6294 3570.6638 2960426
1948.2933 1299.5127 3567.5979 3026219
1972.2394 1301.3645 3572.6819 3026219
1996.4789 1303.3688 3578.1841 2960426
2020.7897 1305.3768 3583.6968 2894631
2039.2166 1303.5818 3578.769 2960424
2055.2678 1300.3208 3569.8164 2960424
2084.0137 1305.0759 3582.8708 3092010
2103.2903 1303.865 3579.5464 3222826
2123.415 1303.1987 3577.7175 3222826
2137.3813 1298.8035 3565.6509 3222826
2155.303 1296.8743 3560.3545 3222826
2177.8391 1297.7321 3562.7095 3222826
2210.4475 1304.5176 3581.3381 3091240
2233.3882 1305.5229 3584.0981 3025447
2234.7161 1293.9945 3552.4487 2959654
2223.3127 1275.3783 3501.3408 2828068
2242.8896 1274.7134 3499.5156 2762275
2270.5657 1278.6215 3510.2446 2893861
2331.3 1300.9058 3571.4224 2959654
2368.6616 1309.864 3596.0156 2828068
2382.2603 1305.6389 3584.4165 2828068
2380.8203 1293.3191 3550.5945 2696482
2399.8008 1292.2107 3547.5518 2828068
2427.7402 1295.9039 3557.6907 2893862
2441.9778 1292.2826 3547.7488 2959655
2492.054 1307.5267 3589.5991 3025449
2517.8088 1309.86 3596.0049 3157035
2510.0752 1294.8783 3554.875 3025963
2528.6309 1293.5952 3551.3523 2894889
2566.7954 1302.2817 3575.2002 2894633
2584.6743 1300.6184 3570.6335 2960169
2607.7788 1301.5903 3573.3015 3025962
2640.5298 1307.3223 3589.0378 2960426
2647.5515 1300.3262 3569.8311 2894633
2678.5911 1305.1434 3583.0564 2894633
2697.9028 1304.2156 3580.509 2631461
2723.458 1306.297 3586.2231 2631461
2742.9387 1305.4551 3583.9116 2565668
2773.8591 1310.0286 3596.4678 2434082
2790.1848 1307.6924 3590.054 2434082
2818.8025 1311.1088 3599.4331 2368289
2807.5393 1296.0636 3558.1289 2565668
2868.165 1314.1818 3607.8694 2763047
2883.1978 1311.2958 3599.9465 2697254
2889.0686 1304.3159 3580.7847 2631461
2917.3296 1307.4727 3589.4507 2697254
2939.5159 1307.8809 3590.5713 2697254
2915.4819 1287.8661 3535.624 2499875
2909.5083 1276.0579 3503.2065 2368289
2925.7378 1274.0858 3497.7927 2170910
2950.1194 1275.6666 3502.1326 2302496
2983.4519 1281.0688 3516.9634 2170653
3029.1304 1291.6606 3546.0413 2039324
3049.5093 1291.3926 3545.3054 2170910
3067.2173 1290.0049 3541.4958 2368289
3117.9299 1302.4229 3575.5874 2565668
3129.3237 1298.3597 3564.4326 2631461
3149.2244 1297.8568 3563.052 2631461
3175.4934 1299.9679 3568.8474 2565669
3195.0266 1299.3116 3567.0459 2697253
3225.0491 1302.9016 3576.9019 2763045
3235.4441 1298.5671 3565.002 2697252
3235.7417 1290.2626 3542.2034 2631459
3266.5417 1294.1494 3552.874 2565666
3291.6443 1295.7439 3557.2515 2762018
3298.3599 1290.1261 3541.8286 2630689
3265.7561 1269.2972 3484.6462 2433311
3283.2305 1268.0715 3481.2812 2301724
3275.1135 1257.0387 3450.9924 1775380
3282.0056 1251.8678 3436.7969 2301723
0 0 0 0
0 0 0 0
0 0 0 0
0 0 0 0
0 0 0 0
0 0 0 0
0 0 0 0
-3019.9897 1250.8201 3378.9541 2829097
-2941.5366 1226.4573 3313.1409 2697511
-2931.1709 1230.3467 3323.6475 2697511
-2955.051 1248.7604 3373.3901 2565925
-2904.3965 1235.7133 3338.1448 2697511
-2970.9507 1272.6971 3438.0527 2697511
-2929.7141 1263.6974 3413.7407 2566182
-2886.5244 1253.724 3386.7991 2697767
-2895.6953 1266.5126 3421.3457 2763815
-2865.0935 1261.9631 3409.0559 2895144
-2842.8806 1261.0702 3406.6438 2960680
-2822.1763 1260.8385 3406.0181 3092010
-2820.05 1268.9633 3427.9661 3026730
