# .PCD v0.7 - Point Cloud Data file format
VERSION 0.7
FIELDS x y z rgb
SIZE 4 4 4 4
TYPE F F F U
COUNT 1 1 1 1
WIDTH 1285
HEIGHT 1
VIEWPOINT 0 0 0 1 0 0 0
POINTS 1285
DATA ascii
-1563.4564 945.85687 2297.6794 1644823
-1549.4133 945.5954 2297.0442 1842202
-1539.9648 948.15814 2303.2698 1907995
-1526.4049 948.21277 2303.4023 1973788
-1507.7769 945.09155 2295.8203 1973788
-1493.9814 944.97034 2295.5259 1842202
-1488.6655 950.25952 2308.3743 1644823
-1475.5697 950.63458 2309.2854 1644823
-1458.3518 948.33618 2303.7021 1513237
-1443.5712 947.5943 2301.8999 1644823
-1430.8555 948.20667 2303.3875 1710616
-1416.2925 947.59467 2301.9009 1644823
-1400.7051 946.27887 2298.7046 1579030
-1387.4089 946.50043 2299.2427 1907995
-1375.7993 947.88818 2302.6138 1842202
-1359.3741 945.95276 2297.9124 1710616
-1351.3752 949.90112 2307.5037 1776409
-1333.7681 947.10742 2300.7173 1842202
-1323.5745 949.57465 2306.7107 1842202
-1310.6001 950.07758 2307.9324 1776409
-1287.6554 943.28735 2291.4375 1973788
-1277.593 945.88989 2297.7598 1842202
-1265.4304 946.97693 2300.4004 1842202
-1259.7977 953.0274 2315.0981 1644823
-1242.7562 950.48553 2308.9233 1710616
-1229.0985 950.50366 2308.9675 1710616
-1211.7872 947.6651 2302.072 1710616
-1203.4009 951.82098 2312.1675 1907995
-1189.7561 951.8656 2312.2759 1973788
-1179.3363 954.52148 2318.7275 1907995
-1161.9032 951.49664 2311.3796 1776409
-1141.3217 945.79065 2297.5186 1776409
-1136.2693 952.97083 2314.9607 2039581
-1121.3818 951.97723 2312.5471 1842202
-1107.1523 951.5246 2311.4475 2039581
-1095.1598 953.00726 2315.0491 2105374
-1081.4421 953.00726 2315.0491 2171167
-1068.3041 953.52441 2316.3054 2302753
-1052.5072 951.65118 2311.7549 2368546
-1041.6453 954.24933 2318.0664 2236959
-1029.4236 955.6546 2321.4802 2171167
-1013.2681 953.39667 2315.9951 2171167
-999.46814 953.32343 2315.8171 2236960
-985.21857 952.81335 2314.5781 2302753
-976.6535 957.86395 2326.8472 2368546
-962.99091 957.98816 2327.1489 2434339
-949.8288 958.62128 2328.6868 2434339
-936.77295 959.38165 2330.5339 2434339
-922.62445 959.02924 2329.6777 2368546
-903.05731 952.94788 2314.905 2434339
-889.19556 952.79254 2314.5276 2171167
-874.54468 951.77344 2312.052 1973788
-862.40295 953.49615 2316.2368 2171167
-846.95392 951.55884 2311.5308 2236959
-834.03131 952.44275 2313.678 2171167
-820.46265 952.60645 2314.0754 2236959
-809.39246 955.72559 2321.6526 2236960
-793.09863 952.67804 2314.2493 2236960
-779.58203 952.91791 2314.832 2565925
-766.80096 954.08148 2317.6587 2565925
-751.48792 952.07971 2312.7961 2631718
-739.21558 953.92761 2317.2849 2434339
-726.28552 954.98059 2319.8428 2171167
-714.48419 957.58691 2326.1741 1907995
-702.38306 959.88605 2331.7593 2171167
-691.3736 963.79932 2341.2654 2236960
-679.11414 966.0946 2346.8411 2368546
-662.60388 962.31244 2337.6533 2368546
-654.53131 970.88446 2358.4766 2171167
-637.34521 966.01727 2346.6533 2302753
-620.51379 961.48267 2335.6377 2171167
-610.38593 967.36511 2349.9275 2171167
-592.67706 961.22705 2335.0168 2302753
-579.30219 961.99286 2336.877 2236960
-566.03052 962.97144 2339.2542 2368546
-552.32446 963.2417 2339.9106 2434339
-537.76569 962.00043 2336.8955 2500132
-524.87933 963.76447 2341.1807 2368546
-510.54083 962.88544 2339.0454 2368546
-497.0799 963.65863 2340.9236 2434339
-482.70709 962.65778 2338.4922 2302753
-470.19751 965.42328 2345.2102 2368546
-457.28024 967.49469 2350.2419 2368546
-442.93597 966.58221 2348.0256 2236960
-427.18011 962.4303 2337.9397 2171167
-413.14285 962.00171 2336.8987 2171167
-398.16281 959.27216 2330.2678 2368546
-383.89581 958.12598 2327.4836 2434339
-369.78488 957.29846 2325.4734 2434339
-357.27481 960.71167 2333.7646 2500132
-342.76501 958.80579 2329.135 2368546
-328.92639 958.69635 2328.8691 2565925
-314.10324 955.58209 2321.304 2565925
-301.41605 958.97839 2329.5542 2631718
-285.01541 950.31885 2308.5186 2829097
-271.07419 949.40009 2306.2866 2894890
-257.43704 949.50531 2306.5422 2697511
-243.43073 948.18445 2303.3335 2500132
-229.87625 948.57117 2304.2729 2105374
-218.08751 956.75281 2324.1479 1973788
-201.7784 944.86993 2295.282 2236960
-189.96326 953.83447 2317.0586 2434339
-178.32237 965.13867 2344.5188 2236960
-161.59795 948.51477 2304.136 2039581
-149.70236 959.78156 2331.5054 2368546
-137.6712 972.38165 2362.1135 2434339
-122.65297 964.34821 2342.5986 2236960
-108.89127 965.40448 2345.1646 2302753
-94.678307 962.18365 2337.3406 2368546
-80.968788 963.85223 2341.3938 2434339
-66.896133 960.99414 2334.4509 2368546
-53.328625 965.79425 2346.1113 2302753
-39.43787 966.06116 2346.7598 2368546
-25.38143 960.34985 2332.8857 1907995
-11.542239 959.02826 2329.6755 2500132
2.2824211 967.67615 2350.6829 2302753
16.07213 959.37708 2330.5227 2302752
29.881413 959.37708 2330.5227 2105374
43.861732 963.13275 2339.646 2236960
57.774719 963.96106 2341.6582 1973788
71.979568 968.3952 2352.4297 1710616
85.485435 963.51233 2340.5681 1973788
99.861755 968.43402 2352.5239 1907995
114.46971 974.12122 2366.3394 1710616
127.58521 967.25256 2349.6538 1842202
141.75926 968.97101 2353.8284 1974045
155.8835 970.07159 2356.502 2236960
169.37044 967.35144 2349.894 2368289
184.02602 971.21204 2359.2722 2368546
198.72 974.71588 2367.7839 2500132
214.2917 981.77893 2384.9414 2631718
226.02419 971.46661 2359.8909 2500132
239.62335 969.91187 2356.114 2236960
254.1017 971.89087 2360.9214 1907995
266.61951 966.55603 2347.9619 1907738
280.57703 966.71063 2348.3376 2302496
294.44467 966.55585 2347.9614 2368289
308.24414 966.20117 2347.0999 2236702
323.64746 970.68732 2357.9978 2302496
338.38095 972.87653 2363.3157 2302496
352.17438 972.2962 2361.906 2236703
366.16797 972.29193 2361.8955 2170909
380.22699 972.45526 2362.2922 2039324
395.15979 974.76227 2367.8965 2039324
408.4722 973.05109 2363.7397 2039324
424.7865 978.36725 2376.6538 2434082
437.91861 976.24823 2371.5063 2170910
452.24124 976.83264 2372.9258 2368289
470.09128 984.771 2392.2097 2368289
482.31726 980.80804 2382.583 2499875
496.17303 980.29047 2381.3257 2499875
508.51218 976.88788 2373.0601 2368289
532.06384 994.62891 2416.1567 2236703
540.33246 983.61896 2389.4114 2236703
553.13177 981.20837 2383.5554 2368289
568.59619 983.52777 2389.1897 2302496
583.86475 985.40399 2393.7476 2368289
594.11157 978.91687 2377.989 2302496
612.16034 985.28772 2393.4651 2434082
623.54834 980.89215 2382.7874 2499875
635.3111 977.2677 2373.9827 2368289
651.46295 980.40558 2381.6052 2302496
666.60608 981.92438 2385.2949 2302496
676.38837 975.64764 2370.0474 2302496
690.23163 975.36469 2369.3601 2368289
700.00323 969.4541 2355.002 2434082
719.32623 976.74402 2372.7107 2434082
741.91022 988.09747 2400.2905 2500132
756.23932 988.23663 2400.6284 2565925
768.08777 985.18866 2393.2244 2434339
777.69489 979.42859 2379.2319 2434339
793.33093 981.33124 2383.8538 2697511
801.18976 973.71533 2365.3533 2631718
813.47845 971.65265 2360.3425 2631718
832.57587 977.65466 2374.9229 2895147
846.74963 977.77173 2375.207 2763049
866.58459 984.31537 2391.103 2499621
884.40137 988.39288 2401.0081 2697000
920.4303 1012.3727 2459.26 2499621
901.07825 975.64136 2370.032 2631720
915.12158 975.64136 2370.032 2829099
937.74768 984.65326 2391.9238 2894892
956.47607 989.36523 2403.3701 2763306
953.70795 972.02936 2361.2578 2697514
973.42523 977.78094 2375.2295 2697511
984.65497 974.96448 2368.3877 2894890
1009.3233 985.34644 2393.6077 2697511
1024.1188 985.9361 2395.04 2565668
1038.9994 986.59039 2396.6294 2434082
1053.153 986.54596 2396.5215 2565668
1059.4479 979.23889 2378.7712 2631461
1077.3313 982.69452 2387.1655 2631461
1088.1235 979.6759 2379.8328 2631461
1105.1669 982.29065 2386.1846 2763047
1117.118 980.37067 2381.5205 2697254
1134.7794 983.44702 2388.9937 2697254
1136.0151 972.38794 2362.1289 2565668
1150.0259 972.39996 2362.158 2697254
1180.7439 986.36865 2396.0908 2631461
1178.7721 973.0213 2363.6675 2697254
1212.3857 989.01672 2402.5237 2565668
1234.3204 995.22424 2417.6028 2499875
1245.5685 992.77161 2411.6448 2828840
1264.1714 996.17017 2419.9006 2828840
1273.8279 992.52179 2411.0381 2828840
1300.2258 1001.854 2433.708 2828840
1305.5599 994.92944 2416.8867 2697254
1317.6121 993.21912 2412.7322 2368289
1332.674 993.78992 2414.1187 2368288
1355.5437 1000.1092 2429.4695 1710359
1367.5945 998.39746 2425.3113 2170910
1389.9478 1004.1643 2439.3201 2631461
1419.5603 1015.0029 2465.6492 2697254
1409.7905 997.74866 2423.7351 2434082
1455.7435 1019.8813 2477.5 2499875
1465.0353 1016.1439 2468.4209 2499875
1446.9926 993.70874 2413.9214 2236703
1473.9941 1002.3437 2434.8975 2236703
1482.214 998.16309 2424.7419 2105117
1513.7948 1009.6437 2452.6306 2170653
1531.7391 1011.8973 2458.1052 2368289
1520.3337 994.90222 2416.8206 2434082
1531.7534 993.02155 2412.2522 2434082
1555.9027 999.35187 2427.6296 2368289
1570.2874 999.35187 2427.6296 2368289
1583.9554 998.89984 2426.5317 2499875
1612.7717 1007.9233 2448.4514 2499875
1629.6671 1009.402 2452.0435 2565668
1644.5271 1009.6049 2452.5364 2565668
1645.2772 1001.218 2432.1628 2565668
1674.5312 1010.1717 2453.9133 2565668
1666.4087 996.61792 2420.9883 2236703
1682.7078 997.77631 2423.8025 2434082
1706.5077 1003.3253 2437.282 2499875
1730.0522 1008.6322 2450.1736 2368289
1744.6427 1008.6739 2450.2749 2434082
1778.0009 1019.4761 2476.5156 2434082
1753.9728 997.46643 2423.0496 2434082
1808.1107 1019.9055 2477.5586 2434082
1776.4857 993.99622 2414.6196 2565668
1806.6749 1002.8115 2436.0337 2565668
1859.7377 1024.0824 2487.7051 2631461
1825.4242 997.28265 2422.6033 2565668
1831.4686 992.77789 2411.6602 2434082
1856.7592 998.69476 2426.0334 2565668
1867.2874 996.64142 2421.0454 2236703
1971.9095 1044.4579 2537.2017 1973531
1899.2046 998.33704 2425.1646 1776152
1914.631 998.88818 2426.5034 2039324
1930.7803 999.80542 2428.7314 2236703
1954.0265 1004.3569 2439.7878 2302496
1960.1549 1000.1076 2429.4656 2236703
1963.3521 994.43561 2415.687 2105117
1991.6914 1001.488 2432.8188 2499875
1997.1555 997.01935 2421.9636 2236703
2012.1122 997.31952 2422.6926 2302496
2038.4362 1003.2098 2437.0015 2565668
2043.7671 998.7583 2426.1877 2565668
2065.0962 1002.1323 2434.384 1973531
2075.6794 1000.2811 2429.887 2697254
2088.4175 999.48663 2427.957 2499875
2106.1304 1001.0676 2431.7976 2499875
2122.3503 1001.9224 2433.874 2368289
2135.9529 1001.5382 2432.9409 2368289
2150.4907 1001.5951 2433.0789 2368289
2165.1833 1001.7225 2433.3887 2302496
2179.4768 1001.6649 2433.2485 2302496
2194.6387 1002.0046 2434.0737 2368289
2203.335 999.40704 2427.7637 2368289
2216.8599 999.01929 2426.8218 2368289
2228.6819 997.8739 2424.0396 2499875
2241.1877 997.04761 2422.0322 2499875
2250.5767 994.85382 2416.7031 2434082
2264.1997 994.54773 2415.9595 2368289
2275.3032 993.14581 2412.554 2434082
2289.9473 993.297 2412.9211 2499875
2304.2446 993.297 2412.9211 2434082
0 0 0 0
0 0 0 0
0 0 0 0
0 0 0 0
0 0 0 0
0 0 0 0
0 0 0 0
0 0 0 0
0 0 0 0
-2093.72 991.36841 2374.064 5461068
-2068.7058 986.15002 2361.5674 4210747
-2077.1687 996.92773 2387.377 2434593
-2080.4734 1005.3606 2407.5715 921355
-2059.3628 1002.0302 2399.5959 855561
-2035.3656 997.23914 2388.1228 789515
-2012.8059 993.09027 2378.1873 723721
-1988.2729 987.90222 2365.7634 855307
-1949.7814 975.65601 2336.4368 921100
-1933.0009 974.17609 2332.8931 921100
-1947.3365 988.46967 2367.1223 1118479
-1918.6664 980.98242 2349.1924 1052686
-1894.0936 975.49609 2336.054 1118479
-1863.3358 966.72003 2315.0376 1118479
-1849.8568 966.84473 2315.3362 1184272
-1835.6431 966.58429 2314.7126 1118479
-1808.0094 959.20038 2297.03 855307
-1801.5304 963.01263 2306.1594 1052686
-1778.9005 958.18384 2294.5957 1052686
-1762.5438 956.68561 2291.0078 1315858
-1740.1149 951.84253 2279.4099 1381651
-1723.5089 950.13391 2275.3181 1315858
-1707.631 948.80261 2272.1301 1250065
-1692.9811 948.13806 2270.5388 1381651
-1673.8126 944.91205 2262.8132 1447444
-1663.8479 946.87164 2267.5061 1644823
-1648.8154 945.95563 2265.3125 1579030
-1633.2897 944.73926 2262.3997 1710616
-1618.8906 944.15997 2261.0122 1710616
-1603.5642 943.02545 2258.2954 1579030
-1592.0238 944.11713 2260.9097 1579030
-1580.8727 945.46033 2264.1262 1579030
-1567.0824 945.2345 2263.5854 1579030
-1554.663 945.83862 2265.0322 1644823
-1542.3552 946.52197 2266.6687 1710616
-1528.0017 945.95081 2265.301 1907995
-1516.2456 946.99176 2267.7937 1842202
-1503.4435 947.39227 2268.7527 1842202
-1492.433 948.93909 2272.457 1776409
-1478.1129 948.39062 2271.1436 1842202
-1462.6482 947.09094 2268.031 1842202
-1447.4512 945.94196 2265.2795 1644823
-1435.8368 947.1347 2268.136 1644823
-1424.2117 948.34302 2271.0295 1644823
-1411.3516 948.74408 2271.99 1644823
-1398.0626 948.86188 2272.272 1579030
-1384.0452 948.48267 2271.364 1776409
-1373.89 950.76874 2276.8386 1842202
-1356.9198 948.3374 2271.0161 1776409
-1340.606 946.3205 2266.1863 1644823
-1325.9202 945.42365 2264.0386 1644823
-1306.53 941.11993 2253.7322 1710616
-1296.7319 943.70795 2259.9299 1842202
-1282.7308 943.25928 2258.8555 1842202
-1275.6321 947.93036 2270.0415 1907995
-1256.3479 943.54944 2259.5503 1842202
-1251.481 950.01855 2275.042 1907995
-1239.9584 951.52106 2278.6401 1776409
-1222.7877 948.67468 2271.8237 1776409
-1212.5709 951.21997 2277.9192 1579030
-1201.662 953.27362 2282.8369 1513237
-1186.7635 952.17303 2280.2014 1513237
-1173.2661 952.18408 2280.2278 1710616
-1157.2042 950.0899 2275.2129 1973788
-1145.1843 951.30414 2278.1206 1973788
-1131.1531 950.85663 2277.0488 2039581
-1120.3005 953.10242 2282.427 2105373
-1106.7761 953.10242 2282.427 2039581
-1087.1456 947.77893 2269.6787 2171167
-1082.193 955.27869 2287.6387 2368546
-1075.6558 961.55212 2302.6619 2434339
-1055.1316 955.32294 2287.7446 2302753
-1043.4067 957.00238 2291.7664 2302753
-1027.2281 954.58722 2285.9827 2302753
-1012.6443 953.60913 2283.6406 2105374
-1002.3939 956.74078 2291.1401 1710616
-987.14441 955.12158 2287.2625 2171167
-971.60803 953.17584 2282.6028 2236960
-964.96167 960.01947 2298.9917 2368546
-948.70227 957.35852 2292.6194 2368546
-934.06787 956.28387 2290.0459 2631718
-920.49243 956.27759 2290.0308 3092269
-905.63373 954.91809 2286.7751 2894890
-891.96606 954.79218 2286.4736 2763304
-876.27856 952.46704 2280.9055 2894890
-867.51404 957.71173 2293.4651 2697511
-851.71991 955.23938 2287.5444 2500132
-834.15277 950.66632 2276.5933 2236960
-821.91559 952.11731 2280.0681 2105374
-808.8252 952.61188 2281.2524 2105374
-795.39276 952.71356 2281.4958 2039581
-781.87396 952.71356 2281.4958 1973788
-768.60034 953.01764 2282.2239 2105374
-756.20471 954.44055 2285.6316 2368546
-742.39075 954.09271 2284.7986 2302753
-730.19592 955.85144 2289.0103 2302753
-717.96753 957.63202 2293.2742 2302753
-702.89246 955.6109 2288.4343 2368546
-690.0802 956.64746 2290.9165 2171167
-679.49725 960.87793 2301.0474 2171167
-666.70917 962.09949 2303.9727 2236960
-650.69165 958.6145 2295.6272 2302753
-638.46918 960.6911 2300.5999 1973788
-620.53094 954.07019 2284.7446 2171167
-608.89148 957.05438 2291.8909 2105374
-597.33746 960.31207 2299.6921 2500132
-582.15277 957.7486 2293.5535 2368546
-569.55652 959.42303 2297.5632 2368546
-555.13861 958.03558 2294.2407 2368546
-543.63483 961.73395 2303.0974 2302753
-528.48651 959.00922 2296.5723 2434339
-512.55402 954.67987 2286.2046 2565925
-507.77905 971.46143 2326.3921 2302753
-488.59787 960.8493 2300.9788 2171166
-475.63138 962.20013 2304.2136 2368546
-462.70554 963.71539 2307.8423 2368546
-447.6759 960.80774 2300.8794 2302753
-434.72812 962.32605 2304.5151 2302753
-420.02246 959.92535 2298.7661 2171167
-406.1106 959.23846 2297.1213 2236960
-392.21442 958.54248 2295.4546 2434339
-378.58331 958.46741 2295.2749 2500132
-365.33997 959.40521 2297.5205 2500132
-350.96228 957.32129 2292.5303 2500132
-337.45782 957.54761 2293.072 2434339
-323.86554 957.53296 2293.0371 2631718
-310.94705 959.59668 2297.979 2500132
-294.54242 950.59808 2276.4299 2565925
-280.36533 948.26996 2270.8547 2500132
-266.32199 946.18231 2265.8552 2500132
-253.03127 946.68884 2267.0681 2500132
-241.03957 952.38483 2280.7085 2368546
-227.21278 951.07593 2277.5742 2039581
-213.7572 951.25378 2278 2105374
-203.21587 965.29858 2311.6335 2105373
-188.08112 957.97736 2294.1013 2302753
-176.21725 967.47327 2316.8416 2236960
-163.1759 971.56299 2326.6353 2236960
-147.10266 956.68951 2291.0171 2105374
-132.94386 952.50806 2281.0037 2236960
-120.36491 959.98053 2298.8982 2236960
-106.08897 954.09833 2284.812 2565925
-93.15609 960.34094 2299.7615 2631462
-79.165581 955.95154 2289.25 2894890
-66.064026 962.70099 2305.4131 2500132
-52.501534 964.50153 2309.7249 2434339
-38.955322 967.97607 2318.0457 2565925
-24.994776 959.33276 2297.3472 2500132
-11.431734 963.51874 2307.3713 2500132
2.2439077 965.04144 2311.0178 2500132
15.907954 963.24542 2306.7168 2236960
29.735771 968.44312 2319.1638 2105374
43.211338 962.50891 2304.9531 2171166
57.179588 967.76379 2317.5371 1973788
70.591431 963.38983 2307.0627 1842202
84.516724 966.30548 2314.0449 1973788
98.042229 964.47437 2309.6599 2039581
111.44099 961.99774 2303.729 2434339
125.92326 968.39423 2319.0469 1973788
139.81248 969.42004 2321.5034 2105374
153.91197 971.58929 2326.6982 2170910
166.88725 966.88861 2315.4414 2039324
181.41934 971.23663 2325.8538 2236703
195.21683 971.31555 2326.0427 2104860
208.57845 969.35846 2321.356 1776152
222.24057 968.95367 2320.3867 2368546
235.15651 965.53235 2312.1934 2368546
249.9292 969.69159 2322.1538 2171167
262.68683 966.00653 2313.3291 2105117
275.11282 961.52808 2302.6042 2236703
289.42752 963.76184 2307.9536 2105117
303.47598 964.94757 2310.793 2170910
327.40097 996.0791 2385.3447 2236703
334.44736 975.40796 2335.8428 2236703
347.4288 973.00122 2330.0793 2236703
359.75281 969.00757 2320.5156 2302496
376.16064 975.90308 2337.0286 2236703
387.5062 969.64172 2322.0342 2368289
401.44254 970.07025 2323.0605 2236703
417.99588 976.58472 2338.6609 2368289
433.18875 979.60443 2345.8923 2368289
446.71542 978.78571 2343.9316 2434082
457.96997 973.18805 2330.5269 2499875
474.39877 978.59143 2343.4666 2565668
486.66879 975.35284 2335.7109 2236703
504.0065 982.16895 2352.0337 2697254
514.61548 975.85858 2336.9219 2434082
528.38361 975.71252 2336.5723 2499875
542.4397 976.09204 2337.4812 2236703
560.46954 983.42535 2355.0425 2368289
574.46924 983.50269 2355.2275 2368289
586.94507 981.02924 2349.3042 2302496
597.30121 975.20966 2335.3679 2302496
612.37689 977.18457 2340.0974 2368289
627.04102 978.42987 2343.0796 2434082
644.83759 984.40326 2357.3843 2236703
655.06665 978.81586 2344.0039 2368289
666.93719 975.86218 2336.9307 2302496
679.62073 974.19409 2332.936 2434082
694.40167 975.53906 2336.1567 2499875
710.68884 978.90607 2344.22 2499875
725.10846 979.62097 2345.9321 2302753
738.97913 979.58136 2345.8372 2434339
759.82214 988.61499 2367.4702 2500132
778.91156 995.08075 2382.9541 2565925
775.7666 973.41711 2331.0754 2565925
789.39709 973.19269 2330.5378 2763304
806.84991 977.60712 2341.1094 2697511
819.42554 976.06299 2337.4116 2829096
866.13934 1014.5581 2429.5972 2763562
849.88806 979.24567 2345.0332 2631976
855.1319 969.43793 2321.5461 2631977
876.79919 978.26453 2342.6836 2697513
890.62238 978.20068 2342.5308 2763049
909.18658 983.26611 2354.6611 2763562
918.6991 978.53711 2343.3364 2631720
936.67523 982.82971 2353.616 2631720
945.43384 977.46637 2340.7722 2565928
959.77087 977.94226 2341.9119 2434339
975.10797 979.409 2345.4243 2697511
991.79712 982.17346 2352.0444 2500132
996.46802 973.12463 2330.375 2236960
1024.375 986.70471 2362.8958 2631461
1045.5988 993.56799 2379.3313 2697254
1040.8868 975.9314 2337.0964 2631461
1069.3616 989.46515 2369.5061 2697254
1077.8236 984.37061 2357.3059 2565668
1085.3359 978.54999 2343.3672 2565668
1093.6465 973.58716 2331.4827 2499875
1114.8116 980.04883 2346.9565 2631461
1120.1591 972.61707 2329.1594 2302496
1133.4769 972.20239 2328.1665 2565668
1148.9293 973.60663 2331.5293 2697254
1161.8608 972.8667 2329.7573 2631461
1203.5814 995.96704 2385.0764 2763047
1215.1504 993.87036 2380.0554 2828840
1223.2217 988.99377 2368.3774 2960426
1243.426 993.92633 2380.1895 2894633
1250.9299 988.71008 2367.698 2697254
1279.0883 999.7533 2394.1436 2763047
1291.259 998.19519 2390.4124 2828840
1304.2761 997.31812 2388.312 2828840
1318.4277 997.31812 2388.312 2894633
1328.6294 994.36182 2381.2324 2565668
1353.5419 1002.3618 2400.3901 2499875
1370.9767 1004.7153 2406.0264 2499875
1393.1379 1010.4485 2419.7559 2499875
1402.6482 1006.9827 2411.4558 2565668
1414.3524 1005.1458 2407.0571 2631461
1429.4415 1005.7272 2408.4495 2565668
1429.3604 995.72913 2384.5066 2960426
1443.9485 996.04578 2385.2649 2631461
1455.1907 994.07043 2380.5347 2434082
1491.4263 1009.0427 2416.3894 2236703
1514.3729 1014.825 2430.2363 2170910
1521.0206 1009.6789 2417.9126 2302496
1519.1924 999.05475 2392.4707 2434082
1541.2139 1004.1661 2404.7112 2697254
1581.0608 1020.6917 2444.2852 2434082
1588.9203 1016.4543 2434.1379 2499875
1578.7344 1000.853 2396.7771 2631461
1588.0776 997.80029 2389.4666 2236703
1617.9731 1007.6006 2412.9355 2302496
1614.317 996.51776 2386.3953 2170910
1642.0673 1004.8462 2406.3396 2236703
1660.3186 1007.2686 2412.1406 2302496
1653.7598 994.72632 2382.1052 2302496
1696.8345 1011.9979 2423.4663 2434082
1710.3203 1011.481 2422.2283 2565668
1696.5511 994.98822 2382.7324 2828840
1709.4412 994.27356 2381.021 2631461
1722.707 993.78741 2379.8569 2763047
1736.3896 993.54779 2379.283 2631461
1753.7865 995.41998 2383.7664 2697254
1774.8636 999.33459 2393.1409 2565668
1816.6472 1014.7534 2430.0647 2631461
1803.0699 999.24896 2392.9358 2368289
1815.77 998.43573 2390.9883 2368289
1840.3285 1004.1051 2404.5649 2170910
1855.8782 1004.8099 2406.2527 2105117
1871.517 1005.5518 2408.0293 2105117
1864.6577 994.28589 2381.0505 2105117
1901.5227 1006.329 2409.8906 1973531
1890.5869 993.08398 2378.1724 2039324
1909.8508 995.78076 2384.6304 2236703
1921.0874 994.2832 2381.0442 2039324
1960.2167 1007.1385 2411.8293 1973531
1967.0505 1003.3349 2402.7205 2105117
1969.2769 997.25256 2388.155 2170910
1983.0966 997.08612 2387.7563 2105117
1997.511 997.21899 2388.0745 2368289
2008.0264 995.41699 2383.7593 2763047
2022.151 995.41699 2383.7593 2631461
2050.5874 1002.4131 2400.5132 2368289
2059.0786 999.63007 2393.8484 2499875
2077.4976 1001.6716 2398.7375 2499875
2095.8213 1003.64 2403.4512 2565668
2105.137 1001.2971 2397.8406 2631461
2123.8318 1003.4167 2402.9165 2565668
2142.53 1005.5099 2407.9292 2368289
2157.0383 1005.622 2408.1975 2499875
2165.6555 1003.0041 2401.9285 2434082
2178.3596 1002.301 2400.2444 2499875
2190.7751 1001.4749 2398.2664 2434082
2202.499 1000.3455 2395.5615 2565668
2216.3652 1000.1973 2395.2068 2434082
2224.0134 997.2627 2388.1792 2631461
2234.571 995.66168 2384.3452 2499875
2251.0779 996.71484 2386.8672 2565668
2257.1426 993.16028 2378.355 2499875
2271.0879 993.09583 2378.2007 2565668
0 0 0 0
0 0 0 0
0 0 0 0
0 0 0 0
0 0 0 0
0 0 0 0
0 0 0 0
0 0 0 0
0 0 0 0
0 0 0 0
-2075.8516 1003.598 2369.7249 986892
-2040.348 993.15131 2345.0576 921354
-2018.4679 989.23792 2335.8174 855817
-1952.3362 963.43353 2274.8872 789768
-1947.7048 967.83026 2285.269 789514
-1935.3208 968.4093 2286.6362 855307
-1927.0735 971.08112 2292.9448 921100
-1923.213 976.01697 2304.5996 1052686
-1900.6132 971.44543 2293.8052 986893
-1898.2579 977.22998 2307.4639 986893
-1870.6659 970.01233 2290.4211 1118479
-1852.2844 967.49994 2284.489 1184271
-1827.7222 961.69849 2270.7905 1184271
-1810.6354 959.7735 2266.2451 1184272
-1797.6067 959.987 2266.7493 1447444
-1780.7407 958.13904 2262.3857 1381651
-1766.0741 957.45538 2260.7715 1315858
-1757.4226 960.04718 2266.8914 1513237
-1734.5586 954.85516 2254.6316 1644823
-1714.2292 950.98865 2245.502 1579030
-1691.1898 945.54633 2232.6514 1513237
-1678.0093 945.57391 2232.7166 1579030
-1662.3389 944.18756 2229.4431 1513237
-1650.4905 944.96729 2231.2842 1579030
-1637.6646 945.19543 2231.823 1644823
-1620.4303 942.8623 2226.314 1710616
-1606.7791 942.5929 2225.6777 1644823
-1596.4198 944.26605 2229.6284 1710616
-1582.9723 944.12524 2229.2959 1776409
-1567.2632 942.62189 2225.7461 1842202
-1554.7181 943.01221 2226.6677 1842202
-1540.4917 942.38043 2225.176 1907995
-1527.5886 942.55444 2225.5869 1776409
-1516.9407 944.13507 2229.3191 1907995
-1505.866 945.47552 2232.4841 1842202
-1493.4617 945.9975 2233.7168 1907995
-1479.0837 945.26746 2231.9929 1842202
-1468.1287 946.73151 2235.45 1842202
-1456.1362 947.54718 2237.376 1776409
-1442.5157 947.30878 2236.813 1513237
-1427.1622 945.91711 2233.5271 1579030
-1415.3126 946.84369 2235.7148 1513237
-1405.147 948.92493 2240.6292 1513237
-1396.0601 951.78131 2247.3738 1579030
-1373.9174 945.70612 2233.0288 1710616
-1360.0598 945.27106 2232.0015 1644823
-1345.4344 944.28857 2229.6816 1644823
-1335.6196 946.69629 2235.3669 1579030
-1317.2522 943.02942 2226.7085 1579030
-1305.465 944.04681 2229.1108 1513237
-1292.3986 944.15051 2229.3557 1644823
-1276.3843 942.08069 2224.4683 1710616
-1263.2892 942.14471 2224.6194 1842202
-1248.8733 941.2146 2222.4231 1973788
-1236.7594 942.01801 2224.3203 1907995
-1230.5852 947.41162 2237.0559 1842202
-1218.265 948.13953 2238.7747 1710616
-1209.6056 951.76392 2247.3325 2039581
-1191.2562 947.75964 2237.8777 2039581
-1179.0802 948.63208 2239.9375 1973788
-1170.9819 952.84247 2249.8792 2171167
-1153.8529 949.71661 2242.4985 2302753
-1142.3435 951.19739 2245.9949 2434339
-1129.8975 951.92389 2247.7104 2631718
-1112.7583 948.66681 2240.0195 2302753
-1099.3229 948.52673 2239.6887 2302753
-1085.9777 948.46179 2239.5356 2368546
-1075.7751 951.17426 2245.9402 2302753
-1064.135 952.66748 2249.4661 2302753
-1054.7653 956.25696 2257.9417 2368546
-1044.7903 959.38287 2265.3228 2368546
-1028.4885 956.70496 2258.9995 2368546
-1017.8863 959.32806 2265.1934 2302753
-1001.7907 956.77484 2259.1646 2236960
-987.50903 955.9082 2257.1182 2236960
-975.02161 956.77856 2259.1733 2105374
-962.0509 957.19226 2260.1501 2171167
-949.4306 957.97125 2261.9895 2105374
-932.44861 954.30853 2253.3411 2302753
-922.26166 957.59479 2261.1006 2763304
-907.33685 955.98602 2257.302 2829097
-894.92517 957.0166 2259.7354 2763304
-881.26971 956.72821 2259.0544 2631718
-866.71375 955.43829 2256.0088 2631718
-851.73853 953.63855 2251.759 2565925
-833.7688 948.37543 2239.3315 2565925
-822.92059 951.1734 2245.9382 2302753
-810.75916 952.52051 2249.1191 2368546
-797.66895 952.80328 2249.7869 2171167
-788.16895 957.45697 2260.7751 2171167
-773.29541 955.6311 2256.4639 2171167
-757.33038 952.36829 2248.7598 2236960
-747.72687 957.13177 2260.0073 2236960
-736.59204 960.07312 2266.9524 2236960
-724.66205 962.06799 2271.6628 2302753
-706.61273 955.86053 2257.0056 2302753
-694.11096 957.06274 2259.8442 2368546
-680.21912 956.35779 2258.1797 2236960
-665.60858 954.59393 2254.0149 2039581
-651.63306 953.68719 2251.8738 2236960
-640.33752 956.7467 2259.0981 2302753
-625.81451 955.0116 2255.0012 2236960
-613.15796 956.11133 2257.5979 2039581
-598.30548 953.75946 2252.0447 2039581
-583.96863 952.14124 2248.2234 2302753
-570.36194 951.66553 2247.1003 2236960
-556.66248 951.00873 2245.5493 2236960
-544.42761 952.883 2249.9751 2368546
-532.3584 955.14874 2255.325 2302753
-522.44659 961.50159 2270.3254 2368546
-507.63986 958.94348 2264.2852 2302753
-493.67352 957.87726 2261.7676 2434339
-480.82129 958.97357 2264.3562 2368546
-466.67392 957.47546 2260.8188 2302753
-458.51254 968.53326 2286.929 2302753
-439.78769 957.27161 2260.3374 2302753
-426.53949 957.59747 2261.1069 2302753
-413.27011 957.89545 2261.8105 2500132
-398.71225 955.12708 2255.2737 2434339
-387.41779 960.255 2267.3821 2368546
-372.87616 957.41388 2260.6736 2434339
-358.92346 955.92969 2257.1689 2434339
-343.76996 951.00861 2245.5491 2500132
-331.32059 953.47321 2251.3687 2434339
-319.72571 958.70685 2263.7263 2368546
-305.57712 956.40601 2258.2937 2302753
-293.21512 959.74237 2266.1716 2368546
-278.37692 954.90497 2254.7493 2171167
-265.56262 956.87225 2259.3945 2236960
-254.70755 966.48273 2282.0872 2171167
-239.31248 958.97809 2264.3669 1973788
-226.46674 961.40436 2270.0959 1973788
-211.95653 956.62482 2258.8103 2171166
-199.98654 963.43854 2274.8992 2368545
-185.48726 958.17169 2262.4629 2434339
-173.43727 965.72223 2280.2913 2368546
-159.21069 961.40503 2270.0974 2236960
-145.14496 957.35187 2260.5271 2039581
-131.15019 952.99042 2250.2285 1973788
-118.88647 961.64362 2270.6609 2302752
-104.7017 954.98346 2254.9346 3092013
-91.434174 955.96497 2257.2522 3223855
-77.838326 953.26178 2250.8694 2434340
-64.881546 958.8855 2264.1484 2302753
-51.692299 963.11023 2274.1238 2368546
-38.253098 964.01477 2276.2598 2500132
-24.818651 966.08978 2281.1592 2565925
-11.261245 962.61731 2272.96 2434339
2.2109125 964.34344 2277.0359 2236960
15.72017 965.38171 2279.4873 2105374
29.357157 969.6792 2289.6348 2368546
42.888603 968.87592 2287.738 2236960
56.160007 963.99487 2276.2126 2302753
69.612442 963.50995 2275.0676 2171166
82.90889 961.37347 2270.0229 2236960
96.280251 960.58093 2268.1516 2105374
109.83026 961.54657 2270.4316 2368546
123.55594 963.67169 2275.4495 1710616
136.86618 962.45703 2272.5815 2236960
150.17186 961.43097 2270.1587 1841945
163.7944 962.43549 2272.5305 2302496
178.59703 969.69458 2289.6709 2236703
192.14832 969.61407 2289.481 2170910
206.90504 975.22614 2302.7322 2236703
219.52359 970.68903 2292.019 2302495
233.02068 970.33905 2291.1926 2236702
245.26045 965.08008 2278.7751 2302496
258.79691 965.20624 2279.073 2105117
271.84033 963.57202 2275.2144 1907738
285.55698 964.36603 2277.0891 2302496
299.05847 964.39447 2277.1562 2302496
313.41986 967.07379 2283.4827 2302496
326.79993 966.6286 2282.4316 2170910
341.12189 968.89417 2287.781 2039324
357.24472 975.90607 2304.3376 2236702
369.422 972.0202 2295.1624 1973531
384.25491 975.14972 2302.5518 2368289
399.1937 978.3241 2310.0471 2434082
409.58221 970.50598 2291.5869 2236703
422.71823 969.49097 2289.1902 2368289
440.49411 978.84967 2311.2883 2499875
455.76678 982.24908 2319.3152 2499875
465.40399 973.65979 2299.0337 2434082
482.77219 981.27277 2317.0098 2499875
494.7652 977.84137 2308.9075 2828840
507.42566 975.8783 2304.2722 2763047
522.78009 979.06329 2311.7927 2565668
535.58014 977.42407 2307.9221 2499875
550.45734 979.56287 2312.9722 2434082
564.3252 979.84503 2313.6387 2368289
575.22296 975.07928 2302.3855 2236703
587.32959 972.53595 2296.3801 2434082
602.81927 975.58295 2303.5747 2499875
616.46564 975.57776 2303.5625 2368289
628.69806 973.38367 2298.3818 2236702
645.23053 977.79913 2308.8076 2302496
660.46484 980.10474 2314.2517 2236703
672.86853 978.20148 2309.7578 2236703
684.69293 975.54865 2303.4939 2434082
697.75189 974.7243 2301.5474 2170910
709.36377 971.94861 2294.9934 2302753
727.43024 977.95502 2309.1758 2434339
735.12506 970.05353 2290.5186 2697511
748.03198 969.19147 2288.4829 2697511
766.94659 976.00549 2304.5725 2894890
779.73962 974.92706 2302.0261 2960683
794.94501 976.85016 2306.5669 2697511
811.41931 980.24115 2314.5737 2697511
817.12897 970.73114 2292.1187 2763306
830.97797 971.0434 2292.856 2894892
844.15845 970.57709 2291.7549 2894892
867.40399 981.51471 2317.5811 2631720
884.19177 984.91803 2325.6169 2565927
894.54266 981.15668 2316.7356 2500134
906.31537 979.04486 2311.749 2500134
925.58246 984.97125 2325.7427 2565927
934.2973 979.65912 2313.1997 2500134
951.79126 983.57288 2322.4409 2697511
959.18671 977.0882 2307.1289 2697511
975.2627 979.50391 2312.833 2631718
993.52209 984.01526 2323.4854 2829097
1007.3572 984.08118 2323.6411 2697254
1025.1882 987.99634 2332.8857 2960426
1029.4761 978.92914 2311.4758 2960426
1043.1671 978.92413 2311.4641 2894633
1053.4436 975.75641 2303.9844 2828840
1071.1561 979.46936 2312.7515 2499875
1086.02 980.51654 2315.2241 2828840
1103.2949 983.68732 2322.7109 2894633
1108.7703 976.38916 2305.4785 2697254
1127.5189 980.81494 2315.9287 2631461
1134.6411 975.14215 2302.5339 2631461
1147.46 974.44189 2300.8806 2763047
1172.205 983.76709 2322.8994 2565668
1181.3939 979.97211 2313.9385 2631461
1191.9866 977.41498 2307.9006 2960426
1207.5773 978.96783 2311.5671 3026219
1237.0529 991.61584 2341.4321 2828840
1255.2509 995.04364 2349.5259 2960426
1273.3071 998.28497 2357.1794 2960426
1276.8311 990.18616 2338.0564 2960426
1301.9998 998.8667 2358.553 2697254
1309.2524 993.76392 2346.5042 2697254
1323.8259 994.26672 2347.6914 2631461
1358.2617 1009.5217 2383.7119 2565668
1355.8091 997.32758 2354.9189 2631461
1417.0535 1031.76 2436.2217 2565668
1405.733 1013.1961 2392.3879 2565668
1411.7292 1007.3594 2378.6062 2565668
1418.905 1002.4715 2367.0647 2828840
1433.3042 1002.7327 2367.6814 2828840
1441.8044 998.90186 2358.6362 2697254
1454.7308 998.18176 2356.9358 2236703
1479.9586 1005.8358 2375.0088 2236703
1484.4849 999.40881 2359.833 1907738
1492.9891 995.75464 2351.2048 2434082
1520.4143 1004.671 2372.2583 2763047
1532.0253 1003.0696 2368.4773 2828840
1549.7844 1005.4865 2374.1838 2828840
1566.8395 1007.407 2378.7188 2763047
1566.0586 997.9278 2356.3362 2565668
1593.3308 1006.3343 2376.1858 2434082
1597.6846 1000.2453 2361.8081 2368289
1634.8353 1014.6164 2395.7417 2170909
1612.0226 991.84583 2341.9751 2105117
1650.0571 1006.5826 2376.772 2170910
1644.6831 994.81348 2348.9824 2039324
1658.7499 994.90222 2349.1921 2039324
1675.4332 996.54596 2353.0732 2236703
1688.2958 995.90875 2351.5686 2236703
1699.9846 994.59503 2348.4668 2368289
1723.5712 1000.2073 2361.7185 2565668
1750.3834 1007.5859 2379.1411 2697254
1770.4581 1010.9993 2387.2007 2565668
1768.2643 1001.7429 2365.3445 2499875
1801.5587 1012.5788 2390.9304 2631461
1794.9832 1001.011 2363.6165 2368288
1802.8944 997.63885 2355.6538 2105117
1805.9757 991.66632 2341.5513 2828840
1828.766 996.5246 2353.0227 2236703
1857.3215 1004.4271 2371.6826 2368289
1859.4941 998.0506 2356.626 2039324
1870.491 996.46985 2352.8936 1776152
1880.3633 994.31787 2347.8123 2105117
1902.3671 998.56543 2357.8418 2170910
1944.2386 1013.1039 2392.1702 1973531
1936.7598 1001.9023 2365.7207 1841945
2033.9849 1044.6368 2466.6267 1907738
1952.1934 995.47607 2350.5471 2105117
1972.8624 998.88928 2358.6064 2565668
1991.4867 1001.2264 2364.1248 2434082
2005.7402 1001.3488 2364.4138 2631461
2019.6071 1001.2778 2364.2461 2302496
2029.0812 999.04492 2358.9739 2039324
2045.4041 1000.1916 2361.6814 2105117
2066.3074 1003.5473 2369.605 2499875
2081.2441 1003.9795 2370.6255 2565668
2102.2378 1007.3081 2378.4851 2697254
2111.1951 1004.8634 2372.7126 2631461
2124.7832 1004.6407 2372.1868 2499875
2147.1819 1008.5592 2381.4392 2565668
2152.1282 1004.2825 2371.3411 2631461
2163.6924 1003.1296 2368.6187 2499875
2177.3511 1002.9562 2368.2092 2368289
2188.5886 1001.6769 2365.1887 2434082
2198.3252 999.73132 2360.5947 2499875
2213.2495 1000.1547 2361.5945 2499875
2221.9995 997.80011 2356.0347 2697254
2235.1489 997.43823 2355.1802 2894633
2245.2988 995.75061 2351.1953 2828840
0 0 0 0
0 0 0 0
0 0 0 0
0 0 0 0
0 0 0 0
0 0 0 0
0 0 0 0
0 0 0 0
0 0 0 0
0 0 0 0
-1970.3165 965.90344 2249.2495 921354
-1949.8427 962.37622 2241.0359 921353
-1939.4154 963.79352 2244.3362 789769
-1933.3785 967.42719 2252.7976 855561
-1917.6927 966.24951 2250.0554 855307
-1904.6964 966.4201 2250.4526 855307
-1915.5273 978.76801 2279.2065 723721
-1880.3644 967.62311 2253.2539 921100
-1864.3584 966.24725 2250.05 921100
-1862.4718 972.22211 2263.9634 1052686
-1827.6418 960.9621 2237.7429 1118479
-1816.2633 961.9585 2240.063 1184272
-1805.6522 963.37885 2243.3706 1381651
-1791.2325 962.77313 2241.9602 1381651
-1763.2592 954.81903 2223.4377 1579030
-1747.7507 953.54578 2220.4729 1447444
-1735.9203 954.27509 2222.1711 1513237
-1710.2181 947.33173 2206.0024 1710616
-1695.7627 946.5592 2204.2036 1710616
-1681.379 945.81512 2202.4707 1710616
-1664.7216 943.7702 2197.709 1579030
-1652.3759 944.15674 2198.6091 1644823
-1635.7413 942.07953 2193.772 1644823
-1623.3141 942.41144 2194.5449 1776409
-1611.2126 942.93933 2195.7742 1710616
-1599.431 943.66461 2197.4631 1644823
-1584.3174 942.41974 2194.5642 1644823
-1571.9656 942.81073 2195.4746 1710616
-1561.2006 944.16772 2198.6348 1907995
-1546.9105 943.39801 2196.8423 1907995
-1533.7922 943.33588 2196.6975 1973788
-1519.7312 942.68781 2195.1885 1907995
-1508.2246 943.62677 2197.375 1842202
-1494.6373 943.26892 2196.5417 1842202
-1482.4067 943.76862 2197.7053 1776409
-1472.2942 945.63745 2202.0571 1907995
-1459.2848 945.6626 2202.1157 1776409
-1442.5914 943.27924 2196.5657 1842202
-1431.9342 944.83527 2200.1892 1579030
-1418.5446 944.60046 2199.6423 1513237
-1407.0858 945.65894 2202.1072 1513237
-1396.4243 947.27814 2205.8777 1579030
-1382.005 946.35468 2203.7273 1644823
-1368.1156 945.77991 2202.3889 1644823
-1352.8794 944.25403 2198.8357 1776409
-1342.1628 945.88373 2202.6306 1842202
-1328.0166 945.10461 2200.8164 1907995
-1314.709 944.91278 2200.3696 1776409
-1300.4666 944.03851 2198.3337 1710616
-1284.212 941.6712 2192.821 1710616
-1268.2885 939.50067 2187.7666 2039581
-1260.6713 943.50171 2197.0837 1907995
-1248.6752 944.27496 2198.8843 1842202
-1231.5164 941.1192 2191.5356 1907995
-1226.3684 947.17267 2205.6321 2171167
-1215.0432 948.53412 2208.8025 2039580
-1206.0762 951.78625 2216.3755 2236959
-1185.9537 946.20972 2203.3896 2171167
-1177.8914 950.23816 2212.7705 2302753
-1167.2544 952.25696 2217.4717 2105374
-1155.1382 953.1012 2219.4375 2171167
-1142.6384 953.64478 2220.7034 1907995
-1130.8604 954.81042 2223.4177 1907995
-1116.3773 953.69257 2220.8147 2039581
-1107.671 957.54193 2229.7786 2302753
-1097.3546 960.07562 2235.6785 2302753
-1080.1704 956.58917 2227.5598 2236960
-1071.5098 960.65802 2237.0349 2236960
-1051.8429 954.83789 2223.4817 2236960
-1039.3694 955.48285 2224.9836 2236960
-1029.6333 958.69312 2232.4592 2171167
-1015.0447 957.40997 2229.4712 2302753
-1001.3303 956.92847 2228.3499 2236960
-987.15985 955.99243 2226.1702 2171167
-973.11743 955.15662 2224.2239 2039581
-959.81323 955.03241 2223.9348 1776409
-948.24915 956.66034 2227.7256 1842202
-934.41473 956.01154 2226.2146 1973788
-918.6311 953.32117 2219.95 2565925
-909.85162 957.927 2230.675 3158062
-893.53632 954.61749 2222.9685 2697511
-881.32037 955.65411 2225.3826 2368546
-868.86688 956.46094 2227.2612 2368546
-856.35059 957.22223 2229.0339 2500132
-843.78406 957.95032 2230.7295 2236960
-831.48755 959.01312 2233.2043 2368546
-815.47662 955.7569 2225.6218 2565925
-801.19232 954.45062 2222.5798 2565925
-790.11182 956.98108 2228.4724 2565925
-774.29187 953.75946 2220.9705 2500132
-761.86334 954.67627 2223.1052 2565925
-751.3147 958.02234 2230.8972 2302753
-735.24078 954.31677 2222.2681 2368546
-725.80829 959.25354 2233.7642 2236960
-712.6358 959.33893 2233.9629 2302753
-698.58917 958.22852 2231.3774 2302753
-684.8382 957.48871 2229.6545 2302753
-670.86548 956.40363 2227.1277 2434339
-655.33289 953.00659 2219.2173 2434339
-643.29236 954.65265 2223.0503 2434339
-629.7005 954.01727 2221.5708 2368546
-617.02032 954.76544 2223.313 2434339
-602.0177 951.87421 2216.5803 1579030
-586.85773 948.59967 2208.9551 2039581
-573.27057 947.77594 2207.0369 2105374
-560.42737 948.17236 2207.9602 2236960
-547.50226 948.44604 2208.5974 2302753
-537.15778 953.31305 2219.9309 2368546
-526.88013 958.5459 2232.1165 2302753
-511.97461 955.41205 2224.8186 2434339
-498.25763 954.38904 2222.4365 2302753
-486.41296 956.99438 2228.5034 2368546
-472.31409 955.1861 2224.2927 2236960
-463.69647 964.67743 2246.3945 2236960
-446.59756 956.56366 2227.5005 2105373
-433.06949 955.83698 2225.8083 2171167
-420.26352 956.7085 2227.8376 2368546
-407.8017 958.44537 2231.8823 2631718
-395.81146 961.44415 2238.8655 2565925
-382.02945 960.14771 2235.8464 2631718
-368.81775 960.24298 2236.0684 2500132
-354.72397 957.9632 2230.7595 2236960
-340.7323 955.7934 2225.7068 2368546
-326.48334 952.698 2218.4988 2171167
-315.43881 959.08606 2233.3743 2105374
-302.68918 960.62213 2236.9512 2302753
-288.66464 958.06744 2231.0022 2171167
-275.53186 958.36938 2231.7053 2236960
-263.95322 964.38 2245.7019 2171167
-250.69182 964.55426 2246.1077 2105374
-232.96977 946.62311 2204.3523 2171167
-219.7213 945.81891 2202.4797 2039581
-209.74367 959.8822 2235.228 1973788
-197.19756 963.29437 2243.1738 2236960
-184.48616 966.33405 2250.2522 2105374
-170.85489 964.65363 2246.3391 2434339
-157.76617 966.01147 2249.501 2236960
-142.25949 951.44812 2215.5881 2434339
-130.44041 961.09412 2238.0503 2236960
-116.92277 958.99207 2233.1553 2368546
-103.73273 959.38336 2234.0664 2302753
-90.515938 959.60535 2234.5835 2105374
-76.919594 955.19031 2224.3022 2171167
-64.013252 959.28949 2233.8479 2104860
-51.152775 966.39246 2250.3882 2170910
-37.638729 961.80322 2239.7014 2434339
-24.352758 961.21747 2238.3374 2434339
-11.083702 960.69666 2237.1248 2105374
2.182297 965.17987 2247.5645 2105374
15.527172 966.87067 2251.5017 2171166
29.083511 974.08112 2268.2925 2236960
42.40176 971.27979 2261.769 2171167
55.176338 960.36133 2236.3438 2368546
68.253654 957.92035 2230.6597 2434339
81.709312 960.71997 2237.179 2763304
95.001839 961.08752 2238.0349 1973788
108.70183 964.9823 2247.1045 2171167
121.81401 963.37848 2243.3696 2565925
135.09914 963.32318 2243.241 2105374
148.50575 964.06653 2244.9719 2302496
161.90877 964.66632 2246.3687 2170910
176.44203 971.3974 2262.043 2236703
189.41139 969.17603 2256.8701 2236703
202.40413 967.35919 2252.6394 2170910
215.36401 965.61993 2248.5894 2039324
228.17647 963.46094 2243.5618 2236703
242.90099 969.16858 2256.8528 2368289
255.38127 965.79352 2248.9934 2302496
268.53003 965.1557 2247.5083 2763047
281.87192 965.23956 2247.7036 2236702
295.30289 965.60724 2248.5598 2368289
309.98932 969.87109 2258.4888 2302496
321.63147 964.65149 2246.3342 2302496
334.04346 962.06396 2240.3086 2170910
351.52972 973.72986 2267.4744 2170910
364.06293 971.3219 2261.8672 2368289
378.48294 973.94031 2267.9646 2236703
390.64288 970.76288 2260.5654 2170910
404.97244 973.00879 2265.7954 2368289
419.71518 976.07159 2272.9275 2302496
434.75073 979.6037 2281.1526 2499875
447.90314 978.80743 2279.2983 2631461
459.96472 975.74384 2272.1643 2236703
474.13046 977.19122 2275.5347 2170910
484.75543 971.46271 2262.1951 2105117
498.02103 971.19202 2261.5647 2434082
515.69141 979.30017 2280.4458 2697254
525.60809 972.646 2264.9504 2499875
539.00824 972.60883 2264.864 2434082
551.79919 971.50085 2262.2839 2170910
563.07172 967.83557 2253.7488 2105117
579.7348 973.39111 2266.6855 328964
595.77679 977.6756 2276.6628 2499875
606.0965 972.5882 2264.8159 2302496
619.21143 972.10925 2263.7007 2565668
634.89984 975.60522 2271.8416 2565668
649.65753 977.5556 2276.3833 2565668
660.22711 973.25275 2266.3635 2565668
680.33911 982.90771 2288.8464 2697254
691.36151 979.30994 2280.4685 2302496
699.62665 972.01935 2263.4912 2105374
714.8869 974.5387 2269.3579 2500132
724.12671 968.90942 2256.2495 2829097
742.6745 975.71307 2272.0928 2565925
752.04651 970.43402 2259.7996 2960683
777.25513 985.41754 2294.6909 2565925
787.29199 980.98163 2284.3613 2631718
793.57117 972.09259 2263.6619 2565925
812.56543 978.81561 2279.3174 2631720
831.44299 985.1806 2294.1392 2763306
843.35822 983.22382 2289.5825 3026478
855.09259 981.1214 2284.6868 3158064
865.10022 977.13416 2275.4019 3026478
876.52588 974.84644 2270.0745 3026478
903.29108 989.43011 2304.0349 2631720
906.28925 977.93372 2277.2639 2631720
914.06635 971.85577 2263.1104 2302755
933.22217 977.87659 2277.1309 2697511
949.47827 980.7309 2283.7773 2829097
971.22656 989.09802 2303.2615 2894890
979.7005 983.90198 2291.1619 2894890
991.18024 981.8255 2286.3264 2960426
1003.6148 980.73804 2283.7939 3092012
1021.8233 985.2467 2294.2932 2960426
1030.7356 980.79138 2283.9182 3289391
1046.3252 982.72278 2288.4158 3157805
1050.568 974.08411 2268.2993 3026219
1064.6091 974.63385 2269.5796 2960426
1085.9496 981.76904 2286.1948 2828840
1102.7556 984.67932 2292.9719 2631461
1110.108 979.18036 2280.1667 2434082
1118.5393 974.75354 2269.8584 2105117
1136.7955 978.89246 2279.4963 2105117
1144.8535 974.25543 2268.6985 2499875
1174.979 988.28735 2301.3738 2828840
1180.1364 981.23712 2284.9563 2894633
1188.1819 976.72119 2274.4402 2828840
1211.6663 984.85535 2293.3818 2828840
1236.0471 993.5296 2313.5811 2828840
1248.8306 992.79382 2311.8677 2894633
1255.2212 987.04712 2298.4856 2828840
1271.6403 989.22498 2303.5571 2828840
1284.9827 988.98871 2303.0068 2763047
1313.1207 1000.0251 2328.7068 2697254
1329.8541 1002.2369 2333.8574 2368289
1329.0602 991.32977 2308.4585 1973531
1349.8531 996.58228 2320.6897 2434082
1364.4918 997.23102 2322.2004 2499875
1377.426 996.63354 2320.8091 2302496
1392.598 997.65106 2323.1785 2631461
1401.8191 994.42712 2315.6711 2499875
1422.2192 999.11902 2326.5969 2763047
1434.0659 997.76965 2323.4548 2565668
1461.1147 1006.9225 2344.7686 2368289
1462.1158 998.1214 2324.2737 2368289
1484.6339 1004.0361 2338.0469 2368289
1493.8119 1000.903 2330.7512 2565668
1510.1743 1002.5972 2334.6963 2828840
1529.4271 1006.162 2342.9976 2828840
1536.8676 1001.9616 2333.2163 2763047
1550.6324 1001.9226 2333.1255 2763047
1563.369 1001.2258 2331.5029 2565668
1579.4832 1002.6854 2334.9016 2565668
1586.3939 998.32758 2324.7539 2565668
1590.9409 992.57043 2311.3474 2434082
1608.4067 994.9024 2316.7778 2565668
1621.7535 994.66864 2316.2336 2434082
1644.2018 999.97418 2328.5884 2105117
1657.0554 999.40479 2327.2625 2236703
1670.0785 998.94617 2326.1943 2434082
1683.3271 998.62866 2325.4551 2434082
1698.5371 999.47052 2327.4155 2434082
1702.0468 993.4696 2313.4414 2368289
1734.3093 1004.2131 2338.4592 2565668
1730.2697 993.93298 2314.5205 2302496
1746.1477 995.16608 2317.3918 2236703
1764.6136 997.84326 2323.6262 2368289
1779.7974 998.63739 2325.4753 2302496
1791.1007 997.25879 2322.2651 2105117
1788.012 987.94897 2300.5857 2236703
1846.1895 1012.3759 2357.4675 2368289
1856.9631 1010.637 2353.4182 2170910
1847.6378 998.06677 2324.1465 2170910
1859.9677 997.2937 2322.3464 2236703
1869.3224 994.94855 2316.8853 2236703
1954.5878 1032.7466 2404.9036 2236703
1900.8781 997.09851 2321.8918 2302495
1907.9867 993.63568 2313.8281 2105117
1933.6178 999.79938 2328.1812 2236703
1948.2837 1000.2463 2329.2219 2302496
1953.5021 995.87067 2319.0327 2434082
1969.6487 997.08832 2321.8682 2828840
1971.151 990.92725 2307.521 2302496
2002.6593 999.83154 2328.2561 2236703
2020.5573 1001.8656 2332.9927 2236703
2044.9933 1007.0916 2345.1624 2697254
2060.3215 1007.7922 2346.7937 2499875
2079.3103 1010.2619 2352.5447 2499875
2090.738 1009.0495 2349.7214 2565668
2104.5037 1008.9739 2349.5457 2631461
2116.7507 1008.1763 2347.6882 2565668
2127.6567 1006.7543 2344.377 2499875
2144.7488 1008.2591 2347.8809 2499875
2156.3687 1007.1885 2345.3877 2499875
2161.9324 1003.3209 2336.3816 2434082
2173.2483 1002.155 2333.6667 2565668
2192.5061 1004.6431 2339.4607 2763047
2199.9795 1001.7341 2332.6865 2697254
2211.571 1000.7248 2330.3362 2697254
2228.2444 1002.0132 2333.3364 2697254
0 0 0 0
0 0 0 0
0 0 0 0
0 0 0 0
0 0 0 0
0 0 0 0
0 0 0 0
0 0 0 0
0 0 0 0
0 0 0 0
-1931.8436 960.11041 2205.3301 789514
-1912.2421 956.84088 2197.8201 789514
-1903.1575 958.82507 2202.3777 789514
-1892.2346 959.90411 2204.8562 921100
-1882.2762 961.49084 2208.5007 986893
-1876.6228 965.31421 2217.283 1052686
-1870.7894 969.09833 2225.9749 1184272
-1859.4476 970.06238 2228.1892 1447444
-1846.2709 970.07611 2228.2207 1447444
-1805.0142 955.2298 2194.1196 1315858
-1807.6572 963.56897 2213.2742 1447444
-1778.5018 954.95593 2193.4905 1447444
-1760.4789 952.23749 2187.2463 1579030
-1749.1067 953.10291 2189.2341 1710616
-1733.2053 951.49481 2185.5403 1644823
-1720.1655 951.44525 2185.4265 1710616
-1704.693 950.03918 2182.1968 1710616
-1676.3997 941.4118 2162.3801 1776409
-1671.4358 945.85364 2172.5828 1776409
-1657.9614 945.51099 2171.7957 1644823
-1646.7739 946.47717 2174.0151 1644823
-1630.6239 944.58398 2169.6665 1710616
-1617.5865 944.47821 2169.4236 1710616
-1598.4354 940.77246 2160.9116 1710616
-1590.8931 943.89435 2168.0825 1644823
-1575.7241 942.50537 2164.8921 1710616
-1562.8986 942.50677 2164.8953 1644823
-1548.9182 941.80603 2163.2856 1907995
-1536.6257 942.12842 2164.0261 1973788
-1524.957 942.84192 2165.665 1973788
-1513.196 943.51001 2167.1997 1907995
-1502.6921 944.97998 2170.5762 1907995
-1484.849 941.82025 2163.3184 1907995
-1475.3311 943.93201 2168.1689 1776409
-1464.1359 944.99829 2170.6182 1644823
-1453.0884 946.17969 2173.3318 1776409
-1438.7354 945.21051 2171.1057 1842202
-1425.0726 944.68158 2169.8906 1776409
