# .PCD v0.7 - Point Cloud Data file format
VERSION 0.7
FIELDS x y z rgb
SIZE 4 4 4 4
TYPE F F F U
COUNT 1 1 1 1
WIDTH 1290
HEIGHT 1
VIEWPOINT 0 0 0 1 0 0 0
POINTS 1290
DATA ascii
1811.0496 1053.6132 3910.2681 2434082
1814.8041 1042.4606 3868.8774 2499875
1758.1429 997.31506 3701.3293 2565668
1801.5405 1009.3417 3745.9636 2434082
1848.0624 1022.8046 3795.9282 2368289
1917.8386 1048.6589 3891.8813 2236703
1941.5724 1049.0226 3893.2307 2302496
1947.9762 1040.124 3860.2061 2302496
1902.3146 1003.9546 3725.9705 2170910
2032.3113 1060.2559 3934.9207 2170910
2069.302 1067.309 3961.0972 2105117
2088.479 1065.119 3952.9695 1973788
2100.1724 1059.2032 3931.0144 2039581
2149.5356 1072.2074 3979.2764 2039581
2194.6704 1082.843 4018.7485 1973788
2181.5234 1064.8031 3951.7969 1973788
2338.2141 1129.1637 4190.6582 1973788
2253.8755 1076.9977 3997.0547 2105374
2252.1704 1064.9917 3952.4968 2171167
2235.8567 1046.396 3883.4829 2171167
2249.739 1042.1671 3867.7883 2302755
2293.3762 1051.6682 3903.0498 2302753
2180.8875 990.09998 3674.552 2302753
2307.4766 1037.215 3849.4094 2434339
2336.2903 1039.8876 3859.3281 2302753
2268.2285 999.80682 3710.5767 2565925
2383.3994 1040.4871 3861.5527 2500132
2542.3923 1099.3423 4079.9822 2434339
2293.6672 982.4502 3646.1614 2500132
2322.4897 985.51288 3657.5278 2631461
2336.2244 982.17584 3645.1431 2697254
2542.6101 1059.1508 3930.8193 2565668
2556.0361 1055.0784 3915.7058 2697254
2399.6526 981.61591 3643.0649 2631461
2448.2886 992.58228 3683.7644 2499875
2442.8433 981.62305 3643.0913 2565668
2489.7815 991.72095 3680.5676 2631461
2498.9958 986.74786 3662.1111 2631461
2501.582 979.26587 3634.3433 2631461
2526.0742 980.41364 3638.6028 2631461
2577.6396 991.96057 3681.457 2565668
2596.2231 990.72778 3676.8818 2565668
2617.0081 990.34857 3675.4744 2565668
2781.7017 1043.9851 3874.5354 2697254
2663.9438 991.60614 3680.1416 2763047
2677.281 988.47919 3668.5366 2763047
2846.9595 1042.6605 3869.6194 2697254
2846.0742 1034.0085 3837.5095 2499875
2850.4512 1027.3904 3812.9475 2236703
3022.3774 1080.7914 4011.1343 2302496
2942.8462 1044.1403 3875.1113 2236703
2963.6472 1043.3796 3872.2883 2368289
2988.3523 1043.9946 3874.5708 2368289
2820.7976 977.94543 3629.4426 2368289
3113.5388 1071.2688 3975.7932 2236703
3075.2358 1050.1442 3897.3933 2236703
2874.0645 974.13202 3615.29 2236703
2902.5894 976.52167 3624.1587 2368289
2936.0483 980.52399 3639.0125 2434082
2940.2959 974.78357 3617.7083 2631461
2954.876 972.52698 3609.3333 2302496
3277.6282 1071.0015 3974.8013 2236703
3207.9299 1040.7483 3862.5225 2170910
3278.6895 1056.1696 3919.7554 2170910
3253.8665 1040.8002 3862.7153 2170910
3185.6299 1011.8562 3755.2957 2170910
3185.6133 1004.8322 3729.2273 2368289
3359.0112 1052.2279 3905.1267 2368289
3290.9514 1023.8548 3799.8257 2368289
3301.0276 1020.0109 3785.5603 2302496
3261.7354 1001.0674 3715.2551 2105117
3337.8953 1017.5739 3776.5156 2039324
3401.967 1030.2 3823.3748 2039324
3292.0876 990.33069 3675.4082 2170910
3341.2178 998.5047 3705.7444 1907738
3460.1873 1027.3068 3812.6372 2039324
3547.3906 1046.3652 3883.3689 1973531
3521.4131 1032.0085 3830.0869 2039324
3578.9329 1042.1492 3867.7217 2105117
3742 1082.6996 4018.2161 2302496
3787.0935 1088.819 4040.9268 2434082
3718.7104 1062.4409 3943.0303 2236703
3337.5554 947.59076 3516.7876 2236702
3350.3669 945.32587 3508.3821 2302496
0 0 0 0
0 0 0 0
0 0 0 0
0 0 0 0
0 0 0 0
0 0 0 0
-3422.3237 1047.49 3803.8921 5527625
-3352.8174 1033.0193 3751.3423 5132611
-3327.8882 1032.1815 3748.3003 4803901
-3350.2646 1046.1034 3798.8569 5263683
-3359.8242 1056.1847 3835.4663 5527112
-3283.2532 1039.1431 3773.5806 5856077
-3240.9607 1032.7913 3750.5144 5330246
-3223.4607 1034.3068 3756.0178 5922127
-3175.3601 1025.9563 3725.6941 5856591
-3114.7869 1013.431 3680.2087 5856591
-3078.3601 1008.6406 3662.8127 5856591
-3033.645 1001.0472 3635.2383 5725007
-2966.219 985.79749 3579.8596 5658957
-2979.9453 997.49268 3622.3298 66048
-2925.2983 986.3045 3581.7007 264193
-2878.3574 977.56989 3549.9817 790280
-2768.5581 947.20117 3439.6997 1447955
-2717.7954 936.72986 3401.6738 1842713
-2668.481 926.60492 3364.9058 1645334
-2618.7004 916.16455 3326.9924 1447955
-2564.312 903.94141 3282.6047 987405
-2476.8059 879.76801 3194.8206 658440
-2505.9497 896.97571 3257.3091 197890
-2393.8167 863.48962 3135.7065 0
-2399.552 872.32928 3167.8074 66305
-2321.4277 850.58179 3088.8325 132097
-2279.6895 841.9267 3057.4021 197890
-2254.3088 839.22229 3047.5813 197890
-2241.918 841.34906 3055.3047 263683
-2209.8574 836.06879 3036.1296 263683
-2189.2551 835.07251 3032.5117 329476
-2164.8022 832.57874 3023.4556 329476
-2133.041 827.20923 3003.9565 329476
-2104.4006 822.9696 2988.5608 329477
-2097.9272 827.40057 3004.6516 395269
-2068.4543 822.75903 2987.7961 395269
-2058.0688 825.69519 2998.4585 461062
-2042.3622 826.52899 3001.4866 395269
-2010.3838 820.73462 2980.4446 395269
-1975.5327 813.65436 2954.7332 461062
-1976.277 821.23901 2982.2761 461062
-1949.9114 817.59351 2969.0376 461063
-2085.5789 882.44025 3204.5247 395269
-1935.4312 826.43463 3001.1438 461062
-1925.6594 829.88721 3013.6816 66048
-1904.547 828.47125 3008.5396 461062
-1883.9955 827.27478 3004.1948 724234
-1854.9458 822.28833 2986.0869 526855
-1829.8547 818.97754 2974.064 724234
-1812.1838 818.95569 2973.9846 724234
-1779.2479 811.96722 2948.6062 461062
-1774.6283 817.8905 2970.1162 592136
-1745.4542 812.50238 2950.5496 461062
-1728.0673 812.54755 2950.7139 329476
-1698.6323 806.87073 2930.0989 395013
-1695.4272 813.66492 2954.7715 329477
-1640.1189 795.33478 2888.2068 263683
-1623.3226 795.49036 2888.7715 263681
-1602.1331 793.47339 2881.4473 197889
-1574.02 787.9472 2861.3792 592645
-1552.1134 785.44135 2852.2793 658439
-1534.2207 784.93396 2850.4368 724232
-1701.8521 880.38904 3197.0757 724232
-1681.1538 879.47131 3193.7432 724232
-1483.5486 784.93274 2850.4326 724232
-1692.6218 905.86475 3289.5891 592389
-1582.1816 856.62372 3110.7734 395010
-1565.0175 857.3186 3113.2969 263424
-1520.1433 842.66931 3060.0991 197632
-1493.6243 837.96417 3043.0125 131840
-1565.7275 889.1499 3228.8904 256
-1452.4392 835.01898 3032.3171 256
-1439.454 837.91925 3042.8496 256
-1336.5266 787.87299 2861.1096 395267
-1387.2284 828.26752 3007.7998 526853
-1377.22 832.99371 3024.9626 526853
-1377.0082 843.84808 3064.3796 526853
-1351.9771 839.57959 3048.8789 526853
-1346.9745 847.80182 3078.7373 592646
-1318.7921 841.45972 3055.7065 526853
-1304.6233 844.00708 3064.957 526853
-1289.551 846.03357 3072.3159 526853
-1279.7261 851.60992 3092.5662 526853
-1236.3358 834.68744 3031.1133 592646
-1240.0206 849.5163 3084.9634 592646
-1224.5953 851.50104 3092.1709 526853
-1216.2552 858.54742 3117.7595 526853
-1199.6178 859.86383 3122.5398 526853
-1187.8256 864.74884 3140.2793 526853
-1171.2661 866.26355 3145.78 526853
-1155.9769 868.7818 3154.9248 526853
-1145.3511 874.94525 3177.3071 526853
-1128.5951 876.55371 3183.1479 526853
-1120.6283 885.15906 3214.3979 526853
-1104.2727 887.32141 3222.2502 461060
-1089.8295 891.12354 3236.0574 526853
-1077.5173 896.83557 3256.8003 461060
-1064.2365 901.935 3275.3184 461060
-1055.7107 911.32855 3309.4304 461060
-1045.3113 919.42969 3338.8491 526596
-1030.795 924.1524 3355.9995 526595
-1019.0191 931.56616 3382.9221 526595
-1007.1985 939.23578 3410.7739 592388
-984.96942 937.31458 3403.7971 723974
-974.12451 946.37292 3436.6919 658181
-960.57037 953.12976 3461.229 723974
-949.87817 963.08319 3497.3743 592389
-948.88501 983.53381 3571.6394 723975
-934.56482 990.7887 3597.9851 256
-912.24884 989.7077 3594.0593 256
-894.4129 993.55151 3608.0178 256
-877.50891 998.64429 3626.512 256
-865.47815 1009.6778 3666.5793 131584
-837.14307 1001.7689 3637.8591 460803
-821.96136 1009.5981 3666.29 658182
-803.00293 1013.0876 3678.9619 395010
-787.87512 1021.7394 3710.3804 65792
-775.6062 1034.7018 3757.4524 0
-760.99744 1045.2167 3795.6367 0
-752.87396 1065.5508 3869.4788 1250576
-742.02075 1083.1775 3933.4888 3158828
-715.11163 1077.7494 3913.7771 3685172
-685.98187 1068.4987 3880.1836 3750965
-655.93335 1057.1255 3838.8828 3816245
-642.71216 1073.0291 3896.6355 4145979
-615.34229 1065.616 3869.7153 4408895
-597.09766 1074.0432 3900.3181 4540481
-572.85443 1071.9244 3892.6243 4606274
-551.69104 1075.6327 3906.0903 4737860
-529.26605 1077.0983 3911.4126 4869446
-504.33981 1073.3748 3897.8909 4737860
-483.42056 1078.2311 3915.5261 4737090
-463.19351 1085.1987 3940.8289 4737347
-439.67822 1084.7935 3939.3572 4737347
-417.11972 1086.8357 3946.7732 4803140
-395.46643 1091.6191 3964.144 4803140
-368.96414 1082.7767 3932.0332 4934726
-346.92871 1086.7343 3946.4048 5132105
-322.68539 1083.848 3935.9238 5132105
-301.32727 1090.958 3961.7434 4934726
-278.56836 1093.7694 3971.9526 4934725
-254.82205 1092.865 3968.6682 4276797
-230.21613 1087.7151 3949.9668 2499872
-205.06519 1078.5331 3916.623 855050
-176.87106 1048.9595 3809.2285 855048
-154.65965 1051.4055 3818.1111 789768
-134.77609 1073.2266 3897.3525 789768
-112.88441 1084.7743 3939.2874 789514
-90.423935 1095.4519 3978.0627 986893
-66.173355 1084.3264 3937.6609 1118479
-43.069546 1090.1077 3958.6553 1118479
-19.419069 1079.3331 3919.5281 1052686
3.8463259 1090.8527 3961.3606 1118479
27.324619 1091.0778 3962.1785 1184272
50.308666 1080.48 3923.6931 1250065
73.116455 1073.9923 3900.1338 1184272
96.288536 1074.6869 3902.6558 1315858
119.4256 1074.7972 3903.0566 1315858
142.05467 1071.0417 3889.4185 1315858
164.49472 1067.1084 3875.135 1316115
186.78743 1063.2999 3861.3049 1447444
210.5611 1067.8331 3877.7666 1513237
233.21503 1066.3545 3872.3972 1644823
256.68262 1068.5278 3880.2896 1644823
279.98737 1069.7217 3884.6248 1644823
303.15439 1070.2479 3886.5359 1776409
326.48904 1071.2499 3890.1746 1776409
350.54718 1074.3369 3901.3848 1842202
372.56445 1071.1743 3889.9001 1907995
398.70615 1079.5476 3920.3071 1907995
424.142 1085.1929 3940.8076 1973788
448.38263 1087.3506 3948.6433 2039581
466.24051 1074.5835 3902.2803 1973788
490.88651 1077.9287 3914.4282 1907995
519.18451 1088.6296 3953.2881 1973788
525.14136 1053.5839 3826.0215 2105374
559.54388 1076.1472 3907.959 2039581
584.67352 1079.7917 3921.1938 2171167
612.14044 1087.3092 3948.4932 2171167
610.3158 1044.1598 3791.7988 2500132
633.6405 1045.5736 3796.9326 1907995
667.23627 1063.2576 3861.1511 2105374
680.05664 1047.7604 3804.8743 2105373
721.93591 1076.5923 3909.5752 2302753
745.19696 1076.7299 3910.075 2302753
760.4032 1065.5718 3869.5549 2368546
772.06354 1050.2434 3813.8909 2434593
792.27032 1047.082 3802.4106 2500386
811.86804 1043.3129 3788.7229 2565923
833.92426 1042.8207 3786.9358 2500130
859.37457 1046.4875 3800.2517 2368547
883.38904 1048.2633 3806.7002 2368546
897.34698 1038.3143 3770.571 2236960
939.53973 1060.7253 3851.9553 2236960
954.25195 1051.7841 3819.4856 2171167
978.9516 1054.0103 3827.5698 2236960
988.26318 1039.9429 3776.4851 2171167
1016.0793 1045.5396 3796.8088 2171167
1038.3417 1045.3026 3795.9487 2236960
1039.1722 1023.9579 3718.4368 2105374
1061.3105 1024.0592 3718.8047 2105374
1082.022 1022.8077 3714.26 1907995
1101.8446 1020.7827 3706.906 2828840
1112.7118 1010.7023 3670.3 2170910
1145.0131 1020.1042 3704.4426 2105117
1175.1223 1027.2365 3730.3428 2039324
1194.2229 1024.6595 3720.9851 2170910
1231.379 1037.3873 3767.2051 2236703
1267.1144 1048.4863 3807.51 2302496
1285.0972 1044.7642 3793.9934 2302496
1310.697 1047.2563 3803.0435 2434082
1288.9526 1012.475 3676.7375 2697254
1328.4617 1026.165 3726.4517 2434082
1343.3668 1020.713 3706.6531 2039324
1362.0725 1018.2775 3697.8086 2105117
1399.137 1029.4266 3738.2964 2236702
1421.3558 1029.4761 3738.4753 2368289
1411.3965 1006.575 3655.3118 2828840
1436.1458 1008.7454 3663.1934 2631461
1457.4535 1008.4699 3662.1931 2434082
1510.6927 1029.973 3740.2803 1710359
1510.0286 1014.6349 3684.5811 2105117
1555.3127 1030.1682 3740.989 2039324
1587.5175 1036.7234 3764.7937 2039324
1620.0638 1043.3169 3788.7378 1907738
1666.8373 1058.7672 3844.8447 2170910
1654.5336 1036.7812 3765.0039 2368289
1678.0303 1037.5155 3767.6704 2368289
1697.3561 1035.6855 3761.0249 2368289
1700.3214 1024.0496 3718.7695 2302496
1710.8271 1017.1945 3693.876 2302496
1697.4553 996.49542 3618.7085 2302496
1725.7677 1000.4781 3633.1716 2434082
1749.3074 1001.63 3637.3545 2302495
1812.9746 1025.4507 3723.8577 2302495
1867.3868 1043.5266 3789.4993 2170910
1891.7146 1044.5612 3793.2561 2236703
1902.1655 1037.9989 3769.4255 2105117
1954.3717 1054.11 3827.9319 2368288
1961.5557 1045.8468 3797.9248 2368289
2042.4043 1076.6014 3909.6086 2302496
2028.0179 1057.0288 3838.5317 2236703
2080.4343 1072.3225 3894.0698 2171167
2050.4829 1045.2913 3795.9077 2171166
2251.0083 1135.064 4121.9111 2236959
2147.4419 1071.2179 3890.0583 2236960
2225.2263 1098.2313 3988.156 2236959
2195.9512 1072.3944 3894.3308 2105374
2178.9971 1053.0491 3824.0796 2171167
2210.8689 1057.4556 3840.0813 2302753
2206.2051 1044.4752 3792.9441 2302755
2258.1348 1058.2794 3843.073 2236960
2222.5295 1031.194 3744.7144 2236960
2154.697 989.83936 3594.5376 2434339
2250.8931 1023.9092 3718.26 2565925
2189.4727 986.31543 3581.7405 2631718
2234.4524 996.91455 3620.2307 2697511
2372.7532 1048.5519 3807.7483 2697511
2373.2507 1038.8929 3772.6726 2631718
2391.4954 1037.1106 3766.2002 2762790
2305.2791 990.47882 3596.8596 2763047
2489.7771 1059.9503 3849.1406 2631461
2482.9048 1047.4296 3803.6724 2631461
2364.895 988.67175 3590.2974 2631461
2494.0342 1033.364 3752.5945 2631461
2408.6467 989.1662 3592.0928 2763047
2550.9683 1038.4373 3771.0178 2697254
2598.5149 1048.6074 3807.9497 2763047
2456.1904 982.64099 3568.3972 2763047
2616.6436 1037.8982 3769.0603 2763047
2671.3213 1050.6193 3815.2559 2763047
2511.345 979.41266 3556.6736 2499875
2561.6125 990.703 3597.6736 2368289
2582.9302 990.703 3597.6736 2434082
2575.6584 979.82709 3558.1785 2763047
2599.1995 980.75433 3561.5457 2763047
2834.6418 1060.9791 3852.8772 2763047
2669.2278 991.08423 3599.0583 2631461
2828.1897 1041.7834 3783.1692 2499875
2879.6685 1052.4044 3821.7388 2499875
2876.3853 1043.0026 3787.5962 2499875
2927.3025 1053.2476 3824.8003 2302496
2963.8008 1058.1871 3842.7383 2302496
2754.0908 975.81616 3543.613 2302496
2800.6873 984.81757 3576.3013 2368289
2815.0195 982.42389 3567.6086 2302496
2802.0515 970.60931 3524.7048 2302496
2859.2861 983.10736 3570.0906 2368289
2880.4404 983.10736 3570.0906 2434082
3208.2334 1087.0016 3947.3757 2499875
2877.3523 967.83759 3514.6396 2499875
2894.3499 966.5592 3509.9971 2499875
2915.1479 966.5592 3509.9971 2631461
2927.6096 963.8147 3500.0305 2499875
2949.0667 964.04944 3500.8828 2565668
3170.3572 1029.15 3737.2917 2499875
3087.4324 995.27924 3614.292 2434082
3176.2627 1016.8615 3692.6665 2565668
3271.7146 1040.2538 3777.6143 2499875
3265.5173 1031.2281 3744.8379 2368289
3231.4177 1013.5723 3680.7222 2236703
3229.5193 1006.1858 3653.8984 2236703
3340.4788 1033.8254 3754.27 1907738
3513.3306 1080.1273 3922.4121 2105117
3338.5042 1019.6339 3702.7346 2170910
3342.0356 1014.0484 3682.4512 2368289
3341.384 1007.2742 3657.8508 2499875
3198.5085 957.98969 3478.8774 2368289
3221.3054 958.63934 3481.2366 2434082
3208.4136 948.7276 3445.2429 2434082
3252.7925 955.7691 3470.8137 2302496
3247.6052 948.24963 3443.5071 2236703
3767.7444 1093.2533 3970.0786 2236703
3774.2063 1088.3333 3952.2117 2236703
0 0 0 0
0 0 0 0
0 0 0 0
0 0 0 0
0 0 0 0
0 0 0 0
0 0 0 0
-3239.2375 1019.4999 3624.262 1711119
-3237.6868 1025.8127 3646.7039 2369048
-3191.6682 1018.0267 3619.0249 2566427
-3135.947 1007.0196 3579.8953 3816494
-3120.1716 1008.7774 3586.1443 5000254
-3080.6697 1002.8357 3565.0217 4803389
-3112.002 1020.0295 3626.1448 4803132
-3088.3677 1019.3206 3623.6245 5592649
-3052.334 1014.4807 3606.4189 5132609
-3012.3845 1008.2618 3584.3113 5264194
-2977.0925 1003.5246 3567.4709 4869696
-2911.2964 988.36383 3513.575 4541244
-2963.4771 1013.3253 3602.3115 768
-2923.731 1006.9875 3579.7815 132608
-2850.8621 989.06592 3516.071 197888
-2788.5339 974.56415 3464.5181 263682
-2756.0212 970.34479 3449.5186 197890
-2639.4768 936.25531 3328.3323 132097
-2596.1499 927.81921 3298.3425 395266
-2579.9478 929.02252 3302.6204 855818
-2527.137 916.96106 3259.7424 1053197
-2513.5281 919.04755 3267.1599 395269
-2500.1296 921.24396 3274.968 2040092
-2435.3235 904.38397 3215.0317 1579541
-2376.0173 889.31665 3161.4683 1250576
-2339.0518 882.43811 3137.0154 921612
-2280.9839 867.42456 3083.6431 395270
-2240.0161 858.72394 3052.7129 197891
-2196.3037 848.82092 3017.5083 131841
-2166.4485 844.15472 3000.9204 66305
-2166.1536 851.02478 3025.343 131841
-2094.5366 829.75519 2949.7307 198147
-2095.1069 836.96527 2975.3623 263684
-2098.8984 845.59564 3006.0427 329476
-2079.4336 844.92413 3003.6553 329476
-2053.0786 841.41711 2991.1882 395269
-2032.7522 840.34131 2987.3635 395269
-2172.7295 906.09833 3221.1262 395269
-1978.0813 832.2345 2958.5447 395269
-2092.4014 888.2038 3157.5122 395269
-1962.7554 840.68756 2988.5947 461062
-1943.5367 840.03485 2986.2744 461062
-1928.3201 841.11584 2990.1172 461062
-1913.0668 842.20074 2993.9741 526855
-1891.5856 840.53857 2988.0649 526855
-1878.6312 842.66968 2995.6409 526855
-1850.6641 838.04315 2979.1941 461062
-1830.9205 837.0874 2975.7964 461062
-1800.3533 831.11627 2954.5693 395269
-1801.4148 839.77246 2985.3416 461062
-1752.9651 825.29047 2933.8591 592135
-1740.2673 827.5191 2941.7815 790027
-1730.6948 831.29382 2955.2004 790027
-1686.7126 818.44897 2909.5378 855820
-1660.5721 814.08563 2894.0264 658441
-1652.3942 818.52924 2909.823 526855
-1637.8921 819.9007 2914.6985 658441
-1599.863 809.39874 2877.3647 132098
-1577.1604 806.50787 2867.0879 592648
-1589.0227 821.42194 2920.1067 658439
-1565.9194 818.39044 2909.3298 724232
-1619.0162 855.55902 3041.4617 724232
-1557.9197 832.54022 2959.6313 724232
-1555.8823 840.91736 2989.4116 724232
-1537.9508 840.79822 2988.988 592389
-1534.4835 848.6759 3016.9927 395010
-1583.4851 886.1004 3150.0344 263425
-1504.6388 852.02203 3028.8879 197632
-1511.0621 865.98883 3078.5393 66048
-1466.8256 850.90906 3024.9316 256
-1452.4324 852.98267 3032.303 256
-1439.5242 855.99121 3042.998 256
-1341.6577 807.91602 2872.0938 329730
-1406.842 858.05261 3050.3262 526853
-1479.0154 913.81219 3248.5486 526853
-1364.8495 854.39441 3037.3215 461060
-1344.9794 853.20636 3033.0984 526853
-1325.0797 851.9671 3028.6929 526853
-1298.3757 846.25897 3008.4009 526853
-1289.7085 852.31158 3029.9175 592646
-1272.9578 853.11774 3032.7832 526853
-1276.4983 867.74042 3084.7661 526853
-1248.0762 860.74475 3059.897 526853
-1231.8684 862.09082 3064.6821 526853
-1236.9482 878.5976 3123.3625 592646
-1212.187 874.08783 3107.3308 592646
-1192.9275 873.46741 3105.1252 526853
-1178.9208 876.73401 3116.7375 526853
-1165.4629 880.5191 3130.1936 592646
-1150.5231 883.28894 3140.0403 461060
-1137.9513 887.9978 3156.7798 526853
-1127.3479 894.42566 3179.6304 461060
-1116.7858 901.10535 3203.3762 526853
-1101.8184 904.39996 3215.0886 526853
-1090.9298 911.21753 3239.3245 461060
-1076.6991 915.43768 3254.3269 461060
-1067.2729 923.97131 3284.6633 395267
-1050.1614 926.0448 3292.0347 461060
-1031.7793 927.05518 3295.6265 592389
-1021.2501 935.29651 3324.9238 592389
-1012.6125 945.62854 3361.6538 592388
-1000.8484 953.39703 3389.27 592388
-988.07257 960.5 3414.5208 658181
-978.4176 970.99713 3451.8376 658181
-966.51569 979.66516 3482.6519 658181
-954.56793 988.66388 3514.6418 658181
-957.52332 1013.8437 3604.1545 658182
-936.5061 1014.2106 3605.459 65792
-922.151 1021.9781 3633.0718 256
-905.05109 1027.0022 3650.9321 256
-888.67828 1033.1176 3672.6721 256
-867.68982 1034.0394 3675.949 256
-855.43701 1045.6873 3717.3567 131585
-829.47583 1040.751 3699.8081 0
-814.62817 1049.8693 3732.2231 0
-796.33521 1054.9323 3750.2217 790026
-779.61853 1062.434 3776.8901 2829607
-760.3252 1066.7642 3792.2839 3290414
-731.90582 1058.1639 3761.7104 3158571
-726.16571 1082.8423 3849.4404 2698019
-702.90173 1082.1426 3846.9529 2237468
-676.14813 1075.8435 3824.5601 3026986
-651.23718 1072.1411 3811.3984 3618866
-630.77521 1075.7603 3824.2642 3816758
-606.46387 1072.8396 3813.8813 4277309
-582.93359 1071.1279 3807.7966 4211516
-564.30615 1078.6501 3834.5374 4672067
-543.78528 1083.0323 3850.116 4737860
-520.26648 1081.5659 3844.9033 4606274
-498.98801 1084.8362 3856.5283 4540481
-479.07455 1091.5302 3880.3254 4803140
-455.48288 1090.0961 3875.2275 4868931
-435.07724 1096.5397 3898.134 4934724
-413.41199 1100.3531 3911.6907 5066310
-390.63028 1101.4716 3915.6665 5066311
-367.95523 1103.0509 3921.281 5000517
-344.72006 1103.0509 3921.281 4737604
-322.61615 1106.9324 3935.0793 4210746
-297.93869 1101.9006 3917.1919 1052170
-271.31494 1088.2123 3868.5303 591877
-243.82639 1068.2086 3797.4187 591876
-220.69096 1065.1477 3786.5371 789511
-197.83365 1062.8883 3778.5051 789768
-176.57947 1069.7642 3802.9485 855561
-155.83023 1082.1584 3847.0093 987147
-133.94313 1089.5442 3873.2651 1118733
-110.30254 1082.7716 3849.189 1315858
-88.028984 1089.3854 3872.7007 1250066
-64.98481 1087.7639 3866.9365 1315858
-41.834599 1081.6346 3845.1475 1381651
-19.095415 1084.1816 3854.2019 1513237
3.6981938 1071.4097 3808.7983 1447444
26.307835 1073.0813 3814.7405 1447444
48.665184 1067.6729 3795.5139 1381651
71.034088 1065.8567 3789.0576 1381651
93.99482 1071.6604 3809.6895 1315858
116.23152 1068.5599 3798.6677 1315858
138.16853 1064.1576 3783.0173 1315858
160.47284 1063.418 3780.3882 1315858
183.22064 1065.4387 3787.5715 1579030
206.19368 1068.1851 3797.335 1644823
228.63808 1067.922 3796.3997 1710616
252.46231 1073.5736 3816.491 1710616
274.61136 1071.7582 3810.0369 1842202
295.90475 1067.1326 3793.593 1842202
316.33618 1060.2711 3769.2012 1907995
332.51636 1041.0052 3700.7124 1973788
365.33435 1072.9885 3814.4111 1907995
386.54877 1069.151 3800.7686 1907995
412.00558 1076.8239 3828.0454 1842202
431.64874 1069.2942 3801.2778 1776409
455.38956 1072.1587 3811.4612 1842202
480.84808 1078.6057 3834.3799 1907995
500.24869 1071.4954 3809.1028 1907995
523.28876 1072.4578 3812.5242 2039581
545.23853 1071.1985 3808.0474 2039581
567.25635 1070.1677 3804.3831 1907995
578.53699 1049.7335 3731.7407 2368546
594.93536 1039.7479 3696.2424 2368546
620.64111 1046.1602 3719.0374 2368546
642.55066 1045.9529 3718.301 2236960
675.95337 1063.848 3781.9167 2236960
697.52612 1062.5735 3777.386 2236960
713.99786 1053.8494 3746.3721 2236960
729.65161 1044.4802 3713.0657 2105374
750.72302 1043.188 3708.4717 2039835
773.58679 1044.3889 3712.741 2237214
801.77295 1052.5104 3741.6123 2368800
816.92651 1043.5469 3709.7476 2302496
840.5249 1045.5577 3716.8962 2302753
854.28387 1035.5391 3681.2803 2105374
883.21265 1043.9498 3711.1799 2039324
915.35449 1055.6573 3752.7996 1973531
934.07611 1051.6996 3738.7297 1973788
947.66205 1042.2766 3705.2317 2236960
1000.804 1075.8005 3824.4075 2236960
1030.4733 1083.167 3850.595 2105374
1040.9341 1070.4611 3805.426 1973788
1008.7894 1015.4089 3609.7188 1842202
1030.5476 1015.7728 3611.0122 1907995
1045.7914 1009.8314 3589.8911 2500132
1068.5737 1011.2612 3594.9736 2631718
1090.9736 1012.2802 3598.5964 2039324
1117.7286 1017.2237 3616.1702 2105117
1122.9377 1002.7413 3564.6865 2434082
1152.9224 1010.5092 3592.3005 2368289
1182.606 1017.736 3617.9917 2170910
1203.2581 1017.0718 3615.6301 2236703
1227.5264 1019.4338 3624.0273 2302496
1249.8115 1020.0961 3626.3816 2170910
1271.2711 1020.0734 3626.301 2236446
1299.8844 1025.6964 3646.29 2236703
1307.3619 1014.7305 3607.3071 2170910
1322.0261 1009.6058 3589.0891 2302496
1344.488 1010.5041 3592.2825 2236702
1388.3734 1027.225 3651.7244 2236702
1394.2849 1015.768 3610.9951 2368288
1419.3229 1018.3807 3620.2832 2236703
1432.8624 1012.7883 3600.4023 2105117
1458.8411 1016.0231 3611.9023 2039324
1483.5934 1018.3228 3620.0774 1841945
1551.1954 1049.5492 3731.0857 1973531
1512.9537 1009.2899 3587.9661 1776152
1534.2139 1009.2899 3587.9661 2105117
1613.2017 1046.7473 3721.1248 2170910
1625.1914 1040.3081 3698.2339 2039324
1584.9479 1001.0499 3558.6733 2039324
1591.9634 992.2793 3527.4944 2236703
1613.3506 992.57782 3528.5557 2302495
1627.8091 988.66064 3514.6304 2170910
1747.4684 1047.9297 3725.3281 2105117
1768.2382 1047.1572 3722.5823 2170910
1795.8453 1050.4032 3734.1213 2236703
1808.2672 1044.7961 3714.1887 2170910
1814.8464 1035.9888 3682.8789 2170910
1771.4862 999.22174 3552.1746 2236703
1870.741 1042.817 3707.1528 2236703
1900.9214 1047.3427 3723.2415 2368289
1931.6989 1052.0897 3740.1167 2368289
1923.8397 1035.9244 3682.6504 2368289
1946.3285 1036.2799 3683.9138 2368289
1933.8496 1018.2162 3619.6985 2302753
2016.1871 1049.9241 3732.4185 2368546
2023.309 1042.2007 3704.9619 2368546
2050.4585 1044.8485 3714.3748 2302753
1965.6179 990.97943 3522.8733 2105374
1971.9482 983.72394 3497.0808 1447444
2059.6934 1016.8115 3614.7048 2236960
2117.5732 1034.6262 3678.0352 2368546
2136.905 1033.4355 3673.8022 2434342
2206.7456 1056.4493 3755.6147 2368546
2150.6782 1019.3285 3623.6528 2236960
2102.8843 986.82416 3508.1016 2434339
2229.4543 1035.9794 3682.8455 2565925
2133.3594 981.71686 3489.9453 2434339
2174.2495 990.92798 3522.6904 2565925
2285.7266 1031.8286 3668.0898 2565925
2211.6531 988.9859 3515.7866 2631718
2380.8108 1054.6937 3749.3738 2828840
2382.6494 1045.7498 3717.5789 2763047
2401.1995 1044.2372 3712.2017 2763047
2260.1736 973.98541 3462.4604 2631461
2444.3774 1043.8893 3710.9648 2565668
2326.3105 984.61066 3500.2329 2631461
2326.6909 976.06958 3469.8696 2828840
2345.8162 975.47266 3467.7478 2828840
2392.4548 986.22791 3505.9822 2828840
2388.8064 976.24701 3470.5005 2960426
2413.3201 977.84729 3476.1895 2894633
2436.5564 978.90735 3479.958 2960426
2457.0938 978.87439 3479.8406 2894633
2486.4719 982.33466 3492.1418 2828840
2653.6982 1039.7484 3696.2441 2631461
2546.0642 989.41022 3517.2949 2631461
2564.999 988.67535 3514.6826 2499875
2790.0728 1066.7684 3792.2986 2434082
2578.1086 977.84961 3476.1975 2434082
2618.7908 985.40698 3503.0635 2499875
2620.0554 978.12994 3477.1943 2499875
2640.6592 978.12994 3477.1943 2565668
2657.1487 976.61786 3471.8188 2499875
2686.5876 979.85181 3483.3154 2434082
2701.9331 977.93549 3476.5029 2499875
2711.5781 974.00055 3462.5146 2565668
2731.7617 973.88177 3462.0923 2499875
2771.8569 980.81042 3486.7231 2499875
2766.99 971.84454 3454.8501 2368289
2810.26 979.79321 3483.1072 2499875
2999.9573 1038.3055 3691.115 2499875
3023.3486 1038.8278 3692.9714 2434082
2860.5266 975.81909 3468.9792 2434082
2861.2471 969.1012 3445.0974 2631461
2898.5134 974.76868 3465.2451 2565668
2916.2983 973.85107 3461.9829 2697254
3084.0308 1022.6691 3635.5281 2631461
3034.5654 999.28632 3552.4038 2631461
3101.2964 1014.2256 3605.5122 2565668
2961.6277 961.92285 3419.5791 2631461
2974.8401 959.64868 3411.4944 2368289
3008.2461 963.87537 3426.52 1776152
3017.5566 960.37671 3414.0825 1644566
3058.8335 967.03052 3437.7366 1776152
3039.3652 954.51935 3393.26 1710359
3096.3413 966.02228 3434.1521 1973531
3082.863 955.53748 3396.8794 2039324
3128.0212 963.24542 3424.2805 2565668
3378.8054 1033.7665 3674.9788 2368289
3484.373 1059.2389 3765.5317 2565668
3506.8318 1059.2831 3765.689 2434082
3166.1187 950.3197 3378.3306 2368289
3470.7444 1035.2087 3680.1062 2236702
3638.1177 1078.3557 3833.4907 2236703
3641.9211 1072.7849 3813.687 2236702
0 0 0 0
0 0 0 0
0 0 0 0
0 0 0 0
0 0 0 0
0 0 0 0
0 0 0 0
-3052.0674 980.82532 3414.8445 132352
-3061.5471 990.43817 3448.3125 131840
-3061.4111 997.04846 3471.3267 197632
-3034.3142 994.90808 3463.8748 329217
-3009.8093 993.59412 3459.3 2302998
-3019.3396 1003.5749 3494.0493 2369049
-3033.1665 1015.1315 3534.2849 2369048
-2977.4011 1003.3958 3493.426 4145714
-2941.7683 998.32825 3475.7825 3619369
-2933.3865 1002.5023 3490.3149 3290404
-2962.3281 1019.5817 3549.7788 4277816
-2959.9172 1026.0372 3572.2544 4277305
-2957.7888 1032.6843 3595.397 0
-2823.2104 992.84882 3456.7053 66560
-2773.0928 982.35065 3420.155 66304
-2737.6196 976.92395 3401.2612 66304
-2690.7207 967.30914 3367.7861 66304
-2650.8801 960.10699 3342.7114 66305
-2616.6841 954.85632 3324.4307 132097
-2579.4683 948.41559 3302.0066 132097
-2547.1597 943.69452 3285.5698 132097
-2522.1006 941.6073 3278.3027 132097
-2472.2441 930.15778 3238.4402 197890
-2409.0562 913.47418 3180.3545 461062
-2375.1189 907.70624 3160.2727 263684
-2348.8931 904.81714 3150.2141 1053199
-2292.5767 890.19781 3099.3154 1579543
-2277.2786 891.39825 3103.4946 1711129
-2240.1194 883.99133 3077.7068 1579543
-2235.6343 889.46252 3096.7551 987406
-2251.248 903.08673 3144.1895 256
-2181.5813 882.44281 3072.3154 461062
-2151.0815 877.42761 3054.8547 263426
-2122.5823 873.15033 3039.9626 66049
-2097.7585 870.32465 3030.1248 512
-2068.8411 865.73712 3014.1528 132097
-2049.0454 864.9201 3011.3086 263683
-2021.4689 860.77551 2996.8784 197891
-1964.3221 843.85431 2937.9656 329476
-1976.4807 856.66968 2982.5835 395269
-2044.8196 894.28632 3113.5498 395269
-1932.0925 852.6792 2968.6902 461062
-1919.0513 854.70538 2975.7449 395269
-1891.6884 850.33148 2960.5166 461062
-1883.6354 854.6369 2975.5063 461062
-1844.4443 844.76239 2941.1272 461062
-2010.5834 929.63837 3236.6318 461062
-1835.3085 856.76855 2982.928 461062
-1812.9475 854.55975 2975.2378 461062
-1796.2927 855.02368 2976.853 461062
-1759.8174 845.96893 2945.3279 591879
-1741.4592 845.52905 2943.7964 526855
-1710.1545 838.73077 2920.1277 526855
-1680.1429 832.43433 2898.2056 461062
-1659.358 830.62622 2891.9106 461062
-1632.6466 825.78284 2875.0481 658439
-1610.798 823.32288 2866.4834 658440
-1593.8129 823.32288 2866.4834 658441
-1573.8441 821.76495 2861.0593 592647
-1554.8226 820.6731 2857.2581 658439
-1698.9325 906.60986 3156.4556 658439
-1602.7836 864.8222 3010.9673 724232
-1583.1703 863.85522 3007.6008 724232
-1538.7354 849.16809 2956.4661 724232
-1520.793 848.93146 2955.6421 592389
-1529.3025 863.62701 3006.8064 395010
-1525.3992 871.57666 3034.4839 263424
-1510.9268 873.60498 3041.5459 197632
-1602.0773 937.48993 3263.9678 131584
-1488.7036 881.79187 3070.0493 256
-1458.4865 874.58057 3044.9424 256
-1418.5326 861.27686 2998.624 256
-1356.3395 833.96155 2903.5229 263681
-1408.8446 877.37415 3054.6682 526853
-1379.7917 870.46436 3030.6113 526853
-1371.9612 876.93738 3053.1479 526853
-1348.322 873.34381 3040.6365 592646
-1325.7367 870.34467 3030.1946 526853
-1305.7853 869.01617 3025.5691 526853
-1289.2593 869.96191 3028.8621 526853
-1274.0504 871.83582 3035.3862 526853
-1260.8506 875.15784 3046.9521 526853
-1247.7964 878.67889 3059.2112 526853
-1235.3043 882.70551 3073.23 526853
-1219.6049 884.52637 3079.5696 526853
-1203.7412 886.28168 3085.6809 526853
-1190.119 889.76691 3097.8152 526853
-1177.7446 894.30884 3113.6282 461060
-1161.1747 895.75879 3118.6763 526853
-1152.0835 903.11823 3144.2991 461060
-1139.1011 907.61902 3159.9692 461060
-1153.5286 934.47516 3253.4717 461060
-1119.7874 922.55939 3211.9856 526853
-1105.8518 926.83124 3226.8582 526853
-1075.4554 917.21442 3193.3765 461060
-1081.4696 938.8623 3268.7458 461060
-1056.197 933.64349 3250.5759 461060
-1048.3804 943.94775 3286.4514 461060
-1035.9476 950.40729 3308.9407 526596
-1026.0353 959.47272 3340.5029 592389
-1014.2526 967.11157 3367.0984 526596
-1004.6258 977.15393 3402.0618 658181
-1004.6516 997.18823 3471.8135 658181
-997.18353 1010.4666 3518.0435 658181
-986.34381 1020.8225 3554.0986 658181
-975.52277 1031.65 3591.7957 592388
-960.54633 1038.468 3615.5332 592389
-941.02026 1040.566 3622.8379 256
-926.66913 1048.6182 3650.8721 256
-912.92267 1057.7557 3682.6855 0
-897.52625 1065.3823 3709.2383 0
-882.14636 1073.412 3737.1943 0
-863.88251 1078.2554 3754.0571 526855
-839.71289 1075.7888 3745.4697 2237726
-822.91284 1082.886 3770.1792 3224621
-792.43164 1071.8737 3731.8384 3553586
-772.88885 1075.4495 3744.2881 3487793
-751.65222 1076.8103 3749.0256 3619379
-729.39069 1076.7407 3748.7837 3948344
-704.64911 1072.8907 3735.3796 4014137
-686.59027 1079.2963 3757.6809 4211516
-661.71228 1075.0522 3742.9053 4277309
-644.64062 1083.6365 3772.7917 4408382
-619.95447 1079.5774 3758.6599 4343102
-596.67047 1077.7488 3752.2935 4343102
-577.59979 1083.6833 3772.9553 4211516
-555.8056 1084.7804 3776.7747 3882551
-532.4364 1082.7666 3769.7634 3882551
-511.01001 1084.7003 3776.4958 3224621
-492.18021 1092.5752 3803.9128 3487794
-472.19934 1098.5281 3824.6384 4737347
-454.28854 1110.1398 3865.0659 5066310
-433.37369 1115.2538 3882.8708 5263689
-410.6756 1116.0948 3885.7991 5000517
-388.42322 1118.3192 3893.5432 3421229
-368.14954 1126.881 3923.3518 1381648
-342.31915 1118.4417 3893.97 395012
-304.77991 1067.762 3717.5234 789768
-282.36087 1066.2847 3712.3799 855050
-262.59952 1075.4419 3744.2617 723721
-241.77536 1081.5349 3765.4753 723721
-219.00264 1079.2642 3757.5696 855307
-197.22118 1081.9175 3766.8071 1118479
-175.36485 1084.7848 3776.7898 1184272
-152.00211 1077.8092 3752.5037 1315858
-130.49631 1083.8666 3773.593 1315858
-108.10581 1083.5614 3772.5305 1381651
-85.701859 1082.927 3770.322 1315858
-62.97588 1076.3417 3747.3945 1381651
-40.530056 1069.9792 3725.2429 1447444
-18.302691 1061.0626 3694.199 1447444
3.6070173 1067.0071 3714.895 1513237
25.61578 1066.8621 3714.3901 1447444
47.517117 1064.4446 3705.9734 1447444
69.213341 1060.4128 3691.9365 1381651
91.329124 1063.2018 3701.6465 1447444
113.91197 1069.2949 3722.8604 1447444
135.53951 1065.8983 3711.0349 1447444
157.28899 1064.2753 3705.3838 1447444
179.4236 1065.3364 3709.0784 1579030
201.62096 1066.4979 3713.1223 1644823
225.06319 1073.3679 3737.0408 1710616
247.75935 1075.7677 3745.3958 1776409
269.00357 1071.9869 3732.2327 1710616
288.94946 1063.9996 3704.4243 1710616
311.04657 1064.5023 3706.1746 1776409
332.03119 1061.3827 3695.313 1644823
358.52847 1075.1805 3743.3518 1973788
375.82288 1061.3805 3695.3057 1973788
399.25269 1065.4733 3709.5549 1842202
421.56039 1066.3007 3712.4353 1973788
442.07425 1062.7336 3700.0166 1907995
462.92184 1060.2681 3691.4326 2302753
482.6702 1055.6208 3675.2527 2105374
512.44135 1072.349 3733.4934 2105374
537.2345 1077.7064 3752.1458 1907995
556.99634 1072.9463 3735.5728 2039581
581.28815 1076.9426 3749.4863 2105374
600.26099 1071.1531 3729.3296 2171167
624.96021 1075.6305 3744.9182 2302753
634.64923 1054.8524 3672.5771 2302753
658.02667 1057.4492 3681.6182 2368546
679.24927 1056.5276 3678.4097 2171167
701.77612 1057.6289 3682.2439 2105374
724.67767 1059.2115 3687.7542 1907995
746.00702 1058.4708 3685.175 2039581
771.24689 1063.1628 3701.511 2039581
787.34198 1055.3379 3674.2676 1973788
806.18414 1051.5171 3660.9651 1907995
822.96039 1045.2727 3639.2244 2039581
854.34033 1057.422 3681.5234 2105374
868.96442 1048.7439 3651.3098 2236960
895.30597 1054.2856 3670.6042 2236960
930.41321 1069.642 3724.0686 2171167
923.5567 1037.1611 3610.9832 2171167
935.52222 1026.8098 3574.9441 2171167
956.48126 1026.5696 3574.1074 2171167
971.0072 1019.5846 3549.7888 2105373
996.10638 1023.7628 3564.3352 2171167
1015.0515 1021.5738 3556.7141 2368546
1035.6602 1021.1139 3555.1133 2434339
1047.2921 1011.9984 3523.3767 2499875
1062.4347 1006.5651 3504.46 2499875
1091.2748 1014.0687 3530.5845 2499875
1104.0522 1006.6444 3504.7361 2434082
1124.0952 1005.9965 3502.4802 2434082
1191.3776 1046.882 3644.8271 2236703
1222.8677 1055.4204 3674.5547 2105117
1258.0002 1066.7487 3713.9954 2105117
1208.8496 1007.4465 3507.5288 2236703
1307.0947 1070.9113 3728.4878 2170910
1310.6978 1056.0143 3676.6223 2039324
1282.5298 1016.4254 3538.7898 2170910
1293.1964 1008.3922 3510.821 2960426
1299.5205 997.2807 3472.1355 2565668
1332.0492 1006.3121 3503.5793 2302496
1346.4449 1001.5779 3487.0967 2302496
1381.9562 1012.4565 3524.9717 2434082
1426.066 1029.2169 3583.3247 2105117
1462.7748 1040.2225 3621.6416 2105117
1443.1923 1011.4581 3521.4956 2236703
1458.5697 1007.6662 3508.2935 2236703
1465.8539 998.46796 3476.269 2302496
1539.093 1033.8274 3599.3765 2105117
1591.5385 1054.4438 3671.1548 2039324
1577.6704 1031.1619 3590.0964 1973531
1590.8972 1025.9731 3572.031 1973531
1616.9097 1029.0577 3582.7705 2236702
1592.625 1000.4664 3483.2268 2302496
1742.5537 1080.6453 3762.3777 2368289
1694.6755 1037.6779 3612.7825 2302496
1713.3595 1036.0312 3607.0493 2170910
1750.1479 1045.2375 3639.1021 2302496
1759.1262 1037.813 3613.2527 2170909
1698.6449 990.08136 3447.0703 1973531
1895.9384 1091.9469 3801.7256 2105117
1924.214 1095.219 3813.1177 2105117
1885.136 1060.524 3692.3235 1973531
1775.182 987.20959 3437.0718 2039324
1925.3563 1058.5795 3685.5535 2236703
1883.911 1024.1758 3565.7734 2302496
2084.0632 1120.4213 3900.8621 2171167
1930.9984 1026.7439 3574.7148 2236960
2016.4335 1060.538 3692.3718 2302753
1889.3671 983.04144 3422.5601 2302753
1931.5663 994.32489 3461.8445 2368546
1943.708 990.06091 3446.999 2434339
1970.8455 993.44452 3458.7793 2302753
2071.5828 1033.4762 3598.1538 2434339
1998.4626 986.84137 3435.7898 2434340
2136.3887 1044.3109 3635.876 2302753
2159.0474 1044.8502 3637.7537 2368546
2073.8677 993.70752 3459.6951 2697511
2225.8335 1056.0836 3676.864 2631718
2246.9451 1055.7664 3675.7593 2631718
2252.5859 1048.2556 3649.6101 2565925
2287.9783 1054.6014 3671.7034 2565925
2310.4988 1054.9503 3672.918 2631718
2291.7834 1036.6405 3609.1707 2631718
2326.7314 1042.7184 3630.3313 2697254
2192.1702 973.41571 3389.0469 2828840
2220.229 976.92584 3401.2678 2894633
2227.9387 971.49951 3382.3755 2828840
2244.2292 969.87836 3376.7312 2763047
2304.6675 987.19623 3437.0254 2828840
2312.7649 981.98706 3418.8892 2763047
2315.9807 974.81384 3393.9146 2894633
2361.4126 985.38013 3430.7024 3026219
2351.7129 972.95685 3387.4495 2960426
2379.7319 976.21686 3398.7996 2828840
2401.1482 976.73633 3400.6082 3026219
2426.4595 978.81836 3407.8569 2828840
2736.0044 1094.5778 3810.8853 2763047
2540.4192 1008.0118 3509.4968 2763047
2483.6489 977.4845 3403.2129 2697254
2652.1631 1035.3995 3604.8501 2631461
2547.1956 986.47546 3434.5159 2565668
2563.1323 984.77954 3428.6113 2697254
2584.9795 985.36316 3430.6433 2631461
2577.2188 974.73975 3393.6567 2565668
2626.3132 985.61761 3431.5291 2565668
2612.4111 972.86835 3387.1414 2631461
2628.0337 971.22473 3381.4187 2697254
2644.2654 969.82928 3376.5603 2565668
2666.3679 970.59192 3379.2156 2565668
2712.0754 979.87164 3411.5239 2499875
2731.1633 979.46747 3410.1169 2434082
2825.8054 1005.9661 3502.3745 2434082
2757.2935 974.42017 3392.5439 2434082
2940.5532 1031.6622 3591.8384 2499875
2793.8711 973.15686 3388.1458 2434082
2829.9404 978.68787 3407.4023 2302496
2917.6934 1001.8878 3488.1753 2434082
2954.7795 1007.4855 3507.6646 2499875
2980.0808 1009.0149 3512.9893 2631461
2973.3013 999.73633 3480.6851 2631461
3030.3308 1011.8929 3523.009 2631461
3054.2913 1012.9159 3526.571 2631461
3141.4158 1034.7305 3602.5205 2697254
2961.1082 968.75726 3372.8279 2697254
2987.6946 970.9024 3380.2966 2763047
2962.4341 956.28259 3329.3962 2894633
3007.5781 964.43262 3357.7715 2697254
3011.9333 959.48193 3340.5352 2170910
3085.8884 976.62286 3400.2129 1973531
3048.0879 958.40234 3336.7764 2170910
3252.6858 1016.1423 3537.804 2170909
3351.9834 1040.4573 3622.4592 2170910
3584.4944 1105.5494 3849.084 2236703
3124.0083 957.43195 3333.3977 2434082
3147.0156 958.42334 3336.8496 2302496
3443.8464 1042.2747 3628.7866 2236703
3502.3545 1053.405 3667.5381 2368289
0 0 0 0
0 0 0 0
0 0 0 0
0 0 0 0
0 0 0 0
0 0 0 0
0 0 0 0
-2919.4773 957.57092 3266.4944 1024
-2915.4717 962.63916 3283.7832 768
-2903.5278 965.13684 3292.3032 768
-2914.3418 975.28406 3326.918 512
-2903.9822 978.43567 3337.6687 66048
-2896.0166 982.4425 3351.3369 131840
-2892.8198 988.13367 3370.751 329728
-2937.5999 1010.4059 3446.7266 1909009
-2888.8088 1000.5803 3413.2092 724482
-2910.1594 1015.082 3462.678 1843217
-2905.2788 1020.5751 3481.416 1053193
-2903.4568 1027.2289 3504.1135 3093030
-2708.5437 965.17169 3292.4224 256
-2706.0786 971.28931 3313.2908 256
-2683.5332 970.23621 3309.6982 256
-2662.5754 969.74579 3308.0254 256
-2640.6313 968.88611 3305.093 256
-2617.5449 967.59149 3300.6768 256
-2592.4849 965.54218 3293.686 512
-2426.0364 910.40387 3105.5967 66304
-2392.5803 904.71143 3086.1785 66304
-2370.594 903.30182 3081.3699 132097
-2448.2747 940.14252 3207.042 132097
-2318.4673 897.26062 3060.762 132097
-2387.5337 931.2746 3176.7915 132097
-2363.0503 929.04944 3169.2012 197890
-2341.6704 928.01862 3165.6846 197890
-2267.8184 906.00824 3090.6021 263683
-2259.479 910.02521 3104.3049 197890
-2240.0159 909.59119 3102.8242 263682
-2239.793 917.02734 3128.1909 855819
-2198.6763 907.70502 3096.3904 1250578
-2149.8059 894.99786 3053.0432 1645336
-2128.679 893.72296 3048.6943 1842715
-2099.4604 889.00006 3032.5833 1579543
-2060.2798 879.94067 3001.6797 1184785
-2026.9637 873.25024 2978.8569 855820
-1998.3553 868.48804 2962.6121 461062
-1987.9993 871.64423 2973.3787 263684
-1970.7747 871.81848 2973.9731 132098
-1950.5599 870.66119 2970.0251 66049
-1922.7152 866.04602 2954.282 197890
-1905.0635 865.97937 2954.0547 461062
-1884.7693 864.69934 2949.688 526855
-1861.4103 861.97601 2940.3982 395269
-1839.1239 859.70264 2932.6431 461062
-1952.2908 921.3078 3142.7925 526855
-1890.5399 900.75897 3072.6958 526855
-1886.8541 907.74493 3096.5264 526855
-1752.2025 851.24316 2903.7861 461062
-1719.3851 843.5838 2877.658 592134
-1738.6465 861.57837 2939.0417 461062
-1722.1801 862.05316 2940.6614 461062
-1692.3308 855.77039 2919.2292 461062
-1644.4907 840.16632 2866.0002 526855
-1626.5828 839.68829 2864.3696 526854
-1608.364 839.03815 2862.1519 526854
-1608.7527 848.18469 2893.3525 592645
-1590.3822 847.53131 2891.1238 592646
-1568.4573 844.94873 2882.3142 592647
-1532.1711 834.48755 2846.6287 724232
-1513.9926 833.76556 2844.1658 658439
-1497.3683 833.89276 2844.5999 658439
-1616.2058 910.32129 3105.3149 658439
-1463.1891 833.62598 2843.6895 658182
-1447.2864 834.17194 2845.552 460803
-1597.7734 931.76331 3178.4585 395010
-1583.975 934.73462 3188.5945 197632
-1493.0676 891.72491 3041.8784 66048
-1471.6814 889.69244 3034.9453 256
-1459.7379 893.3891 3047.5552 256
-1454.2889 901.20264 3074.2092 256
-1410.6616 885.25586 3019.8108 197889
-1402.8505 891.66425 3041.6716 526853
-1382.2949 890.03375 3036.1094 526853
-1360.8365 887.77106 3028.3911 526853
-1335.2306 882.70624 3011.1135 461060
-1318.0037 883.11835 3012.5195 461060
-1307.4843 888.09778 3029.5056 526853
-1289.7987 888.28076 3030.1296 526853
-1274.8378 890.37158 3037.262 526853
-1261.3013 893.53156 3048.0413 526853
-1245.6222 895.24335 3053.8806 461060
-1229.7524 896.86658 3059.4177 526853
-1217.2545 901.03424 3073.6348 461060
-1203.6794 904.5191 3085.5225 526853
-1190.9913 908.78839 3100.0857 461060
-1178.587 913.41119 3115.8555 526853
-1163.9575 916.42926 3126.1506 461060
-1152.3092 921.92999 3144.915 461060
-1139.9718 927.05127 3162.3848 461060
-1132.604 936.4527 3194.4551 526853
-1107.1741 930.98578 3175.8062 526853
-1095.4905 937.08844 3196.624 461060
-1085.6862 945.04181 3223.7546 461060
-1076.8154 954.10712 3254.6787 395267
-1061.7539 957.91791 3267.678 461060
-1051.8721 966.63013 3297.3972 461060
-1048.7643 982.01501 3349.8787 526596
-1042.8663 995.33044 3395.3008 526595
-1032.9921 1005.3 3429.3093 592388
-1021.6315 1014.1944 3459.6499 592388
-1007.798 1020.9475 3482.6865 658181
-1001.2486 1035.5166 3532.385 592388
-987.45074 1043.0513 3558.0874 526595
-976.71674 1054.2216 3596.1917 592387
-962.01672 1061.5139 3621.0679 328962
-944.85175 1066.3572 3637.5889 131584
-929.37164 1073.3723 3661.5195 789768
-912.66931 1079.2776 3681.6636 1710870
-895.47009 1084.87 3700.7407 2368800
-872.53235 1083.6165 3696.4644 3355951
-836.37238 1065.4545 3634.51 3422001
-819.836 1071.9918 3656.8101 3487793
-789.03333 1059.7234 3614.96 3750965
-768.36377 1060.7595 3618.4944 3948344
-751.57825 1067.3712 3641.0483 3948344
-727.64221 1063.9186 3629.2705 4079930
-708.43329 1067.3778 3641.0708 4277309
-695.96973 1081.5366 3689.3699 4343100
-671.53137 1077.4016 3675.2642 4474686
-656.14056 1087.9917 3711.3894 4474686
-634.25653 1088.1759 3712.0181 4539966
-609.38525 1083.0643 3694.5811 4408895
-589.93402 1087.5637 3709.9297 4803653
-568.41693 1088.4556 3712.9717 4869445
-548.69208 1092.9893 3728.4375 4737859
-526.37738 1092.5281 3726.864 4606273
-503.24634 1090.2579 3719.1204 4671810
-483.86792 1096.2821 3739.6699 4210747
-465.26883 1104.7349 3768.5042 3684146
-439.78918 1096.879 3741.7063 1842199
-420.8812 1105.4496 3770.9424 789514
-383.04764 1062.4861 3624.384 855561
-359.98734 1057.8303 3608.5024 855561
-342.76559 1070.8269 3652.8364 658182
-325.01016 1083.7957 3697.0759 723975
-303.0976 1083.7744 3697.0037 789768
-281.03265 1083.1627 3694.917 986893
-258.83606 1081.8975 3690.6006 1052686
-236.42114 1079.4019 3682.0874 1052686
-214.47426 1078.7528 3679.8733 1184272
-190.38928 1065.9857 3636.3218 1250065
-169.22264 1068.3849 3644.5063 1315858
-145.60915 1053.7782 3594.6794 1447444
-126.13262 1069.2352 3647.407 1447444
-104.72828 1071.3632 3654.6658 1513237
-82.902481 1069.1652 3647.1677 1513237
-60.812321 1060.8057 3618.6516 1579030
-39.531765 1065.1545 3633.4868 1579030
-17.921722 1060.4109 3617.3049 1579030
3.5009189 1056.9863 3605.6233 1644823
24.881418 1057.6552 3607.9048 1579030
46.080856 1053.5662 3593.9561 1579030
67.553093 1056.3278 3603.3765 1513237
89.382149 1062.0024 3622.7341 1644823
111.13668 1064.7653 3632.1587 1513237
132.84518 1066.2621 3637.2649 1579030
154.80969 1069.1091 3646.9771 1513237
176.13939 1067.4117 3641.1865 1579030
197.94096 1068.6322 3645.3499 1579030
217.79698 1060.1426 3616.3896 1710616
231.59691 1026.3358 3501.0671 1644823
252.60712 1027.4136 3504.7434 1776409
281.11533 1056.5071 3603.988 1776409
302.51834 1056.6744 3604.5593 1842202
324.94739 1060.1672 3616.4741 1907995
339.95471 1040.5121 3549.4255 2236960
359.19089 1035.3365 3531.7705 2039581
392.09082 1067.947 3643.0125 1973788
408.50195 1054.5868 3597.4375 1842202
423.6376 1039.4222 3545.708 2039581
450.56512 1053.2557 3592.8975 2171167
472.50156 1054.7003 3597.8247 2171167
496.63593 1060.7142 3618.3396 2434339
508.01511 1040.1154 3548.0723 2434339
526.26373 1034.6594 3529.4607 2302753
549.15216 1038.3938 3542.1995 2302753
573.5976 1044.6891 3563.6743 2105374
600.5462 1054.9344 3598.6235 1973788
618.5166 1049.2466 3579.2209 1907995
634.18457 1040.1595 3548.2229 1973788
661.8194 1050.6533 3584.0198 2105374
692.54126 1065.243 3633.7886 1973788
714.36932 1065.6852 3635.2969 2105374
723.70062 1048.0046 3574.9846 2105374
741.50336 1043.2485 3558.7603 2105374
765.14667 1046.7455 3570.6895 2105374
790.552 1052.3999 3589.9778 2105374
805.31207 1043.9583 3561.1814 1907995
826.58679 1044.177 3561.9277 2039581
867.99866 1069.1899 3647.2522 2105374
887.15198 1066.2355 3637.1741 2236960
892.55426 1047.2864 3572.5344 2171167
895.23474 1026.0957 3500.248 2236960
911.16772 1020.7103 3481.8772 2236960
937.29279 1026.7281 3502.4053 2105374
958.67505 1027.4022 3504.7051 2105374
976.32288 1024.1306 3493.5447 2171167
996.75812 1023.8579 3492.6145 2368546
1006.7504 1013.0878 3455.875 2434339
1033.4077 1019.1826 3476.6658 2303010
1053.3273 1018.5239 3474.4189 2170909
1099.7433 1043.0204 3557.9822 2170910
1094.2013 1018.2443 3473.4648 2236703
1129.0868 1031.3093 3518.0332 2236703
1149.948 1031.3232 3518.0801 2170910
1184.4957 1043.3927 3559.252 2170910
1211.0698 1048.139 3575.4429 2105117
1187.7708 1010.3006 3446.3674 2105117
1244.626 1040.7672 3550.2959 2105117
1274.0089 1047.6302 3573.7073 2105117
1266.0989 1024.1038 3493.4531 2105117
1302.0238 1036.2206 3534.7861 2236703
1288.5458 1009.2585 3442.8125 2236703
1306.3091 1007.2255 3435.8774 2302495
1331.5905 1010.9626 3448.6255 2302496
1364.6606 1020.4108 3480.8557 2236703
1405.4608 1035.2716 3531.5493 2170910
1434.6072 1041.238 3551.9021 2105117
1449.3243 1036.7107 3536.4583 2170910
1468.3928 1035.3806 3531.9209 2170910
1441.5825 1002.1927 3418.7095 2236702
1506.9492 1033.1184 3524.2041 2236703
1514.9008 1024.3746 3494.377 1973531
1538.4188 1026.2507 3500.7771 2039324
1577.1044 1038.0603 3541.062 2039324
1582.7706 1028.1117 3507.125 2368289
1550.9452 994.38312 3392.0691 2631461
1664.4958 1053.5325 3593.8413 2368289
1666.5159 1041.4867 3552.7502 2368289
1638.5093 1011.2103 3449.4707 2105117
1608.8036 980.64441 3345.2034 2302496
1631.0542 982.10699 3350.1924 2434082
1666.0745 991.1308 3380.9749 2302496
1776.538 1044.2876 3562.3047 2236702
1811.1925 1052.157 3589.1489 2105117
1829.2229 1050.2985 3582.8093 2039324
1730.4298 982.17487 3350.4238 2105117
