# .PCD v0.7 - Point Cloud Data file format
VERSION 0.7
FIELDS x y z rgb
SIZE 4 4 4 4
TYPE F F F U
COUNT 1 1 1 1
WIDTH 1297
HEIGHT 1
VIEWPOINT 0 0 0 1 0 0 0
POINTS 1297
DATA ascii
2208.3867 1435.921 4707.9341 263936
2240.7253 1438.7733 4717.2861 329728
2285.3574 1449.3517 4751.9692 329728
2301.5005 1441.8251 4727.292 395264
2329.4304 1441.7748 4727.127 197888
2331.5479 1425.9392 4675.207 512
2381.5366 1439.4093 4719.3711 66304
2367.9219 1414.5704 4637.9326 1024
2394.593 1414.0918 4636.3633 1024
2472.3818 1443.4684 4732.6797 1024
2476.5864 1429.7067 4687.5596 1024
2486.2288 1419.3547 4653.6187 1024
2516.8296 1421.0635 4659.2212 1024
2539.4404 1418.2726 4650.0708 1024
2565.3938 1417.3887 4647.1724 1024
2592.5381 1417.1743 4646.4697 1024
2589.5503 1400.6661 4592.3447 1024
2617.553 1401.0897 4593.7334 1024
2592.9827 1373.6536 4503.7788 1024
2607.7153 1367.3853 4483.2271 1024
2497.4824 1296.3772 4250.4141 1024
2551.1072 1310.9919 4298.3311 1024
2497.5066 1270.7603 4166.4238 1024
2499.8672 1259.5111 4129.5415 1024
2499.6035 1247.1707 4089.0811 1024
2873.6677 1420.0442 4655.8789 1024
2588.1528 1266.7932 4153.4175 1024
2556.509 1239.5183 4063.9917 1024
2793.5449 1341.8058 4399.3599 1024
2977.8286 1417.0979 4646.2192 1024
3058.9883 1442.3853 4729.1284 1024
3027.2334 1414.455 4637.5537 1024
2978.8813 1379.3419 4522.4292 1024
3096.7659 1421.1431 4659.4819 1024
3314.887 1507.7985 4943.5981 1024
3327.0256 1500.0642 4918.2397 1024
3257.1895 1455.8251 4773.1934 1024
3321.2712 1471.6877 4825.2021 1024
3418.6465 1501.9065 4924.2798 1024
3474.7302 1513.6268 4962.707 1024
3517.0874 1519.2211 4981.0488 1024
3537.657 1515.3893 4968.4858 1024
3698.6482 1571.2754 5151.7188 1024
3846.6433 1620.7705 5313.9976 1024
3844.1838 1606.5833 5267.4819 1024
3885.5972 1610.8125 5281.3481 1024
3947.6619 1623.4667 5322.8374 1024
3969.7168 1619.5969 5310.1494 1024
4000.2097 1619.2034 5308.8599 1024
4046.2668 1625.0671 5328.085 1024
4084.4319 1627.6948 5336.7007 1024
4119.9531 1629.2369 5341.7563 1024
4184.4722 1642.135 5384.0454 1024
3887.4182 1514.0176 4963.9883 1024
3864.248 1493.6917 4897.3462 1024
3904.5034 1498.0028 4911.481 1024
4442.2373 1691.7007 5546.5557 1024
4503.3179 1702.3666 5581.5259 1024
4542.7363 1704.7482 5589.334 768
4600.9634 1714.1021 5620.0024 768
4650.0464 1719.9395 5639.1416 1024
4696.6851 1724.796 5655.0649 1024
4757.7188 1734.8326 5687.9717 1024
4833.9189 1750.2196 5738.4204 1024
4849.6455 1743.6487 5716.8765 768
4848.1719 1731.0273 5675.4956 768
4881.8013 1731.0273 5675.4956 768
5042.1455 1775.6516 5821.8042 768
5107.1421 1786.3195 5856.7808 768
5139.9321 1785.6545 5854.6011 1024
5196.9658 1793.3646 5879.8799 1024
5220.2168 1789.392 5866.8545 1024
5279.9785 1797.9041 5894.7632 1024
5318.6572 1799.1726 5898.9224 1024
5368.7905 1804.274 5915.6484 1024
5420.0269 1809.6776 5933.3647 1024
5466.7476 1813.5134 5945.9414 1024
5441.0679 1793.4363 5880.1147 1024
5465.1465 1789.911 5868.5566 1024
2316.9456 754.034 2472.2407 1024
5603.2363 1812.0778 5941.2344 1280
5609.7109 1802.8447 5910.9619 1024
5650.8843 1804.8085 5917.4004 1024
0 0 0 0
0 0 0 0
0 0 0 0
0 0 0 0
-4848.0752 1653.6735 5318.5498 12892305
-4823.6821 1656.1183 5326.4131 13023634
-4799.8398 1658.786 5334.9927 13089683
-4790.4189 1666.5059 5359.8213 13221013
-4792.0376 1678.1951 5397.416 13418648
-4783.0435 1686.2993 5423.4814 13352853
-4868.4165 1728.0085 5557.6265 13352853
-4870.6616 1740.579 5598.0557 13222037
-4882.4155 1756.7433 5650.0435 13353365
-4784.6914 1733.4675 5575.1841 13352595
-4837.2759 1764.7029 5675.6431 12825738
-4838.9097 1777.6577 5717.3086 12496516
-4919.834 1820.1295 5853.9062 11968631
-4995.0137 1861.0642 5985.5605 10717790
-5115.7891 1919.6936 6174.125 9137733
-5030.7817 1901.3921 6115.2637 5782300
-4860.5103 1850.3655 5951.1514 4204301
-4722.355 1810.9088 5824.2505 4730898
-4555.7256 1759.8715 5660.104 7298110
-4394.1191 1710.032 5499.8105 7824714
-4254.2363 1667.9652 5364.5146 7759949
-4250.8911 1679.2001 5400.6489 8023122
-4112.2134 1636.7408 5264.0913 8022864
-4089.116 1639.9871 5274.5317 8022608
-4080.0708 1648.9628 5303.3994 8023120
-4065.6714 1655.897 5325.7012 8154194
-4068.7622 1670.1189 5371.4419 8088914
-4016.178 1661.5319 5343.8242 8023378
-4073.4014 1698.5978 5463.0356 8023125
-4053.1387 1703.6873 5479.4043 8023380
-3982.1321 1687.3572 5426.8833 7957845
-3979.2805 1699.8757 5467.1455 7628880
-3926.3906 1691.0487 5438.7563 7760209
-3913.6099 1699.4933 5465.9155 7694673
-3834.2007 1678.9037 5399.6953 7563600
-3807.4102 1681.202 5407.0869 7629393
-3748.0066 1669.0162 5367.8955 7892565
-3741.7292 1680.4821 5404.772 8024151
-3704.3523 1678.0579 5396.9751 7826517
-3685.1843 1683.9119 5415.8027 7694932
-3653.2827 1683.9991 5416.0835 7694931
-3620.2708 1683.5715 5414.708 7629139
-3604.7566 1691.3463 5439.7134 7694675
-3516.1689 1664.6659 5353.9038 7629139
-3497.2742 1670.7949 5373.6162 7629139
-3460.1301 1668.2382 5365.3926 7563346
-3304.9087 1608.1771 5172.2246 5590073
-3180.1826 1561.9697 5023.6123 7563346
-3326.752 1649.3969 5304.7954 7431760
-3247.6301 1625.5275 5228.0264 7300176
-3232.6169 1633.5952 5253.9741 7102797
-3195.6909 1630.6387 5244.4653 7102797
-3095.1106 1594.8248 5129.2808 6971211
-3166.915 1648.0066 5300.3237 7102796
-3093.5991 1625.9792 5229.4795 7102797
-3083.1597 1636.8879 5264.5645 6971724
-3031.4841 1625.9036 5229.2358 6906188
-2994.6123 1622.7139 5218.9771 6774859
-2981.1919 1632.2977 5249.8013 6774601
-2952.6311 1633.7068 5254.3325 6708809
-2937.2051 1642.4906 5282.5835 6643016
-2926.0439 1653.8744 5319.1963 6577224
-2903.3445 1658.9133 5335.4023 6643018
-2853.5522 1648.4126 5301.6299 6577482
-2830.5752 1653.3407 5317.48 6774861
-2793.2383 1649.8978 5306.4067 6709068
-2790.468 1667.0267 5361.4966 6445896
-2754.041 1664.212 5352.4438 6511688
-2715.1946 1659.8525 5338.4233 6709068
-2653.7561 1641.4167 5279.1299 6774860
-2647.1812 1656.8802 5328.8638 6774861
-2647.5918 1677.1423 5394.0308 6709068
-2606.3481 1671.1908 5374.8892 6643276
-2576.3921 1672.4192 5378.8398 6577483
-2552.0759 1677.3853 5394.812 6511690
-2518.3784 1676.2329 5391.106 6577482
-2453.2864 1653.8866 5319.2354 6708812
-2460.2161 1680.1439 5403.6841 6774860
-2421.8596 1675.7588 5389.5806 6840653
-2397.8782 1681.3361 5407.5181 6840654
-2329.0381 1655.1843 5323.4092 6906448
-2250.2732 1621.1646 5213.9946 6972241
-2231.3867 1629.9362 5242.2061 6972241
-2231.6543 1653.1444 5316.8486 6709582
-2157.3008 1620.9486 5213.2998 6775119
-2145.1355 1635.223 5259.2095 6709070
-2096.6055 1621.7891 5216.0029 5393209
-2064.9585 1621.208 5214.1343 7103826
-2031.4408 1619.1182 5207.4131 6906448
-1998.606 1617.5167 5202.2622 6906448
-1953.3427 1605.649 5164.0933 6972241
-1933.7654 1614.8533 5193.6958 7103827
-1939.6357 1645.9497 5293.709 7038034
-1882.8857 1624.0563 5223.2949 7103827
-1839.5154 1613.1643 5188.2642 6972241
-1795.8837 1601.6692 5151.2935 7038034
-1815.9058 1647.528 5298.7847 6972241
-1771.7007 1635.7032 5260.7539 6906706
-1735.2695 1630.7611 5244.8589 6906707
-1743.8378 1668.6989 5366.8745 6906707
-1823.3644 1777.2083 5715.8628 6906707
-1674.4091 1662.9119 5348.2627 6840914
-1664.9813 1685.4485 5420.7446 6906706
-1674.5216 1728.4506 5559.0483 6906706
-1612.1423 1697.4531 5459.354 6906706
-1544.2703 1659.2841 5336.5947 6972499
-1541.5721 1691.0112 5438.6357 6972500
-1506.2944 1687.5925 5427.6401 6906707
-1460.5983 1672.0972 5377.8042 6906706
-1430.8821 1674.6128 5385.895 6906707
-1410.3767 1688.2688 5429.8154 6906706
-1367.7903 1675.5135 5388.792 6840914
-1334.8643 1674.2654 5384.7773 6775121
-1317.9235 1693.4965 5446.6284 6775121
-1277.7272 1683.0602 5413.0635 6775121
-1244.7695 1681.8671 5409.2261 6775121
-1203.5179 1669.1083 5368.1914 6577742
-1167.7448 1663.4608 5350.0278 6446156
-1140.1678 1669.4996 5369.4502 6380363
-1098.4257 1654.5482 5321.3633 6446156
-1043.8217 1618.767 5206.2832 6380363
-1022.1465 1633.4275 5253.4346 6314570
-980.12732 1615.4774 5195.7036 6380363
-918.34503 1562.7327 5026.0654 6511948
-904.51532 1590.7872 5116.2949 6775120
-897.61639 1633.3997 5253.3452 6709328
-877.60352 1654.3529 5320.7349 6511949
-836.61566 1635.8549 5261.2417 6511949
-816.19897 1657.7048 5331.5156 6380106
-795.97699 1681.7258 5408.772 6314570
-749.47638 1649.9124 5306.4531 6380363
-719.46387 1653.1989 5317.0234 6446155
-685.98645 1648.4602 5301.7832 6577485
-659.03198 1659.6941 5337.9131 6643534
-630.26416 1667.2638 5362.2588 6643535
-617.49579 1720.2078 5532.5376 6840914
-565.79987 1664.5653 5353.5801 6906707
-516.46564 1609.6733 5177.0366 6775121
-487.56052 1615.5411 5195.9087 6840913
-454.97678 1609.1895 5175.48 6840914
-426.43198 1617.2371 5201.3633 6775121
-396.13425 1619.3727 5208.2314 6840914
-389.88174 1728.4695 5559.1089 6709328
-334.54242 1620.0018 5210.2549 6709328
-297.41876 1586.6554 5103.0059 6840914
-272.74728 1619.7081 5209.3105 6709328
-239.59631 1604.4158 5160.127 6709071
-209.78041 1610.249 5178.8877 6643535
-179.98392 1618.2554 5204.6377 6709327
-150.57314 1633.7581 5254.4976 6709328
-120.46485 1647.8024 5299.667 6577742
-88.944122 1645.6177 5292.6411 6577742
-57.337738 1638.606 5270.0894 6643535
-26.413618 1657.6382 5331.3013 6643535
5.1688981 1655.2087 5323.4878 6709328
36.55838 1648.251 5301.1104 6643278
67.585815 1638.9448 5271.1792 6643535
99.549042 1651.0415 5310.085 6577742
128.65031 1621.2614 5214.3062 6643278
161.60861 1642.209 5281.6777 6906450
194.10724 1652.4464 5314.6035 6972243
225.18567 1649.4235 5304.8809 7103829
259.25894 1666.3901 5359.4492 7038293
287.57114 1646.6655 5296.0112 7038293
319.91748 1651.6494 5312.04 6972500
350.94446 1649.5391 5305.2524 7038290
377.11951 1626.8451 5232.2642 7038034
405.03671 1614.5435 5192.6997 6774862
430.74271 1595.7871 5132.3755 6577484
461.15414 1595.7871 5132.3755 6709071
492.26801 1598.0676 5139.7104 6774607
537.28729 1642.5941 5282.9165 6577485
551.0213 1591.838 5119.6743 6380107
571.52362 1564.9117 5033.0737 6972243
632.66168 1646.4043 5295.1709 6972241
640.57489 1588.2311 5108.0737 7169620
676.28485 1601.1165 5149.5161 5919553
699.91443 1585.5236 5099.3657 5327416
718.32446 1559.8866 5016.9121 6972241
763.97681 1593.0946 5123.7158 7103826
794.38312 1593.1875 5124.0146 7235413
810.95471 1566.5485 5038.3379 7235413
850.97144 1585.4827 5099.2344 7103827
877.57068 1578.9769 5078.3105 6906448
902.07062 1569.2506 5047.0288 6840655
934.6037 1573.6744 5061.2568 6906448
976.43445 1592.9919 5123.3857 6972241
1007.4887 1594.0935 5126.9287 6972241
1035.7489 1590.839 5116.4614 7169621
1077.1089 1607.3177 5169.4604 7038036
1099.9664 1596.0386 5133.1841 7038036
1143.7509 1614.9136 5193.8901 6840657
1174.7365 1615.202 5194.8179 6972243
1206.5044 1616.5238 5199.0688 7103827
1234.8654 1613.3287 5188.793 7301206
1258.5323 1604.3053 5159.7715 7103827
1289.1761 1604.3923 5160.0518 7038034
1319.8942 1604.5658 5160.6099 7103827
1351.8491 1606.201 5165.8687 6972241
1373.2546 1595.507 5131.4746 6972241
1367.4943 1554.3975 4999.2583 6906448
1392.2834 1549.02 4981.9629 7037777
1435.7551 1564.2197 5030.8486 6906447
1455.9769 1553.9863 4997.936 7038032
1501.8621 1571.0057 5052.6738 7235155
1523.8755 1562.8772 5026.5308 7037773
1553.4918 1562.7084 5025.9878 7235153
1594.5598 1573.8486 5061.8174 7432532
1609.5746 1559.3378 5015.147 7498325
1640.4032 1560.3954 5018.5488 7432530
1673.4447 1563.4828 5028.4785 7366480
1716.7286 1575.8643 5068.2998 7234381
1764.8694 1592.2015 5120.8438 7300427
1788.1299 1585.92 5100.6411 7432013
1819.0538 1586.5309 5102.606 7563600
1821.6674 1562.8341 5026.3921 7365964
1894.9745 1599.5731 5144.5522 7168842
1909.918 1586.6631 5103.0312 7562830
1924.908 1574.1938 5062.9272 4866348
1935.9622 1558.9377 5013.8608 3812884
1958.0521 1552.8951 4994.4263 1444864
1958.8165 1530.3712 4921.9849 2169600
1944.4518 1496.8619 4814.2119 1577984
1923.8816 1459.6133 4694.4131 1380608
1941.5884 1452.0527 4670.0967 591360
1970.6525 1453.079 4673.3975 985856
1965.3224 1429.0675 4596.1714 3947283
1987.5695 1425.4908 4584.668 1908224
2020.6954 1429.7078 4598.2305 1052672
2066.6897 1442.7959 4640.3247 790016
2102.6123 1448.6017 4658.9971 1052928
2163.9729 1471.5553 4732.8208 921344
2174.156 1459.5649 4694.2573 395008
2192.4922 1453.2816 4674.0488 512
2219.1802 1452.6221 4671.9277 66304
2254.8857 1457.8087 4688.6089 66304
2232.0208 1425.4635 4584.5801 512
2243.8345 1415.7771 4553.4268 66304
2260.6343 1409.4296 4533.0117 66304
2272.5964 1400.2504 4503.4897 66304
2313.2256 1408.7422 4530.8013 768
2331.5439 1403.6082 4514.2891 768
2358.7495 1403.8798 4515.1626 768
2383.6047 1402.7623 4511.5688 768
2407.0325 1400.8389 4505.3823 768
2441.5583 1405.3456 4519.877 1024
2447.2375 1393.3306 4481.2344 1024
2454.6021 1382.5229 4446.4746 1024
2480.9756 1382.5376 4446.522 1024
2472.1401 1363.1377 4384.1279 1024
2493.835 1360.8008 4376.6118 1024
2605.2021 1406.9393 4525.0029 1024
2661.3982 1422.6464 4575.5195 1024
2668.3931 1412.0013 4541.2832 1024
2637.8152 1381.8854 4444.4243 1024
2540.0029 1317.4907 4237.3179 1024
2462.927 1265.0071 4068.52 1024
2478.4429 1260.637 4054.4646 1024
2547.4514 1283.2982 4127.3477 1024
2692.3508 1343.3953 4320.6323 1024
2684.0659 1326.6465 4266.7646 1024
2690.7766 1317.5529 4237.5176 1024
2714.0059 1316.6407 4234.5845 1024
2661.4512 1279.3174 4114.5449 1024
2735.3354 1302.8973 4190.3823 1024
2969.7356 1401.822 4508.5444 1024
2735.0808 1279.5461 4115.2803 1024
3153.7104 1462.3549 4703.2305 1024
2742.834 1260.6937 4054.6472 1024
3176.2119 1447.2114 4654.5259 1024
3052.3962 1378.8232 4434.5757 1024
2983.4883 1336.1936 4297.4702 1024
3294.9321 1463.1893 4705.9141 1024
3297.2756 1451.9425 4669.7422 1024
3495.5811 1526.4558 4909.3921 1024
3571.0952 1546.5609 4974.0542 1024
3014.7908 1294.9504 4164.8237 1024
3547.8745 1511.5541 4861.4648 1024
3581.2427 1513.4821 4867.6655 1024
3771.1038 1580.9868 5084.7749 1024
3844.6951 1599.0631 5142.9121 1024
3822.3384 1577.2632 5072.7988 1024
3872.6555 1585.5575 5099.4751 1024
3934.2471 1598.3037 5140.4697 1024
3994.415 1610.2803 5178.9888 1024
4069.7991 1628.1616 5236.4985 1024
4106.542 1630.4303 5243.7954 1024
4150.8569 1635.6489 5260.5796 1024
4187.9404 1637.9615 5268.0171 1024
4225.7812 1640.5337 5276.2896 1024
4299.4526 1656.8761 5328.8506 1024
4350.1411 1664.1879 5352.3667 1024
4400.6641 1671.3309 5375.3403 768
4453.8755 1679.3853 5401.2441 768
4494.1553 1682.4833 5411.208 768
4546.3071 1689.9504 5435.2241 768
4614.375 1703.1873 5477.7964 768
4659.5425 1707.8456 5492.7783 768
4699.0977 1710.3964 5500.9824 768
4703.9497 1700.3679 5468.7285 768
4802.1909 1724.0035 5544.7456 768
4862.9351 1733.9476 5576.728 768
4887.3379 1730.8873 5566.8853 1024
4948.1045 1740.6603 5598.3169 1024
4970.1074 1736.7568 5585.7632 1024
5029.8765 1746.0153 5615.54 1024
5069.3379 1748.149 5622.4023 1024
5123.0391 1755.1332 5644.8652 1024
5179.2437 1762.879 5669.7769 1024
5235.4429 1770.5229 5694.3618 1024
5278.9976 1773.8204 5704.9668 1024
5303.6069 1770.7505 5695.0933 1024
5402.4077 1792.3334 5764.5083 1024
5440.4624 1793.6185 5768.6416 1024
5489.5767 1798.5106 5784.376 1024
5532.7397 1801.4047 5793.6836 1024
0 0 0 0
0 0 0 0
0 0 0 0
0 0 0 0
0 0 0 0
-4744.7764 1660.0724 5239.2837 13023633
-4755.4053 1674.749 5285.604 12958096
-4744.4092 1681.954 5308.3428 13023632
-4740.0889 1691.6373 5338.9043 13221012
-4716.3413 1694.4712 5347.8481 13681307
-4660.0601 1685.5754 5319.7729 9798494
-4679.0288 1703.9628 5377.8042 9994332
-4798.1885 1759.339 5552.5742 4071175
-4761.3877 1757.8993 5548.0308 7557418
-4998.5879 1858.3035 5864.9126 6965284
-5077.1558 1900.7269 5998.8032 5321231
-4975.0166 1875.6205 5919.5659 8481091
-4783.5103 1816.2263 5732.1143 9863516
-4680.1709 1789.6975 5648.3877 9141081
-4943.519 1904.0178 6009.1895 7891787
-4817.4868 1868.9374 5898.4736 7892046
-4626.5859 1807.9949 5706.1353 7365445
-4233.5293 1666.574 5259.8027 7562568
-4152.1353 1646.6547 5196.9365 7759946
-4125.042 1648.1332 5201.603 7759949
-4104.4937 1652.2688 5214.6548 7891278
-4075.7427 1653.14 5217.4043 7760464
-4018.5825 1642.4136 5183.5513 8022868
-4004.0742 1649.0881 5204.6167 7892052
-3972.6951 1648.8641 5203.9097 7760466
-3984.8181 1666.8334 5260.6216 7826259
-3976.4143 1676.4323 5290.916 7760467
-3951.7925 1679.2916 5299.9404 6839107
-3904.667 1672.5574 5278.687 7563086
-3895.6089 1682.1522 5308.9688 7760464
-3829.707 1667.1581 5261.646 7826259
-3715.5786 1630.7511 5146.7437 7892051
-3795.5078 1679.6174 5300.9692 7957588
-3769.1987 1681.8938 5308.1533 7760979
-3713.519 1670.9926 5273.748 7760979
-3686.2959 1672.8193 5279.5137 7760978
-3664.062 1676.9611 5292.585 7695185
-3629.8818 1675.6593 5288.4771 7497553
-3613.4673 1682.6078 5310.4067 7365966
-3558.9231 1671.7672 5276.1934 7168587
-3543.2012 1679.1323 5299.438 7300173
-3393.8286 1622.7257 5121.415 7365966
-3351.719 1617.0503 5103.5034 7366223
-3324.9072 1618.7197 5108.772 7300431
-3296.2327 1619.5043 5111.248 7234895
-3227.624 1600.501 5051.2729 7169102
-3264.4285 1633.9033 5156.6924 7234895
-3225.4539 1629.6495 5143.2671 7300689
-3195.2302 1629.778 5143.6729 7103567
-3176.7495 1635.9567 5163.1729 7038030
-3152.8811 1639.4539 5174.21 6971981
-3026.2612 1589.0657 5015.1821 6971981
-3067.8074 1626.8564 5134.4521 6906188
-3034.2986 1625.204 5129.2368 6971981
-2996.23 1621.0511 5116.1304 6971981
-2986.4133 1632.2548 5151.4897 6971724
-2948.8467 1628.3661 5139.2168 6840652
-2898.1836 1617.089 5103.6255 6906445
-2901.4658 1635.9912 5163.2817 6840654
-2857.252 1628.23 5138.7871 6840654
-2820.866 1624.8104 5127.9951 6643275
-2836.0017 1651.316 5211.6484 6708811
-2789.4121 1642.069 5182.4634 6511689
-2760.6943 1643.2534 5186.2021 6511689
-2730.3987 1643.5153 5187.0283 6511689
-2703.7966 1646.0316 5194.9697 6643275
-2687.7705 1655.1182 5223.6479 6643019
-2665.3518 1660.4346 5240.4263 6577483
-2628.752 1656.9373 5229.3892 6774861
-2601.0579 1659.0371 5236.0161 6840654
-2569.3792 1658.6152 5234.6851 6643275
-2552.9424 1668.1429 5264.7544 6511690
-2506.9241 1658.3376 5233.8086 6577483
-2491.3499 1668.6781 5266.4434 6709069
-2439.6582 1654.7828 5222.5894 6709069
-2434.1736 1672.2748 5277.7949 6709069
-2386.2883 1660.7136 5241.3071 6577483
-2351.5735 1658.1344 5233.167 6643276
-2327.7048 1663.2362 5249.2686 6774862
-2270.3042 1644.1918 5189.1631 6840655
-2195.0583 1611.5232 5086.0591 6972241
-2189.6567 1629.9355 5144.1699 6840655
-2150.8237 1623.6307 5124.272 6774862
-2122.033 1624.835 5128.0723 6906448
-2065.7041 1604.6819 5064.4678 7038034
-2040.4352 1608.4185 5076.2607 7235412
-2030.0863 1624.2037 5126.0801 6972241
-1994.1843 1619.7139 5111.9097 6774862
-1959.978 1616.484 5101.7163 6774862
-1903.3514 1594.3722 5031.9302 7038034
-1902.7003 1619.1918 5110.2617 6972241
-1878.5597 1624.5009 5127.0181 6906448
-1820.0038 1599.7347 5048.8545 6840655
-1789.5229 1599.2305 5047.2632 6906448
-1769.8925 1608.5704 5076.7402 6972241
-1731.5916 1600.9713 5052.7568 6840655
-1707.0396 1606.0402 5068.7544 6775121
-1694.8044 1623.0862 5122.5527 6709328
-1767.2397 1723.3201 5438.897 6709328
-1669.7694 1658.5171 5234.375 6840914
-1639.5973 1659.371 5237.0698 6840914
-1625.896 1677.2488 5293.4932 6840914
-1601.2994 1684.3695 5315.9663 6775121
-1556.5837 1670.1885 5271.2104 6906707
-1513.3834 1657.0859 5229.8579 6840914
-1504.1318 1681.3849 5306.5469 6840914
-1466.6947 1674.5419 5284.9497 6840914
-1424.7415 1662.1315 5245.7822 6709328
-1389.7515 1657.4724 5231.0776 6840914
-1369.8348 1670.9879 5273.7334 6775121
-1311.0416 1636.6036 5165.2148 6840914
-1282.7582 1639.5723 5174.584 6775121
-1249.0225 1635.5465 5161.8789 6775121
-1240.6716 1665.3939 5256.0786 6775120
-1193.9799 1643.9867 5188.5161 6511949
-1157.5673 1635.9756 5163.2324 6511949
-1122.2083 1629.0586 5141.4023 6643535
-1085.0881 1619.1281 5110.0605 6577742
-1052.1382 1615.0283 5097.1221 6511949
-1020.5369 1612.8176 5090.145 6314570
-966.18524 1573.4237 4965.8154 6380363
-958.34253 1609.6733 5080.2212 6380363
-953.50977 1653.4937 5218.521 6511949
-888.51343 1592.4241 5025.7817 6709328
-882.37561 1636.2654 5164.1475 6709328
-855.03015 1642.5168 5183.8774 6511949
-823.00104 1639.9015 5175.623 6577742
-795.80664 1647.09 5198.3101 6577485
-763.59357 1644.0519 5188.7222 6643535
-735.73438 1650.5267 5209.1567 6577742
-709.02112 1660.2515 5239.8486 6577742
-675.0329 1653.0519 5217.1265 6643535
-650.83667 1670.2911 5271.5342 6643535
-621.39001 1675.1147 5286.7578 6709328
-613.09564 1740.4989 5493.1143 6709328
-547.11633 1640.2733 5176.7969 6840914
-505.85986 1606.6643 5070.7246 6775121
-475.87064 1606.8562 5071.3301 6775121
-445.59534 1606.0431 5068.7637 6906707
-417.9072 1615.111 5097.3828 6906707
-384.97635 1603.7516 5061.5317 6906707
-351.51843 1588.0913 5012.1074 6775121
-323.97064 1598.7058 5045.6069 6775121
-293.08029 1593.307 5028.5679 6840914
-265.84235 1608.7891 5077.4307 6709328
-240.02191 1637.8958 5169.293 6577742
-207.62994 1624.1143 5125.7979 6643535
-178.55096 1635.9656 5163.2012 6643534
-147.49388 1630.8455 5147.042 6709328
-118.18187 1647.3815 5199.2305 6577742
-87.351959 1646.9596 5197.8989 6446156
-56.563797 1647.2938 5198.9536 6577742
-25.836742 1652.3354 5214.8652 6577742
5.0601354 1651.2604 5211.4722 6577742
35.89962 1649.3959 5205.5879 6643535
65.763588 1625.1477 5129.0591 6775121
96.546768 1631.7635 5149.9395 6577742
128.73013 1653.1833 5217.541 6511949
159.60315 1652.7378 5216.1353 6511949
189.75024 1646.1395 5195.3105 6643792
221.97469 1656.8892 5229.2368 6775121
249.76202 1635.9423 5163.1274 6775120
282.29492 1647.2585 5198.8423 6775121
303.07562 1594.5183 5032.3911 6906707
340.04636 1628.7744 5140.5054 6906960
369.00085 1622.158 5119.6235 7038546
391.04068 1588.4585 5013.2661 6906960
417.96506 1577.9584 4980.127 6906705
448.9119 1583.0278 4996.1265 6643277
484.90247 1604.1559 5062.8076 6709071
514.3335 1602.3857 5057.2212 6774864
537.97388 1583.7634 4998.4478 6774864
567.59167 1583.7634 4998.4478 6643278
599.26575 1589.2164 5015.6577 6709071
639.39044 1615.5057 5098.6289 6709071
654.57446 1579.2502 4984.2041 6709069
686.58954 1584.9788 5002.2842 6709069
710.73792 1572.8251 4963.9263 6774862
765.12177 1625.8878 5131.395 6840655
772.35388 1578.5262 4981.9189 6774862
813.66022 1601.7284 5055.1465 7169620
850.27802 1614.381 5095.0791 7169620
874.1391 1602.776 5058.4526 6840655
896.1272 1588.62 5013.7754 6577482
929.13934 1594.2883 5031.6655 6709069
958.16473 1592.9763 5027.5244 6577483
986.30237 1590.3119 5019.1152 6708812
1016.0313 1590.2941 5019.0591 7038035
1046.4791 1591.3705 5022.4565 6840657
1074.7236 1589.1298 5015.3843 6906450
1108.8937 1595.5353 5035.6006 6906450
1145.1079 1604.4694 5063.7969 6906450
1174.3536 1603.4325 5060.5249 7038034
1198.1812 1595.2339 5034.6494 7169620
1233.3909 1602.2191 5056.6953 7169620
1250.4652 1585.8735 5005.1079 7169620
1274.5547 1578.9758 4983.3384 7103827
1306.4109 1581.7944 4992.2339 6972241
1336.9846 1582.9697 4995.9434 6906448
1366.2766 1582.6096 4994.8066 6840399
1397.2775 1584.2023 4999.833 6708555
1411.0245 1566.5726 4944.1934 6642763
1435.3143 1561.1274 4927.0073 6708299
1460.5569 1556.9147 4913.7119 6642763
1488.838 1556.0425 4910.959 6577224
1521.0725 1559.2562 4921.1021 6511431
1565.6365 1574.7505 4970.0024 6906190
1591.6285 1571.3373 4959.2305 6971983
1627.2628 1577.3947 4978.3481 7103566
1664.5044 1584.7665 5001.6138 7169360
1692.9685 1583.6698 4998.1528 7235151
1737.3451 1597.24 5040.981 7235408
1770.918 1600.5867 5051.5435 7497553
1780.478 1582.48 4994.3975 7365967
1841.6437 1610.0822 5081.5112 7365711
1834.349 1577.9065 4979.9634 7365711
1883.7808 1594.7736 5033.1963 7563089
1869.4062 1557.9392 4916.9453 7892053
1926.6099 1580.9725 4989.6396 7168587
1920.8258 1552.403 4899.4727 4274975
1954.0391 1555.7325 4909.981 657152
1911.3792 1499.443 4732.3281 2894353
1933.0404 1494.5106 4716.7612 722944
1957.1112 1491.5553 4707.4341 1315328
1958.0519 1471.3026 4643.5156 2301957
1948.8923 1444.1271 4557.7476 657152
1994.7343 1457.8933 4601.1948 393984
2008.7533 1448.3435 4571.0552 197120
2056.2603 1462.8719 4616.9077 131584
2072.8291 1455.2979 4593.0034 131584
2110.6196 1462.6261 4616.1318 66048
2090.0732 1429.8578 4512.7129 66304
2081.6255 1406.0896 4437.6992 66304
2107.1255 1405.5591 4436.0249 66304
2134.8457 1406.5045 4439.0088 66304
2243.2114 1459.912 4607.5659 66304
2196.4578 1412.2952 4457.2847 66304
2203.916 1400.2535 4419.2803 66304
2239.6482 1406.2476 4438.1978 768
2244.6016 1393.0011 4396.3911 768
2254.3186 1382.9807 4364.7666 768
2292.9539 1390.7274 4389.2153 768
2318.7878 1390.6232 4388.8862 768
2346.8938 1391.8687 4392.8174 768
2369.5745 1389.9045 4386.6182 768
2399.6343 1392.2645 4394.0664 768
2415.4878 1386.4197 4375.6196 768
2432.1101 1381.1356 4358.9429 1024
2459.2429 1381.8684 4361.2559 1024
2477.311 1377.5457 4347.6128 1024
2497.7036 1374.5908 4338.2876 1024
2506.5803 1365.4232 4309.354 768
2525.9812 1362.1157 4298.915 66304
2534.5088 1353.0695 4270.3647 66304
2426.9126 1282.821 4048.6565 66304
2478.27 1297.1454 4093.8652 66304
2453.1868 1271.5703 4013.1484 66304
2459.8994 1262.8088 3985.4968 66304
2637.2048 1340.9564 4232.1353 66304
2497.0396 1257.7261 3969.4553 1024
2735.6248 1365.0403 4308.1455 1024
2685.6829 1327.7303 4190.3931 1024
2712.1982 1328.556 4192.999 1024
2733.8574 1327.0095 4188.1182 1024
2724.8413 1310.735 4136.7549 1024
2778.2351 1324.5043 4180.2114 1024
2814.4951 1329.9338 4197.3477 1024
2864.7183 1341.8087 4234.8252 1024
2574.0933 1195.2131 3772.1611 1024
3037.3679 1398.1819 4412.7422 1024
2901.3589 1324.1741 4179.1694 1024
2924.3945 1323.3923 4176.7021 66560
3268.406 1466.6576 4628.8555 1024
3301.3213 1469.0996 4636.5625 1024
3334.2983 1471.5284 4644.228 1024
2909.0627 1273.3496 4018.7644 1024
2994.7488 1300.2128 4103.5459 1024
3462.0959 1491.0121 4705.7197 1024
3608.6047 1541.6921 4865.6689 1024
3703.7144 1569.7838 4954.3276 1024
3659.7473 1538.9508 4857.0166 1024
3688.5269 1538.9508 4857.0166 1024
3739.3491 1548.0762 4885.8169 1024
3783.3152 1554.2449 4905.2856 1024
3724.0134 1518.2188 4791.5854 1024
3844.6628 1555.5459 4909.3921 1024
3943.4426 1583.5306 4997.7134 1024
4021.7788 1602.95 5059.002 1024
4012.9937 1587.6151 5010.604 1024
4202.8325 1650.5077 5209.0967 1024
4266.2778 1663.2087 5249.1821 1024
4302.4678 1665.1772 5255.395 1024
4349.0146 1671.0973 5274.0786 1024
4383.2476 1672.2347 5277.6689 768
4395.1182 1664.8855 5254.4736 768
4469.6665 1681.215 5306.0107 768
4350.6396 1625.0135 5128.6362 768
0 0 0 0
4556.6392 1678.5082 5297.4678 1024
4636.3257 1696.1774 5353.2329 1024
4713.1953 1712.5829 5405.0098 1024
4759.3647 1717.6871 5421.1187 1024
4823.354 1729.1108 5457.1729 1024
4862.5049 1731.5377 5464.832 1024
4910.5542 1737.08 5482.3242 1024
4973.126 1747.6533 5515.6938 1024
5005.2671 1747.4642 5515.0972 1024
5060.479 1755.28 5539.7642 1024
5096.6069 1756.4181 5543.356 1024
5149.436 1763.2605 5564.9512 1024
5116.438 1740.814 5494.1084 1024
5246.4922 1773.7775 5598.1431 1024
5286.0791 1775.9326 5604.9453 1024
5330.9307 1779.819 5617.2109 1024
5376.6099 1783.9314 5630.1899 1024
0 0 0 0
0 0 0 0
0 0 0 0
0 0 0 0
0 0 0 0
-4823.7314 1719.2581 5326.4673 13155220
-4690.4736 1682.7731 5213.4326 9995614
-4653.0884 1680.428 5206.167 11639414
-4657.2959 1693.173 5245.6523 8479816
-4651.4512 1702.4099 5274.2695 4005125
-4775.4058 1759.5989 5451.4482 4925455
-4835.3286 1793.8127 5557.4463 6242083
-4721.2695 1763.5092 5463.562 5847840
-4566.6367 1717.5269 5321.104 6902069
-4521.1758 1712.2509 5304.7583 7363647
-4501.3877 1716.6918 5318.5166 7956040
-4572.6689 1756.1714 5440.8291 7890760
-4405.9888 1704.1716 5279.7275 8417620
-4330.9438 1687.1246 5226.9141 7891276
-4302.1377 1687.9744 5229.5464 7891276
-4157.2114 1642.9452 5090.0405 8023119
-4080.0774 1624.2454 5032.1064 7825740
-4049.7561 1624.0431 5031.48 7760206
-4040.0281 1632.1576 5056.6196 7629133
-3994.865 1625.9707 5037.4521 7694927
-3940.0273 1615.7235 5005.7046 7826257
-3904.1704 1613.1633 4997.7729 7760464
-3898.834 1623.271 5029.0879 7825490
-3895.6211 1634.4255 5063.646 7825746
-3872.0662 1637.1526 5072.0942 7891539
-3847.0466 1639.2979 5078.7407 7957329
-3772.8333 1620.3492 5020.0356 7825486
-3780.8833 1636.7107 5070.7256 7694160
-3688.8105 1609.645 4986.8726 7760465
-3751.4407 1650.1929 5112.4951 7760466
-3683.2241 1633.3755 5060.3926 7760467
-3684.3506 1647.2854 5103.4873 7694675
-3645.0022 1643.1794 5090.7666 7628882
-3606.967 1639.6018 5079.6826 7694675
-3603.8711 1651.98 5118.0312 7563346
-3590.6174 1659.8723 5142.4829 7563090
-3561.7893 1660.6384 5144.8564 7234381
-3512.0825 1651.5992 5116.8521 6971208
-3472.4998 1647.205 5103.2383 6905415
-3440.0452 1646.1449 5099.9536 6971210
-3403.2859 1642.9875 5090.1719 7102797
-3320.8442 1617.5226 5011.2788 7102797
-3285.2559 1614.6259 5002.3037 7102797
-3247.9912 1610.8445 4990.5889 7037004
-3208.5391 1605.8992 4975.2676 7037260
-3205.4053 1619.2083 5016.5005 6971981
-3173.1887 1617.9377 5012.5645 6906187
-3158.4451 1625.6361 5036.4155 6971982
-3152.8406 1638.2306 5075.4346 7169360
-3088.6946 1620.3561 5020.0571 7169360
-3045.7063 1613.3416 4998.3252 7037775
-3029.4641 1620.4958 5020.4902 7103569
-2996.55 1618.7858 5015.1919 6972240
-2964.8933 1617.7274 5011.9131 6971981
-2925.7183 1612.504 4995.73 6971724
-2911.0994 1620.8462 5021.5752 6840396
-2860.7231 1609.246 4985.6362 6709068
-2838.3225 1613.3051 4998.2119 6643275
-2805.4246 1611.42 4992.3721 6643275
-2782.0369 1615.0157 5003.5122 6643275
-2753.5725 1615.7102 5005.6636 6709068
-2730.7351 1619.7576 5018.2026 6774860
-2695.5828 1616.5087 5008.1372 6709068
-2662.3196 1614.3331 5001.397 6774604
-2638.0598 1617.6294 5011.6094 6708812
-2625.2124 1628.0781 5043.981 6709068
-2603.7375 1633.3556 5060.3311 6643276
-2577.9131 1635.9956 5068.5103 6577483
-2529.6165 1624.2684 5032.1782 6643276
-2516.7024 1635.252 5066.2061 6643276
-2501.0637 1644.7085 5095.5039 6577483
-2480.1592 1650.8914 5114.6587 6577483
-2430.3042 1637.718 5073.8462 6643276
-2406.6829 1642.1143 5087.4668 6643276
-2333.8086 1612.5898 4995.9966 6709068
-2303.3206 1611.9707 4994.0781 6445897
-2250.5017 1595.5038 4943.0615 6643275
-2243.7676 1611.7056 4993.2563 6709069
-2188.728 1593.1786 4935.8579 6709069
-2168.6956 1599.9766 4956.9189 6708812
-2124.3308 1588.7637 4922.1797 6708812
-2083.6985 1580.0687 4895.2417 6774862
-2070.8206 1592.4714 4933.667 6840655
-2056.5984 1604.1808 4969.9438 7169620
-2024.8341 1602.3486 4964.2676 7301206
-1994.98 1601.9962 4963.1758 7366999
-1968.6062 1604.4698 4970.8394 7103827
-1933.5315 1599.8193 4956.4316 6774862
-1899.9148 1596.2504 4945.375 6840654
-1865.4307 1591.8295 4931.6782 4472107
-1807.3347 1566.7983 4854.1289 6445897
-1798.2505 1584.1337 4907.8359 6643276
-1759.375 1575.3635 4880.665 6709069
-1751.8027 1594.798 4940.875 6906447
-1727.1879 1599.1143 4954.2471 6906448
-1712.8831 1613.29 4998.1655 6840655
-1701.2479 1630.5237 5051.5576 6841168
-1644.1921 1604.0623 4969.5767 6775121
-1631.7556 1620.9601 5021.9282 6775119
-1610.2802 1629.3395 5047.8887 6840913
-1647.6434 1698.6982 5262.77 6906707
-1561.0763 1640.4974 5082.457 6972500
-1534.8093 1644.6215 5095.2339 6906707
-1497.4967 1636.8374 5071.1182 6906707
-1483.505 1654.7477 5126.606 6775121
-1442.9208 1643.1243 5090.5957 6906707
-1404.6654 1633.7134 5061.4395 6906707
-1376.9113 1636.3717 5069.6753 6840914
-1343.2488 1631.9706 5056.04 6709328
-1309.498 1627.2588 5041.4424 6709328
-1270.0792 1615.1193 5003.8325 6774864
-1230.4565 1602.1335 4963.6016 6709328
-1193.0187 1591.4266 4930.4302 6511949
-1183.0487 1617.7428 5011.9604 6577742
-1159.2502 1626.0175 5037.5967 6511949
-1111.4922 1600.2347 4957.7183 6511949
-1079.4938 1596.3573 4945.7056 6775121
-1049.8313 1595.8143 4944.0239 6906707
-1009.483 1578.5306 4890.4771 6577742
-993.96362 1600.198 4957.605 6577742
-933.00549 1547.8047 4795.2842 6511948
-949.8952 1625.3218 5035.4414 6577742
-899.8089 1589.5504 4924.6177 6577742
-878.11737 1603.2233 4966.9775 6709328
-858.61218 1621.9745 5025.0708 6643535
-818.15179 1601.0648 4960.2905 6380363
-790.71466 1605.0325 4972.5825 6380363
-770.16083 1623.8201 5030.7886 6511949
-732.23529 1606.0188 4975.6387 6511949
-696.34845 1591.3833 4930.2959 6511949
-675.21844 1610.6669 4990.0386 6446156
-642.00439 1601.571 4961.8589 6511949
-603.09424 1576.7107 4884.8384 6511949
-625.34125 1717.2915 5320.3745 6511949
-579.08319 1674.6852 5188.375 6643278
-520.18909 1588.7095 4922.0117 6709328
-492.52054 1593.5508 4937.0112 6709328
-460.81998 1585.1344 4910.936 6709328
-428.95108 1574.9652 4879.4307 6775121
-399.37268 1572.344 4871.3096 6775121
-371.72372 1577.5024 4887.291 6709327
-344.17953 1584.0144 4907.4663 6709328
-317.03122 1593.7184 4937.5303 6643535
-291.87018 1616.4014 5007.8052 6643535
-261.26874 1610.6793 4990.0771 6643535
-228.4839 1588.3188 4920.8018 6511949
-202.78842 1615.9076 5006.2749 6709327
-170.33157 1589.8413 4925.5186 6511949
-141.26277 1591.1577 4929.5972 6380363
-115.3465 1637.9268 5074.4927 6380363
-84.17495 1616.7388 5008.8501 6314569
-54.133301 1605.9933 4975.5591 6380362
-25.083593 1634.1689 5062.8506 6511949
4.9390574 1641.8905 5086.7729 6446156
34.934959 1635.0912 5065.708 6446155
64.50106 1623.7563 5030.5913 6577742
93.048904 1602.0551 4963.3584 6511949
124.81561 1632.8879 5058.8823 6446156
154.14078 1626.0233 5037.6147 6446156
181.34227 1602.618 4965.1021 6643535
206.36246 1569.1606 4861.4473 6840914
241.11354 1608.829 4984.3447 6775121
267.52441 1590.2626 4926.8237 6775121
296.99689 1591.7581 4931.457 6906706
333.20499 1625.8518 5037.0835 6709328
353.20801 1581.7687 4900.5088 6709328
380.65771 1575.1984 4880.1533 6775121
408.40219 1570.6896 4866.1841 6643535
437.89578 1573.0586 4873.5239 6314313
467.72168 1576.2544 4883.4248 6182727
491.05109 1558.4601 4828.2954 6774607
531.83221 1594.9624 4941.3843 6906449
557.71942 1585.3192 4911.5083 6840657
574.85602 1552.9924 4811.3564 6248519
620.36194 1596.74 4946.8916 6445899
646.84674 1589.7908 4925.3618 6577485
666.92346 1568.3718 4859.0034 6643277
695.87891 1568.7412 4860.1479 6643276
729.70129 1579.6171 4893.8428 6774862
761.19415 1584.8113 4909.9351 6708813
798.94012 1602.1631 4963.6929 6906448
808.6106 1563.9801 4845.3975 6972241
829.89886 1550.1158 4802.4443 6906448
871.76001 1574.3235 4877.4424 6314312
906.95557 1585.3265 4911.5312 6051142
931.28687 1577.2455 4886.4951 5985348
964.23724 1583.809 4906.8296 5919555
994.86749 1586.2889 4914.5127 6314056
1024.4342 1586.9801 4916.6543 6511691
1059.7068 1596.228 4945.3052 6643278
1088.3115 1595.2046 4942.1348 6774864
1125.2366 1606.111 4975.9238 6906450
1146.6622 1594.902 4941.1973 6840654
1166.3623 1581.9109 4900.9492 6972241
1193.2284 1579.0339 4892.0361 6906448
1220.6527 1577.0146 4885.7803 6774861
1251.4536 1579.3502 4893.0161 6774862
1282.3043 1581.6415 4900.1147 6840655
1304.2384 1573.0768 4873.5801 6972241
1321.3649 1559.2102 4830.6196 6906447
1360.08 1570.8658 4866.7305 7103057
1387.7604 1569.5573 4862.6763 6905678
1399.4546 1550.5895 4803.9116 6642506
1417.5444 1539.3229 4769.0063 6379591
1473.6583 1568.9802 4860.8887 6445638
1496.6606 1562.923 4842.1226 6445639
1525.4834 1563.0576 4842.5396 6643275
1568.9425 1577.907 4888.5449 6709067
1605.9807 1585.8774 4913.2383 6774602
1639.6979 1590.3434 4927.0737 6840394
1649.7737 1572.124 4870.6284 6906186
1674.2981 1568.0632 4858.0474 6906186
1725.7109 1588.8962 4922.5908 7299917
1761.233 1594.649 4940.4136 7102795
1759.7269 1567.236 4855.4844 7102794
1790.5884 1569.068 4861.1606 7037001
1815.5701 1565.7715 4850.9473 7036747
1861.7639 1580.5861 4896.8447 6444607
1877.5964 1569.5656 4862.7017 6708293
1898.724 1563.2375 4843.0972 6775111
1952.7407 1583.7729 4906.7183 6906701
1967.7821 1572.5586 4871.9746 3222812
1983.2675 1562.0181 4839.3188 854535
1990.1322 1545.0852 4786.8589 458752
2004.3767 1534.2773 4753.3745 524288
1985.6578 1498.8861 4643.7285 458752
2004.8342 1492.6771 4624.4922 459264
2001.7141 1470.2585 4555.0371 919808
2009.4882 1456.3319 4511.8906 328704
2009.599 1437.2902 4452.897 197120
2070.2676 1461.4922 4527.8779 197120
2095.5293 1460.3998 4524.4932 66304
2072.0679 1425.8079 4417.3232 66304
2070.5066 1406.9608 4358.9331 66304
2083.0415 1398.0388 4331.2915 768
2110.3882 1399.1541 4334.7466 768
2108.9575 1381.3928 4279.7202 768
2157.3447 1396.2975 4325.8965 66304
2163.4331 1383.7964 4287.1665 768
2195.8689 1388.2422 4300.9404 768
2224.3811 1390.1343 4306.8022 768
2262.8279 1398.1216 4331.5479 768
2255.4316 1377.9227 4268.9692 768
2290.6323 1383.907 4287.5093 768
2313.0386 1382.115 4281.9575 768
2334.6313 1379.881 4275.0366 768
2334.5522 1365.0236 4229.0063 768
2346.5349 1357.4591 4205.5708 768
2370.866 1357.1222 4204.5269 768
2414.7773 1367.8838 4237.8677 768
2434.1941 1364.6914 4227.9771 768
2465.313 1368.0579 4238.4067 768
2490.3337 1368.0065 4238.2476 768
2491.9683 1355.2377 4198.6885 768
2494.2874 1343.09 4161.0532 768
2526.1938 1346.9559 4173.0308 768
2526.4043 1334.0106 4132.9243 66304
2550.0076 1333.5471 4131.4888 768
2546.0259 1318.8041 4085.813 768
2591.3596 1329.6428 4119.3926 66304
2442.7263 1241.6823 3846.8801 66304
2557.2236 1287.8657 3989.9619 768
2605.5244 1300.1704 4028.0835 1024
2628.52 1299.739 4026.7468 1024
2641.5745 1294.444 4010.3423 1024
2716.7986 1319.4365 4087.7722 1024
2744.0588 1320.8992 4092.3037 1024
2783.771 1328.2776 4115.1631 1024
2559.103 1210.4742 3750.1941 1024
2555.3206 1198.2802 3712.4153 1024
2559.2688 1189.8884 3686.4165 1024
2770.4792 1277.1863 3956.876 1024
2764.5818 1263.7725 3915.3184 1024
2892.4465 1311.2198 4062.3159 1024
3183.9119 1431.4362 4434.7603 1024
3314.5781 1477.9834 4578.9692 1024
3305.0859 1461.785 4528.7847 1024
3260.5063 1430.4539 4431.7173 1024
3347.2708 1456.7865 4513.2988 66304
3396.426 1466.4633 4543.2788 66304
3478.9666 1490.2892 4617.0942 1024
3515.834 1494.3311 4629.6162 1024
3546.1873 1495.5629 4633.4326 1024
3576.4854 1496.7527 4637.1187 1024
3605.5669 1497.4192 4639.1836 1024
3636.3123 1498.7612 4643.3418 1024
3703.7327 1515.0859 4693.9175 1024
3881.8157 1576.0985 4882.9419 1024
3854.5027 1553.4303 4812.7129 1024
3897.8503 1559.3633 4831.0942 1024
3993.9868 1586.1744 4914.1582 1024
3988.5271 1572.5414 4871.9214 1024
4083.0713 1598.2493 4951.5674 1024
4109.3706 1597.0675 4947.9062 1024
4125.5737 1592.0065 4932.2266 1024
4187.0562 1604.3666 4970.5195 1024
4223.5508 1607.0459 4978.8208 1024
4248.2339 1605.2256 4973.1807 768
4229.1729 1587.0145 4916.7612 1024
4312.0474 1607.0432 4978.812 1024
4377.085 1620.197 5019.564 1024
4417.3818 1624.0774 5031.5859 1024
4479.1372 1635.7419 5067.7241 1024
4494.521 1630.4294 5051.2651 1024
4548.0288 1638.9255 5077.5874 1024
4654.0742 1666.1182 5161.8335 1024
4550.5063 1618.4059 5014.0151 1024
4753.9717 1679.8019 5204.2271 1024
4818.9482 1691.787 5241.3584 1024
4848.397 1691.2261 5239.6206 1024
4900.311 1698.4587 5262.0283 1024
4933.3511 1699.0995 5264.0132 1024
4969.8315 1700.9094 5269.6211 1024
5007.5957 1703.1338 5276.5122 1024
5120.1274 1730.6018 5361.6113 1024
0 0 0 0
0 0 0 0
0 0 0 0
0 0 0 0
0 0 0 0
-4550.958 1651.8138 5025.2651 6111522
-4495.9243 1642.5863 4997.1924 5586208
-4462.4458 1641.1637 4992.8643 5849636
-4725.0479 1749.3389 5321.9629 7692611
-4823.4878 1797.7826 5469.3413 8087882
-4891.3179 1835.3954 5583.7695 7759435
-4561.4297 1723.2662 5242.6426 7759690
-4417.311 1680.2626 5111.814 8023888
-4345.8032 1664.4758 5063.7861 7760716
-4349.252 1677.3781 5103.0381 7826251
-4343.5273 1686.8979 5132.0005 8022861
-4140.5859 1619.4191 4926.7114 8088655
-4081.4255 1607.6151 4890.8008 5852466
-4032.7051 1599.7842 4866.9766 8089169
-4092.803 1635.3197 4975.0854 8023377
-4056.8047 1632.696 4967.1035 7891792
-4006.8083 1624.3594 4941.7412 7694925
-3987.7354 1628.5283 4954.4243 7563340
-3876.6125 1594.8889 4852.084 7563597
-3878.2117 1607.4685 4890.3545 7629393
-3845.6875 1605.9873 4885.8481 7628880
-3879.5718 1632.4266 4966.2842 7760722
-3845.6624 1630.5261 4960.502 7760466
-3835.9895 1638.9517 4986.1348 7826259
-3823.0955 1646.1212 5007.9463 7957845
-3801.2725 1649.5281 5018.311 7892564
-3745.793 1638.2686 4984.0566 7760980
-3707.5908 1634.4469 4972.4297 7695188
-3662.7729 1627.6238 4951.6724 7563346
-3624.1023 1623.4443 4938.957 7563346
-3613.3342 1631.7976 4964.3706 7563346
-3571.6995 1626.2344 4947.4453 7497552
-3553.627 1631.3959 4963.1479 7431760
-3532.8545 1635.3936 4975.3101 7365967
-3468.3875 1619.0618 4925.6245 6708036
-3440.0974 1619.4838 4926.9082 6839623
-3420.2974 1623.9438 4940.4771 7102795
-3367.856 1612.8494 4906.7246 7168587
-3353.4778 1619.9484 4928.3218 7102796
-3303.1694 1609.6633 4897.0317 7036747
-3287.321 1616.1372 4916.7271 7036747
-3247.8508 1611.01 4901.1289 6905418
-3216.5542 1609.8812 4897.6948 7037261
-3177.8711 1605.0011 4882.8481 7037261
-3165.3127 1613.3473 4908.2393 7037261
-3115.7991 1602.8374 4876.2656 7037517
-3113.2937 1616.5392 4917.9502 7103568
-3082.0293 1615.4261 4914.564 7169617
-3063.5095 1621.0356 4931.6294 7103826
-2998.4646 1601.8975 4873.4062 6972497
-2970.26 1602.2603 4874.5098 6906447
-2937.532 1600.166 4868.1382 6906447
-2901.9934 1596.4839 4856.9365 6774861
-2874.2908 1597.0822 4858.7563 6709068
-2842.5254 1595.4124 4853.6763 6774861
-2807.926 1592.1013 4843.6035 6774861
-2774.322 1589.2924 4835.0576 6774860
-2755.7068 1595.1005 4852.7275 6643018
-2729.5967 1596.6475 4857.4336 6708811
-2696.3503 1594.0081 4849.4043 6643275
-2670.9221 1595.984 4855.4155 6643275
-2643.2273 1596.6335 4857.3916 6709067
-2617.5295 1598.5171 4863.1216 6577482
-2598.459 1604.5347 4881.4292 6708812
-2562.9202 1600.4045 4868.8638 6709069
-2539.0674 1603.5605 4878.4653 6709069
-2508.05 1602.2123 4874.3638 6709069
-2490.699 1609.6648 4897.0361 6709069
-2460.6531 1608.9918 4894.9893 6708812
-2426.7349 1605.7407 4885.0981 6709069
-2413.6499 1616.3625 4917.4126 6709069
-2404.728 1630.0662 4959.1025 6709068
-2372.5232 1628.1306 4953.2144 6709069
-2320.0291 1612.0491 4904.2896 6577483
-2285.5088 1608.2069 4892.6011 5656381
-2243.6348 1599.025 4864.667 6643276
-2197.0935 1586.2345 4825.7549 6708812
-2147.3604 1570.7717 4778.7129 6709069
-2125.4272 1575.5029 4793.1069 6709069
-2105.6653 1581.9935 4812.853 6840398
-2061.6201 1570.1678 4776.876 6840655
-2024.993 1563.7415 4757.3247 6774862
-2031.6288 1591.0133 4840.2935 6840655
-1997.0659 1586.3409 4826.0786 6840655
-1943.4049 1566.1421 4764.6284 6972241
-1911.6908 1563.2948 4755.9663 6906448
-1918.5181 1592.3513 4844.3638 6840655
-1902.4865 1603.0298 4876.8506 6774862
-1867.124 1597.4983 4860.0225 6774862
-1818.1661 1579.9791 4806.7241 6840398
-1778.9069 1570.4644 4777.7778 6775631
-1737.8262 1559.0079 4742.9243 6709838
-1778.2452 1621.4904 4933.0127 6775375
-1734.3495 1607.894 4891.6489 6906960
-1696.7249 1599.7483 4866.8672 6841168
-1636.895 1570.0226 4776.4336 6775119
-1607.1183 1568.5836 4772.0562 6709584
-1619.0314 1608.5117 4893.5283 6775377
-1578.4908 1596.8331 4857.999 6775377
-1567.4011 1615.0671 4913.4717 6906963
-1569.447 1647.7827 5013.0015 6906707
-1522.8403 1629.6941 4957.9707 6840914
-1477.3 1612.0575 4904.3154 7038293
-1469.7653 1636.0176 4977.2085 6972500
-1437.4911 1632.8572 4967.5938 6906707
-1394.6761 1617.3412 4920.3896 6840914
-1356.9114 1607.1439 4889.3672 6709328
-1337.7396 1619.0039 4925.4487 6643535
-1291.6104 1598.04 4861.6709 6709071
-1261.288 1596.1228 4855.8379 6511949
-1230.3018 1593.2565 4847.1177 6577742
-1201.6094 1593.2946 4847.2334 6577742
-1161.0708 1577.2423 4798.3979 6511949
-1131.9475 1576.2802 4795.4712 6446156
-1102.0146 1574.1122 4788.8755 6314570
-1059.3022 1553.0929 4724.9292 6446155
-1020.9269 1537.4639 4677.3813 6577742
-1004.727 1555.2894 4731.6118 6774864
-990.41614 1577.1467 4798.1074 6709071
-955.84644 1567.082 4767.4878 6577741
-943.67078 1594.2367 4850.0996 6709328
-905.83856 1578.3916 4801.895 6577742
-868.80487 1562.9556 4754.9341 6709327
-841.47314 1564.5232 4759.7031 6577742
-839.66766 1615.3055 4914.1968 6511948
-798.00677 1590.3108 4838.1558 6577742
-765.32678 1582.0175 4812.9253 6446156
-747.09186 1604.0975 4880.0991 6446156
-709.14551 1583.9287 4818.7402 6446156
-676.76343 1575.0173 4791.6294 6577485
-648.23322 1574.6825 4790.6108 6380363
-625.39648 1588.7808 4833.5015 6511948
-588.26544 1566.1759 4764.731 6511948
-571.85052 1599.2257 4865.2778 6577742
-516.51019 1521.1478 4627.7437 6051397
-492.94504 1533.1409 4664.23 5459004
-464.96262 1532.0042 4660.7715 5722176
-440.59531 1543.3875 4695.4028 6248521
-418.74072 1565.7007 4763.2856 6314570
-387.76364 1554.6641 4729.7095 6511692
-360.05692 1556.0415 4733.8999 6446156
-333.58374 1563.433 4756.3867 6380363
-313.73712 1606.1119 4886.2275 6380363
-286.68597 1616.8372 4918.8564 6380362
-255.68633 1605.201 4883.4565 6446156
-227.69817 1611.9142 4903.8794 6511949
-196.78967 1596.8936 4858.1826 6577485
-165.90662 1576.9672 4797.561 6446156
-140.53777 1612.0516 4904.2974 6446156
-111.22423 1608.3842 4893.1401 6380106
-81.178886 1587.8169 4830.5688 6314570
-52.368515 1582.1577 4813.3525 6248777
-23.679144 1570.9902 4779.3779 6248777
4.6568537 1576.4966 4796.1294 6314570
33.329941 1588.6074 4832.9741 6314570
62.453896 1601.083 4870.9282 6446156
91.050056 1596.4186 4856.7373 6446156
120.07262 1599.675 4866.645 6709328
148.97635 1600.3938 4868.8311 6643535
174.7543 1572.748 4784.7256 6709328
202.22646 1565.9396 4764.0122 6643535
233.95963 1589.7523 4836.457 6643535
262.25983 1587.5868 4829.8687 6775121
288.0719 1572.2672 4783.2627 6775121
321.3551 1596.8165 4857.9482 6709328
350.92282 1600.3846 4868.8037 6709328
377.01602 1588.769 4833.4658 6643534
408.63101 1600.4198 4868.9106 6643535
431.4425 1578.3285 4801.7026 6577485
459.35861 1576.4894 4796.1074 6511692
492.90375 1593.0574 4846.5117 6643277
518.69037 1584.1063 4819.2803 6643278
548.83752 1588.7117 4833.291 6709069
570.06238 1568.3138 4771.2354 6709071
597.08093 1565.0297 4761.2441 6511692
623.55084 1560.6687 4747.9771 6511692
653.4585 1564.9172 4760.9019 6511692
681.21228 1563.8693 4757.7134 6314313
697.34119 1537.2777 4676.8149 6116934
721.2243 1529.1595 4652.1177 6445897
767.11487 1566.5822 4765.9673 6577484
782.18921 1540.6497 4687.0737 6577483
822.89813 1565.2557 4761.9321 6906449
834.57965 1534.8473 4669.4209 7169622
872.50208 1553.1002 4724.9517 7038036
899.80591 1551.9044 4721.3135 6972243
941.11078 1574.2003 4789.1436 6906449
961.97498 1562.0002 4752.0278 6774864
998.02863 1574.4568 4789.9238 6314312
1040.2487 1595.6832 4854.5005 6577485
1058.0942 1579.3843 4804.915 6577485
1092.7202 1588.3307 4832.1323 6840657
1127.1573 1596.553 4857.1465 6774862
1154.014 1593.8958 4849.0625 6906448
1177.0094 1586.1643 4825.541 6906448
1203.0098 1582.7527 4815.1626 6840655
1226.7769 1576.6294 4796.5337 6906447
1246.0571 1565.1472 4761.6021 7038034
1282.7577 1575.5706 4793.3125 6972241
1310.3245 1574.5667 4790.2578 7103570
1323.839 1557.077 4737.0503 6709069
1342.7845 1546.5692 4705.0825 6643276
1368.764 1544.4253 4698.5601 6445897
1402.1355 1550.5413 4717.1665 6380104
1432.4623 1553.1171 4725.0024 6182725
1458.1641 1550.6757 4717.5752 6182725
1487.776 1552.4061 4722.8398 6314311
1535.811 1572.9412 4785.313 6182725
1564.1659 1572.9412 4785.313 6050882
1603.4532 1583.7391 4818.1636 6248260
1636.2517 1587.8624 4830.7075 6050625
1659.3489 1582.5913 4814.6714 5656123
1684.8855 1579.7858 4806.1362 5326645
1709.1306 1575.8826 4794.2617 5392438
1741.5488 1579.5199 4805.3271 5589816
1758.4073 1569.155 4773.7944 5128753
1781.752 1564.8147 4760.5898 4800303
1800.6567 1556.7711 4736.1191 4734512
1813.6582 1543.949 4697.1108 3550496
1861.7247 1560.9139 4748.7227 3221532
1896.0072 1565.9889 4764.1621 3155997
1935.7969 1575.3967 4792.7832 3024412
1972.5593 1582.1045 4813.1904 2958875
1944.9539 1537.7301 4678.1914 2695702
1976.7738 1540.9259 4687.9141 1314310
1986.7131 1527.2134 4646.1968 327680
2001.6219 1517.6434 4617.0825 458752
2001.2633 1496.9117 4554.0112 393216
2006.0708 1480.5447 4504.2178 393216
1991.5852 1450.5553 4412.9819 262400
1998.6018 1436.8011 4371.1382 197120
2006.6428 1424.126 4332.5767 196864
2007.8258 1406.9653 4280.3696 197120
2044.0782 1414.5007 4303.2944 196864
2038.8948 1393.5303 4239.4966 196864
2057.3918 1389.0582 4225.8916 131584
2077.6885 1385.8942 4216.2656 131584
2087.2156 1375.7073 4185.2739 66304
2111.3777 1375.292 4184.0107 66048
2134.5349 1374.2394 4180.8086 768
2148.6077 1367.4297 4160.0913 768
2165.1033 1362.2986 4144.4814 768
2185.6001 1359.7722 4136.7954 768
2208.1628 1358.5729 4133.1465 768
2234.8938 1359.9362 4137.2939 768
2261.7881 1361.368 4141.6504 768
2289.2048 1363.0804 4146.8599 768
2316.1177 1364.4596 4151.0557 768
2313.2893 1348.473 4102.4199 768
