# .PCD v0.7 - Point Cloud Data file format
VERSION 0.7
FIELDS x y z rgb
SIZE 4 4 4 4
TYPE F F F U
COUNT 1 1 1 1
WIDTH 1306
HEIGHT 1
VIEWPOINT 0 0 0 1 0 0 0
POINTS 1306
DATA ascii
5058.3291 1093.8773 5684.9136 593408
5059.8887 1086.9761 5649.0474 768
5057.8667 1079.401 5609.6797 132608
5030.4595 1066.543 5542.8555 659456
4963.7852 1045.5803 5433.9121 512
4875.2588 1020.3145 5302.605 512
4776.9341 993.33496 5162.3916 196864
4703.5347 971.84869 5050.7271 5460779
4515.3184 927.06055 4817.9614 8745538
4545.9883 927.49341 4820.2109 9666902
4467.8867 905.86725 4707.8193 8876101
4550.4507 916.88269 4765.0664 1969408
0 0 0 0
0 0 0 0
0 0 0 0
-8728.6455 1887.0074 9513.8594 1280
-8744.6426 1902.7546 9593.2529 1024
-8736.0352 1913.319 9646.5166 1024
-8691.54 1916.1112 9660.5938 1024
-8584.6904 1905.1023 9605.0898 1024
-8600.5215 1921.3536 9687.0254 1024
-8301.2012 1866.9456 9412.7119 1024
-8275.7227 1873.8049 9447.2959 1024
-8255.626 1881.985 9488.5371 1024
-8172.7812 1875.8745 9457.7305 1024
-8157.3687 1885.2643 9505.0713 1024
-8116.813 1888.9332 9523.5693 1024
-8093.7231 1896.7468 9562.9629 1024
-8095.7251 1910.592 9632.7676 1024
-8034.9956 1909.7241 9628.3916 1024
-7960.3164 1905.5048 9607.1182 1024
-7928.333 1911.5183 9637.4375 1024
-7893.6948 1916.9745 9664.9463 1024
-7804.4321 1909.1481 9625.4873 1024
-7780.4795 1917.3002 9666.5889 1024
-7601.2324 1887.0214 9513.9297 1280
-7585.4067 1897.1627 9565.0596 1280
-7644.8066 1926.4127 9712.5322 1280
-7522.1689 1909.8871 9629.2139 1280
-7509.1357 1921.1504 9686 1280
-7471.1172 1926.1455 9711.1846 1280
-7451.6763 1936.0446 9761.0938 1280
-7389.8682 1935.0052 9755.8535 1280
-7362.4531 1943.026 9796.292 1280
-7304.8091 1943.1332 9796.833 1280
-7184.0347 1926.3146 9712.0371 1280
-7179.3975 1940.6165 9784.1436 1280
-7167.6108 1953.2029 9847.6016 1280
-7099.9502 1950.6451 9834.7061 1280
-6980.6475 1933.7394 9749.4717 1280
-6976.9707 1948.849 9825.6504 1280
-6799.7285 1915.3236 9656.623 1024
-6714.3057 1907.3118 9616.2295 1024
-6673.5776 1911.968 9639.7051 1280
-6513.2827 1882.1533 9489.3857 1280
-6564.2119 1913.3881 9646.8652 1280
-6610.4326 1943.7878 9800.1328 1280
-6584.8721 1953.4318 9848.7559 1280
-6799.8296 2035.2367 10261.198 1280
-6901.2344 2084.2244 10508.183 1024
-7176.9199 2187.2173 11027.449 1024
-7387.3887 2272.0449 11455.13 1024
-6802.1758 2111.459 10645.492 1024
-6874.354 2153.8369 10859.152 1024
-7165.4258 2266.2463 11425.896 1024
-7144.2671 2281.1077 11500.822 1280
-6432.3687 2073.5833 10454.532 1536
-6724.0347 2188.6851 11034.849 1280
-6645.2954 2184.2959 11012.72 768
-6587.4585 2186.7583 11025.135 1024
-6405.7178 2147.7271 10828.349 1024
-6087.6118 2061.7227 10394.734 1024
-5820.3921 1991.3702 10040.033 1024
-5628.8403 1945.7209 9809.8799 1024
-5631.1069 1966.8152 9916.2324 1024
-5440.9272 1920.4286 9682.3613 1024
-5432.1519 1937.764 9769.7627 1024
-5338.1792 1924.7538 9704.168 1024
-5396.0327 1966.7994 9916.1523 1024
-5519.9229 2034.1056 10255.494 1024
-5541.5635 2064.8113 10410.306 1024
-5517.3037 2078.9128 10481.403 1024
-4963.6172 1891.5776 9536.9014 1024
-4836.854 1864.4965 9400.3643 1024
-4695.0649 1830.925 9231.1045 1024
-4573.54 1804.5574 9098.165 1024
-4459.0107 1780.3541 8976.1377 1024
-4387.7983 1773.0702 8939.4141 1280
-4288.6567 1754.1844 8844.1963 1280
-4154.0557 1720.1483 8672.5938 1280
-4102.9751 1720.2772 8673.2441 1280
-4072.0645 1728.9736 8717.0898 1280
-4030.8132 1733.4468 8739.6416 1280
-3928.2595 1711.3298 8628.1338 1280
-3877.8608 1711.6508 8629.751 1280
-3830.7769 1713.4624 8638.8857 1280
-3717.0669 1685.1189 8495.9834 1280
-3583.6887 1646.9578 8303.584 1280
-3603.2222 1678.9865 8465.0654 1280
-3396.8835 1605.1842 8092.9712 1280
-3323.1753 1592.8398 8030.7339 1280
-3309.7148 1609.4341 8114.3984 1280
-3367.7935 1661.818 8378.5059 1280
-3122.5288 1563.8468 7884.5576 1280
-3025.5027 1538.2689 7755.6001 1280
-3002.446 1550.0909 7815.2041 1280
-2956.6948 1550.3829 7816.6763 1280
-2918.3572 1554.6337 7838.1069 1280
-2857.6626 1546.9196 7799.2139 1280
-2806.8047 1544.3639 7786.3291 1024
-2731.8164 1528.2242 7704.9565 1024
-2610.4729 1485.163 7487.8521 1024
-2628.5815 1521.3224 7670.1592 1024
-2515.7249 1481.6229 7470.0039 1024
-2510.2866 1504.8978 7587.3506 1024
-2470.2795 1507.9202 7602.5884 1024
-2409.7324 1498.2836 7554.0029 1024
-2385.4934 1511.2845 7619.5508 1024
-2356.1926 1521.5186 7671.1484 1024
-2270.9597 1495.3264 7539.0933 1024
-2071.6396 1391.4542 7015.394 1280
-2032.9565 1393.4325 7025.3672 132608
-2002.4938 1401.2452 7064.7578 462592
-1984.3895 1418.2245 7150.3633 857344
-1994.9087 1456.8475 7345.0918 1515520
-1905.8315 1422.8378 7173.6226 1121024
-1857.3395 1418.2673 7150.5796 1647360
-1820.3134 1422.4432 7171.6333 1713152
-1761.525 1409.4067 7105.9062 1976576
-1706.833 1399.0895 7053.8892 1779200
-1692.2212 1421.9326 7169.0586 1779200
-1643.9031 1416.9001 7143.6865 1647616
-1598.9663 1414.5934 7132.0562 1581568
-1558.1477 1415.9033 7138.6606 857856
-1536.1243 1434.8425 7234.1479 857600
-1498.3539 1439.7382 7258.8301 1054976
-1456.2706 1440.6564 7263.46 922880
-1404.7007 1431.9598 7219.6138 658688
-1384.233 1455.4187 7337.8882 1513216
-1372.2924 1489.6553 7510.501 1052160
-1347.4178 1511.6764 7621.5264 1315331
-1322.623 1535.3171 7740.7178 5723195
-1294.0355 1556.0958 7845.4785 7895909
-1240.4966 1547.3005 7801.1353 7632998
-1110.0339 1438.1619 7250.8828 7830123
-1075.6115 1449.6743 7308.9263 7764331
-1074.3191 1508.6779 7606.4087 7698281
-1045.8068 1532.9498 7728.7822 7566697
-971.47882 1489.2124 7508.2681 7632491
-931.39941 1496.2972 7543.9883 7566444
-895.88452 1511.799 7622.1445 6711392
-841.28534 1495.0325 7537.6113 6711393
-798.94598 1499.3939 7559.6006 7237737
-762.3877 1515.7673 7642.1519 7303531
-708.63397 1497.8621 7551.8779 7435117
-672.90997 1518.2218 7654.5269 7566960
-623.76923 1509.0659 7608.3647 7698802
-575.20343 1499.9827 7562.5693 7764338
-532.91595 1507.1201 7598.5547 7764338
-492.33069 1520.8331 7667.6924 7698802
-447.38586 1522.4984 7676.0884 7633009
-397.10272 1504.3177 7584.4258 7764339
-354.4046 1513.8975 7632.7246 7369580
-313.23801 1533.7792 7732.9634 7501166
-271.39523 1556.5959 7848.001 7632495
-225.14281 1558.3273 7856.7295 7764338
-175.76263 1533.6691 7732.4087 7632752
-128.52385 1516.8959 7647.8418 7106408
-83.932465 1530.1156 7714.4927 7303787
-38.152546 1527.3752 7700.6768 7172201
0 0 0 0
0 0 0 0
0 0 0 0
144.56702 1529.5034 7711.4062 7106408
0 0 0 0
0 0 0 0
280.87045 1525.2887 7690.1567 7566959
323.90051 1513.4336 7630.3857 7632752
370.12448 1517.5785 7651.2832 7435373
414.07501 1512.5142 7625.7505 7106408
461.56058 1520.0889 7663.9399 7106152
507.5517 1521.8256 7672.6958 7237995
553.01294 1521.8182 7672.6597 7237739
598.87604 1522.8342 7677.7817 7040360
658.77094 1556.8679 7849.3721 6974567
694.133 1532.2581 7725.2944 7040360
735.35297 1522.8242 7677.731 7171946
784.6123 1530.1681 7714.7573 7171946
825.77399 1521.7804 7672.4688 7237994
883.16284 1542.6123 7777.498 7172201
928.81409 1541.8926 7773.8696 7172201
969.46924 1533.3389 7730.7437 7237739
1009.2902 1524.2972 7685.1577 7237995
1057.7673 1528.545 7706.5742 6974567
1116.1862 1546.213 7795.6519 6711394
1171.8752 1558.8457 7859.3438 7106409
1212.8798 1551.7257 7823.4453 7040615
1254.8628 1546.3357 7796.2705 7106408
1310.5867 1557.6598 7853.3643 7040615
1369.9192 1572.349 7927.4238 7172201
1403.1923 1557.1459 7850.7729 7172201
1468.3582 1577.1747 7951.7534 7303787
1526.2043 1588.3402 8008.0479 7303787
1567.0211 1581.6443 7974.2886 7369580
1615.5906 1582.9363 7980.8018 7566446
1680.1729 1599.3977 8063.7969 7501165
1712.6173 1585.2019 7992.2251 7501166
1757.5927 1583.0566 7981.4087 7501166
1806.9722 1584.8866 7990.6357 7435630
1851.0275 1582.0726 7976.4482 7566959
1912.0568 1593.545 8034.2896 7566959
1951.9071 1587.238 8002.4912 7566959
2022.3159 1605.4901 8094.5142 7698545
2031.4164 1575.3523 7942.5659 7764338
2102.3127 1593.4166 8033.6421 7764338
2137.3279 1584.0874 7986.6064 7764338
2143.0005 1553.8862 7834.3384 7697776
2186.9138 1552.106 7825.3633 7632239
2227.8662 1548.3419 7806.3853 7698032
2264.248 1541.619 7772.4902 7763825
2288.0376 1526.7616 7697.583 7895411
2336.4939 1528.6229 7706.9673 7829618
2377.7812 1525.8126 7692.7983 7829618
2413.6301 1519.684 7661.8984 7698032
2452.7605 1515.8094 7642.3643 7500653
2479.1675 1504.3547 7584.6123 7632239
2488.8848 1483.3611 7478.7671 7434860
2537.7336 1486.0162 7492.1533 7369067
2554.1113 1469.8929 7410.8633 7434860
2629.5723 1487.7422 7500.8555 7434860
2635.5393 1466.3339 7392.9194 7369323
2696.6592 1475.8092 7440.6924 7171688
2714.1265 1461.4742 7368.4185 7105895
2769.4187 1467.6383 7399.4961 7105893
2777.5178 1448.9902 7305.4771 7171686
2818.2478 1447.6763 7298.8521 7303015
2878.4236 1456.24 7342.0283 7566187
2944.0857 1467.2828 7397.7041 7500394
2940.8286 1444.1577 7281.1123 7434858
3024.6394 1463.8395 7380.3433 7303528
3063.8958 1461.7045 7369.5791 7303528
3104.6091 1460.3148 7362.5732 7303272
3394.0386 1574.3313 7937.4175 7303271
3259.729 1491.365 7519.1206 7368808
3304.0442 1491.2573 7518.5781 5658189
3381.7222 1506.0103 7592.959 5197639
3443.062 1513.1953 7629.1841 6711135
3498.8638 1517.7916 7652.3579 7303015
3565.4834 1526.9031 7698.2959 7566187
3624.7471 1532.674 7727.3916 7697772
3689.8542 1540.7411 7768.064 7631978
3779.8345 1558.8672 7859.4521 7631978
3796.0195 1546.4885 7797.041 7697771
3889.46 1565.5024 7892.9048 7829357
3886.7871 1545.8386 7793.7646 7960943
3983.6812 1565.7711 7894.2598 8092529
4028.9583 1565.1887 7891.3232 7960430
4116.1553 1580.7179 7969.6182 7894380
4175.187 1585.2014 7992.2222 7960173
4191.0566 1573.3804 7932.6235 8091759
4221.7231 1567.3151 7902.0439 8091759
4274.4072 1569.4674 7912.895 8157552
4341.0615 1576.6466 7949.0908 8026479
4446.5591 1597.6281 8054.875 7960686
4498.7349 1599.2089 8062.8452 8552823
4471.3477 1572.7709 7929.5508 8618616
4641.0225 1615.4772 8144.8667 8487030
4643.79 1599.8043 8065.8472 8289395
4672.7671 1593.3881 8033.4976 8091758
4750.5039 1603.5603 8084.7842 8091758
4811.1431 1607.8159 8106.2393 7960173
4875.8926 1613.347 8134.127 7828587
4977.7314 1630.9221 8222.7363 8025966
5070.1489 1645.0996 8294.2158 7828841
5140.8501 1652.0262 8329.1377 7894377
5177.5327 1647.9933 8308.8047 8157293
5235.2393 1650.6649 8322.2744 8157292
5206.4946 1626.2831 8199.3477 8485228
5205.9546 1611.0806 8122.6997 8551021
5312.2529 1628.9167 8212.626 8681837
5299.8682 1610.3676 8119.104 8615784
5557.5933 1673.4866 8437.3359 8549474
5697.9868 1700.4645 8573.3525 10194293
6180.5381 1828.1743 9217.2363 9733227
6100.6934 1788.7499 9018.4678 7429703
5898.1079 1714.3346 8643.2822 3351573
5962.4619 1718.1207 8662.3711 5852222
5950.5771 1700.061 8571.3184 11643544
6012.0542 1703.0887 8586.584 13553339
6039.0376 1696.3766 8552.7422 13947329
6078.9727 1693.3839 8537.6533 13882047
6068.8618 1676.6144 8453.1064 13815995
6026.665 1651.3281 8325.6182 13487282
6034.3813 1640.0177 8268.5938 13486510
6012.3652 1620.8738 8172.0747 13223337
5980.5254 1599.4087 8063.8525 13025959
5967.187 1583.1925 7982.0942 12960423
5912.8823 1556.448 7847.2544 13026729
0 0 0 0
5778.4448 1497.5076 7550.0903 13881527
5599.8813 1440.0829 7260.5684 13815990
5635.9541 1438.3093 7251.6265 13814962
0 0 0 0
5708.1631 1434.8585 7234.228 7826782
5387.5566 1344.1736 6777.0156 8088396
5314.0269 1316.0192 6635.0674 2101255
5472.9541 1345.4236 6783.3179 1773056
5300.916 1293.6307 6522.1899 2825736
5309.4487 1286.3348 6485.4058 3090448
5339.0054 1284.2009 6474.647 2695944
5220.126 1246.6484 6285.3159 2499333
5178.9756 1228.0594 6191.5947 3092753
5077.457 1195.5179 6027.5283 3224854
5090.917 1190.3143 6001.2925 1317122
5116.8804 1188.0862 5990.0586 1646337
5042.8022 1162.8201 5862.6724 856322
4955.7075 1134.9187 5722.0005 2040842
4913.7085 1117.6538 5634.9546 461824
4720.4028 1066.4386 5376.7393 988160
5014.855 1125.3662 5673.8384 132608
5044.5752 1124.4968 5669.4556 132608
5048.3774 1117.8999 5636.1953 790784
5026.8887 1105.8262 5575.3223 66304
5048.1216 1103.2466 5562.3169 724992
4949.7788 1074.7372 5418.5791 527360
4876.8687 1052.0819 5304.356 512
4811.0503 1031.2369 5199.2603 65792
4656.6362 991.78772 5000.3667 4671527
4510.0508 954.49414 4812.3408 8746567
4532.1968 953.15466 4805.5874 10061403
4541.3149 949.10925 4785.1914 9271115
4596.9307 954.77124 4813.7383 1968640
0 0 0 0
0 0 0 0
0 0 0 0
-8410.7695 1872.6078 9167.3887 1024
-8386.4121 1879.3223 9200.2588 1280
-8349.8799 1883.3783 9220.1162 1280
-8246.5918 1872.3315 9166.0361 1280
-8081.1035 1846.9225 9041.6455 1280
-8039.644 1849.71 9055.292 1280
-8007.7979 1854.7616 9080.0225 1280
-8007.562 1867.2527 9141.1729 1280
-7950.2144 1866.5056 9137.5146 1280
-7852.9346 1856.3088 9087.5967 1280
-7825.4038 1862.5728 9118.2617 1280
-7845.2656 1880.2823 9204.959 1280
-7796.4761 1881.6709 9211.7568 1280
-7738.3013 1880.7979 9207.4834 1280
-7723.6582 1890.5681 9255.3135 1280
-7626.0039 1880.0137 9203.6436 1024
-7500.5405 1862.4022 9117.4268 1280
-7556.0981 1889.8088 9251.5967 1280
-7504.1611 1890.5352 9255.1523 1280
-7375.9663 1871.9188 9164.0156 1280
-7298.6792 1866.0419 9135.2451 1280
-7373.1304 1899.1617 9297.3838 1280
-7296.8179 1893.6543 9270.4219 1280
-7278.3901 1903.1992 9317.1494 1280
-7296.0024 1922.3862 9411.0801 1280
-7292.4185 1936.2411 9478.9062 1280
-7246.9907 1939.1144 9492.9727 1280
-7103.9263 1915.7031 9378.3623 1280
-6989.4302 1899.6876 9299.958 1280
-6912.312 1893.6572 9270.4365 1280
-6830.6572 1886.2775 9234.3086 1280
-6757.9199 1881.261 9209.75 1280
-6744.3882 1892.7788 9266.1357 1280
-6518.7793 1844.4784 9029.6807 1280
-6660.9756 1900.3099 9303.0049 1280
-6675.3125 1920.2917 9400.8262 1280
-6656.7954 1931.0793 9453.6367 1280
-6525.9575 1909.1899 9346.4775 1280
-6514.9888 1922.2943 9410.6299 1280
-6471.042 1925.8105 9427.8438 1280
-6781.8257 2035.8767 9966.6748 1280
-6817.6299 2064.6035 10107.308 1280
-6869.7056 2098.811 10274.771 1280
-6898.8813 2126.571 10410.671 1280
-6877.4424 2139.0898 10471.956 1280
-7013.4023 2201.2375 10776.202 1024
-7119.2632 2254.9937 11039.366 1024
-6979.1372 2231.1091 10922.439 1024
-7009.5923 2261.8196 11072.783 1024
-7019.4219 2286.3923 11193.079 1024
-6768.5542 2225.7085 10896.001 768
-6425.418 2133.2231 10443.236 1024
-6489.814 2175.554 10650.468 1280
-6080.2617 2058.2769 10076.335 1280
-5952.042 2034.8536 9961.666 1280
-5990.0742 2068.3682 10125.737 1024
-5831.5942 2034.0187 9957.5791 1024
-5618.5439 1979.7389 9691.8506 1024
-5359.4971 1907.9633 9340.4717 1024
-5233.9668 1882.717 9216.8789 1280
-5196.1655 1888.8286 9246.7979 1280
-5250.5308 1928.9301 9443.1152 1280
-5382.2773 1998.63 9784.333 1280
-5321.0093 1997.3944 9778.2832 1280
-5232.2476 1985.697 9721.0195 1280
-5188.1094 1990.8634 9746.3115 1280
-4669.0083 1811.834 8869.8691 1280
-4593.0259 1802.6403 8824.8613 1280
-4480.4521 1778.7084 8707.7021 1280
-4384.1011 1760.7341 8619.709 1280
-4349.6543 1767.4912 8652.7881 1280
-4249.4941 1747.3882 8554.373 1280
-4111.3706 1711.0009 8376.2383 1280
-4113.6387 1732.8636 8483.2686 1280
-4085.6243 1742.3536 8529.7266 1280
-3959.624 1709.7705 8370.2158 1280
-3951.0193 1727.6957 8457.9678 1280
-3803.4172 1684.5197 8246.5996 1280
-3776.9343 1694.5614 8295.7588 1280
-3687.3782 1676.1963 8205.8525 1280
-3499.3025 1611.9572 7891.3687 1280
-3407.938 1591.1316 7789.4165 1280
-3503.5088 1658.2108 8117.8037 1280
-3311.5789 1589.1888 7779.9058 1280
-3290.657 1601.4418 7839.8896 1280
-3197.3337 1578.3059 7726.6279 1280
-3154.7095 1579.8878 7734.3721 1280
-3073.5459 1561.9316 7646.4673 1280
-3010.2583 1552.6581 7601.0684 1280
-2938.9937 1538.9259 7533.8423 1280
-2846.7319 1513.606 7409.8882 1280
-2817.2305 1521.3853 7447.9717 1280
-2750.9619 1509.2407 7388.5176 1024
-2666.853 1486.7576 7278.4512 768
-2648.9929 1501.0756 7348.5454 1024
-2575.9385 1484.0734 7265.3105 1024
-2525.4165 1479.6953 7243.8774 1024
-2496.2122 1487.8721 7283.9072 1024
-2456.2878 1489.8347 7293.5156 1024
-2451.793 1513.7418 7410.5532 1024
-2363.157 1485.6248 7272.9053 1024
-2311.9983 1480.4612 7247.627 1024
-2240.5603 1461.8707 7156.6172 1024
-2178.2969 1448.6646 7091.9663 1024
-2130.6912 1444.8787 7073.4321 1024
-2089.0916 1445.0953 7074.4932 1280
-2004.3707 1414.8818 6926.582 133120
-2005.4349 1445.2264 7075.1348 199168
-1966.2086 1447.2112 7084.8511 528384
-1895.5924 1425.6744 6979.4175 725760
-1798.6003 1382.8972 6770.0005 923136
-1775.9666 1396.6447 6837.3018 791808
-1758.9476 1415.5527 6929.8662 1515264
-1710.379 1409.3673 6899.5854 989184
-1668.1992 1408.2725 6894.2256 1054720
-1649.3461 1427.3088 6987.4189 1317888
-1599.1128 1419.4708 6949.0474 1515008
-1553.1082 1415.0714 6927.5098 1120000
-1535.4558 1436.9666 7034.6982 1514240
-1480.0919 1423.8063 6970.272 1052928
-1496.8727 1481.2838 7251.6543 1578498
-1440.4525 1467.5793 7184.564 393984
-1401.224 1471.0889 7201.7446 591619
-1353.2175 1465.3138 7173.4731 4868147
-1310.7572 1465.3646 7173.7217 8289642
-1273.6208 1471.5702 7204.1011 7434850
-1175.8093 1405.6696 6881.4829 7303522
-1145.5431 1418.6847 6945.1987 7566696
-1122.7279 1442.2413 7060.521 7435110
-1089.3031 1453.4648 7115.4663 7435109
-1045.8911 1451.7301 7106.9731 7435111
-997.71875 1442.9645 7064.0615 7303526
-956.55829 1444.0168 7069.2129 7106147
-915.06671 1444.6423 7072.2754 7040099
-872.64368 1443.7871 7068.0884 7237479
-833.39764 1448.3669 7090.5088 7106150
-777.44342 1422.8541 6965.6104 7106149
-756.55853 1462.2618 7158.5317 7237734
-711.73248 1457.3296 7134.3857 7238250
-669.13812 1456.6323 7130.9722 7237991
-620.68347 1442.2241 7060.437 7303528
-585.05432 1457.6886 7136.1436 7566700
-542.34583 1456.55 7130.5698 7698030
-498.72916 1452.5739 7111.104 7830129
-463.48856 1474.5109 7218.4976 7764592
-415.83801 1457.4144 7134.8013 7698800
-373.30252 1456.4043 7129.856 7632750
-336.15457 1478.8375 7239.6787 7764336
-294.67609 1485.9958 7274.7222 7764335
-251.54623 1485.8529 7274.0225 7632493
-213.15399 1519.4218 7438.3594 7698286
-165.77957 1489.774 7293.2188 7632750
-123.11524 1496.4706 7326.0015 7698288
-80.487396 1511.1461 7397.8457 7698545
-36.339642 1498.26 7334.7617 7369580
7.0601215 1485.2914 7271.2734 7303787
51.222881 1517.208 7427.522 7369580
95.815529 1526.4738 7472.8823 7501165
139.84097 1523.7019 7459.313 7698544
180.46713 1494.1183 7314.4854 7698544
228.18729 1523.3511 7457.5957 7764337
268.57211 1502.0737 7353.4316 7698544
313.62384 1509.1942 7388.29 7698545
356.58072 1505.7245 7371.3037 7566958
397.77032 1496.3635 7325.4771 7369580
441.16049 1496.3085 7325.208 7435373
487.10306 1504.145 7363.5718 7237995
528.97491 1499.1562 7339.1489 7171946
572.57098 1499.4408 7340.5425 7237739
612.06781 1489.7081 7292.8955 7237739
666.92688 1516.1835 7422.5063 7303787
706.54297 1506.8734 7376.9287 7435373
747.99744 1502.3408 7354.7388 7435373
795.49091 1509.7687 7391.1021 7501166
840.10962 1511.25 7398.354 7566959
878.33734 1501.6577 7351.3955 7501166
930.13397 1515.0742 7417.0762 7566959
972.0274 1511.877 7401.4233 7501166
1018.5841 1515.8956 7421.0972 7435373
1064.7129 1518.9712 7436.1538 7501166
1115.2618 1527.8578 7479.6577 7369580
1147.9752 1512.5651 7404.792 7303787
1148.1033 1457.0444 7132.9902 7303787
1234.5148 1511.08 7397.522 7303787
1285.1293 1519.0957 7436.7632 7303787
1339.3286 1530.677 7493.46 7237994
1380.8489 1527.4895 7477.8555 7303787
1437.9875 1541.2401 7545.1714 7435373
1487.3761 1546.1053 7568.9893 7369580
1534.7559 1548.6587 7581.4893 7303530
1577.9205 1546.9346 7573.0488 7303787
1625.578 1549.5885 7586.0415 7501422
1673.329 1552.1864 7598.7593 7435372
1725.1033 1558.2823 7628.6021 7369836
1766.4591 1554.8962 7612.0254 7369580
1796.2258 1541.7319 7547.5791 7566959
1828.62 1531.4073 7497.0352 7501167
1900.0283 1553.4707 7605.0469 7632752
1941.0073 1550.209 7589.0786 7830131
1979.7737 1545.3679 7565.3794 7764338
1991.7894 1520.3225 7442.769 7764338
2034.3705 1519.1874 7437.2114 7895411
2097.1809 1532.8862 7504.2749 7763825
2126.9717 1522.3824 7452.8535 7632239
2179.906 1528.5342 7482.9692 7632239
2199.7241 1511.6827 7400.4727 7698032
2247.7725 1514.5111 7414.3188 7698032
2234.0122 1476.3835 7227.6646 7632239
2295.4153 1488.4291 7286.6343 7500653
2303.7183 1466.2335 7177.9751 7434860
2357.6035 1473.3281 7212.707 7500653
2363.5586 1450.7507 7102.1792 7566446
2419.6956 1459.226 7143.6694 7632238
2437.384 1444.6215 7072.1733 7697519
2495.0691 1453.816 7117.1855 7697518
2532.3599 1451.019 7103.4927 7631469
2531.3589 1426.7313 6984.5913 7434860
2627.1274 1456.8893 7132.23 7303274
2694.4888 1470.5883 7199.2939 7105893
2736.8608 1470.4342 7198.54 7171686
2727.7883 1443.0695 7064.5752 7369065
2779.5508 1448.2288 7089.8325 7500651
2804.4998 1439.4717 7046.9624 7500651
2842.0544 1437.3469 7036.5601 7434858
2884.5483 1437.7454 7038.5107 7303272
2943.6082 1446.2717 7080.252 7237479
2981.9551 1444.5248 7071.6997 7303273
3072.6367 1467.8269 7185.7754 7303272
3146.7773 1482.6982 7258.5786 7237736
3173.5811 1475.1652 7221.7002 7369065
3204.9324 1469.9182 7196.0137 7368551
3256.1348 1473.7941 7214.9883 7500394
3339.1877 1491.7988 7303.1309 7368808
3366.5391 1484.7765 7268.7524 7566187
3438.0261 1497.151 7329.332 7566187
3528.6062 1517.4275 7428.5962 7500392
3613.6462 1534.8513 7513.895 7565415
3673.9353 1541.4663 7546.2788 7565671
3699.1226 1533.3719 7506.6523 7697001
3765.7017 1542.4235 7550.9648 7566185
3804.8079 1540.1421 7539.7959 7828587
3861.0605 1544.7737 7562.4702 7828843
3885.4272 1536.688 7522.8867 7828843
3926.7615 1535.4203 7516.6807 7828587
3970.4089 1535.0756 7514.9927 7894380
4027.1274 1539.736 7537.8081 7960172
4078.8198 1542.3936 7550.8184 7960172
4123.4844 1542.3646 7550.6768 8025966
4291.0059 1587.7971 7773.0923 8091759
4294.7593 1572.3092 7697.2705 8420724
4334.3896 1570.1433 7686.668 8420724
4334.3267 1553.7931 7606.6245 8486517
4373.1011 1551.5585 7595.6851 8420724
4394.4502 1543.2499 7555.0107 8223345
4489.1387 1560.6049 7639.9722 8223345
4558.0513 1568.7419 7679.8071 8354931
4613.9604 1572.2871 7697.1631 8617589
4702.2734 1586.6968 7767.7061 8551796
4783.8032 1598.5605 7825.7852 8617588
4828.5361 1598.0186 7823.1313 8420465
4857.7778 1592.4087 7795.668 8288878
4882.0264 1585.2831 7760.7842 8354159
4965.5547 1597.36 7819.9072 8288364
5002.5601 1594.3861 7805.3486 8288107
5012.8857 1583.0416 7749.811 8484716
5136.0991 1607.2285 7868.2192 8682349
5109.6982 1584.5831 7757.3579 8813934
5134.0752 1577.948 7724.8755 9010540
5210.3862 1587.2509 7770.418 9076333
5315.3423 1605.0404 7857.5073 7563093
5330.7119 1595.7042 7811.8018 6115132
5713.5605 1695.5835 8300.7627 9535338
6021.9053 1771.8365 8674.0605 7955794
5297.8716 1545.6108 7566.5684 2627081
5868.7314 1697.7864 8311.5469 9601388
5972.4604 1713.416 8388.0615 12037271
5963.6499 1696.7678 8306.5605 13552309
5925.1714 1672.0201 8185.4082 13881787
5911.7314 1654.683 8100.5332 13881786
5881.2114 1632.8826 7993.8091 13749942
5893.4238 1623.2004 7946.4097 13420975
5869.3145 1603.7468 7851.1743 12762787
5867.4502 1590.6296 7786.959 12696993
5828.0269 1567.6147 7674.2891 12499614
5596.6865 1493.7343 7312.606 12894377
5569.9448 1475.1761 7221.7539 13749945
5553.4839 1459.6029 7145.5146 13816254
5527.876 1441.8794 7058.7495 13750719
5434.2378 1406.8107 6887.0698 13619131
5436.9258 1397.0156 6839.1177 13486516
5641.5366 1438.8656 7043.9946 14142903
5609.7163 1420.2423 6952.8242 12365975
5450.6597 1369.9124 6706.4331 3877923
5334.2622 1330.9547 6515.7153 1970182
5234.2983 1296.6279 6347.668 4140570
5009.0977 1231.9891 6031.2271 3680784
5019.6709 1225.8436 6001.1421 3813138
5126.4658 1243.1177 6085.707 2827020
5212.7134 1255.2026 6144.8691 3618327
5141.4546 1229.4561 6018.8262 1381632
5112.8633 1214.1968 5944.1245 1908739
5027.9927 1185.8726 5805.4624 1777156
4916.2798 1151.6455 5637.9033 1514753
4886.8374 1137.0223 5566.3154 1053952
4912.9956 1135.4452 5558.5942 724992
4981.8042 1143.6802 5598.9092 330240
4997.7241 1139.745 5579.644 856576
5027.7046 1139.047 5576.2271 1251331
4949.3848 1113.9824 5453.5229 329472
4976.4731 1112.8136 5447.8013 790784
4978.6514 1106.1257 5415.0605 658688
4832.4185 1066.7617 5222.353 131328
4762.1787 1044.5671 5113.6992 4013855
4500.5239 980.93262 4802.1753 9010252
4510.4097 976.91089 4782.4863 10061662
4579.6699 985.71881 4825.606 9864282
4709.8594 1007.4505 4931.9937 1574656
0 0 0 0
0 0 0 0
0 0 0 0
-8065.687 1847.8689 8791.2627 1280
-7974.5513 1838.8656 8748.4297 1280
-7877.0117 1828.2582 8697.9648 1280
-7812.7129 1825.2772 8683.7822 1280
-7803.1304 1835.1246 8730.6318 1280
-7808.1914 1848.5703 8794.5996 1280
-7737.5303 1844.1492 8773.5664 1280
-7738.3735 1856.826 8833.876 1280
-7682.6592 1856.0118 8830.0029 1280
-7602.9272 1849.3444 8798.2822 1280
-7560.3408 1851.6826 8809.4062 1280
-7524.5117 1855.7201 8828.6143 1280
-7413.1611 1841.058 8758.8594 1280
-7314.1533 1829.2762 8702.8076 1280
-7038.1758 1772.7526 8433.8955 1024
-7016.4604 1779.9214 8468.001 1024
-6947.3657 1775.0875 8445.0039 1280
-7195.3462 1851.7855 8809.8965 1280
-6909.3784 1791.1843 8521.585 1280
-6792.5166 1773.8527 8439.1289 1280
-7117.6279 1872.54 8908.6357 1280
-7131.1006 1890.1024 8992.1885 1280
-7007.2954 1871.2694 8902.5908 1280
-7034.0088 1892.651 9004.3145 1280
-7093.4731 1923.2394 9149.8389 1280
-6991.7251 1910.2531 9088.0557 1280
-6891.8877 1897.5909 9027.8164 1280
-6743.6768 1871.3077 8902.7734 1280
-6705.1802 1875.2949 8921.7422 1280
-6659.6265 1877.3557 8931.5469 1280
-6557.7124 1863.4346 8865.3164 1280
-6540.4751 1873.5446 8913.415 1280
-6479.3291 1871.1387 8901.9688 1280
-6465.584 1882.4948 8955.9951 1280
-6367.0249 1869.14 8892.46 1280
-6222.7051 1842.0166 8763.4199 1280
-6289.5264 1877.4635 8932.0596 1280
-6367.9814 1917.0146 9120.2246 1280
-6476.8281 1966.4698 9355.5088 1280
-6534.2988 2001.0459 9520.0039 1280
-6652.4839 2054.979 9776.5918 1280
-6673.6777 2079.6353 9893.8945 1280
-6739.7534 2118.8389 10080.405 1280
-6685.3374 2120.5247 10088.426 1280
-6692.2974 2141.8843 10190.044 1280
-6667.7231 2153.4482 10245.061 1024
-6451.2759 2102.687 10003.562 1024
-6177.5771 2032.1511 9667.9873 1280
-6021.1182 1999.2223 9511.3291 1280
-6039.75 2024.3569 9630.9072 1280
-5780.252 1955.8605 9305.0342 1280
-5894.6196 2013.7677 9580.5283 1280
-5633.605 1943.3132 9245.3398 1280
-5579.0913 1943.4065 9245.7842 1280
-5517.9941 1941.186 9235.2197 1280
-5494.2891 1952.2069 9287.6523 1280
-5366.7749 1926.1925 9163.8887 1280
-5296.0342 1920.2313 9135.5283 1280
-5245.4766 1921.5409 9141.7578 1280
-5110.6221 1891.6752 8999.6719 1280
-5091.2104 1904.3611 9060.0254 1280
-5036.2993 1903.8975 9057.8193 1280
-4909.6714 1876.0201 8925.1924 1280
-4865.4634 1879.3718 8941.1387 1280
-4788.3809 1869.9594 8896.3584 1280
-4662.6611 1841.1318 8759.2109 1280
-4508.6704 1800.3666 8565.2695 1280
-4350.6333 1757.0389 8359.1377 1280
-4318.6362 1764.2017 8393.2148 1280
-4266.0132 1763.0076 8387.5332 1280
-4209.5801 1760.1918 8374.1377 1280
-4153.7407 1757.5605 8361.6191 1280
-4052.2559 1735.3182 8255.8018 1280
-4018.7317 1741.9915 8287.5488 1536
-3913.2944 1717.2721 8169.9463 1536
-3879.9141 1723.9502 8201.7178 1536
-3595.5356 1617.8579 7696.9819 1536
-3503.4993 1596.6984 7596.3154 1280
-3534.7627 1631.9126 7763.8472 1280
-3587.563 1678.1295 7983.7246 1280
-3332.8928 1579.8363 7516.0938 1280
-3273.4849 1572.6912 7482.1011 1280
-3241.0054 1578.465 7509.5698 1280
-3231.3445 1595.6675 7591.4111 1280
-3128.4302 1566.6561 7453.3892 1280
-3113.4719 1581.4916 7523.9683 1280
-3199.7632 1648.9347 7844.8301 1280
-3094.8428 1618.3768 7699.4502 1280
-3026.0627 1606.0857 7640.9756 1280
-2798.0745 1507.6379 7172.6089 1280
-2789.0581 1525.9579 7259.7666 1280
-2818.0688 1565.9833 7450.1875 1280
-2747.0132 1550.7914 7377.9121 2048
-2669.0085 1531.1218 7284.334 1536
-2532.4976 1476.6907 7025.377 1024
-2459.7983 1458.2704 6937.7422 1024
-2502.4944 1508.7979 7178.1274 1024
-2482.7949 1522.8029 7244.7563 1024
-2456.6338 1533.2678 7294.5435 1024
-2404.0291 1527.3074 7266.1865 1024
-2336.4255 1511.4271 7190.6357 1024
-2232.9529 1471.3221 6999.8359 1024
-2154.8245 1446.715 6882.7671 1024
-2110.1733 1444.068 6870.1738 1280
-2065.4099 1441.2384 6856.7119 1024
-2019.765 1437.668 6839.7256 67584
-1994.7734 1448.9535 6893.4165 330752
-1938.59 1437.5798 6839.3066 528128
-1865.7942 1413.1387 6723.0273 462592
-1787.0393 1383.0193 6579.7339 923136
-1745.4474 1380.9587 6569.9307 1186560
-1692.3788 1369.517 6515.4966 1778688
-1670.9877 1383.7738 6583.3232 1383680
-1635.9219 1387.1171 6599.229 1120256
-1583.9352 1375.9254 6545.9844 922880
-1557.2339 1386.688 6597.188 1513984
-1532.7216 1400.0043 6660.54 1250048
-1509.6259 1415.3527 6733.5605 2433287
-1527.0989 1470.6022 6996.4106 656128
-1479.1058 1464.132 6965.6284 1511680
-1472.519 1499.4537 7133.6724 3748383
-1504.9541 1577.7733 7506.2788 8026982
-1436.1438 1551.4865 7381.2192 7763557
-1299.3444 1447.7915 6887.8887 8026733
-1240.0358 1426.5151 6786.666 7632487
-1205.4865 1433.2498 6818.7061 7566437
-1149.4392 1414.0054 6727.1509 7434852
-1112.8666 1418.1959 6747.0874 7369316
-1068.8239 1412.8246 6721.5332 7434852
-1041.5439 1430.0531 6803.498 7303010
-1003.3333 1433.0564 6817.7861 7106146
-966.24469 1437.9818 6841.2188 6974561
-923.72754 1434.9058 6826.5845 7040099
-879.06824 1428.0681 6794.0542 7303529
-831.00146 1414.7729 6730.8022 7172200
-789.21692 1411.3718 6714.6216 7238250
-750.34271 1413.0905 6722.7983 7040870
-716.23016 1424.472 6776.9463 7106152
-673.55927 1419.1737 6751.7388 7171944
-627.84955 1406.3987 6690.9619 7369324
-585.06049 1398.8851 6655.2163 7500909
-554.6615 1422.0515 6765.4302 7697773
-514.52661 1421.9216 6764.812 7698030
-475.47888 1425.0281 6779.5913 7763823
-433.84619 1420.2456 6756.8389 7698029
-400.25061 1443.4761 6867.3579 7698543
-357.26007 1434.2479 6823.4546 7830386
-318.68726 1442.6628 6863.4893 7764336
-280.3992 1455.0176 6922.2666 7830129
-240.40889 1461.2592 6951.9609 7566958
-201.89725 1480.9282 7045.5371 7632495
-160.54506 1484.5851 7062.9346 7566446
-117.44736 1468.9883 6988.7329 7369067
-76.552475 1478.9603 7036.1748 7566446
-34.860363 1478.9625 7036.1855 7764595
6.814425 1475.1881 7018.2285 7764338
48.889175 1490.0902 7089.125 7698545
91.357971 1497.6785 7125.2266 7764338
132.52017 1485.8203 7068.811 7764338
175.26535 1493.1438 7103.6528 7764339
218.55302 1501.3577 7142.73 7830131
260.9696 1501.8929 7145.2769 7698545
303.52771 1502.9797 7150.4478 7632751
348.19748 1512.9757 7198.0034 7435373
390.52948 1511.7406 7192.1274 7369580
434.19455 1515.4012 7209.543 7303788
477.76328 1518.1 7222.3818 7303532
521.95245 1522.1643 7241.7183 7171946
560.13147 1509.4153 7181.0645 7237739
601.508 1506.4744 7167.0732 7237739
642.40308 1502.7954 7149.5708 7303787
687.12921 1507.979 7174.2319 7369836
714.31842 1476.3146 7023.5874 6645857
759.62616 1483.5214 7057.8735 7172201
801.44684 1483.5214 7057.8735 7501166
848.03406 1491.9067 7097.7671 7435373
914.07355 1532.1041 7289.0073 7303787
953.53333 1526.1334 7260.6016 7435372
994.45563 1522.918 7245.3037 7435372
1041.8586 1529.4827 7276.5352 7435373
1075.5302 1516.1681 7213.1914 7435373
1111.1738 1506.5454 7167.4111 7172201
1163.3201 1519.1819 7227.5293 7172201
1193.6007 1503.3806 7152.3545 7106152
1233.579 1500.4586 7138.4531 7106152
1279.4828 1504.6989 7158.626 7105895
1323.5909 1506.6229 7167.7803 7172201
1371.7709 1512.9182 7197.73 7106408
1418.2616 1517.0271 7217.2778 7238250
1445.4606 1500.8643 7140.3828 7171944
1494.1031 1507.2528 7170.7769 7237994
1522.0182 1492.9564 7102.7612 7172201
1576.9777 1505.2437 7161.2183 7237994
1634.9674 1519.7036 7230.0112 7435372
1668.9319 1511.6638 7191.7622 7501166
1707.7651 1508.3245 7175.875 7632752
1751.8031 1509.6327 7182.0991 7698545
1807.3083 1520.5265 7233.9263 7764338
1857.3291 1526.4082 7261.9087 7830131
1892.786 1520.3253 7232.9697 7764338
1935.8 1520.4479 7233.5522 7764338
1961.8468 1507.5269 7172.0806 7763825
1996.6135 1501.7124 7144.418 7763825
2039.7097 1502.274 7147.0898 7763824
2083.0278 1502.973 7150.4155 7632239
2103.3987 1487.4169 7076.4072 7566445
2148.5691 1489.6633 7087.0942 7500653
2188.3264 1488.1423 7079.8579 7434860
2191.7402 1462.4286 6957.5249 7500653
2264.2319 1482.9053 7054.9429 7500653
2271.0156 1460.3856 6947.8052 7500653
2272.3538 1435.2286 6828.1206 7500653
2374.375 1473.431 7009.8691 7698032
2389.3005 1457.2017 6932.6577 7763312
2427.1223 1455.2488 6923.3667 7763824
2465.8291 1453.8827 6916.8677 7829618
2488.5588 1443.295 6866.4966 7763825
2533.7329 1445.8557 6878.6787 7566445
2590.8086 1455.0193 6922.2749 7369065
2612.8042 1444.5031 6872.2437 7237479
2631.9141 1432.7386 6816.2744 7303272
2685.425 1439.7739 6849.7446 7435115
2733.1306 1443.5333 6867.6304 7566187
2768.9231 1440.9829 6855.4966 7500394
2807.2568 1439.8094 6849.9141 7566187
2848.3372 1440.0581 6851.0972 7368808
2911.5654 1451.3398 6904.77 7369066
2945.9358 1448.1235 6889.4683 7237479
2997.6816 1453.4196 6914.6641 7303272
3046.5273 1457.1855 6932.5811 7237479
3115.3413 1470.2753 6994.8555 7500393
3161.4744 1472.4575 7005.2378 7500394
3207.2661 1474.4265 7014.6055 7566187
3241.167 1470.9485 6998.0586 7566187
3307.5745 1482.1248 7051.2295 7566187
3394.4792 1502.0924 7146.2256 7500393
3413.0613 1491.7068 7096.8164 7434599
3518.7319 1519.1737 7227.4907 7631978
3576.3853 1525.4984 7257.5806 7631978
3635.9375 1532.4731 7290.7627 7763564
3652.7278 1521.4724 7238.4268 7828843
3710.7061 1527.684 7267.978 7828587
3725.6555 1516.2413 7213.5396 7762794
3782.1604 1521.7786 7239.8833 7631464
3793.0374 1509.0387 7179.2729 7828587
3856.2188 1517.1595 7217.9082 7894380
3942.4856 1534.0852 7298.4326 7894636
3961.2927 1524.679 7253.6816 7960173
4011.877 1527.5739 7267.4541 8025966
4050.3701 1525.8524 7259.2646 8025966
4170.6689 1554.6611 7396.3223 8025966
4158.5596 1534.0275 7298.1577 8157552
4206.7334 1535.827 7306.7192 8289394
4306.0664 1556.0775 7403.0605 8420722
4348.1895 1555.454 7400.0942 8486772
4378.6646 1550.7175 7377.5605 8617845
4418.6758 1549.4189 7371.3823 8749430
4447.5303 1544.2717 7346.8945 8749430
4525.1167 1555.981 7402.6016 8815223
4534.1812 1544.1302 7346.2217 8749430
4583.6519 1546.1342 7355.7554 8815221
4661.9395 1557.7294 7410.9199 8749429
4701.9473 1556.4369 7404.7705 8814708
4720.8755 1548.2549 7365.8447 8748915
4687.1113 1523.1002 7246.1709 8748915
4714.4097 1518.0647 7222.2144 8617070
4925.2817 1571.6998 7477.3838 8748400
4924.7729 1557.526 7409.9526 8880240
5046.8911 1582.043 7526.5923 8945520
4990.2974 1550.6003 7377.0034 9076592
4921.541 1515.9574 7212.189 9142640
5124.2529 1564.8101 7444.606 9603190
5610.4277 1698.6521 8081.3613 10260605
5725.4365 1718.8027 8177.2285 11708307
5834.5508 1736.8606 8263.1387 9010281
5876.4502 1734.7755 8253.2197 3944483
5565.4746 1629.4131 7751.9561 2759185
5579.6172 1620.1818 7708.0381 8091494
5801.8774 1671.042 7950.0059 14078660
5778.624 1650.9402 7854.3716 13947844
5710.4189 1618.4196 7699.6543 13816257
5715.5464 1607.0333 7645.4839 13553080
5718.374 1595.1846 7589.1133 13487284
5686.7627 1573.9886 7488.2739 13091499
5579.2524 1532.2762 7289.8262 12630436
5499.5112 1498.7727 7130.4321 12762275
5523.5332 1493.8428 7106.9785 12301729
5433.7983 1458.4546 6938.6187 13288628
5450.7153 1452.0088 6907.9521 13947590
5466.1035 1445.2548 6875.8203 13816263
5425.1406 1423.8116 6773.8037 13619653
5431.8413 1415.1007 6732.3618 13750466
5687.2114 1470.8276 6997.4834 13749690
5638.3604 1447.6395 6887.166 13749174
5162.2305 1315.8701 6260.271 11182734
5099.4165 1290.5847 6139.9756 6051660
4693.5142 1179.4423 5611.2134 7562062
5165.3628 1288.8837 6131.8828 6772550
5266.6172 1304.9698 6208.4126 7561032
5097.6421 1254.3392 5967.5371 2232323
5077.2622 1240.7183 5902.7349 3485202
4990.5562 1211.1865 5762.2373 2828815
4940.4067 1190.8679 5665.5713 2172170
4877.5376 1167.7786 5555.7227 1514499
4919.9429 1170.0342 5566.4541 922112
4866.897 1149.7113 5469.7681 658944
4908.3496 1151.8333 5479.8633 790784
4924.2295 1147.9656 5461.4624 329472
4954.166 1147.4041 5458.791 264192
4953.939 1139.9091 5423.1333 512
4915.7251 1123.826 5346.6187 66304
4847.1372 1101.0496 5238.2593 512
4786.2944 1080.311 5139.5952 3553308
4373.7568 980.95587 4666.9116 9338705
4450.2783 991.84735 4718.7275 9929046
4619.1699 1023.061 4867.2271 9139272
4636.4028 1020.5061 4855.0723 2166020
0 0 0 0
0 0 0 0
0 0 0 0
-7654.0273 1802.9897 8342.5703 1280
-7642.2739 1811.9233 8383.9072 1280
-7650.5562 1825.7551 8447.9082 1280
-7641.8579 1835.6902 8493.8779 1280
-7557.4824 1827.4575 8455.7852 1280
-7523.3481 1831.345 8473.7725 1280
-7473.3896 1831.4069 8474.0586 1280
-7412.4805 1828.7676 8461.8467 1280
-7384.1123 1834.1757 8486.8701 1280
-7322.98 1831.4635 8474.3213 1280
-7237.7646 1822.6493 8433.5371 1280
-7212.4634 1828.9052 8462.4834 1280
-7219.4077 1843.4827 8529.9346 1280
-7054.4741 1814.067 8393.8262 1280
-6763.2993 1751.54 8104.5088 1280
-6686.1182 1743.9346 8069.3184 1280
-6638.0684 1743.8726 8069.0312 1280
-6951.4932 1839.4611 8511.3262 1280
-6962.5669 1855.8553 8587.1846 1280
-7009.6299 1882.1549 8708.874 1280
-6953.8809 1881.0333 8703.6846 1280
-6849.1904 1866.5576 8636.7041 1280
-6871.7188 1886.7949 8730.3438 1280
-6819.0483 1886.535 8729.1416 1280
-6724.0723 1874.4777 8673.3506 1280
-6700.519 1882.2982 8709.5371 1280
-6542.5996 1852.2014 8570.2773 1280
-6532.9595 1863.9398 8624.5918 1280
-6398.3843 1839.9368 8513.5273 1280
-6353.7734 1841.6279 8521.3525 1280
-6312.0405 1844.1874 8533.1953 1280
-6272.6035 1847.4641 8548.3574 1280
-6259.9385 1858.7439 8600.5488 1280
-6264.707 1875.4274 8677.7451 1280
-6298.5269 1901.1559 8796.793 1280
-6304.1582 1918.7346 8878.1309 1280
-6311.165 1937.031 8962.79 1280
-6401.4082 1981.4019 9168.0977 1280
-6329.4775 1975.9059 9142.667 1280
-6364.7817 2004.0798 9273.0303 1280
-6446.269 2047.4128 9473.5352 1280
-6140.3076 1967.3678 9103.1602 1280
-6430.4907 2078.6025 9617.8525 1280
-6184.5093 2016.9666 9332.6572 1280
-6357.8823 2092.2168 9680.8467 1280
-5735.8677 1904.7125 8813.25 1280
-5776.0986 1935.6958 8956.6113 1280
-5644.625 1909.1775 8833.9102 1280
-5756.8711 1965.3679 9093.9072 1536
-5613.9033 1934.6682 8951.8574 1536
-5518.084 1919.7863 8882.9971 1280
-5438.8989 1910.4603 8839.8457 1280
-5480.7427 1943.8792 8994.4766 1280
-5362.3438 1920.5619 8886.5859 1280
-5362.3608 1939.6143 8974.7432 1280
-5113.5088 1868.1288 8643.9736 1280
-5105.2593 1883.9858 8717.3457 1280
-5025.7891 1873.6157 8669.3623 1280
-4912.2759 1850.2095 8561.0596 1280
-4949.1611 1883.5531 8715.3438 1280
-4857.8188 1868.2845 8644.6943 1280
-4759.5083 1849.9822 8560.0088 1280
-4677.4678 1837.6776 8503.0742 1280
-4563.8867 1812.5785 8386.9385 1280
-4397.0195 1765.5308 8169.2451 1280
-4282.5532 1738.7104 8045.1455 1280
-4280.2715 1757.3458 8131.373 1280
-4219.9536 1752.3063 8108.0547 1280
-4165.8115 1749.7448 8096.2021 1280
-4117.0312 1749.4019 8094.6152 1280
-4042.6699 1738.0529 8042.103 1536
-4004.5771 1742.2119 8061.3472 1536
-3893.6943 1714.4214 7932.7588 1536
-3862.4746 1721.4565 7965.3105 1536
-3796.4463 1712.9603 7925.9976 1280
-3681.252 1681.7893 7781.7676 1280
-3690.7112 1707.4983 7900.7251 1280
-3664.0757 1716.9542 7944.478 1280
-3256.0925 1545.6345 7151.7686 1280
-3141.4668 1510.8866 6990.9873 1280
-3149.6938 1535.0856 7102.9575 1280
-3155.1116 1558.5521 7211.5391 1280
-3149.4402 1577.1102 7297.4092 1280
-3186.8118 1618.0391 7486.79 1280
-3009.03 1549.3418 7168.9224 1280
-2924.7683 1527.5198 7067.9502 1280
-2946.0034 1560.962 7222.6899 1280
-2955.175 1588.9041 7351.98 1280
-2891.3999 1577.8743 7300.9443 1280
-2831.0549 1568.4097 7257.1509 1280
-2795.2791 1572.4746 7275.9595 1024
-2722.3076 1555.4146 7197.022 1024
-2579.0042 1496.9874 6926.6748 1024
-2463.4883 1453.0605 6723.4219 1024
-2379.0759 1426.3374 6599.7715 1024
-2355.2324 1435.6409 6642.8198 1024
-2330.272 1444.5681 6684.1265 1024
-2286.582 1441.9928 6672.2104 1024
-2214.425 1421.0587 6575.3467 1024
-2188.3372 1429.4681 6614.2578 1024
-2204.5393 1466.3126 6784.7402 1024
-2158.4004 1462.2906 6766.1299 1024
-2085.4521 1439.6095 6661.1831 1024
-2043.7305 1438.0254 6653.853 1280
-2003.1918 1437.2278 6650.1621 1024
-1988.9338 1455.6318 6735.3193 330496
-1904.6978 1422.5265 6582.1382 67328
-1875.9139 1430.3173 6618.187 264704
-1794.0168 1397.0791 6464.3916 462080
-1751.4423 1393.6812 6448.6685 593664
-1685.2498 1370.9186 6343.3447 1975553
-1663.6772 1384.2432 6404.9985 1908993
-1639.7969 1396.2247 6460.4385 1316096
-1589.339 1385.6085 6411.3159 986880
-1560.8593 1394.1024 6450.6177 1709824
-1544.376 1414.0065 6542.7153 920064
-1523.8501 1431.139 6621.9893 1576960
-1512.9668 1458.4723 6748.4624 328448
-1460.2892 1445.9071 6690.3218 6774857
-1434.7174 1460.2283 6756.5874 8223077
-1344.7656 1407.9661 6514.7661 7960420
-1308.0586 1410.0094 6524.2207 7698021
-1262.4391 1402.2773 6488.4443 7632486
-1234.2147 1413.9888 6542.6338 7500645
-1192.3413 1410.3153 6525.6362 7434852
-1162.4529 1421.0466 6575.291 7303011
-1122.7012 1420.0468 6570.6646 7303011
-1088.1809 1425.83 6597.4238 7369316
-1050.2494 1427.4076 6604.7236 7369318
-1000.3367 1412.1936 6534.3271 7435112
-960.96295 1411.2311 6529.874 7500905
-914.70905 1399.6605 6476.3354 7435113
-873.61176 1395.3124 6456.2163 7369320
-839.20953 1401.7488 6485.9985 7303271
-795.62042 1392.7217 6444.229 7369322
-759.92194 1397.2931 6465.3813 5526863
-722.15784 1398.35 6470.2715 6775641
-685.1637 1401.1001 6482.9966 4012334
-642.01898 1390.8523 6435.5796 5854540
-608.28656 1400.9884 6482.48 7566185
-555.164 1364.8221 6315.1357 7565931
-523.9823 1381.2662 6391.2236 7763823
-488.73947 1388.7328 6425.772 7763823
-452.52856 1394.4778 6452.355 7698030
-412.34836 1387.9231 6422.0259 7763823
-383.3208 1421.3906 6576.8823 7763823
-346.09619 1428.5979 6610.2314 7763823
-306.67429 1427.4172 6604.7686 7763823
-270.26367 1441.9579 6672.0488 7763823
-232.11977 1450.6488 6712.2622 7763823
-190.55165 1437.1093 6649.6143 7632239
-153.12537 1455.8906 6736.5166 7500653
-112.63818 1448.5522 6702.5615 7434860
-71.666664 1423.5999 6587.105 7303274
-32.588036 1421.533 6577.541 7369067
6.4608803 1438.0811 6654.1104 7435116
45.982975 1441.0211 6667.7144 7434860
85.151169 1435.2786 6641.1431 7501166
126.50172 1458.3246 6747.7788 7566959
166.29329 1456.645 6740.0073 7632753
206.48022 1458.4087 6748.168 7566959
247.56963 1464.9401 6778.3892 7501166
288.33109 1467.9785 6792.4482 7435373
321.51132 1436.4022 6646.3423 7435373
367.27386 1461.7966 6763.8442 7435373
412.56613 1480.5065 6850.416 7501166
442.14328 1444.5216 6683.9116 7369581
498.33957 1494.2711 6914.106 7303531
533.92407 1479.3525 6845.0767 7303532
579.07886 1491.1849 6899.8262 7303532
621.3291 1494.4706 6915.0293 7435373
661.35712 1492.3352 6905.1489 7435373
688.55585 1463.1865 6770.2754 7369580
738.15955 1482.2367 6858.4219 7369580
769.38269 1464.3163 6775.5029 7501166
823.09467 1488.8522 6889.0322 7566702
862.12482 1485.7671 6874.7573 7435373
908.1239 1494.4288 6914.8354 7632495
942.36816 1483.8335 6865.8105 7501166
981.79517 1481.9381 6857.0405 7566959
1031.1172 1494.5356 6915.3301 7369580
1054.4307 1469.9133 6801.4009 7237994
1101.9023 1479.5413 6845.9502 7172201
1140.0214 1476.3737 6831.2935 7172201
1183.5413 1480.1779 6848.896 7172201
1220.1035 1475.3168 6826.4028 7303787
1259.1193 1473.639 6818.6401 7172457
1294.5968 1468.0535 6792.7954 7237738
1336.5582 1469.9355 6801.5039 7434860
1338.9244 1429.4358 6614.1084 7369067
1399.7106 1451.8348 6717.7505 7303787
1453.9298 1466.3721 6785.0151 7369580
1527.1982 1498.8221 6935.1641 7304043
1560.7808 1491.6438 6901.9492 7369580
1599.6198 1489.7273 6893.0815 7435373
1647.1777 1495.8242 6921.2925 7632752
1678.4366 1487.183 6881.3086 7698545
1717.8413 1485.9979 6875.8257 7763825
1763.7852 1490.3934 6896.1641 7764082
1794.9282 1482.3665 6859.0225 7829618
1847.8031 1492.2451 6904.7319 7961204
1871.9285 1478.9812 6843.3584 7961204
1943.5453 1503.0066 6954.5254 7961204
1954.6003 1480.1721 6848.8691 8026997
2007.9218 1489.6229 6892.5986 7895411
2020.4017 1469.0017 6797.1831 7829618
2073.7864 1478.3467 6840.4224 7632239
2102.6274 1470.172 6802.5977 7566446
2139.2241 1467.6256 6790.8154 7632239
2182.1675 1469.4471 6799.2441 7632239
2221.4805 1468.8025 6796.2607 7632238
2261.0259 1468.3314 6794.0815 7500653
2299.6707 1467.3024 6789.3198 7698032
2348.2673 1472.5494 6813.5981 7763312
2383.2988 1469.2561 6798.3599 7632239
2405.9685 1458.5785 6748.9536 7763568
2433.3528 1451.0613 6714.1709 7763568
2401.1707 1408.8365 6518.7939 7434604
2437.8669 1407.722 6513.6367 7566187
2476.7192 1407.8677 6514.311 7434858
2585.8459 1447.3429 6696.9653 7500651
2620.1147 1444.3585 6683.1567 7500651
2660.5994 1444.8389 6685.3789 7434858
2704.115 1446.9266 6695.0396 7500651
2687.334 1417.157 6557.2935 7500651
2761.969 1435.7568 6643.356 7500651
2819.0432 1444.8335 6685.3545 7434859
2856.9158 1443.9535 6681.2827 7105893
2851.1504 1421.3436 6576.665 7369065
2915.9224 1434.0331 6635.3804 7303272
2972.4065 1442.3633 6673.9248 7434601
3009.7839 1441.325 6669.1201 7566186
3056.2268 1444.5985 6684.2676 7434601
3108.1658 1450.3529 6710.8936 7368808
3168.7573 1459.9485 6755.293 7368808
3213.1765 1461.9464 6764.5376 7303013
3261.783 1465.777 6782.2617 7500391
3284.7429 1458.1296 6746.8765 7566185
3386.2385 1485.1094 6871.7144 7566185
3454.1948 1496.9135 6926.3325 7631978
3471.092 1486.5735 6878.4883 7828843
3524.7725 1492.0436 6903.7988 7894637
3531.2119 1477.6204 6837.062 7894123
3618.3386 1496.9049 6926.2925 7828587
3607.6201 1475.7321 6828.3242 7762794
3698.5742 1496.1578 6922.8359 7762794
3724.6086 1490.162 6895.0928 7828587
3836.345 1518.2124 7024.8843 7894380
3829.877 1499.384 6937.7642 7894380
3907.5698 1513.5544 7003.3315 7631208
3993.3503 1530.5267 7081.8638 7499622
4091.3887 1551.7952 7180.2744 7762794
3977.8279 1493.1958 6909.1309 8091759
4044.2524 1502.665 6952.9453 8092012
4160.4023 1530.2327 7080.5029 8486001
4176.5903 1520.8501 7037.0889 8617587
4212.4512 1518.7456 7027.3516 8683637
4263.8691 1522.2365 7043.5039 8683637
4314.6646 1525.4396 7058.3247 8617843
4329.2026 1515.8855 7014.1177 8552050
4382.5669 1519.979 7033.0586 8552050
4464.103 1533.674 7096.4263 8354671
4469.771 1521.2916 7039.1318 8485743
4516.3291 1522.9266 7046.6973 8683121
4587.0259 1532.5967 7091.4414 8748915
4522.6265 1497.3632 6928.4131 8945778
4551.6074 1493.402 6910.0845 8880497
4507.0439 1465.5963 6781.4258 8682858
4600.3755 1482.7267 6860.689 6577485
4744.3896 1515.749 7013.4858 8880240
4931.1172 1561.7253 7226.2217 8945520
4966.1597 1559.2838 7214.9248 9077105
4955.5591 1542.6753 7138.0762 8945777
5065.0972 1563.4307 7234.1128 8616810
5971.3906 1827.7065 8456.9375 8287588
5459.3462 1657.0756 7667.4146 11314068
5645.5894 1699.4631 7863.5449 11181445
5598.1074 1671.3756 7733.582 4205337
5882.9146 1742.147 8061.0469 5784107
5683.1958 1669.4482 7724.6641 3219736
5764.4683 1679.7933 7772.5317 10920335
5528.8521 1598.3635 7395.7495 13157811
5567.2627 1596.8112 7388.5669 13816254
5553.981 1580.5721 7313.4277 13816253
5550.8042 1567.4384 7252.6562 13750203
5479.5537 1535.431 7104.5562 13618873
5488.6089 1526.2429 7062.042 13223859
5435.7344 1500.1029 6941.0903 13091762
5363.2012 1468.9712 6797.0415 13749954
5362.3281 1457.7847 6745.2808 13947333
5330.7085 1438.4669 6655.896 13750730
5340.4141 1430.5024 6619.0439 13816011
5318.9365 1414.3623 6544.3623 13816267
5311.8208 1402.2469 6488.3032 13750729
5266.373 1380.2594 6386.5654 13816262
5183.3291 1348.8024 6241.0107 13619393
0 0 0 0
0 0 0 0
4666.376 1188.8358 5500.834 11445647
4909.1094 1242.0007 5746.832 3617061
4982.5093 1251.8871 5792.5767 2497803
4932.3096 1230.7953 5694.9839 3354393
5039.9126 1249.1005 5779.6831 2763026
4920.7744 1211.3418 5604.9707 1513730
4918.3911 1202.6383 5564.6987 1184512
4909.0317 1192.3562 5517.1226 658432
4889.8394 1179.8374 5459.1973 2500882
4874.9976 1168.5261 5406.8594 2764310
4881.5103 1162.4478 5378.7344 987136
4878.8154 1154.2699 5340.8945 1645060
4907.1382 1153.4885 5337.2793 592640
4787.1406 1118.0757 5173.4214 1315584
4849.2988 1125.3868 5207.2505 4210458
4449.6113 1026.1017 4747.8506 9272658
4452.3125 1020.2739 4720.8848 9863255
4599.8008 1047.4905 4846.8179 9139017
4466.9678 1010.9291 4677.646 2363912
0 0 0 0
0 0 0 0
0 0 0 0
-7436.1836 1799.7003 8105.1299 1280
-7359.0444 1792.6088 8073.1919 1280
-7379.0469 1809.2421 8148.1021 1280
-7373.5459 1819.8003 8195.6514 1280
-7318.7241 1818.245 8188.6475 1280
-7279.9756 1820.6892 8199.6553 1280
-7244.0273 1823.8708 8213.9844 1280
-7173.8354 1818.4161 8189.418 1280
-6898.0518 1760.4187 7928.2207 1280
-6885.1011 1769.162 7967.5972 1280
-6863.5991 1775.8138 7997.5542 1280
