# .PCD v0.7 - Point Cloud Data file format
VERSION 0.7
FIELDS x y z rgb
SIZE 4 4 4 4
TYPE F F F U
COUNT 1 1 1 1
WIDTH 1280
HEIGHT 1
VIEWPOINT 0 0 0 1 0 0 0
POINTS 1280
DATA ascii
1806.0548 1243.8317 3307.1392 5722437
1798.4033 1225.2676 3257.7803 5722437
1831.0984 1234.2944 3281.781 5656388
1842.5857 1228.9862 3267.6672 5656130
1859.5027 1227.3721 3263.376 5721922
1889.6122 1234.4095 3282.0872 5853508
1903.9076 1231.0781 3273.2295 5919300
1917.6007 1227.4282 3263.5251 5919301
1932.8119 1224.8132 3256.5723 5985094
1951.0953 1224.1777 3254.8823 5787715
1963.9489 1220.1809 3244.2556 5787714
1988.6694 1223.5631 3253.2483 5787715
2004.8112 1221.6526 3248.1687 5853507
2019.9481 1219.1721 3241.5735 5919555
2034.1788 1216.1967 3233.6621 5919555
2078.0269 1230.819 3272.5403 5919555
2099.0088 1231.7524 3275.0225 5919555
2122.8838 1234.3511 3281.9316 6050626
2121.3955 1222.2888 3249.8601 6182211
2128.9058 1215.5818 3232.0273 6182212
2160.397 1222.5649 3250.5945 6116419
2161.7971 1212.547 3223.9583 6248005
2209.7375 1228.5798 3266.5872 6313798
2215.6277 1221.1581 3246.854 6182469
2243.2104 1225.7174 3258.9763 6248005
2260.7307 1224.7473 3256.397 6445127
2281.7659 1225.6819 3258.8818 6313541
2299.4248 1224.8024 3256.5432 6050625
2318.7212 1224.8024 3256.5432 5919039
2329.3281 1220.2504 3244.4402 5984577
2372.8042 1232.8507 3277.9426 6379846
2392.5845 1233.0348 3278.4319 6840397
2405.6028 1229.7593 3269.7227 7169618
2386.9478 1210.4735 3218.4453 6577224
2384.7639 1199.7805 3190.0144 5458488
2393.4834 1194.6979 3176.5005 1906703
2410.6125 1193.8595 3174.2712 1115648
2431.7371 1194.9974 3177.2969 1247232
2450.3447 1194.8905 3177.0129 1115648
2459.9907 1190.4486 3165.2024 655360
2479.6267 1190.8717 3166.3271 1972489
2462.2285 1173.6356 3120.4998 2826254
2442.9954 1155.7888 3073.0479 393216
2463.1177 1156.6873 3075.4368 393472
2488.4651 1160.0083 3084.2666 590848
2479.6619 1147.4774 3050.9492 787968
2475.3843 1137.207 3023.6421 591616
2496.1609 1138.5116 3027.1106 591616
2473.707 1120.2206 2978.478 591616
2528.7637 1137.0409 3023.2002 328448
2795.3506 1248.0685 3318.4041 788736
0 0 0 0
0 0 0 0
0 0 0 0
0 0 0 0
2562.5278 1105.2455 2938.6619 2171912
2542.6169 1089.2561 2896.1487 1514496
2543.3979 1082.2861 2877.6165 724992
2519.3225 1064.9022 2831.3958 1120000
2549.908 1070.7002 2846.8115 1382912
2595.5737 1082.7126 2878.7505 1975042
2585.1418 1071.3206 2848.4609 1186048
2637.2014 1085.8055 2886.9744 1185792
2670.626 1092.4808 2904.7227 1185792
2678.4236 1088.6545 2894.5491 1119488
2697.417 1089.3984 2896.5271 1185280
2702.2617 1084.4551 2883.3833 1119488
2691.479 1073.3416 2853.8342 724736
2701.6572 1070.6736 2846.7407 329472
2736.9629 1077.9352 2866.0481 198144
0 0 0 0
0 0 0 0
0 0 0 0
0 0 0 0
0 0 0 0
0 0 0 0
-3769.9734 1600.823 4190.3022 6970951
-3712.7888 1586.993 4154.1011 6971209
-3626.5449 1560.4745 4084.6863 6840393
-3585.7986 1553.3085 4065.9285 7037773
-3488.9504 1521.5787 3982.8728 7037773
-3531.1174 1550.4558 4058.4614 7103565
-3489.5442 1542.7079 4038.1807 6906186
-3500.7742 1558.3585 4079.1475 6906186
-3432.281 1538.4912 4027.1431 6971978
-3435.2507 1550.6028 4058.8462 6971978
-3368.3867 1531.1412 4007.9038 7037774
-3343.356 1530.5542 4006.3669 7103566
-3311.0393 1526.5994 3996.0149 7103567
-3270.3579 1518.7034 3975.3464 6971980
-3256.6658 1523.3171 3987.4233 6906187
-3233.4253 1523.4991 3987.8999 7038030
-3182.4846 1510.5364 3953.9688 7037774
-3143.793 1503.2384 3934.8652 7235154
-3093.1743 1490.0856 3900.4365 7235667
-3030.0627 1470.6711 3849.6177 7366998
-3061.447 1497.1747 3918.9932 7301205
-3045.7161 1500.8658 3928.6553 7366742
-3012.585 1495.9736 3915.8491 7301205
-2989.2598 1495.9124 3915.6887 7235412
-2972.2708 1499.0459 3923.8914 7169619
-2925.4934 1487.0868 3892.5869 7169619
-2895.1609 1483.3633 3882.8403 7169619
-2881.8076 1488.3492 3895.8916 6906447
-2849.5083 1483.552 3883.3342 6906446
-2837.613 1489.3857 3898.605 7038033
-2807.0635 1485.4441 3888.2871 7169875
-2774.5808 1480.4056 3875.0986 7235924
-2718.9028 1462.8037 3829.0239 7104340
-2697.2214 1463.3501 3830.4541 7104340
-2668.2549 1459.9199 3821.4751 6907216
-2656.1672 1465.7449 3836.7229 6840655
-2628.4038 1462.9458 3829.3958 6709069
-2599.7964 1459.6239 3820.7004 6774605
-2583.1162 1462.9989 3829.5347 6643789
-2554.2275 1459.4579 3820.2659 6577996
-2532.3188 1459.8776 3821.3645 6577483
-2499.1682 1453.7654 3805.365 6511946
-2482.051 1456.9532 3813.71 6445897
-2455.3965 1454.5502 3807.4194 6709069
-2420.9875 1447.4663 3788.8767 6643789
-2377.2229 1434.6035 3755.2073 6774865
-2378.5857 1448.9888 3792.8618 6446156
-2366.2424 1455.2192 3809.1709 6380363
-2320.885 1441.0707 3772.1357 6380363
-2305.8853 1445.6798 3784.2007 6643535
-2299.6975 1455.9584 3811.1057 6511949
-2277.8264 1456.4132 3812.2961 6183754
-2247.3667 1451.3307 3798.9922 6183754
-2223.5322 1450.467 3796.7314 6381133
-2200.4448 1450.078 3795.7131 6315340
-2171.0017 1445.4495 3783.5977 6249547
-2145.5674 1443.421 3778.2881 5986375
-2132.8745 1450.0122 3795.541 5986375
-2115.5435 1453.5569 3804.8196 5920582
-2093.8621 1454.1567 3806.3896 6117960
-2036.3224 1429.5953 3742.0979 6183754
-2037.9584 1446.4946 3786.3335 6183497
-2025.9315 1453.9647 3805.8872 6248777
-2004.8567 1455.0364 3808.6924 6248777
-1985.9542 1457.7271 3815.7351 6314570
-1954.3599 1451.0563 3798.2737 6380363
-1924.0765 1445.2147 3782.9832 6314569
-1896.3195 1441.1554 3772.3572 6248778
-1896.1301 1458.2 3816.9731 6117963
-1866.7325 1452.9226 3803.1592 5986377
-1811.0873 1426.8374 3734.8787 6052170
-1806.4513 1440.7908 3771.4028 6117963
-1790.2253 1445.7339 3784.342 6183756
-1760.2942 1439.5944 3768.2712 6249549
-1739.0841 1440.5206 3770.696 5920584
-1704.7585 1430.4661 3744.3772 5920584
-1688.3534 1435.3815 3757.2437 6315342
-1662.2562 1432.0785 3748.5977 6315342
-1629.8373 1423.1658 3725.2678 6249549
-1623.4828 1437.0802 3761.6902 6249549
-1596.5812 1432.9407 3750.8547 6315342
-1586.6757 1444.1539 3780.2065 6512464
-1541.5438 1423.167 3725.271 6446928
-1512.6506 1416.7798 3708.552 6381134
-1492.9535 1418.9442 3714.2178 6315342
-1466.4545 1414.6124 3702.8787 6315342
-1441.4299 1411.5927 3694.9744 6249549
-1420.5145 1412.5662 3697.5222 6315342
-1399.8507 1413.824 3700.8149 6315342
-1393.5706 1429.8804 3742.8438 6249549
-1374.3035 1432.9152 3750.7878 6446928
-1336.4391 1416.3408 3707.4028 6381134
-1312.2896 1413.9899 3701.2493 6381135
-1293.8634 1417.8311 3711.3037 6315342
-1271.6221 1417.552 3710.5732 6249295
-1251.053 1419.1599 3714.7825 6249295
-1223.0873 1412.2848 3696.7859 6315088
-1203.7998 1415.3622 3704.8413 6051916
-1185.4961 1419.7322 3716.2803 6117708
-1175.0764 1433.8881 3753.3345 6249295
-1131.7709 1407.687 3684.7507 6315088
-1129.824 1432.9086 3750.7705 6446674
-1096.3572 1418.3646 3712.7004 6578260
-1077.8845 1423.0205 3724.8875 6512721
-1051.5966 1417.3374 3710.0117 6578514
-1031.1744 1419.4866 3715.6372 6644307
-1001.533 1408.7616 3687.5635 6578514
-979.57404 1408.6052 3687.1543 6446928
-959.20001 1410.7728 3692.8284 6446927
-941.3775 1416.8821 3708.8198 6315342
-916.82434 1412.9109 3698.4248 6381134
-889.11603 1403.7638 3674.4812 6578514
-867.61163 1404.198 3675.6182 6578515
-848.14014 1408.0297 3685.6477 6446928
-826.27075 1407.9778 3685.512 6381135
-805.43335 1409.7294 3690.0969 6249296
-782.04749 1406.9937 3682.9358 6315088
-759.30487 1405.2915 3678.4802 6249039
-731.3186 1393.4971 3647.6074 6117709
-705.74548 1385.7224 3627.2566 6052171
-686.56763 1390.4109 3639.5291 6052170
-666.08246 1392.67 3645.4424 6117963
-640.32544 1383.6887 3621.9329 6117707
-615.40417 1375.9529 3601.6838 5986123
-591.41547 1369.8213 3585.6338 6051916
-572.7254 1375.9626 3601.7092 5986123
-549.98682 1372.4766 3592.5842 6249295
-519.94818 1349.759 3533.1191 6183502
-499.92896 1352.2365 3539.6038 5986123
-474.94006 1340.8999 3509.9294 5920329
-451.69406 1333.6711 3491.0076 5986123
-431.15704 1334.131 3492.2112 5986123
-410.52811 1334.3385 3492.7544 5986123
-388.35754 1329.291 3479.5422 6117709
-367.33313 1327.8208 3475.6938 6117709
-346.34509 1326.3154 3471.7532 5854537
-324.54233 1321.3027 3458.6318 5920330
-305.05832 1325.6909 3470.1184 5920330
-283.34476 1320.3242 3456.0706 5788744
-267.2757 1342.4723 3514.0454 5788744
-247.68387 1349.1741 3531.5876 5722951
-226.06273 1345.0385 3520.7625 5722951
-204.32899 1339.3241 3505.8044 5657158
-181.91745 1327.3706 3474.5151 5854537
-167.91266 1381.5343 3616.2937 5788744
-140.69627 1326.9426 3473.3948 5854536
-118.75262 1311.8917 3433.998 5920330
-98.310654 1310.6365 3430.7122 5920330
-77.740166 1306.5669 3420.0596 5788744
-58.034107 1319.2783 3453.333 5854537
-37.273243 1308.7979 3425.8992 5986123
-16.871429 1300.9337 3405.3145 6051916
3.3032279 1299.6753 3402.02 5986123
23.824787 1319.7964 3454.689 6117709
44.189201 1316.6379 3446.4214 6183501
64.845108 1321.416 3458.9285 6117709
85.802567 1328.5684 3477.6504 6051916
111.34389 1390.1825 3638.9309 5920330
126.17896 1319.8181 3454.7458 6183502
146.45491 1318.0648 3450.1565 6315087
166.71008 1316.5771 3446.2622 6117709
186.65598 1313.238 3437.522 5986122
206.66879 1310.9805 3431.6125 5986123
227.3396 1312.9275 3436.7092 5986122
248.17114 1315.4062 3443.1975 6183502
275.58762 1349.7598 3533.1208 6051916
286.19275 1302.7379 3410.0369 5986123
307.74329 1308.4553 3425.0027 5854536
326.54224 1302.4899 3409.3877 5788744
349.23785 1311.8568 3433.9062 5986123
371.4986 1318.6488 3451.6851 6051915
390.26282 1312.9684 3436.8162 5722951
408.38382 1305.7949 3418.0388 5920330
435.77042 1327.5259 3474.9216 5986123
453.40665 1318.9325 3452.4277 5920330
467.33044 1300.7483 3404.8289 5854537
493.52939 1316.8212 3446.9011 5854537
512.10077 1312.0739 3434.4744 5920330
528.43408 1302.1743 3408.5615 6051659
544.8631 1293.2307 3385.1509 5985609
573.4472 1312.748 3436.2395 6117194
589.6723 1303.6045 3412.3054 5985608
616.21515 1317.1207 3447.6853 6117195
647.06934 1338.689 3504.1421 6182988
653.29449 1309.5466 3427.8594 6314574
676.54761 1315.2655 3442.8291 6709332
693.22681 1308.2434 3424.448 6511953
708.60645 1299.238 3400.8755 6182988
737.32172 1314.5055 3440.8396 6182988
756.65668 1312.6779 3436.0557 6314574
773.89069 1307.397 3422.2324 6314574
799.7522 1316.5886 3446.2925 6380367
816.4024 1310.536 3430.449 6182988
836.8656 1310.7496 3431.0083 6248780
843.75531 1290.1979 3377.2122 6248781
865.80994 1293.2499 3385.2009 6380365
886.74414 1294.528 3388.5466 6446158
909.75012 1298.7072 3399.4861 6577744
922.7923 1288.7894 3373.5256 6840915
938.26514 1282.6152 3357.3638 6840916
947.98676 1268.9987 3321.7212 6709073
971.03473 1273.412 3333.2734 6643537
989.44214 1271.6853 3328.7537 6577744
1008.4862 1270.8281 3326.51 6643537
1019.8152 1260.4684 3299.3923 6643537
1052.8981 1276.8798 3342.3508 6314572
1069.283 1272.8088 3331.6948 6446158
1087.7013 1271.2622 3327.6462 6051400
1090.6604 1252.0243 3277.2893 5919814
1109.8584 1251.7747 3276.636 6248779
1149.5632 1274.2653 3335.5068 6314572
1153.2198 1256.712 3289.5598 5985607
1164.8927 1248.3329 3267.6267 6577487
1198.3063 1263.1447 3306.3979 6380365
1219.9503 1265.2732 3311.9695 6446157
1235.4941 1261.1077 3301.0659 6446158
1232.015 1237.9574 3240.4678 5722435
1257.1838 1243.8618 3255.9233 5919814
1265.8607 1233.5172 3228.8455 6380365
1295.4382 1243.5442 3255.0918 6643537
1317.17 1245.856 3261.1431 6643537
1321.7894 1232.1489 3225.2637 6577743
1335.4299 1227.1222 3212.1057 6248266
1346.1694 1219.6085 3192.4377 5985096
1377.0371 1230.2859 3220.3872 5854021
1394.2065 1228.6005 3215.9751 5919814
1402.8727 1219.5682 3192.3325 6117192
1427.2273 1224.2334 3204.5442 6117193
1447.15 1225.0244 3206.6147 6314315
1470.3557 1228.5381 3215.812 6051657
1497.5608 1235.2607 3233.4092 6051402
1506.6531 1227.0619 3211.9478 6051402
1529.5907 1230.203 3220.1699 5985609
1545.8389 1227.9528 3214.28 6117196
1570.0485 1232.0048 3224.8862 6182988
1578.9658 1224.1038 3204.2048 6051402
1602.8083 1227.824 3213.9426 6117195
1621.4039 1227.4845 3213.0542 6117195
1641.0123 1227.911 3214.1704 5919816
1665.275 1231.7703 3224.2725 5919816
1682.0153 1230.0408 3219.7454 5656131
1687.1401 1219.9512 3193.335 5524801
1721.0616 1230.6769 3221.4106 5919816
1752.3964 1239.3381 3244.082 6051402
1760.552 1231.5963 3223.8171 5919816
1789.4633 1238.3844 3241.5857 5919816
1794.0677 1228.3857 3215.4131 5788230
1818.3987 1231.9618 3224.7739 5655874
1837.0493 1231.655 3223.9709 5787715
1859.76 1234.0488 3230.2368 5787715
1880.9774 1235.4128 3233.8074 5985094
1891.6945 1229.9225 3219.4358 6116680
1908.4685 1228.4404 3215.5564 5985094
1923.8418 1226.095 3209.417 5721922
1936.2511 1221.925 3198.5017 5787714
1956.7872 1222.9148 3201.0923 5787715
1976.8103 1223.568 3202.8022 5853507
1998.6841 1225.3434 3207.4495 5919300
2020.027 1226.7629 3211.1653 5919556
2027.942 1220.0774 3193.6653 5919556
2059.3208 1227.5015 3213.0986 5854018
2070.7983 1223.0356 3201.4089 6050626
2078.4299 1216.4 3184.0396 6182211
2109.1594 1223.2803 3202.0491 6181955
2115.676 1216.1199 3183.3062 6116419
2133.6594 1215.6191 3181.9954 6313798
2141.5422 1209.423 3165.7764 6313798
2165.5227 1212.3464 3173.4287 6248004
2184.2405 1212.2986 3173.3035 6314054
2215.4373 1219.1187 3191.1558 6380104
2231.8901 1217.7784 3187.6477 6380104
2241.6794 1212.8556 3174.7617 6445640
2273.4805 1219.8251 3193.0046 6248005
2291.9812 1219.6019 3192.4209 5721661
2325.4529 1227.2837 3212.5286 5984833
2342.7202 1226.358 3210.1055 6050626
2363.2068 1227.119 3212.0974 6116162
2370.1582 1220.8958 3195.8074 6116162
2384.9224 1218.7635 3190.2261 6379847
2382.9185 1208.1633 3162.4792 6906704
2369.5305 1192.0017 3120.1748 2695444
2411.5513 1203.7482 3150.9221 3747100
2419.2285 1198.303 3136.6689 1181696
2441.0713 1199.9038 3140.8591 786944
2465.5547 1202.7686 3148.3579 458752
2469.3975 1195.5969 3129.5854 1379586
2427.5378 1166.5696 3053.6038 327680
2448.2117 1167.8002 3056.825 459264
2454.6062 1162.2516 3042.301 327936
2476.0527 1163.859 3046.5085 1249024
2475.3843 1155.1233 3023.6421 327680
2476.9355 1147.5416 3003.7961 1314816
2513.261 1156.0636 3026.1033 2630671
2547.2556 1163.4003 3045.3079 262656
2548.2759 1155.6794 3025.0979 197120
2586.1804 1164.6772 3048.6504 460032
2507.6536 1121.4795 2935.5762 921088
2484.6516 1103.5376 2888.6118 460544
2537.7637 1119.4156 2930.1738 197376
2562.5278 1122.6583 2938.6619 789504
2524.291 1098.4424 2875.2747 657920
2537.2136 1096.6639 2870.6194 1381632
2542.2542 1091.525 2857.1677 855552
2545.4185 1085.6538 2841.7993 1382400
2575.9956 1091.475 2857.0366 329472
2598.4031 1093.7811 2863.073 1250816
2646.4961 1106.7993 2897.1494 987648
2682.0088 1114.4224 2917.1033 724992
2662.2036 1099.1094 2877.0205 1382656
2667.2219 1094.1747 2864.1033 790528
2664.4922 1086.1439 2843.082 790784
2661.5435 1078.1255 2822.093 264192
2686.5217 1081.449 2830.7925 856064
2686.4976 1074.729 2813.2026 527104
0 0 0 0
0 0 0 0
0 0 0 0
0 0 0 0
0 0 0 0
0 0 0 0
-3408.5442 1469.8002 3788.5759 7300174
-3513.8127 1525.2384 3931.4744 7168588
-3448.4963 1506.8767 3884.145 7169358
-3472.001 1527.3408 3936.8936 7103308
-3403.2249 1507.2128 3885.011 7037772
-3423.1033 1526.3409 3934.3162 7103821
-3397.8367 1525.4636 3932.0547 6972493
-3366.1965 1521.693 3922.3354 7037774
-3347.8489 1523.9207 3928.0774 7038286
-3298.9817 1512.1899 3897.8401 6972240
-3285.1638 1516.4729 3908.8799 7104083
-3245.4116 1508.7601 3888.9995 7103826
-3234.0056 1514.2091 3903.0449 6906447
-3191.5032 1505.0721 3879.4932 6906447
-3181.5876 1511.2815 3895.4985 6840654
-3158.7969 1511.4208 3895.8577 6774860
-3140.4717 1513.715 3901.7712 6445896
-3100.2256 1505.3986 3880.3347 6511432
-3041.4097 1487.8737 3835.1621 6906447
-2993.4492 1475.4353 3803.1011 7169619
-2952.3489 1466.2152 3779.3354 7301204
-2934.7542 1468.6169 3785.5259 7301205
-2930.4482 1477.757 3809.0852 7235412
-2940.5293 1494.3501 3851.856 7235411
-2901.6453 1486.1245 3830.6538 7169619
-2851.7161 1472.0677 3794.4207 6972240
-2811.1553 1462.6621 3770.1765 6906447
-2807.0967 1472.2501 3794.8909 6840653
-2759.7388 1459.1001 3760.9954 6971984
-2750.9944 1466.3176 3779.5994 6972241
-2715.9678 1459.53 3762.1033 7169363
-2700.7156 1463.3444 3771.9351 7103570
-2669.6296 1458.5715 3759.6328 6971985
-2637.8545 1453.3387 3746.1445 6906448
-2600.3384 1444.8271 3724.2051 6906448
-2566.6956 1438.3403 3707.4846 6708813
-2519.4497 1424.0531 3670.6575 6643276
-2526.4504 1440.4451 3712.9099 6511690
-2501.6589 1438.84 3708.7725 6511434
-2495.603 1448.0775 3732.5833 6577483
-2456.7656 1438.2888 3707.3518 6446153
-2440.718 1441.7858 3716.3655 6249031
-2430.3413 1448.7269 3734.2573 6249031
-2407.8052 1448.4808 3733.6228 6709582
-2381.2366 1445.7817 3726.6655 6117445
-2354.1213 1442.6971 3718.7148 6380363
-2327.9065 1440.1113 3712.0496 6314570
-2306.9761 1440.7764 3713.7639 6380363
-2276.7881 1435.6171 3700.4651 6314570
-2228.0835 1418.5681 3656.5195 6248777
-2204.9607 1417.6318 3654.1062 6183497
-2234.3884 1450.7981 3739.5959 6183754
-2212.5732 1451.0233 3740.1765 6249547
-2184.3025 1446.9766 3729.7456 6183753
-2150.8645 1439.3893 3710.1885 5986375
-2109.7917 1426.4832 3676.9216 6117961
-2091.7136 1429.0171 3683.4529 6249547
-2094.2107 1445.8093 3726.7368 6315340
-2061.1196 1438.1282 3706.9377 6381133
-2051.9792 1447.173 3730.2517 6183754
-2027.7993 1445.6924 3726.4353 6117961
-2000.34 1441.8154 3716.4421 6117961
-1978.3931 1441.8698 3716.582 6183756
-1954.9985 1440.8583 3713.9749 6052427
-1909.1422 1423.0808 3668.1516 6118219
-1912.85 1442.2645 3717.5996 6052170
-1884.9565 1437.7908 3706.0681 6183756
-1868.1821 1441.7927 3716.3835 6052170
-1838.4373 1435.7609 3700.8357 6117963
-1809.8112 1430.4674 3687.1912 6117963
-1782.8652 1426.3887 3676.678 6117963
-1756.321 1422.5348 3666.7439 6052170
-1726.3545 1415.7773 3649.3259 6117963
-1710.3088 1420.41 3661.2673 6183756
-1698.2671 1428.5297 3682.1963 6249549
-1661.4463 1415.746 3649.2449 6315342
-1639.7211 1415.6577 3649.0176 6315342
-1612.3519 1410.6296 3636.0571 6381135
-1595.5016 1414.7926 3646.7876 6446928
-1576.0728 1416.7521 3651.8386 6183756
-1547.2889 1410.2397 3635.0522 6183756
-1522.8972 1407.6033 3628.2563 6380878
-1498.4712 1404.8589 3621.1824 6381135
-1477.6147 1405.4299 3622.6545 6381134
-1455.2938 1404.6047 3620.5271 6315342
-1432.6174 1403.4061 3617.438 6315342
-1412.9854 1405.199 3622.0591 6249549
-1389.9091 1403.5691 3617.8577 6249549
-1378.7814 1414.1431 3645.1133 6052170
-1353.6689 1410.4818 3635.6763 6183756
-1328.6533 1406.8048 3626.1982 6446671
-1304.5842 1404.0255 3619.0344 6183755
-1286.0464 1407.2058 3627.2317 6249549
-1262.8097 1405.2651 3622.2295 6315341
-1242.8433 1406.9595 3626.5969 6315089
-1220.4666 1405.937 3623.9612 6380624
-1203.6067 1411.3468 3637.9058 6249295
-1179.542 1408.3514 3630.1851 5986123
-1163.4216 1414.9066 3647.0815 6315088
-1174.8994 1455.9088 3752.7693 6380881
-1117.9485 1412.0618 3639.7485 6446674
-1097.7391 1413.8103 3644.2556 6512210
-1073.5837 1410.4446 3635.5803 6643796
-1055.4199 1414.9741 3647.2556 6644306
-1024.6428 1402.4292 3614.9197 6578514
-995.41406 1391.5129 3586.7815 6578514
-975.50867 1393.438 3591.7437 6578514
-961.92902 1404.6864 3620.7378 6578514
-940.95276 1405.4004 3622.5781 6446673
-918.24622 1403.5032 3617.6877 6380625
-888.5072 1390.5094 3584.1948 6446674
-867.24567 1390.4712 3584.0964 6446674
-844.99738 1388.8096 3579.8132 6380881
-824.67218 1390.3043 3583.6663 6249295
-809.13306 1400.1599 3609.0703 6380881
-783.54462 1392.6892 3589.8137 6315088
-761.4494 1391.1835 3585.9324 6183502
-738.55328 1388.0859 3577.9482 6249549
-717.55945 1388.4865 3578.9807 6249549
-690.39398 1376.6053 3548.3557 6381134
-671.63971 1381.2762 3560.3953 6052170
-639.74561 1358.3506 3501.302 5986377
-618.94208 1358.2257 3500.9802 5788742
-593.54071 1347.6526 3473.7268 5854537
-578.91901 1361.6748 3509.8704 5986122
-559.14545 1364.1727 3516.3091 5986123
-531.65057 1347.2968 3472.8093 5986123
-511.54269 1348.5355 3476.0024 5920330
-490.46198 1347.2059 3472.5754 5788744
-466.14871 1336.4921 3444.9592 5788744
-442.98563 1328.2455 3423.7029 5788744
-421.30338 1323.8607 3412.4004 5854537
-403.66553 1332.3831 3434.3679 5986123
-380.64417 1323.0975 3410.4333 5920330
-359.1904 1318.5253 3398.6477 5920330
-338.97409 1318.222 3397.8662 5854537
-317.97519 1314.6451 3388.6462 5920330
-298.71201 1318.2458 3397.9275 5722951
-277.86502 1314.8723 3389.2317 5722951
-263.52698 1344.1733 3464.7585 5722951
-241.75745 1337.3173 3447.0862 5788744
-230.75882 1394.2748 3593.9006 5788744
-198.37152 1320.442 3403.5884 5722951
-178.99843 1326.3293 3418.7634 5788743
-158.4214 1323.6599 3411.8828 5788744
-137.98822 1321.5872 3406.5403 5788744
-117.67265 1320.1237 3402.7678 5854537
-97.050529 1313.9049 3386.7383 5854537
-81.617706 1393.0122 3590.6462 5854536
-56.374474 1301.4275 3354.5764 5722951
-36.3974 1297.8666 3345.3977 5920329
-16.641857 1303.1351 3358.978 5920330
3.2441318 1296.2211 3341.156 5788744
23.27969 1309.6023 3375.6477 5854537
43.291924 1309.9099 3376.4407 5920329
63.144424 1306.7175 3368.2119 5920330
84.229332 1324.4371 3413.8862 5854537
103.83636 1316.5553 3393.5701 6051916
123.15781 1308.1979 3372.0276 5986123
156.04999 1426.2015 3676.1956 5920330
164.50554 1319.3173 3400.6892 5920329
184.9366 1321.3223 3405.8572 5985352
203.51805 1311.0178 3379.2964 5722437
220.80627 1294.975 3337.9441 4472370
243.21414 1309.1271 3374.4229 5853766
264.53223 1315.7085 3391.3872 5854023
284.48721 1315.0598 3389.7151 5656644
301.58099 1302.1427 3356.4199 5920330
319.80597 1295.4059 3339.0549 5854537
343.17355 1309.071 3374.2786 5920330
362.04739 1305.0336 3363.8713 5788744
383.71515 1310.9628 3379.1545 5854537
403.03323 1308.6744 3373.2561 5854537
421.57016 1304.1857 3361.6855 5854537
445.26862 1315.3494 3390.4614 5854280
463.53745 1310.2023 3377.1943 5788230
482.56592 1307.5394 3370.3303 5854022
498.68549 1297.5195 3344.5032 5919816
511.69357 1280.4794 3300.5801 5854280
543.72711 1310.5511 3378.0935 6182988
562.17822 1306.9117 3368.7126 6248781
578.65991 1299.1008 3348.5789 5919816
603.33051 1309.5824 3375.5964 5854023
623.69989 1310.3547 3377.5874 5919816
647.86475 1318.8053 3399.3694 6117195
659.5191 1302.0472 3356.1738 6051402
676.16846 1295.8431 3340.1819 6051402
703.74622 1310.3398 3377.5491 6051401
713.15924 1291.1486 3328.0811 6117195
731.56873 1288.8394 3322.1289 6182988
754.81891 1294.9558 3337.8948 6446159
781.12384 1305.8667 3366.019 6248781
799.62292 1303.5098 3359.9436 6248781
827.5061 1316.1931 3392.6362 6380367
833.24109 1293.8822 3335.1277 6380367
850.94537 1290.7611 3327.0823 6314573
867.31781 1285.8068 3314.312 6314572
883.45044 1280.7241 3301.2112 6511694
903.8454 1281.907 3304.2598 6511951
926.54614 1286.2405 3315.4302 6511951
940.99042 1279.1704 3297.2061 6511950
956.698 1274.0703 3284.0601 6446158
966.71686 1261.7487 3252.2996 6380364
986.35162 1262.2139 3253.4988 6577744
999.7243 1254.8015 3234.3923 6840916
1018.8954 1254.8087 3234.4114 7104088
1042.0638 1259.6479 3246.8848 6511951
1050.652 1247.0065 3214.2998 6182986
1069.2869 1246.5273 3213.0647 6182986
1096.0048 1255.3228 3235.7361 6380365
1126.7986 1268.4038 3269.4541 6380365
1139.5697 1261.0981 3250.6228 6446158
1148.6783 1250.0496 3222.1438 6511951
1167.1409 1249.3752 3220.4058 6446158
1190.6294 1254.0161 3232.3682 6511951
1203.4496 1247.4517 3215.4475 6511951
1206.7163 1231.3434 3173.9265 6314572
1235.8586 1241.728 3200.6941 6248779
1257.1053 1243.9856 3206.5132 6248779
1256.2867 1224.6659 3156.7146 6314828
1284.5112 1233.8099 3180.2842 6643024
1301.074 1231.6499 3174.7166 6380365
1322.9961 1234.5525 3182.1985 6314572
1328.0343 1221.8398 3149.4302 6248778
1350.304 1225.1134 3157.8679 5919813
1365.7632 1222.2028 3150.3657 5919813
1373.1368 1212.2327 3124.6665 5985607
1391.8491 1212.4047 3125.1099 6182986
1418.6766 1219.5481 3143.5229 6182985
1434.4637 1217.1389 3137.3127 6249036
1463.6656 1226.028 3160.2256 6248779
1475.6067 1220.4166 3145.7617 6182986
1493.1639 1219.5325 3143.4827 6117193
1503.1262 1212.5433 3125.4673 6577746
1525.4539 1215.5778 3133.2888 6314574
1550.4485 1220.6388 3146.3345 6314574
1568.816 1220.4243 3145.7815 6314574
1585.9004 1219.2284 3142.699 6314574
1599.9669 1215.767 3133.7766 6182988
1617.2267 1214.7836 3131.2419 6117195
1646.1302 1222.4696 3151.0535 5919815
1652.7126 1213.5928 3128.1724 6051402
1667.3136 1210.7355 3120.8074 6182988
1699.6287 1220.6631 3146.397 6117194
1723.2859 1224.2249 3155.5776 6051402
1749.1815 1229.283 3168.6157 6182988
1799.4348 1251.1702 3225.0322 6051402
1770.2833 1217.9662 3139.4453 6117194
1796.7567 1223.3251 3153.2585 6051145
1814.1947 1222.4852 3151.0938 5985094
1831.6096 1221.6471 3148.9333 5985094
1843.0522 1216.8827 3136.6526 5787715
1852.7566 1211.0771 3121.688 5787458
1895.733 1226.92 3162.5249 5853508
1897.496 1216.0406 3134.4819 5919301
1909.2257 1211.6974 3123.2869 5787715
1933.8218 1215.5249 3133.1528 5656129
1941.7958 1208.931 3116.1562 5524543
1951.8037 1203.7157 3102.7131 5458750
1981.7285 1210.7662 3120.8867 5590336
2004.3301 1213.2534 3127.2979 5721665
2017.8475 1210.2468 3119.5479 6050886
2039.6908 1212.243 3124.6931 6116934
2060.4763 1213.5803 3128.1401 6116934
2064.2922 1204.9879 3105.9924 6116934
2080.5833 1203.7654 3102.8413 6445899
2103.3726 1206.2909 3109.3511 6577485
2107.4883 1198.1562 3088.3831 6511691
2125.5391 1198.0157 3088.0208 6248520
2152.6118 1202.9196 3100.6609 6445899
2175.5859 1205.4691 3107.2327 6380360
2203.9878 1210.958 3121.3811 6511690
2235.6389 1218.1262 3139.8577 6511433
2246.0598 1213.7039 3128.4585 6511690
2276.4653 1220.0646 3144.854 6445384
2295.8818 1220.4802 3145.9255 6511432
2316.7405 1221.6495 3148.9397 6313797
2325.4319 1216.4358 3135.5005 6248261
2329.7966 1209.0591 3116.4863 6577225
2364.0979 1217.212 3137.5015 6445896
2379.0698 1215.3633 3132.7361 6511688
2371.6396 1202.1874 3098.7737 6774863
2390.8301 1202.6044 3099.8486 7366998
2370.9048 1183.4895 3050.5779 6380103
2383.4617 1180.7555 3043.5305 1905670
0 0 0 0
2417.2307 1179.6334 3040.6382 1577477
2446.1699 1184.9241 3054.2756 393216
2442.3447 1174.3826 3027.1035 656640
2467.6431 1177.8966 3036.1614 4735281
2479.5012 1174.9906 3028.6709 1511941
2462.3689 1158.4871 2986.1311 2169350
2516.7205 1175.6105 3030.2686 262144
2518.0696 1167.9082 3010.4153 920064
2491.373 1147.3979 2957.5476 459520
2492.114 1139.7222 2937.7625 460032
2488.0764 1129.9827 2912.658 592128
2468.165 1113.2179 2869.4448 526336
2498.6069 1119.2379 2884.9622 460800
2518.5957 1120.5255 2888.2812 460544
2521.6399 1114.3081 2872.2551 395008
2536.8083 1113.4957 2870.1609 526336
2540.821 1107.8301 2855.5571 723456
2550.8418 1104.8417 2847.8542 724480
2558.1428 1100.7223 2837.2361 790016
2590.3857 1107.3187 2854.239 461312
2633.9685 1118.6455 2883.4353 856064
2675.3953 1128.9166 2909.9102 1448192
2645.396 1109.1101 2858.8564 1119232
2637.1926 1098.6355 2831.8572 856320
2636.3035 1091.3214 2813.0042 66304
2629.3179 1081.5912 2787.9233 395520
2674.198 1093.1847 2817.8069 1119232
2658.9661 1080.2136 2784.3726 724480
0 0 0 0
0 0 0 0
0 0 0 0
0 0 0 0
0 0 0 0
0 0 0 0
-3415.0518 1495.0981 3795.8093 7366482
-3412.8943 1504.0593 3818.5603 7038287
-3394.0972 1505.7582 3822.8733 6906701
-3367.0276 1503.7853 3817.8645 6972237
-3331.7864 1498.1112 3803.459 6840394
-3315.8459 1501.0975 3811.0408 7037774
-3303.6909 1505.8502 3823.1072 6906444
-3258.8386 1495.662 3797.241 7038287
-3266.7632 1509.7227 3832.9385 7169873
-3230.1616 1503.2584 3816.5271 7169619
-3185.4048 1492.8812 3790.1809 7169619
-3175.519 1498.8154 3805.2468 7169619
-3149.6394 1497.2314 3801.2256 7038032
-3127.0522 1497.201 3801.1482 6972240
-3097.9143 1494.0111 3793.0496 7038033
-3080.012 1496.2327 3798.6897 7104082
-3076.9604 1505.7544 3822.8638 7169875
-3031.0784 1494.302 3793.7881 6906960
-2919.8462 1450.2207 3681.873 6644044
-2925.3555 1463.895 3716.5896 6841167
-2910.5671 1467.5426 3725.8501 7038033
-2897.3218 1472.0297 3737.2422 7103826
-2864.3501 1466.4863 3723.1687 7038034
-2839.1582 1464.8711 3719.0679 6972241
-2804.4963 1458.3063 3702.4009 7038033
-2790.4272 1462.4305 3712.8716 6972240
-2773.5869 1465.1562 3719.7917 6906704
-2732.8635 1455.2083 3694.5354 6906961
-2712.1763 1455.8547 3696.1768 6906704
-2690.1458 1455.7848 3695.9993 6906704
-2656.2903 1449.2621 3679.4392 6972497
-2619.1204 1440.8081 3657.9761 6709326
-2584.7456 1433.7635 3640.0911 6643534
-2565.0522 1434.8127 3642.7546 6643276
-2560.3835 1444.3555 3666.9819 6577227
-2511.79 1429.0706 3628.1763 6380105
-2476.1267 1420.9419 3607.5386 6445897
-2463.8103 1426.1862 3620.853 6511433
-2461.0593 1437.1082 3648.5823 6446153
-2419.2896 1425.2372 3618.4438 6446153
-2398.8743 1425.8469 3619.9917 6380360
-2388.1982 1432.3085 3636.3965 6117445
-2377.0657 1438.6112 3652.3982 6051652
-2352.1094 1436.587 3647.2593 6775374
-2332.3188 1437.7094 3650.1086 6446409
-2294.4668 1427.6151 3624.481 6380107
-2278.6677 1431.1809 3633.5342 6182984
-2266.6799 1437.2316 3648.8955 6182984
-2251.8188 1441.5591 3659.8826 6182984
-2177.8291 1407.7501 3574.0471 6314572
-2177.9751 1421.6691 3609.3848 6249291
-2182.5793 1438.8032 3652.8857 6183755
-2161.374 1439.0957 3653.6284 6117960
-2124.0317 1428.5413 3626.8323 5986375
-2100.8667 1427.4034 3623.9436 6052168
-2070.1399 1421.0514 3607.8167 5986375
-2061.2031 1429.6807 3629.7251 6117960
-2040.2728 1430.0851 3630.752 6052167
-2019.9106 1430.901 3632.8232 6117961
-2003.6499 1434.6709 3642.3945 6117962
-1976.7592 1430.8289 3632.6401 6052168
-1959.5603 1433.9946 3640.6775 6052170
-1939.8456 1435.3691 3644.1672 6183756
-1914.3846 1432.4751 3636.8196 6117963
-1890.0648 1430.3785 3631.4968 6249548
-1870.2854 1431.7096 3634.8762 6117963
-1845.755 1429.3923 3628.9929 6183756
-1829.3088 1433.3546 3639.0527 6117963
-1791.7385 1420.6624 3606.8291 6052170
-1772.2959 1422.2106 3610.76 6381135
-1737.7103 1411.4965 3583.5583 6052170
-1713.1188 1408.7355 3576.5486 6249549
-1692.6106 1409.3053 3577.9954 6249548
-1671.1688 1409.1023 3577.48 6117963
-1656.6152 1414.7767 3591.8865 5986377
-1626.0516 1406.748 3571.5032 6249549
-1602.6556 1404.7904 3566.5327 6315342
-1589.1083 1411.5284 3583.6396 6249549
-1566.8695 1410.6244 3581.3442 6249549
-1543.0865 1408.2861 3575.408 6315342
-1508.6511 1396.0255 3544.2803 6117963
-1489.3939 1397.6622 3548.4355 6512721
-1465.2283 1394.6736 3540.8479 6315342
-1443.2874 1393.7467 3538.4946 6381135
-1419.0392 1390.5315 3530.3318 6381135
-1403.6592 1396.04 3544.3169 6381135
-1382.8884 1396.2729 3544.9082 6249549
-1382.6472 1417.5612 3598.9556 6183756
-1345.776 1401.3728 3557.8562 6315342
-1320.3679 1396.7963 3546.2368 6315342
-1299.4133 1396.8588 3546.3958 6052170
-1277.8245 1396.2303 3544.8003 5986377
-1256.6509 1396.0424 3544.323 6183755
-1233.5306 1393.6487 3538.2458 6183756
-1208.0935 1388.5094 3525.198 6380625
-1193.2738 1395.6068 3543.2173 6183502
-1173.6039 1397.1844 3547.2224 6183502
-1195.5846 1449.309 3679.5581 6183502
-1187.8883 1466.7269 3723.7793 6249295
-1116.2377 1404.3429 3565.3967 6380881
-1095.5486 1404.9037 3566.8206 6512210
-1073.5886 1403.8247 3564.0811 6446674
-1063.7549 1418.8768 3602.2959 6644053
-1043.6609 1420.5797 3606.6194 6578514
-1002.4592 1393.0225 3536.656 6381135
-975.88654 1385.051 3516.4177 6381135
-964.63934 1398.9574 3551.7239 6446928
-942.77979 1397.7504 3548.6594 6446673
-917.36407 1391.0956 3531.7639 6380881
-891.65063 1383.6682 3512.907 6380881
-869.32806 1381.2736 3506.8271 6315089
-847.99469 1380.3716 3504.5374 6315088
-807.28357 1347.0894 3420.0393 6183502
-809.58984 1385.7235 3518.125 6249295
-784.24719 1377.8239 3498.0691 6183501
-764.95337 1380.411 3504.6375 6249295
-732.849 1359.3799 3451.2429 5986123
-709.96246 1354.7305 3439.439 6051916
-703.04346 1381.1757 3506.5789 6051916
-677.35132 1371.2273 3481.3215 6117709
-652.57758 1362.5715 3459.3459 6051917
-629.12079 1356.1934 3443.1528 5986123
-601.01202 1339.0233 3399.5608 6183502
-586.26813 1351.4709 3431.1636 5920330
-565.99323 1351.605 3431.5039 5986123
-537.39099 1331.1221 3379.501 5986123
-519.07159 1335.5104 3390.6421 5920330
-499.2049 1336.1102 3392.1653 5986123
-479.68875 1337.7385 3396.2988 5920330
-456.63 1329.197 3374.6135 5722950
-435.48761 1325.7069 3365.7529 5656901
-416.5148 1328.8035 3373.6145 5854022
-397.39029 1331.7039 3380.9783 4998711
-377.00226 1330.4534 3377.8032 5459262
-353.48239 1317.3905 3344.6387 5524801
-332.97339 1314.6635 3337.7153 5459522
-314.65613 1320.7922 3353.2751 5722951
-291.22119 1304.8173 3312.7175 5854537
-271.9809 1306.6855 3317.4607 5788744
-253.65758 1313.5936 3334.9993 5788744
-241.64828 1357.1296 3445.5298 5591365
-215.19173 1320.0751 3351.4546 5854537
-196.00848 1324.6401 3363.0442 5920330
-174.22522 1310.6785 3327.5979 5788744
-155.32841 1317.6392 3345.27 5788744
-135.71721 1319.6895 3350.4753 5788744
-115.28172 1313.054 3333.6289 5788744
-96.049576 1320.2145 3351.8083 5788744
-74.767212 1295.5814 3289.269 6183502
-55.220737 1294.2635 3285.9231 5854537
-36.066292 1305.7023 3314.9644 5986123
-16.339169 1298.9745 3297.8835 5986123
3.2109933 1302.5758 3307.0266 5920330
22.711 1297.124 3293.1855 6051916
42.292789 1299.2235 3298.5159 5986122
62.007881 1302.7965 3307.5869 5920330
81.384575 1299.2511 3298.5857 5854537
101.4278 1305.6588 3314.854 5657158
122.48415 1320.9133 3353.5828 5788744
139.22441 1291.8604 3279.822 5920330
162.63358 1324.2255 3361.9917 5986123
178.29791 1293.3473 3283.5969 6117709
197.87337 1294.1245 3285.5701 5854794
218.13121 1298.8253 3297.5049 5130814
238.2576 1302.0352 3305.6541 5065022
256.44183 1294.95 3287.6658 4012334
274.42371 1287.9155 3269.8066 5262401
296.16376 1298.2834 3296.1292 5722952
313.74664 1290.2725 3275.7905 5722951
337.10602 1305.5664 3314.6194 5722951
354.08298 1295.819 3289.8721 5722951
376.92987 1307.4497 3319.4006 5722950
401.91574 1324.9783 3363.9031 5722695
414.55725 1302.0782 3305.7634 5591109
435.84796 1307.1851 3318.7288 5591365
454.95877 1305.5953 3314.6926 5656644
472.90533 1300.9342 3302.8589 5722437
487.38751 1287.4921 3268.7317 5854023
510.86807 1297.9395 3295.2556 5590851
533.02771 1304.3849 3311.6196 6051402
553.17657 1305.6267 3314.7725 5919816
571.2735 1302.1066 3305.8354 5854023
592.14478 1304.9337 3313.0129 5919816
613.30737 1308.2008 3321.3076 5919816
634.3775 1311.0736 3328.6013 6051402
646.48694 1295.8124 3289.8555 6051402
665.79517 1295.4514 3288.9392 6051402
688.74524 1301.9956 3305.5537 5985609
709.44751 1304.0461 3310.7595 6051402
723.47009 1294.0387 3285.3523 6248781
742.93719 1294.0387 3285.3523 6511953
764.32959 1297.3066 3293.6492 6380367
784.25848 1297.9896 3295.3833 6314574
800.78119 1293.139 3283.0684 6314574
816.82538 1287.7642 3269.4224 6314574
833.24078 1283.2098 3257.8599 6446159
852.47241 1283.101 3257.583 6511951
874.53918 1287.1694 3267.9124 6380365
885.86133 1275.59 3238.5142 6446157
902.31128 1271.7289 3228.7114 6446157
917.28699 1265.9933 3214.1499 6511694
935.02484 1264.2258 3209.6624 6182986
950.64642 1259.7245 3198.2341 6182986
969.8125 1260.004 3198.9441 6248779
984.32574 1254.3439 3184.5737 6446158
991.45062 1239.6586 3147.29 6380365
1023.5792 1256.2017 3189.2903 6643280
1041.7305 1255.302 3187.0061 6511694
1059.4257 1253.8945 3183.4329 6511950
1077.3735 1252.8302 3180.731 6511951
1091.4802 1247.4126 3166.9763 6314572
1103.686 1240.0424 3148.2646 6182986
1127.4758 1245.7158 3162.6687 5722435
1144.8597 1244.2421 3158.927 6117193
1157.0712 1237.2845 3141.2629 6511694
1166.8882 1228.0275 3117.7605 6380365
1202.025 1245.29 3161.5874 6643024
1208.5817 1232.8683 3130.0508 6445644
1230.6924 1236.449 3139.1414 6182473
1234.3615 1221.6708 3101.6221 6182473
1254.5464 1223.4326 3106.095 6182473
1270.8533 1221.4163 3100.9758 6248779
1290.7692 1222.8766 3104.6833 6446158
1310.0928 1223.7426 3106.8818 6446158
1321.954 1217.7106 3091.5679 6446158
1332.8643 1210.9795 3074.4788 6511951
1352.1083 1211.8995 3076.8145 6446158
1381.6183 1221.8741 3102.1384 6380365
1399.1432 1221.1266 3100.2405 6380365
1404.5721 1209.9784 3071.937 6709330
1429.6992 1215.8673 3086.8879 6709330
1436.8046 1206.4749 3063.042 6840916
1453.2278 1205.0431 3059.407 6775123
1477.7529 1210.2821 3072.7083 6774868
1498.1069 1212.019 3077.1179 6709332
1515.801 1211.5883 3076.0242 6643539
1538.8281 1215.3798 3085.6501 6577746
1550.0516 1209.8689 3071.6592 6380367
1574.3601 1214.5808 3083.6218 6248781
1595.9161 1217.0856 3089.9812 6051402
1631.3383 1229.9882 3122.7383 6182988
1636.7118 1220.1996 3097.887 6182988
1654.6808 1219.9141 3097.1621 5854023
1668.2039 1216.3931 3088.2227 6051402
1691.5314 1220.0199 3097.4307 6051402
1704.3179 1216.0477 3087.3462 5919816
1724.2704 1217.2188 3090.3191 5985609
1734.2793 1211.4193 3075.5952 6051400
1767.2234 1221.5945 3101.4285 6183242
1779.1641 1217.191 3090.2488 6051400
1792.2388 1213.6453 3081.2466 5985350
1812.4767 1214.9725 3084.6165 5985094
1823.7836 1210.3466 3072.8718 5919301
1841.437 1209.9823 3071.9468 5853508
1860.8192 1210.7498 3073.8955 5853509
1880.6797 1211.8107 3076.5889 5853509
1898.2858 1211.4124 3075.5776 5919302
1916.5237 1211.4213 3075.6001 6050887
1908.5485 1195.0167 3033.9519 5919300
1940.5359 1203.7072 3056.0154 5853508
1952.4852 1199.9221 3046.4058 5919300
1981.4823 1206.5874 3063.3279 5919044
2000.8772 1207.3378 3065.2329 5985091
2016.8402 1206.0225 3061.8936 6050885
2037.8652 1207.7305 3066.2297 6116678
2049.7402 1204.0336 3056.844 6050885
2036.9747 1186.0541 3011.1973 6050628
2076.1855 1198.3881 3042.511 6051141
2079.2371 1189.8179 3020.7527 6116934
2123.3657 1204.6991 3058.5339 6314313
2131.1794 1198.8998 3043.8103 6314313
2160.2822 1205.0731 3059.4834 6248520
2177.4238 1204.5271 3058.0972 6314311
2188.7561 1200.8031 3048.6423 6511690
2208.2075 1201.5577 3050.5583 6511433
2235.8589 1206.7258 3063.6792 6511690
2235.2393 1196.6753 3038.1626 6642762
2272.1165 1206.6995 3063.6125 6642506
2280.2468 1201.4187 3050.2053 6576713
2305.906 1205.384 3060.2725 6248005
2321.9521 1204.3014 3057.5239 6116420
2319.8335 1193.8871 3031.084 6313798
2344.3723 1197.2467 3039.6135 6510920
2360.3396 1196.2111 3036.9841 6314054
0 0 0 0
0 0 0 0
0 0 0 0
2365.6365 1163.4156 2953.7219 1117702
2401.4211 1172.3411 2976.3821 590849
2472.9514 1198.4597 3042.6929 721408
2462.322 1184.6715 3007.6868 1576964
2495.5391 1192.0251 3026.3567 1708551
2475.137 1173.845 2980.2 787200
2474.842 1165.3905 2958.7356 1180928
2477.2739 1158.33 2940.8103 721920
2468.2678 1146.0575 2909.6523 1182720
2464.8027 1136.51 2885.4128 1840640
2455.4509 1124.3984 2854.6636 591616
2480.3015 1128.0074 2863.8262 196864
2504.2737 1131.1708 2871.8572 460032
2521.1609 1131.1124 2871.7092 131584
2518.2095 1122.2141 2849.1179 131840
2549.4111 1128.5531 2865.2114 1382658
2557.2671 1124.5419 2855.0276 1513731
2574.2183 1124.5568 2855.0654 395264
2589.7056 1123.936 2853.4895 921600
2604.8088 1123.1578 2851.5139 592896
2617.5012 1121.3569 2846.9414 329728
2611.6973 1111.7056 2822.4385 921856
2604.4636 1101.5726 2796.7124 1250816
2592.7881 1089.7008 2766.5718 1513984
2601.4138 1086.4569 2758.3362 1185024
2612.7639 1084.3842 2753.0737 2040580
2633.5229 1086.2179 2757.7292 1514497
0 0 0 0
0 0 0 0
0 0 0 0
0 0 0 0
0 0 0 0
0 0 0 0
-3384.2668 1503.9094 3761.5918 7169360
-3326.7676 1488.1588 3722.196 7301460
-3315.0256 1492.8031 3733.8125 7366995
-3302.2014 1497.0193 3744.3582 7169873
-3264.374 1489.881 3726.5037 7169873
-3232.3044 1485.2909 3715.0229 7235666
-3234.5522 1496.5156 3743.0984 7235666
-3203.4873 1492.3762 3732.7449 7235666
-3165.105 1484.7466 3713.6616 7301459
-3149.4395 1487.7413 3721.1519 7103826
-3127.7561 1487.9154 3721.5874 7103827
-3093.0295 1481.843 3706.3992 6972753
-3049.6589 1471.5128 3680.5613 6972753
-3027.7068 1471.4432 3680.387 6972753
-3016.4604 1476.6133 3693.3186 6907216
-2994.0417 1476.3499 3692.6594 6841167
-2973.6423 1477.0856 3694.4998 6906960
-2929.8896 1466.1459 3667.1372 6906704
-2887.2732 1455.6157 3640.7991 6972497
-2868.26 1456.916 3644.0513 6906704
-2833.1101 1449.9773 3626.6963 6906449
-2833.2246 1461.1188 3654.5635 6511433
-2802.3857 1456.3461 3642.6257 6577483
-2769.7622 1450.5645 3628.1648 6380104
-2734.6328 1443.3698 3610.1694 6577483
-2728.7158 1451.6021 3630.76 6906192
-2706.0005 1450.9576 3629.1482 6972240
-2685.0374 1451.25 3629.8796 6775119
-2656.7866 1447.5764 3620.6912 6709070
-2616.6382 1437.3077 3595.0071 6577743
-2604.6272 1442.4531 3607.8767 6643535
-2576.5745 1438.7261 3598.5544 6380363
-2550.8552 1436.2507 3592.363 6446156
-2520.76 1431.2491 3579.853 6380363
-2494.1162 1428.1387 3572.0735 6380362
-2470.5215 1426.7361 3568.5652 6182981
-2398.6995 1397.2175 3494.7329 5788480
-2411.5063 1416.9094 3543.9866 6380617
-2402.7061 1424.1401 3562.0723 6249031
-2376.8733 1421.3141 3555.0037 6051652
-2352.7263 1419.4545 3550.3523 6183237
-2329.8223 1418.318 3547.5098 6051398
-2320.2874 1425.3738 3565.1577 6051398
-2286.1492 1417.3062 3544.979 6248777
-2276.4624 1424.3883 3562.6929 6117191
-2267.5596 1432.0981 3581.9766 5985605
-2251.8345 1435.6041 3590.7461 5919812
-2231.082 1435.9415 3591.5898 6117193
-2190.9873 1423.7166 3561.0127 5985608
-2158.2148 1416.0583 3541.8577 6314572
-2149.1731 1423.9729 3561.6538 6183756
-2134.4009 1428.21 3572.2515 5986377
-2109.5684 1425.7325 3566.0552 6052168
-2091.6995 1427.9591 3571.6243 6052168
-2053.8979 1416.4843 3542.9233 6052168
-2038.5254 1420.4008 3552.7192 6052168
-2022.7391 1424.1077 3561.991 6117961
-1983.3942 1411.1311 3529.5339 5920582
-1966.1785 1413.7904 3536.1853 5854788
-1939.2942 1409.4799 3525.4036 5920581
-1925.6083 1414.7725 3538.6416 5920584
-1918.9277 1425.385 3565.186 6052170
-1890.3136 1419.7603 3551.1172 5986377
-1871.1151 1421.1604 3554.6191 6117963
-1852.9952 1423.4209 3560.2732 6315342
-1822.8322 1416.3756 3542.6514 6183756
-1798.8015 1413.9867 3536.6763 6117963
-1776.8267 1413.1765 3534.6499 6117963
-1757.8875 1414.7902 3538.686 5920583
-1720.8661 1401.7142 3505.9802 6052170
-1701.0785 1402.5278 3508.0151 6249548
-1682.9674 1404.7607 3513.6003 6183755
-1662.2262 1404.827 3513.7659 6117963
-1627.5762 1392.9907 3484.1609 6183756
-1618.7008 1403.1935 3509.6802 6183756
-1585.7507 1392.5206 3482.9851 6381135
-1571.7349 1398.4126 3497.7222 6512721
-1540.5786 1389.0081 3474.1995 6381135
-1517.5177 1386.7463 3468.5425 6249549
-1504.161 1393.4124 3485.2156 6052170
-1478.1851 1388.4111 3472.7063 6315342
-1455.203 1386.1204 3466.9768 6381135
-1433.6666 1385.1609 3464.5769 6249549
-1415.317 1387.297 3469.9199 6249549
-1394.1443 1386.6884 3468.3972 6249549
-1379.2791 1392.429 3482.7559 6183756
-1355.7955 1389.5114 3475.4583 6249548
-1329.4371 1383.512 3460.4526 6117963
-1307.2333 1381.7158 3455.9602 5986377
-1284.3365 1379.1185 3449.4636 5986377
-1266.009 1381.423 3455.2278 6052170
-1249.4844 1385.8029 3466.1826 6052170
-1224.726 1381.0443 3454.2805 6249548
-1203.814 1380.5352 3453.0068 6117962
-1187.9871 1385.9407 3466.5273 5986124
-1169.3149 1388.1589 3472.0757 6183502
-1158.6381 1400.1182 3501.988 6315088
-1141.2577 1404.2651 3512.3606 6249295
-1116.312 1399.0845 3499.4026 6380881
-1088.2034 1389.6686 3475.8516 6380881
-1074.2325 1398.2921 3497.4209 6315088
-1053.0497 1397.6826 3495.8962 6446417
-1041.0608 1409.4963 3525.4451 6512467
-1006.8135 1391.0411 3479.2847 6446674
-975.53027 1375.995 3441.6511 6249038
-958.83191 1381.318 3454.9648 6183502
-940.12738 1383.9198 3461.4727 6380882
-917.13458 1380.1844 3452.1296 6315088
-893.83032 1375.7992 3441.1614 6249294
-862.07697 1357.9006 3396.3933 6380881
-848.65387 1368.7094 3423.4282 6249296
-835.0415 1379.735 3451.0054 6315088
-813.97058 1378.6807 3448.3687 6249294
-792.43256 1376.7609 3443.5667 6183502
-765.62756 1365.3469 3415.0181 6183502
-739.40814 1354.3857 3387.6018 6183501
-725.98889 1366.9135 3418.9363 5986123
-706.85754 1369.0968 3424.3972 5920330
-682.40344 1360.7949 3403.6326 5920330
-661.38812 1359.0536 3399.2769 5854537
-635.80737 1347.5269 3370.4463 5788744
-621.93512 1360.8723 3403.8262 5788744
-594.25372 1343.8833 3361.333 5657158
-572.44531 1339.4583 3350.2649 5722951
-548.75354 1330.15 3326.9834 5920330
-528.85675 1329.6897 3325.832 6051916
-509.69467 1331.1124 3329.3904 6315088
-487.10602 1323.3408 3309.9519 5986123
-464.70218 1315.4399 3290.1904 5986123
-440.24976 1300.7946 3253.5591 5920330
-425.88116 1315.9666 3291.5076 5657158
-405.10275 1311.8381 3281.1814 5591108
-385.03323 1309.7047 3275.845 5986123
-368.01559 1318.2769 3297.2859 5328192
-346.99551 1312.6693 3283.2603 5393986
-326.85376 1309.9155 3276.3726 5591622
-306.10193 1304.2147 3262.1135 5722951
-284.94662 1295.9104 3241.3428 5722951
-265.75345 1295.974 3241.502 6051916
-245.90675 1292.6125 3233.0942 5788744
-228.76971 1304.1298 3261.9011 5788743
-211.0049 1313.8638 3286.2478 5722951
-191.45705 1313.3457 3284.9521 5920330
-171.53009 1309.8156 3276.1226 5854537
-152.12393 1309.8689 3276.2559 5854537
-132.52257 1308.011 3271.6089 5920329
-114.07146 1318.8148 3298.6316 5986122
-92.977158 1297.2091 3244.5911 6183502
-74.447571 1309.4496 3275.207 6051915
-55.802597 1327.5765 3320.5466 6051916
-37.494724 1377.8362 3446.2563 6051916
-16.168003 1304.7034 3263.3357 5986123
3.1574087 1300.1069 3251.8394 5986123
22.437283 1300.769 3253.4954 5986123
41.757931 1302.0906 3256.8008 5986123
60.69762 1294.4523 3237.6958 5920330
79.790512 1292.9656 3233.9771 5854536
99.157623 1295.6376 3240.6604 5920330
118.79702 1300.4232 3252.6304 6051915
137.90366 1298.855 3248.7078 6051916
163.25679 1349.2975 3374.875 6117709
176.81285 1301.8694 3256.2473 5986122
195.36478 1296.9393 3243.9163 5986123
214.25726 1294.9507 3238.9424 5986123
233.23929 1293.7858 3236.0286 5854537
250.2709 1282.8008 3208.5527 5788744
268.58212 1279.4626 3200.2034 5986122
288.25333 1282.6161 3208.0908 5854537
307.36374 1283.0385 3209.1475 5788744
326.30902 1282.7625 3208.457 5722950
344.58044 1280.0137 3201.5818 5722951
369.06781 1299.4373 3250.1641 5722951
388.86713 1301.2468 3254.6902 5657158
407.02667 1297.6577 3245.7131 5788744
423.97879 1290.7166 3228.3518 5788744
441.33072 1285.5394 3215.4026 5722694
460.26352 1285.2051 3214.5664 5854023
470.1633 1260.6764 3153.2151 5590851
501.08826 1292.244 3232.1726 5722437
521.19519 1294.6162 3238.106 5854023
539.92053 1293.5101 3235.3394 6051401
557.57434 1290.0006 3226.5613 6182988
576.72778 1290.0785 3226.7559 6117195
599.08276 1297.083 3244.2756 6051402
620.46527 1301.6118 3255.6033 6117195
637.65973 1297.3468 3244.9355 6051402
652.42419 1288.5323 3222.8887 5985609
668.01917 1281.8126 3206.0813 6117195
691.04065 1289.3208 3224.8608 6051402
717.80432 1303.2191 3259.6233 6182988
731.2077 1292.7682 3233.4834 6117195
750.36487 1292.7638 3233.4724 6182988
768.76239 1291.4836 3230.2703 6380367
785.36975 1287.3312 3219.8843 6446160
802.35962 1283.9878 3211.5217 6314317
815.97327 1275.5216 3190.3462 6314574
835.56494 1276.5723 3192.9739 6380365
855.52515 1278.1267 3196.8621 6380365
870.586 1272.4531 3182.6711 6446157
889.60913 1272.6884 3183.2598 6380365
897.03027 1256.6605 3143.1707 6248779
920.3606 1263.1189 3159.3242 6051400
934.87781 1257.4656 3145.1843 6117193
947.42487 1249.4349 3125.0981 6380365
959.85718 1241.564 3105.4109 6380365
982.08051 1246.4153 3117.5452 6248779
1003.8716 1250.5492 3127.8848 6511951
1015.4203 1242.0051 3106.5144 6380365
1034.3909 1242.6818 3108.2068 6446157
1052.5488 1242.3755 3107.4409 6446158
1071.2965 1242.764 3108.4126 6445901
1091.9697 1245.3352 3114.8438 6643537
1104.4858 1238.673 3098.1799 6380364
1127.1567 1243.4308 3110.0803 6182986
1138.9751 1236.2561 3092.135 6182985
1149.3206 1227.7352 3070.8225 6577744
1163.3781 1223.3835 3059.9377 6511438
1181.4504 1223.3224 3059.7849 6511438
1206.176 1230.048 3076.6072 6445645
1216.8961 1222.5033 3057.7363 6511438
1235.3302 1222.8159 3058.5183 6314315
1249.0219 1218.4929 3047.7056 6511950
1266.3323 1217.7732 3045.9053 6511951
1271.6642 1205.7163 3015.7485 6577744
1300.2821 1215.7661 3040.8853 6577744
1313.9288 1211.7345 3030.801 6643280
1331.9865 1211.8243 3031.0259 6446158
1351.5898 1213.2996 3034.7158 6248779
1363.1862 1207.6426 3020.5664 6248779
1384.1016 1210.281 3027.1658 6709330
1400.911 1209.3075 3024.731 6972502
1420.3547 1210.6039 3027.9734 6972502
1436.3896 1208.9988 3023.9585 6840916
1458.5931 1212.5612 3032.8691 6972502
1477.3038 1213.1687 3034.3884 6906709
1485.3068 1205.074 3014.1418 6906709
1499.4845 1202.1219 3006.7583 6775123
1525.6696 1208.7524 3023.3423 6511951
1559.2189 1220.9956 3053.9653 6446160
1560.8711 1208.2667 3022.1277 6445903
1576.4657 1206.4967 3017.7004 6182988
1583.8527 1198.5553 2997.8374 6182987
1610.5963 1205.2759 3014.6467 6248781
1649.2972 1220.6986 3053.2222 6248781
