# .PCD v0.7 - Point Cloud Data file format
VERSION 0.7
FIELDS x y z rgb
SIZE 4 4 4 4
TYPE F F F U
COUNT 1 1 1 1
WIDTH 1295
HEIGHT 1
VIEWPOINT 0 0 0 1 0 0 0
POINTS 1295
DATA ascii
-2588.4363 806.88379 3364.5278 197377
-2571.877 807.94452 3368.9509 328963
-2544.4238 805.57306 3359.0623 263170
-2521.2131 804.51776 3354.6621 197377
-2492.7378 801.7525 3343.1313 197377
-2464.1487 798.90594 3331.262 197377
-2451.5874 801.25195 3341.0442 132097
-2537.3953 836.04767 3486.135 132098
-2499.6201 830.36108 3462.4229 197634
-2474.2974 828.75122 3455.71 132097
-2429.5698 820.56061 3421.5571 263683
-2402.5449 818.26147 3411.9702 132097
-2192.5461 753.0769 3140.165 197890
-2737.4604 948.2868 3954.1475 197890
-2704.6711 945.01666 3940.5115 197890
-2474.1819 872.01123 3636.0952 328706
-2646.8342 941.05634 3923.998 328963
-2473.6111 887.26276 3699.6907 328963
-2454.2095 888.17499 3703.4944 328963
-2419.4644 883.50079 3684.0039 263170
-2455.5549 904.84357 3772.9983 262914
-2562.6479 952.98254 3973.7273 197889
-2496.9075 937.14587 3907.6919 263682
-2499.1274 946.75873 3947.7756 263681
-1964.2416 751.15582 3132.1543 263681
-2575.9531 994.47998 4146.7627 197890
-2550.3828 994.09058 4145.1387 197890
-2514.1489 989.4967 4125.9834 197890
-2335.8643 928.35645 3871.042 329476
-2293.8848 920.71344 3839.1724 263683
-2244.3889 909.87024 3793.9585 394756
-2133.989 873.86737 3643.8347 328963
-2116.9109 875.73438 3651.6194 328963
-2148.9106 898.15234 3745.0977 394756
-2053.6887 867.31012 3616.4924 394500
-2041.7592 871.36426 3633.3972 131840
-2054.1069 885.97614 3694.3254 256
-2037.8717 888.44159 3704.6057 256
-1990.0391 877.03528 3657.0442 256
-2079.7996 926.68457 3864.0706 256
-1972.748 888.77051 3705.9773 256
-1950.041 888.42987 3704.5571 256
-1771.2316 816.15234 3403.1755 197888
-1983.8126 924.63263 3855.5146 263682
-1844.829 869.87134 3627.1721 329474
-1847.1338 881.22443 3674.512 263681
-1825.0422 881.07062 3673.8708 263681
-1789.4059 874.29523 3645.6187 263681
-1755.411 868.16602 3620.0613 329217
-1834.3126 918.41058 3829.5701 329217
-1693.8357 858.69885 3580.585 329217
-1681.8831 863.45459 3600.4158 329217
-1648.6041 857.24347 3574.5166 263424
-1638.6233 863.14288 3599.1157 197889
-1613.2415 860.97833 3590.0903 197889
-1595.3708 862.81836 3597.7627 197889
-1594.7754 874.17755 3645.1279 329474
-1556.1725 864.72876 3605.7288 197888
-1560.3483 879.1189 3665.7324 197889
-1526.7263 872.31921 3637.3789 197888
-1517.7684 879.61853 3667.8159 197888
-1509.2994 887.4176 3700.3359 197889
-1478.9561 882.39545 3679.3948 197888
-1471.2089 890.90637 3714.8835 263681
-1466.2804 901.40875 3758.676 263681
-1452.6876 906.82654 3781.2668 395010
-1443.6307 915.28973 3816.5566 395010
-1435.4927 924.61432 3855.438 395010
-1428.0846 934.7182 3897.5691 256
-1445.5713 961.71619 4010.145 0
-1421.4763 961.49084 4009.2053 0
-1416.1387 974.16095 4062.0369 65792
-1380.4484 966.02856 4028.1267 394756
-1370.3752 975.85217 4069.0886 394756
-1397.6157 1013.0748 4224.2988 329474
-1365.4857 1007.8349 4202.4497 329474
-1347.5562 1013.0761 4224.3042 329474
-1344.2062 1029.6838 4293.5552 329474
-1324.9442 1034.5085 4313.6729 329474
-1324.7214 1054.681 4397.7876 395267
-1307.3394 1061.7274 4427.1699 395267
-1294.3373 1072.6925 4472.8916 395268
-1285.5962 1087.7211 4535.5576 395267
-1276.3793 1102.9802 4599.1851 395267
-1268.6538 1120.2222 4671.0801 461059
-1252.4136 1130.547 4714.1323 395267
-1252.3558 1156.2841 4821.4502 263169
-1247.0468 1178.2611 4913.0894 1052940
-1221.9922 1182.1864 4929.457 3421486
-1193.2665 1182.6654 4931.4541 3684659
-1175.7357 1194.5425 4980.979 3750452
-1139.77 1187.819 4952.9438 3816245
-1118.1572 1196.0936 4987.4473 4013624
-1081.6243 1188.4241 4955.4668 3947831
-1053.6915 1190.0394 4962.2026 4211003
-1031.4198 1198.3248 4996.751 4408382
-1006.8138 1204.3079 5021.6987 4276796
-983.41541 1212.1434 5054.3716 4342589
-955.21826 1214.3708 5063.6592 4342589
-928.37018 1218.5134 5080.9326 4408382
-897.07971 1216.9073 5074.2358 4473918
-860.36908 1207.5824 5035.353 4474175
-838.94019 1219.807 5086.3271 4539969
-806.35791 1216.1215 5070.959 4605761
-779.36804 1220.9113 5090.9316 4737347
-755.00543 1230.3683 5130.3652 4868934
-724.97723 1230.9987 5132.9937 4868934
-696.32892 1234.13 5146.0503 5000520
-670.07373 1241.9838 5178.7988 5066313
-638.90479 1241.0465 5174.8906 4868934
-610.97437 1246.6226 5198.1416 4342334
-579.84241 1245.9116 5195.1772 1579028
-561.60553 1274.3821 5313.8931 394757
-496.69901 1194.043 4978.8965 526342
-494.04822 1262.6681 5265.0479 724234
-453.31207 1236.6464 5156.5435 658441
-420.3371 1229.5665 5127.0215 658441
-388.47049 1224.8779 5107.4712 724234
-359.26453 1228.4951 5122.5547 724234
-329.57504 1230.9742 5132.8916 790027
-296.57129 1220.3198 5088.4648 790027
-266.62665 1221.2659 5092.4102 921100
-234.56859 1211.5378 5051.8462 986893
-204.52197 1210.8724 5049.0713 1052686
-175.51057 1217.1581 5075.2812 986893
-145.58057 1218.3555 5080.2739 1052686
-115.96856 1223.532 5101.8594 1118479
-86.125595 1229.0634 5124.9238 1184272
-54.565659 1202.7729 5015.2983 1184272
-24.819221 1201.3799 5009.4897 986893
4.8619399 1200.8665 5007.3491 1052686
34.820408 1210.8787 5049.0977 1118479
65.023514 1216.2125 5071.3389 1118479
94.376686 1207.3022 5034.1846 1052686
124.59938 1211.1235 5050.1182 1250064
153.41499 1202.4364 5013.895 1447444
184.90059 1214.0996 5062.5283 1315858
213.98837 1208.96 5041.0972 1250065
244.53488 1212.3113 5055.0713 1184272
266.14667 1175.4698 4901.4507 1184272
301.7413 1201.5587 5010.2354 1250065
330.81647 1199.3381 5000.9761 1184272
361.42209 1202.5752 5014.4736 1184272
394.71271 1213.5754 5060.3428 1184272
413.36786 1181.2017 4925.3511 1184272
450.92764 1203.5553 5018.5605 1250065
482.24973 1207.5243 5035.1108 1184272
511.45401 1206.0367 5028.9082 1118479
543.81268 1211.7419 5052.6973 1315858
576.90082 1218.3923 5080.4277 1381651
605.48413 1215.3408 5067.7036 1513237
636.2782 1216.8054 5073.811 1513237
667.75958 1219.3931 5084.6011 1381651
706.0874 1233.7197 5144.3398 1381651
737.23895 1234.8407 5149.0142 1381651
775.31934 1247.017 5199.7861 1381651
791.6864 1224.6737 5106.6196 1513237
842.37128 1255.1079 5233.5239 1579030
868.66351 1248.3271 5205.2495 1579030
881.97382 1223.9952 5103.7905 1644823
913.34094 1225.5048 5110.0854 1842202
931.41278 1209.6506 5043.9771 1710616
981.08374 1234.5452 5147.7812 1579030
1013.1449 1236.447 5155.7119 2039581
1042.7224 1235.2952 5150.9092 2170910
1079.2482 1242.2065 5179.728 1644823
1151.5104 1288.7303 5373.7222 1579030
1173.0674 1277.5303 5327.02 1513237
1216.8662 1290.5046 5381.1201 1381651
1249.3636 1291.1373 5383.7583 1513237
1262.285 1272.0115 5304.0078 1579030
1301.4641 1279.6321 5335.7842 1513237
1320.6761 1267.7247 5286.1333 1579030
1385.6814 1299.3082 5417.8291 1513237
1373.3048 1258.5457 5247.8584 1513237
1408.5471 1262.2616 5263.353 1579030
1447.7958 1269.3291 5292.8228 1447188
1486.7747 1275.8654 5320.0776 1513750
1639.1777 1377.4435 5743.6362 1382164
1721.4121 1417.1243 5909.0962 1316885
1605.2159 1295.1245 5400.3843 1513496
1677.4415 1326.9457 5533.0713 1447957
1679.3101 1302.9575 5433.0459 1316371
1700.4518 1294.5441 5397.9639 1447701
1749.9053 1307.5972 5452.3926 1579030
1788.1512 1311.954 5470.5596 1579030
1832.3534 1320.4481 5505.978 1710616
1816.3656 1286.0291 5362.458 1776409
1895.1495 1318.7404 5498.8569 1841945
1895.2388 1296.5118 5406.1689 1841945
1907.9271 1283.4978 5351.9033 1841945
1969.6824 1303.3778 5434.7988 1710359
2005.1348 1305.4933 5443.6196 1710359
2025.8711 1298.1121 5412.8418 1710359
2082.7271 1313.7445 5478.0254 1776152
2108.7109 1309.7225 5461.2549 1841945
2268.6887 1387.7881 5786.7705 1776152
2169.0879 1307.1052 5450.3413 1710359
2161.0391 1283.1501 5350.4536 1710359
2203.0825 1289.2009 5375.6841 1710359
2291.3728 1321.7561 5511.4321 1907738
2317.377 1317.9722 5495.6538 1776152
2369.1223 1328.73 5540.5117 1710359
2444.646 1352.3478 5638.9927 1578773
2349.585 1282.2358 5346.6411 1578773
2450.571 1319.5544 5502.2515 1512980
2409.0771 1280.1794 5338.0664 1381394
2465.9971 1293.4441 5393.377 1512980
2596.6926 1344.5706 5606.5635 1578773
2611.51 1335.1615 5567.3296 1710359
2931.3613 1479.9935 6171.2471 1512980
2952.3135 1472.2068 6138.7783 1578773
2770.491 1364.7244 5690.6006 1512980
2772.6538 1349.3669 5626.563 1512980
2835.1165 1363.3718 5684.9604 1512980
2860.238 1359.3018 5667.9893 1578773
2912.3679 1368.0127 5704.312 1447187
2961.1223 1374.9564 5733.2656 1447187
3020.907 1386.8064 5782.6772 1447187
3051.8547 1385.3007 5776.3989 1447187
3060.0371 1373.6094 5727.6489 1644566
3218.2168 1428.7677 5957.647 1644566
3545.8511 1557.1444 6492.9497 1578773
3774.0212 1639.5547 6836.5825 1578773
3708.2449 1593.8712 6646.0918 1644566
3522.5642 1498.1521 6246.9648 1644566
3554.9102 1496.1868 6238.7695 1710359
3528.5166 1469.7939 6128.7173 1776152
3806.8872 1569.5945 6544.8633 1841945
3648.6108 1489.1663 6209.4956 1973531
3540.6804 1430.6874 5965.6514 2170910
3449.3152 1379.9919 5754.2627 2039324
3575.8472 1416.6115 5906.958 2105115
3609.3862 1416.0376 5904.5654 2170908
3619.3867 1406.3292 5864.083 2105115
3584.6216 1379.5767 5752.5312 2170908
3565.4453 1359.2712 5667.8618 2105116
3729.3401 1408.4865 5873.0786 1907738
3647.0369 1364.6681 5690.3657 1973530
3729.9299 1382.9003 5766.3896 1973530
3782.9331 1389.8201 5795.2437 2039324
3949.5183 1437.969 5996.0146 1973531
4374.2627 1578.4142 6581.6396 1907738
4532.2354 1620.9655 6759.0693 1973531
4661.8833 1652.7296 6891.519 1907738
4142.7915 1455.9482 6070.9834 1907738
4093.6985 1426.3098 5947.3979 1907738
4208.8193 1453.9038 6062.459 1973531
4188.3325 1434.5826 5981.8936 1973531
4993.207 1695.9149 7071.5923 2039324
4183.0645 1408.931 5874.9321 1973531
4360.8105 1456.6766 6074.021 1973531
4188.0537 1387.5178 5785.644 1973531
4217.2788 1385.856 5778.7144 1907738
4330.0825 1411.4646 5885.4971 1841945
4430.9482 1432.8041 5974.4775 1710359
4296.0186 1378.162 5746.6318 1776152
4157.8345 1323.3435 5518.0508 1841945
4271.04 1348.7677 5624.0645 1973531
4236.166 1327.3976 5534.9561 2105117
4286.7671 1332.9336 5558.04 1973531
4403.5063 1358.7936 5665.8701 2039324
4475.2275 1370.4761 5714.584 2039324
4539.6846 1379.7753 5753.3594 1841944
4531.7788 1367.1062 5700.5317 1710357
4540.981 1359.7471 5669.8462 1776150
4576.373 1360.2809 5672.0723 1710358
4582.8301 1352.2692 5638.6646 1710358
4633.9731 1357.4634 5660.3237 1710359
4926.0952 1432.6675 5973.9082 1710359
4756.7788 1373.5548 5727.4209 1841944
4823.4248 1382.9329 5766.5254 1776151
4880.1465 1389.3533 5793.2974 1776151
4904.959 1386.6635 5782.0811 1841687
4811.7681 1350.8818 5632.8799 1973015
4912.9619 1369.7898 5711.7222 2038808
4988.228 1381.2596 5759.5488 1907223
4919.8843 1353.0778 5642.0366 1841429
5000.8369 1366.0591 5696.166 1776407
5000.8027 1356.8916 5657.9395 1710359
5110.9194 1377.5352 5744.0186 1710359
5174.4185 1385.4237 5776.9121 1644566
5221.8057 1388.9233 5791.5044 1644566
5228.082 1381.5137 5760.6079 1644566
5309.6816 1393.975 5812.5688 1710102
5395.8564 1407.4691 5868.8364 1906968
5455.2104 1413.8392 5895.3984 1906968
5404.3979 1391.7579 5803.3242 1907225
5299.1807 1356.0339 5654.3628 1907224
5467.3628 1390.2806 5797.1646 1972505
5512.2979 1392.9553 5808.3174 1972761
5511.7856 1384.1836 5771.7412 1841175
0 0 0 0
0 0 0 0
0 0 0 0
0 0 0 0
0 0 0 0
0 0 0 0
0 0 0 0
-2795.0623 768.5199 3127.291 132097
-2773.0256 767.54938 3123.3418 132097
-2753.7439 767.33362 3122.4636 132097
-2730.8423 766.0993 3117.4409 132097
-2714.3823 766.66766 3119.7537 132097
-2700.1753 767.88446 3124.7051 132097
-2677.1851 766.60303 3119.4907 197890
-2633.5686 759.35645 3090.0027 197890
-2620.1929 760.789 3095.832 197890
-2596.4553 759.21191 3089.4146 197890
-2583.0339 760.65033 3095.2678 66304
-2570.6699 762.42297 3102.481 66305
-2544.2866 760.0332 3092.7566 132097
-2534.9524 762.73865 3103.7656 512
-2512.5652 761.52747 3098.8372 197634
-3076.3943 939.28143 3822.1602 132097
-3018.2026 928.34875 3777.6726 131584
-2972.1753 921.02222 3747.8591 197377
-2667.9568 832.97424 3389.571 263170
-2629.439 827.17548 3365.9746 197377
-2599.0388 823.86127 3352.4883 263170
-2791.7581 891.76666 3628.8115 263170
-2760.084 888.49219 3615.4871 263170
-2721.0154 882.76764 3592.1921 263170
-2509.3867 820.52838 3338.926 197377
-2486.4634 819.4939 3334.7163 263170
-2456.3406 816.05103 3320.7063 65792
-2443.3301 818.28345 3329.7908 512
-2518.3079 850.25995 3459.9106 256
-2482.0049 844.88104 3438.0227 512
-2253.8447 773.56396 3147.8164 66304
-2240.4082 775.36896 3155.1614 132097
-2222.2183 775.54541 3155.8794 132097
-2200.7839 774.58301 3151.9631 256
-2189.3035 777.13745 3162.3577 132097
-2610.8628 934.77911 3803.8396 197890
-2576.385 930.46747 3786.2944 263170
-2605.2246 949.14832 3862.311 263170
-2453.0898 901.64233 3668.998 263170
-2412.8618 894.78625 3641.0991 263170
-2404.4385 899.70752 3661.1245 197377
-2247.5273 848.65027 3453.3606 263426
-2309.248 879.96722 3580.7969 263683
-2274.6426 874.8183 3559.8447 197890
-2471.8364 959.55664 3904.665 263426
-1953.1472 765.36749 3114.4631 132098
-2270.4736 898.203 3655.0027 263683
-2325.4863 928.82593 3779.6145 263683
-2342.6748 944.78998 3844.5762 263683
-2167.9368 882.90454 3592.7493 263683
-2186.3218 899.22198 3659.1489 329475
-2232.1602 927.27094 3773.2869 328963
-2062.4077 865.42175 3521.6077 328963
-2081.3833 882.31134 3590.3354 328963
-2075.2222 888.78387 3616.6738 328963
-2068.8394 895.29578 3643.1721 328963
-2141.6667 936.58478 3811.187 131840
-1964.0049 868.04358 3532.2764 0
-1970.2802 880.19708 3581.7322 256
-1959.7473 885.02502 3601.3779 256
-1905.618 870.05414 3540.4578 256
-2000.1664 923.38776 3757.4851 256
-1899.1603 886.62708 3607.8975 0
-1826.2628 862.30145 3508.9104 197888
-1870.759 893.48328 3635.7966 197888
-1818.4834 878.6344 3575.373 263681
-1605.8285 785.03192 3194.4824 329474
-1753.1765 867.28827 3529.2029 263682
-1676.8981 839.56799 3416.4026 197889
-1826.7545 925.77216 3767.1877 329217
-1748.8165 897.23822 3651.0764 329217
-1657.3319 860.95215 3503.4197 263425
-1662.6301 874.66022 3559.2012 329217
-1609.4012 857.53552 3489.5168 263425
-1664.1383 898.24109 3655.1575 263681
-1595.7306 872.6748 3551.1221 197888
-1608.3401 891.32391 3627.0098 132096
-1574.6431 884.4682 3599.1123 132096
-1545.7426 880.15527 3581.562 263681
-1575.171 909.39758 3700.5559 263681
-1464.0432 857.17218 3488.0383 197888
-1649.7748 979.74597 3986.8203 197888
-1594.1442 960.46198 3908.3489 197888
-1496.322 914.81439 3722.5984 197889
-1479.7231 918.2019 3736.3826 132096
-1467.0518 924.16626 3760.6533 263681
-1459.5596 933.62775 3799.1541 329217
-1451.6178 943.09351 3837.6726 329217
-1444.5742 953.45331 3879.8291 395010
-1448.2689 971.35034 3952.6565 256
-1442.7703 983.56854 4002.375 0
-1401.5848 971.45996 3953.1025 0
-1410.0592 993.94482 4044.5986 65792
-1405.913 1008.157 4102.4316 394756
-1374.4688 1002.9503 4081.2439 394756
-1367.1792 1015.4981 4132.3042 329474
-1369.4984 1035.771 4214.7993 263681
-1353.623 1042.7805 4243.3228 263681
-1346.1118 1056.6207 4299.6421 329474
-1332.9393 1066.4655 4339.7026 329474
-1328.0358 1083.4436 4408.7905 263681
-1315.5266 1094.7736 4454.895 329474
-1307.7078 1110.5508 4519.0962 329476
-1292.7869 1120.8303 4560.9263 460802
-1286.944 1139.5873 4637.2529 197633
-1277.7316 1156.114 4704.5039 0
-1274.7783 1179.1676 4798.3145 131585
-1271.0471 1202.537 4893.4102 1579285
-1243.9327 1204.3582 4900.8208 3289901
-1208.6294 1198.1486 4875.5522 3421487
-1176.3142 1194.6694 4861.395 3487280
-1136.8391 1183.5615 4816.1943 3421487
-1108.1293 1183.3779 4815.4473 3487280
-1084.3846 1188.6271 4836.8071 3553072
-1055.5477 1188.428 4835.9971 3553073
-1016.0591 1175.8905 4784.979 3684659
-996.80316 1186.7206 4829.0493 3816245
-977.07263 1197.6093 4873.3579 3882038
-945.97046 1194.7982 4861.9194 4013624
-924.5354 1204.4041 4901.0078 4013624
-892.5141 1200.395 4884.6938 4145210
-870.63251 1210.2117 4924.6401 4211003
-836.54199 1203.1498 4895.9038 4408382
-816.36908 1216.3165 4949.4824 4474176
-788.50873 1218.5844 4958.7104 4539969
-761.32782 1222.1182 4973.0903 4737348
-734.96265 1227.2987 4994.1714 4737347
-719.05829 1251.1152 5091.0864 4737348
-679.28741 1233.6729 5020.1094 4079418
-659.94403 1253.4308 5100.5093 1447954
-613.31158 1220.7677 4967.5952 394500
-562.57947 1176.2397 4786.4004 526342
-542.83099 1195.2035 4863.5684 592135
-517.92645 1204.3047 4900.603 657928
-494.81677 1218.9082 4960.0288 723465
-464.41913 1216.2698 4949.292 724234
-435.45679 1217.288 4953.4351 724234
-404.6647 1212.9685 4935.8584 790027
-374.24051 1209.1648 4920.3804 921613
-345.43976 1210.407 4925.4351 921613
-310.49036 1188.3453 4835.6611 855820
-287.30121 1211.3845 4929.4126 855820
-258.74622 1214.4529 4941.8989 855307
-229.84735 1216.4846 4950.166 921100
-200.25443 1214.8999 4943.7178 986893
-171.60367 1219.4674 4962.3042 855307
-142.60835 1222.9692 4976.5537 1184271
-113.54767 1227.5898 4995.3564 1118479
-84.007675 1228.46 4998.8965 1118479
-55.138657 1245.4331 5067.9648 1118479
-23.988737 1189.8701 4841.8657 1118479
4.6874228 1186.3676 4827.6128 1118479
35.323143 1258.7111 5121.9961 1315858
64.250542 1231.4473 5011.0532 1381651
91.601883 1200.7584 4886.1724 1579030
122.51112 1220.2478 4965.4795 1644823
149.49347 1200.6501 4885.7319 1907995
178.24919 1199.3434 4880.4146 1907995
208.0173 1204.2625 4900.4316 1776409
237.30659 1205.5441 4905.6465 1579030
265.71204 1202.5459 4893.4463 1447444
294.12128 1200.153 4883.709 1447444
324.20755 1204.4191 4901.0688 1315858
352.92877 1203.3295 4896.6348 1315858
382.66687 1205.609 4905.9111 1447444
407.50717 1193.2255 4855.5195 1315858
439.81525 1202.8998 4894.8862 1315858
468.62262 1202.3948 4892.8315 1381651
497.03198 1200.9871 4887.103 1315858
525.27136 1199.3462 4880.4258 1381651
553.74799 1198.3898 4876.5342 1447444
587.04034 1207.4335 4913.335 1513237
619.27899 1213.5577 4938.2559 1513237
644.97864 1206.8934 4911.1372 1644566
665.2254 1191.0415 4846.6318 1447444
705.42731 1210.7513 4926.8359 1381651
725.62842 1195.9307 4866.5273 1381651
750.46234 1189.5865 4840.7119 1513237
808.12701 1233.8351 5020.7695 1644823
826.66016 1217.3175 4953.5552 1710616
866.28076 1231.9203 5012.978 1644823
898.72046 1235.682 5028.2847 1973788
919.87592 1224.1849 4981.5005 1842202
949.27222 1224.0287 4980.8647 1907995
994.16876 1243.266 5059.146 1644823
1029.4354 1249.6868 5085.2739 1644823
1063.0184 1253.7566 5101.835 1513237
1089.9296 1249.9501 5086.3452 1513237
1138.7111 1270.7548 5171.0044 1513237
1122.3779 1219.7078 4963.2822 1644823
1178.7233 1248.2322 5079.3545 1579030
1242.0837 1282.5798 5219.1235 1579030
1208.8624 1217.951 4956.1333 1513237
1238.2296 1217.951 4956.1333 1579030
1297.2356 1246.4292 5072.0176 1447444
1316.4083 1236.2109 5030.4375 1381651
1396.3186 1282.2197 5217.6582 1381651
1394.9225 1253.1901 5099.5298 1447444
1545.5247 1359.0505 5530.3013 1447701
1539.1049 1325.3052 5392.9834 1579030
1546.1353 1304.2791 5307.4229 1447701
1580.244 1306.4783 5316.3721 1513240
1594.452 1292.4602 5259.3291 1644823
1603.7036 1275.0387 5188.437 1644823
1636.6272 1276.7394 5195.3574 1644823
1637.4553 1253.8018 5102.0186 1644823
1685.309 1267.0504 5155.9307 1710616
1722.7799 1272.1603 5176.7241 1776409
1742.8176 1264.4435 5145.3223 1842202
1784.1797 1272.197 5176.8735 1841945
1951.6321 1368.0767 5567.0308 1841945
1865.5427 1285.9927 5233.0112 1841945
1908.7992 1294.2982 5266.8086 1973531
1955.6925 1304.7628 5309.3916 1907738
1969.8196 1293.3821 5263.0801 1907738
2012.371 1300.7283 5292.9736 2039324
2042.048 1299.6553 5288.6074 2039324
2051.7917 1286.1199 5233.5288 1841945
2071.5889 1279.1956 5205.3521 1776152
2117.9956 1288.6646 5243.8838 1907738
2131.2021 1277.9518 5200.2905 1841945
2199.991 1300.3984 5291.6318 1710359
2275.2664 1325.9948 5395.7891 1578773
2345.8286 1348.1729 5486.0371 1578773
2295.8206 1301.3987 5295.7017 1578773
2187.6572 1223.3647 4978.1631 1578773
2380.5737 1313.5349 5345.0869 1512980
2234.6794 1216.8451 4951.6333 1512980
2264.0198 1216.8451 4951.6333 1578773
2500.4497 1326.7257 5398.7637 1710359
2612.0637 1368.4402 5568.5098 1644566
2553.9834 1321.3215 5376.7725 1512980
2597.4197 1327.2369 5400.8438 1578773
2625.9727 1325.496 5393.7593 1644566
2675.9062 1334.459 5430.2324 1710359
2650.4026 1306.0363 5314.5732 1644566
2744.8638 1336.7017 5439.3579 1512980
2764.9043 1330.8342 5415.4824 1447187
2807.0591 1335.6237 5434.9717 1381394
2612.9248 1229.1512 5001.71 1447187
2648.4551 1231.8923 5012.8643 1447187
2965.689 1364.15 5551.0522 1578773
3037.3206 1381.7738 5622.7676 1644566
3569.9175 1606.4475 6537.0181 1644566
3682.7896 1639.451 6671.3179 1644566
3734.4214 1644.7811 6693.0068 1710359
3363.3867 1465.7969 5964.6772 1776152
3232.5691 1394.1354 5673.0698 1841945
3739.2546 1596.0603 6494.7505 1907738
3427.2122 1447.9662 5892.1201 1907738
3412.845 1427.3556 5808.2505 1907738
3312.7883 1371.6764 5581.6787 1973531
3475.8313 1424.9589 5798.498 1973531
3426.5256 1390.9955 5660.2925 1973531
3404.4795 1368.6492 5569.3604 2039323
3434.8765 1367.6125 5565.1421 2105115
3506.0605 1382.6807 5626.458 2039322
3409.085 1331.7729 5419.3018 1973530
3446.7332 1333.9155 5428.021 1907738
3675.4695 1409.2878 5734.7285 1907738
3701.802 1406.3821 5722.9043 1973531
3779.9893 1423.0509 5790.7339 1973531
3948.1365 1472.9824 5993.917 1973531
3675.55 1359.0593 5530.3369 1973531
3517.7595 1289.2211 5246.1484 1973531
4119.8652 1496.6608 6090.27 1973531
3951.9314 1423.1879 5791.291 1973531
3909.186 1395.675 5679.335 1973531
3901.6899 1381.1095 5620.064 1973531
4161.042 1460.4492 5942.9165 1973531
3665.3523 1275.6754 5191.0278 1973531
3700.8628 1277.3154 5197.7012 1907738
3949.512 1351.8837 5501.1377 2039324
3946.2307 1339.7036 5451.5742 1973531
3797.1924 1278.6401 5203.0923 1841945
3968.5645 1325.584 5394.1177 1841945
4052.8801 1342.9315 5464.709 1841945
4317.728 1419.3495 5775.6719 1776152
3929.2986 1281.5052 5214.7505 1841945
3993.5601 1292.301 5258.6812 1907738
4032.5427 1294.8129 5268.9023 1907738
4071.6633 1297.33 5279.1455 1907738
4129.4771 1305.7196 5313.2847 1907738
4147.3047 1301.4343 5295.8472 1907738
4182.373 1302.583 5300.5215 2039324
4244.5635 1312.0988 5339.2432 1973532
4268.0122 1309.5862 5329.019 1973531
4403.7817 1341.3217 5458.1582 1973532
4456.5083 1347.4854 5483.2393 1907738
4489.061 1347.504 5483.3154 1776152
4497.9429 1340.468 5454.6846 1710359
4621.395 1367.4331 5564.4116 1776152
4667.4243 1371.2694 5580.0225 1776152
4707.4678 1373.3055 5588.3081 1776152
4786.6846 1386.6614 5642.6562 1841945
4767.6782 1371.5751 5581.2661 1907738
4862.2104 1389.1345 5652.7197 1973531
4841.3325 1373.7064 5589.9395 1907738
4810.3101 1355.6293 5516.3794 1907738
4862.5063 1361.0902 5538.6011 1907738
4904.9785 1363.7743 5549.5234 1841945
4947.8291 1366.5272 5560.7256 1907738
4980.8672 1366.5515 5560.8247 1841945
5019.3169 1368.0507 5566.9243 1710615
5047.8672 1366.8494 5562.0366 1710359
5090.353 1369.4127 5572.4673 1710359
5144.7842 1375.1359 5595.7559 1775895
5202.6177 1381.6895 5622.4238 1841175
5156.0317 1360.6045 5536.6245 1776152
5213.2466 1367.0049 5562.6689 1710359
5221.8501 1360.658 5536.8423 1776152
5299.46 1372.2592 5584.0498 1776152
5282.3628 1359.3447 5531.498 1776152
0 0 0 0
0 0 0 0
0 0 0 0
0 0 0 0
0 0 0 0
0 0 0 0
0 0 0 0
-2793.1741 786.51874 3125.1785 132097
-2769.0151 784.91962 3118.8247 132097
-2748.2456 784.26636 3116.229 132097
-2722.1375 782.07043 3107.5037 132097
-2714.3823 785.15338 3119.7537 132097
-2695.9951 785.18207 3119.8677 66304
-2672.6091 783.74536 3114.1587 66304
-2630.9812 776.90192 3086.9668 66304
-2608.0066 775.5094 3081.4336 66304
-2589.0269 775.29346 3080.5757 512
-2568.3311 774.55695 3077.6492 132097
-2561.7451 778.09558 3091.7097 66304
-2543.5845 778.14423 3091.9028 132097
-2525.5977 778.24707 3092.3118 132097
-2500.9131 776.27258 3084.4663 132097
-3055.9678 955.54218 3796.782 132097
-3007.8208 947.46265 3764.6782 197377
-2966.8215 941.53064 3741.1079 197377
-2902.21 927.95953 3687.1841 197377
-2612.8381 841.77209 3344.7239 197377
-2590.9829 841.11096 3342.0969 197377
-2571.1548 841.10278 3342.0647 263170
-2542.9446 838.33118 3331.052 263170
-2525.9746 839.25085 3334.7061 197377
-2508.1016 839.88251 3337.2161 263170
-2619.208 884.05859 3512.7466 131584
-2587.9358 880.50049 3498.6089 0
-2311.2593 792.71613 3149.8037 263683
-2502.9612 865.4549 3438.8259 512
-2474.2322 862.54309 3427.2561 256
-2436.9463 856.57532 3403.5437 256
-2403.6272 851.91394 3385.0222 256
-2219.9622 793.43896 3152.6755 66305
-2201.4851 793.51245 3152.9675 256
-2542.125 924.13666 3671.9939 512
-2536.1033 929.90662 3694.9204 256
-2521.6956 932.67542 3705.9221 65792
-2276.8787 849.52502 3375.5298 131585
-2262.4612 851.62695 3383.8816 131584
-2392.1042 908.47797 3609.7751 0
-2359.0217 903.99707 3591.9705 65792
-2331.1741 901.45886 3581.8853 131328
-2297.7417 896.69452 3562.9546 0
-2262.9131 891.29199 3541.488 512
-2280.2275 906.51801 3601.9875 0
-1955.8057 784.88885 3118.7024 197890
-2257.7715 914.71417 3634.5544 197890
-2227.1907 911.01459 3619.8542 263683
-2197.0032 907.40546 3605.5137 329476
-2150.1277 896.76526 3563.2356 263683
-2132.6624 898.302 3569.3416 329220
-2283.679 971.54688 3860.3752 328963
-2090.8579 898.51477 3570.1873 394756
-2050.6848 890.25836 3537.3809 328963
-2133.9761 935.98431 3719.0698 394756
-2004.2152 888.24243 3529.3708 328963
-2094.6653 938.11743 3727.5457 131584
-1968.0829 890.81952 3539.6106 0
-1947.5917 891.04022 3540.4875 0
-1923.5177 889.60876 3534.7998 0
-1876.1129 877.23663 3485.6399 256
-1992.0121 941.79712 3742.1665 256
-1657.5558 792.49207 3148.9133 0
-1812.5956 876.48431 3482.6506 197888
-1775.2358 868.30444 3450.1484 329474
-1721.0647 851.61536 3383.8357 132096
-1714.8423 858.53845 3411.344 263681
-1689.4242 855.90173 3400.8672 263681
-1691.1359 867.11182 3445.4097 263938
-1671.7393 867.64062 3447.5107 329217
-1649.7477 866.81903 3444.2463 329217
-1631.2667 867.84448 3448.321 263425
-1622.1691 873.95129 3472.5859 263425
-1591.4558 868.41992 3450.6072 197888
-1715.6453 948.37134 3768.2888 197888
-1579.0573 884.37842 3514.0173 197888
-1570.082 891.10199 3540.7332 197888
-1601.7488 921.3866 3661.0669 197889
-1530.2489 892.34259 3545.6626 197889
-1522.413 900.13147 3576.6111 197889
-1509.8367 905.29803 3597.1399 197888
-1505.9606 915.90375 3639.281 197889
-1491.3413 920.18896 3656.3079 197888
-1491.7346 934.00012 3711.1858 197888
-1481.3381 941.36774 3740.4604 263681
-1469.8645 948.26434 3767.8638 263938
-1461.9326 957.69379 3805.3311 329217
-1456.4462 969.04584 3850.4375 460803
-1414.7576 956.28864 3799.7478 460803
-1448.813 995.1452 3954.1414 256
-1442.3416 1006.9848 4001.1855 0
-1402.604 995.60706 3955.9771 0
-1392.2496 1005.0541 3993.5139 65793
-1385.1462 1017.2151 4041.835 328963
-1378.4985 1030.1447 4093.2097 328963
-1368.042 1040.64 4134.9121 263681
-1363.127 1055.8104 4195.1904 263681
-1350.4685 1065.4352 4233.4341 263681
-1342.2893 1079.025 4287.4326 263681
-1333.1605 1092.3612 4340.4229 329474
-1327.8312 1109.3965 4408.1113 263682
-1316.3369 1121.8613 4457.6392 197890
-1307.7078 1137.3282 4519.0962 256
-1280.9302 1137.3282 4519.0962 0
-1286.8265 1166.9585 4636.8301 592391
-1277.864 1184.1128 4704.9917 2171678
-1253.8601 1187.7836 4719.5771 3158316
-1217.5195 1179.6689 4687.334 3224108
-1164.9724 1155.1058 4589.7344 3289901
-1177.5441 1195.4792 4750.1553 3421487
-1136.3538 1181.9126 4696.249 3289901
-1104.3102 1177.4171 4678.3867 3158316
-1071.9214 1172.3125 4658.1035 3092523
-1046.5906 1174.8611 4668.2305 3224109
-1016.3812 1171.9227 4656.5552 3224109
-990.53992 1173.9977 4664.7998 3355695
-966.73926 1178.6798 4683.4038 3421488
-940.68304 1180.8071 4691.8569 3618867
-916.79034 1185.8628 4711.9448 3882038
-894.30743 1193.1167 4740.7681 4079417
-865.42566 1192.0275 4736.4399 4145210
-845.10223 1203.0485 4780.231 4211003
-815.66107 1201.4041 4773.6973 4342590
-796.30927 1215.0364 4827.8643 4474176
-781.45142 1236.797 4914.3286 4737348
-745.01685 1224.7712 4866.5449 3487281
-724.95526 1239.7771 4926.1699 1052430
-695.96783 1240.1373 4927.6011 263170
-659.2868 1226.2195 4872.2993 394756
-618.45563 1202.9546 4779.8579 526342
-589.987 1202.6569 4778.6748 592135
-561.21307 1201.6753 4774.7749 657928
-535.22888 1206.8802 4795.4565 723721
-507.85474 1209.3588 4805.3047 789514
-481.71222 1215.239 4828.6694 855307
-453.51926 1216.3623 4833.1328 855307
-425.44595 1217.9796 4839.5591 855820
-390.97147 1200.1809 4768.8369 855820
-366.31876 1212.108 4816.2285 790027
-334.53793 1200.4716 4769.9917 921613
-306.06235 1199.6427 4766.6987 1053199
-277.12164 1196.637 4754.7554 1053199
-252.39966 1213.2291 4820.6831 1118478
-225.43634 1221.9077 4855.167 1052686
-197.15938 1224.9636 4867.3096 1052686
-168.29596 1224.7987 4866.6543 1184272
-139.81142 1227.8931 4878.9497 1184272
-111.96672 1239.6852 4925.8047 1250065
-82.957504 1242.3533 4936.4058 1184272
-51.125546 1182.6318 4699.1069 1381651
-23.305435 1183.8503 4703.9487 1644823
4.554781 1180.5925 4691.0039 1579030
32.35239 1180.6482 4691.2251 1644823
62.66658 1230.0491 4887.5161 1579030
92.577499 1242.8082 4938.2134 1644823
121.36412 1237.9702 4918.9902 1842202
146.57953 1205.6324 4790.4985 2105374
173.96034 1198.7087 4762.9873 2171167
202.24498 1199.0764 4764.4482 2171167
231.53502 1204.5848 4786.3354 1776409
261.16708 1210.4762 4809.7446 1579030
289.62732 1210.3114 4809.0898 1579030
317.27313 1207.0776 4796.2407 1513237
346.06433 1208.3749 4801.3955 1513237
378.50729 1221.2577 4852.584 1579030
403.59836 1210.275 4808.9453 1579030
428.57306 1200.4149 4769.7671 1710616
461.88782 1213.6901 4822.5146 1644823
488.64917 1209.2012 4804.6782 1513237
514.64197 1203.4093 4781.665 1447444
536.09412 1188.1587 4721.0674 1381651
575.17737 1211.5588 4814.0464 1381651
605.65723 1215.4816 4829.6333 1513237
622.01288 1191.9836 4736.2661 1118479
660.85358 1211.7434 4814.7798 1513237
680.302 1195.7814 4751.356 1447444
705.06268 1190.0546 4728.6006 921100
740.42218 1201.9709 4775.9497 1710616
778.88922 1217.8691 4839.1196 1644823
794.34479 1197.9351 4759.9131 1710616
834.61926 1215.5135 4829.7603 1644823
872.77399 1228.9417 4883.1157 1644823
888.26703 1210.6223 4810.3252 1776409
936.2569 1236.3551 4912.5728 1776409
970.05774 1242.3641 4936.4492 1579030
1014.2178 1260.9001 5010.1006 1512980
1045.4353 1262.7489 5017.4468 1513237
1058.3115 1242.9542 4938.7939 1644823
1085.1432 1240.1741 4927.7471 1644823
1136.627 1264.9753 5026.293 1579030
1171.3905 1270.3771 5047.7563 1776409
1197.4468 1266.3018 5031.5635 1776409
1212.2867 1250.8512 4970.1724 1644823
1240.405 1249.5095 4964.8408 1579030
1290.829 1270.1786 5046.9683 1447444
1346.9208 1295.3628 5147.0356 1579030
1373.9738 1292.1229 5134.1621 1513237
1403.2168 1291.0382 5129.8521 1381651
1475.4053 1328.674 5279.395 1381908
1482.2607 1307.1328 5193.8032 1381908
1535.988 1326.9613 5272.5903 1381651
1575.1821 1333.6941 5299.3428 1447446
1548.1367 1285.1754 5106.5571 1513237
1554.3896 1265.6295 5028.8926 1513237
1587.2975 1268.1138 5038.7637 1644823
1613.3556 1265.135 5026.9277 1644823
1622.9365 1249.5779 4965.1123 1644823
1700.2644 1285.8074 5109.0679 1842202
1861.4799 1383.0988 5495.6489 1842202
1788.3871 1305.9446 5189.0815 1842202
1797.0333 1290.0782 5126.0381 1907738
1825.9937 1289.0803 5122.0728 1907738
1851.0525 1285.4059 5107.4727 1907738
1921.1748 1312.639 5215.6816 1841945
1933.6903 1300.2734 5166.5479 1907738
1953.6765 1293.2384 5138.5947 1973531
2000.8785 1304.1584 5181.9844 1973531
2124.1797 1363.5995 5418.1699 1907738
2063.5449 1304.9525 5185.1396 1841945
2199.1113 1370.2804 5444.7158 1841945
2135.2747 1311.2665 5210.228 1973531
2139.9031 1295.3796 5147.1025 2039324
2205.0349 1316.0499 5229.2349 1841945
2247.458 1322.782 5255.9839 1776152
2280.1533 1323.6827 5259.563 1710359
2326.2222 1332.2179 5293.4771 1710359
2537.5789 1433.9265 5697.6094 1776152
2599.7178 1449.752 5760.4902 1644566
2718.2092 1496.1853 5944.9902 1710359
2606.738 1416.4714 5628.2524 1841945
2458.3452 1318.9622 5240.8062 1907738
2490.7549 1319.6804 5243.6602 1907738
2522.9841 1320.2867 5246.0693 1907738
2545.9346 1316.0815 5229.3604 1776152
2591.5872 1323.5721 5259.1235 1776152
2600.8945 1312.543 5215.2998 1776152
2530.6848 1262.1155 5014.9302 1512980
2670.4729 1316.3745 5230.5244 1381394
2712.1479 1321.5796 5251.2065 1447187
2746.6355 1323.2042 5257.6616 1710359
2792.0154 1329.9807 5284.5879 1776152
2642.5173 1244.8063 4946.1528 1841945
3199.2903 1490.5529 5922.6099 1644566
3212.522 1480.4778 5882.5776 1578773
3016.4099 1375.1793 5464.1812 1578773
3191.8254 1439.6976 5720.5405 1644566
3112.1658 1389.0156 5519.1587 1644566
3187.125 1407.679 5593.3164 1710359
3261.6147 1425.7531 5665.1328 1841945
3227.6948 1396.5525 5549.106 1776152
3192.8271 1367.5349 5433.8066 1776152
3236.2847 1372.3097 5452.7788 1973531
3206.1348 1346.0859 5348.5811 1973531
3269.5759 1359.2852 5401.0269 1973530
3318.6367 1366.3079 5428.9312 1973529
3384.8965 1380.2087 5484.165 1973531
3435.7507 1387.6232 5513.6265 1973531
3464.7766 1386.1652 5507.833 2039323
3361.4207 1332.266 5293.668 1973531
3551.7898 1394.7023 5541.7544 1907738
3627.5808 1411.4147 5608.1602 1973531
3733.6792 1439.5087 5719.7896 2105117
3541.448 1353.1118 5376.4976 2105117
3678.8333 1393.0721 5535.2769 2039324
3686.0757 1383.4802 5497.1641 2105117
3462.0188 1288.004 5117.7959 2039324
3919.8149 1445.6587 5744.2266 2039324
3830.6677 1400.6185 5565.2622 1841945
3669.1057 1330.0959 5285.0459 1907738
3517.0781 1264.1941 5023.189 1907738
3579.1919 1275.7244 5069.0039 1973531
3743.9229 1323.3339 5258.1772 1776152
3679.6948 1289.8972 5125.3188 1776152
3822.5862 1329.0183 5280.7637 1776152
3686.2393 1271.2081 5051.0591 1776152
3870.2434 1323.9132 5260.479 1776152
4162.5752 1412.536 5612.6157 1776152
4161.8262 1401.088 5567.1274 1907738
4151.4917 1386.6183 5509.6333 1907738
3913.2144 1296.8344 5152.8828 1907738
3949.0295 1298.5712 5159.7842 1841945
3916.0156 1277.8221 5077.3394 1907738
3933.813 1273.8431 5061.5288 1973531
3953.6782 1270.5889 5048.5981 1973531
4009.6445 1278.8981 5081.6143 1841945
4118.458 1303.8137 5180.6147 1841945
4161.8364 1307.7986 5196.4487 1841945
4225.8071 1318.1483 5237.5723 1841945
4279.063 1325.0291 5264.9126 1841945
4320.1074 1328.0564 5276.9414 1973531
4384.9302 1338.2975 5317.6338 1907738
4423.4165 1340.4117 5326.0347 1776152
4500.1353 1353.9994 5380.0244 1447187
4612.4087 1378.0184 5475.4624 1447187
4569.2715 1355.5951 5386.3647 1512980
4618.4629 1360.6846 5406.5874 1579030
4692.3281 1372.9233 5455.2173 1710359
4719.207 1371.3411 5448.9302 1710359
4749.7314 1370.8323 5446.9087 1841945
4799.4966 1375.8461 5466.8306 1776409
4835.27 1376.8086 5470.6548 1776152
4843.1431 1369.8667 5443.0718 1841945
4895.2959 1375.4583 5465.2896 1841945
4909.7949 1370.4659 5445.4531 1776152
4943.0928 1370.752 5446.5894 1710359
4988.3218 1374.3214 5460.7725 1776152
5011.5156 1371.8131 5450.8062 1710359
5107.8345 1389.2255 5519.9927 1710359
4971.6899 1343.5931 5338.6758 1710359
4845.5054 1301.2125 5170.2793 1776152
5178.7261 1381.9581 5491.1167 1841945
5251.9668 1392.7523 5534.0063 1841945
5268.6973 1388.5197 5517.188 1841945
0 0 0 0
0 0 0 0
0 0 0 0
0 0 0 0
0 0 0 0
0 0 0 0
0 0 0 0
-2772.238 799.00256 3101.7539 66305
-2753.6504 798.94208 3101.519 66304
-2724.8118 795.88654 3089.6575 66304
-2705.4824 795.58606 3088.491 66305
-2689.7249 796.33887 3091.4136 132097
-2672.7275 796.73267 3092.9419 132097
-2646.4995 794.36102 3083.7354 66048
-2621.3372 792.2785 3075.6511 66305
-2585.7957 787.00806 3055.1907 66304
-2574.0691 788.96252 3062.7781 66305
-2557.0894 789.32312 3064.178 132097
-2551.0334 793.08508 3078.7822 131841
-2528.5127 791.74561 3073.5823 132097
-2511.5229 792.1311 3075.0789 132097
-2495.7646 792.91364 3078.1165 132097
-3037.1091 972.00409 3773.3516 66304
-3006.6733 969.39996 3763.2422 131584
-2953.5718 959.39447 3724.4004 197377
-2885.5603 944.35858 3666.0308 131585
-2590.4187 854.198 3316.0244 131585
-2573.8147 855.20959 3319.9517 65792
-2556.8813 856.12677 3323.5117 197377
-2523.0933 851.37061 3305.0483 131585
-2500.3357 850.29126 3300.8584 131584
-2482.2961 850.81201 3302.8799 197377
-2612.7039 902.62598 3504.0234 197377
-2579.5574 898.31348 3487.282 131584
-2439.9619 856.56177 3325.2007 0
-2506.615 887.12445 3443.8459 512
-2467.1641 880.32886 3417.4653 66304
-2426.689 873.05249 3389.218 66304
-2395.7944 869.13013 3373.9915 512
-2214.1396 809.98969 3144.4065 256
-2197.2817 810.64429 3146.9475 256
-2555.282 950.79022 3690.9985 512
-2539.6296 953.1239 3700.0581 66304
-2418.7812 915.67432 3554.6777 131584
-2502.4001 955.65161 3709.8708 65792
-2478.4346 954.88763 3706.905 65792
-2364.6658 919.20135 3568.3694 263170
-2347.5986 920.80048 3574.5774 131584
-2196.8931 869.53436 3375.5605 131585
-2144.0146 856.40198 3324.5803 65792
-2174.7859 876.7489 3403.5679 66304
-2211.0913 899.72864 3492.7756 132097
-2176.1792 893.88934 3470.1074 66048
-1934.3622 802.1394 3113.9312 197634
-2029.6798 849.7713 3298.8398 131841
-2116.0471 894.54584 3472.6562 263683
-2087.6599 891.21167 3459.7126 263683
-2036.3943 877.94775 3408.2219 329220
-2028.8082 883.43842 3429.5366 328963
-2022.0585 889.4079 3452.7104 328963
-2012.5045 894.25336 3471.5208 263170
-1950.1931 875.51422 3398.7747 328963
-1950.6393 884.85205 3435.0247 263170
-1943.2233 890.78296 3458.0483 131840
-1995.2714 924.38928 3588.5093 256
-1991.8567 932.74744 3620.9561 256
-1860.7953 880.8623 3419.5364 256
-1940.0104 928.47119 3604.3555 0
-1827.0648 884.1499 3432.2988 0
-1797.7529 879.75836 3415.2505 0
-1780.4095 881.19037 3420.8096 197889
-1770.5247 886.38934 3440.9922 197888
-1739.2697 880.88611 3419.6287 132096
-1719.6801 881.23108 3420.9678 197888
-1712.7197 888.13318 3447.7617 197888
-1685.249 884.43774 3433.4163 263681
-1651.8523 877.50403 3406.4993 329218
-1694.191 911.12903 3537.0325 329217
-1665.8163 907.09058 3521.355 263424
-1743.1521 961.24255 3731.5747 329217
-1592.9772 889.71588 3453.906 197888
-1624.6309 919.20465 3568.3826 197888
-1612.7711 924.52698 3589.0437 132096
-1605.5577 932.69061 3620.7354 197888
-1554.4567 915.23523 3552.9729 197888
-1570.4263 937.3324 3638.7551 197888
-1527.5532 924.43512 3588.6873 197888
-1512.4532 928.21832 3603.3738 197888
-1502.5422 935.34003 3631.0205 197888
-1490.3054 941.19977 3653.7683 197889
-1484.7882 951.53876 3693.9043 197889
-1475.2943 959.60034 3725.1997 197888
-1472.1166 972.07758 3773.6367 263681
-1462.8029 980.82544 3807.5962 329217
-1453.0002 989.5144 3841.3271 329217
-1418.7474 981.56409 3810.4636 395010
-1448.813 1018.5751 3954.1414 256
-1420.0419 1014.7582 3939.3242 0
-1401.7113 1018.3994 3953.4592 0
-1394.1232 1030.1016 3998.8879 131585
-1383.7432 1040.11 4037.7407 328963
-1381.4449 1056.6522 4101.9585 328963
-1375.4578 1070.9148 4157.3262 263681
-1361.6912 1079.5302 4190.7715 263681
-1348.8107 1089.1812 4228.2368 197888
-1340.4695 1102.9324 4281.6196 263683
-1326.4502 1112.4521 4318.5757 256
-1324.0079 1132.2468 4395.4189 256
-1326.828 1157.4261 4493.166 197634
-1305.0448 1161.7352 4509.894 1842715
-1292.1174 1174.2726 4558.5645 2961450
-1255.4001 1165.2637 4523.5913 3092780
-1221.8569 1158.8717 4498.7778 3092780
-1207.6945 1170.9867 4545.8086 3290159
-1181.3511 1171.574 4548.0884 3355694
-1157.6434 1174.8639 4560.8599 3421486
-1136.1097 1180.5699 4583.0112 3421487
-1109.3873 1181.0317 4584.8037 3355694
-1074.5479 1172.6586 4552.2988 3289902
-1036.6925 1160.4783 4505.0142 3224109
-1009.4475 1159.8451 4502.5566 3092523
-986.25439 1163.9597 4518.5293 3355695
-962.57166 1167.7098 4533.0874 3618866
-944.51385 1178.6948 4575.7319 3553073
-921.14185 1183.5015 4594.3911 3553073
-893.57947 1183.0529 4592.6499 3684659
-863.98206 1179.7974 4580.0117 3947831
-839.90936 1184.1195 4596.7905 3947832
-825.14557 1202.295 4667.3486 4474176
-797.89771 1202.9102 4669.7363 2829351
-779.32898 1217.1243 4724.916 592135
-778.19604 1260.6428 4893.8564 328964
-731.3847 1230.6692 4777.498 263170
-696.25378 1218.7274 4731.1396 328963
-660.10754 1203.9319 4673.7026 460549
-634.61151 1208.1154 4689.9429 526342
-604.71466 1203.9203 4673.6577 723721
-575.42786 1200.5957 4660.7515 657928
-547.84686 1200.6741 4661.0557 723721
-520.83557 1202.0758 4666.4976 723721
-495.58777 1207.933 4689.2354 723721
-466.48862 1204.5413 4676.0684 789514
-435.51901 1195.5863 4641.3052 855050
-402.08017 1178.1887 4573.7671 921100
-378.97934 1190.7587 4622.564 986893
-351.58209 1190.736 4622.4756 921613
-325.39557 1195.1565 4639.6362 1053199
-299.85077 1202.9672 4669.9575 1184785
-274.21915 1211.9823 4704.9546 1184528
-248.76347 1223.9038 4751.2344 1250065
-220.52528 1223.431 4749.3989 1250065
-194.80246 1238.816 4809.124 1250065
-166.84686 1242.8413 4824.7505 1250065
-137.2841 1234.0841 4790.7549 1250065
-107.46662 1217.8749 4727.8301 1315858
-80.001877 1226.2985 4760.5303 1381651
-51.924324 1229.3883 4772.5254 1447444
-23.594807 1226.7684 4762.355 1513237
4.622046 1226.2341 4760.2808 1513237
32.943226 1230.5149 4776.8989 1579030
61.210751 1229.7611 4773.9727 1579030
90.032417 1237.0981 4802.4551 1579030
118.78909 1240.2324 4814.6226 1710616
147.11438 1238.521 4807.9785 1776409
175.21674 1235.7925 4797.3867 1907995
198.65375 1205.5145 4679.8467 1842202
224.19504 1193.8596 4634.6021 1710616
258.04535 1224.1663 4752.2534 1710616
288.03891 1232.0132 4782.7153 1644823
307.05261 1195.6974 4641.7363 1579030
335.93106 1200.6091 4660.8037 1447444
367.7756 1214.5701 4715.0005 1513237
393.90756 1209.0258 4693.4775 1513237
424.27042 1216.3425 4721.8813 1579030
450.91125 1212.7433 4707.9092 1447444
479.89221 1215.4907 4718.5747 1381651
490.78003 1174.6316 4559.958 1381651
526.73383 1194.8988 4638.6362 1447444
558.93866 1205.0731 4678.1333 1447444
589.21155 1210.3175 4698.4922 1513237
613.02838 1202.4254 4667.8545 1513237
657.96088 1234.844 4793.7046 1513237
668.61456 1202.9083 4669.729 1579030
691.00964 1193.795 4634.3516 1710616
729.63782 1212.3513 4706.3872 1579030
746.96637 1195.453 4640.7876 921100
777.11542 1199.5444 4656.6704 1513237
807.41547 1203.5802 4672.3379 1710616
844.22162 1216.7253 4723.3672 1710616
872.14459 1216.6348 4723.0156 1579030
894.42963 1208.9296 4693.104 1315858
935.12476 1225.8221 4758.6816 1447444
981.78052 1249.3107 4849.8647 1447187
989.41431 1223.2202 4748.5806 1513237
1025.5156 1232.7938 4785.7461 1644823
1058.9962 1238.7867 4809.0107 1579030
1091.4503 1243.2963 4826.5166 1513237
1143.9069 1269.7792 4929.3237 1513237
1140.4788 1234.4535 4792.189 1513237
1196.4735 1263.6011 4905.3403 1447444
1240.1213 1278.6357 4963.7056 1447444
1310.6973 1320.0947 5124.6509 1513237
1342.6299 1321.6373 5130.6392 1447444
1330.6912 1280.8823 4972.4268 1579030
1356.7167 1277.6447 4959.8579 1644823
1404.4586 1294.5612 5025.5288 1579030
1439.2837 1299.1166 5043.2129 1579030
1447.6752 1280.1125 4969.4385 1644823
1456.1984 1261.9803 4899.0488 1579031
1484.9972 1261.7849 4898.29 1447444
1484.3083 1237.022 4802.1597 1579030
1547.1147 1265.1122 4911.2065 1644823
1580.124 1268.2493 4923.3848 1579030
1602.4594 1262.8605 4902.4653 1842202
1602.7954 1240.6353 4816.1865 1776409
1799.3627 1368.4225 5312.2603 1842202
1768.2135 1321.6136 5130.5469 1908252
1731.6992 1272.4449 4939.6724 1973531
1782.8359 1288.2457 5001.0117 1973531
1852.7544 1316.8793 5112.1685 1907738
1889.1925 1321.1777 5128.855 1907738
1908.5 1313.5497 5099.2427 2105117
1915.1201 1297.5634 5037.1831 2105117
1937.9169 1292.8596 5018.9229 2105117
2046.3367 1344.5573 5219.6147 2105117
2000.4882 1294.8616 5026.6948 2105117
2039.3334 1300.6399 5049.1265 1973531
2047.3833 1286.8944 4995.7661 1907738
2091.3828 1295.8152 5030.397 1776152
2147.7725 1312.0543 5093.4375 1841945
2126.3015 1280.938 4972.6431 1841945
2254.0579 1339.3418 5199.3687 1710359
2392.2603 1402.2942 5443.7515 1776152
2517.6528 1456.1622 5652.8691 1776152
2621.7993 1496.489 5809.4189 1776152
2262.6089 1274.731 4948.5474 1710359
2367.0962 1316.5365 5110.8374 1710359
2305.7454 1266.2148 4915.4873 1710359
2331.2434 1264.2473 4907.8491 1644566
2335.2583 1250.8213 4855.729 1776152
2366.2573 1251.9995 4860.3027 1841945
2436.241 1273.5284 4943.8789 1907738
2491.6392 1287.0117 4996.2217 1973531
2451.3621 1251.3396 4857.7407 1907738
2479.2039 1250.864 4855.895 1907738
2435.6819 1214.8065 4715.9185 1710359
2522.8818 1244.0256 4829.3481 1381394
2662.4153 1298.1053 5039.2876 1512980
2760.9226 1331.2045 5167.7788 1578773
3141.272 1497.9795 5815.2051 1644566
2755.7117 1299.8586 5046.0938 1578773
2769.2112 1292.2057 5016.3843 1644566
3328.6543 1536.7649 5965.7715 1710359
3028.4446 1383.4727 5370.686 1776152
3047.0139 1377.4808 5347.4253 1776152
3114.3176 1393.4172 5409.291 1644566
3092.4785 1369.5507 5316.6401 1710359
3098.1887 1358.2429 5272.7432 1644566
3091.824 1341.9203 5209.3784 1841945
3109.6846 1336.3307 5187.6792 1907738
3178.9954 1352.7441 5251.3965 1907738
3233.2312 1362.4866 5289.2173 1841945
3252.6267 1357.5011 5269.8633 2039324
3307.6748 1367.3488 5308.0923 2039324
3269.8828 1338.9937 5198.0171 1973531
3384.2419 1372.8911 5329.6079 1907738
3349.405 1346.1967 5225.9795 1907738
3417.7068 1361.0653 5283.6997 1907738
3523.7336 1390.5511 5398.1646 1973531
3447.3008 1348.1511 5233.5669 1973531
3514.2639 1362.0858 5287.6611 2170910
3686.1633 1416.0867 5497.2949 2105117
4029.1201 1534.2799 5956.1245 2105117
4037.0427 1523.9479 5916.0156 2170653
4274.0205 1599.516 6209.3735 1973531
4283.2065 1589.2725 6169.6074 2039324
3451.4583 1269.8165 4929.4692 1973531
3480.6675 1269.8165 4929.4692 2105117
3848.5493 1392.3429 5405.1206 2039324
3912.8152 1403.91 5450.0244 1973531
3762.1555 1338.8041 5197.2812 1841945
3731.8298 1317.2299 5113.5293 1841945
3968.9573 1389.6462 5394.6519 1644566
3817.4641 1325.9252 5147.2847 1710359
4201.3784 1447.7041 5620.0347 1776152
3696.8447 1263.8354 4906.2505 1907738
4204.8706 1426.2974 5536.9326 1973531
3858.1003 1298.5406 5040.9771 1973531
3721.8098 1243.0448 4825.5405 1907738
3799.4417 1259.2982 4888.6367 1907738
3808.9482 1252.897 4863.7871 2105117
3881.6128 1267.2108 4919.3535 1841945
3920.3501 1270.3176 4931.4146 1907738
4008.7849 1289.363 5005.3491 1776152
4071.3796 1299.8785 5046.1709 1776152
4170.6206 1321.8555 5131.4863 1841945
4138.9834 1302.3336 5055.7017 1907738
4177.543 1305.0209 5066.1338 2039324
4299.2529 1333.4598 5176.5347 2039324
4327.6719 1332.7656 5173.8398 1841945
4392.5356 1343.2261 5214.4473 1776152
4442.0752 1348.887 5236.4229 1578516
4478.2974 1350.4532 5242.5034 1184015
4518.8579 1353.2972 5253.5439 1183759
4582.8862 1363.0824 5291.5303 723207
4684.4927 1383.8354 5372.0942 460036
4689.5264 1375.9724 5341.5698 394243
4759.3633 1387.1016 5384.7734 722437
4801.978 1390.2015 5396.8076 920073
4906.6899 1411.1191 5478.0103 854281
4892.4106 1397.7659 5426.1724 986636
4844.9424 1375.1667 5338.4419 1249808
4849.2437 1367.4596 5308.5225 1512980
4928.3682 1380.8153 5360.3701 1512980
4837.5073 1346.6792 5227.8525 1578773
4912.3916 1358.8243 5275.0005 1644566
5012.6978 1377.8036 5348.6782 1644566
4999.5469 1365.5551 5301.1289 1644566
5107.249 1386.2627 5381.5171 1841945
5082.5312 1370.9935 5322.2417 1841945
0 0 0 0
0 0 0 0
0 0 0 0
0 0 0 0
0 0 0 0
0 0 0 0
0 0 0 0
-2760.8958 814.03748 3089.0635 66304
-2739.2908 813.05762 3085.3452 66304
-2718.0706 812.17969 3082.0137 66304
-2693.7073 810.34424 3075.0486 66304
-2681.4875 812.1618 3081.946 132097
-2665.7898 812.94379 3084.9133 66048
-2636.5425 809.57593 3072.1333 66048
-2594.5957 802.23468 3044.2749 66304
-2574.0896 801.46637 3041.3596 66304
-2568.6855 805.42261 3056.3723 131840
-2548.7317 804.84045 3054.1631 66304
-2526.0493 803.38214 3048.6294 66304
-2514.7046 805.53473 3056.7976 66048
-2502.2666 807.36566 3063.7458 66304
-2477.1545 805.10413 3055.1638 132097
-2451.4932 802.62952 3045.7732 66048
-2441.1343 805.16553 3055.3967 197377
-2904.8745 965.28094 3662.9939 197377
-2592.1533 867.84912 3293.2649 131584
-2580.7129 870.57257 3303.5999 197376
-2562.709 871.10669 3305.6265 65792
-2542.5142 870.89856 3304.8369 131585
-2511.7114 867.02539 3290.1392 197377
-2484.6306 864.38654 3280.1252 131584
-2461.9375 863.24445 3275.7913 131585
-2445.6594 864.3515 3279.9922 197377
-2424.2424 863.64551 3277.3132 263170
-2295.8818 824.52136 3128.8472 66304
-2445.8494 885.53009 3360.3596 256
-2420.5083 883.5481 3352.8386 256
-2368.7302 871.80341 3308.2703 132097
-2336.5857 867.14893 3290.6077 461062
-2213.563 828.40576 3143.5876 197890
-2309.418 871.61322 3307.5486 132097
-2268.7046 863.57599 3277.0493 197890
-2156.1653 827.82361 3141.3782 329476
