# .PCD v0.7 - Point Cloud Data file format
VERSION 0.7
FIELDS x y z rgb
SIZE 4 4 4 4
TYPE F F F U
COUNT 1 1 1 1
WIDTH 1296
HEIGHT 1
VIEWPOINT 0 0 0 1 0 0 0
POINTS 1296
DATA ascii
-1608.8562 1027.811 2210.4124 984320
-1582.767 1019.4431 2192.4165 786688
-1571.6129 1020.6362 2194.9822 1378820
-1555.2648 1018.4476 2190.2756 589824
-1549.7256 1023.36 2200.8401 721152
-1526.4252 1016.5275 2186.1462 655360
-1522.806 1022.7972 2199.6299 655360
-1516.2716 1027.2002 2209.0989 655616
-1502.4254 1026.6833 2207.9873 918272
-1471.3452 1014.277 2181.3062 918272
-1468.5511 1021.3229 2196.459 918272
-1461.8942 1025.7841 2206.0532 720896
-1445.9458 1023.7473 2201.6731 655360
-1427.4637 1019.8633 2193.3203 918272
-1416.3313 1021.2072 2196.2104 918272
-1399.5438 1018.4608 2190.304 1049344
-1394.4993 1024.2885 2202.8369 917760
-1380.4847 1023.5753 2201.303 721152
-1363.5458 1020.6595 2195.0325 918272
-1354.8042 1023.8826 2201.9641 918272
-1337.5502 1020.6727 2195.0608 786688
-1328.4305 1023.6679 2201.5024 918016
-1316.4449 1024.4922 2203.2751 917760
-1302.7408 1023.9822 2202.1782 983552
-1289.0155 1023.445 2201.0229 983552
-1276.6036 1023.9505 2202.1101 917760
-1262.5482 1023.1344 2200.355 983552
-1250.505 1023.9489 2202.1067 983552
-1238.4127 1024.7401 2203.8081 852224
-1225.9563 1025.2435 2204.8909 720896
-1211.3752 1023.9619 2202.1345 1049344
-1197.3245 1023.1055 2200.2927 852224
-1186.3628 1024.8988 2204.1497 851968
-1173.1117 1024.7324 2203.7915 917760
-1160.4995 1025.1265 2204.6392 589824
-1144.3895 1022.4046 2198.7854 655360
-1133.8474 1024.6517 2203.6182 917760
-1121.0687 1024.9064 2204.1658 852224
-1106.8245 1023.8115 2201.8113 851968
-1094.3884 1024.3831 2203.0403 1180672
-1080.8735 1023.9464 2202.1011 1180928
-1068.3907 1024.4886 2203.2673 1180928
-1052.1023 1021.35 2196.5173 983808
-1036.8829 1019.1834 2191.8579 852224
-1024.3323 1019.6184 2192.7935 786688
-1009.0475 1017.308 2187.8247 786688
-996.61542 1017.8511 2188.9927 721152
-986.73572 1021.0496 2195.8713 1049856
-970.0625 1017.2097 2187.6133 1115392
-956.85089 1016.945 2187.0439 1049600
-945.13672 1018.2864 2189.9287 1049344
-931.14984 1017.1822 2187.5542 1049344
-919.00934 1018.0924 2189.5117 1115136
-903.30573 1015.025 2182.9148 852224
-890.04114 1014.6489 2182.106 917760
-877.3017 1014.8691 2182.5796 852224
-865.18036 1015.8217 2184.6282 1049344
-852.89758 1016.6108 2186.3252 851968
-838.94751 1015.4062 2183.7346 1115136
-824.98767 1014.1519 2181.0371 983552
-812.70355 1014.9504 2182.7544 917504
-798.8866 1013.8295 2180.344 1048832
-783.20697 1010.2692 2172.687 917760
-772.75372 1013.4439 2179.5146 851968
-757.10419 1009.796 2171.6694 851968
-745.05505 1010.9071 2174.0588 851968
-731.95844 1010.611 2173.4221 1048832
-720.07678 1012.0118 2176.4348 917504
-707.47784 1012.4374 2177.3499 983040
-691.99475 1008.6746 2169.2576 1180416
-681.99469 1012.9128 2178.3726 1312000
-668.17682 1011.5351 2175.4094 1114624
-657.17432 1014.4489 2181.676 851968
-643.26898 1012.9089 2178.364 1114624
-630.90698 1013.7858 2180.2498 983040
-619.15857 1015.7057 2184.3789 917504
-603.7146 1011.5161 2175.3684 1180160
-590.75458 1011.3961 2175.1104 851968
-578.31061 1012.1738 2176.7832 1048832
-566.26575 1013.7017 2180.0688 1180416
-552.88135 1012.8469 2178.2307 1048832
-538.63568 1010.3357 2172.8301 917504
-527.30389 1013.3011 2179.2073 917504
-513.17938 1010.9138 2174.0732 917504
-501.35532 1013.0521 2178.6719 1180416
-487.27161 1010.6167 2173.4343 983040
-475.78262 1013.5768 2179.8003 1114624
-463.42001 1014.7891 2182.4075 1048832
-450.4762 1014.7616 2182.3484 1114624
-437.28473 1014.1582 2181.0508 917504
-424.14594 1013.644 2179.9448 720896
-410.34073 1011.4547 2175.2366 720896
-397.60916 1011.8557 2176.0989 917504
-384.87521 1012.2773 2177.0059 983040
-372.91147 1014.8243 2182.4832 1246208
-359.23499 1012.7256 2177.97 1180416
-346.16293 1012.2382 2176.9216 1180416
-333.61835 1013.3151 2179.2375 1048832
-320.65265 1013.1481 2178.8784 1246208
-308.26111 1014.8574 2182.5544 1114880
-295.7348 1016.2533 2185.5564 983296
-282.62296 1015.6727 2184.3079 851968
-268.82025 1012.4345 2177.3438 1246208
-257.01562 1016.7745 2186.6772 983296
-243.91998 1016.1967 2185.4346 1180416
-230.66406 1014.8487 2182.5356 1246208
-218.0726 1016.4378 2185.9534 983296
-204.79185 1014.8121 2182.4568 1114624
-191.88719 1014.9563 2182.7671 1048832
-178.94972 1014.9353 2182.7219 1443585
-165.66937 1012.8149 2178.1619 1508864
-152.66878 1012.1909 2176.8198 1311744
-140.05261 1014.2358 2181.2175 1311488
-127.1776 1014.6312 2182.0681 1311232
-114.44619 1016.3917 2185.854 1114112
-101.46606 1016.1105 2185.2495 1114368
-88.639488 1017.5101 2188.2593 1508864
-75.722527 1018.1736 2189.6863 1443072
-62.684654 1017.1498 2187.4844 1508608
-49.90691 1020.9133 2195.5781 1245696
-36.804291 1018.3419 2190.0481 1245184
-23.904846 1021.6528 2197.1685 1837314
-10.918843 1024.7595 2203.8499 1771521
2.1393487 1024.5186 2203.3318 1771522
15.179782 1023.4943 2201.1289 1376768
28.23361 1023.9023 2202.0066 1508608
41.025043 1017.5445 2188.3333 1377024
54.131557 1020.1784 2193.9978 1508609
67.260353 1022.1307 2198.1965 1705729
80.45575 1024.2977 2202.8567 1640193
93.473351 1023.9119 2202.0271 1639680
106.21091 1020.929 2195.6121 1837058
119.11915 1020.0585 2193.74 1705472
132.12032 1020.0768 2193.7793 1837056
145.18115 1020.5114 2194.7139 2034436
157.91534 1018.7671 2190.9626 1705473
171.25218 1020.8804 2195.5076 1837057
184.36823 1021.472 2196.7798 1902849
197.44554 1021.7852 2197.4534 1639680
210.70633 1022.9503 2199.959 1771008
224.14764 1024.8049 2203.9478 1508096
237.5616 1026.3373 2207.2432 1442304
251.41014 1029.4894 2214.022 1902338
263.69205 1026.2318 2207.0161 2033666
276.72177 1026.0548 2206.6355 1639680
289.06262 1023.4546 2201.0437 1837057
304.07553 1030.1315 2215.4028 2165252
314.40408 1021.0428 2195.8567 1836288
326.55264 1018.3523 2190.0706 1573120
340.68137 1021.8065 2197.499 1902080
353.81165 1022.1221 2198.1777 1704448
367.1828 1023.0861 2200.2512 1967616
379.53561 1021.2443 2196.29 2098176
394.72751 1026.9105 2208.4758 2754816
410.26007 1033.0709 2221.7244 4003332
420.2261 1025.267 2204.9412 5383436
435.24384 1029.8872 2214.8774 5843468
446.35361 1025.2605 2204.9272 8014120
459.09827 1024.5454 2203.3894 6040330
473.74026 1027.9869 2210.791 8408621
486.18375 1026.601 2207.8103 7027223
498.02594 1024.0514 2202.3271 8014371
506.58652 1015.0566 2182.9827 7159065
519.62366 1015.256 2183.4116 7093015
532.0509 1014.2831 2181.3193 7882531
551.13507 1025.7458 2205.9712 8343853
563.27747 1024.0573 2202.3396 8475439
572.02875 1016.4194 2185.9136 8343853
587.62811 1021.0184 2195.8044 8080681
602.80994 1024.7086 2203.7405 8080682
612.91644 1019.7978 2193.1792 8146217
627.68195 1022.6817 2199.3813 8409389
641.40857 1023.79 2201.7649 6434572
642.3927 1004.9206 2161.1843 7817509
665.61969 1020.9042 2195.5586 8475182
680.34668 1023.4878 2201.115 8343596
695.46759 1026.5557 2207.7126 8079910
697.76147 1010.9263 2174.1001 8080167
717.26086 1020.3392 2194.3438 7488029
733.63959 1025.0568 2204.4893 8211753
745.5434 1023.4663 2201.0686 8145704
751.30054 1013.6375 2179.9307 8145705
769.10779 1020.1237 2193.8801 8343084
776.31586 1012.5696 2177.6343 8145705
788.94049 1012.212 2176.8652 7750945
798.58386 1008.1025 2168.0273 8145190
813.99945 1011.2943 2174.8916 7619105
823.67889 1007.3713 2166.4548 6566417
844.34869 1016.8038 2186.7405 7093017
853.29822 1012.0504 2176.5176 7816740
869.86969 1016.3439 2185.7512 8343083
877.48816 1010.2044 2172.5476 8079655
895.10803 1015.5898 2184.1296 7882531
907.89343 1015.415 2183.7534 8079910
928.08276 1023.4092 2200.946 8145960
928.62781 1009.8202 2171.7214 7488029
948.85345 1017.7115 2188.6924 7751201
954.37927 1009.8359 2171.7551 7619359
962.01642 1004.3743 2160.0093 7816739
983.6734 1013.5009 2179.637 8211496
997.80383 1014.7366 2182.2947 7751202
1010.561 1014.5622 2181.9194 8014373
1022.5945 1013.6747 2180.011 8145960
1041.0741 1019.1196 2191.7207 7488287
1055.7968 1020.7979 2195.3301 8014374
1053.2638 1005.9547 2163.4082 7948326
1064.9945 1004.9279 2161.2 7093015
1080.2244 1007.1877 2166.0601 9066805
1091.8075 1006.0345 2163.5798 8343338
1102.4781 1004.0769 2159.3699 8540461
1119.7523 1008.1093 2168.042 8606254
1135.7709 1010.9327 2174.114 8737327
1145.4673 1008.1287 2168.0835 7289881
1153.9515 1004.3318 2159.918 7750688
1174.4229 1010.9366 2174.1223 8079654
1183.2573 1007.4898 2166.7097 8014117
1192.1437 1004.1608 2159.5503 8211498
1205.2972 1004.4586 2160.1907 7685668
1221.5841 1007.334 2166.3745 7488545
1230.0177 1003.7409 2158.6472 7027739
1240.6517 1001.999 2154.9011 7685925
1258.9232 1006.3979 2164.3616 8278063
1280.1112 1013.0162 2178.5947 8015146
1299.6339 1018.1977 2189.738 8146476
1315.819 1020.6878 2195.0933 8212269
1325.625 1018.2291 2189.8057 7817510
1328.0574 1010.2094 2172.5583 6501651
1337.1514 1007.3622 2166.4353 7618848
1354.1497 1010.4674 2173.1133 7421469
1371.8535 1014.0355 2180.7869 8145706
1377.3807 1008.6205 2169.1414 7553313
1389.0262 1007.7444 2167.2573 6303247
1405.657 1010.4681 2173.1147 7685155
1431.4396 1019.6614 2192.886 8408878
1431.7251 1010.6905 2173.593 7685154
1450.024 1014.4821 2181.7473 7619105
1472.1699 1020.8744 2195.4946 8014119
1476.7522 1015.0819 2183.0374 7619361
1508.651 1028.0039 2210.8271 7882535
1518.6162 1025.8861 2206.2727 6896409
1516.4541 1015.6819 2184.3276 7620133
1531.2542 1016.9152 2186.98 7554340
1556.6372 1025.097 2204.5759 7554340
1560.7679 1019.2639 2192.031 7290914
1590.1315 1029.8693 2214.8389 7027742
1603.2781 1029.8839 2214.8704 7159328
1600.8507 1019.9753 2193.561 7093534
1622.2135 1025.2621 2204.9309 7093533
1632.254 1023.3659 2200.8528 7487777
1648.0614 1025.0867 2204.5535 7816741
1675.8743 1034.189 2224.1289 8014121
1682.3578 1030.0895 2215.3125 7684899
1701.0425 1033.4662 2222.5745 7290398
1710.4185 1031.1791 2217.6558 7553570
1717.1689 1027.3561 2209.4341 7422497
1735.5781 1030.5133 2216.2239 7685925
1723.1573 1015.455 2183.8396 6896410
1733.3407 1013.8425 2180.3718 7685669
1744.8784 1013.0403 2178.6465 7883304
1767.4708 1018.6208 2190.6479 7620132
1780.1532 1018.4503 2190.2812 7554340
1786.0757 1014.4427 2181.6626 7751718
1790.433 1009.6103 2171.27 7948841
1804.2328 1010.1332 2172.3945 7685926
1821.5026 1012.5778 2177.6519 7948841
1834.5906 1012.6797 2177.8711 8079657
1848.5453 1013.2551 2179.1086 7948071
1861.2269 1013.1297 2178.8389 7816744
1871.1018 1011.4887 2175.3098 7619621
1880.1982 1009.4523 2170.9302 6237712
1926.0392 1027.037 2208.7478 6698262
1921.1848 1017.5341 2188.311 6567192
1926.7288 1013.6292 2179.9131 7488295
1953.9092 1021.0831 2195.9434 7093539
1946.0082 1010.2266 2172.5955 6369815
1966.9846 1014.4055 2181.5825 6304023
1970.1147 1009.3862 2170.7881 5053958
1980.5443 1008.1477 2168.1245 6961952
1994.1729 1008.5429 2168.9744 6501144
1999.7969 1004.9107 2161.1631 7422501
2005.0372 1001.1332 2153.0393 6435606
2013.6871 999.09521 2148.6562 7093536
2029.2721 1000.502 2151.6816 8409140
2017.0978 988.29041 2125.4194 7488808
2037.3093 991.99951 2133.3962 6501143
0 0 0 0
0 0 0 0
0 0 0 0
0 0 0 0
0 0 0 0
0 0 0 0
0 0 0 0
0 0 0 0
0 0 0 0
0 0 0 0
-1926.3451 1035.5593 2199.053 721408
-1914.5397 1036.2222 2200.4607 655616
-1901.0704 1035.9875 2199.9624 787200
-1885.9739 1034.8567 2197.561 852992
-1867.7961 1032.0077 2191.5112 721408
-1856.5552 1032.9785 2193.5725 655616
-1840.1742 1031.0828 2189.5469 721408
-1824.2434 1029.4142 2186.0037 655616
-1808.2437 1027.6826 2182.3267 655616
-1800.733 1030.7855 2188.9158 918784
-1786.8796 1030.2762 2187.8342 918784
-1768.6451 1027.2151 2181.3337 721408
-1754.4995 1026.5011 2179.8176 590080
-1727.3845 1018.1323 2162.0461 590080
-1718.0509 1020.1971 2166.4309 458752
-1707.9031 1021.806 2169.8474 524288
-1699.1411 1024.2748 2175.0898 589824
-1684.5247 1023.225 2172.8606 524288
-1672.2805 1023.6112 2173.6807 655360
-1656.1749 1021.6213 2169.4553 655360
-1644.0543 1022.078 2170.4248 655360
-1629.5232 1021.0312 2168.2021 655360
-1626.748 1027.3926 2181.7107 655360
-1612.4171 1026.499 2179.8132 852480
-1598.7535 1026.0195 2178.7949 852736
-1587.3962 1027.0242 2180.9285 918272
-1574.1544 1026.8162 2180.4866 918272
-1551.2234 1020.2321 2166.5051 786688
-1546.5288 1025.6323 2177.9727 524288
-1531.7238 1024.3619 2175.2749 721152
-1515.1068 1021.8479 2169.9363 918272
-1509.475 1026.7631 2180.3738 918272
-1489.2734 1021.767 2169.7644 1181440
-1473.2954 1019.6069 2165.1775 720896
-1461.2201 1020.1334 2166.2957 655616
-1446.4336 1018.7598 2163.3784 524288
-1443.7212 1025.9418 2178.6296 786688
-1420.1478 1018.2952 2162.3918 852480
-1410.0724 1020.2759 2166.5981 852480
-1402.7634 1024.3132 2175.1716 786688
-1381.2355 1017.9463 2161.6511 786432
-1376.0327 1023.6042 2173.666 1115136
-1353.709 1016.5128 2158.6069 851968
-1347.511 1021.5104 2169.2197 917760
-1334.0873 1021.0739 2168.2927 983552
-1319.4976 1019.728 2165.4346 1049344
-1301.3188 1015.5546 2156.5723 1180928
-1289.7699 1016.5237 2158.6301 1049344
-1282.8699 1021.2131 2168.5881 1114880
-1270.7875 1021.83 2169.8982 1049344
-1257.4209 1021.4166 2169.0203 1049344
-1244.6958 1021.5209 2169.2419 851968
-1233.5515 1022.9384 2172.252 786432
-1218.2811 1020.928 2167.9829 720896
-1205.9991 1021.4059 2168.9978 786432
-1187.3856 1016.4738 2158.5242 1115136
-1181.2524 1022.2346 2170.7576 917760
-1167.7574 1021.6815 2169.5828 786432
-1155.1105 1021.866 2169.9746 917760
-1142.2408 1021.8556 2169.9526 655360
-1128.3456 1020.9169 2167.9592 655360
-1117.1637 1022.4399 2171.1934 852224
-1102.2765 1020.5678 2167.218 917760
-1091.7194 1022.7079 2171.7627 983552
-1078.1128 1022.0084 2170.2771 786432
-1061.0388 1017.9652 2161.6912 786688
-1052.314 1021.9313 2170.1135 983296
-1037.9458 1020.4474 2166.9624 720896
-1024.9703 1020.3126 2166.676 851968
-1008.3468 1016.4969 2158.5732 983552
-995.81616 1016.7621 2159.1365 918016
-984.651 1018.4467 2162.7136 720896
-971.99854 1018.6169 2163.0752 852224
-958.30084 1017.6818 2161.0894 983552
-946.05853 1018.2878 2162.3762 1246464
-930.17358 1014.9359 2155.2583 852224
-920.0755 1017.8927 2161.5374 1181184
-906.08368 1016.5645 2158.7168 852224
-893.10345 1016.3494 2158.26 983552
-880.09833 1016.0994 2157.729 1115136
-864.23694 1012.4958 2150.0767 1115136
-853.49847 1014.8757 2155.1306 983552
-839.87909 1013.8506 2152.9536 1049344
-827.10126 1013.8251 2152.8997 1115136
-814.31305 1013.7859 2152.8164 983808
-801.33124 1013.5007 2152.2107 917504
-788.39569 1013.2658 2151.7119 983296
-775.36926 1012.9044 2150.9443 786432
-761.34015 1011.1992 2147.3232 720896
-748.78326 1011.4245 2147.8018 851968
-735.63708 1010.848 2146.5774 786432
-722.71936 1010.5705 2145.9883 786432
-709.95618 1010.5032 2145.8452 1246464
-696.57977 1009.5446 2143.8096 1114880
-683.30701 1008.7034 2142.0234 1114880
-670.59692 1008.6768 2141.9668 1048832
-658.17169 1009.0857 2142.8352 983296
-645.86127 1009.6903 2144.1191 983040
-633.59222 1010.3851 2145.5947 720896
-621.31818 1011.1002 2147.1133 851968
-608.81647 1011.4672 2147.8923 851968
-594.09979 1008.0912 2140.7234 1048832
-581.83038 1008.8113 2142.2524 917504
-570.58569 1011.3796 2147.7065 720896
-557.21783 1010.216 2145.2354 1180416
-544.37585 1009.9737 2144.7209 1180416
-532.7453 1012.0211 2149.0686 1180416
-518.90216 1009.8628 2144.4854 1180416
-507.34415 1012.1548 2149.3525 1246208
-493.89969 1010.7045 2146.2729 1180416
-482.2858 1013.0226 2151.1956 1312000
-468.95642 1011.7656 2148.5261 1114624
-456.36374 1012.0721 2149.177 1312000
-443.19681 1011.086 2147.083 1377792
-430.28513 1010.6413 2146.1387 851968
-417.46918 1010.4011 2145.6287 1048832
-404.79431 1010.4982 2145.8347 1048832
-391.81213 1009.8094 2144.3721 851968
-378.58435 1008.4202 2141.4221 1048832
-367.14709 1011.8695 2148.7468 1048832
-353.86038 1010.2863 2145.3848 1114624
-340.72467 1009.0323 2142.7219 1377792
-329.2084 1012.6628 2150.4314 1114624
-316.2489 1011.9672 2148.9543 852224
-303.59427 1012.23 2149.5122 1049088
-291.67261 1015.0665 2155.5356 852224
-278.56641 1013.8517 2152.9561 786432
-265.54266 1012.8348 2150.7966 1049344
-252.70544 1012.4626 2150.0063 1312512
-240.11058 1013.0735 2151.3035 1378048
-226.06018 1007.2675 2138.9741 1444096
-214.828 1014.0747 2153.4297 1049088
-200.93051 1008.3658 2141.3066 917504
-188.24994 1008.4062 2141.3923 1048832
-175.59415 1008.5947 2141.7927 786432
-163.53926 1012.533 2150.1558 1640966
-150.67989 1011.7351 2148.4614 1443585
-137.85773 1011.0627 2147.0337 1377792
-125.45156 1013.6151 2152.4534 851968
-112.26975 1009.7686 2144.2854 1114368
-99.752495 1011.6803 2148.345 983040
-87.22847 1014.0726 2153.425 1245696
-74.652298 1016.5746 2158.7383 1574656
-61.797073 1015.5257 2156.5107 1443328
-49.110783 1017.4295 2160.5537 1443072
-36.444298 1021.2311 2168.6265 1114112
-23.483065 1016.4159 2158.4011 1311744
-10.746775 1021.4633 2169.1196 1442816
2.1077588 1022.2532 2170.7969 1442560
14.9607 1021.577 2169.3611 1639936
27.830564 1022.1474 2170.5723 1376768
40.721073 1022.8757 2172.1189 1245440
53.520576 1021.5172 2169.2341 1442560
66.353302 1021.1962 2168.5525 1508608
79.069893 1019.4821 2164.9124 1639936
92.118629 1021.9312 2170.113 1837057
104.89445 1021.1234 2168.3977 2100229
117.87061 1022.2294 2170.7466 1771265
130.87556 1023.343 2173.1111 1573888
143.13034 1018.9167 2163.7117 1573888
155.83186 1018.137 2162.0559 1771265
168.74944 1018.78 2163.4216 1837058
181.63638 1019.1605 2164.2295 1771008
194.81575 1021.0234 2168.1853 1705472
207.54897 1020.462 2166.9934 1639680
220.0267 1018.7833 2163.4285 1573889
233.17265 1020.2131 2166.4646 1902593
246.2691 1021.2882 2168.7478 1705728
259.47586 1022.6915 2171.7278 1968643
272.54333 1023.4393 2173.3157 2034435
285.06158 1022.1501 2170.5781 1837057
295.77365 1014.7755 2154.9177 1902594
308.94754 1016.108 2157.7473 2297095
321.68906 1015.969 2157.4521 1770752
334.43637 1015.8583 2157.217 1507584
345.66403 1011.3097 2147.5579 1836032
359.75824 1015.1729 2155.7615 1769984
374.29138 1019.9672 2165.9426 2295552
387.01486 1019.6759 2165.324 2295296
400.2851 1020.7975 2167.7058 2951938
412.07956 1018.2029 2162.196 3805700
425.85376 1020.509 2167.093 4659719
439.31848 1021.9602 2170.1748 5382666
447.3381 1011.0225 2146.948 6830108
462.48477 1016.3518 2158.2651 6369295
478.70068 1023.6811 2173.8291 7553568
495.08905 1030.9852 2189.3398 7290141
503.28732 1021.2968 2168.7659 8145448
509.61087 1008.381 2141.3389 7948583
527.23877 1017.9177 2161.5903 6699287
541.96936 1021.541 2169.2847 6962201
554.68616 1021.2886 2168.7485 7093531
562.19501 1011.676 2148.3357 8540976
575.62347 1012.9054 2150.9465 8343852
591.80554 1018.8221 2163.511 8409389
605.59772 1020.4608 2166.9907 8278060
616.33044 1016.9833 2159.606 8672561
632.17511 1021.9106 2170.0693 8541488
641.84082 1016.8522 2159.3279 7488545
655.32172 1017.9178 2161.5906 8277803
669.04095 1019.3057 2164.5378 8277288
685.25671 1024.3733 2175.2991 8211753
692.72803 1016.4232 2158.4167 6632720
709.52924 1022.2029 2170.6902 7290140
720.86249 1020.0392 2166.0957 7948070
726.67126 1010.271 2145.3523 7751202
743.20569 1015.4938 2156.4431 8080167
755.91003 1015.3951 2156.2334 7882531
764.06622 1009.2918 2143.2729 7684899
776.51215 1008.962 2142.5725 7816740
789.37402 1009.1747 2143.0242 8277291
800.87207 1007.6644 2139.8171 7355933
816.30646 1011.0769 2147.0637 7685154
830.65704 1013.0629 2151.281 8079912
842.87988 1012.433 2149.9434 7487776
858.12323 1015.3961 2156.2356 7421983
870.05933 1014.4161 2154.1545 6895639
881.4884 1012.882 2150.8967 7619359
886.37482 1003.9807 2131.9946 7553822
905.77966 1011.5433 2148.0542 8672304
918.25134 1011.261 2147.4546 8145958
917.97699 997.14111 2117.4705 8803631
943.94788 1011.5262 2148.0178 8211751
959.35114 1014.355 2154.0249 8211752
972.73206 1014.9993 2155.3931 7356443
982.41547 1011.8187 2148.6389 8343339
997.87299 1014.5904 2154.5247 8079910
1007.3958 1011.334 2147.6096 8145703
1023.0219 1014.2097 2153.7163 7290394
1029.9288 1008.4771 2141.5427 8014117
1041.8883 1007.7708 2140.043 8277035
1057.6091 1010.6761 2146.2126 8211752
1066.1746 1006.7557 2137.8875 7751202
1071.0233 999.45917 2122.3928 8869682
1083.7601 999.60748 2122.7078 7882788
1104.7917 1007.3153 2139.0757 8474925
1119.0444 1008.7376 2142.0959 8869425
1122.1227 1000.1681 2123.8982 8606510
1131.5179 997.35645 2117.9277 8277545
1149.4033 1002.0081 2127.8057 8145703
1174.1669 1012.4897 2150.0637 8409646
1170.583 998.5647 2120.4934 7488800
1183.4219 998.79596 2120.9846 7093786
1195.052 998.01306 2119.322 7685665
1224.1239 1011.6608 2148.3037 7620132
1234.2867 1009.5614 2143.8455 6962201
1239.2661 1003.3083 2130.5669 8343598
1241.9546 995.34534 2113.657 7883303
1274.9318 1011.5732 2148.1177 8540978
1292.5668 1015.4279 2156.303 8146474
1307.9321 1017.4413 2160.5789 8146218
1312.6697 1011.2286 2147.3857 7948839
1330.3922 1015.0422 2155.4841 7816484
1332.8883 1007.2765 2138.9934 7421726
1349.1516 1009.9631 2144.6985 6566417
1358.4315 1007.4207 2139.2996 6763796
1374.283 1009.7538 2144.2539 6632209
1390.8087 1012.5349 2150.1597 7816227
1394.2885 1005.8541 2135.9727 8145449
1414.724 1011.4154 2147.7825 8145449
1430.0839 1013.2812 2151.7446 7882534
1446.6649 1015.9719 2157.4583 7421983
1462.5587 1018.1368 2162.0557 7685154
1470.3206 1014.6523 2154.6562 7553313
1493.2452 1021.6016 2169.4133 7619362
1493.7152 1013.201 2151.5742 7684899
1514.0117 1018.2772 2162.3538 7421983
1528.2979 1019.2598 2164.4404 7093275
1536.9944 1016.5292 2158.6418 7158556
1550.1182 1016.7476 2159.1057 6895384
1560.0603 1014.8926 2155.1665 6829591
1577.3914 1017.8356 2161.416 7224607
1591.7723 1018.8428 2163.5549 6172176
1608.2395 1021.1588 2168.4729 7553570
1616.0922 1018.0114 2161.7893 7092762
1640.6272 1025.3395 2177.3508 6961176
1676.913 1039.8396 2208.1426 6631698
1661.677 1022.4147 2171.1399 6039817
1681.9075 1026.9119 2180.6897 7026713
1686.533 1021.8852 2170.0156 7092249
1693.8801 1018.5712 2162.9783 6961176
1708.8927 1019.8819 2165.7615 7158555
1726.6093 1022.7748 2171.9045 7751718
1740.7402 1023.5165 2173.4797 7883304
1751.2721 1022.1467 2170.5708 7817512
1758.9919 1019.1676 2164.2446 7159325
1764.0742 1014.7145 2154.7883 7291168
1779.24 1016.0838 2157.696 8409649
1789.0746 1014.4108 2154.1433 7685669
1793.0057 1009.438 2143.5833 7883305
1814.3448 1014.2665 2153.8369 8277036
1822.7074 1011.8241 2148.6504 7882279
1836.5703 1012.4477 2149.9746 7750950
1850.214 1012.9429 2151.0261 7356707
1853.4111 1007.751 2140.001 7093534
1852.217 1000.2582 2124.0898 9330241
1896.8665 1017.4566 2160.6113 6699292
1903.1775 1013.9982 2153.2671 6764828
1917.2493 1014.6929 2154.7424 7093538
1933.1354 1016.3324 2158.2239 7554088
1936.7592 1011.5458 2148.0596 6501144
1954.1943 1013.9882 2153.2458 6435352
1953.4614 1007.033 2138.4763 6435609
1955.8717 1001.7775 2127.3159 5843215
1976.7566 1005.9911 2136.2637 5843472
1977.5594 999.99615 2123.5332 6041107
1972.5236 991.14319 2104.7336 6237460
1977.098 987.20013 2096.3604 7553318
1991.7653 988.31433 2098.7263 5053699
2016.2166 994.23944 2111.3086 6961694
0 0 0 0
0 0 0 0
0 0 0 0
0 0 0 0
0 0 0 0
0 0 0 0
0 0 0 0
0 0 0 0
0 0 0 0
0 0 0 0
-1900.8776 1034.7264 2169.98 721408
-1890.8008 1036.2509 2173.1768 721408
-1872.708 1033.3727 2167.1409 721408
-1856.4786 1031.4901 2163.1929 787200
-1840.1517 1029.5269 2159.0757 852992
-1826.9011 1029.2693 2158.5354 721408
-1812.4822 1028.3452 2156.5974 787200
-1795.1489 1025.7428 2151.1396 787200
-1772.5297 1020.0609 2139.2241 918784
-1773.2404 1027.8202 2155.4963 852992
-1752.4949 1023.1652 2145.7341 852736
-1741.7194 1024.3053 2148.1252 721152
-1731.0581 1025.53 2150.6936 786688
-1720.38 1026.7628 2153.2791 655360
-1707.4308 1026.6484 2153.0391 589824
-1694.999 1026.8459 2153.4531 524288
-1682.125 1026.7764 2153.3074 589824
-1661.7148 1022.0704 2143.4382 984064
-1655.0717 1025.825 2151.3123 984064
-1635.5438 1021.5897 2142.4302 984064
-1623.4207 1021.9496 2143.1848 589824
-1611.5426 1022.4706 2144.2776 655360
-1597.5105 1021.6223 2142.4985 720896
-1583.4384 1020.7347 2140.6372 786944
-1569.0092 1019.6006 2138.2588 786688
-1566.064 1025.9718 2151.6201 655360
-1549.8463 1023.6809 2146.8157 786688
-1540.7638 1026.1038 2151.8967 524288
-1526.5171 1025.0992 2149.7903 720896
-1512.0101 1023.9016 2147.2786 786432
-1501.6729 1025.5312 2150.696 721152
-1479.5182 1019.0492 2137.1023 458752
-1463.1143 1016.4504 2131.6523 524288
-1460.0742 1023.1714 2145.7473 720896
-1435.5592 1014.8293 2128.2527 918016
-1433.5907 1022.4191 2144.1697 524288
-1422.2179 1023.3779 2146.1802 589824
-1401.0526 1017.244 2133.3164 655360
-1395.8744 1022.7114 2144.7827 721152
-1382.3937 1022.1407 2143.5857 786944
-1368.4971 1021.2489 2141.7153 983552
-1356.6177 1021.8599 2142.9968 983296
-1341.371 1019.9221 2138.9329 1180672
-1330.5184 1021.3202 2141.865 917760
-1317.8704 1021.3539 2141.9355 983552
-1302.422 1019.1967 2137.4116 1246720
-1292.4476 1021.3229 2141.8708 1378049
-1280.2896 1021.7487 2142.7634 1312513
-1264.5851 1019.3242 2137.6792 1180928
-1255.3589 1022.1255 2143.5537 917760
-1242.536 1022.0256 2143.3442 852224
-1228.5193 1020.9314 2141.0496 786432
-1218.0895 1022.8265 2145.0239 589824
-1204.4512 1022.0388 2143.3721 917760
-1191.0697 1021.4547 2142.147 917760
-1178.7235 1021.7553 2142.7776 983552
-1166.4927 1022.1637 2143.634 655360
-1152.8398 1021.3213 2141.8672 786432
-1142.0557 1023.0297 2145.45 786432
-1127.7234 1021.5626 2142.3733 786432
-1115.8892 1022.3506 2144.0259 917760
-1101.2095 1020.52 2140.1868 917760
-1091.3588 1023.1739 2145.7524 918016
-1078.7773 1023.3 2146.0168 786432
-1065.2592 1022.53 2144.4021 720896
-1050.7832 1020.811 2140.7971 655360
-1037.3165 1020.0424 2139.1853 589824
-1024.0966 1019.5004 2138.0486 851968
-1011.1989 1019.2698 2137.5649 917760
-996.50006 1017.1945 2133.2129 720896
-983.16187 1016.4729 2131.6995 720896
-970.02191 1015.9401 2130.582 983552
-954.71216 1013.0907 2124.6064 983552
-938.34772 1009.031 2116.0925 1444355
-929.68256 1013.2526 2124.946 1180928
-919.06671 1015.4351 2129.5232 1246721
-905.02777 1013.8437 2126.1855 1049344
-888.36389 1009.2252 2116.4998 917760
-879.44598 1013.4002 2125.2556 1049344
-867.1532 1013.7512 2125.9917 655360
-853.51282 1012.5139 2123.3967 852224
-841.3927 1013.07 2124.563 983552
-827.54443 1011.5306 2121.3347 983552
-814.03009 1010.3582 2118.876 983552
-799.87939 1008.3469 2114.658 1049344
-786.2796 1006.977 2111.7852 1049088
-776.42126 1010.4322 2119.031 1180672
-763.31482 1009.7041 2117.5042 917504
-749.40778 1007.8751 2113.6685 786432
-737.48438 1008.697 2115.3921 786432
-724.9129 1008.6456 2115.2844 983040
-712.6861 1009.0804 2116.1963 786432
-700.35767 1009.3844 2116.8337 917504
-685.69 1006.2665 2110.2952 851968
-673.71979 1007.0649 2111.9695 1246208
-660.56726 1006.0928 2109.9309 655360
-649.1684 1007.8056 2113.5229 983040
-637.1842 1008.6594 2115.3132 851968
-625.17114 1009.5007 2117.0776 851968
-612.32312 1009.0005 2116.0288 851968
-598.97522 1007.6386 2113.1726 720896
-584.62402 1004.4948 2106.5793 1048832
-573.11371 1006.2012 2110.1582 786432
-561.65485 1008.0762 2114.0903 1180928
-549.12408 1008.069 2114.0752 1312512
-537.11652 1009.0443 2116.1206 1312256
-524.64935 1009.1823 2116.4099 1311744
-512.57654 1010.1041 2118.343 1246208
-499.47543 1008.9949 2116.0168 1180416
-487.47766 1010.1148 2118.3655 1312000
-474.79501 1009.8374 2117.7837 1246208
-462.21045 1009.759 2117.6194 1377536
-448.42139 1006.9716 2111.7737 1311744
-435.68353 1006.4523 2110.6848 1114624
-423.47485 1007.1609 2112.1709 1048832
-411.13773 1007.5981 2113.0876 1180416
-399.05963 1008.7173 2115.4348 655360
-385.77161 1006.7516 2111.3125 786432
-374.009 1008.7685 2115.5422 1048832
-362.15479 1010.6696 2119.5291 917504
-349.15405 1009.3928 2116.8513 917504
-335.5791 1006.2988 2110.3628 1180416
-323.59442 1007.9187 2113.76 851968
-311.62656 1009.7235 2117.5449 917760
-298.40353 1007.4423 2112.7607 851968
-285.85532 1007.3392 2112.5447 1246720
-274.11838 1010.2164 2118.5786 1049344
-261.48697 1009.9153 2117.947 1115136
-247.90721 1005.7363 2109.1831 1246720
-235.70894 1007.0158 2111.8665 1312256
-223.39377 1007.9114 2113.7446 1246720
-210.84396 1007.7917 2113.4937 1377536
-198.51364 1008.7724 2115.5503 1180416
-185.6906 1007.2126 2112.2793 1180416
-173.30038 1007.9448 2113.8147 917504
-161.06227 1009.7445 2117.5891 1115136
-148.8306 1011.8923 2122.0933 1443585
-135.83702 1008.7783 2115.5627 1114624
-123.22421 1008.1464 2114.2373 1311744
-110.62943 1007.5354 2112.9561 1706242
-98.423004 1010.757 2119.7122 1640449
-85.907013 1011.2766 2120.802 1377280
-73.594299 1014.7774 2128.1438 1969413
-60.843719 1012.4401 2123.2419 1640448
-48.433643 1016.0269 2130.7642 1508864
-35.817757 1016.3034 2131.344 1508865
-23.156658 1014.8997 2128.4001 917504
-10.578671 1018.1372 2135.1897 1376512
2.072757 1017.9267 2134.7483 1508096
14.711983 1017.2341 2133.2959 1705472
27.352562 1017.2322 2133.2917 1903108
40.037407 1018.3572 2135.6511 1705729
52.780693 1020.0714 2139.2461 1705729
65.571533 1021.8628 2143.0029 1705729
78.179375 1020.6837 2140.53 1705729
90.862869 1020.6837 2140.53 1705472
103.21401 1017.4075 2133.6594 1573888
115.72851 1016.2809 2131.2969 1573888
128.42691 1016.832 2132.4526 1507840
141.44547 1019.5923 2138.2412 1573632
153.84325 1017.7918 2134.4653 1507840
167.06503 1021.302 2141.8269 1968643
178.86018 1016.2112 2131.1506 1902850
191.78691 1017.7969 2134.4761 1705729
204.67043 1018.9713 2136.939 1442304
217.56245 1020.0487 2139.1985 1837057
230.02237 1019.0931 2137.1946 1508096
242.61105 1018.7779 2136.5334 1837058
254.94357 1017.4717 2133.7942 1573888
267.92731 1018.7651 2136.5066 1639424
280.50452 1018.4657 2135.8787 1771264
293.3887 1019.2586 2137.5415 1902850
305.65192 1017.918 2134.73 1771264
318.04999 1017.1151 2133.0461 1508352
330.49359 1016.5137 2131.7849 1705216
344.70087 1021.1813 2141.5737 1967872
355.63425 1016.163 2131.0496 1704448
368.28305 1016.2223 2131.1738 1835776
381.01035 1016.487 2131.729 1901568
395.19632 1020.5015 2140.1479 1572864
406.25632 1016.4453 2131.6414 2229504
417.82553 1013.8691 2126.2388 2097921
429.2626 1011.1326 2120.5 3280384
440.94159 1009.1053 2116.2485 5515283
455.06094 1012.6206 2123.6206 6896416
465.83752 1008.7085 2115.4163 6764571
483.75644 1020.0618 2139.2258 7684902
496.52393 1020.2502 2139.6211 5777159
505.80728 1013.4483 2125.3564 7487520
518.4278 1013.501 2125.4668 8145449
534.39478 1019.938 2138.9666 7553312
545.36688 1016.7648 2132.3115 7290396
554.90045 1011.1138 2120.4607 7093275
564.78241 1006.3339 2110.4365 8277802
579.03302 1009.3766 2116.8174 7883045
597.49127 1019.4695 2137.9839 8080680
606.83179 1013.9092 2126.323 7948580
618.67474 1012.6711 2123.7266 8803633
636.92224 1021.7566 2142.7803 7750945
650.22174 1022.7045 2144.7681 7948581
659.78198 1017.8475 2134.5823 8145703
673.41315 1019.3353 2137.7024 7488029
681.38531 1012.3604 2123.075 7948325
702.32056 1024.549 2148.6362 8014118
709.97339 1017.2721 2133.3755 8277289
718.12097 1010.9462 2120.1091 7750944
728.37579 1007.7534 2113.4133 8409131
745.34991 1013.808 2126.1108 8080166
754.24701 1008.8578 2115.7292 7487520
770.66608 1013.9659 2126.4419 7224604
773.44818 1001.2563 2099.7878 8408621
789.15302 1005.4133 2108.5056 8737842
800.70477 1004.2317 2106.0278 7882534
815.68134 1007.316 2112.4961 7750691
823.46899 1001.5634 2100.4319 7421982
842.98456 1010.0339 2118.196 7619361
855.79193 1010.3365 2118.8306 8408621
870.82056 1013.2147 2124.8665 7290394
877.89185 1006.8842 2111.5906 7488029
890.77661 1007.3058 2112.4746 7421980
904.18372 1008.2981 2114.5557 7158808
913.79865 1005.0923 2107.8325 6961685
925.03528 1003.7325 2104.981 8672304
937.66461 1003.9 2105.3323 7619359
950.13214 1003.8922 2105.3157 8014374
964.112 1005.4618 2108.6074 8277545
976.24762 1005.0923 2107.8328 6961430
989.95544 1006.3307 2110.4297 8343083
1001.8088 1005.6763 2109.0574 8342827
1012.0793 1003.4689 2104.428 7816739
1025.4398 1004.3414 2106.2578 8540207
1046.962 1013.0907 2124.6064 7948325
1052.9135 1006.7441 2111.2966 8145704
1064.7117 1006.071 2109.8853 8737587
1081.4341 1010.0129 2118.1519 7948327
1090.3188 1006.6282 2111.0537 6830101
1106.1235 1009.6366 2117.3625 8212010
1118.0004 1009.0325 2116.0957 8409388
1128.5941 1007.2965 2112.4551 8606510
1139.1304 1005.548 2108.7881 8145960
1157.582 1010.7485 2119.6946 7750945
1162.645 1004.2727 2106.1138 6764050
1176.1633 1005.1605 2107.9756 7751202
1188.9318 1005.3954 2108.4683 7488029
1198.1056 1002.6174 2102.6423 7225117
1215.6654 1006.842 2111.502 7948840
1224.3126 1003.6741 2104.8584 7356703
1238.0879 1004.7316 2107.0762 7817510
1250.5731 1004.7316 2107.0762 7751715
1271.3916 1011.3604 2120.9778 8540461
1286.7959 1013.5948 2125.6638 8343338
1298.7643 1013.1057 2124.6379 7158811
1303.9537 1007.3889 2112.6489 6566418
1312.7291 1004.5247 2106.6423 7948069
1336.4349 1013.0319 2124.4832 6171918
1351.8623 1015.1638 2128.9541 7224604
1353.6588 1007.1149 2112.0745 7158554
1368.0682 1008.5116 2115.0034 6500881
1381.7614 1009.3596 2116.7817 6698003
1392.4137 1007.9911 2113.9119 7816484
1408.9547 1010.8718 2119.9531 7158811
1420.8687 1010.4113 2118.9873 8277292
1439.7501 1014.8702 2128.3384 7685155
1457.8955 1018.7372 2136.4482 7750692
1469.4442 1017.9679 2134.8347 7619362
1483.6528 1019.0386 2137.0801 7750949
1488.0404 1013.4028 2125.261 7421727
1490.1443 1006.3193 2110.4058 7290141
1518.1147 1016.6764 2132.1262 6764054
1531.7594 1017.3478 2133.5344 7882534
1544.2496 1017.2479 2133.3247 7026969
1565.4041 1022.8105 2144.9905 7356190
1573.4895 1019.8134 2138.7048 7224604
1582.4344 1017.4166 2133.6785 7092762
1601.6143 1021.5861 2142.4226 7684899
1615.2776 1022.1992 2143.7083 7487519
1612.887 1012.7222 2123.8337 7224605
1641.694 1022.8294 2145.03 6764054
1657.796 1024.9265 2149.428 6566162
1678.4355 1029.7754 2159.5969 7223835
1673.7113 1019.1071 2137.2239 7158299
1684.3552 1017.8864 2134.6638 7158812
1688.9921 1013.0808 2124.5857 6698004
1719.4951 1023.7465 2146.9531 7291167
1732.592 1023.9683 2147.4185 7488547
1741.7 1021.8465 2142.9688 8409392
1747.6133 1017.8948 2134.6814 8277806
1758.0355 1016.6072 2131.9812 7554083
1766.8929 1014.4396 2127.4353 7685669
1778.61 1013.933 2126.3728 7883048
1788.8259 1012.5837 2123.5432 7751719
1795.0863 1009.0298 2116.0901 7356961
1821.8212 1016.9542 2132.7087 7422753
1824.0284 1011.1722 2120.583 6764569
1831.4224 1008.325 2114.6121 7948586
1843.8633 1008.2763 2114.51 7816487
1851.543 1005.6423 2108.9861 7488038
1885.9575 1017.467 2133.7842 6830108
1896.068 1016.1094 2130.9373 6896158
1905.2527 1014.2772 2127.0947 5909265
1910.5504 1010.4132 2118.9912 6632731
1937.6761 1018.0682 2135.0452 6698781
1938.6829 1011.99 2122.2981 9330500
1932.5862 1002.306 2101.9893 7290661
1951.2792 1005.5204 2108.7305 6435608
1966.5175 1006.9252 2111.6763 5975057
1957.1992 995.81763 2088.3821 5909265
1972.4338 997.26367 2091.4148 6896158
1984.4796 997.08954 2091.0496 7619624
1976.3043 986.82056 2069.5139 8146224
0 0 0 0
0 0 0 0
0 0 0 0
0 0 0 0
0 0 0 0
0 0 0 0
0 0 0 0
0 0 0 0
0 0 0 0
0 0 0 0
-1870.6053 1030.9014 2135.4224 852993
-1849.5551 1026.2422 2125.7712 2037265
-1828.9236 1021.753 2116.4724 655616
-1823.9548 1026.0126 2125.2957 655872
-1808.1838 1024.2126 2121.5671 918784
-1793.4415 1022.9741 2119.0017 918784
-1779.447 1022.1478 2117.29 984576
-1761.3684 1018.9471 2110.6602 787200
-1753.9585 1021.9165 2116.811 787200
-1748.8201 1026.2617 2125.8118 852992
-1733.7268 1024.7859 2122.7546 852992
-1721.722 1025.1273 2123.4619 852992
-1709.5515 1025.3743 2123.9734 787200
-1692.636 1022.7578 2118.5537 721664
-1684.5276 1025.4637 2124.1587 852480
-1667.2384 1022.5793 2118.1841 720896
-1654.3071 1022.3444 2117.6973 852480
-1632.5383 1016.6027 2105.8037 918272
-1634.6663 1025.7677 2124.7886 852480
-1617.4512 1022.8431 2118.7305 786688
-1602.2527 1021.158 2115.2397 786688
-1589.0649 1020.7377 2114.3694 786688
-1581.0447 1023.6566 2120.4155 852480
-1566.8964 1022.6229 2118.2742 720896
-1555.7775 1023.5656 2120.2268 786688
-1543.4929 1023.7503 2120.6096 852480
-1530.7761 1023.649 2120.3999 852480
-1518.5598 1023.8837 2120.8857 852480
-1505.844 1023.7825 2120.6763 720896
-1492.6814 1023.3734 2119.8289 918528
-1480.1306 1023.3804 2119.8433 458752
-1461.2574 1018.9787 2110.7256 589824
-1455.2008 1023.5154 2120.123 786688
-1440.3129 1021.8657 2116.7058 852480
-1424.1393 1019.2667 2111.3223 786688
-1409.7133 1017.8836 2108.4573 458752
-1400.6514 1020.3835 2113.6355 852480
-1388.8986 1020.9505 2114.8101 720896
-1376.0259 1020.6971 2114.2852 852480
-1362.205 1019.7292 2112.2803 918016
-1348.8292 1019.0798 2110.9351 851968
-1338.4685 1020.7173 2114.3271 852224
-1324.2599 1019.4239 2111.6477 918016
-1312.7382 1020.1937 2113.2424 917760
-1299.0605 1019.2869 2111.364 917760
-1287.3164 1019.8941 2112.6218 917760
-1267.283 1013.8815 2100.1672 1049344
-1259.8135 1017.9011 2108.4934 1049344
-1247.6938 1018.2064 2109.1257 1115136
-1231.3285 1015.0179 2102.5212 1049344
-1223.885 1019.194 2111.1716 983296
-1210.7699 1018.6845 2110.1162 720896
-1195.6771 1016.4831 2105.5562 918016
-1189.2296 1021.6624 2116.2847 917760
-1169.9584 1015.8179 2104.1782 917760
-1164.0372 1021.5635 2116.0798 917760
-1150.5433 1020.7159 2114.3242 589824
-1139.688 1022.2165 2117.4324 655360
-1127.3419 1022.3983 2117.8091 786432
-1113.7173 1021.4117 2115.7654 720896
-1099.896 1020.2203 2113.2974 851968
-1090.0502 1022.7313 2118.4988 851968
-1076.0419 1021.35 2115.6375 917760
-1064.05 1021.8724 2116.7197 917760
-1050.6782 1021.0665 2115.0503 917760
-1038.0431 1020.9656 2114.8413 852224
-1024.3683 1019.8271 2112.4832 917760
-1009.8322 1017.7924 2108.2683 983552
-997.12567 1017.5737 2107.8154 1115136
-984.36176 1017.2905 2107.2285 917760
-970.94391 1016.3152 2105.2083 851968
-959.51361 1017.4221 2107.5012 1049344
-946.97028 1017.3625 2107.3777 851968
-932.45129 1015.1503 2102.7954 1049600
-920.24384 1015.4288 2103.3723 786432
-906.90662 1014.4512 2101.3474 786688
-892.28058 1011.9849 2096.2385 917760
-879.96826 1012.11 2096.4976 786432
-868.51678 1013.2429 2098.8442 983552
-855.35596 1012.3856 2097.0686 983552
-842.12689 1011.4211 2095.0706 917760
-829.32141 1010.944 2094.0823 917760
-816.48273 1010.4113 2092.979 1246464
-801.28131 1006.8932 2085.6917 1049344
-789.664 1007.8394 2087.6514 917760
-777.8396 1008.5469 2089.1172 851968
-765.60376 1008.7355 2089.5076 720896
-752.33588 1007.5479 2087.0476 917504
-740.3938 1008.1259 2088.2449 1180928
-724.89886 1003.8038 2079.292 1114880
-714.33643 1006.2805 2084.4224 1180928
-701.948 1006.227 2084.3115 786432
-691.24622 1008.6325 2089.2944 1641479
-674.75488 1002.5239 2076.6409 851968
-664.8075 1006.0917 2084.0312 851968
-651.01447 1003.8646 2079.418 917504
-639.86438 1005.7056 2083.2314 786432
-626.6485 1004.3082 2080.3369 983040
-616.20349 1007.3846 2086.7095 983296
-602.72864 1005.5324 2082.8728 917504
-590.56323 1005.8328 2083.4951 851968
-578.50317 1006.3295 2084.5239 720896
-566.21545 1006.4432 2084.7593 1246464
-554.72449 1008.0096 2088.0042 1246208
-541.69257 1006.7836 2085.4646 1312000
-529.94446 1007.9421 2087.8643 1509377
-518.87628 1010.4801 2093.1216 1048832
-505.14233 1007.8239 2087.6194 1114624
-493.45151 1009.213 2090.4968 1048832
-479.94553 1006.8655 2085.6343 1246208
-467.72159 1007.1547 2086.2332 1246465
-455.61127 1007.7108 2087.3853 1114624
-443.61871 1008.5657 2089.156 917504
-430.53732 1006.9232 2085.7537 1246208
-418.78351 1008.3803 2088.772 1180416
-406.31284 1008.1475 2088.2896 1443328
-393.6709 1007.4616 2086.8689 1049088
-380.86594 1006.3005 2084.4639 1048832
-369.01215 1007.6591 2087.2781 983040
-356.53918 1007.3624 2086.6636 1114624
-344.59567 1008.5941 2089.2148 1048832
-331.15863 1005.3832 2082.5637 1180416
-317.21445 1000.3245 2072.0852 1180416
-307.21231 1007.7902 2087.5496 852224
-294.24115 1005.7339 2083.29 917760
-283.26917 1010.63 2093.4321 852480
-269.58694 1005.8625 2083.5564 852224
-257.98462 1008.7701 2089.5793 918016
-244.92212 1005.9733 2083.7861 917760
-232.81995 1007.0335 2085.9822 852480
-220.62872 1007.8057 2087.5818 1049344
-208.45526 1008.7556 2089.5493 983040
-195.29604 1004.754 2081.2603 1377792
-184.08438 1010.9081 2094.0081 1114624
-171.54514 1010.1343 2092.4053 720896
-158.82642 1008.1009 2088.1931 917504
-146.67744 1009.6456 2091.3928 1246208
-134.07651 1008.0772 2088.144 1312000
-121.28831 1004.6389 2081.022 1312000
-109.21492 1007.0131 2085.9399 1245952
-97.071381 1009.264 2090.6025 1246208
-84.717194 1009.6629 2091.4287 1575169
-72.395386 1010.6506 2093.4746 983296
-60.0098 1010.9722 2094.1409 1245696
-47.649723 1012.0032 2096.2766 1574656
-35.359024 1015.7546 2104.0471 1311488
-22.861256 1014.4037 2101.2488 1245696
-10.422013 1015.5243 2103.5701 1114112
2.0442715 1016.4129 2105.4109 917504
14.51169 1015.8539 2104.2529 1377280
26.963644 1015.2292 2102.959 1443072
39.497768 1017.1155 2106.8662 1968901
52.07254 1018.8911 2110.5439 1639937
64.535164 1018.2095 2109.1323 1837314
77.079338 1018.827 2110.4114 1639936
89.533058 1018.2435 2109.2026 1574144
102.2094 1020.0245 2112.8921 1508096
114.35573 1016.7047 2106.0151 1902852
126.9149 1017.3475 2107.3467 1639680
139.58046 1018.6516 2110.0479 1508096
151.83353 1016.9783 2106.5818 1442560
164.26886 1016.6873 2105.979 1442560
176.66101 1016.1891 2104.947 1508352
189.39505 1017.5934 2107.8562 1574144
202.14459 1018.902 2110.5669 1508352
214.60567 1018.6891 2110.1257 1574401
226.93723 1017.9186 2108.5298 1573888
239.38629 1017.7281 2108.135 2034693
251.36382 1015.6511 2103.8328 1705472
263.96088 1016.1555 2104.8774 1310976
276.31531 1015.7224 2103.9805 1837059
288.90436 1016.1519 2104.8701 1771009
300.93607 1014.6667 2101.7937 2100228
315.47739 1021.4249 2115.7927 1705472
326.3414 1016.2155 2105.002 1442560
339.12695 1017.1531 2106.9438 2165250
351.60715 1017.1406 2106.9182 2230272
364.89059 1019.373 2111.5425 2033152
377.16788 1018.7397 2110.2307 2033408
390.38031 1020.592 2114.0674 1572864
400.35031 1014.1157 2100.6523 1310720
412.62863 1013.7007 2099.7927 1770240
424.35397 1011.9914 2096.252 1966336
437.49536 1013.6602 2099.7087 2622976
449.82016 1013.397 2099.1636 4068617
456.60217 1000.9967 2073.4775 6106642
472.07275 1007.7949 2087.5593 6830363
489.15332 1017.5952 2107.8596 7684899
501.71542 1017.7415 2108.1628 8145449
517.44092 1024.142 2121.4209 7487776
532.04303 1028.0682 2129.5537 8014376
541.35376 1021.8246 2116.6208 7816484
552.86932 1019.9313 2112.699 7619360
564.37476 1018.1037 2108.9131 7224347
573.19629 1011.6185 2095.4795 7093017
591.20587 1021.2802 2115.4929 8013863
602.61475 1019.375 2111.5464 8013861
613.38324 1016.4861 2105.5623 7553053
627.28644 1018.8035 2110.3628 7487517
639.19202 1017.8495 2108.3865 7619103
648.14301 1012.3173 2096.927 7684898
663.24213 1016.415 2105.4153 7553569
676.04248 1016.9038 2106.4277 7224603
689.12024 1017.7847 2108.2522 7882277
702.64282 1019.2792 2111.3481 6829589
710.21417 1012.2395 2096.7659 7882277
724.42682 1014.7448 2101.9553 7224603
734.88818 1011.9995 2096.2688 7685155
750.32611 1016.0846 2104.7307 7487776
756.06287 1007.1138 2086.1484 7816741
769.29028 1008.249 2088.5 7619105
780.5824 1006.8519 2085.606 7158811
788.23962 1000.8829 2073.2417 7948327
809.37598 1011.9499 2096.166 8212012
819.30554 1008.8825 2089.8123 9988423
832.39746 1009.7424 2091.5935 7093531
844.27393 1009.1244 2090.3132 7750948
859.42841 1012.3856 2097.0686 8211242
870.3653 1010.6566 2093.4871 7421726
883.00165 1010.9218 2094.0364 7553569
897.31781 1013.076 2098.4988 6369551
907.70801 1010.7996 2093.7834 6961431
915.11279 1005.3049 2082.4016 7750947
932.66357 1010.9542 2094.1035 6830100
945.9137 1011.8546 2095.9685 7488287
959.64288 1013.2374 2098.833 6961941
970.72375 1011.8245 2095.9062 7750692
981.52618 1010.1606 2092.4597 7684898
985.14319 1001.2356 2073.9722 8211242
1002.5007 1006.3232 2084.511 8737585
1006.9388 998.47626 2068.2566 8408621
1032.5564 1011.5671 2095.373 7355933
1039.0094 1005.7947 2083.416 7948326
1056.6212 1010.8333 2093.853 7619361
1062.5358 1004.6943 2081.1367 8014120
1086.6517 1015.7093 2103.9534 8014373
1092.924 1009.9849 2092.0957 7290393
1102.9929 1007.858 2087.6902 8539948
1121.8096 1013.6829 2099.7559 8079654
1134.993 1014.3456 2101.1287 8474411
1143.1404 1010.5422 2093.25 7553566
1159.546 1014.0421 2100.5 8211752
1172.1093 1014.1434 2100.7097 6895893
1182.6355 1012.4984 2097.3022 7619104
1194.8479 1012.3163 2096.925 7225373
1203.1083 1008.8242 2089.6914 7093788
1208.8298 1003.296 2078.2402 7949097
1230.9291 1011.3352 2094.8928 7356703
1223.5435 995.2309 2061.5342 6896409
1235.4703 994.99854 2061.0527 7816998
1262.4532 1006.7776 2085.4521 7225374
1287.9462 1017.1515 2106.9407 6303245
1272.4803 995.28967 2061.656 6961432
1302.196 1008.8471 2089.739 6632210
1308.5079 1004.1884 2080.0886 7224604
1316.0636 1000.562 2072.5771 7421982
1330.2598 1002.0048 2075.5657 7158811
1335.9954 997.10657 2065.4194 8606257
1362.1565 1007.4034 2086.7483 8079913
1359.7703 996.5921 2064.3538 7553312
1386.5411 1007.1528 2086.2292 7553569
1395.4313 1004.6533 2081.0518 7355933
1419.4432 1012.9894 2098.3193 7553569
1436.6646 1016.3766 2105.3357 7816484
1454.2878 1019.9876 2112.8154 8606000
1456.0613 1012.5151 2097.3369 8409131
1470.6793 1014.0255 2100.4653 8409131
1482.3342 1013.4844 2099.3447 8277035
1495.4424 1013.9379 2100.2839 8277035
1508.1346 1014.1041 2100.6282 7750691
1526.1488 1017.8169 2108.3191 7487520
1538.8917 1017.9825 2108.6621 7355934
1558.1558 1022.4243 2117.863 7487776
1562.985 1017.3992 2107.4539 6829590
1578.5403 1019.3802 2111.5574 7158555
1603.9038 1027.6144 2128.6135 6764310
1604.3771 1019.8972 2112.6282 7751719
1613.707 1017.8861 2108.4624 7356190
1627.7649 1018.8653 2110.4907 6304016
1647.5922 1023.4132 2119.9114 6961433
1658.3038 1022.2731 2117.5496 7948071
1671.6334 1022.7517 2118.541 7553569
1688.876 1025.5994 2124.4397 7093018
1701.4452 1025.5879 2124.416 7553570
1713.3347 1025.1699 2123.5503 7224605
1713.7794 1017.9601 2108.6157 7356961
1722.2629 1015.595 2103.7166 7488547
1732.1021 1014.0574 2100.5315 7422497
1744.5238 1014.043 2100.5017 7093788
1752.7397 1011.6013 2095.4441 7422754
1758.8131 1007.9662 2087.9143 7159581
1780.1746 1013.0823 2098.5117 7422753
1790.0323 1011.626 2095.4951 7751718
1801.0328 1010.8313 2093.8489 7488292
1801.5233 1004.1889 2080.0898 7422243
1830.3351 1013.3162 2098.9961 8540981
1826.3512 1004.2862 2080.2915 7685672
1857.2831 1014.4485 2101.3418 7488037
1867.7778 1013.387 2099.1428 5646091
1871.1978 1008.5263 2089.0745 6895901
1895.3562 1014.8336 2102.1394 7751210
1916.275 1019.3353 2111.4644 7948845
1909.0544 1008.9073 2089.8635 6961953
1897.6852 996.43536 2064.0291 7159331
1923.5881 1003.5686 2078.8049 6764574
1925.4237 998.1347 2067.5491 3936517
1921.9231 990.02075 2050.7417 7159075
1964.0793 1005.3796 2082.5564 6501402
1949.6626 991.7688 2054.3628 7488296
1983.7633 1002.854 2077.3247 7422245
0 0 0 0
0 0 0 0
0 0 0 0
0 0 0 0
0 0 0 0
0 0 0 0
0 0 0 0
0 0 0 0
0 0 0 0
0 0 0 0
-1832.1875 1022.1223 2091.5657 787200
-1835.5243 1030.9575 2109.645 787200
-1814.3151 1026.0326 2099.5671 787200
-1803.0576 1026.7064 2100.946 721408
-1790.9945 1026.9276 2101.3987 787200
-1771.8021 1023.0356 2093.4343 852992
-1755.5186 1020.78 2088.8186 787200
-1746.7711 1022.9055 2093.1682 787200
-1738.848 1025.5476 2098.5747 787200
-1719.611 1021.5068 2090.3062 787200
-1705.3882 1020.4078 2088.0571 721408
-1694.615 1021.3718 2090.0298 655616
-1681.4247 1020.8824 2089.0283 655616
-1668.0885 1020.2964 2087.8293 852992
-1651.8135 1017.8909 2082.9067 1247235
-1640.8717 1018.7602 2084.6858 786688
-1630.7133 1020.1329 2087.4946 918272
-1614.9117 1017.9693 2083.0671 852480
-1606.5184 1020.4782 2088.2012 655360
-1597.7144 1022.763 2092.8767 786688
-1585.3491 1022.7863 2092.9243 852480
-1570.7444 1021.3535 2089.9924 720896
-1559.9368 1022.3868 2092.1067 852480
-1546.4958 1021.6968 2090.6948 852480
-1532.1633 1020.4019 2088.0452 786944
-1521.9792 1021.8712 2091.0518 786688
-1508.2192 1020.9441 2089.1545 786688
-1495.9893 1021.0458 2089.3628 918272
-1478.0874 1017.2459 2081.5869 984064
-1471.3387 1021.1223 2089.5193 852480
-1460.0522 1021.8884 2091.0869 918272
-1447.9714 1022.1071 2091.5344 721152
-1429.5219 1017.795 2082.7107 655616
-1417.2329 1017.8325 2082.7871 720896
-1408.1371 1020.1837 2087.5986 786688
-1395.3982 1019.914 2087.0466 918272
-1377.4945 1015.8307 2078.6909 786944
-1370.1992 1019.5674 2086.3374 655360
-1357.3798 1019.2242 2085.6353 984064
-1341.0525 1016.2166 2079.4807 918272
-1325.6302 1013.8454 2074.6284 918272
