# .PCD v0.7 - Point Cloud Data file format
VERSION 0.7
FIELDS x y z rgb
SIZE 4 4 4 4
TYPE F F F U
COUNT 1 1 1 1
WIDTH 1326
HEIGHT 1
VIEWPOINT 0 0 0 1 0 0 0
POINTS 1326
DATA ascii
-2679.5178 1472.8596 4043.4932 6643275
-2639.2349 1463.806 4018.6382 6577482
-2613.532 1462.7476 4015.7324 6511690
-2589.4668 1462.595 4015.3132 6577483
-2560.0933 1459.4132 4006.5786 6643276
-2534.3145 1458.2405 4003.3589 6445897
-2516.7573 1461.8209 4013.1885 6380104
-2484.9211 1457.0969 4000.2195 6445897
-2461.426 1457.22 4000.5574 6445899
-2440.2571 1458.736 4004.719 6380105
-2413.0425 1456.6322 3998.9436 6445897
-2392.3232 1458.4465 4003.9246 6445641
-2362.5725 1454.7361 3993.7383 6380105
-2342.2087 1456.7889 3999.374 6380104
-2323.1892 1459.7286 4007.4443 6314569
-2299.3909 1459.6952 4007.3525 6248520
-2281.6162 1463.525 4017.8667 6248775
-2259.5703 1464.667 4021.0017 6249032
-2235.3928 1464.4366 4020.3694 6314825
-2189.791 1450.0149 3980.7769 6314570
-2173.1641 1454.6743 3993.5686 6248777
-2152.1033 1456.4355 3998.4038 6117191
-2125.3604 1454.348 3992.6729 6577742
-2107.1035 1458.0857 4002.9341 6577742
-2089.605 1462.4391 4014.8855 6511949
-2063.4785 1460.785 4010.3445 6577485
-2044.4116 1464.1482 4019.5776 6445899
-2012.3612 1458.1825 4003.1997 6314570
-1988.6405 1458.1825 4003.1997 6445899
-1951.5649 1448.2716 3975.991 6511949
-1943.3871 1459.8258 4007.7112 6248777
-1911.524 1453.6539 3990.7673 6248777
-1879.2668 1447.0242 3972.5664 6182984
-1860.0612 1450.4031 3981.8425 6116934
-1848.4257 1459.8478 4007.7715 6314570
-1804.8527 1443.9863 3964.2263 6380363
-1774.3654 1438.314 3948.6541 6446156
-1751.3656 1438.6405 3949.5503 6446156
-1739.8629 1448.548 3976.7498 6248777
-1702.4825 1436.8868 3944.7361 5722433
-1678.4825 1436.3514 3943.2661 6511949
-1644.9932 1427.5654 3919.1458 6511949
-1643.1365 1446.3728 3970.7783 6511949
-1612.3079 1439.8536 3952.8809 6577742
-1593.2548 1443.8131 3963.7507 6314570
-1571.1378 1445.073 3967.2097 6511949
-1545.6027 1443.1796 3962.0115 6577742
-1530.1321 1450.7703 3982.8506 6577742
-1514.2168 1458.1705 4003.1667 6511949
-1477.3335 1445.2931 3967.814 6511949
-1470.5699 1461.9421 4013.5212 6643535
-1443.6218 1458.7424 4004.7371 6775121
-1417.3773 1456.1591 3997.6445 6709328
-1384.9108 1446.9866 3972.4631 6775121
-1367.5194 1453.5201 3990.4001 6906707
-1334.2742 1443.1364 3961.8931 6775121
-1326.9507 1460.9193 4010.7134 6709330
-1302.8571 1460.5513 4009.7026 6511951
-1283.2267 1465.2654 4022.6448 6446157
-1254.3676 1459.4211 4006.6001 6380365
-1235.6422 1465.3689 4022.9287 6446158
-1214.0342 1468.0648 4030.3301 6511951
-1191.9642 1470.2991 4036.4639 6577744
-1171.7917 1475.0134 4049.4065 6643537
-1153.4724 1482.3063 4069.4275 6643537
-1123.756 1474.9518 4049.2371 6643280
-1097.2319 1471.5576 4039.9187 6577744
-1065.9102 1461.4343 4012.127 6511951
-1047.1544 1468.4706 4031.4441 6380365
-1018.6054 1461.7817 4013.0808 6248779
-994.05139 1460.6431 4009.9548 6446157
-971.86835 1463.0179 4016.4746 6446157
-944.51727 1457.5367 4001.427 6380365
-923.04376 1461.077 4011.1462 6248779
-896.33856 1456.3043 3998.0435 6182986
-879.99066 1468.5571 4031.6814 6248779
-851.65826 1460.9353 4010.7573 6446158
-823.23871 1452.7224 3988.2102 6182986
-809.1123 1469.9916 4035.6196 6182986
-771.0108 1443.4283 3962.6948 6182986
-747.33014 1443.042 3961.634 6117193
-724.74658 1444.8177 3966.509 6248779
-696.9079 1435.885 3941.9856 6182986
-672.70215 1434.0774 3937.0229 6182986
-647.00128 1428.8381 3922.6396 6314572
-625.56561 1432.9786 3934.0068 6446158
-603.78229 1436.6125 3943.9829 6248779
-577.87903 1430.3416 3926.7671 6248779
-562.0874 1449.6222 3979.6987 6248779
-554.23334 1491.9589 4095.927 6182986
-512.60516 1443.092 3961.7712 6182986
-484.55814 1429.6033 3924.7402 6248779
-465.72604 1443.3121 3962.3757 6182986
-441.82748 1441.9418 3958.6135 6117193
-416.92404 1436.9545 3944.9216 6117193
-393.63123 1437.2555 3945.748 6248779
-362.25085 1406.1998 3860.49 6117193
-345.82941 1432.9398 3933.9001 6117193
-321.64212 1429.0417 3923.1987 6117193
-298.52094 1429.6421 3924.8469 6117192
-274.18234 1424.0209 3909.4146 6051400
-248.88962 1411.9496 3876.2749 5985607
-225.71394 1410.6547 3872.7197 6182986
-202.62569 1409.6749 3870.03 6248779
-180.14433 1413.2061 3879.7244 5722435
-157.10648 1412.766 3878.5164 5656642
-134.58406 1417.6045 3891.7996 5722435
-112.62807 1431.6438 3930.342 5788228
-89.500244 1434.2242 3937.4265 5985607
-65.834137 1426.957 3917.4756 5985607
-43.329487 1450.6598 3982.5474 5919814
-19.615284 1442.1305 3959.1318 5919814
3.8630097 1449.2012 3978.5432 5854021
27.490061 1451.9788 3986.1685 5919813
51.69001 1468.4645 4031.4272 5919814
74.907066 1455.4315 3995.6475 5985607
98.434402 1453.2395 3989.6294 6117192
121.69953 1448.7749 3977.3728 6051400
142.9278 1425.4449 3913.3242 5985606
168.23579 1443.6367 3963.2666 6051400
192.45358 1449.1624 3978.4365 5985607
216.26566 1450.7606 3982.8242 6182986
240.11646 1452.2784 3986.9912 5854021
264.81094 1458.1702 4003.166 5919814
288.00198 1455.4951 3995.822 5854021
312.44891 1459.0913 4005.6946 5985607
335.40778 1455.7212 3996.4426 5919814
359.47647 1457.2948 4000.7627 5919814
379.67169 1443.9423 3964.1057 5854021
406.6987 1456.6143 3998.8943 5985607
431.34344 1459.8284 4007.718 6182986
455.20453 1460.1932 4008.7197 6445899
480.57327 1465.1182 4022.2405 6380362
505.41046 1468.0339 4030.2451 6446155
516.45544 1432.4327 3932.5078 6380363
549.80267 1459.0919 4005.6963 6314571
573.15222 1458.1105 4003.002 6314571
598.50372 1462.0977 4013.9482 6380364
621.51575 1460.2832 4008.9668 6643535
644.23315 1457.9357 4002.522 6446155
672.23926 1467.2983 4028.2261 6380363
696.05731 1467.1914 4027.9321 6446156
719.21661 1465.7488 4023.9719 6380107
745.56067 1470.6812 4037.5127 6379851
767.78986 1467.4421 4028.6204 6314058
789.21106 1462.9009 4016.1533 6314058
808.38751 1454.5861 3993.3264 6248266
836.79974 1462.8903 4016.1243 6248779
857.3512 1457.373 4000.9775 6314572
875.93793 1448.903 3977.7244 6314572
895.04913 1441.7214 3958.0085 6380365
916.52411 1438.6168 3949.4856 6182986
947.17926 1449.7179 3979.9617 6051400
966.22052 1442.9357 3961.342 6117193
996.85431 1453.3763 3990.0054 6051657
1021.0742 1454.1989 3992.2634 6050887
1033.4202 1438.4563 3949.0447 5656129
1058.7106 1441.0299 3956.1101 5721922
1081.3809 1440.0029 3953.2908 6116679
1106.2803 1441.9248 3958.5669 6117193
1127.5449 1439.1278 3950.8884 6248779
1151.4542 1439.7513 3952.6001 6446157
1177.0907 1442.4666 3960.0542 7367258
1193.6001 1434.1096 3937.1116 6775121
1223.2888 1441.6045 3957.6875 6577741
1251.652 1447.2843 3973.2808 6248779
1268.9512 1440.1976 3953.8254 6117193
1292.2489 1440.0525 3953.4268 5722437
1311.3459 1435.3146 3940.4197 5721922
1338.3037 1439.1959 3951.0754 5787971
1353.0504 1430.038 3925.9336 5919814
1373.0978 1426.697 3916.7615 6116424
1407.0453 1437.67 3946.886 6708814
1453.6484 1461.0037 4010.9448 6577485
1480.7955 1464.3467 4020.1226 6643278
1510.6957 1470.2633 4036.3657 6774864
1515.9451 1452.3784 3987.2656 6709071
1497.9896 1413.1519 3879.5754 6709071
1556.3252 1445.9934 3969.7366 6709071
1533.3326 1403.4196 3852.8572 6511948
1589.2714 1433.2789 3934.8311 6642765
1582.8425 1406.8418 3862.2524 6708558
1638.1528 1435.2507 3940.2441 6708558
1628.5518 1406.7888 3862.1069 6774864
1648.778 1404.5242 3855.8899 6708815
1670.0757 1403.2218 3852.3145 6510668
1722.2167 1427.5201 3919.0215 6313546
1731.6893 1416.2754 3888.1509 5918788
1767.2272 1426.3636 3915.8462 5984581
1771.3204 1411.1396 3874.0515 6248007
1797.0221 1413.2997 3879.9812 6313800
1845.4008 1433.0144 3934.105 6313800
1868.3693 1432.7516 3933.3835 6313800
1889.8464 1431.3657 3929.5789 6379591
1875.9146 1403.5214 3853.1365 6445127
1942.527 1435.8835 3941.9817 6511177
1948.375 1423.0945 3906.8713 6511177
1930.3562 1393.3781 3825.2896 6708556
1961.5754 1399.4801 3842.0417 6905935
1988.9438 1402.7261 3850.9531 6576970
1995.4218 1391.3325 3819.6741 6576970
2020.3197 1392.8939 3823.9607 6643018
2031.5411 1385.0962 3802.5532 6511432
0 0 0 0
0 0 0 0
0 0 0 0
0 0 0 0
0 0 0 0
0 0 0 0
0 0 0 0
0 0 0 0
0 0 0 0
2363.6372 1450.6296 3982.4648 458752
2374.0696 1442.6296 3960.502 589824
2360.2329 1420.1833 3898.8792 655360
2330.0674 1388.4419 3811.7383 458752
2340.075 1381.0186 3791.3589 393472
2342.2717 1369.1707 3758.8323 393216
2361.2842 1367.2828 3753.6499 327680
2392.9636 1372.6967 3768.5125 262400
2393.1887 1360.1337 3734.0229 262400
2422.2312 1364.0287 3744.7161 131584
2446.3992 1365.1331 3747.748 66048
2458.2078 1359.3828 3731.9617 66048
2468.3875 1352.8424 3714.0059 66304
2428.9663 1319.4733 3622.3962 66048
2449.2595 1318.8428 3620.6653 66048
2470.1445 1318.5389 3619.8315 66048
2496.49 1321.1302 3626.9453 66048
2525.2405 1324.939 3637.4016 66048
2528.8252 1315.5912 3611.7388 66048
2542.2893 1311.4968 3600.4983 768
2561.8613 1310.5951 3598.0229 768
2591.012 1314.5682 3608.9304 768
2600.6248 1308.6449 3592.6687 768
2615.3887 1305.3884 3583.729 768
2635.7466 1304.9541 3582.5366 768
2654.1382 1303.5613 3578.7124 768
2669.9092 1300.9133 3571.4431 768
2687.0762 1298.9818 3566.1406 768
2708.1614 1298.96 3566.0806 768
2723.585 1296.2439 3558.624 768
2763.4214 1305.0992 3582.9348 768
2741.2021 1284.7355 3527.0295 768
2758.5701 1283.093 3522.5205 768
2775.7949 1281.4092 3517.8977 768
2783.4644 1275.3722 3501.3242 768
2789.3955 1268.6339 3482.8254 768
2813.0986 1270.0182 3486.6255 768
2810.9226 1259.7837 3458.5286 768
2824.5554 1256.7313 3450.1489 768
2832.6799 1251.2897 3435.2095 768
2844.1682 1247.4009 3424.5334 512
2827.3914 1231.2584 3380.2173 768
2756.396 1191.8984 3272.1606 768
2792.2322 1198.9607 3291.5491 768
2758.0869 1176.084 3228.7449 768
2789.4766 1181.275 3242.9958 768
2781.751 1169.9438 3211.8882 768
2871.939 1199.6675 3293.4893 768
2962.6135 1229.1915 3374.5427 768
2954.1187 1217.4501 3342.3086 768
2988.0901 1223.2496 3358.2302 768
3006.7451 1222.7438 3356.8416 768
2997.3953 1210.9308 3324.4109 768
3013.7173 1209.5757 3320.6907 768
3052.9805 1217.3859 3342.1323 768
3048.8525 1207.9047 3316.1033 768
3117.5059 1227.1951 3369.0618 768
3128.8623 1223.8286 3359.8196 768
3160.1038 1228.2334 3371.9124 768
3144.5425 1214.5065 3334.2273 768
3182.6816 1221.562 3353.5972 768
3359.6702 1281.4917 3518.1243 768
0 0 0 0
0 0 0 0
0 0 0 0
0 0 0 0
0 0 0 0
0 0 0 0
0 0 0 0
0 0 0 0
-3501.522 1459.9402 3943.8694 7892054
-3478.261 1459.9855 3943.9917 7629139
-3421.9409 1446.061 3906.3765 7694932
-3386.9463 1441.0203 3892.7593 7628882
-3355.7749 1437.5482 3883.3801 7629139
-3325.2969 1434.3273 3874.679 7563345
-3317.4558 1440.8934 3892.4167 7628882
-3297.6692 1442.3271 3896.2896 7497552
-3265.5239 1438.3374 3885.5117 7300944
-3264.8008 1448.2294 3912.2339 7169358
-3235.4121 1445.4563 3904.7427 7235151
-3196.2454 1438.2432 3885.2573 7235152
-3171.542 1437.4811 3883.1985 7169359
-3137.5801 1432.4807 3869.6907 7037773
-3136.988 1442.754 3897.4429 7037773
-3096.9565 1434.9064 3876.2432 6906187
-3086.7195 1440.8491 3892.2971 7037773
-3067.238 1442.5337 3896.8479 7037774
-3067.4338 1453.5685 3926.657 6971983
-2956.9773 1411.936 3814.1914 6906446
-3008.5466 1447.6244 3910.5996 6774604
-2986.3315 1448.0884 3911.853 6840397
-2943.7202 1438.592 3886.1997 6840397
-2913.4712 1435.0349 3876.5906 6906189
-2898.4824 1438.9976 3887.2952 6906190
-2873.6804 1438.1125 3884.9045 6906189
-2845.9304 1435.7262 3878.458 6971982
-2820.6025 1434.5328 3875.2344 6840140
-2789.1885 1430.1991 3863.5271 6708810
-2759.5298 1426.7012 3854.0779 6511430
-2765.5867 1441.7642 3894.769 6379844
-2746.1069 1443.6559 3899.8792 6248258
-2720.7161 1442.4458 3896.6101 6182464
-2709.0632 1448.5608 3913.1292 6379846
-2697.1248 1454.6272 3929.5171 6445896
-2683.0769 1459.6519 3943.0906 6577481
-2626.1289 1441.2212 3893.302 6445896
-2621.2561 1451.2961 3920.5183 6511689
-2601.6465 1453.3187 3925.9822 6511689
-2568.9753 1448.0159 3911.6572 6511689
-2544.3516 1447.1935 3909.4358 6445897
-2525.5947 1449.7239 3916.2712 6380104
-2507.5061 1452.6882 3924.2791 6314310
-2476.9358 1448.4094 3912.7202 6379849
-2452.1299 1447.4521 3910.1345 6380105
-2429.2087 1447.6 3910.5337 6380106
-2400.488 1444.2614 3901.5149 6445899
-2382.3608 1447.2932 3909.7051 6380105
-2351.2002 1442.3892 3896.457 6379849
-2327.8352 1442.2177 3895.9939 6380105
-2308.3601 1444.4768 3902.0967 6248520
-2285.7437 1444.7959 3902.9587 6380106
-2268.7405 1448.7061 3913.5217 6314313
-2257.1934 1456.2169 3933.8115 6314313
-2235.1399 1457.0355 3936.0227 6182983
-2198.1426 1448.0272 3911.688 6248777
-2179.199 1450.8467 3919.3044 6248777
-2161.5183 1454.5768 3929.3806 6314570
-2125.2549 1445.7465 3905.5269 6380363
-2106.6018 1448.8337 3913.8665 6446156
-2088.5342 1452.3969 3923.4919 6577742
-2058.6841 1447.7542 3910.95 6511949
-2041.5934 1452.0808 3922.6382 6446156
-2016.8171 1450.9778 3919.6584 6380363
-1994.5144 1451.6494 3921.4729 6380363
-1970.4683 1451.0532 3919.8621 6314569
-1935.8479 1442.5629 3896.9263 6314570
-1900.8253 1433.5642 3872.6174 5854019
-1877.8784 1433.5642 3872.6174 5854019
-1862.0078 1439.0327 3887.3904 6117191
-1841.2177 1440.7889 3892.1345 6248777
-1813.4978 1437.0981 3882.1643 6248520
-1797.7938 1442.9569 3897.991 6511949
-1770.5863 1439.6149 3888.9629 6380363
-1734.7317 1429.0613 3860.4534 5919812
-1707.28 1425.2405 3850.1318 6182985
-1687.6212 1427.9098 3857.3428 6577741
-1672.9078 1434.8942 3876.2102 6314570
-1653.9031 1438.3408 3885.5212 6445899
-1627.9702 1435.7748 3878.5894 6643535
-1609.1847 1439.5289 3888.7307 6511949
-1586.0139 1439.4124 3888.4158 6577741
-1562.9569 1439.3972 3888.3748 6774864
-1554.2961 1452.8381 3924.6838 6709328
-1528.3887 1450.3213 3917.885 6643535
-1498.205 1443.6066 3899.7458 6577742
-1468.0923 1436.7511 3881.2266 6511949
-1445.7769 1437.4296 3883.0593 6643278
-1427.3997 1442.1088 3895.6997 6709071
-1405.2628 1443.0809 3898.3259 6643534
-1382.2429 1443.1637 3898.5496 6577742
-1356.4269 1440.2802 3890.76 6775121
-1338.498 1445.8167 3905.7161 6709328
-1318.9229 1449.7382 3916.3098 6577744
-1280.1875 1432.3625 3869.3716 6643537
-1273.5969 1450.9749 3919.6506 6511951
-1261.1971 1463.5375 3953.5869 6446158
-1229.5017 1453.7604 3927.1755 6380365
-1207.5496 1455.3488 3931.4661 6380365
-1178.8113 1448.6599 3913.3972 6511951
-1163.8719 1459.0009 3941.332 6511950
-1143.2891 1462.5459 3950.9087 6577744
-1125.1823 1469.4727 3969.6204 6577744
-1075.941 1435.166 3876.9448 6577744
-1059.7579 1444.4198 3901.9426 6446158
-1037.0048 1444.9316 3903.3257 6446158
-1016.8497 1449.1697 3914.7742 6248779
-994.52625 1450.4432 3918.2144 6182985
-969.74786 1448.1116 3911.9158 6248778
-950.6684 1454.3843 3928.8606 6314571
-928.36395 1455.9144 3932.9941 6248779
-900.47894 1448.546 3913.0891 6314572
-876.36053 1447.0076 3908.9331 6380108
-855.40021 1450.7416 3919.0203 6380108
-825.95087 1439.885 3889.6924 6446158
-808.21967 1449.4199 3915.45 6314572
-802.55341 1481.7943 4002.906 6380365
-780.90643 1485.7361 4013.5544 6446158
-725.33618 1423.3567 3845.043 6446158
-709.79962 1438.0386 3884.7046 6380365
-690.00616 1444.7913 3902.9465 6446157
-657.12317 1423.6541 3845.8462 6380365
-632.05298 1418.5325 3832.011 6314572
-610.21588 1420.5555 3837.4763 6446157
-592.72021 1433.2334 3871.7239 6380365
-564.33588 1419.5425 3834.7395 6182986
-539.45911 1413.8959 3819.4858 6248778
-519.68695 1421.7196 3840.6206 6314571
-502.14435 1436.6385 3880.9229 6182986
-475.46793 1425.6035 3851.1128 6117193
-450.82098 1419.8478 3835.5642 6051400
-428.34103 1420.6681 3837.78 6051400
-407.00732 1425.5951 3851.0898 5985607
-385.04922 1428.7906 3859.7222 6117193
-366.00217 1443.8737 3900.4675 6248779
-333.08212 1402.5724 3788.8965 6051400
-313.05133 1413.4989 3818.4133 5985607
-288.75235 1405.3549 3796.4131 6117193
-267.05087 1409.5447 3807.7312 5985607
-243.34528 1402.9532 3789.9255 5985607
-220.67177 1401.5771 3786.208 5919814
-198.23697 1401.5771 3786.208 5919814
-176.75748 1409.1932 3806.7822 5854021
-154.8414 1415.048 3822.5979 5985607
-133.77486 1432.0027 3868.3992 5985607
-111.28949 1437.6409 3883.6304 5854021
-87.407631 1423.4758 3845.365 5854021
-64.946068 1430.6077 3864.6309 5919814
-42.680748 1452.1851 3922.9197 6051400
-19.226448 1436.5375 3880.6494 5919813
3.7780309 1440.3774 3891.0229 5985607
27.274206 1464.0117 3954.8684 5985607
50.097755 1446.3821 3907.2437 5854021
72.881569 1439.1121 3887.6047 6051400
96.381729 1446.082 3906.4331 5985607
120.24925 1454.7969 3929.9751 5985607
142.71426 1446.4689 3907.478 6051401
165.09525 1439.733 3889.282 6051401
187.78972 1437.0464 3882.0244 5985606
211.75244 1443.5923 3899.7073 5919815
233.72316 1436.6058 3880.8342 5854022
256.58087 1435.8348 3878.7512 5985609
282.3223 1450.0011 3917.0203 5919815
304.58282 1445.4955 3904.8486 5919815
322.71848 1423.4324 3845.2476 5919816
347.68695 1432.4296 3869.5525 5854021
365.68564 1413.3752 3818.0791 6051400
396.08389 1441.6732 3894.5234 6117193
422.3916 1452.7865 3924.5444 6182986
441.08847 1437.9288 3884.408 6248779
464.94882 1440.5426 3891.469 6182985
487.13837 1437.9777 3884.54 6051400
510.06375 1437.718 3883.8389 6051400
530.77759 1431.5164 3867.0857 6117191
558.68689 1444.4312 3901.9734 6116935
581.76257 1444.3191 3901.6709 6182728
596.47461 1424.2454 3847.4438 6248776
627.34766 1442.8176 3897.6147 6248777
652.99854 1448.4874 3912.9312 6446156
672.62976 1440.8733 3892.3621 6446157
694.59717 1438.6024 3886.2278 6380364
719.6792 1442.7211 3897.354 6511181
742.3797 1441.958 3895.2927 6445644
756.86646 1425.7681 3851.5571 6314314
775.8468 1418.743 3832.5798 6314314
813.54395 1445.3705 3904.511 6182986
835.3161 1443.0146 3898.147 6182986
855.42505 1437.99 3884.5732 6117193
873.38055 1429.7032 3862.1877 6117193
899.7373 1435.2413 3877.1482 6117193
923.37897 1436.2804 3879.9551 6182986
930.1239 1411.6251 3813.3518 5985607
955.35388 1415.5284 3823.896 6117193
981.44336 1420.4949 3837.3123 6248266
1001.1663 1416.2305 3825.7922 5919301
1024.0815 1416.5704 3826.7109 6248266
1048.8202 1419.3635 3834.2559 6511181
1071.1344 1418.8267 3832.8057 6577744
1111.3162 1441.4879 3894.0227 6380363
1116.2928 1418.4919 3831.9014 6511949
1151.8059 1434.4424 3874.9897 6709328
1190.4547 1453.5979 3926.7366 6775121
1190.9297 1426.3008 3852.9963 6709328
1213.7603 1426.3008 3852.9963 6774866
1260.6857 1454.0922 3928.0715 6643537
1276.1593 1445.2566 3904.2031 6643537
1307.469 1454.3507 3928.7703 6709587
1321.9111 1444.6925 3902.6794 6643537
1336.0571 1435.0483 3876.6267 6577744
1349.5439 1425.0341 3849.5745 6708561
1388.3157 1441.6083 3894.3477 6511948
1418.0079 1448.3666 3912.6045 6577485
1443.2642 1450.4493 3918.231 6511692
1461.5337 1445.556 3905.012 6577485
1480.8008 1441.7863 3894.8286 6577485
1501.3018 1439.3152 3888.1533 6511692
1521.7552 1436.8739 3881.5586 6445899
1512.8013 1407.1517 3801.2673 6446155
1534.5566 1406.4473 3799.3643 6971730
1566.0226 1414.5344 3821.2104 6971730
1607.1693 1431.0106 3865.7192 6840144
1618.5577 1420.8998 3838.4058 6840144
1628.7722 1410.0525 3809.1033 6314059
1649.9503 1408.8635 3805.8916 6314059
1665.486 1402.9539 3789.927 6248265
1697.6932 1411.0581 3811.8198 6248266
1720.28 1411.0581 3811.8198 6116423
1745.7002 1413.3523 3818.0173 5787201
1753.5873 1401.5741 3786.2 5984836
1787.6061 1410.7159 3810.8955 6116421
1805.8223 1407.3142 3801.7063 5984835
1821.6869 1402.1865 3787.8542 5984834
1825.3755 1387.9253 3749.3291 5984832
1867.7062 1403.0355 3790.1475 6116419
1883.7942 1398.3071 3777.3743 5853247
1927.8894 1414.2347 3820.4011 5392696
1885.895 1367.3732 3693.8098 5195317
1935.1517 1386.99 3746.8022 4997938
1950.47 1382.1125 3733.6265 5458488
0 0 0 0
0 0 0 0
1945.291 1333.0812 3601.1736 4866352
0 0 0 0
0 0 0 0
0 0 0 0
0 0 0 0
0 0 0 0
0 0 0 0
0 0 0 0
0 0 0 0
0 0 0 0
2369.1313 1463.0477 3952.2642 393472
2386.6228 1459.4231 3942.4724 458752
2375.2253 1438.3745 3885.6121 458752
2378.137 1426.312 3853.0266 458752
2376.0735 1411.5233 3813.0767 393216
2406.4492 1416.1027 3825.447 591104
2414.9697 1407.8555 3803.1682 591104
2334.5657 1348.3997 3642.5549 327936
2342.0208 1340.314 3620.7124 196864
2417.2197 1370.7924 3703.0464 197120
2417.2029 1358.4517 3669.7092 131584
2439.3855 1358.6957 3670.3684 66048
2406.3708 1328.4631 3588.6985 66048
2398.5859 1312.5667 3545.7559 66048
2408.2766 1306.4263 3529.1682 66048
2418.1753 1300.5033 3513.1682 66048
2456.0901 1309.6201 3537.7961 66048
2473.3523 1307.6636 3532.5107 66048
2493.8997 1307.4622 3531.9668 768
2505.7849 1302.7606 3519.2661 768
2527.3904 1303.1487 3520.3142 768
2539.1938 1298.5176 3507.804 768
2551.7244 1294.3304 3496.4929 768
2595.1162 1305.7388 3527.3113 768
2603.2346 1299.3588 3510.0764 768
2630.937 1302.7773 3519.3113 768
2647.3623 1300.6021 3513.4348 768
2652.7078 1293.0597 3493.0601 768
2665.0996 1289.0424 3482.2075 768
2683.2283 1287.8401 3478.9597 768
2669.1672 1271.3242 3434.3438 768
2680.6106 1267.1141 3422.9709 768
2700.9836 1267.1567 3423.0859 768
2717.4202 1265.3655 3418.2471 768
2729.1946 1261.4459 3407.6589 768
2742.4624 1258.2693 3399.0774 768
2754.3525 1254.5112 3388.9255 768
2772.0981 1253.4553 3386.073 768
2793.4563 1254.0364 3387.6428 768
2802.4292 1249.0889 3374.2776 768
2813.8074 1245.2759 3363.9771 768
2762.2078 1213.8412 3279.0598 768
2724.6021 1188.9521 3211.825 768
2751.8955 1192.5326 3221.4971 768
2784.158 1198.2021 3236.8125 768
2755.1746 1177.6163 3181.2024 768
2773.5835 1177.4292 3180.6968 768
2863.3875 1207.3483 3261.5198 768
2901.4238 1215.1847 3282.6892 768
2877.5056 1197.1416 3233.9475 768
2944.6545 1216.9735 3287.5215 768
2954.0291 1212.8246 3276.3135 768
3015.3599 1229.9221 3322.5005 768
3013.0215 1220.9963 3298.3889 768
3009.8008 1211.8306 3273.6282 768
3010.5964 1204.3889 3253.5254 768
3071.7046 1221.0164 3298.4429 768
3096.4521 1223.0715 3303.9944 768
3117.2307 1223.543 3305.2683 768
3137.0991 1223.6534 3305.5664 768
3287.2974 1274.2834 3442.3379 768
0 0 0 0
0 0 0 0
0 0 0 0
0 0 0 0
0 0 0 0
0 0 0 0
0 0 0 0
0 0 0 0
-3404.7632 1442.3202 3834.8867 7431760
-3384.9309 1443.5532 3838.165 7431760
-3381.9006 1452.0167 3860.668 7498068
-3303.0525 1427.8213 3796.3367 7498068
-3305.5864 1438.7148 3825.3005 7564118
-3272.9189 1434.332 3813.6475 7300947
-3232.1497 1426.313 3792.3259 7366739
-3126.3088 1389.2653 3693.8223 7366739
-3175.7686 1421.1938 3778.7153 7300946
-3161.4951 1424.8522 3788.4419 7103567
-3123.6521 1417.864 3769.8618 7037774
-3072.9019 1404.8745 3735.3247 7037773
-3056.2278 1407.3885 3742.0093 6971981
-3087.0298 1431.9617 3807.345 6709068
-3029.6807 1415.7053 3764.1223 6774861
-3016.9956 1420.2335 3776.1619 6445896
-2994.7725 1420.3057 3776.3535 6643275
-2982.863 1425.3071 3789.6516 6709325
-2946.7871 1418.7493 3772.2156 6840654
-2922.3391 1417.7325 3769.512 6708811
-2921.3804 1428.1831 3797.2986 6643018
-2910.9885 1434.1487 3813.1599 6774604
-2856.3323 1418.2294 3770.833 6840397
-2821.7244 1412.0919 3754.5146 6840654
-2815.1213 1419.9829 3775.4954 6774603
-2773.6169 1410.2546 3749.6296 6840397
-2770.719 1420.1573 3775.9595 6840397
-2774.9414 1433.9006 3812.5002 6643275
-2760.968 1438.3899 3824.4368 6577225
-2738.4534 1438.4669 3824.6416 6379846
-2711.1909 1436.0306 3818.1636 6248260
-2669.6689 1425.9366 3791.3257 5985088
-2661.2227 1433.4882 3811.4036 5919295
-2635.9141 1432.0081 3807.4683 6445896
-2632.6511 1442.5824 3835.5837 6511689
-2565.3911 1417.9679 3770.1379 6577482
-2549.0869 1421.333 3779.0852 6643276
-2554.1753 1436.7919 3820.1877 6511433
-2534.2068 1438.3059 3824.2131 6511689
-2506.4326 1435.3772 3816.4263 6577483
-2480.9678 1433.7295 3812.0454 6511690
-2463.9941 1437.0039 3820.7515 6511690
-2439.9988 1436.2057 3818.6292 6511690
-2408.2732 1430.8002 3804.2566 6446411
-2390.8396 1433.8635 3812.4019 6446154
-2379.4758 1440.6605 3830.4736 6446411
-2346.9631 1434.6605 3814.5208 6577483
-2322.3623 1433.427 3811.2412 6380105
-2293.9275 1429.7798 3801.5437 6314312
-2266.6719 1426.8024 3793.6272 6116934
-2254.1055 1433.1045 3810.3835 6314312
-2235.7947 1435.8448 3817.6697 6248777
-2222.4014 1441.8317 3833.5876 6445899
-2196.8142 1439.9496 3828.5835 6314825
-2175.4502 1440.825 3830.9109 6314824
-2151.1936 1439.7828 3828.1401 6380362
-2112.3813 1428.8729 3799.1326 6446156
-2092.3145 1430.5442 3803.5762 6643535
-2073.2959 1432.9766 3810.0435 6446156
-2050.675 1432.9452 3809.96 6446156
-2032.4427 1436.0138 3818.1191 6117191
-2011.2017 1437.0018 3820.7458 6314570
-1988.9972 1437.3163 3821.5818 6511949
-1967.2622 1437.981 3823.3494 6446156
-1942.6276 1436.517 3819.4568 6380363
-1915.3883 1433.0697 3810.2913 5985605
-1889.4305 1430.5105 3803.4866 6051398
-1873.1746 1435.3235 3816.2837 6117191
-1852.077 1436.4989 3819.4087 6248777
-1825.6904 1433.5504 3811.5691 6314570
-1797.0995 1428.7755 3798.8735 6380363
-1773.7098 1428.0671 3796.9902 6314570
-1751.5864 1428.3733 3797.804 6314570
-1732.4325 1431.1403 3805.1609 6248777
-1704.2942 1426.4604 3792.7183 6314313
-1679.119 1424.1689 3786.6255 6643535
-1671.7299 1437.105 3821.0203 6446156
-1629.6646 1420.1776 3776.0134 6840913
-1632.2626 1442.2429 3834.6812 6709328
-1591.5273 1426.1022 3791.7654 6643535
-1569.1741 1426.2062 3792.0422 6577742
-1559.307 1437.8265 3822.9387 6643535
-1536.28 1437.4761 3822.0071 6643535
-1509.8748 1433.907 3812.5173 6577742
-1482.7267 1429.5132 3800.8347 6577742
-1460.3979 1429.7018 3801.3364 6577742
-1438.9507 1430.7729 3804.1843 6577742
-1411.3832 1425.6957 3790.6848 6577742
-1393.0369 1429.9196 3801.9155 6643278
-1380.318 1440.1538 3829.1267 6577742
-1354.9109 1437.2708 3821.4609 6446156
-1335.894 1441.1833 3831.864 6182984
-1313.5734 1441.6056 3832.9866 6446158
-1293.3213 1444.3528 3840.2908 6445901
-1264.0856 1436.9858 3820.7034 6511951
-1242.0386 1437.6713 3822.5259 6577744
-1224.0114 1443.1217 3837.0176 6577487
-1189.7498 1429.2755 3800.2031 6577744
-1172.2863 1435.4645 3816.6582 6446158
-1154.8704 1441.9563 3833.9189 6446158
-1132.5685 1442.4855 3835.3262 6446158
-1101.314 1431.4009 3805.8538 6380365
-1081.6763 1435.2665 3816.1321 6511951
-1052.8149 1426.7975 3793.6143 6446158
-1035.8883 1434.486 3814.0566 6511951
-1011.7382 1432.2914 3808.2217 6380365
-986.7522 1428.7861 3798.9019 6446157
-970.14368 1437.5308 3822.1523 6314571
-946.47284 1435.9785 3818.0251 6380364
-922.89081 1434.4885 3814.0635 6446158
-901.59821 1436.5713 3819.6013 6446157
-866.67932 1416.491 3766.2109 6446158
-842.45728 1413.2939 3757.7107 6314571
-832.73059 1434.9005 3815.1589 6314572
-813.24634 1440.4305 3829.8623 6314572
-772.49207 1407.5227 3742.366 6446157
-745.46649 1398.4236 3718.1729 6446158
-733.1264 1417.1577 3767.9839 6446158
-714.10822 1423.7544 3785.5232 6446158
-693.46838 1427.4408 3795.3247 6380365
-668.39502 1421.9423 3780.7053 6446158
-637.39191 1403.0103 3730.3682 6511951
-613.19946 1398.2479 3717.7058 6446157
-595.93817 1409.5243 3747.6877 6117193
-574.56738 1411.5776 3753.1475 5854021
-551.70569 1409.986 3748.9153 6051400
-521.91638 1389.8134 3695.2795 6117192
-499.83868 1389.3082 3693.9368 5919814
-485.84622 1412.2592 3754.9595 5985607
-464.8526 1416.0856 3765.1331 6117193
-435.74622 1394.3374 3707.3086 6117193
-417.73849 1407.6803 3742.7852 6182986
-388.81174 1383.6619 3678.9241 6051400
-367.16275 1384.2278 3680.4287 5985607
-348.54785 1397.0262 3714.4575 6182986
-326.52518 1396.9706 3714.3096 6380621
-301.78143 1384.4238 3680.9497 6051400
-277.40891 1371.7578 3647.2732 5985607
-258.55627 1386.5531 3686.6113 5722435
-236.13371 1383.1678 3677.6106 5590849
-214.47176 1384.0027 3679.8303 5854021
-192.69197 1384.1802 3680.302 6182986
-170.8847 1384.1802 3680.302 5985607
-148.7468 1381.1102 3672.1394 6446157
-128.16547 1393.9172 3706.1912 6314572
-107.35873 1409.0625 3746.46 6051400
-85.389137 1412.8629 3756.5647 5788228
-62.734348 1404.0085 3733.0222 5985607
-41.085655 1420.2892 3776.3098 5985607
-18.821688 1428.8054 3798.9531 5985606
3.7052784 1435.2526 3816.0947 5854021
26.343748 1436.7019 3819.9482 5919814
48.825314 1432.2091 3808.0029 5919814
71.009315 1424.5867 3787.7363 5919814
94.012032 1433.1058 3810.3872 5854021
122.80196 1509.4608 4013.4021 5919814
138.93719 1430.7273 3804.063 5985606
160.6662 1423.5363 3784.9434 5985606
182.53214 1419.1718 3773.3386 6051399
206.19543 1428.209 3797.3672 6051399
228.49416 1426.9462 3794.0098 6117193
249.78607 1420.1854 3776.0339 6051400
272.10529 1419.8969 3775.2666 6051400
296.85172 1431.3557 3805.7336 5985608
317.29715 1421.922 3780.6514 5788228
338.52438 1417.0052 3767.5784 5788228
362.27423 1422.6028 3782.4612 5788228
382.89233 1415.9664 3764.8164 5919814
408.31137 1426.8378 3793.7214 5985607
432.46753 1432.3917 3808.4883 6117193
454.5769 1430.9517 3804.6597 6051400
478.22989 1434.2773 3813.502 5985607
499.91885 1431.6782 3806.5913 6051400
522.83807 1432.6747 3809.2407 6248263
546.9115 1436.6205 3819.7319 5985348
568.47852 1433.9304 3812.5796 6182727
590.79547 1433.2655 3810.8115 6314569
615.22278 1437.5808 3822.2852 6182986
638.57227 1439.1603 3826.4849 6182986
659.96851 1436.3805 3819.094 6314572
681.83191 1434.7682 3814.8069 6248522
705.29865 1436.5248 3819.4775 6314059
729.57019 1439.7605 3828.0808 6182473
746.23932 1428.2505 3797.4775 6182473
756.80444 1406.0736 3738.5132 6248266
779.78033 1407.5605 3742.4666 6051398
820.2301 1439.6344 3827.7456 6051399
839.84967 1434.4059 3813.8438 5854020
840.54907 1397.9836 3717.0032 5985605
871.6546 1412.701 3756.1343 6117193
887.92688 1403.2437 3730.9885 6117193
914.05664 1409.4457 3747.4788 6051400
940.66266 1416.0706 3765.093 6117193
957.33777 1407.7847 3743.0625 6314059
994.24847 1428.9574 3799.3569 6182473
1016.7592 1428.9545 3799.3494 6379595
1021.8801 1405.0415 3735.7688 6643024
1041.806 1402.0674 3727.8611 6511695
1069.9537 1410.0518 3749.0901 6314316
1104.4395 1425.8942 3791.2126 6182987
1140.0978 1442.5885 3835.5999 6182986
1148.2759 1424.5388 3787.6089 6380363
1185.0992 1442.0369 3834.1331 6511692
1212.9373 1448.1488 3850.3838 6577742
1242.2408 1455.7524 3870.6006 6643535
1256.7218 1446.0251 3844.7373 6512207
1270.5768 1435.9368 3817.9141 6379852
1304.8033 1448.8213 3852.1721 6445645
1329.097 1450.4235 3856.4316 6511694
1355.1781 1453.8888 3865.6458 6643024
1377.7722 1453.5604 3864.7725 6577485
1397.4872 1450.2548 3855.9832 6643278
1400.6077 1430.1115 3802.4255 6643278
1419.7998 1426.7563 3793.5049 6445899
1471.295 1455.4611 3869.8262 6314313
1490.3656 1451.7017 3859.8303 6314313
1479.2457 1419.0929 3773.1292 6445899
1496.955 1414.7002 3761.4497 6445899
1516.4337 1412.0844 3754.4944 6576971
1564.4325 1435.7173 3817.3306 6708301
1596.6129 1444.3669 3840.3284 6708558
1596.6053 1424.0637 3786.3457 6576972
1603.8668 1410.7169 3750.8589 6116679
1624.8558 1409.6444 3748.0073 6116423
1656.2377 1417.4956 3768.8821 6116424
1678.1382 1417.131 3767.9126 5919301
1701.0878 1417.6503 3769.2935 5853508
1715.3947 1411.0469 3751.7361 5852993
1737.1052 1410.6248 3750.6135 5853250
1753.5049 1405.9547 3738.197 5590077
1781.0835 1410.2529 3749.625 5392445
1793.062 1402.2452 3728.334 5129272
1805.9935 1395.1687 3709.5186 4931892
1837.3124 1402.2961 3728.4692 4800306
2044.0189 1541.525 4098.6558 4931891
1827.177 1361.8103 3620.8245 4931893
1815.8949 1337.6945 3556.7043 4668465
1860.3817 1354.743 3602.0337 4339756
1885.9755 1357.8031 3610.1699 4274221
1893.9994 1348.287 3584.8682 4208428
0 0 0 0
0 0 0 0
0 0 0 0
0 0 0 0
0 0 0 0
0 0 0 0
0 0 0 0
0 0 0 0
0 0 0 0
0 0 0 0
2293.2856 1453.2437 3863.9302 1906702
2375.8345 1490.6721 3963.4463 2235153
2382.0869 1479.9657 3934.9797 1971981
2378.5835 1463.4645 3891.1057 262400
2350.2209 1432.1318 3807.7974 458752
2345.2812 1415.5322 3763.6619 458752
2357.9094 1409.7489 3748.2852 458752
2349.0239 1391.3311 3699.3149 393216
2364.9006 1387.7845 3689.8855 393216
2328.3357 1353.811 3599.5557 262144
2331.1399 1343.1378 3571.1772 262400
2337.5615 1334.7219 3548.8008 131328
2374.2429 1343.5801 3572.3533 131328
2424.3052 1359.787 3615.4446 66048
2377.4995 1321.8528 3514.5842 66048
2394.1194 1319.5352 3508.4219 66048
2477.571 1353.7748 3599.4595 66048
2463.2903 1334.4838 3548.1677 66048
2462.6946 1322.8702 3517.2893 66048
2471.1565 1316.2762 3499.7571 512
2503.8943 1322.6152 3516.6111 512
2500.5457 1309.9448 3482.9229 512
2519.6211 1309.1332 3480.7649 512
2535.6484 1306.7638 3474.4651 768
2552.2075 1304.7043 3468.9893 768
2557.446 1296.9371 3448.3374 768
2588.0061 1302.0321 3461.884 768
2588.8262 1292.2024 3435.7488 768
2590.5815 1282.9894 3411.2527 768
2611.1707 1283.1742 3411.7439 768
2610.7988 1273.1346 3385.0508 768
2610.5342 1263.3002 3358.9023 768
2622.0317 1259.2634 3348.1694 768
2636.6584 1256.7788 3341.5632 768
2645.5466 1251.6163 3327.8372 768
2657.3188 1247.8845 3317.915 768
2681.8083 1250.136 3323.9011 768
2690.5312 1245.0583 3310.4006 768
2711.293 1245.585 3311.8008 768
2723.197 1242.064 3302.439 768
2736.6689 1239.3032 3295.0986 512
2756.5967 1239.4844 3295.5803 512
2759.624 1232.1173 3275.9924 512
2770.627 1228.3892 3266.0801 512
2790.6082 1228.666 3266.8159 512
2810.8914 1229.0708 3267.8923 512
2828.05 1228.1134 3265.3467 768
2822.0435 1217.1774 3236.2698 768
2845.2371 1218.8986 3240.8459 768
2850.2893 1212.8768 3224.8352 768
2850.7524 1204.9956 3203.8804 768
2869.7368 1204.9956 3203.8804 768
2863.0645 1194.2932 3175.4246 768
2887.5681 1196.6505 3181.6921 768
2893.3281 1191.2598 3167.3591 768
2942.6743 1203.7684 3200.6177 768
2995.4839 1217.5249 3237.1936 768
3009.2722 1215.3467 3231.4021 768
3033.4839 1217.3789 3236.8057 768
3055.7878 1218.625 3240.1189 768
3069.116 1216.2983 3233.9326 768
3086.7898 1215.7122 3232.374 768
0 0 0 0
0 0 0 0
0 0 0 0
0 0 0 0
0 0 0 0
0 0 0 0
0 0 0 0
-3337.2869 1426.4888 3733.9661 7300946
-3324.9031 1430.6803 3744.938 7235153
-3301.6167 1430.2054 3743.6951 7235153
-3242.2417 1413.9855 3701.2375 7366739
-3226.7815 1416.8269 3708.6753 7432531
-3231.3538 1428.5635 3739.397 7432532
-3188.1143 1419.1787 3714.8315 7235153
-3138.6326 1406.8657 3682.6011 7037774
-3111.4602 1404.4502 3676.2781 6971981
-3099.583 1408.9532 3688.0652 7037774
-3087.7798 1413.5541 3700.1084 6971981
-3069.5144 1415.2412 3704.5247 6511429
-3024.4243 1404.4957 3676.3972 6643016
-3002.5669 1404.4614 3676.3074 6511431
-2995.9937 1411.6279 3695.0667 6643275
-2973.8896 1411.5287 3694.8069 6643275
-2946.8584 1409.0719 3688.376 6643019
-2965.7219 1428.6874 3739.7212 6511434
-2921.4827 1417.9708 3711.6697 6774862
-2886.6641 1411.6985 3695.2512 6709069
-2828.5635 1393.8577 3648.5513 6577482
-2867.2725 1423.8151 3726.9675 6643531
-2837.8208 1420.1279 3717.3162 6643275
-2810.8252 1417.6218 3710.7561 6643275
-2796.6025 1421.569 3721.0881 6709068
-2768.8167 1418.6295 3713.394 6643275
-2742.5972 1416.4521 3707.6943 6577482
-2734.9626 1423.9155 3727.2302 6643274
-2738.7478 1437.4941 3762.7737 6643275
-2718.3071 1438.476 3765.3438 6708811
-2667.9211 1423.4962 3726.1331 6511432
-2651.7441 1426.6716 3734.4448 5919295
-2624.4382 1423.8623 3727.0913 5919294
-2595.2173 1419.9578 3716.8706 5721914
-2567.9087 1417.0415 3709.2371 6116674
-2565.3208 1427.8342 3737.488 6511689
-2547.9656 1430.5242 3744.5291 6314310
-2488.9963 1409.6923 3689.9998 6248517
-2496.678 1426.5746 3734.1909 6511690
-2472.5996 1425.4495 3731.2456 6511690
-2448.2935 1424.1715 3727.9004 6446153
-2441.1501 1432.9448 3750.8652 6314312
-2425.6301 1436.9169 3761.2627 6183495
-2397.8237 1433.6169 3752.6248 6446155
-2360.9136 1424.7615 3729.4446 6248776
-2342.2146 1426.8322 3734.865 6248777
-2332.0125 1434.168 3754.0671 6248777
-2303.228 1430.1072 3743.4377 6314570
-2286.6191 1433.601 3752.5828 6248776
-2264.1411 1433.4474 3752.1812 6380362
-2235.429 1429.3049 3741.3376 6314570
-2223.0442 1435.6234 3757.877 6314569
-2205.2715 1438.5551 3765.551 6314570
-2183.3687 1438.825 3766.2573 6248777
-2156.8306 1436.0144 3758.9004 6380363
-2137.2246 1437.8085 3763.5967 6248777
-2107.7871 1432.9567 3750.8965 6446156
-2082.0681 1430.5565 3744.6138 6380362
-2067.396 1435.7762 3758.2771 6248777
-2041.2269 1433.0386 3751.1108 5985605
-2018.8018 1432.8978 3750.7424 6182984
-1988.6609 1427.2164 3735.8711 6182984
-1967.4928 1427.9193 3737.7107 6182984
-1938.5632 1422.9412 3724.6802 6182984
-1934.4834 1436.2986 3759.6443 6051398
-1906.7957 1432.2347 3749.0068 6117191
-1884.0161 1431.8052 3747.8823 6117191
-1861.6377 1431.6738 3747.5386 6314570
-1842.8555 1434.3385 3754.5134 6314570
-1812.4526 1427.913 3737.6941 6182984
-1786.5396 1424.9094 3729.8323 6248777
-1764.8425 1425.2356 3730.6858 6248777
-1754.0266 1434.4686 3754.8542 6314570
-1734.722 1436.9075 3761.238 6182984
-1716.7021 1440.488 3770.6104 6314569
-1688.3735 1435.3987 3757.2888 6314570
-1671.9078 1440.3936 3770.3633 6446155
-1636.7455 1429.1979 3741.0576 6643278
-1618.7473 1432.8883 3750.7175 6643278
-1598.97 1435.0847 3756.467 6643534
-1565.9535 1425.2931 3730.8364 6775121
-1550.1804 1431.1403 3746.1421 6709328
-1528.3132 1431.4496 3746.9517 6709328
-1514.4242 1439.3507 3767.6335 6643535
-1482.479 1430.0704 3743.3413 6577742
-1454.985 1424.8671 3729.7212 6643535
-1430.2557 1422.2528 3722.8779 6577742
-1409.1888 1423.2551 3725.502 6511949
-1379.3536 1415.2928 3704.6599 6643535
-1360.7118 1418.7438 3713.6931 6643535
-1355.1436 1436.1635 3759.2905 6511949
-1330.8245 1433.9613 3753.5261 6577485
-1317.9401 1444.2145 3780.365 6511949
-1284.5004 1431.9081 3748.1519 6511951
-1263.7313 1433.542 3752.4285 6446158
-1238.2949 1429.845 3742.7512 6511951
-1216.4269 1430.2085 3743.7029 6511694
-1196.8983 1433.3875 3752.0239 6380365
-1175.7621 1434.7249 3755.5247 6446157
-1155.3245 1436.9827 3761.4348 6446158
-1131.1041 1434.532 3755.0203 6446158
-1110.4641 1436.6149 3760.4722 6380365
-1090.2388 1439.3304 3767.5803 6380365
-1072.8774 1446.0198 3785.0903 6511694
-1042.5317 1435.1207 3756.561 6511951
-1009.7534 1420.3242 3717.8298 6446158
-988.62622 1421.6219 3721.2268 6511951
-972.10498 1429.7533 3742.5115 6511951
-947.59375 1426.2383 3733.3105 6577487
-927.15131 1428.8257 3740.0833 6446158
-901.53271 1423.3674 3725.7959 6380108
-883.83459 1430.4542 3744.3462 6577744
-859.40277 1426.7271 3734.5901 6577744
-831.55603 1416.984 3709.0867 6445901
-814.6543 1425.8684 3732.3425 6182986
-779.19635 1401.8641 3669.5088 6182986
-767.79022 1420.9957 3719.5876 6314572
-742.06616 1413.976 3701.2129 6314572
-715.3457 1404.5724 3676.5979 6314572
-701.44452 1420.5391 3718.3923 6314571
-669.31934 1399.4379 3663.158 6248779
-652.1377 1409.2139 3688.7476 6380365
-624.19324 1395.6039 3653.1223 6380364
-602.62531 1395.7852 3653.5967 6314572
-580.56024 1394.7858 3650.9805 6182985
-564.27112 1408.1226 3685.8909 5854021
-543.35095 1410.5114 3692.1438 6051400
-515.33868 1393.9175 3648.7078 6182986
-494.94934 1397.3922 3657.8035 6051400
-480.34402 1418.2631 3712.4346 5919814
-447.97891 1386.1831 3628.4624 5985607
-426.07123 1384.8583 3624.9946 5985350
-403.97513 1382.7478 3619.4702 5984837
-385.3562 1392.9701 3646.2278 5064249
-359.92261 1378.3099 3607.8535 5656127
-338.44189 1377.8917 3606.759 5459005
-318.45886 1383.9255 3622.553 3814438
-296.37637 1381.0486 3615.0222 5919812
-276.57077 1389.1595 3636.2537 6051400
-254.28796 1385.1475 3625.7517 5788228
-233.85095 1391.3772 3642.0583 6117193
-210.33217 1378.6733 3608.8049 6117193
-193.29558 1410.3917 3691.8306 6051400
-170.2429 1400.7068 3666.4795 6248779
-147.88576 1394.7483 3650.8826 6248779
-126.25523 1394.775 3650.9524 6182986
-105.59372 1407.7314 3684.8672 6248779
-83.570084 1404.5496 3676.5383 6117193
-61.939404 1408.0568 3685.7188 5985607
-40.334919 1416.3042 3707.3071 5985606
-18.487432 1425.5417 3731.4873 6051401
3.6598845 1440.0038 3769.343 5919814
25.622635 1419.3899 3715.384 5788229
47.578907 1417.6359 3710.7927 5854023
69.730835 1420.9777 3719.5403 5788231
91.793892 1421.3381 3720.4839 5788231
113.67066 1419.2332 3714.9739 5854023
135.73145 1419.7361 3716.2903 6051402
158.44763 1425.9971 3732.679 6051399
180.68382 1426.9333 3735.1299 6182986
201.9444 1420.8014 3719.0789 6117193
225.45033 1430.1191 3743.469 6182985
248.19147 1433.3507 3751.928 6051400
268.49246 1423.1174 3725.1414 6051400
290.16022 1421.1328 3719.9465 6117193
308.6221 1404.8354 3677.2866 5919814
332.93378 1415.5597 3705.3582 5656642
354.74371 1414.978 3703.8357 5854021
378.57376 1422.0526 3722.354 5788228
401.90741 1426.5859 3734.2207 5919814
423.95743 1426.3279 3733.5449 6117193
446.93173 1429.0507 3740.6721 6117193
466.91516 1422.4048 3723.2759 6051400
491.63025 1430.1227 3743.4783 5985607
511.68875 1424.2134 3728.01 6051398
536.03583 1430.2357 3743.7742 6051398
559.64111 1433.8789 3753.3105 5985605
580.36914 1430.1534 3743.5588 6051398
603.86658 1433.2753 3751.7305 6248779
626.09937 1433.2805 3751.7444 6380365
648.86591 1434.4653 3754.8457 6248779
668.74518 1429.4003 3741.5874 6314571
681.81274 1410.5679 3692.2917 6182473
716.89838 1437.0422 3761.5911 6248266
738.1983 1435.1196 3756.5581 6314058
744.68237 1405.3492 3678.6316 6314058
758.99255 1391.6215 3642.6978 6117449
782.0387 1394.2273 3649.5188 6051400
802.6333 1392.4401 3644.8406 6117193
825.74335 1394.9958 3651.5305 5590848
853.32013 1404.7745 3677.1272 5525056
877.12885 1408.0176 3685.6162 5787971
898.99658 1408.063 3685.7351 6051400
922.82129 1411.0988 3693.6814 5985864
951.78864 1421.6752 3721.3662 6248265
972.89069 1420.2904 3717.7415 6248266
996.69299 1422.8218 3724.3674 6248265
1012.3885 1413.9214 3701.0698 6248266
1029.8997 1407.8802 3685.2566 6182986
1056.4719 1414.2197 3701.8506 6117193
1082.4028 1419.4597 3715.5671 6117193
1095.5245 1408.0281 3685.6436 5919814
1124.6171 1417.1687 3709.5698 6117191
1160.5653 1434.4321 3754.7588 6446156
1183.9819 1435.8488 3758.4668 6380362
1214.611 1445.7985 3784.511 6379849
1240.0347 1449.3035 3793.6855 6511695
1248.9696 1433.7555 3752.9873 6314315
1274.5681 1437.5457 3762.9087 6314315
1320.2906 1463.5126 3830.8796 6380108
1341.4331 1461.8159 3826.4382 6379852
1363.0292 1460.6616 3823.4167 6314312
1388.8884 1464.0389 3832.2573 6445642
1411.5918 1464.0344 3832.2454 6445899
1397.9495 1426.931 3735.1238 6380106
1417.786 1424.6244 3729.0859 6182471
1439.6104 1424.3551 3728.3813 5985095
1461.7024 1424.3551 3728.3813 5919301
1481.4233 1422.079 3722.4231 5919044
1498.4073 1417.2806 3709.8633 5852995
1519.7263 1416.6622 3708.2444 5589823
1539.9451 1415.0505 3704.0254 6050374
1566.6266 1419.3391 3715.2512 5590077
1590.3191 1420.8384 3719.1758 5326905
1613.1571 1421.5436 3721.0217 5458237
1635.7151 1421.9866 3722.1812 5392444
1653.4147 1418.2502 3712.4011 5129273
1681.4966 1423.4008 3725.8831 4800564
1706.4642 1425.8157 3732.2043 4405550
1723.3882 1421.5341 3720.9968 4471088
1724.1923 1404.2322 3675.7073 3879464
1713.2117 1377.8837 3606.738 3616037
1723.4286 1369.0231 3583.5444 3813673
1748.4977 1372.0323 3591.4216 3550245
1750.3706 1356.9866 3552.0378 3484709
1726.0165 1322.207 3460.9993 3418917
1736.1636 1314.3634 3440.4678 3484709
1763.6976 1319.7119 3454.468 3550501
1801.0784 1332.2211 3487.2119 3221280
1803.8774 1319.1572 3453.0161 2958622
1763.1027 1274.8788 3337.113 2826781
1745.0995 1247.8657 3266.4038 2760988
0 0 0 0
0 0 0 0
0 0 0 0
0 0 0 0
0 0 0 0
0 0 0 0
0 0 0 0
0 0 0 0
2165.1465 1407.7129 3684.8184 1512463
2221.0884 1429.6672 3742.2861 1512720
2282.5752 1454.7216 3807.8682 1446671
2339.0913 1476.1484 3863.9551 1446671
2333.3279 1458.2378 3817.0723 1446670
2337.6555 1446.917 3787.439 1511691
2334.5005 1431.224 3746.3611 393729
2330.8364 1415.5177 3705.2483 393216
2339.3611 1407.4374 3684.0974 393216
2347.2522 1399.129 3662.3496 393216
2359.9639 1393.8199 3648.4524 262144
2357.7239 1379.8567 3611.9023 196864
2331.4675 1352.2156 3539.5493 262400
2332.6953 1340.8657 3509.8398 196864
2389.9841 1361.6561 3564.2605 196864
2386.2273 1347.6072 3527.4863 65792
2376.5127 1330.4669 3482.6201 512
2421.2373 1343.8367 3517.6169 512
2428.6204 1336.4298 3498.2285 512
2455.3638 1339.7117 3506.8193 66048
2459.8992 1330.9229 3483.8137 66048
2485.3066 1333.4792 3490.5051 512
2477.7996 1318.4791 3451.241 768
2498.3337 1318.5236 3451.3572 768
2492.0137 1304.5096 3414.6746 768
2502.5151 1299.4562 3401.4468 768
2506.8018 1291.2823 3380.051 768
2522.0354 1288.8323 3373.6375 768
2522.5664 1278.9662 3347.8123 768
2525.6912 1270.5591 3325.8057 768
2542.9036 1269.3138 3322.5464 512
2539.3103 1257.7825 3292.3618 512
2552.5312 1254.6918 3284.2715 512
2573.7393 1255.5442 3286.5029 512
2601.0415 1259.3345 3296.4243 768
2608.144 1253.3611 3280.7883 768
2619.3525 1249.4346 3270.5105 768
2636.0635 1248.1713 3267.2036 768
2651.5295 1246.3412 3262.4133 768
2677.0051 1249.2085 3269.9187 768
2693.843 1248.0328 3266.8413 768
2721.3613 1251.7866 3276.6672 512
2732.2874 1247.9093 3266.5178 512
2755.6997 1249.7493 3271.334 512
2753.6841 1240.1119 3246.1077 512
2767.0913 1237.5059 3239.2859 512
2783.4443 1236.244 3235.9829 512
2794.6184 1232.7151 3226.7456 512
2797.5376 1225.6174 3208.167 512
2821.3569 1227.7104 3213.6455 512
2847.9475 1230.9731 3222.1858 512
2848.4976 1223.0117 3201.3462 512
2847.8044 1214.6254 3179.3943 512
2829.9285 1199.0688 3138.6736 768
2883.3169 1213.7137 3177.0078 768
2875.9927 1202.7777 3148.3818 768
2887.5569 1199.8312 3140.6689 768
2901.1567 1197.7628 3135.2549 768
2906.5266 1192.3446 3121.072 768
2975.8872 1213.0798 3175.3486 768
3004.1492 1216.9065 3185.3652 768
3032.1433 1220.5775 3194.9746 768
3047.0857 1218.9818 3190.7974 768
0 0 0 0
0 0 0 0
0 0 0 0
0 0 0 0
0 0 0 0
0 0 0 0
0 0 0 0
-3235.573 1404.463 3620.1621 7300945
-3177.8481 1388.6125 3579.3054 7169360
-3173.7847 1396.1549 3598.7468 7235153
-3169.8965 1403.8768 3618.6511 7103567
-3141.9631 1400.9822 3611.1899 7037774
-3122.416 1401.8131 3613.3315 7103567
-3089.5706 1396.644 3600.0076 7103568
-3092.5437 1407.7073 3628.5244 7037775
-3066.8223 1405.7726 3623.5374 6906190
-3045.1519 1405.6803 3623.2998 6775118
-3016.2708 1402.2349 3614.4187 6840654
-3011.4695 1410.0145 3634.4714 6643018
-2984.8867 1407.6343 3628.3364 6709068
-2964.6426 1408.2305 3629.873 6577483
-2939.52 1406.5013 3625.416 6774861
-2888.8 1392.4086 3589.0903 6511432
-2876.3806 1396.7046 3600.1638 6314310
-2889.1917 1413.4077 3643.218 6511432
-2847.0876 1403.2955 3617.1526 6445896
-2825.8325 1403.3839 3617.3804 6643275
-2812.2327 1407.3044 3627.4861 6577482
-2795.1584 1409.5334 3633.2314 6643275
-2772.145 1408.7787 3631.2861 6643274
-2761.6992 1414.4489 3645.9019 6577225
-2723.9282 1406.103 3624.3894 6709067
-2722.8892 1416.7366 3651.7986 6774604
-2694.3752 1413.1305 3642.5034 6709068
-2674.9534 1414.2733 3645.4492 6709067
-2653.2886 1414.2391 3645.3611 6643275
-2632.4246 1414.6348 3646.3809 6511432
-2605.3562 1411.6752 3638.7522 6116674
-2583.1084 1411.3 3637.7852 5590328
-2566.761 1414.1694 3645.1812 5326643
-2544.1123 1413.5862 3643.678 5326385
-2516.1985 1410.0425 3634.5439 5655351
-2521.1252 1425 3673.0984 5260850
-2509.8557 1430.9836 3688.522 5721915
-2451.0688 1409.7428 3633.7712 6116930
-2428.7629 1409.2933 3632.6128 6380104
-2419.4722 1416.4557 3651.0745 6445897
-2394.4053 1414.4279 3645.8477 6182984
-2376.8496 1416.8407 3652.0667 6182984
-2354.8391 1416.6176 3651.4917 6248776
-2331.4639 1415.562 3648.7708 6380363
-2307.7629 1414.2869 3645.4841 6445899
-2285.6118 1413.9465 3644.6069 6511949
-2269.8999 1417.6213 3654.0789 6117191
-2249.9343 1418.6844 3656.8193 6117191
-2232.7236 1421.5226 3664.1348 6314570
-2209.502 1420.5516 3661.6321 6314570
-2195.1411 1425.3147 3673.9097 6446155
-2177.7695 1428.1989 3681.3438 6314570
-2157.5068 1429.2261 3683.9917 6314569
-2136.5586 1429.8156 3685.511 6314570
-2111.8035 1427.8434 3680.4275 6314570
-2080.1855 1421.1415 3663.1526 6182984
-2060.4038 1422.4696 3666.5759 6380363
-2042.9865 1425.476 3674.3252 6314570
-2026.7521 1429.3813 3684.3916 5985605
-1991.8376 1420.054 3660.3494 6117190
-1975.3477 1423.8013 3670.0085 6117191
-1941.4912 1414.9752 3647.2585 6182984
-1932.7938 1424.4932 3671.792 6117192
-1915.9844 1428.1809 3681.2976 6117193
-1894.8545 1428.6963 3682.626 6182986
-1868.2488 1425.0466 3673.2185 6446158
-1838.623 1418.9802 3657.5818 6380366
-1815.1552 1417.5781 3653.9678 6314572
-1785.6986 1411.4089 3638.0659 6446156
-1765.1785 1412.2384 3640.2039 6446156
-1749.801 1417.2538 3653.1318 6380363
-1728.842 1417.8174 3654.5845 6511949
-1712.3644 1422.1171 3665.6675 6248777
-1692.6278 1423.786 3669.9692 6248777
-1676.9497 1428.9567 3683.2971 6380363
-1656.4001 1430.0576 3686.135 6380363
-1611.6613 1410.0254 3634.4998 6446156
-1608.3171 1426.1566 3676.0798 6446156
-1583.9554 1423.8381 3670.1033 6643535
-1555.2751 1417.5187 3653.8142 6577742
-1532.8071 1416.7628 3651.8662 6840914
-1510.751 1416.3716 3650.8577 7235672
-1493.6879 1420.718 3662.061 6709327
-1467.4236 1416.3119 3650.7039 6643535
-1447.4396 1417.9263 3654.865 6643535
