# .PCD v0.7 - Point Cloud Data file format
VERSION 0.7
FIELDS x y z rgb
SIZE 4 4 4 4
TYPE F F F U
COUNT 1 1 1 1
WIDTH 1302
HEIGHT 1
VIEWPOINT 0 0 0 1 0 0 0
POINTS 1302
DATA ascii
4.5155149 1363.3101 4650.5635 7500392
32.126617 1365.6331 4658.4878 7105635
59.529922 1361.0579 4642.8809 7237222
87.335533 1365.6658 4658.5996 6974050
114.68078 1362.5905 4648.1089 6974050
142.40945 1364.3798 4654.2129 7303015
169.87982 1363.5153 4651.2637 7303015
197.4124 1363.3215 4650.603 7303014
227.39062 1377.9962 4700.6616 7105635
256.36871 1384.0688 4721.3765 6908256
283.0358 1377.697 4699.6411 7171427
310.95627 1378.0216 4700.748 7499622
338.64255 1377.3401 4698.4233 7565671
367.94006 1382.8177 4717.1089 7565672
397.18643 1387.343 4732.5459 7500392
427.15018 1393.6122 4753.9312 7368806
455.72556 1394.8562 4758.1748 7303013
485.1525 1398.4098 4770.2969 7303013
511.80179 1394.0066 4755.2764 7368806
539.83765 1393.6425 4754.0342 7434599
567.22144 1391.7145 4747.4575 7566185
587.90643 1374.3094 4688.085 7631721
614.41205 1371.4673 4678.3901 7697772
647.54694 1383.0298 4717.832 7697772
676.44281 1384.9559 4724.4028 7697773
714.30072 1404.3489 4790.5566 7500394
741.41003 1401.9348 4782.3218 7303272
766.48553 1395.9944 4762.0576 7237481
792.0177 1391.278 4745.9688 7237481
819.2041 1389.6912 4740.5557 7237225
850.55585 1395.0415 4758.8066 7236968
880.35699 1397.5867 4767.4893 7171176
909.36719 1398.7572 4771.4819 7368554
935.23633 1395.171 4759.249 7368554
963.1593 1394.7694 4757.8784 7368297
988.34326 1390.5369 4743.4404 7368554
1015.9226 1389.8152 4740.9785 7697518
1051.9365 1400.3608 4776.9521 7763312
1080.413 1400.5824 4777.7085 7500140
1109.1501 1401.1223 4779.5498 7566186
1140.957 1405.4165 4794.1987 7697773
1164.397 1399.446 4773.832 7566187
1192.8969 1399.696 4774.6846 7631980
1224.2931 1403.2542 4786.8223 7763566
1253.0441 1403.6879 4788.3018 7763566
1276.4495 1398.2466 4769.7402 7763565
1306.7375 1400.4172 4777.145 7763566
1329.1089 1394.1914 4755.9072 7763566
1351.59 1388.337 4735.9365 7895152
1374.2217 1382.8722 4717.2944 7763566
1400.7219 1381.4407 4712.4111 7763566
1433.3929 1386.0317 4728.0728 7829359
1461.8076 1386.41 4729.3633 7763310
1474.5887 1372.226 4680.978 7697516
1506.2821 1375.84 4693.3062 7763310
1541.0403 1382.0717 4714.564 7697516
1570.4116 1383.3362 4718.8774 7631466
1583.9574 1370.8602 4676.3188 7828845
1609.4893 1369.0084 4670.002 7894382
1636.8647 1368.7607 4669.1572 7828846
1673.2041 1375.8925 4693.4849 7500137
1704.5199 1378.7274 4703.1558 7566186
1717.7832 1367.1042 4663.5063 7566187
1752.8805 1372.9504 4683.4492 7632237
1782.9998 1374.7764 4689.6777 7698029
1808.5477 1373.0754 4683.8755 7763566
1848.8127 1382.4305 4715.7881 7698030
1874.928 1381.0842 4711.1953 7960175
1901.788 1380.318 4708.5815 7894382
1928.7657 1379.6583 4706.3311 7697003
1960.1366 1382.1146 4714.7104 7762796
1993.7439 1386.0571 4728.1592 7894382
2035.2836 1395.3282 4759.7852 7762794
2050.5989 1386.6133 4730.0562 7762794
2068.9077 1380.13 4707.9404 7762794
2099.1416 1381.6687 4713.189 7762794
2137.4507 1388.412 4736.1924 7828587
2165.7349 1388.5533 4736.6743 7762794
2192.5229 1387.744 4733.9136 7828586
2207.2434 1379.4136 4705.4966 7828587
2247.3936 1386.985 4731.3242 7960172
2258.425 1376.6204 4695.9683 7894379
2284.7332 1375.7069 4692.8521 7631208
2309.7917 1374.0718 4687.2744 7697001
2337.1799 1373.8448 4686.5005 7697001
2395.8694 1391.807 4747.7734 7697001
2399.8059 1377.9143 4700.3818 7499622
2437.6655 1383.5947 4719.7593 7631208
2445.5835 1372.3444 4681.3818 7697001
2495.6006 1384.7056 4723.5488 7565415
2528.1487 1387.2073 4732.0825 7433829
2555.728 1386.9576 4731.231 7565415
2578.4456 1384.1034 4721.4946 7631208
2613.1289 1387.6649 4733.6436 7631208
2623.8325 1378.5519 4702.5571 7697000
2648.5798 1376.9313 4697.0288 7762794
2668.6113 1372.9182 4683.3394 7762794
2774.8845 1412.8999 4819.7261 7894380
2798.739 1410.5289 4811.6382 7960173
2818.9788 1406.4026 4797.562 7894380
2852.1882 1408.7645 4805.6191 7894380
2872.6392 1404.8402 4792.2324 7960173
2884.9692 1397.0603 4765.6934 7762794
2913.7156 1397.3037 4766.5239 7828329
2969.9502 1410.5983 4811.8745 7762534
2968.23 1396.3756 4763.3579 7696742
2986.9565 1391.9493 4748.2588 7696743
3022.8098 1395.5126 4760.4136 7828327
3046.0916 1393.2595 4752.728 7894120
3085.9875 1398.5775 4770.8691 7894121
3130.0808 1405.6838 4795.1104 8025706
3170.9797 1411.2407 4814.0659 7959914
3192.4189 1408.1152 4803.4043 8091500
3207.7454 1402.3724 4783.8145 8223085
3259.8359 1412.6624 4818.9155 8157293
3320.4736 1426.4451 4865.9316 8091499
3345.2722 1424.7269 4860.0708 8223085
3381.1257 1427.7063 4870.2339 8157293
3400.2854 1423.6458 4856.3828 8091501
3443.3342 1429.5714 4876.5962 8223087
3461.5938 1425.1923 4861.6582 8091502
3485.3179 1423.1167 4854.5781 8091502
3504.981 1419.4305 4842.0034 8091245
3550.5527 1426.2114 4865.1348 8157293
3604.9854 1436.4137 4899.937 8091756
3599.5876 1422.804 4853.5107 8223086
3621.9595 1420.2992 4844.9668 8025707
3676.1787 1430.2244 4878.8237 7959914
3713.9028 1433.6271 4890.4312 8091500
3708.594 1420.4943 4845.6323 8025707
3752.4617 1426.2548 4865.2822 7960170
3761.9211 1418.9489 4840.3604 7959914
3775.8347 1413.4209 4821.5034 8025707
3833.5896 1424.264 4858.4917 8287853
3834.6704 1414.0466 4823.6377 8156523
3886.6187 1422.5992 4852.813 8024937
3903.1299 1418.1508 4837.6377 8024937
3952.2659 1425.5344 4862.8252 7893351
3988.7817 1428.2924 4872.2329 8024937
4018.7651 1428.688 4873.583 7432800
4042.6318 1426.9193 4867.5493 7630179
4159.4146 1457.7395 4972.6841 7630178
4225.5894 1470.5145 5016.2627 8025192
4319.5806 1492.7235 5092.0229 8157035
4287.8101 1471.4663 5019.5098 8222571
4302.5566 1466.3557 5002.0762 8288364
4337.8438 1468.2672 5008.5967 8288363
4385.2651 1474.2323 5028.9448 8222571
4423.0439 1476.8971 5038.0352 8090471
4485.4419 1487.6915 5074.8574 8024679
4558.373 1501.8125 5123.0273 7827556
4559.4941 1492.2444 5090.3882 7696227
4626.5972 1504.2549 5131.3589 7564897
4508.9341 1456.4274 4968.208 7499360
4693.5288 1506.219 5138.0591 7302494
4867.3076 1551.9204 5293.957 8683372
4823.3071 1528.0432 5212.5063 12697258
4819.9873 1517.2755 5175.7749 12828844
4816.8892 1506.7134 5139.7456 12763052
4841.0732 1504.764 5133.0957 12565673
4779.687 1476.4073 5036.3643 12236708
4858.7339 1491.5118 5087.8892 12105122
0 0 0 0
0 0 0 0
0 0 0 0
0 0 0 0
0 0 0 0
-4307.1172 1422.4032 4756.0112 1280
-4383.5532 1457.1801 4872.2925 1280
-4363.418 1460.103 4882.0659 1280
-4345.7041 1463.8805 4894.6968 1280
-4330.3853 1468.5212 4910.2134 1280
-4319.2041 1474.6372 4930.6631 1280
-4237.7793 1456.691 4870.6577 1280
-4220.9023 1460.8386 4884.5254 1536
-4560.1133 1589.1348 5313.5024 1536
-4566.7041 1602.496 5358.1772 1536
0 0 0 0
-4483.6934 1595.5525 5334.9609 1536
-4510.3037 1616.4182 5404.7285 1536
-4449.8496 1606.157 5370.4185 1536
-4442.0879 1614.9039 5399.6655 1536
-4473.3491 1638.0675 5477.1157 1536
-4627.3594 1706.8466 5707.0889 1536
-4535.1812 1685.161 5634.5801 1536
-4400.0532 1647.076 5507.2378 1536
-4325.4512 1631.2484 5454.3154 1536
-4315.5181 1639.7544 5482.7559 1536
-4189.3926 1603.9052 5362.8892 1280
-4234.5508 1633.5848 5462.1279 1280
-4149.5659 1613.1293 5393.7314 1280
-4122.8042 1615.1658 5400.5405 1280
-4094.6809 1616.6965 5405.6592 1280
-4046.4187 1610.2373 5384.0615 1280
-4141.3848 1661.125 5554.2119 1280
-4177.709 1689.1178 5647.8096 1280
-4132.6182 1684.3795 5631.9668 1280
-4152.7705 1706.3726 5705.5039 1280
-4079.5068 1690.027 5650.8496 1280
-4027.0969 1682.1213 5624.4165 1280
-3977.001 1675.0585 5600.8008 1280
-3942.9434 1674.6886 5599.564 1280
-3948.4353 1691.2532 5654.9497 1280
-3869.3047 1671.5439 5589.0493 1280
-3831.4446 1669.4774 5582.1396 1280
-3737.1409 1642.5663 5492.1587 1280
-3744.7786 1660.3823 5551.7285 1280
-3765.3813 1684.313 5631.7446 1280
-3712.2996 1675.4171 5601.9995 1280
-3500.2568 1593.9717 5329.6753 1280
-3462.4202 1591.0968 5320.0625 1536
-3420.8865 1586.4546 5304.5405 1536
-3397.6296 1590.2808 5317.334 1536
-3322.5334 1569.6876 5248.478 1536
-3240.8069 1545.5435 5167.7485 1536
-3189.2029 1535.4414 5133.9707 1536
-3143.2715 1527.9019 5108.7612 1536
-3025.6008 1485.0051 4965.3296 1536
-2996.0437 1484.938 4965.105 1536
-3016.2458 1509.7762 5048.1558 1280
-2944.6951 1488.7256 4977.7695 1280
-2931.6301 1497.1161 5005.8247 1280
-2929.989 1511.5718 5054.1592 1280
-2876.9446 1499.5333 5013.9067 1280
-2831.0818 1491.026 4985.4614 1280
-2710.0098 1442.3115 4822.5776 1280
-2723.3491 1464.8572 4897.9619 1280
-2705.5935 1470.9827 4918.4438 1280
-2660.8071 1462.3855 4889.6978 1280
-2657.0383 1476.3905 4936.5254 1280
-2628.1399 1476.5885 4937.1875 1280
-2593.6785 1473.6304 4927.2964 1024
-2538.478 1458.6875 4877.333 1024
-2504.9597 1456.0032 4868.3574 768
-2491.4778 1465.0381 4898.5669 768
-2444.0691 1454.1013 4861.9985 768
-2421.3276 1457.7544 4874.2129 768
-2397.2507 1460.682 4884.002 768
-2368.2041 1460.6162 4883.7817 1024
-2321.2737 1449.3821 4846.2188 1024
-2312.2998 1461.8632 4887.9512 768
-2218.2131 1420.1689 4748.5405 768
-2165.5979 1404.2959 4695.4668 768
-2162.7612 1420.709 4750.3462 768
-2104.467 1400.6449 4683.2588 768
-2121.5288 1430.8682 4784.3149 768
-1988.2571 1359.1445 4544.4966 768
-1976.9598 1369.9762 4580.7139 512
-1996.5293 1402.7969 4690.4546 512
-1946.0504 1386.6322 4636.4058 512
-1861.7406 1345.5537 4499.0537 65792
-1815.1218 1330.9181 4450.1177 66048
-1780.7202 1324.9414 4430.1333 66048
-1801.651 1360.5715 4549.2681 512
-1757.2335 1347.1851 4504.5083 132096
-1719.3225 1338.4503 4475.3027 197888
-1698.4108 1342.8832 4490.1245 329472
-1682.9705 1351.8519 4520.1128 256
-1613.6024 1317.0923 4403.8892 526595
-1630.8733 1353.0712 4524.1895 1974041
-1572.6486 1326.5702 4435.5796 1579283
-1544.666 1325.1117 4430.7031 1908249
-1551.9813 1354.4073 4528.6572 1776663
-1543.6094 1370.8026 4583.4771 1447955
-1513.9271 1368.5217 4575.8506 1381906
-1480.9884 1363.1602 4557.9233 1316112
-1453.0989 1362.3334 4555.1587 1250320
-1411.1561 1348.0503 4507.4014 1381651
-1377.2201 1341.0123 4483.8691 1447444
-1344.4025 1334.8081 4463.124 1973788
-1325.9155 1342.8688 4490.0762 2236959
-1301.4998 1345.1318 4497.6431 2171167
-1273.7546 1343.9767 4493.7808 1907995
-1249.5609 1346.5995 4502.5503 1710616
-1214.3529 1337.208 4471.1489 1776409
-1184.9198 1333.8987 4460.0835 1842202
-1159.1658 1334.6744 4462.6772 1907997
-1116.4889 1315.5465 4398.7202 1776411
-1088.7725 1313.5531 4392.0552 1842204
-1075.8748 1329.778 4446.3052 1842204
-1047.1012 1326.7025 4436.022 1907997
-1021.272 1327.2952 4438.0034 1973790
-997.6709 1330.8914 4450.0278 1973790
-969.12091 1327.9019 4440.0322 2039583
-939.84692 1323.7257 4426.0688 2105376
-915.4903 1326.4346 4435.126 2105375
-890.12482 1327.7986 4439.687 2236962
-865.00824 1329.6284 4445.8052 2105376
-840.1322 1331.9545 4453.5825 2039583
-809.16443 1324.4602 4428.5244 2105376
-784.41058 1326.9756 4436.9351 2039583
-754.28998 1320.2717 4414.52 1973790
-728.51172 1320.9601 4416.8213 1973790
-700.8819 1318.2169 4407.6494 1973790
-668.94849 1306.8544 4369.6567 2039583
-649.56836 1320.0881 4413.9058 2039583
-630.33716 1334.7477 4462.9219 2171169
-598.83698 1323.5735 4425.5596 2565927
-573.3006 1325.1611 4430.8682 2697513
-545.33173 1321.0085 4416.9834 2565927
-520.63257 1324.7572 4429.5176 2631720
-490.15439 1313.4187 4391.6055 2697513
-471.77338 1335.0414 4463.9043 2631720
-437.86893 1312.6948 4389.1855 2500134
-412.64362 1315.1885 4397.5229 2368549
-387.19614 1317.2623 4404.4575 2434340
-363.5567 1326.2317 4434.4478 2434340
-337.57239 1327.3782 4438.2812 2565926
-311.43622 1328.0708 4440.5972 2894890
-286.51477 1334.5494 4462.2593 3158062
-259.18933 1330.0093 4447.0786 3618613
-234.12236 1337.3423 4471.5977 4079162
-210.51515 1355.9493 4533.813 4539969
-183.14761 1352.2365 4521.3984 5066312
-157.04182 1358.1633 4541.2158 4934726
-129.61409 1352.7445 4523.0972 5460557
-104.79276 1378.7938 4610.1968 5855315
-77.213692 1374.1348 4594.6187 6118487
-49.411716 1358.2734 4541.584 6447453
-22.46207 1355.9229 4533.7246 6776415
4.357132 1342.0813 4487.4434 6710878
31.034559 1345.877 4500.1348 7171429
57.926548 1351.1692 4517.8296 6842464
84.394028 1346.3438 4501.6953 7039843
111.58715 1352.6322 4522.7217 6908257
138.53629 1354.1001 4527.6299 7105636
165.09778 1351.9177 4520.3325 7368808
191.47894 1349.074 4510.8242 7237220
218.87019 1353.1719 4524.5259 7171427
247.26372 1361.8956 4553.6953 7171427
275.32016 1367.2289 4571.5278 7171427
302.45337 1367.4327 4572.2095 7105634
329.95117 1369.1158 4577.8369 7368806
356.47861 1366.8226 4570.1694 7303013
387.62555 1381.3149 4618.6265 7237221
415.79959 1384.0005 4627.606 7237220
446.02173 1392.749 4656.8584 7237220
472.23557 1388.6913 4643.2905 7105634
502.33331 1395.8728 4667.3027 7237220
528.48328 1391.9071 4654.043 7303013
554.84625 1388.868 4643.8813 7368550
581.85492 1387.6559 4639.8286 7499879
612.60583 1395.0756 4664.6372 7434343
635.85675 1385.5122 4632.6606 7303015
664.1839 1387.3435 4638.7842 7237222
688.79272 1381.5714 4619.4839 7237222
718.07178 1385.2496 4631.7827 7171429
745.67487 1385.5431 4632.7642 7105894
764.79633 1370.6154 4582.8511 7105895
791.3797 1369.6257 4579.542 7369067
815.29486 1364.2369 4561.5239 7368810
848.61609 1374.4282 4595.5996 7499883
869.44678 1364.3848 4562.0181 7434601
911.87012 1387.8097 4640.3428 7434601
940.04089 1388.8069 4643.6768 7434345
967.70856 1389.0249 4644.4062 7434347
996.33063 1390.5631 4649.5493 7565932
1025.0962 1392.2133 4655.0669 7631726
1050.6935 1389.587 4646.2856 7631726
1078.6102 1390.084 4647.9473 7566187
1105.5282 1389.3011 4645.3296 7566187
1128.3325 1383.5123 4625.9736 7566187
1154.0198 1381.4491 4619.0752 7631979
1181.4861 1381.562 4619.4526 7631980
1207.8683 1380.4307 4615.6699 7631980
1234.9733 1380.1571 4614.7554 7631980
1258.2749 1375.7371 4599.9761 7763566
1288.0638 1378.4471 4609.0376 7763566
1310.2086 1373.0337 4590.937 7829359
1346.2078 1382.0641 4621.1313 7895152
1366.1134 1374.5415 4595.9785 7631980
1404.5413 1385.5852 4632.9048 7631979
1422.3497 1376.2543 4601.7056 7763566
1444.5128 1371.4088 4585.5039 7829359
1466.1506 1366.2526 4568.2637 7631980
1496.8041 1369.5325 4579.2305 7500394
1523.6998 1369.3186 4578.5151 7369064
1530.4719 1351.3438 4518.4136 7237479
1554.7611 1349.188 4511.2056 7303015
1577.9148 1346.1365 4501.0024 7368807
1601.7268 1343.7385 4492.9844 7631980
1645.7953 1358.1351 4541.1216 7697773
1668.355 1354.6045 4529.3164 7829102
1690.04 1350.4869 4515.5488 7894895
1716.264 1350.068 4514.1479 7960175
1773.4246 1373.6243 4592.9116 8223347
1793.7952 1368.4032 4575.4541 8157554
1828.4871 1374.0999 4594.502 7894382
1855.4504 1373.9066 4593.856 8025968
1874.5712 1367.9957 4574.0918 7762796
1893.5612 1362.1594 4554.5771 7631210
1914.7721 1358.0621 4540.8774 7697003
1944.3153 1359.9064 4547.0439 7762793
1971.5251 1360.0903 4547.6592 7762793
2007.0609 1365.9358 4567.2041 7697001
2035.2297 1366.6786 4569.688 7697001
2065.3293 1368.6816 4576.3853 7762793
2106.5947 1377.9362 4607.3291 7697001
2131.5942 1376.4506 4602.3618 7828587
2170.2065 1383.6815 4626.5396 7762794
2176.6638 1370.4866 4582.4204 7894380
2191.9155 1363.0857 4557.6743 7433829
2228.6953 1369.0897 4577.75 7302243
2256.5032 1369.504 4579.1353 7433829
2278.5781 1366.4707 4568.9927 7302243
2314.1213 1371.4906 4585.7773 7499622
2361.5618 1383.3632 4625.4751 7499622
2372.0461 1373.5635 4592.7085 7433829
2390.6934 1368.6592 4576.3101 7170657
2421.8777 1370.9619 4584.0098 7170657
2449.8457 1371.413 4585.5181 7236450
2491.5188 1379.4421 4612.3647 7170657
2509.7732 1374.4719 4595.7461 7170657
2535.4617 1373.636 4592.9507 7236450
2574.8201 1380.1449 4614.7144 7170657
2582.1555 1369.5327 4579.231 7565415
2636.9053 1384.0273 4627.6958 7565415
2668.2036 1386.0415 4634.4307 7631207
2704.8196 1390.7489 4650.1704 7631208
2685.4094 1366.8445 4570.2427 7828586
2739.96 1380.687 4616.5269 7762794
2766.5916 1380.326 4615.3203 7762794
2797.8098 1382.2384 4621.7144 7960170
2805.9514 1372.8232 4590.2334 7959913
2830.7415 1371.656 4586.3306 7762535
2882.9216 1383.6569 4626.457 7828328
2910.7239 1383.8416 4627.0747 7894121
2928.1111 1379.1174 4611.2788 8025707
2979.47 1390.3331 4648.7803 7959914
2989.6582 1382.3076 4621.9458 7828328
3012.1636 1380.0712 4614.4678 7828328
3040.1763 1380.3754 4615.4849 7959914
3108.292 1398.7203 4676.8242 8025708
3137.6382 1399.4493 4679.2617 8091502
3159.1101 1396.684 4670.0151 8025709
3185.9995 1396.3413 4668.8691 8025709
3226.6755 1401.9945 4687.772 8025709
3239.3916 1395.5063 4666.0776 7959916
3276.7207 1399.6416 4679.9043 8091502
3325.6829 1408.6344 4709.9731 8157295
3353.0454 1408.4053 4709.207 8157295
3387.4646 1411.1193 4718.2817 8223087
3402.6829 1405.8558 4700.6826 8091502
3422.4939 1402.5598 4689.6621 8025709
3477.6711 1413.6938 4726.8901 7959916
3501.2646 1411.9135 4720.937 7828586
3537.0918 1415.0553 4731.4424 7893866
3553.0249 1410.2516 4715.3804 7893867
3584.0432 1411.4636 4719.4331 7959914
3594.3608 1404.5679 4696.376 8025707
3618.3901 1403.0948 4691.4507 7959914
3659.2832 1408.1337 4708.2988 8025706
3675.1597 1403.5424 4692.9473 8025707
3695.4873 1400.7074 4683.4678 8287852
3718.3127 1398.8541 4677.2715 8157292
3774.5796 1409.5161 4712.9214 8025963
3794.8457 1406.6768 4703.4277 8156266
3824.5674 1407.3583 4705.7065 8090731
3858.2852 1409.4897 4712.833 8024937
3865.2581 1401.8905 4687.4238 8024937
3893.7881 1402.1624 4688.333 7959144
3929.9504 1405.1593 4698.354 7893351
3961.5942 1406.5101 4702.8701 7959144
3979.9192 1403.1462 4691.6226 8090730
4086.1025 1430.5891 4783.3818 8156522
4038.9304 1404.3324 4695.5889 8090730
4080.3616 1409.0314 4711.3008 8353902
4169.6768 1430.0896 4781.7119 8419950
4293.3418 1462.5651 4890.2983 8288364
4342.6914 1469.4589 4913.3486 8156777
4344.4526 1460.2651 4882.6079 8090731
4414.0962 1473.8589 4928.0605 7959144
4469.2954 1482.4825 4956.895 7893351
4510.6064 1486.4171 4970.0508 7828072
4565.7939 1494.8435 4998.2261 7368035
4529.1616 1473.2937 4926.1709 7236192
4532.8018 1465.0358 4898.5596 6973018
4499.5132 1445.0234 4831.645 6710355
4642.7422 1481.5945 4953.9258 10591885
4666.355 1479.7739 4947.8384 13223604
4692.3057 1478.7126 4944.29 12632235
4700.8677 1472.2191 4922.5776 12697257
0 0 0 0
0 0 0 0
0 0 0 0
0 0 0 0
0 0 0 0
-4233.9009 1425.9261 4675.1641 1280
-4239.9341 1437.3625 4712.6606 1280
-4216.4321 1438.8717 4717.6089 1280
-4206.6196 1445.1039 4738.042 1280
-4224.5088 1461 4790.1602 1280
-4203.061 1463.4149 4798.0781 1280
-4174.4766 1463.3608 4797.9009 1280
-4152.9282 1465.7896 4805.8638 1536
-4467.5073 1587.7084 5205.5972 1536
0 0 0 0
0 0 0 0
0 0 0 0
-4370.9248 1597.5027 5237.71 1536
-4333.2363 1595.0538 5229.6812 1536
-4309.3252 1597.6775 5238.2832 1536
-4284.0044 1599.8131 5245.2847 1536
-4246.9937 1597.5822 5237.9702 1536
-4167.1548 1579.0894 5177.3384 1536
-4117.3584 1571.7909 5153.4087 1536
-4095.9775 1575.3119 5164.9531 1536
-4105.645 1590.917 5216.1177 1536
-4089.2756 1596.5931 5234.728 1536
-4026.6526 1584.1593 5193.9609 1280
-4179.8896 1657.1111 5433.147 1536
-4140.6094 1654.2797 5423.8638 1280
-4190.0952 1687.1459 5531.6216 1280
-4154.6777 1686.0741 5528.1079 1536
-4195.7905 1716.2905 5627.1777 1536
-4171.6367 1720.0796 5639.6011 1280
-3976.9749 1653.057 5419.855 1280
-3952.2273 1656.1442 5429.9771 1280
-3916.0469 1654.4519 5424.4282 1280
-3866.2056 1646.9124 5399.7085 1280
-3828.9624 1644.6582 5392.3179 1280
-3816.0427 1652.9019 5419.3467 1280
-3771.6655 1647.5441 5401.7798 1280
-3799.416 1673.8711 5488.0981 1280
-3808.0728 1692.1682 5548.0884 1280
-3727.1772 1670.6437 5477.5161 1280
-3598.2317 1627.0142 5334.4688 1280
-3443.5515 1570.8717 5150.3955 1280
-3382.9421 1557.0222 5104.9868 1280
-3349.4021 1555.4938 5099.9761 1280
-3300.8894 1546.921 5071.8682 1536
-3252.3081 1538.158 5043.1372 1536
-3211.804 1533.0879 5026.5142 1536
-3131.8855 1508.9335 4947.3188 1280
-3048.5259 1482.6489 4861.1401 1024
-2944.3823 1445.658 4739.8589 1280
-2924.6956 1449.8214 4753.5093 1280
-2911.821 1457.4756 4778.605 1536
-2902.7542 1467.2046 4810.5034 1536
-2854.8025 1457.2773 4777.9551 1280
-2828.1128 1458.1135 4780.6963 1280
-2829.4705 1473.5735 4831.3848 1280
-2780.5974 1462.9221 4796.4624 1280
-2763.6467 1469.0192 4816.4526 1280
-2707.9966 1454.458 4768.7114 1280
-2671.3772 1449.9189 4753.8291 1280
-2633.8901 1444.8074 4737.0698 1280
-2612.2112 1448.3502 4748.6855 1280
-2577.2397 1444.5201 4736.1279 1280
-2556.5796 1448.7152 4749.8823 1280
-2544.6558 1458.0095 4780.3555 1024
-2539.5205 1471.4464 4824.4106 1024
-2535.7781 1486.0054 4872.145 768
-2577.5972 1527.907 5009.5273 768
-2558.8091 1534.4407 5030.9492 768
-2464.1357 1495.0857 4901.917 768
-2332.5461 1432.1265 4695.4932 768
-2305.0554 1432.3328 4696.1694 768
-2299.3318 1446.2352 4741.751 768
-2238.0007 1425.0729 4672.3667 768
-2175.4468 1402.5919 4598.6587 768
-2136.0461 1394.6578 4572.6455 768
-2099.8435 1388.6348 4552.8975 768
-2084.8284 1396.6487 4579.1724 768
-2052.0928 1392.8462 4566.7056 768
-2021.2518 1390.2454 4558.1782 768
-1928.8958 1344.6899 4408.8164 512
-1940.3146 1371.2217 4495.8052 256
-1906.9858 1366.4285 4480.0898 256
-1848.9496 1343.5461 4405.0659 66048
-1802.4783 1328.5326 4355.8413 2696985
-1777.0703 1328.8333 4356.8271 256
-1746.6647 1325.3507 4345.4087 512
-1731.925 1333.829 4373.2065 512
-1712.8097 1339.1437 4390.6318 263680
-1683.6482 1336.6466 4382.4448 592389
-1651.1063 1331.3456 4365.0645 1907989
-1613.8049 1321.9772 4334.3481 1908249
-1602.1779 1333.6772 4372.709 2171421
-1586.1566 1342.0442 4400.1416 1842457
-1571.3228 1351.7123 4431.8403 1908248
-1541.2585 1348.3844 4420.9292 2171167
-1522.538 1355.0372 4442.7417 2039581
-1475.7731 1336.5261 4382.0493 1907997
-1464.9034 1350.4423 4427.6763 1973789
-1432.5233 1344.6747 4408.7661 2105376
-1399.2227 1337.8127 4386.2681 2171169
-1378.1475 1342.6012 4401.9678 2105375
-1356.0852 1346.5941 4415.0596 2105374
-1322.2065 1338.7798 4389.4385 2039582
-1293.1202 1335.6017 4379.0186 1973789
-1269.3629 1337.9098 4386.5864 1907995
-1238.094 1332.2322 4367.9712 1710618
-1209.7002 1329.4716 4358.9199 1907995
-1179.8113 1324.9116 4343.9692 1842203
-1152.0037 1322.5377 4336.186 1710618
-1118.9335 1313.8761 4307.7871 1710618
-1096.2051 1317.2368 4318.8062 1644825
-1073.3632 1320.6188 4329.8945 1842204
-1044.8593 1317.0295 4318.1265 1973790
-1017.0706 1314.1843 4308.7979 1907997
-989.68896 1311.7319 4300.7573 2039583
-966.08856 1314.2941 4309.1577 2105376
-931.80896 1302.0725 4269.0869 1973790
-911.04596 1308.5836 4290.4351 1842204
-888.00446 1312.1018 4301.9702 2039583
-867.50073 1319.6886 4326.8447 2039583
-839.65442 1316.2273 4315.4961 2039583
-814.93195 1317.5994 4319.9946 2039583
-788.34021 1315.9402 4314.5547 2039583
-763.87677 1317.8412 4320.7876 2105376
-726.53088 1296.8789 4252.0586 2171169
-708.64178 1310.3888 4296.3535 1842204
-680.75684 1305.733 4281.0889 2105376
-659.04633 1313.0183 4304.9746 2302755
-638.13947 1322.5555 4336.2446 2434341
-611.61023 1320.752 4330.3311 2434341
-586.05267 1320.9805 4331.0806 2368548
-563.02942 1327.2039 4351.4849 2302755
-533.63452 1318.2843 4322.2407 2302755
-507.20721 1316.1661 4315.2954 2236962
-485.38824 1326.4163 4348.9023 2236962
-456.42795 1317.2063 4318.7061 2236962
-425.8089 1301.8312 4268.2959 2368547
-401.39804 1304.6932 4277.6797 2434339
-377.56714 1309.9531 4294.9253 2500132
-350.9407 1305.5735 4280.5654 2500132
-329.56628 1321.5721 4333.02 2631718
-303.50922 1319.91 4327.5708 2763304
-280.61014 1332.9421 4370.2988 2894890
-254.30759 1330.8134 4363.3193 3223855
-228.46883 1330.9048 4363.6187 3816247
-204.20741 1341.3802 4397.9648 4211004
-178.20917 1341.8431 4399.4824 4737348
-153.05058 1349.8701 4425.8003 5000519
-126.42218 1345.5726 4411.7104 5394764
-100.90613 1353.9603 4439.2109 5855059
-74.684639 1355.4597 4444.127 6118487
-48.122852 1349.0526 4423.1201 6184534
-21.877644 1346.8092 4415.7646 6381913
4.3031774 1351.723 4431.8755 6842464
30.256128 1338.1149 4387.2588 6710878
56.119347 1334.95 4376.8818 6842464
82.46196 1341.5851 4398.6362 6842464
108.4366 1340.4841 4395.0269 6908257
133.75185 1333.2371 4371.2656 6908257
160.11946 1337.1294 4384.0273 7039843
187.38426 1346.3815 4414.3623 6974048
213.79269 1347.9678 4419.563 7171427
238.57863 1340.094 4393.7476 7237220
276.22495 1398.8992 4586.5513 7303013
293.7616 1354.4496 4440.8149 7566185
320.12592 1354.6642 4441.5186 7434599
347.01096 1356.8822 4448.791 7434599
373.40945 1357.019 4449.2393 7303014
403.82959 1370.7889 4494.3867 7237220
431.89056 1375.3427 4509.3169 7237220
459.21741 1377.1641 4515.2886 7171427
486.6955 1379.2134 4522.0078 7237220
506.69168 1360.9529 4462.1372 7039841
536.12512 1368.5945 4487.1919 7039841
568.55847 1382.8102 4533.8003 7039841
596.12274 1384.4351 4539.1279 7171428
622.66681 1383.6526 4536.5625 7171429
647.05225 1378.3367 4519.1333 7105893
672.05902 1374.7144 4507.2568 7105893
696.74902 1370.7456 4494.2446 7237481
723.2373 1370.4767 4493.3628 7105895
752.19318 1374.7367 4507.3301 7171688
774.07312 1366.2158 4479.3926 7369066
790.78717 1349.4445 4424.4048 7566444
833.38544 1376.5023 4513.1191 7566444
852.32709 1364.0192 4472.1904 7566187
881.46521 1368.1144 4485.6177 7369066
906.94244 1366.4543 4480.1748 7565932
938.67297 1374.0424 4505.0532 7697519
961.68073 1368.7952 4487.8496 7565933
984.60187 1363.7103 4471.1782 7302761
1019.2512 1374.7104 4507.2441 7368554
1036.5175 1362.3021 4466.561 7368808
1067.4034 1367.9666 4485.1328 7368808
1092.0165 1365.5117 4477.0845 7566186
1119.5239 1366.7068 4481.0024 7500394
1150.5168 1372.0031 4498.3672 7566187
1174.8744 1369.3256 4489.5889 7697773
1200.5551 1368.2749 4486.144 7631979
1226.9615 1368.079 4485.5015 7631980
1251.6465 1366.0125 4478.7261 7500651
1275.6168 1363.2683 4469.7285 7566187
1297.026 1357.9539 4452.3047 7566187
1332.5315 1367.3158 4482.9995 7631979
1358.0941 1366.309 4479.6982 7631980
1388.6638 1370.2812 4492.7222 7697773
1412.6199 1367.701 4484.2622 7697773
1430.8839 1359.8066 4458.3789 7631980
1444.8668 1348.2037 4420.3369 7697773
1474.8351 1351.6644 4431.6831 7697773
1480.6674 1333.2705 4371.3755 7631980
1529.9161 1353.9318 4439.1172 7566187
1553.3444 1351.4302 4430.915 7894382
1577.2097 1349.3857 4424.2119 7894382
1605.6829 1351.286 4430.4424 8091504
1613.1196 1335.7063 4379.3613 8091761
1644.7854 1340.3645 4394.6343 8091760
1686.9824 1353.3259 4437.1309 8157552
1692.9628 1337.2819 4384.5273 8157552
1721.0662 1338.9337 4389.9434 8289138
1770.4656 1356.8573 4448.709 8289137
1799.7762 1359.0852 4456.0137 8025966
1836.9452 1367.097 4482.2817 8025966
1845.2758 1353.7242 4438.4365 7894379
1859.703 1345.1368 4410.2812 7697001
1895.2412 1351.8456 4432.2773 7499622
1923.7056 1353.3943 4437.355 7499622
1956.9052 1358.1877 4453.0713 7631208
1977.1143 1353.9575 4439.2017 7697000
1985.7152 1341.9934 4399.9751 7828587
2007.6194 1339.2134 4390.8604 7828587
2062.283 1358.0775 4452.71 7960173
2087.7976 1357.5123 4450.8569 8025966
2116.1472 1358.7814 4455.0176 8025966
2156.1489 1367.4089 4483.3047 8223345
2184.3928 1368.4604 4486.7524 8091759
2195.0415 1358.5964 4454.4111 8091759
2235.3289 1367.0931 4482.2695 8025966
2254.4265 1362.5835 4467.4834 7828587
2299.9917 1373.9897 4504.8809 7762793
2331.967 1377.109 4515.1079 7433829
2362.521 1379.3276 4522.3823 7499622
2379.9954 1373.9457 4504.7368 7368036
2395.7349 1367.693 4484.2358 7368036
2423.7378 1368.5015 4486.8867 7236450
2470.3896 1379.7078 4523.6289 7367779
2483.4875 1372.1351 4498.8003 7499622
2523.6667 1379.5267 4523.0352 7368293
2522.9915 1364.6652 4474.3086 7499365
2541.6018 1360.4355 4460.4409 7565415
2582.7507 1368.233 4486.0068 7565415
2604.4238 1365.6593 4477.5684 7631208
2602.9678 1351.1318 4429.937 7499622
2637.0957 1355.1807 4443.2119 7499622
2684.9067 1366.1116 4479.0508 7565415
2686.946 1353.7671 4438.5776 7631208
2711.9116 1353.1013 4436.3945 7828331
2733.2925 1350.6766 4428.4448 7894121
2774.5059 1358.0052 4452.4731 7959914
2829.4937 1371.8745 4497.9458 7959914
2854.7849 1371.2208 4495.8027 7828328
2888.6785 1374.673 4507.1211 7828328
2917.1582 1375.509 4509.8623 8025706
2931.4736 1369.7118 4490.855 7894121
2959.7131 1370.4662 4493.3286 8091500
2970.1187 1363.0231 4468.9248 8025706
3010.5857 1369.3853 4489.7842 7894123
3060.7783 1380.0205 4524.6543 7894123
3084.1465 1378.4822 4519.6104 7828329
3117.9111 1381.5769 4529.7568 7828330
3171.2175 1393.204 4567.8784 7828330
3176.9556 1383.9131 4537.4165 7828330
3214.2219 1388.397 4552.1177 7762536
3243.0793 1389.2041 4554.7642 7762537
3282.5728 1394.5164 4572.1816 7959916
3308.105 1393.8593 4570.0269 7959916
3331.717 1392.4102 4565.2759 7959915
3359.6963 1392.795 4566.5376 7959916
3381.4392 1390.6089 4559.3701 8025709
3411.1675 1391.7155 4562.998 7894123
3431.8669 1389.1499 4554.5864 7894123
3469.8416 1393.5624 4569.0537 7894123
3494.6633 1392.6652 4566.1118 7959914
3538.6279 1399.3517 4588.0347 8025707
3544.3796 1390.9399 4560.4556 7894122
3570.6692 1390.6545 4559.5195 8091501
3626.3074 1401.7178 4595.7925 7960170
3617.6494 1387.9484 4550.647 8025706
3647.2866 1388.9662 4553.9839 8025707
3655.9365 1382.0354 4531.2603 8091500
3688.7295 1384.2657 4538.5728 8157292
3734.8296 1391.4215 4562.0342 8091243
3743.3494 1384.5743 4539.5845 8024680
3781.3672 1388.6576 4552.9722 7893351
3802.165 1386.4039 4545.5835 8156523
3890.9036 1408.7815 4618.9521 8090730
3886.4746 1397.3488 4581.4678 8024937
3914.2173 1397.5614 4582.165 8090730
3952.7991 1401.6146 4595.4541 8024680
3960.0688 1394.5853 4572.4077 8090730
4048.9243 1416.1879 4643.2354 8222573
4163.522 1446.4418 4742.4282 8683124
4167.002 1437.9457 4714.5723 8223086
4165.9805 1428.0195 4682.0278 8222316
4206.9946 1432.5387 4696.8447 8288109
4247.4868 1436.8217 4710.8872 8222315
4300.8872 1445.3868 4738.9697 8091499
4327.7891 1444.9935 4737.6802 8090730
4404.5269 1461.1373 4790.6108 8024937
4460.9668 1470.3843 4820.9282 7959143
4462.1001 1461.3995 4791.4702 7958887
4462.644 1452.3368 4761.7563 7498848
4503.7661 1456.5109 4775.4419 6840916
4448.3989 1429.6232 4687.2856 10525067
4458.0381 1423.8312 4668.2954 13157810
0 0 0 0
0 0 0 0
0 0 0 0
0 0 0 0
0 0 0 0
-4120.4526 1414.6779 4549.8916 1280
-4103.4106 1418.1055 4560.9155 1280
-4080.9263 1419.6854 4565.9966 1280
-4066.4453 1424.0889 4580.1592 1280
-4057.3357 1430.4453 4600.603 1280
-4032.6062 1431.3438 4603.4922 1280
-4218.5493 1507.5402 4848.5557 1280
-4299.2251 1546.9054 4975.1621 1536
-4342.2139 1573.1604 5059.6035 1536
0 0 0 0
-4277.8872 1571.5565 5054.4448 1536
-4181.2632 1546.8898 4975.1118 1536
-4143.312 1543.7333 4964.96 1536
-4165.563 1563.1224 5027.3193 1536
-4113.8618 1554.8409 5000.6841 1536
-4050.8933 1542.1494 4959.8657 1536
-4067.123 1559.6431 5016.1294 1536
-4066.6982 1570.9608 5052.5293 1536
-4048.1006 1575.3743 5066.7236 1536
-4135.5786 1621.4429 5214.8896 1280
-3995.5608 1578.3389 5076.2583 1536
-3991.0105 1588.4998 5108.938 1536
-4163.9531 1670.0015 5371.064 1536
-4153.6582 1678.7032 5399.0508 1536
-4179.6084 1702.302 5474.9492 1536
-4086.3062 1677.3203 5394.603 1536
-4074.3169 1685.5846 5421.1821 1536
-4011.3181 1672.7092 5379.7729 1280
-3807.2798 1600.3434 5147.0298 1280
-3822.0437 1619.5225 5208.7134 1280
-3818.5161 1631.2 5246.2705 1280
-3762.3088 1620.3807 5211.4736 1280
-3732.0745 1620.6613 5212.3755 1280
-3755.5925 1644.483 5288.9917 1280
-3769.3743 1664.4067 5353.0703 1280
-3756.823 1672.9424 5380.5225 1280
-3649.9126 1639.2455 5272.1465 1280
-3563.7524 1614.3668 5192.1313 1280
-3489.7798 1594.6235 5128.6333 1280
-3350.4653 1544.4139 4967.1489 1280
-3247.269 1510.1106 4856.8228 1280
-3237.7417 1519.1434 4885.874 1280
-3171.2656 1501.3777 4828.7358 1280
-3156.8567 1508.1631 4850.5591 1280
-3076.8635 1483.4531 4771.0869 1536
-2965.5916 1443.0646 4641.189 1536
-2912.1616 1430.3292 4600.2295 1280
-2882.9221 1429.3469 4597.0703 1280
-2848.9102 1425.9572 4586.168 1280
-2837.7134 1434.0316 4612.1372 1280
-2820.6995 1439.2949 4629.0649 1280
-2783.4026 1434.2103 4612.7119 1280
-2782.3367 1447.8788 4656.6724 1280
-2801.1213 1472.2545 4735.0698 1280
-2792.6665 1482.6616 4768.541 1280
-2759.5366 1480.0472 4760.1328 1280
-2707.6106 1467.1937 4718.7935 1280
-2653.7783 1453.0283 4673.2344 1280
-2569.3848 1421.6543 4572.3291 1280
-2590.2253 1448.4589 4658.5381 1024
-2557.3418 1445.4746 4648.9399 1024
-2501.9141 1429.5438 4597.7036 1024
-2508.3672 1449.0094 4660.3086 1024
-2493.7693 1456.6122 4684.7607 768
-2574.5208 1520.7068 4890.9019 768
-2543.022 1519.2023 4886.0635 768
-2480.1421 1498.7002 4820.1245 768
-2385.8308 1458.506 4690.8516 768
-2332.6846 1442.8258 4640.4209 768
-2268.6311 1419.9446 4566.8301 768
-2249.5042 1424.97 4582.9932 768
-2197.8337 1409.2513 4532.4385 768
-2144.2397 1391.8951 4476.6177 768
-2109.7925 1386.6887 4459.8726 768
-2096.8381 1395.6558 4488.7124 512
-2042.2928 1376.8147 4428.1157 512
-2041.1451 1393.9497 4483.2256 512
-1973.2311 1365.339 4391.2075 512
-1945.28 1363.9847 4386.8521 512
-1909.7723 1357.2235 4365.1064 65792
-1869.9318 1347.1552 4332.7246 131328
-1842.514 1345.8807 4328.626 196864
-1816.8651 1345.8807 4328.626 262144
-1756.3741 1319.701 4244.4268 131072
-1738.0295 1324.8887 4261.1113 196864
-1734.3881 1341.6027 4314.8667 1250056
-1669.7235 1310.9072 4216.144 789504
-1653.1555 1317.6136 4237.7134 395009
-1622.8038 1313.3716 4224.0698 658182
-1598.5459 1314.0057 4226.1094 2303263
-1602.3732 1338.1134 4303.6445 2237213
-1589.7478 1349.0393 4338.7847 2171678
-1563.4108 1348.4977 4337.0425 2105628
-1530.6774 1342.3286 4317.2017 2040348
-1502.7213 1340.2106 4310.3896 2171937
-1478.4674 1341.3781 4314.1445 2302753
-1453.4888 1341.9176 4315.8799 1973788
-1425.5192 1339.6658 4308.6372 1973788
-1402.7094 1342.269 4317.0103 1973788
-1370.2703 1335.5836 4295.5083 1842202
-1330.3394 1321.2047 4249.2627 1776411
-1302.9037 1318.9199 4241.9146 1710618
-1280.798 1322.0468 4251.9712 1776411
-1242.4169 1308.1625 4207.3164 1644825
-1228.9283 1320.4562 4246.8555 1579032
-1206.6251 1323.5946 4256.9492 1776411
-1177.3798 1319.0894 4242.4595 1710618
-1149.7296 1316.2139 4233.2114 1710618
-1120.7073 1311.6041 4218.3853 1644825
-1094.8499 1310.5725 4215.0674 1710618
-1063.9475 1303.3129 4191.7188 1842204
-1041.4506 1306.2485 4201.1606 2039583
-1012.9273 1301.5845 4186.1602 2105376
-990.5603 1304.7954 4196.4873 1973790
-962.66974 1300.7086 4183.3433 2039583
-937.80304 1300.5995 4182.9922 1907997
-914.64899 1302.9242 4190.4688 1907997
-884.33228 1294.8905 4164.6309 1907997
-862.60553 1299.3346 4178.9238 1973790
-840.5058 1303.4629 4192.2017 2039583
-819.17517 1309.0719 4210.2412 1973790
-794.14862 1308.9413 4209.8213 1907997
-762.98853 1298.365 4175.8057 1973790
-738.71155 1299.1852 4178.4434 2105376
-715.23895 1301.5259 4185.9717 2105376
-687.81805 1296.592 4170.1035 2171169
-663.38037 1297.1235 4171.813 2236962
-638.19696 1296.1816 4168.7837 2302755
-612.66705 1294.4319 4163.1562 2171169
-591.88812 1302.9943 4190.6943 2105376
-564.81622 1297.8463 4174.1377 1907997
-538.0553 1292.9742 4158.4678 1973790
-517.77173 1303.9468 4193.7578 1973790
-491.91083 1301.2719 4185.1548 1973790
-469.35999 1307.5339 4205.2949 2105376
-443.24207 1304.004 4193.9419 2171169
-414.9906 1293.405 4159.8535 2171169
-390.41513 1293.6481 4160.6353 2302754
-365.82318 1293.8655 4161.3345 2236962
-341.39865 1294.7494 4164.1772 2236962
-318.40601 1301.6244 4186.2886 2236961
-293.60056 1301.6244 4186.2886 2434341
-269.93036 1307.1217 4203.9692 2565925
-246.26408 1313.7578 4225.312 3289648
-222.98001 1324.1656 4258.7856 3552820
-198.73433 1330.7905 4280.0928 4013370
-174.52394 1339.6244 4308.5044 4605761
-147.77728 1328.682 4273.311 4934726
-124.35526 1349.2871 4339.5815 5197385
-98.107346 1341.9808 4316.083 5855569
-73.045525 1351.4666 4346.5913 6118741
-46.742744 1335.8206 4296.2705 6381912
-21.306246 1337.1152 4300.4341 6513499
4.1808577 1338.8138 4305.8975 6579292
29.558901 1332.6764 4286.1582 6776671
54.793694 1328.7379 4273.4912 6776671
80.062225 1327.8486 4270.6309 6842464
105.58486 1330.5886 4279.4434 6908257
130.8022 1329.1652 4274.8652 6974050
156.2225 1329.9315 4277.3301 7171429
181.77396 1331.4445 4282.1958 7171427
207.69577 1334.9673 4293.5259 7237220
233.91368 1339.4167 4307.8364 7303013
258.26804 1333.3695 4288.3872 7237220
286.54791 1346.8568 4331.7651 7303013
311.20187 1342.4849 4317.7041 7171427
338.01471 1347.3827 4333.4565 7237220
364.276 1349.5455 4340.4126 7237221
390.63318 1351.7549 4347.5186 7303013
419.62949 1362.2585 4381.3003 7368806
448.38931 1370.8153 4408.8203 7303014
470.49777 1359.2147 4371.5107 7434599
500.22769 1369.6935 4405.2124 7368806
521.73096 1357.7242 4366.7173 7039841
553.55554 1372.4767 4414.1641 7237220
579.85107 1372.8077 4415.2285 7105636
603.21637 1366.4723 4394.8525 7105636
622.31183 1351.389 4346.3418 7237222
659.659 1375.5643 4424.0942 7303015
679.66071 1363.104 4384.0195 7171174
701.91431 1355.9113 4360.8862 7105382
728.65723 1357.5936 4366.2969 7434347
759.03888 1365.7074 4392.3926 7565932
783.69897 1363.3301 4384.7466 7631726
808.3233 1361.045 4377.3975 7631726
834.69879 1361.7593 4379.6943 7763568
856.92334 1355.8622 4360.7285 7565932
886.75568 1361.9957 4380.4551 7697262
910.75488 1359.0757 4371.0635 7500140
938.20154 1361.3193 4378.2798 7500140
960.97321 1356.8416 4363.8784 7434347
984.95959 1354.2686 4355.603 7302761
1015.6959 1360.871 4376.8374 7237222
1043.5139 1363.3315 4384.7515 7368551
1068.4269 1361.9696 4380.3711 7105636
1094.2449 1361.7986 4379.8208 7171429
1119.2323 1360.6257 4376.0488 7500393
1146.8525 1362.6342 4382.5083 7500394
1174.2144 1364.2533 4387.7158 7500394
1197.379 1361.0317 4377.3545 7763566
1219.0044 1356.234 4361.9243 7566187
1245.6875 1357.1459 4364.8569 7697773
1272.9958 1358.6879 4369.8164 7566187
1293.7319 1353.2937 4352.4673 7631980
1319.4624 1353.2324 4352.2705 7566187
1346.1499 1354.1364 4355.1777 7631979
1364.7389 1347.0128 4332.2671 7631979
1389.3959 1346.0311 4329.1094 7566187
1417.3336 1348.2057 4336.1035 7631979
1437.6227 1343.1567 4319.8647 7500394
1467.1078 1346.7257 4331.3438 7697773
1492.241 1346.2461 4329.8008 7566187
1515.204 1343.8578 4322.1196 7762796
1525.5873 1330.5773 4279.4067 7762795
1561.1405 1339.3246 4307.54 7828588
1579.1984 1333.0223 4287.2705 7828589
1598.5214 1327.9706 4271.0234 7960175
1650.6521 1349.9066 4341.5742 7894380
1662.4142 1338.6626 4305.4111 7960173
1681.0345 1333.1976 4287.8345 8157552
1703.3685 1330.7966 4280.1123 8025966
1749.1066 1346.4827 4330.562 8025966
1767.7095 1341.1285 4313.3418 8025966
1797.1926 1344.0637 4322.7822 8091759
1822.472 1343.8169 4321.9883 8025966
1840.9265 1338.614 4305.2549 8025966
1861.0674 1334.7629 4292.8691 8025966
1892.9415 1339.3176 4307.5176 7960173
1916.2631 1337.7802 4302.5728 7960173
1932.082 1331.1143 4281.1338 8157552
1970.5134 1339.998 4309.7061 8091759
1997.3412 1340.8647 4312.4937 8091759
2028.749 1344.7455 4324.9746 8091759
2052.3101 1343.3928 4320.6245 8223344
2078.3831 1343.6979 4321.6055 8091759
2116.9341 1351.9641 4348.1914 8157552
2147.3506 1354.8993 4357.6313 8091758
2169.03 1352.3175 4349.3276 8091759
2204.1069 1358.0509 4367.7676 8157806
2235.9678 1361.6927 4379.4805 8157807
2262.5581 1362.0781 4380.7197 7960428
2293.0598 1364.7827 4389.4185 7763048
2319.1921 1364.8552 4389.6519 7828840
2335.9172 1359.4513 4372.2715 8025707
2351.1096 1353.2838 4352.4355 7894635
2390.0239 1360.7561 4376.4683 7894123
2414.4387 1359.9014 4373.7192 7697001
2415.4397 1346.0173 4329.0654 7697001
2469.2351 1361.5359 4378.9761 7697001
2488.3455 1357.8054 4366.978 7697001
2507.408 1354.1256 4355.1431 7565415
2517.8167 1345.895 4328.6719 7762794
2520.4768 1333.7302 4289.5474 7631208
2541.9561 1331.6672 4282.9126 7631208
2569.3396 1332.7074 4286.2578 7631208
2631.3337 1351.5042 4346.7119 7697001
2658.1804 1352.0588 4348.4961 7828327
2662.9778 1341.4955 4314.522 7894121
2664.0718 1329.2849 4275.2505 7959914
2667.604 1318.5099 4240.5957 7894121
2779.9058 1361.1954 4377.8809 7959914
2806.9407 1361.7261 4379.5879 7894121
2827.0374 1358.9121 4370.5376 8025709
2858.0312 1361.3397 4378.3452 7959916
2885.9143 1362.2554 4381.29 7959916
2902.8201 1358.0192 4367.6655 7959916
2940.8391 1363.6478 4385.7686 7894123
2959.7949 1360.4159 4375.374 7894123
3008.9607 1371.0049 4409.4302 8091502
3037.7065 1372.1876 4413.2344 7959916
3068.1443 1374.1078 4419.4102 7959916
3088.5635 1371.5466 4411.1729 8025709
3122.3831 1374.9292 4422.0518 8025709
3145.0168 1373.3707 4417.0396 7894123
3177.7366 1376.2062 4426.1587 7762537
3195.4065 1372.5308 4414.3379 7762537
3203.3105 1364.7543 4389.3271 7828330
3236.241 1367.6796 4398.7354 8025709
3310.937 1388.0679 4464.3081 8157295
3322.4341 1381.8474 4444.3022 8157294
3330.7749 1374.4226 4420.4224 7959916
3348.3264 1370.8846 4409.0435 8091501
3362.0347 1365.8402 4392.8198 7959915
3408.5374 1374.0938 4419.3647 7828330
3463.2224 1385.4948 4456.0327 7696744
3466.5713 1376.3413 4426.5933 7762536
3491.8872 1375.9813 4425.4355 8025706
3519.259 1376.4309 4426.8813 8025706
3551.6873 1378.8368 4434.6191 8091501
3589.218 1383.1736 4448.5674 7893866
3594.2139 1375.0007 4422.2817 8025194
3617.0374 1373.7169 4418.1528 8025450
3657.9941 1379.2888 4436.0732 8222830
3679.343 1377.4408 4430.1294 8156524
3685.1462 1369.8402 4405.6846 8288111
3680.1741 1358.3693 4368.7915 8222317
3676.6414 1347.5863 4334.1113 8288109
3729.573 1357.505 4366.0117 8222317
3754.6162 1357.2061 4365.0503 8090730
3780.9214 1357.364 4365.5586 8090730
3856.0776 1374.9386 4422.082 8090729
3902.7942 1382.2039 4445.4482 8090730
3922.2781 1379.7915 4437.6899 8156523
4056.3 1417.4357 4558.7612 8156523
4032.939 1399.9496 4502.5225 8024937
4043.2026 1394.2887 4484.3159 7893351
4108.1919 1407.4506 4526.647 7828071
4183.8799 1424.0831 4580.1406 8157292
4210.6738 1423.9664 4579.7651 8288879
4286.2822 1440.2534 4632.1479 8288878
4291.0132 1432.6691 4607.7549 8157292
4347.0322 1442.196 4638.3955 8157292
4340.2935 1430.9135 4602.1084 8156776
4449.3633 1457.7131 4688.3018 8354155
4557.4707 1483.8669 4772.4175 7959395
0 0 0 0
0 0 0 0
0 0 0 0
0 0 0 0
0 0 0 0
-4040.9832 1413.8337 4462.1401 1280
-4034.3057 1420.7936 4484.106 1280
-4010.6089 1421.8123 4487.3208 1280
-3995.8796 1426.0448 4500.6792 1280
-3979.9692 1429.9099 4512.8774 1280
-3963.7458 1433.7141 4524.8838 1280
-4218.5493 1536.2699 4848.5557 1536
0 0 0 0
0 0 0 0
-4129.2681 1535.1201 4844.9272 1536
-4128.9751 1545.7579 4878.5005 1536
-4085.4636 1540.2521 4861.1235 1536
-4024.241 1527.9432 4822.2764 1280
-3952.5603 1511.4591 4770.2515 1280
-3917.5745 1508.871 4762.083 1280
-3939.8706 1528.4675 4823.9312 1280
-3956.0225 1545.9493 4879.105 1280
-3948.019 1554.1799 4905.0806 1536
-4107.5767 1628.9836 5141.1655 1536
-4106.4053 1640.687 5178.1025 1536
-4111.5493 1655.1089 5223.6187 1536
-4251.7168 1724.5159 5442.6709 1536
-4150.7896 1696.4471 5354.0845 1536
-4073.8528 1677.8265 5295.3169 1536
-4042.3115 1677.7584 5295.1016 1536
-3854.9412 1612.5063 5089.1626 1536
-3849.3965 1622.8821 5121.9087 1536
-3797.7368 1613.8264 5093.3286 1280
-3783.8374 1620.8003 5115.3384 1280
-3768.6951 1627.3499 5136.0093 1280
-3797.0103 1652.9243 5216.7236 1280
-3816.5278 1675.0574 5286.5767 1280
-3824.3 1692.3589 5341.1816 1280
-3694.0378 1648.3556 5202.3047 1280
-3599.6929 1619.7733 5112.0977 1280
-3464.9812 1572.3879 4962.5464 1280
-3354.3955 1535.2334 4845.2847 1280
-3310.7957 1528.3599 4823.5913 1280
-3252.2319 1514.3988 4779.5293 1280
-3202.1919 1504.1964 4747.3301 1280
-3179.4231 1506.7369 4755.3481 1280
-3112.4395 1488.1821 4696.7881 1280
-3061.1687 1476.8733 4661.0967 1280
-3008.5393 1464.697 4622.6675 1280
-2935.0862 1442.0658 4551.2422 1280
-2890.24 1433.2004 4523.2627 1280
-2851.3579 1427.1542 4504.1802 1280
-2819.1985 1424.3904 4495.4575 1280
-2784.5327 1420.2953 4482.5332 1280
-2775.1208 1429.1267 4510.4058 1280
-2765.7349 1438.1432 4538.8623 1280
-2768.2576 1453.59 4587.6133 1280
-2758.7622 1462.9698 4617.2168 1280
-2773.7764 1485.6655 4688.8452 1280
-2727.1738 1475.4836 4656.7109 1024
-2695.291 1473.1388 4649.3105 1024
-2578.0293 1423.5991 4492.9604 1024
-2566.4543 1431.9952 4519.459 1024
-2556.9001 1441.7078 4550.1123 1024
-2570.0535 1464.5674 4622.2588 1024
-2504.4292 1442.5438 4552.751 1024
-2502.4863 1457.1204 4598.7554 1024
-2496.8784 1469.8604 4638.9634 1024
-2468.3052 1469.2142 4636.9243 768
-2481.2156 1493.5238 4713.647 768
-2398.2568 1460.0234 4607.9175 768
-2398.0979 1476.7389 4660.6729 768
-2333.825 1453.9031 4588.6016 768
-2270.8438 1431.343 4517.4004 768
-2227.1184 1420.5267 4483.2637 768
-2197.6245 1418.6361 4477.2969 768
-2156.0808 1408.8257 4446.3345 512
-2130.5149 1409.3418 4447.9634 512
-2062.0454 1381.1348 4358.9404 512
-2035.2188 1380.4578 4356.8037 512
-1997.4976 1372.2788 4330.9902 512
-1973.1881 1373.2206 4333.9629 512
-1950.0801 1375.0344 4339.6875 512
-1843.3466 1317.1431 4156.979 256
-1864.3882 1350.2206 4261.3735 65792
-1827.8151 1341.908 4235.1382 256
-1793.4427 1335.002 4213.3428 65536
-1810.7609 1366.9214 4314.0825 723977
-1753.6541 1342.7682 4237.8535 1907992
-1706.4012 1325.568 4183.5684 1513489
-1701.0658 1340.903 4231.9663 789511
-1655.4363 1324.4589 4180.0679 1447697
-1649.0089 1339.356 4227.084 3421744
-1606.7593 1325.1683 4182.3071 4013624
-1580.5677 1323.9874 4178.5801 3948088
-1557.0734 1325.0642 4181.9785 3948089
-1532.4332 1325.1852 4182.3604 3421488
-1521.0906 1336.998 4219.6426 2763305
-1489.3992 1331.0209 4200.7783 2302753
-1466.988 1333.275 4207.8926 2171167
-1451.9617 1342.4348 4236.8013 2039581
-1414.3572 1330.6747 4199.6855 2039581
-1393.1082 1334.1566 4210.6748 1907995
-1376.9017 1342.6829 4237.584 1907995
-1341.8605 1332.8179 4206.4497 1907994
-1313.9904 1329.8373 4197.0425 1907997
-1281.5826 1322.0604 4172.4985 1973790
-1253.7817 1318.8237 4162.2832 1973790
-1233.2101 1323.2139 4176.1387 1907997
-1206.6746 1321.2537 4169.9521 1907997
-1186.8024 1326.6602 4187.0151 1776411
-1155.9668 1319.7804 4165.3022 1710618
-1129.2255 1317.3767 4157.7163 1842204
-1102.401 1314.7668 4149.4795 1907997
-1068.0492 1302.8557 4111.8872 1973790
-1042.1865 1300.9855 4105.9849 1973790
-1020.8459 1304.806 4118.0425 1973790
-990.0224 1296.3961 4091.5002 1842204
-968.54309 1300.1069 4103.2119 2039583
-945.7489 1302.1985 4109.813 1907997
-920.88306 1301.4727 4107.522 1973790
-898.74518 1304.6675 4117.6055 1907997
-871.91748 1301.0426 4106.165 1973790
-850.48773 1305.4956 4120.2188 2039583
-828.49567 1309.323 4132.2983 1973790
-804.34399 1309.8668 4134.0146 2039583
-780.55066 1311.0465 4137.7378 2039583
-750.89117 1302.1301 4109.5972 2105376
-727.34924 1303.5802 4114.1738 2039583
-706.13837 1309.4536 4132.7104 1973790
-672.3725 1291.6306 4076.4602 2105376
-652.35437 1299.873 4102.4736 2171169
-626.59741 1296.8757 4093.0142 2171169
-603.40784 1299.1648 4100.2383 2236962
-580.10992 1301.403 4107.3022 2105376
-553.12805 1295.2107 4087.759 2105376
-533.3158 1306.0084 4121.8374 1973790
-510.42761 1309.9489 4134.2734 1907997
-485.79758 1309.5908 4133.1436 1907997
-459.27722 1303.8284 4114.957 2039583
-433.56937 1299.8557 4102.4189 2039583
-409.63574 1301.0464 4106.1768 2039583
-384.06235 1296.8502 4092.9336 2105376
-359.53088 1295.844 4089.7581 2105375
-336.55655 1300.7103 4105.1162 2039581
-313.53421 1306.1346 4122.2358 2105374
-287.87729 1300.5732 4104.6836 2368545
-262.75595 1296.6281 4092.2324 2697511
-241.60376 1313.459 4145.3516 2829097
-217.72829 1317.6189 4158.4805 3092269
-195.43456 1333.6342 4209.0259 3289648
-168.32047 1316.6294 4155.3579 3684916
-144.65536 1325.3986 4183.0337 4276796
-119.94036 1326.1852 4185.5166 5263176
-95.702965 1334.0397 4210.3057 5395018
-70.710762 1333.2017 4207.6606 5789776
-45.61742 1328.5051 4192.8384 5987155
-20.843018 1332.9722 4206.9365 5921362
4.0753675 1329.9038 4197.2524 6447706
29.0322 1333.8746 4209.7847 6579292
53.612877 1324.8798 4181.3965 6974050
78.82589 1332.2582 4204.6831 7039843
103.87458 1333.9823 4210.1245 7105636
127.82995 1323.7169 4177.7266 7171429
153.31461 1330.0496 4197.7124 7105636
178.36897 1331.4022 4201.9819 7237220
204.55533 1339.8381 4228.606 7303013
228.20676 1331.641 4202.7354 7237220
253.93022 1335.9581 4216.3604 7171427
281.20639 1346.9391 4251.0171 7434599
305.38495 1342.4972 4236.998 7368806
330.25168 1341.5256 4233.9316 7368806
356.2179 1344.8422 4244.3989 7368806
380.9621 1343.412 4239.8853 7303013
408.43695 1351.1924 4264.4404 7368806
435.39633 1356.4602 4281.0659 7566184
461.76593 1359.4115 4290.3809 7303013
490.70471 1369.2239 4321.3491 7303013
517.2168 1371.6276 4328.9351 7237220
538.10577 1359.5964 4290.9644 7171427
