# .PCD v0.7 - Point Cloud Data file format
VERSION 0.7
FIELDS x y z rgb
SIZE 4 4 4 4
TYPE F F F U
COUNT 1 1 1 1
WIDTH 1283
HEIGHT 1
VIEWPOINT 0 0 0 1 0 0 0
POINTS 1283
DATA ascii
-43.030499 1370.3436 3955.0664 2829097
-19.505156 1364.0505 3936.9036 2763304
3.8256857 1365.1593 3940.1033 3026476
27.142052 1363.6355 3935.7053 2960683
50.492882 1364.4514 3938.0603 3223855
73.044014 1349.9719 3896.2698 3421234
96.025764 1348.4944 3892.0054 2960683
120.57898 1365.3837 3940.7512 2894890
143.00461 1356.6097 3915.4277 3092269
163.92551 1338.0031 3861.7256 3157805
188.09262 1347.2058 3888.2861 3223598
211.22083 1347.7708 3889.9167 3486770
233.55775 1343.6724 3878.0881 3223598
258.17059 1352.2288 3902.7834 3420974
281.32697 1352.377 3903.2109 3420975
305.92563 1358.9091 3922.064 3618354
327.99142 1354.0624 3908.0757 3157803
352.84491 1360.6044 3926.9573 2960425
379.80688 1373.9647 3965.5173 3026218
397.74579 1355.0286 3910.864 2894633
424.51529 1366.6051 3944.2761 3026219
449.54175 1371.6549 3958.8511 2565667
479.62552 1390.8698 4014.3083 2565665
502.4137 1388.1117 4006.3484 2565666
525.67572 1386.8528 4002.7148 2828840
546.43347 1379.381 3981.1499 3289391
565.1557 1367.6017 3947.1526 3223598
596.59857 1386.3177 4001.1707 3157805
614.97028 1374.3905 3966.7463 3157803
639.16681 1375.8801 3971.0457 3223339
669.63019 1390.275 4012.592 3157546
689.17181 1381.7847 3988.0874 3157546
711.8172 1379.874 3982.5728 2960167
733.44122 1376.1696 3971.8809 2696739
758.10333 1378.2186 3977.7949 2894374
779.65491 1374.6598 3967.5234 2894632
802.02728 1372.7141 3961.908 2960424
820.93311 1365.1146 3939.9744 2960425
848.42883 1371.8243 3959.3398 2894631
871.76776 1371.6329 3958.7874 2960423
892.76019 1367.8561 3947.8867 3092011
915.99146 1367.6149 3947.1907 3092012
939.21265 1367.3711 3946.4868 3223598
963.35486 1368.4473 3949.593 3026219
984.86877 1365.8275 3942.0322 3092012
1008.2269 1365.8275 3942.0322 3026219
1028.4843 1361.722 3930.1831 3026219
1049.8417 1359.2228 3922.9695 3092012
1073.2979 1359.4901 3923.741 3026219
1091.0209 1352.6381 3903.9648 3026219
1114.8711 1353.5093 3906.4792 3092012
1139.7104 1355.5216 3912.2874 3092012
1160.514 1352.7494 3904.2861 3157805
1182.8326 1351.8169 3901.595 3157805
1208.181 1354.3165 3908.8093 3026219
1217.5105 1339.1034 3864.9011 3026219
1251.0233 1350.5593 3897.9653 3157805
1272.2167 1348.5415 3892.1414 3092012
1289.7423 1342.777 3875.5039 3026476
1308.0043 1337.9673 3861.6223 2960940
1338.2252 1345.3457 3882.9175 2960683
1355.5471 1339.726 3866.6982 3158062
1383.9825 1345.0946 3882.1929 2894890
1389.731 1328.5984 3834.582 3026476
1427.6813 1342.9232 3875.9258 3026476
1450.5674 1342.8489 3875.7114 3026219
1470.8124 1340.37 3868.5569 2960426
1494.4666 1341.0264 3870.4512 2763047
1557.8021 1376.7319 3973.5039 2368289
1537.5243 1338.5798 3863.3899 2368289
1558.4006 1336.8505 3858.3989 2499875
1581.9552 1337.4355 3860.0874 2499875
1608.7826 1340.7314 3869.6001 2631461
1630.2184 1339.5045 3866.0588 2697254
1647.7716 1335.1656 3853.5361 2697254
1680.4874 1343.0635 3876.3308 2565925
1703.3604 1342.9879 3876.1125 2697511
1729.1337 1345.1707 3882.4126 2302753
1753.7805 1346.4313 3886.051 2565925
1783.2195 1351.2906 3900.0757 2763304
1815.4956 1358.1481 3919.8677 2368546
1847.6913 1364.7727 3938.9878 2763304
1874.6295 1367.3973 3946.5627 3026476
1898.0144 1367.3973 3946.5627 2829097
1931.1302 1374.3224 3966.5498 2829097
1958.7522 1377.2183 3974.9077 2894890
1983.6285 1378.1377 3977.5615 2894890
2012.1642 1381.548 3987.4041 2697254
2038.6113 1383.4618 3992.928 2697511
2064.6106 1385.0314 3997.458 2960683
2087.7249 1384.6519 3996.3625 2960683
2107.4097 1382.0317 3988.8003 3026476
2124.6692 1377.897 3976.8667 3092269
2136.3679 1370.286 3954.9001 2894890
2148.0991 1362.8611 3933.4702 3026476
2175.0735 1365.1625 3940.1125 2565925
2185.0149 1356.8381 3916.0872 2105117
2200.5754 1352.1414 3902.5312 2302496
2217.3911 1348.3055 3891.4604 2828840
2231.1865 1342.731 3875.3711 3157805
2266.2764 1349.9545 3896.2197 2894633
2289.5522 1350.0662 3896.5417 2959912
2305.771 1346.0557 3884.9668 2828326
2334.2366 1349.2032 3894.0513 3025447
2358.5212 1349.8962 3896.0515 3025447
2384.0286 1351.2688 3900.0129 2828068
2418.2742 1357.5204 3918.0562 2696482
2434.126 1353.4259 3906.2385 2893863
2477.5745 1364.608 3938.5125 3025449
2496.7407 1362.3323 3931.9438 2893863
2529.4507 1367.4202 3946.6284 2959400
2551.6167 1366.7668 3944.7432 2697254
2578.5483 1368.6552 3950.1931 2763047
2613.3613 1374.6552 3967.51 2697254
2633.4861 1372.8907 3962.4177 2565669
2677.1958 1383.3442 3992.5886 2631462
2709.3032 1387.6721 4005.0796 2565667
2724.4365 1383.3064 3992.4792 2565666
2746.8657 1382.6884 3990.6956 2631202
2752.3633 1373.6306 3964.5535 2630683
2796.1851 1383.691 3993.5896 6512191
2789.4033 1368.7517 3950.4717 4340772
2826.3599 1375.3445 3969.4998 3419680
2803.054 1352.7461 3904.2764 2104857
2873.1602 1375.229 3969.1663 2105114
2892.6494 1373.3158 3963.6445 2235677
2911.7134 1371.2333 3957.634 2367262
2940.1316 1373.554 3964.332 2630434
2962.3171 1372.9492 3962.5867 2499105
2996.3149 1377.7858 3976.5457 2367519
3018.0107 1376.9338 3974.0872 2235933
3039.094 1375.8181 3970.8667 2235933
3063.3884 1376.1619 3971.8591 2169883
3090.178 1377.6129 3976.0469 2630691
3117.5635 1379.3055 3980.9321 2696484
3138.5322 1378.1552 3977.6118 2696483
3165.0369 1379.4347 3981.3049 2499103
3189.9114 1379.99 3982.9077 2564895
3206.1621 1376.8339 3973.7983 2433310
3230.4534 1377.1515 3974.7151 2630689
3255.9453 1377.9724 3977.0845 2499103
3274.3306 1375.7959 3970.8025 2564896
3289.6611 1372.3757 3960.9314 2630689
3322.0994 1376.0905 3971.6528 2433312
3350.2947 1378.0079 3977.187 2499104
3389.2627 1384.2985 3995.3428 2630690
3408.9172 1382.6682 3990.6375 2630689
3441.2393 1386.1628 4000.7236 2828068
3475.7324 1390.4784 4013.179 2828068
3530.4939 1402.7885 4048.7083 2959654
3574.3369 1410.6235 4071.3215 3157033
3615.6709 1417.3698 4090.7925 2959654
3662.6526 1426.2256 4116.3521 2828068
3704.9307 1433.1447 4136.3218 2828068
3738.7761 1436.7322 4146.6763 2696482
3764.9189 1437.3325 4148.4087 2499103
3803.4448 1442.6217 4163.6743 2301724
3823.9475 1441.0508 4159.1401 2038552
3844.0347 1439.3442 4154.2148 1972504
3868.6196 1439.3329 4154.1821 2038294
3876.1138 1433.0032 4135.9136 1972759
3884.6084 1427.1207 4118.9355 2169624
3906.8843 1426.3429 4116.6904 2432796
3942.8123 1430.528 4128.7695 2498846
0 0 0 0
0 0 0 0
0 0 0 0
0 0 0 0
0 0 0 0
0 0 0 0
-3505.8406 1373.2177 3896.7202 1513237
-3450.092 1360.3406 3860.1794 1513237
-3409.5557 1353.3296 3840.2849 1579030
-3397.6724 1357.6738 3852.6123 1579030
-3363.5664 1353.137 3839.738 1644823
-3346.1687 1355.3057 3845.8921 1842202
-3320.2737 1354.0387 3842.2971 1776409
-3306.6011 1357.7732 3852.8943 1579030
-3255.5015 1346.0844 3819.7251 2105374
-3237.3777 1347.9619 3825.0532 2302753
-3260.1831 1367.028 3879.1562 1973788
-3236.9187 1366.9104 3878.8225 2368545
-3241.3357 1378.5641 3911.8916 2368800
-3209.5896 1374.8944 3901.4783 2368800
-3183.4431 1373.5876 3897.7703 2105884
-3104.2432 1349.203 3828.575 2039835
-3143.0933 1376.1454 3905.0281 1974042
-3058.27 1348.9376 3827.822 2040092
-3050.8486 1355.7189 3847.0647 2171421
-3029.8103 1356.5055 3849.2971 1973785
-3020.0757 1362.4034 3866.0332 2302751
-2992.7883 1360.4126 3860.384 2303007
-2949.7344 1351.1689 3834.1538 2302750
-2938.0842 1356.2786 3848.6531 2302494
-2929.5327 1362.9098 3867.47 2434079
-2902.4053 1360.9351 3861.8665 2500130
-2895.0486 1368.2733 3882.6899 2434080
-2877.1438 1370.7039 3889.5869 2565665
-2870.5439 1378.6028 3912.0015 2697251
-2842.1267 1376.0673 3904.8066 2631458
-2823.6973 1378.3655 3911.3279 2697251
-2802.7703 1379.4724 3914.4692 2828835
-2769.4717 1374.4581 3900.2402 3289385
-2765.572 1384.0724 3927.5225 3552044
-2741.0994 1383.4664 3925.803 3815986
-2724.2852 1386.7485 3935.1165 3815986
-2722.5542 1397.8315 3966.5659 3552814
-2690.9543 1393.6385 3954.6677 3355435
-2673.6675 1396.8495 3963.7793 3289385
-2657.1479 1400.5219 3974.2002 3289641
-2638.6685 1403.2175 3981.8496 3552300
-2589.2322 1389.3511 3942.5012 1644050
-2569.1675 1391.1357 3947.5657 1052426
-2553.4558 1395.3322 3959.4736 460291
-2532.0718 1396.4779 3962.7249 65536
-2481.8914 1381.6146 3920.5481 0
-2360.3999 1326.3983 3763.863 65536
-2381.781 1351.1799 3834.1846 65536
-2351.71 1346.969 3822.2356 0
-2321.4128 1342.5454 3809.6829 65536
-2309.0007 1348.48 3826.5232 65536
-2279.3247 1344.35 3814.804 65536
-2256.0374 1343.9431 3813.6492 65536
-2234.9368 1344.8436 3816.2048 65536
-2216.5659 1347.4222 3823.5217 65536
-2200.2095 1351.2913 3834.5007 131328
-2175.0115 1349.7539 3830.1382 197120
-2153.436 1350.4562 3832.1311 196864
-2118.2324 1342.5356 3809.6553 131328
-2120.7148 1358.5874 3855.2046 0
-2093.4336 1355.7135 3847.0498 0
-2058.6743 1347.8804 3824.8218 65536
-2096.457 1387.8971 3938.3755 262913
-2066.4595 1383.4376 3925.7209 131585
-2018.9681 1367.0317 3879.1667 986635
-2021.6385 1384.6033 3929.0291 2170907
-1977.9252 1370.4464 3888.8564 2828581
-1971.1572 1381.8558 3921.2327 3420716
-1916.8744 1359.8304 3858.7322 2499615
-1927.9174 1384.1748 3927.813 3552302
-1895.4432 1377.4885 3908.8398 2762787
-1871.0273 1376.5657 3906.2209 3552303
-1845.2406 1374.5984 3900.6384 3552302
-1835.4484 1384.6473 3929.1538 3288872
-1815.8427 1387.4563 3937.1248 3420458
-1784.9854 1381.6293 3920.5894 3552814
-1753.0591 1374.8101 3901.2393 3487021
-1731.1061 1375.7345 3903.8625 3355436
-1716.6111 1382.6915 3923.604 3420974
-1693.3622 1382.6915 3923.604 3355181
-1664.5571 1378.0917 3910.551 3289388
-1640.7064 1377.5215 3908.9331 3223595
-1624.5605 1383.4963 3925.8879 3289388
-1601.623 1383.7773 3926.6851 3486766
-1569.9264 1376.387 3905.7139 3486767
-1544.5406 1374.3911 3900.0503 3486767
-1527.4794 1379.8547 3915.5542 3355182
-1486.6736 1363.7063 3869.7302 3420975
-1467.0769 1366.8115 3878.542 3420975
-1439.4136 1362.3806 3865.9688 3355182
-1414.7209 1360.6637 3861.0964 3355182
-1395.0884 1363.8369 3870.1011 3289389
-1374.77 1366.4347 3877.4724 3289389
-1348.125 1362.7255 3866.947 3420975
-1324.4442 1361.9362 3864.7073 3157803
-1296.3413 1356.4918 3849.2581 3026217
-1270.8632 1353.6481 3841.1887 3157803
-1244.5486 1349.7936 3830.251 3420975
-1222.2098 1350.188 3831.3699 3420975
-1199 1349.6168 3829.7493 3289388
-1175.7338 1348.9589 3827.8823 3486767
-1153.3073 1349.2576 3828.7297 3420974
-1131.4717 1350.2733 3831.6121 3618353
-1101.1404 1340.9845 3805.2537 3684146
-1079.5267 1342.1458 3808.5491 3684146
-1060.4906 1346.6294 3821.2722 3749939
-1035.061 1343.0134 3811.011 3881525
-1010.6778 1340.6238 3804.23 3749939
-988.26819 1340.8027 3804.738 3749939
-965.96814 1341.1422 3805.7014 3684146
-943.32208 1341.0061 3805.3152 3684146
-919.25513 1338.7941 3799.0378 3947319
-894.5639 1335.5388 3789.8005 3223596
-868.26031 1329.6467 3773.0811 3684147
-853.39929 1341.4296 3806.5166 3749940
-827.05322 1335.3088 3789.1482 3749940
-806.23309 1338.0176 3796.8345 3552561
-783.96759 1338.4139 3797.9595 3552561
-761.66168 1338.7629 3798.9497 3223596
-739.12378 1338.713 3798.8081 3223596
-711.42401 1329.017 3771.2939 3355182
-691.20624 1333.1224 3782.9441 3420975
-670.91705 1337.361 3794.9712 3355181
-650.50281 1341.6353 3807.1003 3683890
-627.73364 1341.1853 3805.8235 3684147
-603.67194 1337.8375 3796.3237 3420975
-584.28711 1344.9963 3816.6379 3486768
-561.81897 1345.3484 3817.6367 3552562
-542.93732 1354.6783 3844.1123 3552563
-521.63434 1358.5197 3855.0125 3223599
-499.64508 1360.8435 3861.6069 3289391
-476.27719 1359.4553 3857.6677 3289391
-453.58829 1359.9631 3859.1084 3158062
-431.29837 1361.7844 3864.2766 3026476
-408.26184 1361.3204 3862.9602 3092269
-384.79059 1359.2656 3857.1294 3026476
-361.54166 1357.7864 3852.9319 2894890
-339.04657 1359.1298 3856.7437 2960683
-316.41132 1360.0646 3859.3965 3092269
-292.96985 1357.4098 3851.863 3158062
-269.76312 1355.4858 3846.4036 3289648
-247.00307 1355.6584 3846.8933 3158062
-223.99164 1354.3461 3843.1692 3092269
-200.22813 1347.6747 3824.238 2960426
-178.09894 1351.7043 3835.6731 2894890
-155.06946 1349.0807 3828.228 3158062
-133.16566 1357.0294 3850.7834 2829097
-109.17203 1342.5647 3809.7378 1381651
-86.703522 1344.2037 3814.3887 1973788
-64.475616 1352.0439 3836.6367 2368546
-42.055866 1362.2101 3865.4846 2434339
-18.911413 1345.1462 3817.0632 2368546
3.7110026 1346.8824 3821.9902 2565925
26.390316 1348.5425 3826.7007 2500132
48.74427 1339.7258 3801.6819 2631718
71.894157 1351.4442 3834.9348 2631718
94.139732 1344.6174 3815.5627 2763304
116.7404 1344.5244 3815.2988 2829097
137.95676 1331.1049 3777.2188 3158062
161.04442 1336.967 3793.8535 2565668
183.76746 1338.7367 3798.8752 2763047
206.32118 1339.0214 3799.6831 3092012
231.54578 1354.8785 3844.6802 2828840
253.11331 1348.4125 3826.332 2302495
277.21912 1355.4203 3846.2175 2499873
299.93097 1355.0653 3845.2104 2763046
324.51468 1362.6206 3866.6497 2894630
353.31949 1385.7346 3932.2393 2828838
369.9592 1361.2284 3862.6987 3026218
392.83597 1361.1892 3862.5879 3026219
416.9501 1365.2061 3873.9861 2763046
435.07077 1350.2032 3831.4133 2828841
465.384 1372.6508 3895.1116 2828840
490.95999 1379.6644 3915.0142 2828840
511.98608 1373.8364 3898.4761 2763047
536.35339 1377.0902 3907.7092 2631459
556.10223 1368.7073 3883.9216 2697252
584.25629 1380.8561 3918.3958 3026217
607.78827 1381.5697 3920.4207 3026218
624.89996 1368.1738 3882.4077 3026219
648.15314 1368.6984 3883.896 3026218
678.64966 1383.9581 3927.198 3026218
694.63281 1369.5903 3886.427 2960424
721.66949 1377.2393 3908.1323 2828838
741.17572 1370.4882 3888.9751 2960424
764.47278 1370.9425 3890.2642 2960424
788.15442 1372.0397 3893.3777 2960426
808.33868 1367.1592 3879.5286 2828840
831.539 1367.5089 3880.5208 2828840
854.68066 1367.7457 3881.1929 2960426
871.95062 1358.8199 3855.8645 3026219
899.36847 1365.7603 3875.5588 2828840
919.44672 1361.4867 3863.4319 2960426
943.50208 1363.167 3868.2 3026219
967.8385 1365.1641 3873.8672 3223598
989.14642 1362.8958 3867.4304 3092012
1013.1263 1364.3282 3871.4954 3092012
1032.8478 1360.0898 3859.468 3092012
1053.6262 1357.3966 3851.8257 3157805
1077.1674 1358.3015 3854.3933 3092012
1096.2264 1353.6342 3841.1489 2960426
1116.7307 1350.9049 3833.4045 2697254
1133.722 1344.1198 3814.1506 3026219
1159.4489 1347.754 3824.4631 3289134
1171.2703 1335.3949 3789.3923 3157805
1200.8062 1343.3176 3811.8743 2763047
1218.5663 1338.0178 3796.8352 3026219
1240.2589 1337.1498 3794.3721 3026219
1261.6561 1335.9998 3791.1086 2960683
1283.2358 1335.08 3788.4985 3158062
1307.5208 1336.9578 3793.8274 2829097
1327.851 1334.7968 3787.6951 2763304
1352.6711 1337.146 3794.3616 2763304
1369.662 1331.8057 3779.2073 2763304
1391.0605 1330.8539 3776.5066 2829097
1413.5857 1330.9932 3776.9016 2960426
1437.0181 1331.9689 3779.6704 2960426
1458.8008 1331.4092 3778.082 2828840
1475.8508 1326.6122 3764.47 2763047
1501.5968 1329.6581 3773.1133 2828840
1524.994 1330.5656 3775.6885 2565668
1548.35 1331.4114 3778.0884 2565668
1572.809 1333.1678 3783.0728 2697254
1594.8561 1332.8594 3782.1973 2763047
1619.855 1334.9922 3788.2495 2631461
1641.6421 1334.4559 3786.7278 2631718
1669.745 1338.9988 3799.6189 2631718
1693.04 1339.6166 3801.3718 2434339
1724.2736 1346.4167 3820.6687 2434339
1750.3523 1349.068 3828.1919 2434339
1776.3301 1351.5745 3835.3044 2500132
1800.6122 1352.7438 3838.6223 2500132
1821.3207 1351.2325 3834.3342 2565925
1827.6918 1339.2529 3800.3401 2434339
1881.3231 1361.7736 3864.2458 2697511
1907.4492 1364.0825 3870.7981 2500132
1935.9717 1368.0302 3882 2236960
1959.0961 1368.1154 3882.2419 2565411
1984.037 1369.4525 3886.0361 2565925
2008.37 1370.344 3888.5659 2500132
2018.0972 1361.3625 3863.0796 2434339
2057.2288 1372.1957 3893.8203 2960683
2076.3491 1369.589 3886.4233 3026476
2094.5696 1366.4519 3877.5217 2894890
2112.4834 1363.1857 3868.2529 3158062
2115.8298 1350.6897 3832.7937 3355441
2135.1184 1348.5283 3826.6604 3486770
2145.6445 1340.936 3805.1162 3026219
2166.0525 1339.6132 3801.3623 3026219
2182.7791 1336.0642 3791.2917 3289391
2205.1523 1336.0087 3791.134 2960426
2220.1265 1331.5167 3778.3875 2763047
2247.377 1334.4037 3786.5796 2565924
2284.1221 1342.8152 3810.4485 2631715
2309.7876 1344.6124 3815.5483 2763045
2339.4719 1348.6913 3827.123 3289389
2394.9597 1367.4249 3880.2825 3485741
2393.1821 1353.4167 3840.5322 2828068
2398.3845 1343.5828 3812.6267 2959911
2439.3926 1353.8036 3841.6299 3091240
2460.4949 1352.8904 3839.0386 3025446
2468.3079 1344.7538 3815.9497 2565667
2505.9592 1352.8734 3838.9905 2368289
2528.9851 1353.0223 3839.4131 2236703
2554.4402 1354.4567 3843.4829 2434082
2589.6396 1360.9867 3862.0132 2434082
2602.9988 1356.0248 3847.9331 2696997
2637.95 1362.2997 3865.739 2696738
2667.1167 1365.5051 3874.8347 2696481
2678.7288 1359.7448 3858.489 2630432
2689.5037 1353.6606 3841.2244 2695453
2697.322 1346.2031 3820.0623 2762274
2756.6641 1364.3705 3871.615 2762015
2772.2197 1360.7454 3861.3284 2433308
2797.7251 1362.0237 3864.9556 2235931
2820.6267 1362.0237 3864.9556 2170139
2829.0569 1355.092 3845.2861 1841946
2855.8152 1356.9801 3850.6438 2236446
2871.0918 1353.4258 3840.5579 2301983
2913.8264 1362.7692 3867.0713 2301983
2937.9111 1363.3124 3868.6128 2564898
2961.1724 1363.4681 3869.0547 2368033
2981.0054 1362.0552 3865.0449 2499105
3003.1257 1361.7007 3864.0393 2433312
3027.6138 1362.4171 3866.072 2235933
3054.3125 1364.1101 3870.8762 2367519
3078.248 1364.553 3872.1328 2367519
3105.6008 1366.4929 3877.6379 2433313
3129.9819 1367.1064 3879.3787 2499104
3153.8523 1367.4895 3880.4658 2433310
3178.6431 1368.2632 3882.6614 2367517
3204.6194 1369.5325 3886.2629 2630689
3218.292 1365.5629 3874.9988 2564896
3247.499 1368.1945 3882.4663 2433309
3262.8909 1365.0095 3873.4287 2433310
3290.1528 1366.8002 3878.5098 2433310
3314.9255 1367.5389 3880.6062 2696482
3353.9436 1374.104 3899.2354 2762275
3402.2834 1384.3721 3928.3728 3025447
3437.3804 1389.1487 3941.9272 3025447
3478.9272 1396.4501 3962.646 3025447
3532.6821 1408.5209 3996.8987 3157033
3575.2278 1415.9915 4018.0977 2893861
3592.5081 1413.4229 4010.8088 2828068
3645.7278 1424.9349 4043.4763 2762274
3686.1824 1431.3402 4061.6521 2630689
3689.8989 1423.4894 4039.3743 2630688
3754.0879 1438.9185 4083.1567 2433310
3782.0508 1440.3539 4087.2297 2564896
3819.0374 1445.1853 4100.9399 2499103
3828.2363 1439.5072 4084.8274 2170138
3835.9436 1433.3428 4067.335 1906966
3874.3645 1438.6604 4082.4243 2367517
3905.8743 1441.3616 4090.0894 2630689
0 0 0 0
0 0 0 0
0 0 0 0
0 0 0 0
0 0 0 0
0 0 0 0
-3403.303 1355.4685 3782.7502 263172
-3368.2104 1350.3856 3768.5652 592135
-3367.3708 1359.0593 3792.771 1315858
-3340.208 1357.1539 3787.4539 1644823
-3291.5999 1346.4506 3757.5835 1644823
-3275.2473 1348.8855 3764.3789 1842202
-3255.8904 1350.1083 3767.7913 1447444
-3240.8232 1353.1389 3776.2488 1513237
-3202.561 1346.4597 3757.6091 1644823
-3177.8469 1345.423 3754.7158 1842202
-3158.2561 1346.556 3757.8779 1644822
-3147.6177 1351.5492 3771.8125 1315857
-3113.8196 1346.5981 3757.9954 1184270
-3102.1067 1351.1954 3770.8252 1579284
-3073.9502 1348.6451 3763.7083 1382161
-3028.731 1338.517 3735.4431 1381392
-2992.6528 1332.3091 3718.1184 1447185
-3005.0779 1347.7626 3761.2451 1512978
-2978.4912 1345.8198 3755.8232 1776150
-2958.8503 1347.0098 3759.1443 1776150
-2963.5703 1359.3921 3793.7 1578771
-2924.3337 1351.6467 3772.0847 2105115
-2875.7356 1339.4218 3737.968 2170908
-2869.3386 1346.8156 3758.6021 2302494
-2840.0884 1343.514 3749.3884 2236701
-2832.7607 1350.6129 3769.1995 2368286
-2813.2231 1351.9567 3772.9497 2236700
-2805.9211 1359.2494 3793.3015 2434079
-2787.0139 1360.9926 3798.1663 2499872
-2771.2246 1364.299 3807.3938 2631458
-2765.6787 1372.7441 3830.9617 2565665
-2741.4312 1371.9696 3828.8003 2697250
-2713.2996 1369.2222 3821.1331 2763298
-2722.2146 1385.2809 3865.9485 2960421
-2698.8013 1385.0212 3865.2239 2894627
-2689.1216 1391.8654 3884.324 3091749
-2662.5142 1389.9905 3879.092 3486508
-2669.355 1405.697 3922.9246 3091493
-2639.5386 1402.2061 3913.1824 1907478
-2630.5181 1409.7985 3934.3706 526085
-2622.9832 1418.3302 3958.1804 131328
-2459.6326 1342.001 3745.166 65536
-2456.0244 1352.2327 3773.7197 65536
-2406.6899 1337.2451 3731.8936 65536
-2376.3872 1332.6523 3719.0764 65536
-2351.5239 1331.0526 3714.6118 65536
-2326.4192 1329.2845 3709.678 65536
-2301.5566 1327.6226 3705.0398 65536
-2283.6602 1329.9856 3711.6343 65536
-2251.8713 1324.2251 3695.5581 65536
-2232.1975 1325.5455 3699.2434 65536
-2209.937 1325.3412 3698.6729 65536
-2191.3459 1327.3552 3704.2935 65536
-2167.9644 1326.4789 3701.8481 65536
-2151.2366 1329.6976 3710.8306 65536
-2131.7039 1331.2308 3715.1094 131328
-2110.6111 1331.8119 3716.731 65536
-2094.2183 1335.4021 3726.7502 65536
-2080.0339 1340.4922 3740.9553 0
-2042.9144 1330.7518 3713.7727 0
-2029.6252 1336.4917 3729.7908 0
-2013.676 1340.5868 3741.2192 65536
-2013.2465 1355.2202 3782.0571 65536
-1971.8375 1342.2871 3745.9646 65536
-1946.2174 1339.9301 3739.3865 197120
-1935.4642 1347.8719 3761.5503 197120
-1915.8013 1349.7218 3766.7126 197120
-1898.9768 1353.6388 3777.6438 262913
-1876.8531 1353.8265 3778.168 262913
-1853.7219 1353.2833 3776.6519 131584
-1841.2886 1360.6321 3797.1604 263168
-1792.4167 1340.9033 3742.1025 394755
-1849.838 1401.1936 3910.3567 591877
-1778.4243 1364.1874 3807.0823 657156
-1782.9406 1385.2227 3865.7859 855049
-1753.8979 1380.3931 3852.3081 1446414
-1721.8632 1373.0502 3831.8159 2959394
-1708.7777 1380.8236 3853.5093 3485995
-1693.8522 1387.3004 3871.5845 3420458
-1659.8092 1378.0826 3845.8601 3288873
-1622.2953 1365.6862 3811.2651 3354667
-1610.0819 1374.5391 3835.9712 3289642
-1592.3661 1378.8806 3848.0874 3354923
-1550.7506 1362.3524 3801.9614 3354923
-1526.8264 1361.1078 3798.488 3223595
-1507.6628 1364.1334 3806.9319 3355181
-1482.1805 1361.4471 3799.4348 3223595
-1456.1018 1358.1213 3790.1538 3289388
-1432.8939 1357.4113 3788.1719 3157802
-1417.505 1364.2034 3807.127 3289388
-1396.2972 1365.5244 3810.8137 3223595
-1371.0824 1362.906 3803.5063 2894631
-1341.0955 1355.377 3782.4949 3420974
-1317.3383 1353.9952 3778.6387 3420974
-1295.2388 1354.299 3779.4863 3420974
-1265.973 1346.9885 3759.0847 3486767
-1247.1598 1350.7367 3769.5449 3618354
-1223.6152 1349.4041 3765.8259 3552561
-1195.6836 1343.0939 3748.2161 3552561
-1174.6173 1344.4025 3751.8679 3486767
-1149.516 1341.0543 3742.5239 3420974
-1127.7574 1341.5509 3743.9099 3420973
-1104.173 1339.8516 3739.1677 3355181
-1079.3088 1336.4983 3729.8096 3355181
-1053.2947 1331.5509 3716.0024 3289388
-1034.6681 1335.9308 3728.2256 3420974
-1007.2978 1328.9661 3708.7888 3618353
-982.85199 1325.6349 3699.4927 3947318
-967.14319 1334.2048 3723.4089 3947318
-944.14117 1332.8787 3719.708 3618353
-921.52911 1332.053 3717.4036 3618353
-899.61023 1332.2133 3717.8508 3486768
-879.0907 1334.5057 3724.249 3486768
-856.43604 1333.5918 3721.6982 3618354
-834.1933 1333.2878 3720.8499 3552561
-810.85028 1331.1609 3714.9143 3420975
-788.52155 1330.6271 3713.4243 3420975
-766.65778 1330.8699 3714.1018 3618354
-742.245 1326.5709 3702.105 3749940
-727.45215 1339.7272 3738.8203 4802628
-689.05237 1308.8679 3652.7007 3881527
-676.93518 1327.5507 3704.8391 3552562
-653.80469 1325.1633 3698.1768 3618355
-632.85065 1327.1749 3703.7903 3684148
-612.67676 1331.0258 3714.5369 3420976
-593.16693 1336.66 3730.2607 3486770
-570.35388 1334.9987 3725.6243 3420977
-556.23566 1354.3746 3779.6975 3420977
-535.85248 1359.4817 3793.9502 3355184
-512.1731 1356.3074 3785.0913 3355184
-489.20425 1354.8101 3780.9126 3420977
-467.94281 1358.1244 3790.1624 3289905
-443.63699 1352.4918 3774.4431 3223855
-422.91226 1357.7582 3789.1401 3158062
-400.57834 1358.1592 3790.259 3026476
-377.35492 1355.4127 3782.5947 3026476
-355.19644 1356.3862 3785.3113 3026476
-332.49542 1355.2794 3782.2224 2894890
-310.15515 1355.5894 3783.0874 3092269
-287.30966 1353.5675 3777.4451 2763304
-264.77631 1352.7986 3775.2991 2763304
-240.75105 1343.5621 3749.5227 2763304
-218.84431 1345.4723 3754.8533 2565925
-196.8598 1347.2825 3759.905 2039324
-174.48737 1346.5609 3757.8916 723721
-151.84262 1343.2196 3748.5667 1841944
-128.17972 1328.1829 3706.6033 1315601
-105.9212 1324.4891 3696.2952 1710616
-84.900696 1338.3855 3735.0762 2105374
-62.569092 1334.126 3723.1887 1579030
-40.798851 1343.7147 3749.9485 1973788
-18.616194 1346.4121 3757.4763 2171167
3.6525569 1347.9602 3761.7964 2302753
25.935949 1347.6088 3760.8157 2565925
48.142159 1345.4252 3754.7219 2763304
70.037178 1338.6738 3735.8809 2763304
92.589714 1344.7148 3752.7395 2894890
113.72453 1331.8132 3716.7349 2829097
135.91063 1333.412 3721.1965 2566182
158.94608 1341.734 3744.4211 1973531
181.14343 1341.8093 3744.6311 2499875
203.73581 1344.475 3752.0701 2434082
225.90327 1344.0878 3750.9897 2236703
249.43872 1351.1803 3770.783 2368289
271.15039 1348.0396 3762.0181 2368289
294.7038 1353.8368 3778.1965 2368289
315.67493 1347.7903 3761.3223 2302496
341.52927 1362.0155 3801.021 2960426
362.84067 1357.4841 3788.3752 2828840
387.51746 1365.338 3810.2932 2697254
409.19681 1362.3477 3801.9482 2631461
430.17194 1357.4471 3788.2722 2697253
452.80231 1357.9971 3789.8066 3092012
475.74484 1359.387 3793.6855 3026219
502.43863 1370.8866 3825.7778 3026219
525.86768 1372.8701 3831.3135 2894633
548.20526 1371.958 3828.7681 2631460
567.73297 1364.3656 3807.5796 2170910
582.25684 1345.7881 3755.7346 2105117
621.04169 1382.5892 3858.437 2565668
631.89069 1356.7932 3786.4473 2434082
655.26013 1358.7284 3791.8477 2697254
678.82593 1360.9288 3797.9885 2894633
702.85016 1363.8777 3806.218 2828839
725.7749 1364.5759 3808.1665 2434081
747.93054 1363.8296 3806.0837 2499875
765.71375 1355.3873 3782.5239 2565668
788.12671 1355.3873 3782.5239 2565668
815.5918 1363.8356 3806.1006 2565668
840.75183 1368.0782 3817.9407 2565668
861.43689 1365.0078 3809.3718 2631461
893.04688 1378.9633 3848.3179 2697254
909.75116 1369.7809 3822.6921 2763047
930.3313 1366.7386 3814.2021 2828840
946.51678 1357.5377 3788.5249 2960426
972.16589 1362.0219 3801.0388 3026219
993.47729 1360.363 3796.4097 3026219
1015.0303 1359.1016 3792.8892 2960426
1036.0599 1357.2087 3787.6069 2960426
1056.6978 1354.8943 3781.1477 2960426
1075.3331 1350.1615 3767.9397 3026219
1099.4374 1352.3481 3774.042 2894633
1120.8341 1351.1833 3770.7917 2828840
1136.8878 1343.7494 3750.0452 3289134
1158.2958 1342.8074 3747.4165 3420977
1176.078 1337.7765 3733.3767 3092012
1190.1545 1328.7941 3708.3091 2894633
1211.2618 1327.8448 3705.6602 2763047
1233.3418 1327.9767 3706.0278 2631461
1255.3015 1327.9767 3706.0278 2631461
1277.6952 1328.4279 3707.2871 2631718
1331.2042 1360.6678 3797.2603 2565925
1320.6266 1327.4198 3704.4736 2697511
1336.8182 1321.726 3688.584 2763304
1359.2628 1322.2982 3690.1809 2631718
1381.8868 1323.0242 3692.2065 2697254
1403.4539 1322.7312 3691.3892 2631461
1419.4423 1317.2703 3676.1492 2697254
1443.5529 1319.3981 3682.0872 2499875
1457.9237 1312.6927 3663.3745 2368289
1479.736 1312.7861 3663.6353 2302496
1512.5299 1322.4788 3690.6846 2499875
1535.6444 1323.5524 3693.6809 2565668
1550.674 1317.7255 3677.4194 2236703
1585.0164 1328.2443 3706.7747 2236703
1608.6024 1329.5848 3710.5159 2171167
1637.0946 1334.8898 3725.3203 2105374
1660.3303 1335.8243 3727.9287 2368546
1683.3354 1336.5514 3729.9578 2434339
1711.8779 1341.5992 3744.0449 2368546
1737.2192 1344.0411 3750.8596 2236959
1751.6415 1338.0804 3734.2246 2105374
1784.2349 1345.9761 3756.2595 2039838
1805.0836 1344.9266 3753.3306 1841945
1819.2615 1338.9927 3736.7708 1907738
1853.0822 1347.4851 3760.4707 2105117
1857.7056 1334.7969 3725.0613 2039324
1892.7104 1343.9801 3750.689 1907738
1905.5089 1337.3645 3732.2268 2565668
1948.557 1351.8877 3772.7571 2565925
1970.5442 1351.6353 3772.0527 2368546
1980.1882 1343.0172 3748.002 2499875
2015.7094 1351.946 3772.9202 2763047
2036.5566 1350.9453 3770.127 2763304
2044.4569 1341.4708 3743.6865 2697511
2076.4998 1347.8712 3761.5481 2631461
2105.7639 1352.351 3774.05 2697254
2124.7966 1350.2347 3768.144 3026219
2130.3462 1339.6837 3738.6992 3026219
2147.6731 1336.6798 3730.3159 2894633
2182.3435 1344.4215 3751.9209 2960426
2175.3865 1326.6215 3702.2456 2828839
2205.4631 1331.5354 3715.9592 2828838
2241.9094 1340.1599 3740.0281 2631459
2268.5334 1342.8016 3747.4004 2631459
2294.6736 1345.1085 3753.8381 2894630
2318.4753 1346.0134 3756.3635 2762019
2345.0134 1348.4746 3763.2322 2828325
2354.7061 1341.2939 3743.1929 2763301
2393.0659 1350.4244 3768.6733 2763302
2415.8816 1350.6954 3769.4297 2828582
2435.887 1349.4048 3765.8279 2697509
2461.6299 1351.2869 3771.0806 2368288
2484.3376 1351.4841 3771.6309 2565667
2512.1074 1354.4072 3779.7883 2565668
2535.5889 1354.9867 3781.4055 2434082
2564.8872 1358.6375 3791.594 2433826
2595.187 1362.7506 3803.0728 2564896
2624.2573 1366.153 3812.5679 2696482
2646.8062 1366.1312 3812.5071 2696225
2660.1418 1361.3948 3799.2888 2630432
2690.4714 1365.3618 3810.3599 2630432
2719.9204 1368.8199 3820.0103 2630432
2746.6519 1370.8644 3825.7158 2762019
2741.1799 1356.934 3786.8401 2499102
2765.6082 1357.9111 3789.5669 2170140
2777.0171 1352.5312 3774.553 1907995
2803.8281 1354.6791 3780.5471 1973531
2834.241 1358.5192 3791.2637 2236703
2856.3279 1358.3395 3790.7625 2302496
2880.2026 1359.0062 3792.623 2302496
2896.9341 1356.3181 3785.1213 2302496
2921.3645 1357.2482 3787.717 2368289
2928.7388 1350.3005 3768.3276 2236703
2961.3638 1355.0116 3781.4751 2236703
2985.103 1355.6167 3783.1638 2368289
3009.1516 1356.3522 3785.2163 2368289
3020.3792 1351.3406 3771.2305 2302752
3046.7166 1353.1133 3776.1775 2302240
3070.6582 1353.8038 3778.1045 2302239
3097.6428 1355.8163 3783.7209 2565153
3116.3213 1354.1903 3779.1833 2565153
3138.7144 1354.1903 3779.1833 2434337
3168.0422 1357.161 3787.4736 2434080
3189.4429 1356.718 3786.2373 2433824
3216.8105 1358.8016 3792.052 2630689
3238.7678 1358.5868 3791.4526 2564896
3267.7483 1361.3007 3799.0261 2630689
3316.3066 1372.0775 3829.1016 2630689
3360.9712 1381.1079 3854.3027 2959654
3405.3782 1389.9111 3878.8706 2959654
3388.885 1373.9066 3834.2058 3091240
3439.126 1384.99 3865.1367 2959654
3511.5059 1404.7834 3920.375 2893861
3547.4016 1409.8173 3934.4231 2762275
3578.9492 1413.0685 3943.4963 2564898
3623.8774 1421.5264 3967.0999 2367519
3656.0583 1424.9069 3976.5342 2170138
3684.0066 1426.6052 3981.2739 2170138
3723.6975 1432.8003 3998.5625 1841173
3755.7388 1435.9923 4007.4705 1709844
3770.6008 1432.6169 3998.0508 1709844
3779.0789 1426.8734 3982.022 1906966
3804.4314 1427.5327 3983.8623 1972759
0 0 0 0
0 0 0 0
0 0 0 0
0 0 0 0
0 0 0 0
0 0 0 0
-3217.4626 1302.6425 3576.1902 0
-3262.6687 1329.7024 3650.4785 0
-3202.4241 1313.86 3606.9863 0
-3257.0791 1345.2616 3693.1941 0
-3263.405 1356.9918 3725.3972 0
-3222.8811 1349.2678 3704.1924 131585
-3203.1685 1350.2103 3706.78 197377
-3188.8855 1353.4707 3715.7307 131585
-3130.5559 1337.9512 3673.1248 855306
-3109.2576 1338.1519 3673.6755 986893
-3097.4434 1342.4661 3685.5193 1052687
-3084.5786 1346.3829 3696.2725 1052686
-3045.5366 1338.8478 3675.5862 1052686
-3023.7573 1338.8478 3675.5862 1184271
-3009.8391 1342.3538 3685.2112 1447955
-2966.749 1332.8058 3658.9985 1841944
-2928.179 1325.1625 3638.0151 2105115
-2895.0408 1319.8823 3623.5195 2302493
-2886.2671 1325.7144 3639.5303 2499872
-2838.9524 1313.7983 3606.8169 2105115
-2841.3118 1324.8638 3637.1953 1973529
-2808.2019 1319.4332 3622.2866 1973529
-2806.9441 1329.0001 3648.5508 1973529
-2787.7544 1330.1593 3651.7332 2170908
-2761.0168 1327.7069 3645.0007 1973529
-2731.0559 1323.6539 3633.8735 1841943
-2740.9277 1338.9952 3675.9907 2302493
-2740.0442 1349.2861 3704.2429 2499872
-2729.1328 1354.7654 3719.2852 2170907
-2702.751 1352.5917 3713.3176 1907735
-2693.0869 1358.8174 3730.4092 2105114
-2674.2688 1360.489 3734.9985 2631199
-2667.5764 1368.4089 3756.7412 2828578
-2658.2336 1375.0911 3775.0859 2302492
-2627.7124 1370.8381 3763.4102 1184012
-2605.2549 1370.7551 3763.1821 328962
-2638.655 1400.3137 3844.3308 0
-2555.5471 1368.019 3755.6709 0
-2468.2737 1332.9075 3659.2776 65536
-2484.6328 1353.6327 3716.1755 65536
-2434.4856 1338.1719 3673.7302 65536
-2404.978 1333.8793 3661.9458 65536
-2380.4812 1332.3132 3657.6465 65536
-2357.5212 1331.5863 3655.6509 65536
-2334.6548 1330.8992 3653.7644 65536
-2302.4404 1324.8206 3637.0764 65536
-2277.8333 1323.0455 3632.2034 65536
-2250.4001 1319.5795 3622.688 65536
-2228.6396 1319.4052 3622.2092 65536
-2200.3142 1315.303 3610.9475 65536
-2175.2849 1313.1099 3604.9268 65536
-2159.24 1316.3506 3613.8235 131584
-2139.041 1317.0984 3615.8765 131072
-2116.1023 1316.1571 3613.2922 65792
-2092.0662 1314.5072 3608.7629 256
-2074.4734 1316.9133 3615.3687 131328
-2067.7004 1326.3104 3641.1667 65792
-2144.3179 1389.9594 3815.9045 0
-2041.6904 1337.5394 3671.9941 0
-1994.535 1320.722 3625.8247 0
-1987.8296 1330.615 3652.9841 0
-1944.6498 1316.0414 3612.9749 0
-1928.8022 1319.8467 3623.4216 0
-1916.2682 1326.0304 3640.3977 65792
-1898.9536 1329.0092 3648.5757 131328
-1879.3839 1330.4601 3652.5588 197120
-1865.4357 1335.9707 3667.6875 197120
-1833.5505 1328.6141 3647.491 131328
-1828.8518 1341.0165 3681.5398 262913
-1822.4806 1352.4771 3713.0029 394242
-1798.2941 1350.8353 3708.4958 263424
-1765.9476 1342.9478 3686.8418 263424
-1734.9768 1335.9216 3667.553 131328
-1720.9672 1341.943 3684.0835 65792
-1699.5441 1342.2642 3684.9651 131328
-1678.1605 1342.6254 3685.9565 328192
-1652.8699 1339.8287 3678.2791 328448
-1629.3448 1338.408 3674.3784 394240
-1615.4576 1344.9725 3692.4006 131328
-1602.2543 1352.2949 3712.5027 65536
-1583.9893 1355.4894 3721.2727 131584
-1566.4379 1359.3933 3731.9902 328706
-1516.1851 1334.6238 3663.9895 1249036
-1506.7938 1345.6255 3694.1929 1512464
-1496.1758 1355.8397 3722.2346 2170392
-1455.2087 1338.4458 3674.4824 2762530
-1457.4727 1360.8896 3736.0984 3881268
-1415.4078 1341.9963 3684.2297 3354924
-1405.854 1353.8185 3716.6858 3157288
-1381.3149 1351.3568 3709.9275 3026216
-1345.9061 1338.0096 3673.2849 3552562
-1323.9487 1337.8159 3672.7532 3684146
-1305.8242 1341.5536 3683.0144 3749939
-1272.769 1329.8182 3650.7969 3749939
-1262.4398 1341.8324 3683.7795 3684146
-1243.3306 1344.7727 3691.8518 3684146
-1213.6954 1336.23 3668.3992 3618353
-1194.5717 1339.1591 3676.4407 3618353
-1170.3014 1336.3206 3668.6479 3552560
-1147.3005 1334.8516 3664.615 3749939
-1124.449 1333.5028 3660.9124 3684146
-1099.4186 1329.4664 3649.8311 3684146
-1072.2484 1322.6287 3631.0588 3618353
-1051.4011 1323.4696 3633.3677 3486767
-1033.3965 1327.999 3645.8022 3355181
-1011.7664 1327.9631 3645.7039 3552560
-990.10107 1327.8787 3645.4719 3684146
-969.13885 1328.7543 3647.876 3749939
-948.05084 1329.4934 3649.905 3618353
-925.64929 1328.3822 3646.8542 3486767
-902.36987 1325.9276 3640.116 3420974
-883.02789 1329.2804 3649.3203 3486768
-861.79395 1329.8818 3650.9714 3552561
-840.54272 1330.4869 3652.6328 3552561
-816.17926 1326.0674 3640.4995 3684147
-794.4007 1325.7218 3639.5508 3684148
-772.12988 1324.5125 3636.2305 3881527
-751.15167 1325.5145 3638.9817 3618354
-733.63092 1332.8574 3659.1404 3223596
-710.66577 1330.455 3652.5449 3157802
-680.84943 1314.6725 3609.2166 3223596
-662.83679 1321.3975 3627.6792 2894631
-638.76135 1316.0818 3613.0857 3355182
-616.84973 1315.0103 3610.144 3749941
-596.23383 1316.7231 3614.8464 3223855
-578.77533 1325.7965 3639.7559 3026476
-563.08099 1339.7697 3678.1169 2960426
-542.97552 1343.9498 3689.5928 2894633
-520.52521 1342.4333 3685.4294 3223341
-498.99234 1343.2538 3687.6821 3289391
-477.1731 1343.3433 3687.9275 3223598
-454.00992 1339.4762 3677.311 2960683
-433.47122 1343.3527 3687.9534 2960683
-412.17694 1345.1748 3692.9556 3026476
-389.36554 1341.9724 3684.1641 3223855
-367.31461 1341.1663 3681.9509 3092269
-346.09213 1343.4742 3688.2871 3289648
-323.12201 1338.8519 3675.5974 3026476
-302.53241 1344.1381 3690.1096 2565925
-279.80035 1339.9877 3678.7153 2368546
-257.50174 1337.3868 3671.5752 2236960
-234.56082 1330.6624 3653.1143 2171167
-212.46335 1327.8418 3645.3708 1579030
-189.83208 1320.6692 3625.6797 1710616
-169.67236 1331.0549 3654.1919 1315858
-147.56732 1326.986 3643.0215 1513237
-125.66009 1323.6062 3633.7427 1776409
-104.40517 1327.1205 3643.3906 1644823
-83.143517 1332.359 3657.772 1447444
-61.664097 1336.5714 3669.3367 1447444
-39.966667 1338.0734 3673.46 1447444
-18.169188 1335.8125 3667.2529 1644823
3.536855 1326.845 3642.6343 1973788
25.147923 1328.2709 3646.5488 2434339
47.123184 1338.7252 3675.2495 2368546
69.084564 1342.3013 3685.0671 1973788
90.065163 1329.6798 3650.417 1710615
111.66441 1329.3116 3649.406 1776152
133.62991 1332.7155 3658.7507 1578773
155.7599 1336.5807 3669.3621 1710359
176.60431 1329.8185 3650.7976 1644566
197.69537 1326.1868 3640.8271 2039324
221.47899 1339.5549 3677.5273 1973531
243.56227 1341.1653 3681.9482 1907738
267.63528 1352.5664 3713.2483 2105117
287.74197 1343.7134 3688.9438 2368289
311.69708 1352.8132 3713.9258 1973531
332.01425 1345.9647 3695.1243 2170910
354.81879 1349.4235 3704.6196 2368289
381.94733 1367.9657 3755.5244 2631461
399.67093 1352.6366 3713.4409 2499875
425.401 1364.5902 3746.2576 2631461
445.66681 1358.6993 3730.0852 2894633
466.17264 1354.0623 3717.355 2828840
484.58887 1344.0481 3689.8625 2828840
508.56528 1349.6542 3705.2532 2631461
526.008 1338.1747 3673.738 2302496
563.08002 1375.5602 3776.3738 2302496
577.93665 1357.8917 3727.8682 2236703
605.93542 1371.2657 3764.584 2302496
630.93701 1377.1481 3780.7329 2368289
655.51831 1381.7407 3793.3416 2434082
667.06891 1359.4729 3732.209 2368289
687.48706 1356.126 3723.0205 1973531
708.8656 1354.8229 3719.4429 2039324
733.68994 1359.9855 3733.616 2368289
761.73248 1370.6365 3762.8567 2434082
785.56891 1373.3289 3770.248 2499875
800.93274 1361.47 3737.6914 2894633
823.08014 1361.47 3737.6914 2763047
854.99841 1377.2089 3780.8999 2697254
872.8949 1370.1346 3761.479 2565668
891.06085 1363.8252 3744.1575 2697254
910.74133 1360.084 3733.8865 2763047
934.04327 1361.8003 3738.5984 2828840
953.60754 1358.114 3728.478 2894633
974.56799 1356.5378 3724.1511 2828840
995.62549 1355.1637 3720.3787 2960426
1016.5191 1353.6309 3716.1704 2763047
1038.5389 1353.6309 3716.1704 2763047
1057.6141 1349.8726 3705.8528 2763047
1077.7352 1347.575 3699.5449 2763047
1099.0699 1346.856 3697.5713 2828840
1107.3997 1330.5398 3652.7776 3157805
1126.3333 1327.3455 3644.0081 3552563
1152.1145 1332.1892 3657.3062 3420977
1169.3202 1327.1213 3643.3931 3355184
1185.8965 1321.5359 3628.0588 3223598
1202.241 1315.8955 3612.5742 2434082
1229.386 1322.0671 3629.5173 2565925
1290.0565 1363.4597 3743.1541 2631718
1323.3815 1375.04 3774.9458 2565925
1333.2218 1362.2396 3739.8044 2631718
1344.1715 1350.9729 3708.8733 2368546
1329.8862 1315.1138 3610.428 2368546
1351.8606 1315.6793 3611.9807 2499875
1372.5682 1315.0137 3610.1533 2434082
1395.1162 1316.1046 3613.1482 2434082
1414.3566 1314.0892 3607.6155 2368289
1438.8219 1316.9164 3615.377 2105117
1464.8079 1321.0319 3626.6753 2039324
1481.5577 1316.8193 3615.1104 2105117
1504.1304 1317.8282 3617.8801 2170910
1528.4337 1320.304 3624.677 2170910
1553.2321 1323.1327 3632.4429 2236703
1577.707 1325.6123 3639.2502 2302753
1601.2722 1327.2711 3643.8042 2368546
1624.1516 1328.325 3646.6973 2500132
1651.3409 1332.8295 3659.0637 2434339
1673.7714 1333.4261 3660.7019 2368546
1699.6633 1336.7301 3669.772 2105374
1713.9641 1330.9495 3653.9023 1907995
1737.0352 1332.0386 3656.8923 1842202
1757.5743 1331.1831 3654.5439 2105117
1779.6549 1331.502 3655.4189 2039324
1803.7131 1333.2748 3660.2861 2039324
1825.1477 1333.0891 3659.7766 2170910
1851.7302 1336.6238 3669.4802 2170910
1858.8392 1326.1831 3640.8171 2170910
1887.5007 1331.1823 3654.5413 2302496
1912.8529 1333.7604 3661.6194 2302496
1940.6442 1337.9624 3673.155 2499875
1972.2821 1344.6936 3691.6348 2565668
1985.0668 1338.5642 3674.8076 2368289
2009.3815 1340.2584 3679.4587 2565668
2038.2981 1344.9529 3692.3464 2565668
2062.8176 1346.6769 3697.0793 2697254
2081.3218 1344.4789 3691.0452 2763047
2089.9792 1336.0321 3667.856 2631461
2109.5359 1334.6549 3664.075 2499875
2124.1016 1330.1802 3651.7905 2433826
2152.5576 1334.4066 3663.3936 1512980
2172.4661 1333.3027 3660.363 1973531
2183.2241 1326.6604 3642.1274 2170909
2206.4189 1327.6313 3644.793 2499873
2237.8826 1333.5107 3660.9338 4144955
2285.2544 1348.6656 3702.5393 4012599
2280.6553 1333.1528 3659.9514 3091240
2316.1682 1341.1588 3681.9304 2959398
2333.427 1338.5442 3674.7524 2893604
2362.4055 1342.6385 3685.9927 2762275
2384.3679 1342.7068 3686.1802 2631716
2410.7427 1345.2361 3693.1243 2434080
2433.8452 1345.9104 3694.9751 2104861
2460.7307 1348.646 3702.4854 2105118
2469.3428 1341.4066 3682.6108 2368289
2512.9524 1353.139 3714.8203 2763047
2532.6282 1351.8922 3711.3972 2960681
2560.3552 1354.9274 3719.7297 3091239
2577.7375 1352.483 3713.0193 2959654
2613.8293 1359.8136 3733.144 2762276
2632.8442 1358.2115 3728.7461 2762278
2652.0693 1356.7438 3724.7163 2696483
2694.3127 1366.9785 3752.8145 2630691
2679.8372 1348.5046 3702.0974 2564897
2703.0989 1349.1661 3703.9133 2301470
2697.6541 1335.6044 3666.6819 1907225
2734.4641 1343.0127 3687.0198 2038297
2762.6882 1346.1199 3695.5503 2170396
2782.7874 1345.2505 3693.1636 2104604
2798.4949 1342.2882 3685.031 1972761
2831.6538 1347.6775 3699.8264 2302496
2856.9766 1349.2831 3704.2344 2236703
2877.2581 1348.5016 3702.0889 2170910
2896.8049 1347.3901 3699.0376 2105117
2914.9338 1345.6407 3694.2349 2236703
2926.0293 1340.6948 3680.657 2236703
2945.3596 1339.5673 3677.5613 2236703
2965.9434 1339.0223 3676.0652 2236702
2995.606 1342.5541 3685.761 2105117
3021.3203 1344.2782 3690.4941 2302496
3050.446 1347.4841 3699.2959 2368289
3059.0649 1341.6506 3683.2808 2499105
3092.6372 1346.7664 3697.3252 2499104
3113.5071 1346.3174 3696.0925 2630432
3122.2478 1340.6665 3680.5791 2630689
3166.5361 1350.2522 3706.8948 2499103
3177.8066 1345.7233 3694.4614 2696226
3221.3538 1354.8314 3719.4663 2630689
3271.2668 1366.4747 3751.4312 2696225
3317.7295 1376.5294 3779.0347 2959397
3336.9893 1375.2384 3775.4905 2499103
3350.8035 1371.7354 3765.8735 2959654
3396.1709 1381.1105 3791.6111 2696482
3426.5583 1384.3103 3800.3958 3025191
3455.0125 1386.6924 3806.9353 3025447
3488.2317 1390.9437 3818.6067 2893861
3528.4915 1397.9297 3837.7856 2433310
3549.7539 1397.3478 3836.1882 2170138
3530.334 1380.8608 3790.926 1972760
3601.6951 1399.8661 3843.1018 1972502
3635.2168 1404.0179 3854.5 1577744
3675.3943 1410.6726 3872.7693 1511951
3708.6245 1414.5947 3883.5366 1643537
0 0 0 0
0 0 0 0
0 0 0 0
0 0 0 0
0 0 0 0
0 0 0 0
-3236.7061 1331.7506 3597.5791 0
-3183.1614 1318.4025 3561.5205 0
-3217.8071 1341.6469 3624.3127 0
-3186.7207 1337.6125 3613.4146 0
-3161.5283 1336.0146 3609.0981 0
-3150.3708 1340.3662 3620.8533 0
-3115.054 1334.428 3604.812 0
-3089.3477 1332.5533 3599.7476 0
-3030.5085 1316.2617 3555.7375 65536
-3030.7441 1325.58 3580.9099 65536
-3031.1123 1335.088 3606.5947 65536
-2983.6431 1323.5109 3575.3203 65536
-2996.1353 1338.5565 3615.9648 1447443
-2970.6165 1336.715 3610.99 2434593
-2905.4509 1316.877 3557.3999 2105628
-2871.1934 1310.8602 3541.146 2170908
-2865.0591 1317.6892 3559.594 2368286
-2789.9089 1292.6426 3491.9331 2828837
-2782.1384 1298.6738 3508.2261 2894630
-2760.5112 1298.2791 3507.1594 2894630
-2741.426 1299.0828 3509.3306 2565666
-2745.8777 1311.1375 3541.895 2499872
-2739.7305 1318.2781 3561.1846 2697252
-2733.6025 1325.5387 3580.7986 2565666
-2713.042 1325.8599 3581.666 2763044
-2698.4534 1329.1276 3590.4934 2894631
-2697.0725 1339.0044 3617.1746 3223851
-2687.324 1344.8518 3632.9707 3158059
-2676.9678 1350.4873 3648.1943 3026473
-2681.5759 1363.8252 3684.2253 1973529
-2644.1057 1355.8057 3662.5613 1184014
-2605.1553 1346.8881 3638.4714 197376
-2611.5889 1361.4816 3677.8943 0
-2563.749 1347.7885 3640.9038 65536
-2599.3022 1378.0756 3722.7209 131328
-2504.9836 1339.4376 3618.3447 197376
-2521.489 1359.9025 3673.6284 262912
-2451.8672 1333.8688 3603.3013 65536
-2410.499 1322.8834 3573.6255 65536
-2381.8147 1318.7258 3562.394 131328
-2360.0339 1318.3503 3561.3799 65536
-2344.3337 1321.3955 3569.606 65536
-2312.5303 1315.3367 3553.2388 65536
-2295.9685 1317.9154 3560.2051 65536
-2262.9595 1311.0137 3541.5608 65536
-2246.9517 1313.9242 3549.4231 65536
-2230.552 1316.6584 3556.8096 131328
-2198.9631 1310.3934 3539.885 0
-2181.145 1312.293 3545.0166 131328
-2156.4524 1310.0531 3538.9656 65536
-2111.1379 1295.1184 3498.6213 65792
-2126.9768 1317.775 3559.8259 65536
-2097.2607 1312.3794 3545.25 0
-2035.5178 1286.6307 3475.6926 0
-2046.2581 1306.6398 3529.7449 65792
-2049.8252 1322.4343 3572.4121 131584
-2026.6245 1321.1093 3568.8328 197378
-2007.3339 1322.332 3572.136 263170
-2002.2786 1333.0583 3601.1118 263170
-1956.4254 1316.561 3556.5461 263170
-1946.7375 1324.3066 3577.4702 131585
-1930.7118 1327.8639 3587.0796 65792
-1908.379 1327.1144 3585.0549 65536
-1881.8221 1323.3772 3574.9595 65792
-1870.3026 1330.2505 3593.5269 197120
-1847.2856 1329.0101 3590.1763 328707
-1821.5514 1325.7633 3581.4053 262913
-1806.4889 1330.2987 3593.657 328706
-1803.4536 1343.9047 3630.4121 394499
-1774.3861 1338.2062 3615.0183 328706
-1758.9905 1342.8055 3627.4429 262912
-1731.8311 1338.4271 3615.615 262912
-1712.3633 1339.9578 3619.7502 197377
-1691.2887 1340.2542 3620.5508 262914
-1660.7703 1332.9783 3600.8955 328706
-1632.676 1327.4838 3586.053 394499
-1608.9136 1325.4131 3580.4592 131328
-1585.9187 1323.9279 3576.447 131328
-1569.4799 1327.9495 3587.3108 262913
-1538.5496 1319.6516 3564.8953 197120
-1519.4144 1321.381 3569.5667 657671
-1494.5623 1318.1168 3560.749 591878
-1478.3081 1322.4508 3572.4568 723462
-1461.7352 1326.6213 3583.7229 394498
-1443.0107 1328.9333 3589.9688 131584
-1424.1298 1331.1683 3596.0063 0
-1405.115 1333.3442 3601.8843 2696738
-1396.9816 1346.0721 3636.2671 3486510
-1369.4769 1340.241 3620.5149 3158059
-1347.3638 1339.5845 3618.7417 3486767
-1316.1136 1329.6759 3591.9746 3881525
-1294.7125 1329.5555 3591.6494 3947318
-1274.7742 1330.9584 3595.4392 4078904
-1250.7501 1328.0707 3587.6382 4078904
-1233.7565 1332.6771 3600.082 3815732
-1213.8361 1334.2285 3604.2729 3552560
-1190.1306 1331.6007 3597.1743 3486767
-1165.5262 1327.8529 3587.0498 3486767
-1145.3723 1329.1301 3590.5005 3881526
-1123.5483 1328.4814 3588.7478 3947318
-1103.3779 1329.8003 3592.3105 4013111
-1076.0074 1322.3228 3572.1111 3947318
-1053.8027 1321.0211 3568.5945 4078904
-1031.8586 1319.9993 3565.8342 3815732
-1008.4785 1317.0591 3557.8918 4144697
-989.32318 1319.629 3564.8342 4144697
-968.48297 1320.0146 3565.876 3947318
-949.23676 1322.6383 3572.9634 3618353
-925.70728 1319.2775 3563.8843 3684146
-906.66357 1322.3019 3572.0544 3684146
-884.98444 1321.5355 3569.9844 3552561
-863.97931 1321.7625 3570.5974 3420975
-844.60571 1324.5597 3578.1538 3026217
-820.53137 1319.9392 3565.6721 3355182
-798.20166 1317.9551 3560.312 3289389
-775.59442 1315.3925 3553.3896 3552561
-756.07404 1318.0682 3560.6177 3355182
-737.34033 1322.3083 3572.072 3420975
-701.07416 1294.4281 3496.7566 2960424
-690.79169 1314.2858 3550.3999 2960424
-670.5423 1315.8324 3554.5779 3223596
-648.05188 1312.939 3546.7617 2828839
-632.44263 1324.2601 3577.3445 2631461
-609.56091 1320.6106 3567.4858 2631461
-589.24536 1322.4583 3572.4771 2894633
-562.53534 1309.5575 3537.6272 2894633
-540.95349 1308.0585 3533.5774 2894633
-518.36719 1303.9119 3522.3757 3092012
-507.28452 1329.5677 3591.6826 2828840
-484.06934 1324.2797 3577.3972 2894633
-465.90466 1332.9565 3600.8369 2763047
-440.2308 1319.9517 3565.7056 2828840
-419.99274 1322.7551 3573.2788 2631718
-400.54858 1328.4895 3588.7698 3092269
-380.89307 1334.1267 3603.9978 3223855
-356.94916 1324.5205 3578.0479 3552820
-332.22974 1310.6418 3540.5564 3158062
-314.21774 1323.1365 3574.3093 2105374
-294.29535 1328.8114 3589.6392 1973788
-274.22876 1334.6687 3605.4619 1907995
-251.481 1327.3639 3585.729 2105374
-229.42479 1322.6979 3573.1243 1776666
-207.7187 1319.3069 3563.9639 855565
-188.45007 1332.3817 3599.2842 1513237
-165.61845 1320.3879 3566.884 1315858
-144.84865 1323.7272 3575.905 1381651
-123.14476 1318.2122 3561.0066 1710616
-102.06453 1318.4725 3561.71 1579030
-81.212341 1322.5826 3572.8127 1776409
-59.500111 1310.6462 3540.5681 1579030
-39.063038 1329.0948 3590.4048 1447444
-17.788448 1329.0948 3590.4048 1513237
3.4620428 1319.9069 3565.5845 1710616
