# .PCD v0.7 - Point Cloud Data file format
VERSION 0.7
FIELDS x y z rgb
SIZE 4 4 4 4
TYPE F F F U
COUNT 1 1 1 1
WIDTH 1308
HEIGHT 1
VIEWPOINT 0 0 0 1 0 0 0
POINTS 1308
DATA ascii
-2101.1462 1293.8774 4083.5513 3329
-2077.1672 1294.0129 4083.9792 3586
-2047.4841 1290.5564 4073.0701 3330
-2007.2059 1280.2595 4040.5723 3586
-1981.7708 1279.2955 4037.5303 3587
-1950.8228 1274.7061 4023.0452 3844
-1918.9619 1269.3989 4006.2959 4357
-1893.4996 1268.2448 4002.6531 5129
-1850.9005 1255.4374 3962.2324 4871
-1832.9767 1259.2531 3974.2749 136972
-1773.249 1234.075 3894.8113 70924
-1762.3962 1242.6954 3922.0181 3851
-1705.3204 1218.5181 3845.7129 1029
-1678.0236 1215.2522 3835.4055 265
-1665.0292 1222.397 3857.9548 266
-1632.88 1215.4823 3836.1316 12
-1598.4413 1206.644 3808.2378 267
-1569.595 1201.8347 3793.0593 263
-1537.3322 1194.2316 3769.0632 2825
-1508.1692 1188.8479 3752.072 3851
-1479.953 1184.0605 3736.9631 2562
-1443.984 1172.8308 3701.5212 3329
-1405.1561 1158.8969 3657.5449 2816
-1382.1604 1157.7883 3654.0464 2816
-1353.1815 1151.5529 3634.3669 3843
-1326.4497 1147.0592 3620.1843 3329
-1301.826 1144.2704 3611.3831 3843
-1274.6279 1139.0879 3595.0266 3333
-1249.0957 1135.2433 3582.8926 2562
-1225.3435 1132.9114 3575.533 2561
-1199.9653 1128.9677 3563.0867 4874
-1180.7826 1130.8159 3568.9199 2305
-1151.918 1123.2904 3545.1689 2819
-1136.899 1129.2377 3563.9387 1794
-1115.1476 1128.5963 3561.9148 70411
-1075.3967 1109.3623 3501.2109 4103
-1049.5815 1104.0303 3484.3828 3076
-1024.4746 1099.2443 3469.2776 3588
-1000.587 1095.5972 3457.7676 3587
-974.09503 1088.8865 3436.5879 3329
-947.09052 1081.304 3412.6572 3329
-921.61169 1075.1704 3393.2993 4356
-896.80585 1069.5659 3375.6113 3843
-870.39301 1061.7455 3350.9297 4614
-847.7226 1058.2318 3339.8401 1792
-822.71387 1051.5613 3318.7876 1792
-798.30261 1045.3464 3299.1733 1792
-776.1618 1041.8673 3288.1929 1792
-754.1676 1038.4108 3277.2839 1792
-730.95551 1033.0504 3260.3662 1536
-709.93073 1030.5742 3252.551 1792
-688.95233 1028.0289 3244.5181 2048
-667.51642 1024.6353 3233.8076 2048
-646.26849 1021.3383 3223.4019 2048
-627.3147 1021.5763 3224.1531 2048
-607.65259 1020.6394 3221.1965 2048
-588.88654 1021.1957 3222.9524 2304
-571.4989 1024.2599 3232.623 2816
-550.85992 1021.5072 3223.9353 3072
-533.98181 1025.7815 3237.425 464137
-512.37207 1020.946 3222.1643 594700
-499.26514 1033.3347 3261.2634 922641
-484.28195 1042.6814 3290.762 1381913
-471.86777 1058.5754 3340.9248 3420728
-462.31021 1082.5505 3416.5916 3550521
-441.02884 1080.0118 3408.5793 3484727
-420.31396 1078.6833 3404.3865 2761263
-401.28409 1081.7632 3414.1064 3352630
-377.37592 1071.3212 3381.1511 3484215
-355.72849 1066.4862 3365.8914 4075327
-337.29495 1071.2843 3381.0347 4074815
-317.08893 1070.7035 3379.2014 4403524
-297.11469 1070.8796 3379.7573 4469060
-277.1275 1071.0312 3380.2361 4271681
-254.41098 1059.8365 3344.9048 4402753
-233.22644 1053.6714 3325.4473 4665925
-212.23792 1047.3356 3305.4509 4336960
-194.12761 1055.3588 3330.7727 4336960
-174.45605 1055.7498 3332.0068 4270910
-153.33223 1046.3303 3302.2786 4073786
-134.11746 1049.0881 3310.9822 4534337
-114.35336 1047.7577 3306.7832 4666437
-94.449486 1044.3318 3295.9707 4402751
-74.919533 1044.3317 3295.9705 4336701
-55.136326 1039.5566 3280.9001 4007480
-35.634804 1037.7838 3275.3052 4073017
-16.193979 1035.6525 3268.5786 4007480
3.1813757 1038.1697 3276.5232 3744310
22.524054 1034.86 3266.0774 3810103
41.634518 1028.8708 3247.1753 4007225
60.671394 1025.424 3236.2969 4336188
79.428154 1020.0355 3219.2903 4007480
98.847969 1023.6 3230.5403 4599360
116.76733 1012.9911 3197.0579 4401725
135.16512 1008.915 3184.1936 4006967
155.08258 1015.7915 3205.8962 4072760
172.96152 1009.2719 3185.3198 4138553
191.39078 1006.9304 3177.9302 4270139
210.20186 1006.8375 3177.6367 4270139
228.59863 1004.9383 3171.6428 4204602
246.57843 1001.634 3161.2141 3744051
264.09656 997.05322 3146.7571 3940917
282.90225 997.61707 3148.5366 3809587
301.07968 996.03271 3143.5361 3809843
320.5564 998.68091 3151.894 3941429
337.64081 993.99463 3137.104 3678513
352.54315 983.70868 3104.6411 3678513
370.33484 982.10553 3099.5813 4467515
388.4379 981.44049 3097.4824 4336186
406.05875 979.672 3091.9011 4401979
424.37949 979.672 3091.9011 4467772
438.96695 971.4104 3065.8269 4533310
454.71912 966.28052 3049.6367 4006966
475.06866 970.93878 3064.3384 3809329
489.61029 963.8208 3041.8738 3940658
507.39771 963.37103 3040.4541 3940659
522.56439 958.14685 3023.9666 3808817
538.54767 954.71661 3013.1404 3348523
551.54205 946.37811 2986.8235 3678002
566.49976 941.82202 2972.4443 4270139
584.61029 942.62439 2974.9766 4467518
602.08716 942.388 2974.2305 4006967
613.09485 932.32733 2942.4783 4072760
630.71814 932.60516 2943.3552 4072504
644.5835 927.461 2927.1199 4138553
663.22949 929.28479 2932.876 3743795
683.10083 932.68848 2943.6182 4270139
698.02386 929.33472 2933.0334 4335676
710.24408 922.63269 2911.8816 4533055
728.14441 923.45227 2914.4683 4072503
744.52887 922.35596 2911.0083 4006453
756.99237 916.56183 2892.7217 4269625
773.72858 916.08313 2891.2107 4335418
791.83783 917.21552 2894.7847 3283244
805.93433 913.75055 2883.8489 4138810
820.55591 911.01227 2875.2068 4336703
829.95294 902.70282 2848.9817 4139326
847.77045 903.70068 2852.1311 4139065
862.27399 901.19611 2844.2263 4138295
876.3205 898.31891 2835.146 3874865
895.8573 901.07233 2843.8357 3743278
912.79102 901.15405 2844.0938 4335415
922.94 894.65613 2823.5859 4400694
933.95587 889.2149 2806.4131 4005682
953.41376 891.86096 2814.7644 3940145
969.57751 891.3877 2813.2705 4071731
964.87506 872.07117 2752.3064 4663868
992.578 882.1983 2784.2686 4532282
994.0498 869.06158 2742.8081 4203572
1010.7758 869.46918 2744.0945 4334901
1028.9912 871.12457 2749.3191 4334901
1040.3368 867.0033 2736.312 4335156
1056.9434 867.32568 2737.3296 4269108
1070.7294 865.3587 2731.1216 4335157
1091.077 868.6745 2741.5864 4663866
1105.4796 867.22925 2737.0251 4795708
1111.3207 859.2063 2711.7043 4203315
1133.1246 863.57782 2725.5012 4466486
1144.5885 860.05695 2714.3889 3874606
1155.8331 856.47095 2703.0715 3414055
1166.4452 852.52087 2690.6047 3479848
1172.2815 845.23389 2667.6067 3611434
1187.9821 845.15839 2667.3682 3808556
1195.1494 839.09387 2648.2285 3808557
1220.8304 846.01624 2670.0757 4992574
1231.6238 842.57654 2659.22 4861245
1250.2076 844.48608 2665.2466 5058110
1261.0709 841.198 2654.8689 5189696
1272.7469 838.52625 2646.437 4728888
1281.5927 834.0777 2632.397 5123903
1301.3026 836.72162 2640.7412 4400180
1312.8102 834.09131 2632.4399 4597559
1323.6697 831.11597 2623.0496 4597559
1328.9679 824.75824 2602.9841 4597559
1341.6453 823.07336 2597.6667 4794681
1354.9862 821.82922 2593.7402 5123647
1366.3787 819.44446 2586.2136 4662583
1376.8162 816.54626 2577.0667 4334387
1398.401 820.25018 2588.7566 4663351
1407.569 816.66949 2577.4558 3741994
1414.4562 811.85657 2562.2659 4137007
1430.9529 812.60303 2564.6216 4992316
1441.0341 809.72864 2555.55 5715782
1454.5214 808.80823 2552.645 4926523
1462.7185 804.99524 2540.6111 4860730
1480.8179 806.65405 2545.8464 4860730
1512.4529 815.57849 2574.0125 5189695
1514.005 808.26459 2550.9294 3544870
1533.561 810.61188 2558.3376 3873835
1533.3418 802.56281 2532.9341 4005421
1538.2145 797.3089 2516.3525 4334386
1565.3387 803.57898 2536.1414 4992316
1569.4412 798.02374 2518.6086 4597558
1605.1804 808.50824 2551.6985 4531765
1612.8732 804.80231 2540.0022 4465973
1603.7211 792.83704 2502.2393 4991803
1637.0657 801.90802 2530.8677 5123390
1648.577 800.21631 2525.5286 5189183
1656.5256 796.84131 2514.877 4597046
1661.4548 792.08704 2499.8721 4926011
1685.9038 796.64044 2514.2429 6044235
1687.4673 790.39478 2494.5312 5518148
1701.4709 790.03381 2493.3918 5452610
1709.6068 786.97784 2483.7473 5912391
1716.7505 783.5213 2472.8381 5912392
1730.2893 783.0174 2471.2476 5517633
1723.6984 773.48883 2441.175 5978441
1739.2737 773.98291 2442.7344 5846855
1757.5486 775.66028 2448.0283 5847111
1787.2611 782.31659 2469.0361 5978440
1805.2506 783.77521 2473.6394 5320256
1788.563 770.276 2431.0352 5319485
1824.3439 779.40845 2459.8577 5648192
1835.0594 777.7724 2454.6941 6635599
1850.2759 778.05469 2455.585 7687513
1866.8944 778.91754 2458.3083 6108221
1859.8326 769.96356 2430.0491 9397868
1874.5894 770.11047 2430.5127 11305608
1887.7439 769.60199 2428.908 12095379
1893.7744 766.21893 2418.2307 12489880
1892.2094 759.83649 2398.0874 12884124
1885.8092 751.62207 2372.1624 13015966
1900.8361 752.00616 2373.3745 12949402
1911.618 750.71753 2369.3076 12818072
1931.0991 752.83911 2376.0034 12752023
1951.0833 755.12469 2383.2168 12752023
1950.238 749.37372 2365.0664 12883610
1953.6075 745.31287 2352.25 13410210
1978.7021 749.53894 2365.5879 12291473
1988.547 747.96967 2360.635 11370371
1995.5747 745.37 2352.4304 12620696
2000.0682 741.86646 2341.373 13147040
2009.3318 740.16827 2336.0134 12620695
2009.9414 735.32727 2320.7351 12752025
2024.5403 735.63538 2321.7073 13015451
2026.3984 731.34094 2308.1538 13410212
2038.714 730.85297 2306.6138 13212834
2044.9264 728.19818 2298.2351 12818075
2054.8552 726.89319 2294.1165 12818332
2077.7996 730.17926 2304.4875 12226710
2066.2144 721.36725 2276.6763 12423833
2069.9189 717.97302 2265.9639 12424088
2078.3433 716.24902 2260.5229 11898259
2091.324 716.1073 2260.0757 12490652
2104.5647 716.05585 2259.9133 12293788
2100.9321 710.30048 2241.749 9728891
2099.6719 705.41437 2226.3281 655367
2133.7783 712.39703 2248.3657 6779776
2180.4705 723.46887 2283.3093 13685458
0 0 0 0
0 0 0 0
0 0 0 0
0 0 0 0
0 0 0 0
-4282.0483 1526.1934 4728.3296 137482
-4289.0684 1538.7635 4767.2734 5897
-4273.0186 1543.1687 4780.9214 5382
-4289.1875 1559.3461 4831.0405 5896
-4287.9297 1569.3625 4862.0732 137738
-4285.5728 1579.1097 4892.271 203531
-4282.6045 1588.7627 4922.1768 269324
-4268.124 1594.248 4939.1709 137738
-4221.8428 1587.8489 4919.3457 71688
-4223.8838 1599.661 4955.9414 400910
-4195.3867 1599.9923 4956.9678 532496
-4169.376 1601.2833 4960.9673 401166
-4119.0874 1593.2021 4935.9312 466703
-4076.3347 1587.9413 4919.6323 137737
-4042.01 1585.9114 4913.3433 5895
-4004.3735 1582.543 4902.9072 71688
-3942.4355 1569.4513 4862.3477 72201
-3891.1267 1560.4293 4834.3965 203531
-3845.1001 1553.4073 4812.6421 203531
-3776.8303 1537.2273 4762.5142 269325
-3730.6492 1529.8617 4739.6948 466704
-3660.0254 1512.2852 4685.2402 400911
-3625.8269 1509.6052 4676.9375 203788
-3570.0396 1497.8263 4640.4453 71688
-3533.5315 1494.0161 4628.6406 137481
-3450.1455 1470.1708 4554.7651 203787
-3403.7488 1461.8356 4528.9414 137738
-3362.3835 1455.546 4509.4556 335117
-3307.1504 1443.1041 4470.9092 400653
-3287.4292 1446.0824 4480.1362 137481
-3225.0505 1430.1923 4430.9067 5895
-3208.6453 1434.5961 4444.5503 137226
-3154.231 1421.938 4405.334 5638
-3146.2576 1430.1793 4430.8667 5381
-3109.9719 1425.5812 4416.6211 4096
-3076.9512 1422.4144 4406.8101 4097
-3049.5225 1421.8005 4404.9082 4867
-3016.0684 1418.3428 4394.1953 5895
-2980.3679 1413.7589 4379.9941 5124
-2914.4392 1394.6296 4320.7295 5894
-2886.3792 1393.4431 4317.0532 5381
-2851.7649 1389.0427 4303.4204 4353
-2814.6492 1383.3336 4285.7329 4867
-2781.8428 1379.6577 4274.3447 4610
-2750.7063 1376.7501 4265.3364 3584
-2718.2261 1373.1099 4254.0586 3584
-2681.9812 1367.4819 4236.6226 3328
-2658.4407 1368.2865 4239.1152 3584
-2625.9441 1364.4528 4227.2378 4098
-2588.7566 1358.0842 4207.5073 3585
-2553.0847 1352.3948 4189.8809 3072
-2526.2695 1351.3312 4186.5854 3072
-2507.6907 1354.6959 4197.0098 3072
-2462.0659 1343.371 4161.9238 3841
-2438.6443 1344.0541 4164.04 268301
-2404.771 1338.9318 4148.1709 3844
-2379.2791 1338.4186 4146.5811 3331
-2348.0854 1334.6539 4134.9175 3587
-2292.9812 1317.0754 4080.4573 2560
-2277.9343 1322.3765 4096.8804 3330
-2241.3777 1315.1703 4074.5549 3330
-2205.6301 1308.2872 4053.2302 3844
-2169.9895 1301.3167 4031.6348 4614
-2136.8508 1295.708 4014.2585 5385
-2116.1404 1297.594 4020.1013 4613
-2071.4187 1284.6318 3979.9434 3843
-2050.335 1286.1996 3984.8003 3329
-2023.9652 1284.4491 3979.377 3329
-1991.8671 1278.9794 3962.4309 4100
-1960.9901 1274.1725 3947.5386 3329
-1928.167 1267.9696 3928.3213 3073
-1871.9863 1246.0675 3860.4663 5899
-1840.7012 1240.4 3842.9077 71178
-1826.7919 1246.4464 3861.6399 203021
-1797.5762 1242.0697 3848.0806 400400
-1773.8799 1241.4435 3846.1404 71434
-1748.3573 1239.5062 3840.1387 4874
-1719.9534 1235.4481 3827.5659 135949
-1641.0685 1194.5364 3700.8164 2570
-1636.7324 1207.5156 3741.0278 517
-1620.7936 1212.1737 3755.459 264
-1604.5389 1216.7219 3769.55 266
-1563.0378 1201.9839 3723.8899 10
-1538.6512 1200.1735 3718.281 264
-1509.1311 1194.2479 3699.9231 2058
-1466.4988 1177.6185 3648.4031 3338
-1446.0037 1178.5339 3651.2393 3076
-1413.1941 1169.288 3622.5942 2816
-1385.1324 1163.746 3605.4243 3329
-1355.257 1156.4825 3582.9214 3843
-1327.4705 1150.799 3565.3127 2304
-1304.2308 1148.9369 3559.5437 2560
-1274.965 1141.6176 3536.8679 3586
-1251.6604 1139.4808 3530.2478 4870
-1217.1801 1126.9243 3491.3462 4871
-1198.9291 1129.2191 3498.4561 4103
-1181.7316 1132.6046 3508.9446 136717
-1155.9053 1127.6931 3493.728 71181
-1136.0206 1128.5049 3496.2429 2305
-1116.069 1129.2788 3498.6406 4104
-1088.1388 1121.8564 3475.6455 200969
-1051.2396 1104.7223 3422.5618 268303
-1025.688 1099.0736 3405.0613 136717
-1002.1405 1095.3887 3393.6453 70922
-979.31586 1092.3593 3384.2598 3844
-952.70526 1084.892 3361.125 3329
-926.90936 1078.0533 3339.9382 3329
-905.55994 1076.2006 3334.1982 3585
-878.72455 1067.6001 3307.5527 3843
-858.28638 1066.5568 3304.3203 3843
-825.2807 1049.4829 3251.4238 2048
-797.71393 1038.6749 3217.9392 2048
-777.4928 1037.1361 3213.1716 1792
-755.53021 1033.1388 3200.7876 1536
-735.02069 1030.9736 3194.0798 1792
-714.30347 1028.3951 3186.0911 2048
-693.52722 1025.5892 3177.3982 2304
-672.85889 1022.7909 3168.7285 2304
-652.48407 1020.2908 3160.9829 2048
-632.5639 1018.3749 3155.0471 2048
-611.45605 1014.3719 3142.6455 1792
-593.86603 1016.1367 3148.113 1792
-574.49323 1014.8667 3144.1785 1792
-557.93805 1018.6557 3155.9172 2048
-539.98792 1020.0724 3160.3064 1792
-519.91327 1017.4333 3152.1301 3072
-497.61615 1010.0864 3129.3684 266246
-486.78091 1026.337 3179.7148 857871
-475.30267 1042.486 3229.7463 1382679
-468.91846 1071.6316 3320.0427 3289909
-451.3978 1076.7648 3335.946 3288886
-432.11945 1077.9834 3339.7214 3354168
-415.2933 1085.7297 3363.7207 3156021
-397.2486 1090.911 3379.7727 3287606
-374.07013 1081.7957 3351.5325 3483959
-352.8718 1077.7057 3338.8613 4207425
-334.82697 1083.3331 3356.2957 4469830
-310.05051 1066.5156 3304.1931 4272451
-290.17487 1065.4253 3300.8152 3679544
-271.51959 1068.9821 3311.8342 3679544
-250.64317 1063.6667 3295.3669 4205118
-232.55275 1070.2755 3315.8416 4534339
-210.8282 1059.8351 3283.4958 4271167
-191.83984 1062.425 3291.52 4271167
-171.88644 1059.652 3282.9287 4402753
-151.52368 1053.3254 3263.3281 3876409
-131.50113 1047.8589 3246.3923 3942200
-111.77533 1043.2889 3232.2339 4073786
-92.103851 1037.4408 3214.1157 3942200
-73.643272 1045.7385 3239.8232 3744822
-54.029274 1037.7341 3215.0247 3679031
-34.777153 1031.7469 3196.4756 4007996
-15.888345 1035.1084 3206.8896 4270654
3.1095779 1033.7169 3202.5784 4007483
22.047541 1031.91 3196.981 3810101
40.71698 1025.0135 3175.6147 4336701
59.662464 1027.2292 3182.479 4402494
77.445473 1013.1727 3138.9304 3810358
95.757767 1010.1439 3129.5464 3678515
114.35407 1010.6076 3130.9834 3744308
132.85048 1010.1824 3129.666 4270139
151.32658 1009.726 3128.2517 4072504
169.38184 1006.8672 3119.395 4270139
189.24736 1014.2733 3142.3401 4599104
206.67606 1008.4622 3124.3367 4401725
224.96602 1007.4636 3121.2429 4270652
243.91733 1009.3535 3127.0979 4204603
262.7438 1010.4964 3130.6387 3809588
278.50424 1000.4744 3099.5891 3415343
297.85773 1003.8011 3109.896 2691620
314.28125 997.44153 3090.1931 2625827
326.6897 979.74091 3035.3545 2493984
346.16125 983.96442 3048.4395 3283755
364.6586 985.13727 3052.073 3744306
381.80435 982.72034 3044.5852 4336443
395.75229 972.66205 3013.4233 4533821
415.7009 977.58374 3028.6714 4401979
434.7348 980.03607 3036.269 3744049
446.65155 966.8866 2995.5303 3744048
463.47617 964.96051 2989.5632 4138807
482.69983 967.98718 2998.9402 4138550
498.54456 964.26355 2987.4038 3941428
513.8678 959.82117 2973.6409 3941171
528.6438 954.68524 2957.729 4335674
542.0127 947.41919 2935.218 4072760
561.18787 950.4386 2944.5725 4072760
572.07098 939.65582 2911.1663 4138553
591.90533 943.77686 2923.9336 4335675
605.62097 938.18469 2906.6084 3809588
621.14404 935.62445 2898.6763 3480623
639.01862 936.64862 2901.8494 3941174
654.03967 933.54608 2892.2375 3809588
673.82886 937.23407 2903.6633 4138553
687.65961 932.65717 2889.4836 4401725
702.50397 929.64392 2880.1482 4072760
718.71735 928.54248 2876.7356 4467261
733.05725 925.1275 2866.1558 4006452
744.28851 918.03302 2844.176 3940659
764.80304 922.4494 2857.8586 2559519
783.82794 924.91675 2865.5027 4139065
793.20288 916.13385 2838.2922 2693163
809.15979 915.15991 2835.2749 4470866
824.3028 913.32379 2829.5864 2760509
834.46997 906.15765 2807.3848 3812422
844.46307 899.08624 2785.4768 4402757
855.72083 893.60669 2768.5002 4072759
873.96765 895.49438 2774.3486 4072243
889.76721 894.85107 2772.3557 3809072
906.00574 894.66473 2771.7783 4400439
920.79175 893.07617 2766.8567 3940401
936.72943 892.64056 2765.5073 4861760
971.2381 909.61267 2818.0889 4532796
958.74023 882.73114 2734.8066 6243414
972.65143 880.65448 2728.3728 3414314
971.46393 865.19861 2680.4888 4072244
985.55713 863.63013 2675.6296 4795454
1007.2521 868.66742 2691.2356 4466488
1022.6602 868.21014 2689.8188 4203059
1036.0995 866.12122 2683.3472 4203316
1056.1416 869.53137 2693.9124 4006192
1068.4615 866.57721 2684.7598 4137778
1083.0796 865.54608 2681.5654 4335156
1095.179 862.5611 2672.3174 4466743
1129.5184 876.92786 2716.8274 4598329
1131.3583 866.01343 2683.0134 5124416
1140.2369 860.71497 2666.5979 3677227
1148.7363 855.27893 2649.7563 4400950
1169.2246 858.79523 2660.6504 3611434
1179.0977 854.52484 2647.4202 3676971
1192.048 852.5675 2641.3562 4598329
1200.0238 847.14923 2624.5696 4598329
1217.1494 848.24615 2627.968 4598073
1230.8645 846.96857 2624.01 4466999
1244.1428 845.42609 2619.2312 4663609
1262.0432 847.02368 2624.1807 4465973
1262.288 836.87695 2592.7449 4597559
1270.7708 832.3703 2578.7827 4663096
1282.2959 829.93988 2571.2529 3808043
1296.7632 829.44836 2569.7302 4992317
1311.5753 829.18628 2568.9182 4399924
1333.1547 833.1593 2581.2273 5123903
1335.2189 824.98468 2555.9011 5123903
1357.1382 829.12347 2568.7239 4926524
1365.3474 824.88739 2555.5999 5058109
1361.14 813.32495 2519.7781 4926524
1393.7755 823.78931 2552.198 4268594
1401.326 819.36182 2538.481 5255489
1400.5931 810.23633 2510.2092 4400179
1410.6136 807.45819 2501.6021 5189695
1416.2556 802.25745 2485.4895 4071214
1439.3788 806.96436 2500.072 4860730
1456.1544 808.05304 2503.4448 4992316
1485.3324 815.9325 2527.8567 5058109
1493.0482 811.98267 2515.6196 4663094
1504.1399 809.92877 2509.2563 4597558
1523.3788 812.25916 2516.4761 4465972
1527.9122 806.77942 2499.4993 3610663
1531.9552 801.14844 2482.0537 5584453
1551.7406 803.77887 2490.2031 6505555
1561.8612 801.40076 2482.8354 4992316
1574.3705 800.28119 2479.3669 3873835
1591.8301 801.67535 2483.6863 4465204
1605.4761 801.14105 2482.0308 4662582
1617.1908 799.66138 2477.4465 5912906
1649.1235 808.11572 2503.6392 5386562
1650.5874 801.62195 2483.5208 5189183
1666.9476 802.41351 2485.9731 4070445
1666.2029 795.02954 2463.0967 5583941
1672.514 791.11127 2450.9573 5781064
1675.2306 785.57483 2433.8049 5583685
1690.1672 785.81451 2434.5474 5452098
1699.9694 783.68304 2427.9438 5452355
1705.6235 779.69116 2415.5767 5912649
1729.2518 783.91394 2428.6592 6241614
1739.757 782.16705 2423.2471 6175821
1753.6447 781.95691 2422.5962 5978441
1771.531 783.51892 2427.4353 5715014
1788.6302 784.71027 2431.1265 5780036
1784.6017 776.68756 2406.271 5319743
1798.1511 776.38159 2405.323 5779781
1818.2284 778.87671 2413.0532 6175051
1830.7635 778.12732 2410.7317 6832725
1844.4282 777.86597 2409.9219 6306122
1869.0653 782.20044 2423.3506 6700620
1887.2841 783.80334 2428.3164 8279392
1887.2621 777.86365 2409.9148 8015703
1863.3412 762.23706 2361.5015 10186615
1870.8395 759.60004 2353.3318 10844802
1884.7971 759.60535 2353.3484 12160405
1891.9104 756.8725 2344.8816 11963536
1889.137 750.25299 2324.3735 11831693
1916.9216 755.77747 2341.489 12028559
1938.1884 758.67102 2350.4536 13805226
1943.1448 755.18457 2339.6521 13542310
1951.0983 752.90405 2332.5869 13410724
1962.9974 752.16742 2330.3047 13409955
1952.3943 742.87909 2301.5283 12686489
1971.5455 744.96252 2307.9829 12687002
1982.8577 744.07556 2305.2351 13739177
1994.0139 743.1427 2302.345 13147038
2010.3252 744.13062 2305.4058 11896971
1999.2859 735.04956 2277.2715 13278367
2020.5715 737.89514 2286.0874 12883868
2034.96 738.20074 2287.0342 12686489
2033.2695 732.70807 2270.0173 13015711
2038.0978 729.62134 2260.4541 13147555
0 0 0 0
2058.7759 727.46228 2253.7651 12555931
2059.3823 722.98688 2239.8999 12358810
2064.9478 720.29852 2231.571 12490141
2105.9692 729.93359 2261.4216 11306381
2113.5974 727.9458 2255.2632 10122367
2092.0159 715.98602 2218.2102 1900561
2121.0322 721.38434 2234.9351 1449520
0 0 0 0
0 0 0 0
0 0 0 0
0 0 0 0
0 0 0 0
0 0 0 0
0 0 0 0
-4184.2251 1528.707 4650.7407 203531
-4194.8501 1542.7494 4693.4614 664083
-4165.0376 1542.0082 4691.2065 466703
-4167.0137 1553.1052 4724.9668 401166
-4188.5508 1571.6924 4781.5137 335373
-4189.9775 1582.9351 4815.7173 400910
-4179.0054 1589.6156 4836.041 335117
-4151.041 1589.8804 4836.8467 71945
-4118.4976 1588.3826 4832.29 137738
-4100.3076 1592.4385 4844.6294 203531
-4057.9358 1587.0939 4828.3691 466959
-3978.8113 1567.1969 4767.8374 335117
-3947.9402 1566.1577 4764.6758 203531
-3921.335 1566.8079 4766.6538 203275
-3873.3838 1558.8768 4742.5254 71945
-3814.7561 1546.5013 4704.876 138253
-3750.6106 1531.6904 4659.8174 533268
-3714.208 1528.0735 4648.8135 796440
-3683.1023 1526.598 4644.3247 993819
-3593.6042 1500.7156 4565.583 533268
-3586.6023 1509.1523 4591.25 730648
-3448.6836 1462.2109 4448.4414 335887
-3400.532 1452.8997 4420.1143 204300
-3373.0156 1452.3289 4418.3779 137738
-3337.5925 1448.3182 4406.1763 137737
-3337.5591 1459.7225 4440.8711 71945
-3279.4983 1445.7273 4398.2939 729877
-3251.0674 1444.6746 4395.0913 137226
-3222.7566 1443.6584 4392 5384
-3188.6604 1440.0132 4380.9102 4870
-3136.9797 1428.3018 4345.2808 4611
-3099.624 1422.9725 4329.0679 5381
-3072.8293 1422.4434 4327.458 4096
-3029.0703 1413.9862 4301.729 4352
-2999.3455 1411.9923 4295.6631 4866
-2966.2654 1408.3713 4284.647 5124
-2935.2039 1405.6544 4276.3813 5381
-2884.6436 1393.4709 4239.3159 4867
-2839.4421 1383.6849 4209.5444 4353
-2829.8975 1391.2552 4232.5752 4353
-2773.9287 1375.9335 4185.9624 3072
-2734.8833 1368.8057 4164.2773 3328
-2717.9272 1372.7041 4176.1377 4096
-2683.239 1367.6362 4160.7197 2816
-2644.1165 1360.1932 4138.0762 3841
-2625.2124 1363.1091 4146.9473 4611
-2594.4797 1359.8802 4137.124 4612
-2567.8208 1358.7454 4133.6714 4612
-2535.449 1354.5364 4120.8667 4100
-2504.6279 1351.0824 4110.3584 2304
-2467.9685 1344.38 4089.968 2304
-2438.3406 1341.413 4080.9414 2816
-2408.9126 1338.4977 4072.0723 4358
-2388.0117 1340.3093 4077.584 3330
-2340.1482 1326.8701 4036.6982 3331
-2319.9111 1328.9795 4043.1152 2561
-2289.7385 1325.3816 4032.1697 2816
-2256.2446 1319.7651 4015.083 2817
-2221.335 1313.192 3995.0859 3330
-2189.4824 1308.3042 3980.2158 4101
-2154.5574 1301.4539 3959.3752 3844
-2112.9822 1290.3916 3925.7205 4357
-2091.0952 1291.2402 3928.3027 4614
-2057.2175 1284.6207 3908.1641 3586
-2010.5021 1269.7424 3862.9004 2816
-1988.9014 1270.5657 3865.4048 3072
-1956.3793 1264.3497 3846.4944 3329
-1925.1711 1258.8466 3829.7522 3586
-1886.3651 1248.1847 3797.3157 3843
-1871.215 1253.1071 3812.291 3330
-1829.4778 1240.1276 3772.804 5385
-1819.7788 1248.8129 3799.2271 136971
-1782.4271 1238.5016 3767.8574 466192
-1753.8624 1234.1119 3754.5027 334606
-1713.795 1221.4114 3715.8643 5128
-1705.8682 1231.5847 3746.8142 4615
-1674.1813 1224.6461 3725.7053 70152
-1646.0082 1220.1268 3711.9563 3336
-1595.2599 1198.5243 3646.2356 517
-1586.8186 1208.5503 3676.7373 519
-1572.7781 1214.5316 3694.9341 266
-1535.0289 1202.115 3657.1594 12
-1507.069 1197.1189 3641.9597 267
-1474.6887 1188.4153 3615.4812 263
-1448.9374 1184.8759 3604.7131 2828
-1420.299 1178.8344 3586.3333 3336
-1394.6122 1175.0964 3574.9614 3076
-1364.5613 1167.509 3551.8787 3586
-1325.9878 1152.2781 3505.542 2816
-1297.0222 1145.0442 3483.5347 2304
-1281.8359 1149.938 3498.4229 3330
-1257.7155 1146.8461 3489.0161 2560
-1233.3738 1143.4456 3478.6711 3842
-1206.2358 1137.2932 3459.9539 4100
-1182.0422 1133.752 3449.1807 5387
-1158.8822 1131.0948 3441.0972 202510
-1133.1602 1125.7974 3424.9807 136717
-1108.9205 1121.8064 3412.8389 201739
-1091.6935 1124.8928 3422.2288 2049
-1069.6201 1123.0079 3416.4944 69897
-1031.3049 1103.6689 3357.6597 267533
-1005.4742 1097.1921 3337.9558 201738
-979.20862 1089.9717 3315.989 4358
-954.30304 1084.0002 3297.822 2816
-924.89624 1072.5592 3263.0154 3072
-903.05951 1069.5957 3253.9998 3586
-878.82263 1063.5981 3235.7534 2560
-854.8551 1057.6663 3217.7073 2816
-832.45905 1053.4524 3204.8877 3073
-805.93988 1043.7024 3175.2253 1792
-784.03925 1039.6102 3162.7759 1792
-764.83728 1038.9838 3160.8699 1536
-742.54614 1034.0239 3145.7808 1792
-719.84711 1028.2261 3128.1421 2304
-697.10229 1022.0546 3109.3667 2304
-676.13477 1018.2244 3097.7146 2304
-657.47534 1017.7535 3096.282 2304
-637.25739 1014.7738 3087.2168 2048
-617.6178 1012.566 3080.5002 1792
-600.31024 1014.1637 3085.3606 1792
-579.54291 1009.8331 3072.1855 1792
-559.48645 1006.5004 3062.0469 1792
-545.05029 1013.394 3083.019 1536
-527.8576 1015.4628 3089.313 1792
-509.86877 1016.0938 3091.2324 2816
-491.55197 1016.0938 3091.2324 134403
-477.38974 1025.0142 3118.3706 331783
-463.68329 1035.6709 3150.7913 1185555
-453.15842 1054.6261 3208.4583 2039843
-442.05222 1073.8295 3266.8799 3289143
-426.85788 1084.4059 3299.0564 3353655
-408.44958 1087.4408 3308.2896 3747131
-389.73996 1089.939 3315.8896 2891822
-369.74805 1088.9261 3312.8081 2299173
-348.27966 1083.2075 3295.4109 2692905
-327.10513 1077.778 3278.8923 3613751
-308.27377 1079.8706 3285.2585 3811130
-286.00577 1069.3954 3253.3904 3811130
-266.71597 1069.3467 3253.2422 3810874
-246.94792 1067.2235 3246.783 4073788
-229.27411 1074.5569 3269.093 4336960
-208.07552 1065.1993 3240.625 4271167
-186.40143 1051.2573 3198.2095 4205117
-168.59633 1058.4493 3220.0896 3942201
-149.30173 1056.9324 3215.4746 4007993
-129.11693 1047.748 3187.5332 4139579
-109.95535 1045.142 3179.605 3876407
-90.700874 1040.3927 3165.1565 4073786
-72.26947 1045.0697 3179.385 4534080
-53.382885 1044.1415 3176.5613 4205372
-34.316109 1036.7584 3154.0999 3547442
-15.603634 1035.2213 3149.4238 4336958
3.0519242 1033.1757 3143.2004 4073274
21.651859 1031.9943 3139.606 3941431
40.047112 1026.6573 3123.3699 4007479
58.264114 1021.5688 3107.8892 4468031
77.445473 1031.7722 3138.9304 4007480
94.86216 1019.0665 3100.2764 4204859
113.74037 1023.6369 3114.1807 3678515
132.22171 1023.8581 3114.8538 4073273
149.08453 1013.0273 3081.9033 4599617
166.66383 1008.8976 3069.3396 4402238
185.95526 1014.925 3087.6768 4665410
203.32967 1010.347 3073.7493 4336446
220.47867 1005.4937 3058.9841 3744309
238.29907 1004.2072 3055.0701 3678515
255.72049 1001.5396 3046.9546 4073017
275.73718 1008.7181 3068.7937 4665153
290.24121 996.08917 3030.373 3875638
309.07455 998.92413 3038.9978 3875894
326.12396 995.99878 3030.0981 3481136
338.28827 979.23779 2979.1067 3217963
359.56845 989.21838 3009.4702 3678258
375.23322 983.53687 2992.1855 4402237
391.89957 980.87494 2984.0874 4796738
410.42947 982.9057 2990.2654 4402236
425.53198 976.90015 2971.9946 4204857
443.24249 977.12115 2972.667 4073271
458.82626 972.81604 2959.5698 3744049
474.4715 968.95343 2947.8188 3546670
489.84915 964.83813 2935.2988 3809842
506.82465 964.04431 2932.8838 4270393
520.40143 957.05273 2911.6135 4467260
534.72534 951.83966 2895.7539 4533311
549.07245 946.99084 2881.0024 4072760
565.7832 946.388 2879.1687 3678002
577.95496 938.4505 2855.0205 3941174
598.43781 944.07556 2872.1335 3809588
615.09424 943.52014 2870.4436 4138552
627.97443 937.35791 2851.6965 4533310
644.80536 937.26111 2851.4023 4335931
661.28241 936.66821 2849.5984 4072760
674.38806 931.44824 2833.7178 3941174
690.56348 930.61877 2831.1943 4204090
710.49249 934.76709 2843.8147 3941174
722.40411 928.41943 2824.5034 4204346
736.05157 924.53967 2812.7 3151914
755.89728 928.4447 2824.5801 4665410
758.92242 911.9679 2774.4534 3086635
781.04254 918.64905 2794.7793 3350065
789.85883 909.72986 2767.6448 2889515
818.06268 923.04944 2808.1663 3613752
822.09308 909.10565 2765.7456 3284786
834.95502 905.28241 2754.1143 3744566
845.01215 898.62305 2733.8547 4007480
864.86029 902.43054 2745.438 4467773
877.17468 898.38153 2733.1199 4335672
890.99799 895.99664 2725.8645 4269623
908.13177 896.96643 2728.8149 4072244
923.39178 896.08411 2726.1306 4269623
931.14038 888.06799 2701.7434 4467002
954.43842 894.90247 2722.5356 4335417
955.60321 881.10205 2680.551 4993346
961.79535 872.31244 2653.8108 4401209
978.83588 873.48651 2657.3826 4532539
991.76178 871.0097 2649.8474 4401208
1009.8061 873.03534 2656.01 4927551
1018.408 866.96051 2637.5286 4729658
1030.509 864.00305 2628.5315 4532536
1053.124 869.81757 2646.2207 4203571
1070.0096 870.79877 2649.2058 4532279
1085.5089 870.63971 2648.7219 3874606
1105.0151 873.65326 2657.8896 4203314
1117.2961 870.94977 2649.665 5256259
1132.2141 870.34833 2647.8354 4993086
1131.017 857.54474 2608.8835 4400950
1135.8175 849.57275 2584.6304 3085090
1161.9877 857.58423 2609.0034 4203314
1170.9224 852.83203 2594.5459 4466486
1204.3855 865.83655 2634.1091 4795452
1200.3624 851.90417 2591.7231 4729915
1213.2485 850.17273 2586.4556 4532536
1224.3889 847.27643 2577.6443 4597816
1236.8157 845.33057 2571.7246 4794938
1251.3972 844.88708 2570.3752 5518404
1255.3842 837.38721 2547.5586 3873836
1256.271 828.02228 2519.0681 3808043
1285.2317 837.1637 2546.8787 4070959
1305.7338 840.64728 2557.4766 4597559
1320.0743 840.12952 2555.9016 3808300
1319.984 830.54352 2526.7383 4729145
1323.0099 823.11121 2504.1274 6571349
1348.9343 829.93219 2524.8787 4597303
1368.4413 832.69855 2533.2944 5387075
1361.8823 819.7157 2493.7971 4005422
1391.6064 828.61591 2520.874 4334130
1380.1486 813.06622 2473.5676 4597815
1400.6792 816.49017 2483.9841 5190208
1408.7324 812.64514 2472.2866 3939371
1426.2103 814.26007 2477.1997 4597558
1442.78 815.32886 2480.4512 4071214
1465.7616 819.96289 2494.5493 4597558
1491.4418 825.99915 2512.9131 4926523
1494.5262 819.52551 2493.2185 4334129
1510.2638 820.04907 2494.8115 5255488
1523.8624 819.41229 2492.8743 4136751
1523.45 811.32605 2468.2737 4663351
1541.8539 813.31915 2474.3372 4005165
1557.3955 813.77911 2475.7363 4860730
1546.0831 800.32947 2434.8191 5321025
1563.7257 801.97845 2439.8357 4663095
1594.0991 810.06665 2464.4421 5452612
1607.2625 809.34174 2462.2368 5057853
1614.8417 805.84338 2451.594 4926011
1641.1122 811.65161 2469.2639 5386562
1641.2056 804.52502 2447.583 5452355
1665.7145 809.38696 2462.3745 4860217
1661.3073 800.23602 2434.5347 3610150
1658.7935 792.14667 2409.9246 5255231
1671.8387 791.56219 2408.1465 5649734
1670.5105 784.23975 2385.8699 5320769
1684.2145 784.03802 2385.2561 5452355
1695.6276 782.7821 2381.4353 5715528
1702.0807 779.27612 2370.769 5123390
1726.0353 783.77472 2384.4548 5188927
1757.7782 791.70819 2408.5906 5188927
1753.7296 783.52301 2383.6892 4662325
1769.4426 784.22711 2385.8313 4728375
1772.7981 779.48657 2371.4092 6044235
1795.9122 783.43994 2383.4365 5649477
1792.4711 775.83771 2360.3083 5452100
1807.0685 776.10046 2361.1077 6240844
1816.2714 774.06 2354.9001 5911879
1828.9197 773.50787 2353.2205 5977671
1836.3448 770.77185 2344.8967 5780547
1852.3618 771.65601 2347.5867 5779260
1850.4955 765.13281 2327.7412 7884121
1869.8081 767.39813 2334.6331 10450045
1879.8514 765.854 2329.9353 10055028
1880.8064 760.65674 2314.1238 11502729
1893.0311 760.05957 2312.3071 11502472
1913.4144 762.72308 2320.4102 12620440
1908.4806 755.32874 2297.9146 12949661
1925.7924 756.78107 2302.333 12357523
1924.2656 750.862 2284.3257 12225423
1926.9323 746.65057 2271.5132 12093583
1940.4697 746.68048 2271.6042 12290962
1971.4287 753.36749 2291.948 12423317
1966.3716 746.29388 2270.4282 13673384
0 0 0 0
1976.0088 739.82831 2250.7581 12620952
2000.1475 743.84552 2262.9795 12752025
2011.1176 742.94446 2260.2383 12817818
2021.3256 741.7757 2256.6826 12226708
2024.5374 738.07184 2245.4143 12687259
2042.5222 739.76678 2250.5708 12358294
2032.451 731.34424 2224.9473 12358550
2039.6857 729.21735 2218.4766 11569547
2052.7241 729.17938 2218.3611 13279653
2071.8828 731.30212 2224.8191 12359064
2088.8115 732.61584 2228.8159 10451840
2064.6404 719.58868 2189.1836 3214364
2075.0566 718.70355 2186.4907 722197
2117.4119 728.82288 2217.2766 10331306
0 0 0 0
0 0 0 0
0 0 0 0
0 0 0 0
0 0 0 0
0 0 0 0
-4100.2983 1525.0491 4557.4565 335117
-4119.0894 1542.1951 4608.6958 335118
-4112.0815 1549.8464 4631.561 400911
-4114.0845 1561.0194 4664.9502 269326
-4113.229 1571.2518 4695.5288 71945
-4083.6257 1570.5671 4693.4824 71946
-4064.8833 1574.0786 4703.9766 71947
-4033.7554 1572.8096 4700.1836 71690
-4009.4548 1574.2032 4704.3491 5897
-3946.6648 1560.3989 4663.0962 269327
-3913.1155 1558.0424 4656.0537 269069
-3877.0398 1554.6394 4645.8843 203790
-3844.5842 1552.6497 4639.938 204559
-3803.4561 1547.1035 4623.3643 270096
-3766.7 1543.2682 4611.9028 204303
-3721.8848 1536.0509 4590.3345 335889
-3675.8176 1528.2068 4566.8931 664854
-3571.5591 1495.8741 4470.27 994076
-3525.2144 1487.4954 4445.231 1059612
-3444.4736 1464.3677 4376.1162 401938
-3443.9998 1475.2721 4408.7031 138253
-3371.8789 1455.4181 4349.3711 6154
-3348.063 1456.2688 4351.9136 137741
-3332.9829 1460.9619 4365.9385 137740
-3289.2529 1453.072 4342.3604 71947
-3244.8584 1444.7618 4317.5259 137997
-3214.49 1442.6141 4311.1079 400399
-3149.0012 1424.5446 4257.1089 5383
-3135.6909 1429.978 4273.3462 5126
-3105.8618 1427.9056 4267.1528 6151
-3061.019 1418.84 4240.061 4096
-3032.0979 1417.0653 4234.7578 4096
-2997.865 1412.7579 4221.8857 3584
-2971.8525 1412.2845 4220.4712 3840
-2931.3533 1404.8604 4198.2847 136968
-2897.5151 1400.5287 4185.3398 4358
-2867.2622 1397.8702 4177.395 3587
-2828.345 1390.9047 4156.5791 2816
-2785.5435 1381.8894 4129.6382 3072
-2753.9329 1378.3156 4118.958 3072
-2712.7761 1369.8571 4093.6809 2048
-2681.7856 1366.4263 4083.428 2560
-2651.6104 1363.3519 4074.2407 3586
-2593.3513 1345.6489 4021.3369 5128
-2581.9412 1352.152 4040.771 4614
-2558.5066 1352.4208 4041.5742 4357
-2527.0503 1348.4144 4029.6018 3329
-2502.5674 1348.0881 4028.6265 4100
-2476.325 1346.7985 4024.7725 4356
-2446.6226 1343.5837 4015.1653 2816
-2427.5806 1346.2175 4023.0364 3073
-2398.1836 1343.1044 4013.7329 3329
-2362.5635 1336.4084 3993.7229 2304
-2341.4695 1337.8772 3998.1121 3845
-2312.0034 1334.5433 3988.1492 3331
-2278.7368 1328.9242 3971.3572 4872
-2240.4868 1320.2513 3945.439 2048
-2189.0374 1303.5354 3895.4851 3073
-2178.2358 1310.9263 3917.5718 1792
-2132.6396 1297.3104 3876.8826 2816
-2088.3733 1284.2158 3837.7505 2816
-2061.5249 1281.6617 3830.1179 4101
-2033.7861 1278.4911 3820.6428 4357
-2001.801 1272.5496 3802.8872 3073
-1967.2722 1264.8374 3779.8401 2304
-1945.2344 1265.0712 3780.5383 2816
-1908.3319 1255.5305 3752.0271 3073
-1881.9617 1252.7759 3743.7954 3073
-1851.5419 1247.2278 3727.2153 3329
-1824.2911 1243.7063 3716.6917 3843
-1781.4492 1229.3396 3673.7581 4614
-1770.9567 1237.217 3697.2993 4614
-1744.5038 1234.0021 3687.6919 4871
-1708.756 1224.0474 3657.9431 4357
-1675.738 1215.8173 3633.3484 3330
-1654.6327 1216.1288 3634.2791 4102
-1631.3645 1214.8378 3630.4211 202250
-1603.5531 1210.084 3616.2148 3331
-1577.0189 1206.1781 3604.5425 2565
-1556.2367 1206.6249 3605.8777 1027
-1527.8276 1201.0881 3589.3318 264
-1497.5162 1193.8787 3567.7866 13
-1476.2207 1193.7533 3567.4121 13
-1443.1268 1183.9449 3538.1011 266
-1417.9551 1180.4426 3527.6345 1030
-1387.4102 1172.2953 3503.2874 135694
-1353.812 1161.2815 3470.3735 3590
-1330.1217 1158.558 3462.2344 3587
-1302.2772 1152.0739 3442.8574 4100
-1281.5791 1151.8063 3442.0579 3843
-1257.0126 1147.9971 3430.6743 3843
-1234.6769 1146.1334 3425.105 3586
-1213.0477 1144.8744 3421.3425 3586
-1188.9921 1141.2434 3410.4917 3843
-1154.2676 1127.0696 3368.1345 3844
-1134.2955 1127.0552 3368.0916 1255455
-1113.5216 1126.2291 3365.623 926490
-1075.9771 1108.1018 3311.4512 465425
-1062.6134 1114.6664 3331.0688 202510
-1028.647 1099.4584 3285.6213 333326
-1006.5352 1096.5787 3277.0159 3075
-981.00745 1089.7911 3256.7317 2048
-957.78571 1085.3441 3243.4424 2048
-931.13879 1076.7544 3217.7727 2816
-905.04065 1068.4531 3192.9653 2560
-884.33386 1066.2982 3186.5256 2560
-860.31885 1059.9734 3167.6243 3329
-838.31573 1055.9004 3155.4526 3843
-816.95392 1052.4678 3145.1946 3586
-795.37427 1048.5875 3133.5991 4100
-768.43512 1037.2875 3099.8298 1792
-748.76654 1035.4885 3094.4539 1792
-729.4256 1034.0637 3090.1958 2048
-705.5307 1025.9434 3065.9292 1792
-680.63147 1015.8949 3035.9001 2304
-660.11115 1012.0139 3024.3022 2304
-645.33154 1016.9631 3039.0925 2048
-624.11627 1011.7636 3023.5542 2048
-602.83173 1006.141 3006.7515 1792
-589.64941 1014.1107 3030.5681 1792
-571.43091 1013.6473 3029.1836 1792
-552.25116 1011.3935 3022.4482 1792
-534.19159 1011.1089 3021.5979 1792
-517.16754 1012.8328 3026.7493 2048
-500.1825 1014.7593 3032.5066 2816
-482.27347 1014.8851 3032.8826 2816
-468.79361 1024.702 3062.2195 200197
-453.02237 1030.0994 3078.3489 792080
-445.49667 1055.4851 3154.2117 1909026
-432.94095 1070.655 3199.5452 3289142
-420.40189 1087.2573 3249.1597 3156276
-403.58609 1093.8619 3268.897 3681595
-380.34464 1082.8385 3235.9546 3417653
-359.83807 1078.8445 3224.0186 2692903
-338.35876 1071.3224 3201.5396 2824488
-319.97357 1073.2853 3207.4058 3745847
-301.04688 1073.5651 3208.2419 4008508
-281.40326 1071.1537 3201.0356 3876923
-261.99963 1069.3734 3195.7153 3745337
-242.44511 1066.6517 3187.5818 3942716
-223.12782 1064.6021 3181.4565 3613494
-203.18141 1058.8954 3164.4028 3613237
-184.18134 1057.4615 3160.1179 4007995
-165.9407 1060.557 3169.3684 3810615
-147.75887 1064.8663 3182.2463 3876664
-128.2722 1059.6571 3166.6792 4731716
-108.30952 1048.0566 3132.0122 3942457
-89.651031 1046.8882 3128.5205 3810358
-71.026398 1045.609 3124.6978 3876407
-52.208408 1039.5776 3106.6736 4205372
-33.667904 1035.5111 3094.5212 3876407
-15.454824 1043.8323 3119.3882 3744564
2.9994164 1033.7042 3089.1218 3415856
21.384598 1037.6295 3100.8518 3415600
39.526299 1031.5723 3082.7502 3284270
57.165218 1020.3697 3049.2727 3349550
75.849686 1028.7284 3074.252 4270652
94.118576 1029.3048 3075.9746 3875894
110.88457 1015.9248 3035.9897 3283757
129.80862 1023.2922 3058.0063 2823206
147.08525 1017.4589 3040.574 3678516
164.03036 1010.8555 3020.8406 3810103
181.8136 1010.2085 3018.907 4007739
200.12756 1012.3621 3025.3428 3678518
217.13324 1008.0875 3012.5688 3547443
233.82373 1003.1103 2997.6948 3612978
250.97984 1000.6924 2990.469 3744821
271.14633 1009.8046 3017.7 4007737
285.97025 999.12341 2985.7805 3810102
302.58258 995.57123 2975.165 3744309
317.48663 987.09894 2949.8464 3678515
337.22119 993.74579 2969.7097 3744049
352.76126 987.98566 2952.4961 3678513
369.04306 984.74908 2942.824 3415341
385.83987 983.11682 2937.946 4073271
405.22971 987.94733 2952.3816 4138807
418.76239 978.68915 2924.7146 4007221
435.16373 976.6048 2918.4856 4073014
448.95786 969.05231 2895.9158 3612463
466.98151 970.84888 2901.2847 4138807
481.15253 964.79279 2883.1865 3810099
497.47449 963.31708 2878.7766 4007221
514.62799 963.49597 2879.3113 3875380
528.95435 958.54028 2864.5017 4467518
547.91382 962.02765 2874.9233 4138553
553.69458 942.86304 2817.6519 3612209
572.07043 945.64038 2825.9517 3546416
584.90234 939.35614 2807.1719 3480879
602.39856 940.70306 2811.197 3151657
621.93762 945.08191 2824.2827 4072758
635.58679 940.51569 2810.637 4270394
653.1095 941.76807 2814.3796 3612463
667.81842 939.00171 2806.1128 3546417
684.12061 938.55573 2804.7798 3611954
693.74756 929.19006 2776.7915 3611953
705.46356 922.99164 2758.2683 3941174
722.45697 923.8222 2760.7502 3678002
738.45337 923.36938 2759.397 3744308
753.71643 922.03912 2755.4216 3941687
769.13348 920.94952 2752.1655 3416112
783.32465 918.4679 2744.7493 3744822
802.198 921.46552 2753.7073 3942202
810.03278 911.9165 2725.1714 3744824
826.57544 912.35248 2726.4741 3481651
833.78674 902.66949 2697.5374 3678515
843.29474 895.79028 2676.9795 3678003
859.97363 896.64178 2679.5242 4401209
880.8465 901.75604 2694.8076 4466745
894.22845 899.15588 2687.0374 4861760
908.20642 897.23553 2681.2986 4664381
921.32477 894.54669 2673.2632 4006195
937.96857 895.31372 2675.5554 4006451
950.55414 892.24603 2666.3879 4335416
961.12012 887.414 2651.9478 4138035
970.73798 881.87604 2635.3982 3414313
978.33417 874.70581 2613.9709 2821919
988.37488 869.91071 2599.6411 3085090
1001.4769 867.91589 2593.6797 3282213
1013.5656 865.11633 2585.3135 4137778
1027.6578 864.08484 2582.231 4664123
1048.0006 868.26208 2594.7144 4664380
1067.0272 871.2439 2603.6252 4203830
1084.7129 873.06146 2609.0566 3743536
1094.2416 868.35474 2594.9912 4400950
1112.0779 870.27985 2600.7441 4663865
1118.3323 863.21252 2579.6243 4466743
1131.8246 861.84717 2575.5439 4598329
1144.3549 859.79541 2569.4124 4335157
1163.1083 862.41174 2577.2312 3940399
1169.9907 856.2724 2558.8843 4269364
1181.3103 853.49597 2550.5872 4664122
1200.3069 856.26617 2558.8657 4400950
1210.6979 852.90491 2548.821 4729659
1224.6404 852.09766 2546.4084 4598072
1227.1671 843.46362 2520.6067 5190208
1238.031 840.69867 2512.3438 4006192
1254.1597 841.53204 2514.8342 4072242
1261.1672 836.29749 2499.1914 4400693
1300.569 852.41626 2547.3606 3808299
1298.0771 841.02234 2513.311 3873579
1303.4393 834.91779 2495.0681 5058110
1313.9951 832.23962 2487.0647 4465716
1309.8044 820.38452 2451.637 5189440
1318.156 816.55902 2440.2048 4268594
1349.1547 826.6936 2470.491 4465973
1365.9899 828.02509 2474.47 4926268
1361.0789 816.28625 2439.3899 4663352
1373.84 815.28149 2436.387 4202800
1385.661 813.74548 2431.7969 5978954
1407.1571 817.86438 2444.106 4202800
1438.0936 827.33051 2472.3943 4202800
1444.04 822.37378 2457.5818 4597558
1464.0001 825.41724 2466.6768 4663351
1474.4821 823.1095 2459.7803 4400179
1503.9189 831.32458 2484.3303 4268593
1506.6206 824.74518 2464.6685 4926523
1518.7136 823.38373 2460.5999 4597558
1517.0597 814.66608 2434.5481 4005164
1527.3347 812.45819 2427.95 4202544
1535.0687 808.95239 2417.4731 4860730
1549.6924 809.10858 2417.9399 5123390
1553.8805 803.86328 2402.2651 5189182
1567.5798 803.58899 2401.4453 5584196
1589.9548 807.72705 2413.8115 5321025
1616.2584 813.76935 2431.8684 5715783
1621.4099 809.14905 2418.061 4794681
1638.4508 810.49103 2422.0715 5715782
1638.6139 803.53333 2401.2791 5781575
1652.8439 803.534 2401.281 5255231
1662.6141 801.38519 2394.8594 4926010
1655.8198 791.3559 2364.8879 4530995
1675.8004 794.18414 2373.3398 4399409
1676.9229 788.1026 2355.1655 4728117
1691.207 788.2558 2355.6235 4991545
1706.1616 788.71649 2357.0002 5254974
1713.0472 785.46985 2347.2981 4597047
1737.5581 790.29211 2361.7087 5715271
1746.0643 787.81592 2354.3091 5189183
1739.119 778.46271 2326.3579 5123390
1757.1431 780.3454 2331.9841 5649736
1766.5276 778.39185 2326.1462 5517637
1781.0322 778.70728 2327.0889 5781063
1803.3384 782.40259 2338.1318 6175820
1782.7706 767.58191 2293.8418 6503758
1798.4098 768.45673 2296.4561 5911877
1838.486 779.68182 2330.0012 5714752
1832.4935 771.34802 2305.0964 5516857
1873.7327 782.87164 2339.5334 6964303
1880.9272 780.10608 2331.2688 8148061
1879.8007 773.95477 2312.8865 9463663
1884.3541 770.21423 2301.7083 11042691
1878.7438 762.40302 2278.365 12226966
1877.807 756.58612 2260.9819 11240070
1878.9913 751.70026 2246.3811 11569036
1899.8732 754.70782 2255.3689 12358294
1898.3392 748.83112 2237.8069 11897744
1911.599 748.83112 2237.8069 11897230
1925.984 749.2688 2239.1147 13212833
1928.0383 744.93628 2226.1675 12883611
1926.4128 739.25067 2209.1765 12752023
1961.2815 747.55151 2233.9829 13212575
1974.5349 747.55762 2234.0012 13015454
1974.2305 742.4649 2218.782 12489110
1997.3442 746.18829 2229.9089 12292758
2005.3601 744.2594 2224.1448 12621209
2015.014 742.95972 2220.2607 11042435
2023.9683 741.42053 2215.6611 12095382
2033.8062 740.22284 2212.0818 11831952
2033.2012 735.26404 2197.2629 12490393
2036.4437 731.75073 2186.7639 12030100
2034.6166 726.47186 2170.9885 12228246
2029.7324 720.17462 2152.1697 7490909
2057.5093 725.47217 2168.001 2163230
2095.5015 734.28351 2194.3328 4476509
0 0 0 0
0 0 0 0
0 0 0 0
0 0 0 0
0 0 0 0
0 0 0 0
-3961.5413 1499.5312 4403.229 203533
-3992.7566 1521.3667 4467.3467 335119
-3987.7607 1529.604 4491.5347 466705
-3973.1841 1534.2522 4505.1836 71947
-3988.5625 1550.6088 4553.2134 5384
-3967.5752 1552.9542 4560.1006 4870
-3955.9478 1559.0205 4577.9136 4870
-3922.1511 1556.3735 4570.1411 5640
-3898.5898 1557.7795 4574.2695 6154
-3854.1702 1550.8124 4553.811 71946
-3811.012 1544.2581 4534.5649 269326
-3789.1577 1546.3046 4540.5742 532498
-3744.572 1539.0375 4519.2354 269582
-3686.646 1526.1436 4481.3735 269069
-3665.4619 1528.3826 4487.9482 269583
-3621.1299 1520.9319 4466.0698 401682
-3562.2388 1507.2114 4425.7812 270352
-3526.8865 1503.3208 4414.3564 599317
-3448.3789 1480.8398 4348.3433 6410
-3387.0874 1465.469 4303.2085 137483
-3338.6152 1455.4536 4273.7993 6154
-3312.3169 1455.0256 4272.5425 5384
-3270.2861 1447.627 4250.8169 4612
-3240.3196 1445.4951 4244.5571 4613
-3199.5139 1438.4568 4223.8896 5127
-3153.4287 1428.9153 4195.8721 4612
-3140.8831 1434.5408 4212.3906 4612
-3097.9509 1426.2666 4188.0942 4867
-3078.0432 1428.5446 4194.7832 4869
-3038.2749 1421.5671 4174.2949 3072
-3003.0273 1416.6079 4159.7324 3585
-2976.8965 1415.9027 4157.6616 3842
-2934.1414 1407.2125 4132.144 136714
-2906.7483 1405.8059 4128.0137 202508
-2865.7815 1397.7549 4104.3726 399886
-2825.9561 1390.1277 4081.9758 4614
-2790.9319 1384.7509 4066.1875 4100
-2761.7036 1382.1812 4058.6416 3843
-2725.2903 1375.9387 4040.3113 2560
-2686.6624 1368.4576 4018.344 2560
-2653.8699 1363.8416 4004.7893 2560
-2619.3735 1358.2588 3988.396 3072
-2585.4756 1352.8873 3972.6233 3843
-2542.9155 1342.8431 3943.1294 3329
-2534.3396 1350.725 3966.2739 3586
-2497.9509 1343.7925 3945.917 4100
-2483.7659 1348.7863 3960.5811 4100
-2458.4753 1347.7871 3957.647 3844
-2432.0288 1346.129 3952.7781 4358
-2405.8643 1344.5961 3948.2766 4357
-2366.7827 1335.743 3922.2805 3073
-2343.3618 1335.6406 3921.98 3587
-2313.4634 1331.8071 3910.7234 2817
-2287.9639 1330.454 3906.7498 1536
-2250.5132 1322.0525 3882.0798 2816
-2222.6057 1319.1417 3873.5325 3587
-2187.4363 1311.8149 3852.0181 2048
-2156.7329 1307.0403 3837.9978 2048
-2119.7366 1298.3094 3812.3606 2816
-2082.5332 1289.2625 3785.7949 4101
-2050.4944 1283.2505 3768.1414 3587
-2013.3099 1273.8505 3740.5393 3844
-1981.1016 1267.4246 3721.6702 2816
-1949.4462 1261.2119 3703.4272 2816
-1916.3304 1253.9021 3681.9626 3586
-1888.3281 1249.8083 3669.9417 2560
-1863.2344 1247.5668 3663.3596 2304
-1834.7871 1243.0004 3649.9507 2048
-1801.8535 1235.2495 3627.1912 3842
-1778.4766 1233.942 3623.3518 3074
-1759.3293 1235.5731 3628.1416 3586
-1727.2817 1228.0728 3606.1174 3843
-1700.476 1224.158 3594.6218 2304
-1658.041 1208.7499 3549.3774 3586
-1645.5875 1215.0837 3567.9761 3072
-1618.2394 1210.4412 3554.344 3330
-1577.7078 1195.6852 3511.0144 70407
-1562.4066 1199.9114 3523.4241 135943
-1531.3044 1191.9526 3500.0542 3848
-1516.5493 1196.6747 3513.9199 1540
-1493.5215 1194.9094 3508.7363 519
-1453.3073 1179.1499 3462.4602 266
-1440.5717 1185.5535 3481.2634 13
-1408.6235 1176.1018 3453.5095 11
-1389.1332 1176.9263 3455.9304 264
-1365.5635 1174.2673 3448.123 1542
-1332.4875 1163.2292 3415.7104 3336
-1307.1831 1158.7394 3402.5266 3589
-1280.5555 1152.9177 3385.4316 4103
-1257.5389 1150.2134 3377.4907 3330
-1231.3059 1144.4323 3360.5149 2816
-1209.5549 1142.6953 3355.4146 4100
-1189.9023 1142.9158 3356.062 3843
