# .PCD v0.7 - Point Cloud Data file format
VERSION 0.7
FIELDS x y z rgb
SIZE 4 4 4 4
TYPE F F F U
COUNT 1 1 1 1
WIDTH 1275
HEIGHT 1
VIEWPOINT 0 0 0 1 0 0 0
POINTS 1275
DATA ascii
227.91673 1199.098 3784.4221 1512462
249.83852 1196.6914 3776.8267 1578255
272.63861 1198.5416 3782.666 1578256
295.19254 1199.1108 3784.4624 1512462
317.52808 1198.7751 3783.4028 1380877
339.49585 1197.1868 3778.3899 1512463
360.13147 1191.3879 3760.0886 1314827
380.73813 1186.1746 3743.635 1183498
404.18936 1189.9097 3755.4231 1775634
425.29349 1186.7056 3745.3108 1578256
446.2193 1183.3466 3734.7095 1578254
467.37097 1180.8755 3726.9106 1775889
485.88034 1172.2524 3699.696 2104085
510.02649 1177.3866 3715.8994 2038546
530.01007 1172.884 3701.689 2301718
552.1991 1173.426 3703.3997 1973009
574.22644 1173.5961 3703.9363 2301204
596.91925 1175.0636 3708.5681 2300948
623.80841 1184.3944 3738.0164 2235155
640.1756 1173.7927 3704.5569 2695706
668.24927 1184.6466 3738.8127 2695706
693.85376 1190.5674 3757.499 2695706
715.63708 1189.7671 3754.9731 2629913
732.3764 1180.8822 3726.9316 2564120
756.58636 1184.2103 3737.4355 2761499
778.99292 1184.6068 3738.687 2761498
800.7724 1184.0542 3736.9429 2695706
826.01477 1188.514 3751.0183 2761499
839.18555 1175.8258 3710.9736 2827291
862.44934 1177.5664 3716.4668 2893085
885.38416 1178.7822 3720.3042 2893341
910.07928 1182.2257 3731.1721 2827548
926.37958 1174.8594 3707.9236 2958878
951.18353 1178.369 3719.0002 3024669
969.38257 1173.7227 3704.3359 3024669
995.03815 1178.1104 3718.1838 3024670
1019.0074 1180.3547 3725.2671 2761497
1033.7625 1172.057 3699.0791 2827291
1055.4248 1171.7725 3698.1809 3090461
1073.3463 1167.4309 3684.4788 2893083
1094.1849 1166.3719 3681.1367 2893084
1116.1322 1166.5133 3681.5825 2827291
1136.6019 1165.1343 3677.2305 2564120
1153.1478 1159.8606 3660.5864 2629913
1173.5717 1158.6101 3656.6399 2564120
1193.1715 1156.6062 3650.3154 2498325
1210.8193 1152.8152 3638.3508 2498325
1237.9093 1157.9894 3654.6807 2564118
1251.2661 1150.36 3630.6021 2695704
1295.9584 1171.3099 3696.7214 2564889
1296.8079 1152.5963 3637.6602 2433561
1329.0106 1161.9056 3667.0408 2104339
1340.8325 1153.3839 3640.1455 2235668
1362.6914 1153.6289 3640.9189 2367257
1378.7896 1149.0657 3626.5168 2433304
1383.5442 1135.3337 3583.1782 2499097
1403.6918 1134.4575 3580.4128 2696476
1435.0564 1142.538 3605.9153 2696219
1457.2511 1143.1877 3607.9658 2630682
1484.5272 1147.7472 3622.356 2761499
1508.5281 1149.6807 3628.458 2827292
1517.1307 1139.9894 3597.8718 2761756
1530.3242 1133.9685 3578.8696 3025698
1558.3352 1138.9419 3594.5659 2433304
1579.5823 1138.9043 3594.4473 2235925
1599.9174 1138.2189 3592.2837 2301974
1611.2363 1131.2214 3570.1995 2170388
1637.7043 1134.9033 3581.8201 2169619
1654.6589 1131.9828 3572.6025 2169619
1680.3656 1135.0477 3582.2756 2104083
1690.8313 1127.8698 3559.6216 2037777
1718.293 1132.0662 3572.8657 2169362
1738.0507 1131.1466 3569.9636 2235155
1749.3147 1124.7878 3549.8948 2169362
1771.4357 1125.4781 3552.0732 2300948
1800.2816 1130.3746 3567.5271 2498327
1817.2329 1127.7758 3559.325 2300948
1831.2439 1123.4327 3545.6179 2432534
1851.1923 1122.7893 3543.5874 2366997
1873.8357 1123.7766 3546.7031 2235414
1895.8625 1124.3762 3548.5959 2235671
1913.6864 1122.4974 3542.6663 2367257
1929.233 1119.3383 3532.6956 2498843
1947.425 1117.7653 3527.7312 2367257
1961.3851 1113.8224 3515.2871 2301719
1977.2843 1111.052 3506.5437 2235926
1984.8977 1103.7318 3483.4409 2367256
2016.0667 1109.5259 3501.7273 2630171
2040.6669 1111.6237 3508.3479 2433048
2050.2068 1105.5581 3489.2046 2367510
2066.1252 1103.0189 3481.1907 2761242
2077.9871 1098.3855 3466.5674 2761499
2080.8179 1089.116 3437.3123 2958877
2108.3499 1092.8296 3449.0327 2761499
2130.6438 1093.783 3452.0415 2695706
2153.001 1094.7501 3455.0942 2498070
2163.0027 1089.476 3438.4487 2366741
2180.8208 1088.2007 3434.4236 1906706
2218.4573 1096.7465 3461.3945 1775120
2249.0132 1101.6672 3476.9248 1775118
2258.3323 1096.1906 3459.6399 1775118
2284.9038 1099.1112 3468.8577 1709582
2309.6064 1101.0889 3475.0994 1643789
2329.6582 1100.8339 3474.2949 1577483
2355.9792 1103.5199 3482.7717 1577996
2368.8079 1099.8943 3471.3291 1643535
2405.2393 1107.1963 3494.3748 1643534
2416.9553 1103.0934 3481.426 1775120
2438.4487 1103.4846 3482.6604 1840915
2496.8862 1120.4475 3536.1965 1709329
2523.0095 1122.748 3543.4573 1446157
2552.5588 1126.5227 3555.3704 1314571
2564.126 1122.3645 3542.2466 1248521
2535.2949 1100.7344 3473.9807 1117192
2609.9841 1124.0354 3547.52 1117193
2644.5205 1129.8097 3565.7444 1183242
2633.2192 1116.0647 3522.364 1249291
2456.4631 1032.9609 3260.0837 1314827
2481.0161 1035.1453 3266.9778 1446413
2655.104 1099.2029 3469.147 1446413
2686.9414 1103.8373 3483.7739 1577743
2741.2949 1117.5807 3527.1487 1511950
2598.425 1051.3197 3318.0251 1446157
2714.5447 1090.0538 3440.2722 1643534
2760.4641 1100.231 3472.3921 1643534
2817.957 1114.8363 3518.4871 1709327
2808.0835 1102.7714 3480.4097 1709327
2822.2463 1100.2531 3472.4614 1709327
2836.9163 1097.9672 3465.2473 1775119
2833.6738 1088.8317 3436.415 1775120
2872.1658 1095.7482 3458.2441 1972499
2886.2327 1093.3146 3450.5632 1840912
2894.8525 1088.8663 3436.5244 1775120
2899.5835 1083.0277 3418.0974 1840912
2912.0056 1080.1228 3408.9294 1446156
2897.0295 1067.1654 3368.0352 1314571
2906.3838 1063.2865 3355.793 1314571
2933.5764 1065.942 3364.1738 1380363
2958.7485 1067.8324 3370.1401 1380364
2986.2166 1070.5205 3378.624 1446157
2982.2046 1061.9629 3351.6157 1248779
3017.8054 1067.5312 3369.1897 1183243
3000.9229 1054.5826 3328.3235 1183243
2926.947 1021.8706 3225.082 1248779
3065.8416 1063.4192 3356.2117 1183243
3109.0022 1071.4399 3381.5256 1117450
3187.1614 1091.3418 3444.3374 1183243
3094.3682 1052.826 3322.7793 1117451
3099.9004 1048.0398 3307.6738 1183243
3171.9319 1065.6553 3363.269 1380879
2980.5789 995.1153 3140.6409 1643793
3217.0471 1067.3997 3368.7747 1183754
0 0 0 0
0 0 0 0
0 0 0 0
0 0 0 0
0 0 0 0
0 0 0 0
-3557.189 1276.1913 3953.7935 2695957
-3521.5083 1271.7665 3940.0845 2959130
-3464.7542 1259.621 3902.4563 2959129
-3462.4377 1267.2363 3926.0498 2959129
-3498.4253 1289.0686 3993.6887 2761750
-3481.5481 1291.5864 4001.4893 3485213
-3484.6145 1301.5883 4032.4761 3748386
-3539.6675 1331.2805 4124.4663 4340523
-3534.4609 1338.5642 4147.0322 3616798
-3535.6487 1348.3884 4177.4688 3024662
-3557.2759 1366.2013 4232.6553 2037770
-3529.4565 1365.1418 4229.3726 1576707
-3498.6411 1362.9 4222.4272 1642496
-3476.7012 1364.1084 4226.1709 1773572
-3432.0774 1356.3694 4202.1948 2498063
-3427.6555 1364.5216 4227.4512 3484958
-3394.6025 1361.3119 4217.5073 4340522
-3354.4382 1355.1818 4198.5151 4143144
-3329.8401 1355.2955 4198.8677 2169102
-3291.5227 1349.7852 4181.7959 1774087
-3249.6021 1342.7024 4159.8525 1774089
-3223.2952 1342.0121 4157.7139 1708810
-3088.6426 1295.854 4014.7109 1774603
-3139.2029 1327.2898 4112.1025 1774603
-3131.5559 1334.4138 4134.1738 1643018
-3096.25 1329.7716 4119.7915 1709068
-3070.7715 1329.3097 4118.3604 1643786
-3037.5315 1325.4535 4106.4136 1577993
-3012.2034 1325.0154 4105.0562 1577994
-2964.0967 1314.4686 4072.3811 1512200
-2922.2188 1306.5337 4047.7979 1577994
-2909.7109 1311.7076 4063.8271 1643788
-2878.5303 1308.4799 4053.8271 1643788
-2856.7761 1309.5188 4057.0457 1643788
-2835.5955 1310.8403 4061.1401 1709581
-2808.0769 1309.2297 4056.1501 1578252
-2775.1406 1305.0435 4043.1809 1643534
-2746.4702 1302.8077 4036.2544 1643534
-2721.2424 1302.1802 4034.3101 1577741
-2688.0769 1297.7096 4020.4597 1446155
-2653.6843 1292.5613 4004.5095 1446155
-2634.3857 1294.7384 4011.2544 1446155
-2623.321 1301.0388 4030.7737 1380363
-2590.0977 1296.3643 4016.2915 1380361
-2505.2888 1265.5448 3920.8091 1512201
-2484.948 1267.019 3925.3767 1577995
-2529.3762 1301.8575 4033.3105 1774604
-2479.4607 1288.3392 3991.4292 1774603
-2469.6248 1295.5867 4013.8826 1774604
-2442.4153 1293.772 4008.2605 1774604
-2438.3911 1304.324 4040.9517 1840397
-2390.0996 1291.1713 4000.2029 1709581
-2368.3987 1292.2635 4003.5872 1643788
-2298.6213 1266.8806 3924.9478 1709580
-2270.4905 1264.1669 3916.54 1643788
-2236.7285 1258.2295 3898.1455 1709580
-2215.2952 1259.1757 3901.0767 1709325
-2236.0203 1284.3574 3979.093 1709582
-2224.3215 1291.2534 4000.4575 1577742
-2198.0588 1289.7522 3995.8066 1577741
-2160.4429 1281.4841 3970.1912 1511948
-2133.645 1279.5214 3964.1104 1446155
-2105.6843 1276.8098 3955.7095 1446155
-2039.5905 1250.6545 3874.6772 1248776
-2031.1038 1259.6298 3902.4836 1182983
-1993.8695 1250.7781 3875.0601 1380362
-2005.662 1272.8335 3943.3904 1577741
-1971.1207 1265.6581 3921.1602 1577741
-1937.5579 1258.947 3900.3684 1511948
-1923.5913 1264.9606 3918.9993 1577741
-1900.7109 1265.1876 3919.7029 1577741
-1873.907 1262.7766 3912.2329 1511948
-1850.0408 1262.3093 3910.7854 1511948
-1820.6497 1258.0127 3897.4741 1446155
-1799.8809 1259.6403 3902.5164 1380875
-1773.6018 1257.4034 3895.5862 1380875
-1751.9138 1258.4054 3898.6904 1380874
-1727.0535 1257.125 3894.7236 1117703
-1711.6959 1262.8208 3912.3696 1249289
-1686.8672 1261.5894 3908.5549 1249289
-1668.8112 1265.4596 3920.5452 1183496
-1633.0503 1255.8239 3890.6926 1117703
-1610.6024 1256.2965 3892.157 1051910
-1583.8251 1253.3568 3883.0496 1249289
-1562.1553 1254.432 3886.3806 1117703
-1539.0658 1254.3822 3886.2263 1051910
-1519.6859 1257.4003 3895.5762 920324
-1497.6167 1258.252 3898.2148 920324
-1477.7893 1261.0431 3906.8625 986117
-1454.6676 1261.0674 3906.9377 920324
-1438.8268 1267.5066 3926.887 920067
-1417.125 1268.9093 3931.2327 920324
-1394.1772 1269.2246 3932.2097 920324
-1367.7679 1266.3458 3923.2908 986117
-1348.4893 1270.0835 3934.8704 1051910
-1331.0385 1275.7045 3952.2852 920326
-1303.7668 1271.9458 3940.6401 1051913
-1275.0884 1266.6526 3924.241 1117705
-1242.0458 1256.7467 3893.5518 986119
-1224.7297 1262.6798 3911.9331 920326
-1199.2479 1260.2607 3904.4385 920326
-1177.3525 1261.5892 3908.5544 788740
-1155.4869 1263.0039 3912.9373 788740
-1125.1458 1255.0226 3888.21 722947
-1097.7996 1250.1179 3873.0149 657154
-1073.9908 1249.1182 3869.9175 525568
-1051.8888 1250.103 3872.969 459776
-1016.8513 1235.4163 3827.4673 591361
-996.36713 1238.1439 3835.9182 788740
-971.53821 1235.474 3827.6462 788740
-944.96167 1230.401 3811.9294 591362
-920.06671 1227.3226 3802.3921 591362
-898.14368 1228.1534 3804.9663 986119
-871.01849 1221.7303 3785.0669 986119
-845.92786 1217.897 3773.1904 920326
-827.58344 1223.8318 3791.5774 986119
-810.10211 1231.4099 3815.0552 1051912
-788.80817 1233.4612 3821.4102 1183498
-763.78528 1229.6302 3809.5417 1117705
-739.69067 1227.1061 3801.7217 1117705
-712.74213 1219.5402 3778.2812 1249291
-686.29791 1212.3745 3756.0811 1249034
-664.04163 1212.3745 3756.0811 1315084
-641.41248 1211.67 3753.8987 1315084
-618.48419 1210.3297 3749.7461 1380877
-594.36951 1206.4813 3737.8232 1249291
-569.95056 1201.6934 3722.99 1380877
-548.22211 1202.4211 3725.2444 1512204
-524.80737 1199.356 3715.748 1643534
-501.38864 1196.0129 3705.3914 1643534
-487.48138 1216.0916 3767.5972 1775120
-463.61203 1212.0529 3755.0847 1841166
-442.21439 1214.3945 3762.3396 1972753
-415.267 1200.9354 3720.6416 2234896
-397.90973 1215.2561 3765.009 2432787
-370.89108 1200.0187 3717.8015 2892568
-352.60541 1212.8966 3757.6987 2827030
-332.10773 1219.3888 3777.8125 2563860
-308.61871 1215.0425 3764.3469 2432274
-286.75922 1216.9342 3770.208 2432274
-263.54221 1212.8981 3757.7031 2169360
-240.99379 1211.4777 3753.303 2366739
-218.15881 1208.1818 3743.0918 2104339
-195.54031 1205.4744 3734.7036 1906705
-172.75478 1200.9147 3720.5774 1906961
-150.78128 1201.4917 3722.365 2038291
-129.70844 1210.673 3750.8096 2104084
-106.93111 1204.4524 3731.5376 2104341
-84.517555 1200.1539 3718.2207 1972498
-62.690907 1204.0972 3730.437 1643534
-40.192528 1192.4071 3694.2197 1577740
-18.1891 1185.0001 3671.2722 1511692
3.5459855 1178.7917 3652.0376 1380363
25.254259 1181.9969 3661.968 1446156
46.904655 1180.7827 3658.2061 1182729
68.458092 1178.6666 3651.6501 1117448
90.665482 1186.1223 3674.7485 1446413
112.79301 1189.8477 3686.2905 1446413
134.63576 1189.8477 3686.2905 1314828
156.43958 1189.5516 3685.3733 1578256
178.79465 1193.0063 3696.0764 1577999
200.52184 1191.9749 3692.8806 1315084
223.29073 1196.7292 3707.6101 1315084
244.7074 1194.0337 3699.2593 1446669
265.93552 1190.9371 3689.6655 1183497
287.17685 1188.3656 3681.6987 920326
310.28943 1193.3539 3697.1533 1117704
331.48737 1190.8064 3689.2605 1380618
352.98276 1189.5763 3685.4497 1446668
372.80899 1183.1924 3665.6714 1577997
394.02188 1181.6699 3660.9546 1972753
416.04984 1182.6229 3663.9075 2564632
435.12381 1175.5013 3641.8438 2761497
454.94113 1170.9659 3627.7925 2629909
477.85898 1174.4602 3638.6179 2432532
500.4501 1176.8844 3646.1287 2301716
521.88898 1176.5104 3644.9697 2235923
542.84741 1175.1261 3640.6812 2499094
565.69189 1177.7743 3648.8857 2300946
586.59619 1176.3369 3644.4324 2432532
610.15076 1180.1274 3656.176 2366740
630.10992 1176.9426 3646.3091 2958876
651.65088 1176.8254 3645.946 2958877
673.32343 1176.9458 3646.3188 2761498
695.96686 1178.7029 3651.7627 2498326
718.35095 1179.9282 3655.5586 2695704
737.35516 1175.6926 3642.4363 2827291
759.31787 1176.2809 3644.259 2893085
782.05505 1178.0033 3649.5952 2892828
800.40466 1173.2018 3634.7197 2827804
822.83191 1174.4724 3638.656 2762525
841.16022 1169.9767 3624.7275 2893855
865.04102 1173.2357 3634.8245 3024927
885.92419 1172.3694 3632.1406 2827291
911.60913 1177.7477 3648.8035 2695706
923.17535 1165.059 3609.4919 2630426
945.53571 1166.2588 3613.209 2235668
965.90942 1165.0092 3609.3376 2236182
979.17957 1155.4315 3579.665 2498840
1010.254 1166.8236 3614.9592 2761498
1030.8245 1165.8628 3611.9822 2564120
1048.176 1161.3745 3598.0769 2629913
1073.5883 1165.818 3611.8438 2564120
1095.8014 1166.6821 3614.5208 2761499
1108.4182 1157.4918 3586.0481 2564120
1124.6732 1152.3751 3570.1958 2498327
1157.9091 1164.525 3607.8379 2629912
1167.7229 1153.1057 3572.4595 2761497
1183.9835 1148.3458 3557.7129 2761497
1210.4236 1153.4529 3573.5349 3090462
1220.9393 1143.4702 3542.6074 3222048
1239.8934 1141.5945 3536.7961 3221791
1242.9943 1125.4272 3486.7083 3024669
1274.3834 1134.9827 3516.312 2893085
1300.4656 1139.5802 3530.5557 2893085
1323.4646 1141.3732 3536.1106 2695964
1357.1135 1152.1519 3569.5042 2564890
1380.8977 1154.3531 3576.3242 2499097
1380.9354 1136.9375 3522.3682 2433304
1400.1163 1135.5663 3518.1201 2827548
1415.8319 1131.4661 3505.4172 3485477
1440.5804 1134.5986 3515.1226 3353633
1449.7902 1125.5781 3487.1758 3221791
1470.453 1125.5781 3487.1758 3090462
1504.468 1135.6571 3518.4016 3024669
1515.1887 1128.1169 3495.0413 3090462
1533.2627 1126.1812 3489.0439 2958876
1550.8986 1123.9792 3482.2222 2629912
1574.0494 1125.7797 3487.8 2564119
1595.5378 1126.3599 3489.5977 3024671
1628.9142 1135.2101 3517.0166 2761499
1634.1927 1124.5022 3483.8425 2695706
1660.9408 1128.6506 3496.6948 2893083
1670.392 1121.088 3473.2646 2893084
1683.636 1116.2241 3458.1958 2695706
1707.2581 1118.2748 3464.5491 2432534
1734.3591 1122.5286 3477.7278 2366741
1760.1765 1125.8613 3488.053 2629911
1780.6293 1125.7251 3487.6311 2629912
1796.4489 1122.6965 3478.2483 2629913
1815.0435 1121.4514 3474.3906 2432534
1836.5032 1121.9844 3476.042 2893087
1847.4451 1116.1512 3457.97 2498587
1873.8079 1119.6605 3468.8423 2301721
1890.791 1117.5498 3462.303 2104085
1912.4143 1118.1974 3464.3096 2301207
1934.6588 1119.1908 3467.387 2433306
1950.1669 1116.3073 3458.4534 2564635
1963.5636 1112.2877 3446.0002 2696477
1972.8101 1106.0239 3426.5945 2630939
1988.1057 1103.2446 3417.9841 2564120
2007.776 1102.9247 3416.9927 2629913
2022.6223 1099.9874 3407.8928 2695706
2043.7556 1100.4938 3409.4612 2695706
2057.7913 1097.2057 3399.2744 2695706
2076.281 1096.3331 3396.571 2761498
2098.7144 1097.5398 3400.3096 2629913
2110.2969 1093.103 3386.5637 2300948
2122.6841 1089.1625 3374.3557 1840397
2142.1448 1088.8912 3373.5154 1708813
2171.366 1093.5404 3387.9192 1643277
2197.5054 1096.5668 3397.2949 1775120
2217.6355 1096.5668 3397.2949 1709326
2251.1907 1103.1451 3417.6758 1972499
2272.9158 1103.861 3419.8936 1841170
2293.2488 1103.8942 3419.9961 2037778
2311.3174 1102.8462 3416.7495 2038292
2346.4668 1109.8959 3438.5901 1972499
2377.1228 1114.7169 3453.5264 2235413
2408.8955 1119.975 3469.8164 2235670
2435.6499 1122.8306 3478.6633 2038549
2468.7986 1128.5612 3496.4175 1906964
2490.8179 1129.1512 3498.2456 2038294
2513.2122 1129.9001 3500.5657 1643536
2528.2229 1127.3444 3492.6479 1446157
2486.0408 1099.5348 3406.4902 1446156
2501.9392 1097.6543 3400.6641 1577742
2568.9746 1118.0593 3463.8816 1446670
2529.7866 1092.2773 3384.0059 1315084
2518.8274 1078.9932 3342.8501 1249547
2547.9692 1082.9606 3355.1414 1183498
2582.8757 1089.2975 3374.7739 1249291
2663.0557 1114.484 3452.8047 1249291
2689.3333 1116.9004 3460.291 1249291
2702.8147 1114.0061 3451.3242 1973014
2708.6045 1108.0089 3432.7441 1709327
2723.7786 1105.9113 3426.2454 1775120
2736.437 1102.8308 3416.7019 2169878
2750.3945 1100.3153 3408.9084 2169878
2762.9023 1097.2607 3399.4451 1972499
2778.0928 1095.3081 3393.3955 1906706
2785.5127 1090.3418 3378.0095 1906706
2784.2952 1082.0896 3352.4431 1906706
2819.981 1088.1949 3371.3579 2038292
2815.26 1078.7314 3342.0388 2169878
2861.5339 1088.8036 3373.2437 2104085
2849.9253 1076.8646 3336.2554 1709329
2831.3152 1062.4628 3291.6367 1643536
2804.3894 1045.1589 3238.0273 1511950
2914.2544 1078.7239 3342.0156 1446157
2934.4014 1078.8505 3342.4077 1446157
2965.7563 1083.0684 3355.4753 1380365
3076.9124 1116.1786 3458.0549 1248779
3093.9666 1114.9404 3454.2188 1117450
3038.7356 1087.8409 3370.2615 1249036
3004.3218 1068.499 3310.3379 1051657
3027.1421 1069.6316 3313.8469 1117450
3049.8438 1070.7079 3317.1812 1117450
2914.4624 1016.6276 3149.634 1249036
3127.2776 1083.9214 3358.1182 1249036
3098.4724 1067.1473 3306.1501 1315083
3008.6584 1029.7041 3190.1465 1380877
3122.1155 1061.863 3289.7786 1380877
2944.2688 995.16205 3083.1311 1315084
0 0 0 0
0 0 0 0
0 0 0 0
0 0 0 0
0 0 0 0
0 0 0 0
-3502.666 1279.6992 3893.1917 3353630
-3490.3149 1283.6409 3905.1831 3222301
-3497.7205 1294.9497 3939.5876 3419680
-3499.4189 1304.2832 3967.9827 3156508
-3480.6846 1306.0759 3973.4365 3024922
-3513.8628 1327.505 4038.6299 1051655
-3577.7561 1360.9116 4140.2617 524800
-3598.822 1378.3762 4193.3936 327680
-3599.5308 1388.2325 4223.3794 262144
-3590.9111 1394.604 4242.7632 393728
-3529.5159 1380.4242 4199.6245 1248258
-3494.8096 1376.5555 4187.855 2103306
-3491.4272 1385.0579 4213.7212 3090199
-3420.2466 1366.5931 4157.5464 3550749
-3383.1321 1361.5708 4142.2671 4208680
-3366.1614 1364.6411 4151.6079 2497808
-3331.4392 1360.5074 4139.0322 788738
-3249.3191 1336.8123 4066.9448 1181954
-3133.9375 1298.9764 3951.8381 1511431
-3153.7388 1317.0244 4006.7449 1577223
-3158.9512 1329.2075 4043.8093 1709065
-3104.5774 1316.3129 4004.5803 1643531
-3055.4573 1305.4642 3971.5759 1643788
-3032.9497 1305.9059 3972.9192 1643787
-2990.7732 1297.8192 3948.3176 1775374
-2967.5737 1297.9048 3948.5779 1709581
-2942.3967 1297.1202 3946.1909 1643788
-2928.6238 1301.3904 3959.1821 1577994
-2911.6931 1304.3152 3968.0798 1446409
-2885.1189 1302.9325 3963.8735 1512201
-2851.627 1298.3773 3950.0154 1512202
-2836.2095 1302.0446 3961.1721 1512202
-2809.6284 1300.605 3956.7927 1643788
-2784.032 1299.6011 3953.7383 1577995
-2758.9675 1298.8303 3951.3938 1512202
-2737.4949 1299.752 3954.1973 1446409
-2696.4763 1291.3289 3928.5723 1380363
-2676.2888 1292.822 3933.115 1511947
-2654.7881 1293.7014 3935.79 1511948
-2620.958 1288.5349 3920.0723 1577739
-2607.344 1293.3036 3934.5798 1643787
-2566.4568 1284.5083 3907.822 1775374
-2501.2727 1263.2815 3843.2446 1972753
-2491.4307 1269.8722 3863.2952 1709581
-2493.0205 1282.4659 3901.6089 1775374
-2477.6738 1286.5016 3913.8862 1775373
-2456.1108 1287.355 3916.4824 1840397
-2446.7141 1294.6624 3938.7136 1840397
-2416.8992 1291.2024 3928.1875 1840397
-2390.2764 1289.3971 3922.6951 1840397
-2364.7285 1288.1418 3918.8765 1840396
-2333.4763 1283.7236 3905.4348 1709581
-2318.3174 1288.1591 3918.9287 1577994
-2308.1553 1295.4886 3941.2271 1643787
-2260.4607 1281.6871 3899.2393 1775374
-2237.7498 1281.9125 3899.925 1709581
-2221.0188 1285.6041 3911.156 1643788
-2188.9492 1280.4015 3895.3281 1578251
-2158.9854 1276.3328 3882.9497 1577740
-2125.3816 1270.0013 3863.688 1577996
-2117.3096 1278.9545 3890.9258 1643534
-2077.3999 1268.6615 3859.6121 1577741
-2069.0435 1277.6234 3886.8765 1643534
-2046.6854 1278.0439 3888.1558 1511948
-2023.4807 1277.9392 3887.8372 1511948
-1996.3511 1275.3247 3879.8833 1511948
-1966.4482 1270.8569 3866.2913 1511948
-1935.2234 1265.4197 3849.7493 1577741
-1912.4662 1265.4554 3849.8582 1577740
-1887.0199 1263.6913 3844.491 1511948
-1860.4519 1261.1237 3836.6797 1511948
-1842.7878 1264.6028 3847.2642 1577741
-1817.5819 1262.9287 3842.1711 1380362
-1792.3993 1261.2286 3836.9988 1380362
-1767.6997 1259.8287 3832.7405 1315082
-1741.2651 1257.1404 3824.5613 1446668
-1712.9014 1252.9695 3811.8726 1446668
-1688.7589 1251.8164 3808.3645 1446667
-1671.6786 1255.9379 3820.9031 1249032
-1644.0178 1252.1143 3809.2708 1051910
-1632.6844 1260.7925 3835.6724 986117
-1616.8782 1266.213 3852.1631 920324
-1590.9592 1263.756 3844.6877 920324
-1554.7119 1252.9039 3811.6731 854532
-1531.1377 1252.0957 3809.2141 788738
-1508.1143 1251.7202 3808.0718 788739
-1485.2795 1251.4924 3807.3789 657154
-1453.3439 1243.4709 3782.9751 525568
-1435.7969 1247.7017 3795.8464 393984
-1410.6923 1245.395 3788.8291 657154
-1400.0944 1256.028 3821.1772 854277
-1380.5558 1258.8578 3829.7864 854533
-1355.3551 1256.5331 3822.7139 986119
-1334.783 1258.493 3828.6768 1051911
-1309.8157 1256.3055 3822.0215 1051911
-1291.0133 1260.058 3833.4375 1117704
-1267.9596 1259.7211 3832.4128 986117
-1239.1383 1253.5374 3813.6001 788738
-1215.5554 1252.5216 3810.5098 920323
-1193.9941 1253.5898 3813.76 722947
-1173.2675 1255.5927 3819.8528 722947
-1149.3187 1254.1581 3815.4885 722947
-1124.2178 1251.3837 3807.0479 591361
-1100.0651 1249.5724 3801.5376 591361
-1075.2686 1246.939 3793.5261 525568
-1050.6827 1244.4426 3785.9316 525568
-1027.5316 1243.5737 3783.2881 591361
-1004.4417 1242.7418 3780.7571 525568
-973.23444 1231.5996 3746.8596 525568
-951.93317 1232.7655 3750.4067 525568
-930.38544 1233.6605 3753.1294 657154
-905.99066 1230.7318 3744.2195 722947
-882.65326 1229.1284 3739.3416 854533
-860.17108 1228.6642 3737.929 854533
-837.45929 1227.8386 3735.4175 854533
-815.44592 1228.02 3735.9695 788740
-792.49017 1226.7528 3732.1143 788740
-767.19647 1221.6898 3716.7112 986119
-743.80786 1219.4509 3709.8999 920326
-719.92676 1216.2438 3700.1428 920326
-697.24939 1214.9325 3696.1536 985862
-673.01611 1210.7371 3683.3901 920326
-650.00403 1208.5311 3676.679 788740
-623.90265 1200.229 3651.4216 722433
-601.46716 1198.636 3646.5752 722434
-577.22321 1193.186 3629.9951 853762
-555.20227 1192.0872 3626.6519 1117189
-532.48615 1189.3472 3618.3162 1577740
-513.35498 1194.7203 3634.6628 1709580
-496.87808 1207.0118 3672.0571 1841167
-468.15622 1189.3217 3618.2385 2104339
-455.60495 1212.9855 3690.2302 1972753
-435.50073 1217.9127 3705.2202 2104337
-411.37097 1211.5076 3685.7344 2366738
-387.30646 1204.5873 3664.6809 2564373
-365.96622 1205.8213 3668.4348 2958618
-338.45459 1185.5927 3606.894 2892823
-321.6059 1202.5068 3658.3513 2695444
-300.40353 1204.4105 3664.1431 2827030
-278.63284 1204.1548 3663.3652 2695702
-253.86285 1189.7988 3619.6904 2630166
-234.18143 1198.8431 3647.2056 2563861
-212.70798 1199.6198 3649.5681 2301716
-190.52499 1196.1177 3638.9138 2433047
-168.96297 1196.1177 3638.9138 2301718
-147.63074 1197.9824 3644.5869 2433303
-125.55984 1193.4651 3630.8438 2433303
-104.45864 1198.2025 3645.2563 2236181
-82.559601 1193.8726 3632.0835 2367512
-60.871834 1190.6215 3622.1929 2367255
-39.263229 1186.2208 3608.8049 2367253
-17.844576 1183.8965 3601.7336 2235670
3.4952872 1183.2684 3599.823 2235413
24.833555 1183.6436 3600.9644 2235413
46.27689 1186.3656 3609.2454 1906704
67.661049 1186.3292 3609.1348 1972241
88.755714 1182.4536 3597.344 1906705
110.35424 1185.4918 3606.5872 2104083
131.67825 1185.0736 3605.3149 1906704
153.08208 1185.3901 3606.2781 2170132
175.68434 1193.7726 3631.7795 2300946
196.54524 1189.7843 3619.6462 2366996
218.41515 1192.0878 3626.6538 2564118
240.78247 1196.4502 3639.9258 2235924
260.71539 1188.9935 3617.2402 2038546
281.69696 1187.0886 3611.4448 2104085
303.60114 1189.066 3617.4609 1709326
324.40842 1186.77 3610.4758 1840913
342.49704 1175.428 3575.97 1840913
363.38721 1174.4618 3573.031 2170388
385.36301 1176.9177 3580.5024 2367767
408.02597 1181.1066 3593.2461 2367509
428.22272 1178.0948 3584.0835 2236179
446.44382 1170.1895 3560.0334 2170387
468.58862 1172.818 3568.0298 2038801
491.07394 1176.0349 3577.8167 2498582
509.31799 1169.2489 3557.1716 2761496
534.11597 1177.4502 3582.1226 2761752
554.56519 1175.8043 3577.1152 2695960
576.77563 1177.8763 3583.4187 2564118
598.7868 1179.4087 3588.0806 2629911
619.85919 1179.0502 3586.99 2629911
643.22375 1182.931 3598.7966 2629911
664.17731 1182.2711 3596.7888 2761497
680.11072 1172.9939 3568.5652 2564118
702.23737 1174.6355 3573.5593 2498325
723.63263 1174.9937 3574.6487 2629911
739.94269 1167.309 3551.27 2827290
762.94464 1170.3143 3560.4131 2695704
785.45123 1172.4186 3566.8149 2695704
804.08191 1168.7786 3555.7412 2564119
825.60492 1169.4214 3557.6968 2827291
845.91718 1168.36 3554.4678 2564118
866.69312 1167.975 3553.2961 2498325
885.34033 1164.8076 3543.6602 2629911
911.09735 1170.9242 3562.2686 2827290
925.25629 1162.1958 3535.7144 2827289
944.02765 1159.5193 3527.5718 2761499
963.67334 1158.0093 3522.9778 2696219
983.18524 1156.4059 3518.1001 2827292
1005.1556 1157.7008 3522.0393 2498327
1021.0378 1152.0734 3504.9192 2629913
1038.7986 1148.7479 3494.8022 2827292
1055.7042 1144.625 3482.2593 2827292
1087.5096 1156.5055 3518.4028 2958878
1099.7151 1147.4877 3490.968 2893085
1107.6808 1134.4603 3451.3357 2498327
1129.6799 1136.0176 3456.0732 2827290
1167.3026 1152.9509 3507.5889 2827290
1182.5144 1147.5436 3491.1384 2761497
1206.3508 1150.5479 3500.2783 2893082
1218.8102 1142.7833 3476.6562 2827290
1243.3582 1146.423 3487.7292 2892826
1251.9049 1135.431 3454.2886 2958877
1267.4904 1131.0739 3441.0332 2761498
1288.9445 1132.0089 3443.8777 2695706
1316.3121 1138.0273 3462.1875 2564634
1336.3314 1137.6056 3460.9043 2564634
1352.4979 1133.9662 3449.832 2630426
1362.048 1124.9702 3422.4644 2696219
1387.369 1129.0732 3434.9465 3156770
1401.3315 1123.9474 3419.3523 3222305
1415.4426 1119.0851 3404.5598 3419427
1440.8729 1123.183 3417.0266 3287841
1456.4232 1119.5723 3406.0422 3090462
1473.8599 1117.4906 3399.7092 2827290
1506.5292 1126.8589 3428.21 3024669
1517.2153 1119.7535 3406.5938 3024669
1535.7384 1118.5427 3402.9102 2893083
1561.3102 1122.4308 3414.7383 2761497
1581.4805 1122.3856 3414.6013 3090461
1610.4418 1128.5022 3433.2092 3353634
1624.5029 1124.1549 3419.9839 3287328
1645.0029 1124.3158 3420.4731 3287072
1663.1227 1122.8656 3416.0613 2893083
1679.3301 1120.1747 3407.8748 2827290
1702.574 1122.1855 3413.9922 2827033
1714.6265 1116.8594 3397.7886 2761241
1748.2653 1125.5544 3424.2415 2760984
1765.4749 1123.5939 3418.2771 2761497
1780.8208 1120.5052 3408.8806 2300946
1792.517 1115.2153 3392.7871 2432277
1807.6432 1112.153 3383.4705 2432534
1834.2194 1116.1251 3395.5549 1972500
1864.4929 1122.2366 3414.1475 2038292
1882.4886 1120.906 3410.0996 2038291
1899.9739 1119.3031 3405.2231 2169876
1901.8241 1108.6198 3372.7217 2695962
1919.8676 1107.4999 3369.3145 2629913
1935.276 1104.8987 3361.4011 2366740
1956.4678 1105.6188 3363.5918 2564120
1968.1606 1101.0105 3349.572 2564120
1990.3098 1102.2852 3353.45 2498327
2009.3225 1101.8147 3352.0188 2300948
2014.4973 1093.8397 3327.7568 2564120
2034.6992 1094.0999 3328.5481 2432534
2054.8193 1094.3113 3329.1914 2103825
2062.769 1088.0991 3310.292 2037776
2085.751 1089.8585 3315.6445 2038035
2111.7048 1093.1234 3325.5774 2038292
2137.7468 1096.3733 3335.4644 2038292
2142.2964 1088.6418 3311.9431 1972499
2171.4441 1093.4371 3326.532 2038292
2191.6379 1093.678 3327.2649 1972756
2211.437 1093.7195 3327.3909 2301208
2257.5872 1106.6776 3366.813 1445641
2288.531 1112.0197 3383.0649 1315081
2336.1497 1125.3013 3423.4712 1972497
2301.8286 1099.2242 3344.1377 2104339
2324.1777 1100.424 3347.7876 2300691
2387.2698 1120.7305 3409.5654 2563863
2421.406 1127.2167 3429.2983 2498327
2433.2971 1123.3254 3417.4602 2498327
2456.7649 1124.7988 3421.9426 2629656
2478.9341 1125.6582 3424.5571 2366999
2493.9963 1123.3029 3417.3914 2301465
2510.9932 1121.8496 3412.9705 1840914
2480.7815 1099.4966 3344.9663 1709329
2504.2136 1101.0847 3349.7979 1512463
2512.3665 1095.9825 3334.2756 1380877
2539.2317 1099.0592 3343.6357 1381134
2614.5947 1122.9171 3416.218 1315341
2628.8638 1120.3715 3408.4731 1380621
2588.1406 1094.6064 3330.0894 1446157
2639.2083 1107.759 3370.1028 1380364
2655.833 1106.3657 3365.864 1380364
2670.8225 1104.3171 3359.6318 1380362
2677.1001 1098.7234 3342.614 1709326
2724.2361 1109.8575 3376.4871 1906706
2867.8008 1159.828 3528.511 2038292
2726.3245 1094.6301 3330.1614 1972499
2742.8196 1093.3396 3326.2354 2038291
2754.4863 1090.1567 3316.5518 2366741
2760.6548 1084.858 3300.4319 2432790
2781.8669 1085.5042 3302.3975 2366997
2785.7649 1079.4321 3283.925 2235668
2788.4941 1072.9949 3264.3411 2235926
2770.8093 1058.8452 3221.2937 2235671
2771.3906 1051.8215 3199.926 1906706
2886.9417 1088.2311 3310.6938 1643535
2886.5562 1080.7421 3287.9099 1577743
2808.2798 1044.3861 3177.3054 1446157
2819.1453 1041.4451 3168.3579 1314573
2829.2888 1038.2781 3158.7229 1183243
3063.6255 1116.885 3397.8669 1117450
2954.0759 1069.916 3254.9744 1117450
2981.6333 1072.892 3264.0278 1249036
2992.4353 1069.8392 3254.7407 1314828
2994.5396 1063.7361 3236.1731 1380622
2837.7205 1001.616 3047.187 1446670
3092.2822 1084.5665 3299.5452 1512463
3039.1538 1059.2355 3222.4814 1512463
3048.1523 1055.7388 3211.8433 1446670
3063.8301 1054.5844 3208.3313 1512463
0 0 0 0
0 0 0 0
0 0 0 0
0 0 0 0
0 0 0 0
0 0 0 0
-3499.4041 1301.5547 3889.5659 4011815
-3459.1672 1295.1189 3870.3333 3551266
-3500.2576 1319.2495 3942.4453 2564370
-3496.916 1326.8455 3965.1448 854017
-3489.6138 1333.031 3983.6299 327936
-3545.7922 1363.7157 4075.3279 327680
-3518.7571 1362.5975 4071.9866 393472
-3543.041 1381.474 4128.397 788224
-3508.0525 1377.3413 4116.0469 1379587
-3486.5149 1378.4688 4119.416 2300943
-3419.8069 1361.6272 4069.0867 2958613
-3380.4756 1355.524 4050.8479 2760979
-3416.7974 1379.8862 4123.6519 2037514
-3342.4504 1359.5836 4062.9797 1642756
-3265.7683 1338.0298 3998.5684 1511173
-3137.5364 1294.8859 3869.6367 1576454
-3157.834 1312.8571 3923.342 1576966
-3128.5127 1310.3132 3915.74 1511431
-3103.3469 1309.4846 3913.2639 1708810
-3116.2717 1324.8373 3959.1438 1708809
-3056.2258 1309.1653 3912.3093 1708809
-2977.478 1285.1812 3840.6353 1708811
-2927.407 1273.3008 3805.1318 1971726
-2917.4758 1278.8307 3821.6577 1840397
-2927.958 1293.4652 3865.3911 1446409
-2897.7266 1290.2025 3855.6411 1446408
-2853.9573 1280.8126 3827.5803 1314823
-2826.6292 1278.7098 3821.2964 1314823
-2817.3 1284.7812 3839.4404 1446409
-2804.3916 1289.3062 3852.9622 1512202
-2781.7693 1289.4023 3853.25 1577995
-2752.4067 1286.3505 3844.1294 1643787
-2723.0547 1283.2523 3834.8711 1577996
-2690.6179 1278.6361 3821.0762 1709326
-2679.2864 1284.0565 3837.2744 1775119
-2658.2336 1284.8708 3839.7078 1643534
-2627.1013 1280.785 3827.498 1709327
-2606.9446 1282.0258 3831.2056 1775373
-2574.9246 1277.4028 3817.3904 1841167
-2557.156 1279.8307 3824.6458 1841167
-2531.9197 1278.531 3820.762 2038546
-2506.0889 1276.905 3815.9028 2038546
-2473.9092 1271.985 3801.2 1972753
-2463.3074 1278.1711 3819.6865 2104339
-2435.5029 1275.4629 3811.593 2170132
-2400.6506 1268.9785 3792.2153 2104339
-2387.9741 1274.2045 3807.8325 2169362
-2375.8538 1279.8297 3824.6431 1971983
-2330.9773 1267.7483 3788.5388 1774604
-2325.0352 1276.813 3815.6277 1840396
-2289.6558 1269.7312 3794.4644 1643018
-2269.0747 1270.7968 3797.6489 1578252
-2254.4412 1275.248 3810.9512 1709581
-2185.5239 1248.7723 3731.8313 1841167
-2191.6223 1265.0565 3780.4949 1906960
-2168.0525 1264.3749 3778.4578 1841167
-2148.0798 1265.7986 3782.7126 1841167
-2132.3657 1269.7883 3794.6355 1709581
-2116.6218 1273.8451 3806.7588 1643788
-2092.6494 1272.9839 3804.1851 1709581
-2067.7307 1271.522 3799.8162 1709327
-2033.047 1263.9569 3777.2087 1577741
-2016.7288 1267.7683 3788.5989 1643534
-2004.1271 1274.0283 3807.3064 1577741
-1979.6396 1272.7891 3803.6025 1511948
-1941.2745 1262.4958 3772.8425 1577741
-1921.1748 1263.98 3777.2778 1577741
-1898.5201 1263.7985 3776.7351 1577741
-1870.3914 1259.9252 3765.1602 1511948
-1844.7588 1257.66 3758.3911 1577741
-1826.4663 1260.4049 3766.5938 1511948
-1800.8652 1258.1116 3759.7407 1577741
-1776.022 1256.297 3754.3179 1511948
-1751.7428 1254.8405 3749.9651 1511948
-1729.5653 1254.8712 3750.0571 1446668
-1706.3411 1254.1338 3747.853 1380875
-1683.7603 1253.8557 3747.0222 1380875
-1657.6329 1250.8939 3738.1714 1380874
-1633.1379 1249.1006 3732.812 1183496
-1610.0255 1248.3298 3730.5088 1183496
-1599.2593 1257.2434 3757.1462 1117446
-1581.6023 1260.9153 3768.1191 1051653
-1542.8289 1247.6162 3728.3765 1051910
-1533.5365 1258.1173 3759.7576 986118
-1503.7998 1251.908 3741.2017 854532
-1485.2888 1254.9982 3750.4363 722946
-1452.6771 1246.0867 3723.8054 591361
-1430.0237 1245.5741 3722.2737 788741
-1408.0804 1245.674 3722.5718 920326
-1381.7968 1241.876 3711.2219 920326
-1359.3568 1241.4655 3709.9951 985863
-1344.2178 1247.8187 3728.9814 920326
-1328.4124 1253.7555 3746.7229 920326
-1298.7921 1246.634 3725.4412 920326
-1284.7134 1254.4417 3748.7734 920326
-1257.2479 1249.2227 3733.177 920324
-1237.3875 1251.5085 3740.0083 788738
-1198.5078 1234.291 3688.5549 788738
-1186.9844 1245.1298 3720.9458 788738
-1162.135 1242.1357 3711.9983 788740
-1133.1416 1234.5114 3689.2134 657154
-1113.5422 1237.0226 3696.7183 722947
-1093.8019 1239.4751 3704.0471 722947
-1071.0414 1238.5355 3701.2393 854533
-1044.7051 1233.3352 3685.6987 657154
-1018.1151 1227.6069 3668.5803 591361
-999.90015 1231.9473 3681.5513 657154
-975.91003 1229.2073 3673.3628 591361
-954.08124 1229.1265 3673.1216 591361
-933.16522 1230.2454 3676.4651 657154
-910.20538 1228.6588 3671.7241 788740
-881.66589 1219.2784 3643.6917 854533
-863.20239 1223.7113 3656.9385 986119
-840.83862 1222.7006 3653.9185 986119
-820.76581 1225.0562 3660.9575 1117705
-796.63007 1221.3105 3649.7644 1117705
-773.06934 1218.2622 3640.6545 1249291
-752.54279 1219.9575 3645.7209 1380877
-730.07758 1218.5173 3641.4172 1249291
-707.68036 1217.1064 3637.2009 1183498
-683.85614 1213.0757 3625.1553 986119
-662.37567 1213.0757 3625.1553 722947
-639.81219 1211.0259 3619.0298 722947
-618.6319 1211.5427 3620.5742 919813
-595.65991 1208.4618 3611.3669 919811
-569.96216 1199.4152 3584.3323 1248776
-546.60693 1194.7886 3570.5059 1840140
-521.95599 1186.8433 3546.7622 2037775
-502.52225 1190.5919 3557.9648 2169102
-477.06006 1179.7607 3525.5969 2432531
-460.77094 1191.6613 3561.1602 2563861
-433.15616 1174.0073 3508.4033 2695446
-410.99969 1170.1133 3496.7666 2695958
-391.85541 1174.8368 3510.8821 2760981
-372.27362 1178.7046 3522.4407 2827030
-357.65323 1199.674 3585.1055 3024152
-332.37585 1185.2876 3542.1135 2892566
-315.51535 1201.0005 3589.0698 2827030
-293.93484 1199.7196 3585.2419 2892823
-272.33368 1198.1482 3580.5461 2892823
-251.61542 1200.5238 3587.6455 2892823
-228.45331 1190.6017 3557.9939 2893079
-207.88814 1193.5721 3566.8708 2827543
-187.09384 1195.7506 3573.3809 2893338
-165.59669 1193.4197 3566.4153 2827545
-144.58113 1194.3853 3569.3008 2761752
-123.16969 1191.851 3561.7273 2761752
-101.91344 1190.0808 3556.4373 2827287
-80.857697 1190.3397 3557.2109 2827286
-59.370564 1182.1909 3532.8594 2827286
-38.462078 1182.9637 3535.1687 2564371
-17.478195 1180.4924 3527.7834 2958614
3.4121134 1175.9343 3514.1619 3090200
24.209396 1174.6951 3510.4587 2893077
45.027184 1175.1364 3511.7776 2893077
65.901222 1176.3029 3515.2634 2958357
86.911606 1178.7583 3522.6011 3089943
107.62553 1177.0204 3517.4077 2958357
127.6497 1169.527 3495.0142 3089942
148.26721 1168.803 3492.8506 3024663
169.56491 1172.9614 3505.2778 3090199
190.95822 1176.8015 3516.7534 2958616
211.2411 1173.7161 3507.533 2826773
232.82736 1177.7769 3519.668 2761752
253.29601 1175.9811 3514.3015 2432787
274.05875 1175.7196 3513.5205 2235666
293.02881 1168.3477 3491.49 1907216
316.12787 1177.3252 3518.3184 2104340
335.63058 1172.6268 3504.2778 2169878
356.58859 1173.2643 3506.1831 2235671
376.61914 1170.948 3499.261 2104082
397.57541 1171.6016 3501.2141 2235155
416.33917 1166.0496 3484.6226 2695449
438.08279 1168.9736 3493.3608 2169103
460.26385 1172.7485 3504.6416 2366482
481.43698 1173.7401 3507.6047 2432276
499.10971 1166.4689 3485.8755 2498068
522.25586 1172.059 3502.5811 2827034
543.45105 1173.0109 3505.4258 2695704
563.58362 1171.6835 3501.4587 2564118
585.36517 1173.7568 3507.655 2629911
605.45197 1172.4064 3503.6189 2300946
625.44598 1170.9716 3499.3313 2235153
646.30304 1171.1927 3499.9924 2300690
665.99249 1169.3503 3494.4863 2037775
685.94232 1168.0621 3490.637 2103311
704.37714 1164.3453 3479.5293 2432532
728.80292 1170.4612 3497.8059 2629910
747.51703 1167.3196 3488.4177 2564118
767.92224 1166.9167 3487.2139 2629911
790.40051 1169.6027 3495.2407 2827290
808.43219 1165.7396 3483.696 2827033
830.04413 1167.1031 3487.7708 2629910
845.08728 1159.3883 3464.7161 2564118
868.33179 1163.0243 3475.5818 2629911
888.87994 1162.964 3475.4016 2629912
909.85669 1163.4546 3476.8677 2629913
925.73511 1157.5483 3459.2175 2695706
943.70575 1154.4575 3449.9807 2695450
960.10382 1149.6147 3435.5085 2564120
977.43445 1146.0664 3424.9048 2893085
1000.3044 1149.0255 3433.7478 2695706
1015.1542 1142.8376 3415.2561 2498327
1031.9551 1139.0452 3403.9224 2432534
1051.3751 1138.2336 3401.4973 2235155
1065.8673 1132.2183 3383.5208 2300948
1105.7054 1152.8513 3445.1809 2235155
1128.254 1155.0365 3451.7109 2366741
1130.4178 1136.6467 3396.7551 2300947
1149.2371 1135.3546 3392.8936 2366739
1167.3973 1133.4672 3387.2532 2564118
1205.2177 1150.4095 3437.8838 2498325
1210.2159 1135.9799 3394.7622 2695704
1224.512 1130.6068 3378.7053 2629911
1242.1632 1128.4547 3372.2742 2498325
1262.7344 1128.9814 3373.8481 2498071
1285.1163 1131.0853 3380.1355 2629913
1300.3711 1126.9482 3367.772 2695963
1314.1478 1121.6746 3352.012 2958877
1325.3407 1114.3853 3330.2288 3814441
1353.2982 1121.1993 3350.5918 4603700
1369.0247 1117.8295 3340.5212 4406320
1377.1257 1108.4181 3312.3965 2827544
1393.3787 1105.7402 3304.394 2761497
1421.0552 1112.0765 3323.3293 2761497
1450.7856 1119.8248 3346.4846 2629911
1469.2904 1118.8164 3343.4707 2564118
1492.0891 1121.0608 3350.178 2432275
1534.0669 1137.467 3399.2063 2629654
1533.1865 1122.0818 3353.2292 2761753
1553.7361 1122.5734 3354.698 2695704
1570.1691 1120.1158 3347.354 2563605
1588.9199 1119.3524 3345.0728 2563605
1610.4089 1120.5131 3348.5413 2826777
1632.8088 1122.2716 3353.7964 2629655
1649.2823 1119.9635 3346.8987 2366227
1670.3726 1120.8079 3349.4221 2563607
1691.2196 1121.4712 3351.4045 2629398
1711.5137 1121.7568 3352.2581 2366739
1734.7675 1123.9534 3358.822 2432275
1742.8632 1116.3906 3336.2217 2432534
1763.1332 1116.7083 3337.1711 2564120
1782.193 1116.261 3335.834 2498327
1802.2103 1116.4166 3336.2991 2169878
1828.116 1120.1768 3347.5364 1775120
1851.9515 1122.6014 3354.7822 1709328
1852.5664 1111.0486 3320.2573 1709329
1868.2847 1108.7012 3313.2424 1643534
1885.6035 1107.3425 3309.1824 1643534
1904.1053 1106.6995 3307.2605 1709327
1914.5225 1101.4183 3291.4785 1775374
1932.9457 1100.8031 3289.6401 1906190
1953.8007 1101.5714 3291.936 1971983
1970.1593 1099.8146 3286.6855 2037775
1987.7413 1098.7682 3283.5586 1971984
1999.6682 1094.6464 3271.2412 1905935
2025.5465 1098.1676 3281.7639 1709326
2036.1937 1093.4427 3267.6443 1511948
2062.3513 1097.0576 3278.447 1380362
2067.5273 1089.548 3256.0051 1643534
2078.7527 1085.3358 3243.4175 1709326
2129.1572 1101.4691 3291.6301 1841168
2128.093 1090.9252 3260.1206 1840911
2135.4695 1084.8588 3241.9919 1972753
2158.5884 1086.8269 3247.8733 2170131
2223.1973 1109.4653 3315.5261 2300692
2250.6511 1113.3276 3327.0684 2038546
2280.9348 1118.5107 3342.5574 2038547
2254.5537 1096.0568 3275.4558 1972498
2274.3352 1096.2365 3275.9932 2104084
2312.8613 1105.3718 3303.293 1840913
2358.9487 1117.9371 3340.8435 1775119
2353.981 1106.2992 3306.0642 1577741
2395.9602 1116.7347 3337.2498 1643534
2414.6843 1116.2491 3335.7986 1972499
2412.3459 1106.1138 3305.5103 2235416
2470.3042 1123.5663 3357.6655 2169879
2465.9243 1112.6133 3324.9336 1906707
2456.9426 1099.7743 3286.5652 1643536
2529.3281 1123.272 3356.7859 1972501
2548.949 1123.1534 3356.4314 1840915
2559.6042 1119.1166 3344.3677 1709329
2570.8062 1115.3788 3333.198 1709329
2587.4663 1114.0482 3329.2217 1511950
2577.3398 1101.292 3291.1008 1446157
2598.4617 1101.9792 3293.1548 1577743
2604.0369 1096.1123 3275.6218 1446155
2634.3171 1100.6544 3289.1956 1248776
2648.9768 1098.651 3283.2087 1709327
2643.1943 1088.2605 3252.1577 1906706
2880.9346 1177.5583 3519.0154 1775120
2665.4343 1081.6456 3232.3896 1906449
2683.2227 1081.0957 3230.7463 1906449
2695.2915 1078.2654 3222.2883 2169362
2711.9858 1077.3125 3219.4407 2366741
2718.5725 1072.3856 3204.717 2300948
2720.2493 1065.6039 3184.4504 2366741
2736.0811 1064.4222 3180.9192 2366743
2739.3813 1058.4149 3162.967 2235157
2758.9893 1058.7473 3163.9604 2038292
2740.9653 1044.7316 3122.0759 1775123
2759.4561 1044.7283 3122.0659 1972501
2750.4368 1034.3792 3091.1384 1644050
2789.6499 1042.1859 3114.4683 1512208
2851.311 1058.2214 3162.3889 1512208
2862.5935 1055.4723 3154.1736 1578001
2877.2732 1054.0034 3149.7837 1512208
2786.3025 1014.1009 3030.5391 1446671
2791.4758 1009.4779 3016.7236 1578256
2778.384 998.35052 2983.4707 1644049
2782.0645 993.35254 2968.5347 1709842
3014.4509 1069.5652 3196.2883 1644049
3013.6331 1062.5989 3175.4702 1578256
2815.0662 986.42584 2947.835 1644049
0 0 0 0
0 0 0 0
0 0 0 0
0 0 0 0
0 0 0 0
0 0 0 0
-3479.8447 1317.1985 3867.8262 1642500
-3474.6711 1323.9597 3887.6799 1379587
-3444.8367 1321.3519 3880.0227 984832
-3447.0461 1331.083 3908.5972 853504
-3486.6211 1355.4723 3980.2136 1181953
-3459.4421 1354.0652 3976.082 1642758
-3426.1687 1350.2372 3964.8413 2037512
-3437.4136 1364.0219 4005.3188 2235147
-3362.6094 1343.6151 3945.3962 2958870
-3273.5593 1317.1904 3867.8027 2695697
-3299.1816 1336.8596 3925.5596 1708548
-3267.2646 1333.327 3915.1863 1708548
-3236.7502 1330.3204 3906.3577 1971723
-3230.8086 1337.4426 3927.2715 1839882
-3184.3645 1327.7802 3898.8982 1643016
-3130.7434 1314.9617 3861.2583 1642502
-3105.1025 1313.7933 3857.8276 1708808
-3058.9939 1303.8834 3828.728 1840394
-3008.3137 1291.8623 3793.429 2037774
-3002.0718 1298.8868 3814.0559 1906445
-2950.8916 1286.4274 3777.47 1709324
-2916.8914 1281.3241 3762.4849 1709324
-2848.4436 1260.8937 3702.4929 1577738
-2837.25 1265.6871 3716.5684 1314823
-2813.1497 1264.7528 3713.8247 1314823
-2801.345 1269.3754 3727.3984 1446409
-2775.4158 1267.6201 3722.2444 1512202
-2782.1111 1280.8568 3761.1128 1446409
-2749.4668 1276.0496 3746.9966 1643788
-2727.1511 1275.9966 3746.8411 1775374
-2701.9089 1274.5623 3742.6294 1841167
-2663.9739 1267.067 3720.6204 1775374
-2655.696 1273.6703 3740.0103 1841166
-2635.45 1274.5964 3742.7297 1841166
-2613.8164 1274.8616 3743.5083 1906959
-2593.6265 1275.8413 3746.3853 1972753
-2561.762 1271.0457 3732.3032 1775120
-2544.9004 1273.6752 3740.0244 1775374
-2513.7095 1269.1162 3726.6375 1906960
-2486.1814 1266.3422 3718.4919 1906960
-2478.6895 1273.8152 3740.4355 1841167
-2451.6238 1271.2732 3732.9714 1972753
-2423.8308 1268.3044 3724.2537 1972753
-2410.1775 1272.7478 3737.3013 2104339
-2383.7202 1270.4495 3730.5525 1972753
-2342.9414 1260.4038 3701.0544 1973009
-2314.0093 1256.6014 3689.8892 2103312
-2290.8613 1255.8977 3687.8225 1971983
-2273.6343 1258.4574 3695.3391 1972240
-2215.6294 1238.2772 3636.0815 2038289
-2192.8672 1237.5903 3634.0647 2104082
-2222.5642 1266.7898 3719.8064 2104339
-2222.7678 1279.5958 3757.4099 1972753
-2199.8247 1279.2009 3756.25 1841167
-2152.1975 1264.2975 3712.4878 1906960
-2140.9236 1270.6624 3731.1777 1841167
-2119.2019 1270.8945 3731.8594 1841167
-2095.3547 1269.8434 3728.7727 1775374
-2066.4373 1265.6644 3716.5017 1841167
-2048.2944 1268.0658 3723.553 1775374
-2017.5216 1262.6154 3707.5481 1972499
-1965.277 1243.4594 3651.2986 1840913
-1966.6791 1258.1978 3694.5764 1840913
-1920.8639 1242.7203 3649.1284 1775119
-1895.3763 1240.1914 3641.7024 1709327
-1905.1183 1260.9211 3702.5732 1709327
-1881.3568 1259.701 3698.9907 1709327
-1858.95 1259.3698 3698.0181 1643533
-1830.304 1254.7535 3684.4629 1643533
-1803.4613 1251.277 3674.2542 1577741
-1783.6931 1252.6838 3678.3855 1577741
-1760.9608 1252.0182 3676.4307 1511948
-1736.1703 1249.8539 3670.0757 1709327
-1714.4976 1249.908 3670.2341 1775120
-1694.5142 1251.2104 3674.0591 1578254
-1670.8862 1249.8209 3669.9788 1446668
-1636.726 1240.4127 3642.3525 1446668
-1623.5233 1246.8485 3661.2502 1512461
-1590.2786 1237.8575 3634.8496 1578253
-1571.8629 1240.3214 3642.0842 1644049
-1546.9083 1237.6222 3634.1582 1512463
-1530.6635 1241.9135 3646.759 1249292
-1504.6412 1238.281 3636.0928 1249291
-1479.8678 1235.5857 3628.1785 1117704
-1461.3937 1238.1481 3635.7026 1183498
-1439.854 1238.1509 3635.7107 1183496
-1418.1443 1238.0055 3635.2837 1249291
-1383.132 1226.0635 3600.2173 1117704
-1386.0389 1247.8872 3664.3003 1183241
-1353.1598 1237.6735 3634.3088 1051912
-1343.1035 1248.3422 3665.6362 986119
-1302.1882 1230.2081 3612.3877 1183241
-1288.7791 1237.8882 3634.9392 1183498
-1266.3314 1237 3632.3313 986119
-1253.9171 1246.0516 3658.9104 920326
-1227.4166 1241.1775 3644.5981 986119
-1210.1055 1245.5878 3657.5483 1051912
-1183.054 1239.9501 3640.9939 986119
-1158.6322 1236.9102 3632.0676 920326
-1135.964 1235.6628 3628.4048 920326
-1116.5046 1237.925 3635.0476 920326
-1090.3099 1232.6616 3619.592 1051912
-1062.1823 1224.9578 3596.9705 986119
-1048.4963 1233.9344 3623.3296 920326
-1024.4073 1230.7874 3614.0886 920326
-1001.2879 1228.6957 3607.9465 986119
-981.3399 1230.4895 3613.2139 986119
-959.60815 1230.0767 3612.0017 722947
-937.7746 1229.5117 3610.3425 920326
-915.64008 1228.5165 3607.4202 986119
-888.73346 1220.9178 3585.1074 1051655
-866.80975 1219.9601 3582.2952 1051912
-843.55182 1217.0293 3573.6892 1249291
-820.61163 1214.4178 3566.021 1315084
-804.59039 1222.1781 3588.8083 1315084
-781.16199 1218.8029 3578.8972 1578255
-759.74188 1218.4602 3577.8911 1643534
-734.91693 1212.4805 3560.332 1511949
-713.25897 1211.5266 3557.531 1446412
-692.97467 1212.9188 3561.6194 1446412
-670.2962 1210.0767 3553.2734 1314825
-650.94928 1213.2594 3562.6194 1249033
-626.30011 1206.4418 3542.5999 1380363
-603.98926 1203.8119 3534.8777 1643533
-582.74304 1203.191 3533.0544 1643788
-561.9762 1203.5508 3534.1108 1840397
-533.72284 1187.2841 3486.3455 1971983
-511.25137 1183.0878 3474.0229 2366741
-489.03903 1179.1637 3462.5007 2366739
-465.55228 1171.689 3440.5515 2432532
-451.43597 1188.1925 3489.0129 2432532
-431.79004 1191.0277 3497.3381 2432532
-408.08221 1182.38 3471.9448 2366738
-385.35864 1175.817 3452.6736 2563860
-365.59897 1178.0688 3459.2854 2827030
-345.37772 1179.0123 3462.0562 3221274
-324.06219 1176.1036 3453.5149 3023896
-303.59653 1176.0952 3453.4902 2826517
-284.34918 1181.1461 3468.3218 2958103
-264.70041 1185.1866 3480.1865 2892823
-244.16397 1185.5997 3481.3994 2761237
-222.99277 1182.7224 3472.9502 2892823
-205.22765 1199.162 3521.2234 2893336
-183.91364 1196.2391 3512.6409 2827545
-162.32663 1190.5681 3495.9888 2761752
-141.84279 1192.5128 3501.699 2761752
-120.74265 1189.0544 3491.5439 2761752
-100.24261 1191.2977 3498.1311 2761237
-79.523994 1191.4358 3498.5364 2761237
-58.860226 1192.7827 3502.4915 2892822
-38.098999 1192.5461 3501.7969 2827030
-17.256474 1186.1556 3483.0315 2827030
3.3370814 1170.4406 3436.8857 2892823
23.907398 1180.5829 3466.668 2695445
44.317738 1177.1018 3456.446 2761237
64.789055 1176.929 3455.9387 2958103
85.402786 1178.8049 3461.447 2826771
