# .PCD v0.7 - Point Cloud Data file format
VERSION 0.7
FIELDS x y z rgb
SIZE 4 4 4 4
TYPE F F F U
COUNT 1 1 1 1
WIDTH 1298
HEIGHT 1
VIEWPOINT 0 0 0 1 0 0 0
POINTS 1298
DATA ascii
4136.8345 1886.7299 8497.0762 4340011
4187.2495 1886.7599 8497.2109 4208425
4213.8169 1876.171 8449.5234 4207654
4283.0283 1884.5948 8487.4609 4010274
4420.3823 1922.459 8657.9854 3615004
4495.2939 1932.6091 8703.6982 3548954
4584.8672 1948.7611 8776.4395 3614747
4785.562 2011.2521 9057.874 3549466
4718.0034 1960.8671 8830.96 4141860
4651.2686 1911.9261 8610.5498 3813407
4443.3081 1806.6257 8136.3188 1906439
4463.7324 1795.4491 8085.9839 393216
4197.2539 1670.3342 7522.5166 590336
4138.208 1629.5311 7338.7563 393472
4115.4189 1603.7054 7222.4473 262656
4086.6472 1576.1039 7098.1406 197120
4065.45 1551.9559 6989.3882 395520
4114.8618 1554.9779 7002.9985 263936
4131.3472 1545.6212 6960.8589 329728
4051.7571 1500.8608 6759.2764 132352
4067.7458 1492.0348 6719.5273 329472
4245.1602 1542.0162 6944.6235 527360
4248.3589 1528.3632 6883.1357 66816
4022.25 1433.2599 6454.8286 66816
4013.7856 1416.7717 6380.5728 1024
4014.3782 1403.7583 6321.9653 1024
4038.7197 1399.2133 6301.4966 1024
4333.0786 1487.4424 6698.8447 1024
4202.0684 1429.3757 6437.3359 1024
4199.7559 1415.7379 6375.9165 1024
4158.9961 1389.4983 6257.7437 1024
4155.3413 1376.0093 6196.9946 1024
4141.312 1359.3513 6121.9741 1024
4004.2812 1302.9591 5868.0059 1024
3966.2913 1279.4873 5762.2988 768
3921.5288 1254.2502 5648.6406 1024
4255.165 1349.4418 6077.3457 132608
3932.1421 1236.5367 5568.8667 198400
3886.2976 1211.9497 5458.1362 264192
3888.0081 1202.4762 5415.4712 264192
3917.6047 1201.7117 5412.0283 198400
3851.0422 1171.7026 5276.8794 264192
3823.2512 1153.8784 5196.6064 264192
3768.1777 1128.1708 5080.8296 198400
3818.1406 1134.0687 5107.3916 198400
3761.2749 1108.3931 4991.7588 66560
3726.6084 1089.6088 4907.1616 66560
3742.3306 1085.7344 4889.7129 768
3732.9646 1074.6965 4840.0029 132352
3717.9036 1062.2002 4783.7241 132096
3676.2332 1042.348 4694.3184 256
3666.6467 1031.8228 4646.9165 131840
3644.5471 1017.9594 4584.4814 197632
3641.3203 1009.5335 4546.5347 131840
3628.7349 998.6557 4497.5454 263424
3629.0859 991.47089 4465.188 131840
3637.3167 986.52722 4442.9238 263424
3646.9761 982.03931 4422.7119 329217
3644.8086 974.45349 4388.5483 263425
3643.4502 967.18988 4355.8359 329217
3659.0254 964.49207 4343.686 329217
3664.3049 959.13696 4319.5688 197632
3669.7637 953.90289 4295.9966 197632
3670.1353 947.42743 4266.834 197632
3691.7363 946.48358 4262.583 197632
3725.9155 948.75537 4272.8145 197632
3742.5503 946.5592 4262.9238 197632
3723.3584 935.39197 4212.6309 197632
3731.7705 931.26215 4194.0317 263424
3707.22 919.0155 4138.8779 197632
3718.2131 915.68317 4123.8701 197632
3717.5574 909.54413 4096.2227 263424
3762.2571 914.5097 4118.5854 328448
3786.4678 914.46295 4118.375 262912
3848.8323 923.57233 4159.3999 262912
3844.7786 916.72925 4128.5815 262912
3846.0759 911.24048 4103.8623 262912
3857.6082 908.23047 4090.3064 262912
3867.0918 904.77875 4074.7612 262912
3888.634 904.17358 4072.0359 262912
0 0 0 0
0 0 0 0
0 0 0 0
0 0 0 0
-5748.311 1437.6124 6306.147 196864
-5658.1763 1424.3291 6247.8794 65792
-5619.5532 1423.9232 6246.0991 65536
-5602.9961 1429.1403 6268.9834 256
-5633.2622 1446.4497 6344.9121 256
-5366.626 1387.2441 6085.2046 256
-5331.2925 1387.4325 6086.0308 256
-5285.771 1384.954 6075.1587 256
0 0 0 0
0 0 0 0
-4832.5903 1292.6232 5670.1455 256
-4733.5361 1274.9923 5592.8071 256
-4742.0752 1286.2976 5642.3984 256
-4684.9541 1279.8267 5614.0132 256
-4605.1494 1267.0222 5557.8462 512
-4631.9185 1283.5663 5630.4175 256
-4549.2793 1269.812 5570.0835 65792
-4479.7681 1259.5479 5525.0591 65792
-4511.6729 1277.8568 5605.3726 65792
-4510.0645 1286.8751 5644.9316 65792
-4913.2725 1412.3989 6195.5469 65792
-4841.624 1402.2799 6151.1597 65792
-5024.8662 1466.3917 6432.3887 512
-4922.1396 1447.392 6349.0454 512
-4874.9258 1444.5493 6336.5762 256
-4600.3228 1373.759 6026.0513 256
-4375.0737 1316.7147 5775.8242 256
-4416.9634 1339.8021 5877.0986 256
-4419.3506 1351.1793 5927.0049 256
-4782.4141 1473.8958 6465.3057 256
-4761.7896 1479.3903 6489.4072 256
-4790.6475 1500.4723 6581.8848 256
-4726.8052 1492.6277 6547.4741 256
-4689.917 1493.2354 6550.1396 256
-4649.6665 1492.7736 6548.1138 256
-4646.1719 1504.2037 6598.2529 256
-4645.6406 1516.7954 6653.4868 256
-4602.9614 1515.7238 6648.7856 256
-4542.8579 1508.8463 6618.6177 256
-4543.5522 1522.2181 6677.2739 256
-4549.1851 1537.4939 6744.2812 256
-4525.6069 1543.0803 6768.7866 256
-4529.7632 1558.3079 6835.583 256
-4617.9292 1602.9714 7031.502 256
-4537.5469 1589.4095 6972.0117 65536
-4459.8315 1576.541 6915.5635 65536
-4457.4775 1590.3209 6976.0098 65536
-4530.4546 1631.4867 7156.585 65536
-4648.3291 1689.7513 7412.1655 65536
-4270.0425 1567.0437 6873.9028 0
-4483.4214 1661.1963 7286.9077 65536
-4415.9712 1652.1155 7247.0737 1052421
-4344.2715 1641.2509 7199.4155 1973005
-4241.8188 1618.4371 7099.3428 3814940
-4166.333 1605.5587 7042.8501 5591348
-4082.9221 1589.3344 6971.6816 6841670
-4031.1543 1585.2219 6953.6426 7828821
-3975.907 1579.6421 6929.166 7500114
-4013.3159 1611.1426 7067.3447 7170891
-4038.1953 1638.2245 7186.1401 6710084
-4126.5308 1691.9009 7421.5938 5920312
-4056.8425 1681.2449 7374.8516 5591088
-4015.0095 1682.0269 7378.2812 5722416
-3866.26 1637.5416 7183.145 5985331
-3827.7334 1639.2701 7190.7275 5129766
-3745.0459 1621.9126 7114.5874 5063203
-3808.4722 1668.1592 7317.4502 4931617
-3780.2271 1674.8553 7346.8232 5062432
-3790.8408 1699.1249 7453.2827 5720360
-3757.4553 1704.0127 7474.7236 6969914
-3693.0083 1694.7629 7434.1489 7562304
-3461.5996 1607.744 7052.437 9207384
-3352.3174 1576.0135 6913.2495 9996125
-3380.1824 1608.7721 7056.9463 11509876
-3521.7747 1697.1569 7444.6499 12168062
-3461.8193 1689.4253 7410.7349 12957577
-3521.2253 1740.4939 7634.7495 13483664
-3460.2432 1732.6107 7600.1699 13352848
-3491.5422 1771.3362 7770.041 13549714
-3452.2134 1774.7869 7785.1768 13484179
-3388.8767 1765.8212 7745.8486 13286545
-3375.1399 1782.809 7820.3662 13549718
-3352.8015 1795.663 7876.7505 13483924
-3392.8743 1842.7771 8083.4194 12628358
-3407.3853 1877.1586 8234.2344 12562563
-3435.5659 1920.1792 8422.9463 12232571
-3385.4919 1920.0857 8422.5361 10981990
-3457.9055 1990.4979 8731.4023 10126428
-3405.6216 1990.1783 8730.001 10126685
-3389.7773 2011.472 8823.4062 9666650
-3282.0818 1978.0748 8676.9082 9601628
-2882.3967 1764.8354 7741.5249 8878165
-2657.7664 1653.6147 7253.6509 8615764
-2837.3257 1794.3514 7870.998 8287058
-2777.1223 1785.6298 7832.7397 8155729
-2736.4646 1789.3926 7849.2456 8221523
-2680.4353 1783.0599 7821.4678 8352595
-2709.0151 1833.7781 8043.9448 8286546
-2661.9585 1834.1964 8045.7798 8352084
-2608.9199 1830.433 8029.271 8417877
-2579.0225 1843.0673 8084.6919 8286035
-2537.5322 1847.7384 8105.1816 8219985
-2498.5125 1854.423 8134.5044 8351572
-2396.937 1814.0282 7957.3105 8285778
-2404.4282 1856.2113 8142.3486 8286292
-2350.6252 1851.8337 8123.1465 7957070
-2299.8545 1849.7123 8113.8403 7957584
-2258.1116 1854.9163 8136.6675 8023633
-2216.4258 1860.3948 8160.6997 8089427
-2173.2324 1864.8245 8180.1304 8352599
-2135.5544 1874.2965 8221.6807 8418393
-1995.0065 1791.8182 7859.8857 8352600
-1945.6707 1789.2775 7848.7402 8352600
-1924.1786 1812.845 7952.1206 8089171
-1866.2356 1802.3916 7906.2666 7694413
-1797.8041 1781.0096 7812.4731 7825742
-1754.4644 1784.0117 7825.6421 7430984
-1644.9722 1718.0841 7536.4482 7759949
-1626.9901 1746.7213 7662.0669 7957329
-1577.6104 1742.3273 7642.7915 7957585
-1551.0449 1763.6141 7736.167 8089172
-1501.0718 1758.7712 7714.9238 7694929
-1432.9053 1731.6378 7595.9023 7563343
-1368.3584 1707.2607 7488.9707 7629136
-1342.9846 1731.7628 7596.4502 7760978
-1295.5564 1728.5389 7582.3086 7826515
-1237.5184 1710.4196 7502.8271 7760466
-1162.0498 1665.9606 7307.8057 6773570
-1163.3508 1732.3796 7599.1562 6247225
-1092.9585 1693.0881 7426.8018 7168073
-1086.722 1754.0524 7694.2241 7234122
-1057.536 1781.6914 7815.4639 7431758
-998.23517 1758.8021 7715.0596 7629137
-945.99353 1746.7506 7662.1948 7168588
-902.64862 1750.7397 7679.6934 7103309
-875.94293 1789.1385 7848.1309 7103052
-813.98712 1755.8066 7701.9194 7234638
-766.46735 1751.504 7683.0464 7168846
-720.59515 1750.661 7679.3477 6971468
-674.27075 1748.5314 7670.0063 7103054
-630.32758 1752.7157 7688.3604 7103054
-579.00647 1735.4377 7612.5703 7037261
-536.07526 1742.512 7643.6016 6906188
-489.0719 1736.4336 7616.939 6708553
-441.01852 1725.0126 7566.8398 6774602
-393.11276 1711.6487 7508.2192 6576967
-350.83408 1722.5021 7555.8271 6577224
-304.56635 1714.0802 7518.8848 6643016
-261.84634 1726.16 7571.873 6248258
-216.92705 1725.7391 7570.0269 6051135
-172.24463 1727.4745 7577.6392 6050878
-126.82872 1720.4835 7546.9727 5984829
-82.228271 1722.9642 7557.855 5985085
-37.469784 1724.1071 7562.8682 5985085
7.3572302 1727.3899 7577.2681 6050622
51.272915 1694.9061 7434.7769 5721402
96.458511 1715.0251 7523.0298 5524281
144.28423 1754.5306 7696.3223 5852990
191.62283 1770.5598 7766.6353 5787453
232.44495 1731.83 7596.7441 5524025
288.87262 1803.0729 7909.2544 5590075
335.3949 1801.2295 7901.1685 5326646
380.92816 1795.1769 7874.6187 5260853
429.43356 1802.9235 7908.5991 5261110
465.36673 1761.5558 7727.1387 5063731
513.23517 1768.7311 7758.6128 4998195
544.70642 1722.8635 7557.4131 5063987
605.71661 1770.2965 7765.48 4932402
669.13428 1817.5714 7972.853 4603438
705.32465 1789.5304 7849.8501 4471853
762.80835 1815.642 7964.3892 4471854
812.62732 1821.5298 7990.2168 4471853
864.98083 1832.1378 8036.75 3945511
929.52313 1866.1091 8185.7656 3814182
964.57269 1840.4377 8073.1572 3550753
1025.8359 1864.8457 8180.2236 3550497
1081.8339 1877.9109 8237.5352 3550498
1138.5852 1891.0999 8295.3887 3155996
1195.0408 1902.7261 8346.3877 2958361
1240.6376 1896.8262 8320.5078 3024411
1300.6611 1912.5913 8389.6621 3089690
1356.0515 1920.6338 8424.9404 3024414
1406.0924 1920.7975 8425.6582 3024413
1433.7244 1891.3875 8296.6504 3090205
1488.474 1898.5157 8327.9189 3090204
1547.959 1911.0326 8382.8242 3287583
1615.7888 1932.7528 8478.1016 3287586
1673.6854 1941.6396 8517.084 3222048
1613.947 1817.5325 7972.6826 3222049
1766.2797 1932.5148 8477.0566 3090976
1823.5908 1940.0481 8510.1025 3024925
1876.5125 1942.632 8521.4365 2893340
1958.0797 1973.9583 8658.8506 2959133
2021.8044 1986.1569 8712.3604 2762269
2075.2446 1987.8964 8719.9902 2762013
2126.9373 1987.9178 8720.085 2762013
2157.8933 1969.0171 8637.1758 2696219
2226.6875 1984.7183 8706.0498 2696219
2293.324 1997.8287 8763.5596 2564633
2333.5325 1987.8457 8719.7686 2762012
2338.1858 1948.6631 8547.8926 2893343
2401.636 1959.105 8593.6963 2893342
2441.1936 1950.0278 8553.8789 2958881
2416.2942 1890.879 8294.4199 2893601
2485.5505 1906.3013 8362.0703 3025187
2484.3235 1868.1199 8194.5859 2959394
2502.8906 1846.0015 8097.563 2959393
2522.8601 1825.73 8008.6411 3025186
2555.7222 1815.3649 7963.1743 3024929
2622.8989 1829.308 8024.3359 3090722
2666.9241 1826.895 8013.752 3155746
2703.0117 1819.2244 7980.104 3221538
2776.3584 1836.463 8055.7222 3090466
2820.6335 1834.2144 8045.8579 3156258
2885.8406 1845.4255 8095.0366 3090465
2928.1973 1841.897 8079.5586 3090465
2976.7773 1842.3336 8081.4736 3090465
3056.189 1861.536 8165.7056 2893601
3013.5234 1806.941 7926.2227 2630430
3022.9551 1784.7804 7829.0142 2630431
3087.708 1795.4581 7875.8525 2498845
3165.5667 1813.3253 7954.2271 2433052
3127.3726 1765.1653 7742.9712 2498588
3218.1426 1790.1359 7852.5059 2498589
3254.8037 1784.7249 7828.77 2564381
3308.4331 1788.6392 7845.9409 2761247
3343.8081 1782.7131 7819.9463 2695454
3416.1514 1796.389 7879.936 2629660
3476.7642 1803.6107 7911.6143 2629915
3529.9707 1806.8494 7925.8203 2630172
3563.1873 1799.905 7895.3589 2630173
3591.4907 1790.6914 7854.9424 2499102
3636.03 1789.7048 7850.6147 2564895
3697.575 1797.0077 7882.6494 2433051
3789.5669 1818.741 7977.9834 2564637
3851.6233 1825.7488 8008.7236 2695453
3936.686 1843.3588 8085.9702 2695453
3981.9668 1842.1412 8080.6299 2761246
4062.3887 1857.0164 8145.8804 2892575
4072.1355 1839.6143 8069.5454 2827039
4120.6479 1839.9257 8070.9111 2761246
4172.2524 1841.5945 8078.2314 2629915
4106.4404 1791.9868 7860.6255 2564378
4140.9663 1786.7869 7837.8154 2629915
4138.0908 1765.7427 7745.5044 2367000
4182.5708 1765.1455 7742.8843 2235156
4198.5181 1752.6503 7688.0742 2169106
4216.29 1741.1769 7637.7456 2300947
4082.5747 1668.0527 7316.9834 1314309
4070.8171 1645.7712 7219.2446 393728
4056.1812 1622.8014 7118.4863 459264
4068.7349 1611.0706 7067.0283 656640
4049.208 1587.0052 6961.4653 723200
4027.0483 1562.4039 6853.5508 460544
4096.8491 1573.6161 6902.7334 526336
3947.9221 1501.4231 6586.0552 329728
3939.5833 1483.5865 6507.8149 66560
3932.4143 1466.5322 6433.0049 1024
3913.0974 1445.3184 6339.9492 1024
3888.7996 1422.6857 6240.6704 1024
3891.1311 1410.1298 6185.5933 1024
3887.3213 1395.6034 6121.8726 1024
4038.5227 1436.4822 6301.1895 1024
3994.5469 1407.8246 6175.4814 1024
4082.6736 1425.8224 6254.4297 1024
4009.1519 1387.5504 6086.5483 768
4055.2871 1391.0046 6101.7002 1024
4054.8416 1378.5613 6047.1167 1024
4039.4871 1361.3114 5971.4497 1024
4043.866 1350.9536 5926.0146 768
4057.6072 1343.875 5894.9644 132352
3888.6377 1276.9202 5601.2637 1024
3859.7517 1256.7087 5512.6055 1024
3785.5403 1222.2026 5361.2432 1024
3771.3337 1207.4829 5296.6743 1024
3818.3535 1212.4476 5318.4521 132352
3819.3003 1202.8209 5276.2241 66816
3731.6704 1165.6815 5113.311 66816
3794.6167 1175.7977 5157.686 66560
3808.5349 1170.6819 5135.2451 66816
3823.5708 1165.988 5114.6553 768
3724.5933 1126.8733 4943.0767 768
3715.9785 1115.4948 4893.1646 768
3724.4102 1109.37 4866.2979 512
3702.7705 1094.4509 4800.855 132608
3696.6484 1084.311 4756.376 66304
3663.6213 1066.4924 4678.2139 256
3662.1362 1058.0546 4641.2007 131840
3643.2627 1044.756 4582.8657 263424
3639.3291 1035.9067 4544.0483 197632
3645.1782 1029.9515 4517.9258 263424
3643.2683 1021.907 4482.6377 263424
3636.8145 1012.7134 4442.3101 263424
3643.8323 1007.3765 4418.8994 263425
3639.1965 998.91687 4381.791 263424
3646.6196 993.86371 4359.625 263424
3677.074 995.11444 4365.1113 263424
3663.6685 984.56104 4318.8184 263424
3685.6135 983.58813 4314.5508 263424
3662.7317 970.74811 4258.2271 197632
3662.0632 963.93054 4228.3218 197632
3660.0725 956.86005 4197.3066 263424
3671.1692 953.28345 4181.6177 197632
3682.7341 949.87549 4166.6685 197632
3697.2017 947.25653 4155.1807 197632
3723.9626 947.80121 4157.5698 197632
3752.9771 948.90845 4162.4268 197632
3712.8782 932.6405 4091.0669 263424
3756.9656 937.59344 4112.793 197376
3791.6868 940.15997 4124.0513 262912
3826.7346 942.77435 4135.519 262912
3843.1592 940.79626 4126.8423 262912
3838.3997 933.69025 4095.6716 197120
3859.6965 932.97205 4092.521 262912
3862.6404 927.854 4070.0706 328704
3865.5486 922.79114 4047.8621 197120
0 0 0 0
0 0 0 0
0 0 0 0
0 0 0 0
-5727.9785 1469.7616 6283.8413 262144
-5592.0513 1444.272 6174.8623 65536
-5596.2949 1454.8873 6220.2476 65536
-5580.7798 1460.4725 6244.1265 256
-5624.6123 1481.767 6335.1694 256
-5475.7676 1452.2472 6208.9595 256
-5327.3345 1422.4377 6081.5122 256
0 0 0 0
0 0 0 0
0 0 0 0
-5248.9658 1440.488 6158.6846 256
-5204.166 1438.1923 6148.8691 256
-4784.1362 1331.4368 5692.4453 256
-5127.4678 1437.119 6144.2808 256
-4774.959 1347.8889 5762.7852 65792
-4789.7778 1361.8107 5822.3062 65792
-4646.4688 1330.65 5689.0815 65792
-4636.7915 1337.5829 5718.7222 65792
-4613.1934 1340.5723 5731.5034 65792
-4573.5176 1338.8994 5724.3511 65792
-4722.2314 1392.7648 5954.6479 512
-4980.1816 1479.9016 6327.1938 512
-4939.0854 1478.8224 6322.5796 512
-4877.4766 1471.5376 6291.4346 512
-4914.5776 1494.1512 6388.1167 256
-4774.4243 1462.8076 6254.1099 256
-4829.9224 1491.3873 6376.3003 256
-4706.542 1464.7477 6262.4048 256
-4824.1353 1513.2755 6469.8813 256
-4791.0698 1514.9423 6477.0073 256
-4781.3545 1524.079 6516.0708 256
-4786.1685 1538.0334 6575.7314 256
-4870.1558 1577.8679 6746.0405 256
-4850.9976 1584.6676 6775.1118 256
-4858.8154 1600.4662 6842.6577 256
-4783.3965 1588.8826 6793.1323 256
-4793.6665 1605.8066 6865.4902 256
-4764.3335 1609.6405 6881.8813 0
-4701.4268 1602.0997 6849.6416 65536
-4662.3867 1602.6313 6851.9146 65536
-4637.8213 1608.1915 6875.6865 65536
-4626.7446 1618.569 6920.0547 65536
-4706.9297 1661.3438 7102.9341 65536
-4734.1504 1686.0271 7208.4663 460548
-4771.5176 1714.8068 7331.5112 1381904
-4749.6621 1722.6361 7364.9844 3816491
-4757.7524 1741.572 7445.9434 5066813
-4756.4878 1757.4061 7513.6411 6711893
-4703.1084 1754.1024 7499.5161 7435103
-4461.7241 1679.947 7182.4717 7303515
-4327.8135 1645.2197 7033.9976 6974292
-4288.9438 1646.2982 7038.6084 7039314
-4297.8506 1665.9166 7122.4858 6447176
-4201.6255 1644.7697 7032.0732 5986366
-4144.6138 1638.703 7006.1357 5920314
-4105.0386 1639.4773 7009.4463 5393458
-4063.0679 1639.301 7008.6924 5919803
-3984.1492 1624.0599 6943.5308 3880733
-4005.6047 1649.8435 7053.7656 4012576
-4015.1213 1671.2012 7145.0791 3749403
-3978.4734 1673.5947 7155.312 3946012
-3958.2549 1683.0253 7195.6318 4209184
-3967.8523 1705.4767 7291.6211 4274719
-3833.9014 1666.0431 7123.0259 4866855
-3859.4644 1695.8204 7250.3369 4866598
-3835.3066 1704.1755 7286.0581 4997669
-3815.8093 1714.8153 7331.5479 5260585
-3694.5017 1679.4197 7180.2168 5522984
-3658.7759 1682.5562 7193.626 5720618
-3659.0884 1702.5345 7279.042 6509621
-3610.4719 1699.952 7268.0005 7957577
-3577.5342 1704.7781 7288.6343 9272922
-3297.75 1590.657 6800.7192 10588778
-3336.4529 1629.2336 6965.6499 11773306
-3437.4019 1699.553 7266.2944 13154443
-3453.1755 1729.0088 7392.231 12693889
-3530.5225 1790.4476 7654.9072 11180140
-3496.2178 1796.1261 7679.1851 10061403
-3495.7278 1819.5554 7779.355 10258527
-3462.8499 1826.5275 7809.1636 8613191
-3483.8962 1862.5167 7963.0322 9599832
-3468.0959 1879.5251 8035.7505 9666138
-3388.593 1862.0031 7960.8359 9007954
-3323.1086 1851.7979 7917.2046 7626818
-3378.0315 1909.358 8163.2988 6508853
-3407.3223 1953.8923 8353.7012 6377783
-3488.3005 2029.8162 8678.3066 6377526
-3481.52 2056.1816 8791.0303 6311733
-3386.4307 2030.4009 8680.8066 6245941
-3126.3708 1903.3877 8137.7725 6114611
-2960.658 1830.7354 7827.1538 5786160
-2936.0037 1844.3827 7885.502 5588781
-2832.3457 1808.0391 7730.1182 5523247
-2762.71 1792.576 7664.0068 5194540
-2712.3884 1789.3374 7650.1602 5128746
-2616.6492 1755.5179 7505.5684 4997161
-2593.0571 1769.7695 7566.4995 5129002
-2552.8879 1773.0098 7580.353 4997161
-2515.1497 1778.0845 7602.0493 5326125
-2476.1863 1782.4624 7620.7671 5588271
-2421.7256 1775.6401 7591.5991 5456685
-2418.0347 1806.4893 7723.4917 5522478
-2343.5635 1784.6292 7630.0308 5390636
-2332.866 1811.4285 7744.6084 5325613
-2268.2 1796.5565 7681.0254 5062185
-2185.866 1766.7949 7553.7822 5062187
-2136.5786 1763.0585 7537.8066 4996392
-2090.4988 1761.8656 7532.707 4930856
-2051.2307 1766.4871 7552.4653 4865063
-2014.2012 1773.2852 7581.5303 4536099
-1933.8264 1741.3624 7445.0474 4009754
-1869.6759 1722.8994 7366.1104 3877913
-1831.668 1728.2202 7388.8594 4075549
-1791.5398 1731.7521 7403.9595 3286037
-1734.3154 1718.5208 7347.3896 3483413
-1676.083 1703.5834 7283.5264 3417362
-1635.0051 1705.7535 7292.8042 3680278
-1582.7931 1696.1097 7251.5737 3351570
-1529.4835 1684.7192 7202.8745 3746586
-1479.5721 1676.5251 7167.8413 3549465
-1417.8396 1654.0563 7071.7769 3681052
-1369.5957 1646.4337 7039.188 3549980
-1341.7821 1663.6637 7112.8535 3287066
-1288.2999 1649.153 7050.8135 3287066
-1249.5653 1653.1805 7068.0337 3155481
-1206.0801 1650.9845 7058.6445 3023897
-1170.62 1660.0107 7097.2354 2826775
-1116.3998 1642.1155 7020.7251 2892310
-1081.6705 1652.6135 7065.6094 3089946
-1032.2715 1640.6418 7014.4253 2958358
-970.30536 1606.8541 6869.9688 3221276
-939.95667 1624.7595 6946.522 3221533
-905.55902 1636.9857 6998.7939 3023897
-866.63489 1641.8099 7019.4194 2760983
-818.0191 1627.8346 6959.6689 2826776
-783.00671 1640.8829 7015.4561 2695447
-740.02069 1637.7477 7002.0513 2760727
-696.14258 1632.1486 6978.1128 2432020
-643.87274 1604.925 6861.7207 2760729
-613.50494 1632.3047 6978.7798 2761241
-573.12866 1635.0883 6990.6816 2629914
-526.42181 1618.8384 6921.2065 2564121
-491.44955 1638.9774 7007.3086 2564119
-444.18079 1618.0399 6917.793 2696218
-404.19644 1622.0787 6935.0596 2630424
-366.35812 1636.6179 6997.2217 2498839
-326.42175 1644.2998 7030.0649 2498582
-285.93073 1651.0265 7058.8237 2564118
-243.17453 1644.7374 7031.9355 2564374
-202.39307 1651.9657 7062.8394 2629912
-158.31183 1629.0083 6964.687 2433304
-117.23226 1631.6388 6975.9336 2433047
-74.865311 1609.4584 6881.103 2367001
-34.152699 1612.3231 6893.3506 2301207
6.7678394 1630.3094 6970.2495 2630172
46.527798 1578.0259 6746.7158 2629915
87.206993 1590.8353 6801.4819 2695708
128.34845 1601.3149 6846.2861 2893087
168.33936 1595.8534 6822.936 2827294
210.13902 1606.3337 6867.7441 2827551
247.89279 1587.5035 6787.2373 2958880
290.84528 1602.5758 6851.6772 2959137
328.97119 1590.6183 6800.5542 2893856
376.62561 1622.3148 6936.0693 2827807
420.0582 1631.3777 6974.8169 2828062
457.8107 1618.7333 6920.7568 2828061
501.61002 1627.7905 6959.481 3024414
547.91876 1642.9967 7024.4927 2893085
589.10181 1641.7706 7019.2515 3024671
637.34302 1659.0797 7093.2549 3024929
679.85199 1660.2484 7098.2515 3025442
727.99359 1674.2349 7158.0493 3025442
761.88428 1655.7117 7078.8545 3156770
808.15588 1664.6233 7116.9561 3091234
843.39349 1651.0508 7058.9272 3025441
905.18256 1688.2825 7218.1089 2959648
951.54449 1694.6793 7245.4575 2696221
991.72009 1689.9817 7225.3735 2498844
1036.1288 1692.588 7236.5166 2696222
1108.0201 1738.0979 7431.0903 2696222
1115.8397 1683.464 7197.5073 2696222
1175.9945 1708.9039 7306.2744 2630172
1229.4102 1723.0919 7366.9336 2564381
1267.2755 1715.2596 7333.4478 2498586
1318.014 1724.793 7374.2061 2433050
1370.3895 1735.7877 7421.2134 2564634
1412.7263 1733.7789 7412.625 2630684
1426.2091 1697.5477 7257.7217 2762015
1345.6473 1554.7772 6647.3184 2630430
1538.3862 1726.9218 7383.3081 2696222
1565.0984 1708.3258 7303.8022 2696222
1611.7795 1711.9406 7319.2568 2827807
1647.5692 1704.1007 7285.7378 2959394
1694.9039 1708.2974 7303.6807 2959393
1737.4069 1707.5363 7300.4268 2827808
1775.2928 1702.3851 7278.4028 2696222
1815.162 1699.3346 7265.3608 2630429
1873.9647 1713.7402 7326.9512 2630429
2010.4219 1796.9006 7682.4961 2630429
2063.5122 1803.5154 7710.7773 2630428
1992.4932 1703.7214 7284.1167 2564637
2150.2822 1799.6582 7694.2856 2499358
2083.3704 1707.4541 7300.0752 2630944
2222.1316 1784.1348 7627.917 2630945
2172.4429 1709.4691 7308.6904 2433566
2170.2305 1674.3506 7158.5439 2565151
2185.8083 1654.0409 7071.7119 2565151
2175.8872 1615.5626 6907.2007 2630944
2229.2134 1624.5979 6945.8306 2565151
2246.1462 1607.264 6871.7217 2565151
2281.4573 1603.4642 6855.4751 2630943
2422.3601 1672.7114 7151.5361 2565151
2456.1782 1666.9038 7126.7061 2696480
2399.822 1601.1293 6845.4927 2630944
2558.6184 1678.7024 7177.1499 2630944
2516.6001 1624.139 6943.8687 2630944
2648.7126 1681.9022 7190.8306 2630944
2586.0562 1616.1183 6909.5771 2696737
2748.1943 1690.6776 7228.3491 2762530
2791.0251 1690.6776 7228.3491 2762530
2834.9397 1691.3242 7231.1133 2696738
2710.3271 1592.9054 6810.3315 2696994
2813.6941 1629.3956 6966.3433 2762530
2854.5342 1629.1456 6965.2739 2762787
2905.3516 1634.5157 6988.2334 2828324
2935.7156 1628.3898 6962.0425 2959909
2979.3726 1629.7047 6967.6646 2762530
3028.6328 1634.0068 6986.0581 2630945
3161.8142 1682.8596 7194.9238 2630944
3184.3242 1672.2919 7149.7422 2630431
3195.6753 1656.2183 7081.021 2499101
3254.2742 1664.7311 7117.4165 2367772
3282.6299 1657.7529 7087.5825 2433308
3347.2656 1669.0414 7135.8452 2630688
3399.6262 1674.0037 7157.061 2696223
3469.626 1687.4225 7214.4321 2630686
3545.7058 1703.4358 7282.8955 2696222
3599.6848 1708.5736 7304.8618 2695967
3955.2659 1855.0427 7931.0781 2827040
3690.4148 1710.5027 7313.1094 2826783
3684.8716 1688.1113 7217.3774 2826783
3693.3335 1672.5764 7150.9585 2695708
3756.009 1681.6665 7189.8232 2629915
3818.1694 1690.3251 7226.8418 2498843
3867.377 1693.1207 7238.7939 2433049
3894.4443 1686.2684 7209.4976 2235672
3929.5649 1683.0138 7195.583 2104085
3943.5762 1670.8853 7143.7285 1906707
4019.762 1685.0779 7204.4077 1841168
4045.4661 1678.0326 7174.2866 1841166
3983.8657 1635.2971 6991.5742 2038542
4028.8284 1636.7333 6997.7144 1117698
4100.583 1648.9136 7049.79 131072
3985.7402 1586.5707 6783.249 262656
3960.5513 1560.8044 6673.0869 394752
3972.2981 1549.9595 6626.7202 197632
3958.9104 1529.6155 6539.7412 66304
3941.8567 1508.2632 6448.4517 66304
3931.2024 1489.746 6369.2827 66304
3967.1033 1489.0554 6366.3306 1024
3961.3049 1472.8737 6297.1465 1024
3962.5994 1459.6062 6240.4229 1024
3984.1174 1453.9647 6216.3027 66560
4063.0686 1469.1941 6281.4146 198400
4066.1184 1456.9503 6229.0679 66816
4015.1743 1425.7542 6095.6914 66816
3895.6812 1370.9901 5861.5522 1024
3848.8606 1342.5433 5739.9302 1024
3864.0017 1336.0188 5712.0352 66816
3878.5298 1329.3973 5683.7256 198400
3899.592 1325.1102 5665.3965 1024
3860.3713 1300.5868 5560.5483 1024
3837.3127 1281.8771 5480.5571 1024
3796.3047 1257.5359 5376.4883 1024
3827.2544 1257.2375 5375.2124 1024
3958.4175 1289.5922 5513.542 1024
3765.1431 1216.5854 5201.4082 1024
3824.1436 1225.6171 5240.0215 1024
3795.0134 1206.4852 5158.2251 1024
3781.1316 1192.468 5098.2959 1024
3748.563 1172.8265 5014.3203 1024
3664.5464 1137.5236 4863.3857 1024
3699.9448 1139.5504 4872.0513 768
3627.1604 1108.4846 4739.2319 768
3613.7122 1095.89 4685.3853 768
3596.3318 1082.3044 4627.3013 512
3603.1685 1076.1573 4601.0195 512
3576.9104 1060.2922 4533.1899 66048
3567.9695 1049.7587 4488.1543 263424
3619.8689 1057.1488 4519.7505 197632
3563.4336 1033.0247 4416.6094 263424
3557.8633 1023.8904 4377.5566 263424
3632.2483 1037.7313 4436.7324 263425
3635.4583 1031.1851 4408.7441 263424
3636.5381 1024.1322 4378.5903 263424
3644.717 1019.1642 4357.3506 263424
3678.2671 1021.3109 4366.5278 197632
3658.1721 1008.6364 4312.3394 197632
3672.1658 1005.4715 4298.8081 263424
3670.116 997.98761 4266.8115 197632
3666.9451 990.30347 4233.9585 263424
3711.1042 995.41888 4255.8291 197632
3692.0876 983.63428 4205.4448 263424
3709.1189 981.54688 4196.5205 131840
3714.595 976.44977 4174.7285 197632
3718.3994 970.98383 4151.3589 131840
3753.2004 973.63043 4162.6743 197632
3767.0317 970.83826 4150.7368 197632
3780.9932 968.1156 4139.0962 262912
3801.0984 966.99103 4134.2881 262912
3807.5708 962.43481 4114.8086 328704
3825.4456 960.80054 4107.8213 262912
3837.3008 957.68451 4094.499 262912
3859.1821 957.0943 4091.9753 328704
3860.7039 951.49359 4068.03 262912
3864.1665 946.43781 4046.4146 262912
0 0 0 0
0 0 0 0
0 0 0 0
0 0 0 0
-5678.8706 1494.076 6229.9683 196608
-5604.7285 1484.2178 6188.8613 256
-5559.8438 1482.0283 6179.7319 65536
-5549.2578 1489.0133 6208.8579 256
-5578.8535 1506.9453 6283.6304 256
-5467.1694 1486.6996 6199.2104 256
-5319.4019 1456.3014 6072.4565 256
0 0 0 0
0 0 0 0
0 0 0 0
-4658.1006 1310.72 5465.4141 256
-4735.1602 1341.7317 5594.7256 0
-4814.9248 1373.9524 5729.0791 65536
-5113.71 1469.5728 6127.7949 65536
-4798.9341 1388.9751 5791.7202 65792
-4680.2788 1364.3892 5689.2026 65792
-4769.7607 1400.5629 5840.0386 65792
-4948.5586 1463.683 6103.2358 65792
-4768.8633 1420.9167 5924.9102 65792
-4884.4175 1466.1404 6113.4824 256
-4676.2954 1414.1571 5896.7236 256
-4815.1172 1467.0999 6117.4839 256
-4905.8682 1506.0885 6280.0576 256
-4879.6646 1509.4938 6294.2568 256
-4909.2808 1530.3521 6381.2314 256
-4923.6274 1546.7373 6449.5542 256
-4905.2632 1553.0226 6475.7622 256
-4897.8071 1562.8876 6516.8975 256
-4895.8516 1574.6786 6566.0635 256
-4893.978 1586.6852 6616.1279 256
-4867.9819 1591.0016 6634.127 256
-4867.2085 1603.699 6687.0723 256
-4787.9854 1590.5444 6632.2202 256
-4815.8032 1613.0247 6725.9575 256
-4768.6924 1610.5736 6715.7378 0
-4719.9829 1607.537 6703.0757 395011
-4711.3433 1618.2117 6747.5864 526595
-4742.7446 1642.9398 6850.6973 1447696
-4680.8115 1635.4836 6819.6064 3421740
-4718.77 1663.1038 6934.7764 5066557
-4745.3984 1687.1807 7035.1724 6185039
-4762.6084 1708.3064 7123.2617 6382930
-4926.5142 1782.8987 7434.2949 6053707
-5049.4585 1843.8794 7688.5713 5724485
-4814.1616 1773.9629 7397.0347 5461053
-4651.3618 1729.7211 7212.5562 5460538
-4586.0928 1721.2645 7177.2939 5197109
-4483.1294 1698.3694 7081.8267 5064498
-4394.3428 1680.4634 7007.1626 4932913
-4362.0146 1684.0121 7021.96 3551004
-4285.6943 1670.4819 6965.542 3550747
-4321.8447 1700.9536 7092.6021 3879711
-4196.4307 1667.8124 6954.4106 4471848
-4125.1294 1655.7335 6904.0444 4405799
-4090.6777 1658.3514 6914.9604 4406310
-3970.6631 1625.9843 6779.9966 4538152
-3967.0137 1641.0942 6843.0015 4406312
-3958.2371 1654.3728 6898.3711 4011554
-3965.2107 1674.5806 6982.6323 4011555
-3958.5037 1689.3759 7044.3257 3880223
-3919.8132 1690.6913 7049.811 4077601
-3865.6924 1685.3082 7027.3643 4472356
-3844.7354 1694.4232 7065.3721 4998699
-3834.2258 1708.3944 7123.6284 5393198
-3835.0583 1727.7861 7204.4878 5787700
-3811.9517 1736.708 7241.6899 6774851
-3742.1392 1724.3116 7190.0005 6313273
-3703.1877 1726.0142 7197.0991 6642494
-3640.4194 1716.5256 7157.5347 6115379
-3624.8738 1729.3427 7210.9785 5588776
-3574.998 1725.8921 7196.5903 5785898
-3546.5347 1732.8199 7225.478 6508849
-3408.7261 1685.839 7029.5771 6180138
-3331.5488 1668.0526 6955.4121 4929052
-3337.6025 1692.0149 7055.3296 5718819
-3329.0569 1709.0901 7126.5298 5981994
-3294.7825 1713.2256 7143.7739 4600600
-3306.8689 1741.8892 7263.2949 4271641
-3280.4985 1750.7847 7300.3872 3745811
-3396.1292 1836.7156 7658.7002 3942935
-3348.5339 1835.5018 7653.6387 3746074
-3233.7156 1796.9004 7492.6792 3483416
-3146.3574 1772.6957 7391.751 3417625
-3106.6152 1775.0137 7401.416 3352090
-3026.625 1754.0721 7314.0952 3023896
-3006.9885 1768.0085 7372.2065 2958103
-2937.2874 1752.4855 7307.4785 2958105
-2903.1921 1758.0594 7330.7207 2761240
-2831.3933 1740.6239 7258.0186 2761496
-2766.7957 1727.1459 7201.8184 2564117
-2720.1321 1724.6163 7191.2705 2695190
-2663.4937 1715.5812 7153.5957 2760983
-2611.8706 1709.5367 7128.3916 2629397
-2560.7468 1703.6254 7103.7432 2432019
-2512.8611 1699.7067 7087.4028 2432018
-2461.5413 1693.2927 7060.6582 2563603
-2414.1367 1689.3969 7044.4131 2629397
-2352.4275 1675.1771 6985.1201 2760982
-2293.7192 1662.6237 6932.7749 2892569
-2236.2974 1650.5618 6882.4795 2958618
-2187.7043 1644.6891 6857.9917 2958619
-2134.4888 1635.0532 6817.812 2958618
-2069.627 1615.9521 6738.165 2892825
-2029.2819 1615.6189 6736.7754 2892826
-1985.8396 1612.7567 6724.8408 2761496
-1943.1965 1610.4399 6715.1802 2629910
-1907.5406 1613.9377 6729.7651 2498069
-1851.9926 1600.3953 6673.2959 2564118
-1808.2272 1596.6661 6657.7461 2366227
-1769.6504 1597.4542 6661.0322 2037005
-1723.7186 1591.4873 6636.1519 1445383
-1692.6445 1599.2802 6668.6465 1445126
-1654.1925 1600.308 6672.9321 1050370
-1619.0959 1604.7117 6691.2949 1247747
-1609.8535 1635.6044 6820.1099 1116161
-1572.7749 1639.0781 6834.5947 1050627
-1536.3347 1643.4183 6852.6929 919554
-1488.0386 1634.9679 6817.4561 2630170
-1439.248 1625.4873 6777.9238 2564890
-1397.5806 1623.738 6770.6304 2630683
-1352.9471 1618.3378 6748.1118 2565147
-1298.7596 1600.832 6675.1177 2630940
-1259.8251 1601.618 6678.395 2433561
-1219.3773 1600.4689 6673.6035 2433561
-1199.3334 1626.9209 6783.9019 2433561
-1120.5319 1572.7375 6557.9692 2499099
-1096.8412 1594.7915 6649.9292 2564637
-1033.6978 1558.9878 6500.6357 2498843
-1016.4205 1592.2635 6639.3882 2301721
-984.63629 1604.5782 6690.7383 2433563
-911.71051 1548.0686 6455.1055 2630683
-900.30859 1595.6506 6653.5122 2564890
-859.00433 1592.1672 6638.9868 2630684
-816.6593 1586.3274 6614.6362 2564890
-775.02203 1581.3429 6593.8516 2499097
-731.89081 1572.6191 6557.4761 2564891
-693.23077 1573.0632 6559.3271 2565147
-661.43549 1590.0623 6630.21 2564637
-619.29346 1582.7648 6599.7808 2433563
-607.15259 1656.3271 6906.52 2367770
-538.30011 1574.6309 6565.8638 2367770
-499.61731 1575.3326 6568.79 2301977
-464.9769 1589.9758 6629.8491 2499356
-421.66833 1574.9458 6567.1772 2433563
-382.20221 1572.6704 6557.6899 2499355
-348.37827 1595.7238 6653.8174 2301977
-310.63455 1604.4156 6690.0601 2367770
-268.07251 1587.1233 6617.9551 2301977
-227.40308 1577.0303 6575.8691 2301977
-187.494 1569.1265 6542.9126 2170136
-149.11424 1573.2373 6560.0532 2170136
-110.06605 1570.7079 6549.5063 2104600
-72.299294 1593.6699 6645.2524 2170393
-32.642334 1580.0594 6588.5 2301979
6.3996673 1580.6749 6591.0664 2433565
45.153713 1570.2192 6547.4683 2565151
84.239899 1575.6398 6570.0713 2499615
123.35902 1578.0552 6580.1431 2565151
161.94882 1574.1653 6563.9229 2565148
200.60663 1572.3149 6556.2075 2565149
242.08284 1589.5714 6628.1626 2696735
279.57379 1579.4949 6586.146 2696735
317.88461 1575.9513 6571.3701 2696735
354.89578 1567.4413 6535.8853 2696735
392.95236 1564.7686 6524.7407 2828321
432.58597 1568.2921 6539.4331 2762530
471.14859 1567.6727 6536.8506 2762530
510.52686 1569.6554 6545.1172 2696737
545.31543 1558.2427 6497.5293 2696224
586.68787 1565.9083 6529.4927 2696478
629.55334 1576.3636 6573.0894 2630942
667.48083 1573.9568 6563.0537 2565149
707.6723 1576.8597 6575.1577 2696735
751.04578 1586.1798 6614.0205 2696735
794.13055 1593.996 6646.6128 2630942
835.36896 1597.5425 6661.4009 2499612
874.78687 1597.4446 6660.9927 2499358
924.35681 1615.0935 6734.585 2565151
974.81049 1632.762 6808.2583 2499359
993.37512 1597.736 6662.2075 2499358
1068.8658 1653.4476 6894.5122 2565151
1119.9207 1668.6483 6957.896 2565151
1162.8135 1671.04 6967.8696 2368029
1214.0748 1684.882 7025.5869 2302236
1256.9613 1686.5685 7032.6196 2499358
1275.701 1656.7869 6908.437 2499359
1327.2578 1670.1526 6964.1689 2565408
1360.0126 1659.7661 6920.8594 2499358
1315.3964 1558.3275 6497.8828 2499358
1345.0743 1548.1705 6455.5303 2565151
1459.0428 1632.9102 6808.876 2630943
1446.0464 1574.8182 6566.6455 2564894
1525.5367 1617.8544 6746.0967 2565151
1592.0103 1645.2405 6860.291 2630687
1647.9719 1660.6703 6924.6294 2630687
1674.5951 1646.5039 6865.5591 2630687
1754.4836 1684.1392 7022.4897 2565150
1832.8743 1718.6262 7166.293 2499357
1845.4374 1691.2247 7052.0352 2301721
1833.7759 1643.3279 6852.3159 2367515
1863.6567 1633.9279 6813.1191 2433310
1901.405 1631.6776 6803.7363 2433309
1941.9841 1631.8995 6804.6616 2433566
1982.5229 1632.0795 6805.4121 2499102
2005.8308 1618.3497 6748.1626 2433565
2054.2781 1625.0435 6776.0732 2367516
2082.3569 1615.6769 6737.0171 2368028
2097.9788 1597.1792 6659.8857 2367771
2097.1514 1567.0728 6534.3491 2301979
1943.4952 1425.929 5945.8096 2301979
2233.3147 1609.3926 6710.813 2433564
2245.6277 1589.9565 6629.7686 2433565
2102.6311 1463.1166 6100.874 2433309
2367.5842 1619.6379 6753.5342 2433564
2361.8013 1588.8274 6625.0605 2367772
2386.3867 1579.1195 6584.5806 2433565
2443.6118 1590.9746 6634.0142 2499358
2434.304 1559.8225 6504.1167 2499358
2436.6021 1536.9623 6408.7944 2565150
2542.8667 1579.3771 6585.6548 2499358
2606.0979 1594.1858 6647.4038 2565151
2466.4055 1486.2706 6197.4214 2630944
2662.9966 1581.1951 6593.2358 2630943
2554.3284 1494.7432 6232.75 2565151
2539.4524 1464.8584 6108.1372 2499358
2931.446 1667.2144 6951.917 2499358
2914.5757 1634.6497 6816.1289 2499358
2947.5244 1630.5341 6798.9678 2565151
2964.4316 1617.7751 6745.7661 2630944
3026.0479 1629.4303 6794.3657 2564638
2966.55 1576.4194 6573.3223 2433564
3083.2661 1617.209 6743.4053 2367772
3138.0222 1624.8718 6775.3574 2301979
3217.7241 1645.0946 6859.6826 2499358
3252.4585 1642.1099 6847.2368 2499358
3308.2236 1649.6859 6878.8267 2630943
3328.5776 1639.634 6836.9131 2630944
3362.1311 1636.2476 6822.7925 2630944
3453.6514 1660.8175 6925.2432 2761762
3443.0442 1636.275 6822.9067 2170393
3547.959 1666.5658 6949.2129 2565150
3580.0676 1662.3553 6931.6558 2499358
3580.5603 1643.7261 6853.9761 2565151
3603.1064 1635.5253 6819.7808 2630942
3639.3735 1633.6656 6812.0264 2565149
3725.1438 1653.8243 6896.0835 2301977
3745.2463 1644.708 6858.0703 2236184
3784.9866 1644.3184 6856.4458 2170134
3766.6929 1618.9932 6750.8452 2038805
3874.6956 1647.9143 6871.4399 1907219
3808.856 1603.067 6684.437 1841426
3853.5713 1605.1946 6693.3081 1841426
3915.824 1614.5094 6732.1489 1709838
3927.8149 1603.1224 6684.6675 1183493
3930.3362 1588.136 6622.1777 854528
3995.7642 1598.6138 6665.8672 920320
3972.199 1573.6304 6561.6924 262400
3839.0967 1506.158 6280.3472 197120
3850.948 1496.3035 6239.2559 66048
3857.8223 1484.7207 6190.9585 66304
3807.4119 1451.5173 6052.5078 768
3782.6912 1428.6361 5957.0981 768
3765.1077 1408.8484 5874.5879 1024
3748.7947 1389.8944 5795.5537 1024
3761.3206 1381.8798 5762.1343 1024
3774.1135 1374.1064 5729.7217 1024
3785.0037 1365.7853 5695.0239 1024
3778.7773 1351.4893 5635.4131 1024
3796.9036 1346.0774 5612.8462 1024
3770.6152 1325.15 5525.584 1024
3776.8333 1315.9089 5487.0508 1024
3777.4727 1304.8986 5441.1396 1024
3796.2874 1300.2998 5421.9639 1024
3877.2573 1316.8888 5491.1367 1024
3874.4373 1304.9799 5441.479 1024
3847.2578 1285.1305 5358.7114 1024
3810.0598 1262.287 5263.459 1024
3610.2234 1186.3691 4946.8984 1024
3517.9973 1146.7516 4781.7017 1024
3512.845 1135.9236 4736.5513 1024
3598.0691 1154.2598 4813.0093 1024
3743.802 1191.5663 4968.5693 1024
3628.7603 1145.9397 4778.3164 768
3634.8943 1138.9899 4749.3369 768
3624.0996 1126.8828 4698.8535 768
3618.4849 1116.559 4655.8052 512
3904.6968 1195.759 4986.0518 512
3568.8286 1084.6969 4522.9473 512
3872.1633 1168.1193 4870.8003 131840
3545.0229 1061.5184 4426.2983 197632
3573.0447 1062.0515 4428.5215 197632
3600.8728 1062.5201 4430.4751 197632
3611.4534 1057.9292 4411.332 197632
3626.6653 1054.7513 4398.0811 197632
3627.9438 1047.5953 4368.2422 197632
3638.5691 1043.2207 4350.0005 197632
3647.5105 1038.4281 4330.0166 197632
3647.4358 1031.1534 4299.6831 197632
3650.3262 1024.8123 4273.2417 263424
3653.1575 1018.5421 4247.0962 263424
3654.3875 1011.9141 4219.459 131840
3665.1101 1007.987 4203.084 131840
3672.3462 1003.1604 4182.958 131840
3690.5752 1001.3814 4175.54 197632
3704.6621 998.50958 4163.5654 131840
3716.6296 995.10834 4149.3828 197632
3761.7778 1000.5774 4172.1875 263424
3776.8828 998.03619 4161.5913 197632
3772.2236 990.33911 4129.4961 263168
3796.9465 990.4054 4129.7725 197120
3808.5996 987.08337 4115.9204 262912
3815.8179 982.66168 4097.4829 262912
3831.1702 980.37732 4087.9578 328704
3830.8557 974.13776 4061.9402 262912
3863.2534 976.24249 4070.7166 262912
3863.3867 970.21857 4045.5979 197120
0 0 0 0
0 0 0 0
0 0 0 0
0 0 0 0
-5649.957 1523.1962 6198.2485 196608
-5573.4307 1512.3962 6154.3013 256
-5567.7979 1520.8182 6188.5728 65536
-5532.3843 1521.1639 6189.979 256
-5543.4839 1534.3882 6243.792 256
-5466.4546 1523.2333 6198.3999 256
-5413.2651 1518.6151 6179.6074 0
-4699.8525 1327.4567 5401.7378 65536
-4620.4253 1313.9712 5346.8623 65536
0 0 0 0
-4667.7515 1345.8875 5476.7373 65536
-4665.0903 1354.5374 5511.936 65792
-4555.1343 1331.9359 5419.9653 65536
-4578.313 1348.219 5486.2246 65536
-4529.1128 1343.2683 5466.0796 65792
-4518.6348 1349.8135 5492.7134 65792
-4669.1108 1404.8829 5716.8042 65792
-4954.1851 1501.5524 6110.1753 65792
-4987.981 1522.9249 6197.145 65792
-4962.5234 1526.3894 6211.2427 256
-4934.7412 1529.1849 6222.6187 256
-4935.8125 1541.0314 6270.8242 256
-4922.5601 1548.5513 6301.4248 256
-4901.2891 1553.6445 6322.1504 256
-4898.4424 1564.7013 6367.1436 256
-4913.022 1581.5396 6435.6621 256
-4853.751 1574.6821 6407.7573 256
-4851.5498 1586.3774 6455.3486 0
-4793.9648 1580.0051 6429.418 197633
-4708.3701 1564.2253 6365.2061 526595
-4676.5498 1566.2 6373.2417 1710607
-4685.6899 1582.0363 6437.6831 3158305
-4677.5352 1592.2452 6479.2261 5000249
-4700.3394 1613.2491 6564.6953 5987142
-4845.5103 1676.9525 6823.9204 6447946
-5052.0083 1763.1309 7174.6006 6250566
-4574.0166 1609.8607 6550.9077 6053188
-4540.7319 1611.8245 6558.8979 5329464
-4417.8491 1581.7428 6436.4888 4802607
-4362.4536 1575.5106 6411.1284 4210725
-4316.2026 1572.5002 6398.8794 5658172
-4320.1382 1587.8828 6461.4746 5131829
-4402.6191 1632.6683 6643.7173 3947556
-4693.6611 1756.3029 7146.8159 3618594
-4267.7651 1611.4778 6557.4878 3683622
-4449.8535 1695.6713 6900.0913 3157534
-4332.0161 1666.076 6779.6611 2894362
-4200.0923 1630.4583 6634.7241 3354914
-4229.5645 1657.413 6744.4087 3420450
-4115.0991 1627.9398 6624.4756 3617826
-4057.9968 1620.8104 6595.4644 4012069
-4033.2217 1626.5797 6618.9414 4406313
-3963.96 1614.3451 6569.1558 4801326
-4006.5674 1647.8788 6705.6123 4998704
-3969.3794 1648.9363 6709.9155 5261877
-3942.5063 1654.3434 6731.9185 5261875
-3888.9426 1648.5469 6708.3306 5196080
-3878.3579 1661.0376 6759.1587 5064238
-3843.519 1663.2932 6768.3369 5130543
-3828.083 1674.0813 6812.2363 5525301
-3783.502 1672.2179 6804.6538 6052156
-3743.6094 1672.4092 6805.4321 6249534
-3798.6521 1715.4771 6980.686 5261101
-3784.3821 1727.8473 7031.0234 4077083
-3728.575 1721.3169 7004.4497 2234119
-3558.8762 1661.4691 6760.9146 4667679
-3691.4719 1742.9918 7092.6504 4931107
-3645.3274 1741.0254 7084.6479 4667935
-3570.1653 1724.9923 7019.4058 5128490
-3436.8596 1680.1575 6836.9614 5062954
-3349.1143 1656.7911 6741.8789 4207907
-3291.0962 1647.7441 6705.0645 3023379
-3226.7314 1635.2598 6654.2622 2431501
-3204.3901 1644.0267 6689.937 2168587
-3178.2673 1651.049 6718.5122 1708041
-3168.9304 1667.0797 6783.7456 1970955
-3138.7053 1672.3929 6805.3657 2037260
-3100.1465 1673.3459 6809.2446 2366482
-3049.8298 1667.8939 6787.0586 2564116
-3031.7976 1680.1881 6837.0864 2629653
-3007.8406 1689.4872 6874.9268 2498067
-2966.6323 1689.2186 6873.834 2432274
-2910.96 1680.592 6838.7305 2563860
-2852.3467 1670 6795.6289 2629653
-2795.8025 1660.3335 6756.293 2761239
-2753.1375 1658.7482 6749.8423 2695704
-2716.6257 1660.8781 6758.5093 2629910
-2670.9688 1657.3969 6744.3438 2629911
-2626.0422 1654.2701 6731.6201 2563861
-2589.0017 1656.0912 6739.0308 2367254
-2522.9341 1639.1111 6669.9341 2301718
-2487.6653 1641.9182 6681.3569 2367511
-2452.1768 1644.6689 6692.5503 2367511
-2406.7107 1640.708 6676.4326 2499096
-2368.7419 1641.8115 6680.9229 2630681
-2326.8135 1640.161 6674.2065 2630681
-2281.113 1635.7485 6656.2515 2564888
-2229.9033 1627.1608 6621.3062 2827290
-2192.4971 1628.5187 6626.8311 2827290
-2142.9512 1620.7441 6595.1953 2827290
-2100.7964 1618.3748 6585.5532 2761497
-2062.5835 1619.01 6588.1387 2695704
-2028.6517 1623.0948 6604.7607 2498325
-1983.7875 1618.4216 6585.7437 2432275
-1942.0612 1616.172 6576.5894 2366739
-1912.8324 1624.4436 6610.249 2498325
-1889.1976 1637.9111 6665.0518 2629911
-1832.9856 1623.1066 6604.8081 2695703
-1763.4823 1595.6298 6492.9985 2564118
-1725.1866 1595.7943 6493.6685 2432277
-1688.942 1597.9071 6502.2656 2234385
-1648.9595 1596.4993 6496.5366 2234386
-1619.7178 1605.672 6533.8628 1774091
-1591.3204 1616.1515 6576.5059 1840140
-1547.1779 1610.7646 6554.5859 2234898
-1514.7794 1617.6421 6582.5718 2563863
-1474.9388 1616.7255 6578.8418 2761242
-1425.8359 1605.3307 6532.4741 2761499
-1381.6948 1599.0424 6506.8853 2696476
-1349.9647 1607.1687 6539.9531 2630683
-1301.1274 1594.807 6489.6504 2564890
-1247.6521 1575.8341 6412.4453 2499097
-1213.4175 1580.7346 6432.3862 2433561
-1166.2642 1568.5776 6382.917 2367768
-1118.0049 1554.0684 6323.8755 2433304
-1076.1404 1547.7501 6298.165 2498842
-1044.8417 1556.7202 6334.666 2565149
-995.81085 1538.955 6262.375 2565148
-964.32959 1547.9857 6299.1235 2499356
-922.5191 1540.4952 6268.6431 2565149
-871.77423 1516.8312 6172.3481 2499354
-836.06464 1518.4001 6178.7329 2367767
-785.15265 1491.2394 6068.209 2235924
-751.77917 1496.3809 6089.1309 2170132
-717.20386 1499.5281 6101.9375 2367767
-690.3161 1519.9358 6184.9814 2236184
-658.74353 1531.7385 6233.0098 2301977
-612.79535 1509.5311 6142.6426 2433050
-568.19373 1488.0458 6055.2134 2433563
-535.30066 1496.3942 6089.1851 2367770
-498.70956 1494.8649 6082.9619 2367770
-457.33929 1477.6556 6012.9336 2301977
-432.60117 1515.817 6168.2212 2301977
-396.35489 1516.9764 6172.939 2236184
-360.60199 1520.4518 6187.0811 2170391
-321.81461 1510.4711 6146.4673 2170391
-286.77295 1517.7676 6176.1587 2236184
-251.07414 1523.212 6198.3135 2170136
-214.58527 1524.9076 6205.2134 2104857
-179.61646 1540.3402 6268.0122 2170136
-142.32291 1538.6854 6261.2783 2301979
-106.6245 1559.1898 6344.7158 2367772
-69.354355 1566.5273 6374.5732 2236186
-31.644711 1569.6157 6387.1411 2367515
6.1806936 1564.3082 6365.5439 2433565
43.388592 1546.1169 6291.5186 2565151
81.360535 1559.3832 6345.5024 2367772
121.8377 1597.1029 6498.9932 2302232
158.33058 1577.0205 6417.2725 2367771
197.92557 1589.6305 6468.5854 2565149
234.67357 1578.9929 6425.2988 2630942
275.58011 1595.3999 6492.063 2696735
315.89914 1604.803 6530.3262 2696734
348.85562 1578.8326 6424.6475 2630942
368.1889 1502.3837 6113.5581 2828321
433.76129 1611.407 6557.2002 2894116
469.27237 1600.0092 6510.8188 2828323
500.83087 1577.89 6420.811 2696737
538.5274 1576.8672 6416.6484 2696481
575.45825 1573.885 6404.5137 2630942
607.87714 1559.6949 6346.771 2696734
652.12787 1575.7478 6412.0942 2762528
684.28204 1562.4135 6357.833 2696735
728.53674 1576.6577 6415.7964 2565149
775.27582 1594.5991 6488.8042 2499356
826.38763 1619.4139 6589.7817 2433563
855.24109 1600.3395 6512.1631 2433565
886.59448 1587.3878 6459.4604 2433565
938.30835 1610.4536 6553.3203 2367772
997.56061 1644.1105 6690.2778 2367772
1025.6658 1625.822 6615.8579 2367772
1054.3424 1609.7527 6550.4683 2301979
1108.8358 1632.8414 6644.4219 2236186
1052.1127 1496.1881 6088.3467 2301979
1156.2981 1589.8344 6469.4155 2367772
1209.084 1609.0673 6547.6787 2499358
1274.8624 1643.8573 6689.248 2499357
1310.5288 1638.8926 6669.0449 2433565
1323.9598 1607.2256 6540.1846 2499358
1345.4839 1586.9052 6457.4956 2433564
1399.144 1604.5626 6529.3481 2433565
1422.2892 1587.2161 6458.7612 2433565
1516.9329 1648.4777 6708.0488 2433564
1553.7725 1645.3979 6695.5171 2433565
1568.3549 1619.4888 6590.0859 2433565
1604.0734 1616.1333 6576.4321 2499358
1634.8801 1608.1057 6543.7656 2433565
1674.9064 1609.3083 6548.6597 2433565
1720.5667 1615.7476 6574.8623 2433565
1773.0962 1628.2095 6625.5728 2433565
1792.5779 1610.4412 6553.27 2433310
1826.299 1605.9481 6534.9863 2433310
1873.2705 1613.0514 6563.8911 2367516
1913.3654 1614.0646 6568.0142 2301724
1935.6385 1600.3032 6512.0161 2301724
1955.0333 1584.7468 6448.7129 2433309
1993.2583 1584.7577 6448.7573 2301724
2032.5599 1585.6082 6452.2183 2301724
2060.9001 1578.0341 6421.3975 2301724
2145.9651 1613.3813 6565.2339 2235931
2218.2256 1638.0146 6665.4727 2235931
2231.2822 1618.8326 6587.4165 2301724
2248.0701 1602.9709 6522.8711 2170138
2267.8801 1589.7638 6469.1284 2170138
2537.5579 1749.2395 7118.0732 2235931
2490.7742 1688.9177 6872.6094 2235931
2481.5059 1655.5653 6736.8906 2301724
2504.301 1644.3219 6691.1387 2235931
2513.5281 1624.6592 6611.1265 2235674
2542.0845 1617.902 6583.6294 2236188
2569.7498 1610.7904 6554.6904 2367517
2573.5469 1589.1521 6466.6392 2367517
2592.6423 1577.4569 6419.0483 2433310
2655.4697 1592.323 6479.5425 2367517
2676.1941 1581.8785 6437.0415 2301724
2728.4272 1590.0906 6470.4585 2367261
2765.7837 1589.5255 6468.1587 2301724
2878.2805 1631.5693 6639.2451 2367260
2933.7222 1640.5735 6675.8853 2367517
2985.0449 1647.0652 6702.3018 2367517
3000.6116 1633.9164 6648.7959 2433309
3041.2969 1634.609 6651.6147 2367516
3100.6116 1645.1685 6694.5835 2367772
3138.0867 1644.0195 6689.9082 2433821
3171.7478 1640.9263 6677.3208 2565151
3164.8203 1617.1687 6580.646 2630944
3221.4465 1626.0695 6616.8647 2630944
3284.9546 1638.188 6666.1777 2762530
3326.6179 1639.254 6670.5161 2893348
3281.2815 1597.9279 6502.3501 2828323
3436.3401 1654.0172 6730.5903 2630943
3428.3115 1631.2212 6637.8281 2630944
3409.1394 1603.7001 6525.8389 2630943
3452.9785 1606.1055 6535.6265 2565148
3466.6677 1594.5889 6488.7632 2367770
3523.9844 1603.1727 6523.6924 2367769
3538.1086 1592.1338 6478.772 2236183
3643.759 1622.076 6600.6147 2236184
3658.3606 1611.2809 6556.687 2170134
3660.9216 1595.4655 6492.3301 1973012
3668.7842 1582.2654 6438.6152 2038805
3692.033 1575.9043 6412.7305 1841426
3756.5784 1587.1202 6458.3711 1709839
3813.3015 1594.8385 6489.7788 1578254
