# .PCD v0.7 - Point Cloud Data file format
VERSION 0.7
FIELDS x y z rgb
SIZE 4 4 4 4
TYPE F F F U
COUNT 1 1 1 1
WIDTH 1298
HEIGHT 1
VIEWPOINT 0 0 0 1 0 0 0
POINTS 1298
DATA ascii
3536.4578 820.71313 3797.502 131585
3540.8953 816.5473 3778.2266 65792
3564.2356 816.76569 3779.2371 131584
3868.2358 880.89465 4075.9666 131328
3877.4629 877.51697 4060.3379 65536
0 0 0 0
0 0 0 0
0 0 0 0
0 0 0 0
0 0 0 0
0 0 0 0
0 0 0 0
-4724.3203 1173.698 5285.8657 66048
-4658.1113 1164.9728 5246.5708 65792
-4625.2896 1164.5361 5244.6045 196864
-4586.0396 1162.4644 5235.2739 262144
-4555.2549 1162.5247 5235.5454 393216
-4474.5205 1149.751 5178.0181 458752
-4750.6206 1229.1245 5535.4844 524544
-4718.9902 1229.4291 5536.8564 787456
-4430.7871 1162.4258 5235.1001 721664
-4621.4761 1221.0017 5498.9028 655872
-4569.2861 1215.7847 5475.4077 590080
-4546.0083 1218.2411 5486.4702 525056
-4472.3188 1207.1263 5436.4136 590592
-4498.2236 1222.9265 5507.5713 328448
-4558.8047 1248.4542 5622.5381 197120
-4523.1709 1247.8148 5619.6582 196864
-4632.7065 1287.511 5798.4341 66304
-4488.2593 1256.6866 5659.6138 66304
-4566.1533 1288.1211 5801.1816 1024
-4593.8076 1305.7522 5880.585 132352
-4666.0063 1336.411 6018.6602 724736
-4632.7686 1337.111 6021.8125 790272
-4562.9175 1327.1726 5977.0537 921857
-4521.0771 1325.2894 5968.5728 790528
-4509.1953 1332.2279 5999.8208 1974539
-4580.6919 1364.106 6143.3872 1710851
-4514.5518 1355.1792 6103.1846 789760
-4510.0078 1364.7477 6146.2769 263936
-4399.8799 1342.2615 6045.0083 658432
-4372.7734 1344.9412 6057.0767 66048
-4364.0195 1353.3567 6094.9766 768
-4312.7456 1348.6167 6073.6294 768
-4278.9478 1349.3074 6076.7402 768
-4247.7314 1350.8309 6083.6016 1024
-4292.2832 1376.682 6200.0244 768
-4317.4092 1396.6949 6290.1548 1024
-4330.5181 1413.1353 6364.1953 1024
-4283.3032 1410.0065 6350.1045 1024
-4272.7441 1418.9958 6390.5889 1024
-4247.6143 1423.2635 6409.8096 768
-4261.1372 1440.6769 6488.2319 1024
-4166.3721 1421.462 6401.6958 791552
-4116.8999 1417.4888 6383.8022 1383424
-4011.4805 1394.0001 6278.0186 1054720
-3928.3667 1377.8955 6205.4897 1909510
-3983.8123 1410.5463 6352.5356 329984
-4034.1675 1442.0002 6494.1919 768
-4032.6428 1455.3373 6554.2568 66304
-4050.9927 1476.176 6648.106 1316608
-4010.0632 1475.6105 6645.5591 131840
-4003.1628 1487.6799 6699.9146 527104
-4030.0879 1512.6874 6812.5386 1842433
-4008.6353 1519.8586 6844.835 1973762
-4015.8972 1538.175 6927.3242 197632
-4001.2634 1548.3964 6973.3569 327936
-3958.085 1547.6697 6970.0845 327936
-3898.4292 1540.4166 6937.4199 589824
-3853.8264 1539.0206 6931.1328 983808
-3447.3086 1391.5074 6266.7925 6902819
-3843.2502 1568.2218 7062.6431 6177806
-3788.6199 1562.9491 7038.897 4993539
-3782.6145 1577.8418 7105.9678 3285511
-3762.1104 1586.9539 7147.0049 4471062
-3735.4827 1593.661 7177.2114 7497540
-3804.1697 1641.6548 7393.356 11641213
-3772.0554 1646.76 7416.3481 14079149
-3876.9509 1712.5051 7712.4375 13817261
0 0 0 0
-3661.2317 1656.2649 7459.1538 13750953
-4110.1763 1882.0786 8476.1289 13750696
-4085.5515 1893.9459 8529.5742 13618854
-4012.2249 1883.251 8481.4082 13355680
-3947.043 1876.1562 8449.4561 13553060
-4007.3987 1929.3176 8688.874 13487526
-3913.3926 1908.5798 8595.4795 13422243
-3862.4607 1908.5798 8595.4795 13488035
-3766.0327 1885.798 8492.8789 13488036
-3735.4668 1895.8256 8538.0391 13553316
-3683.781 1895.2623 8535.5029 13618850
-3662.4097 1910.4972 8604.1143 13618850
-3585.5759 1896.8215 8542.5254 13619105
-3496.4724 1876.1707 8449.5215 13553315
-3478.1216 1893.4363 8527.2793 13816230
-3382.8318 1868.7092 8415.918 13882025
-3319.0989 1860.9355 8380.9082 13486754
-3281.6685 1867.8964 8412.2578 12499344
-3262.5742 1885.67 8492.3027 10852208
-3211.8862 1885.4542 8491.3311 8877393
-3184.3889 1899.0615 8552.6133 5784095
-3160.5388 1915.3195 8625.832 7889215
-2979.2065 1835.1072 8264.5879 9271380
-2837.6201 1777.1053 8003.3706 8614480
-2784.9783 1773.7814 7988.4014 8351824
-2832.198 1835.0452 8264.3086 8483671
-2694.0083 1776.2202 7999.3848 8483671
-2703.1501 1814.1671 8170.2817 8220501
-2656.4348 1815.3264 8175.5034 8088658
-2659.396 1851.1072 8336.6455 7892305
-2594.97 1840.4489 8288.6445 8023891
-2562.3755 1852.3907 8342.4258 8221270
-2573.8809 1897.3103 8544.7256 8483929
-2507.8667 1885.7432 8492.6318 8681050
-2382.6631 1828.2845 8233.8613 8746844
-2329.6912 1825.0078 8219.1045 8878430
-2297.6685 1838.3522 8279.2021 8878430
-2234.0884 1826.4795 8225.7324 8944223
-2195.0261 1834.5686 8262.1621 8878175
-2146.3962 1834.848 8263.4209 8615775
-2107.8735 1843.9822 8304.5576 8286810
-2036.0348 1823.7114 8213.2656 8221273
-1986.3761 1822.8011 8209.166 8287323
-1933.3392 1818.6676 8190.5503 8287323
-1877.4259 1811.5454 8158.4756 8353116
-1827.6427 1810.1183 8152.0483 8616288
-1757.7603 1788.1666 8053.1865 8155738
-1706.948 1784.9315 8038.6167 8155483
-1657.5531 1783.0354 8030.0771 8023897
-1612.9519 1786.3358 8044.9414 8023640
-1554.4517 1773.9755 7989.2754 8023641
-1515.9365 1784.3627 8036.0547 7893083
-1487.7203 1807.9391 8142.2339 7761496
-1430.1875 1796.2751 8089.7036 7695704
-1381.9376 1795.8655 8087.8594 7629910
-1314.312 1769.3429 7968.4116 7498838
-1284.2018 1793.2288 8075.9844 7564631
-1221.8643 1772.2209 7981.3735 7433045
-1182.9987 1784.9359 8038.6372 7564120
-1126.4478 1770.9146 7975.4902 7564377
-1076.7018 1766.832 7957.1035 7630170
-1023.4888 1756.4255 7910.2373 7761756
-969.58771 1743.7827 7853.2988 7761755
-917.26154 1732.8402 7804.0186 7564377
-873.66724 1738.1077 7827.7407 7498585
-830.33984 1744.5266 7856.6489 7301206
-783.51703 1743.9277 7853.9521 7366999
-734.53613 1738.1464 7827.9155 7498585
-673.9328 1702.2297 7666.1616 7432792
-626.60291 1697.0712 7642.9287 7432791
-591.59863 1727.0912 7778.1274 7432791
-542.70868 1718.222 7738.1841 7498585
-502.18066 1736.6328 7821.0986 7630171
-457.49387 1742.943 7849.5176 7630170
-400.71796 1699.4127 7653.4746 7630427
-361.15662 1727.0942 7778.1411 7499098
-313.46811 1718.3242 7738.6445 7630427
-272.22632 1747.9425 7872.0337 7696476
-222.30026 1722.5187 7757.5342 7630684
-176.67395 1725.8417 7772.5005 7564891
-131.25264 1734.217 7810.2192 7696477
-85.152855 1737.8683 7826.6626 7564891
-38.529621 1726.7931 7776.7852 7433305
7.6618338 1752.1499 7890.9814 7433305
54.630615 1758.9612 7921.6572 7564634
101.73727 1761.8645 7934.7324 7564891
148.16261 1754.863 7903.2002 7630427
196.42847 1767.7886 7961.4121 7564891
239.63423 1738.9875 7831.7041 7696220
287.34045 1746.8922 7867.3037 7630684
331.72546 1735.2174 7814.7246 7564637
374.69562 1719.9083 7745.7783 7564636
426.05447 1742.2438 7846.3687 7498587
471.64178 1738.905 7831.332 7301465
511.91837 1718.3381 7738.7065 7169879
562.58649 1733.166 7805.4858 7301465
607.25208 1728.6539 7785.1646 7169879
652.80017 1727.1136 7778.2285 7235672
697.97534 1724.8551 7768.0571 7169879
743.73151 1724.223 7765.21 7235672
789.93835 1724.6484 7767.126 7301465
831.69763 1715.8513 7727.5073 7169879
876.62854 1714.1742 7719.9546 7235672
931.99548 1732.0582 7800.4966 7169879
1011.3312 1790.6919 8064.5591 7235673
1054.924 1783.6028 8032.6323 7367258
1119.7312 1811.4453 8158.0239 7301464
1199.522 1860.2198 8377.6855 7301466
1241.728 1849.1478 8327.8213 7630430
1276.9457 1828.9126 8236.6904 7301466
1367.2344 1886.1398 8494.418 7498844
1432.0975 1905.473 8581.4873 7038294
1499.5609 1926.8215 8677.6328 6709842
1557.8977 1935.4164 8716.3398 6183244
1630.3907 1960.4819 8829.2256 5986120
1687.4594 1966.0182 8854.1592 5591618
1749.764 1977.1372 8904.2344 5393982
1807.6096 1982.7142 8929.3506 4801334
1813.4207 1932.5217 8703.3047 4538418
1885.6354 1953.9135 8799.6436 4275247
1918.1238 1934.0968 8710.3975 4012076
1963.5725 1928.0446 8683.1406 3682856
1995.0131 1908.8977 8596.9111 3551013
2029.9546 1893.9709 8529.6865 3354405
2027.7832 1845.9835 8313.5703 3091234
1994.5469 1772.6633 7983.3657 3156258
2115.9038 1836.9528 8272.9004 2958623
2060.4827 1748.3339 7873.7954 2827293
2122.7478 1761.2854 7932.124 3090467
2075.748 1684.9805 7588.478 3025444
2143.9395 1703.4351 7671.5894 2959397
2147.8047 1671.075 7525.8525 3090982
2206.3284 1681.6925 7573.6699 2959909
2150.4639 1606.4368 7234.7476 2959909
2220.2014 1626.1157 7323.374 2828323
2120.7329 1523.4867 6861.1738 2696481
2218.0813 1563.4478 7041.1426 2499102
2141.9033 1481.8788 6673.7886 2367773
2151.928 1461.8254 6583.4766 2301723
2217.0178 1479.2262 6661.8428 2301724
2291.2097 1501.9852 6764.3403 2433308
2287.7017 1473.9019 6637.8638 2564895
2369.1956 1500.6064 6758.1309 2696482
2449.2615 1525.5338 6870.3936 2696482
2471.3655 1514.1348 6819.0566 2564896
2543.7979 1533.4409 6906.0039 2499104
2639.5249 1565.9558 7052.438 2433309
2651.2151 1548.3777 6973.2734 2367517
2644.55 1520.7834 6849 2433310
2721.6655 1541.4745 6942.1836 2499103
2764.1875 1542.248 6945.668 2499103
2799.1787 1538.8591 6930.4053 2630689
2832.8098 1534.8312 6912.2651 2564896
2884.8442 1540.7469 6938.9072 2564895
3017.325 1588.8578 7155.5791 2499360
2952.0352 1532.9365 6903.7324 2368287
2967.8411 1520.08 6845.8315 2368287
2991.6096 1511.5935 6807.6118 2434080
3014.9956 1503.142 6769.5498 2434080
3042.095 1496.7396 6740.7158 2368286
3077.332 1494.455 6730.4268 2368030
3110.4644 1491.2198 6715.8569 2368030
3124.9482 1479.2388 6661.8989 2236444
3162.0291 1478.12 6656.8604 2170650
3204.1946 1479.3762 6662.5181 2170393
3214.7529 1466.1864 6603.1167 2038807
3237.9661 1459.0161 6570.8242 1775379
3266.8372 1454.5353 6550.6445 1775377
3279.3149 1442.9465 6498.4531 1775631
3345.7976 1455.1138 6553.2495 1907727
3315.8733 1425.5547 6420.1274 1447175
3321.3118 1411.6968 6357.7173 328704
3273.6306 1375.8251 6196.1655 131584
3276.46 1361.7419 6132.7402 460288
3280.3337 1348.3969 6072.6396 461056
3283.7505 1335.1558 6013.0068 132096
3292.6296 1324.3959 5964.5488 66304
3294.9995 1311.2743 5905.4541 66304
3298.2573 1298.7781 5849.1763 768
3253.1082 1267.6781 5709.1147 1024
3242.6331 1250.5914 5632.1631 1024
3264.5259 1246.2091 5612.4268 1024
3218.4734 1216.2389 5477.4531 1024
3234.457 1210.0763 5449.6992 1280
3213.335 1190.2906 5360.5928 1536
3216.5542 1179.8207 5313.4399 1280
3216.0574 1168.2037 5261.1221 1280
3226.197 1160.6366 5227.0425 1280
3230.1172 1150.9969 5183.6294 1280
3253.6802 1148.4724 5172.2603 1280
3225.7729 1127.9967 5080.0459 1280
3252.8184 1126.9381 5075.2783 1280
3297.439 1131.9319 5097.7681 1280
3312.1147 1126.649 5073.9761 1024
3304.2776 1113.8721 5016.4341 1024
3297.5767 1101.7026 4961.6274 1024
3289.4568 1089.2783 4905.6733 1024
3291.6362 1080.4523 4865.9243 1024
3105.925 1010.6417 4551.5254 1024
3112.7075 1004.1294 4522.1968 1024
3126.4666 999.95984 4503.4189 1024
3122.8345 990.3454 4460.1191 1024
3193.0664 1004.1204 4522.1562 1024
3522.5232 1098.506 4947.231 1024
3167.7905 979.72858 4412.3052 1024
3136.4724 962.10199 4332.9224 1024
3141.6653 955.87048 4304.8579 1024
3147.8782 950.04712 4278.6318 1024
3126.9551 936.19244 4216.2358 768
3388.7449 1006.5291 4533.0039 512
3481.5457 1025.9609 4620.5171 768
3906.1394 1142.1012 5143.5664 768
4003.8787 1161.6152 5231.4502 512
4009.28 1154.2461 5198.2622 512
3855.2637 1101.4437 4960.4614 256
3838.3022 1088.3005 4901.27 66048
3169.8406 892.01776 4017.2908 66048
3308.7151 924.15802 4162.0376 66048
3296.4883 913.93097 4115.979 197632
3293.2808 906.33618 4081.7754 131840
3298.9265 901.27087 4058.9634 131584
3284.3364 890.79053 4011.7639 131584
3288.9839 885.64087 3988.572 131584
3291.5205 880.00055 3963.1702 197377
3301.6768 876.46271 3947.2373 197377
3305.2783 871.24689 3923.7471 131584
3321.6238 869.43976 3915.6084 65792
3363.9846 874.41986 3938.0369 131584
3340.0625 862.22095 3883.0977 131584
3368.6404 863.64856 3889.5273 131584
3374.4021 859.24713 3869.7051 65792
3401.4734 860.29462 3874.4226 131584
3432.7744 862.39062 3883.8623 131584
3434.573 857.09656 3860.0198 65792
3450.2844 855.32135 3852.0249 65792
3465.9175 853.55023 3844.0486 65792
3479.6379 851.33441 3834.0693 131584
3496.1321 849.82147 3827.2556 65792
3510.3638 847.78156 3818.0688 131584
3527.835 846.54517 3812.5005 131584
3516.6372 838.48895 3776.2185 131584
3523.8486 834.896 3760.0374 66048
3551.6199 836.1889 3765.8601 65792
3870.3086 905.53137 4078.1506 196864
3879.6541 902.08563 4062.6326 131328
0 0 0 0
0 0 0 0
0 0 0 0
0 0 0 0
0 0 0 0
-4915.9463 1237.488 5428.2935 65536
-4753.2744 1204.4192 5283.2354 65792
-4705.5342 1200.2272 5264.8472 65792
-4654.6089 1195.1614 5242.6255 196864
-4614.4775 1192.8176 5232.3447 262144
-4694.5127 1221.7148 5359.1035 262144
-4555.4653 1193.6025 5235.7876 393216
-4893.4717 1290.9573 5662.8384 458752
-4871.939 1294.1506 5676.8462 524800
-4881.1909 1305.6227 5727.1689 984832
-4853.4009 1307.2781 5734.4302 853248
-4793.709 1300.3032 5703.835 853248
-4917.2598 1343.2875 5892.3867 852992
-5134.4287 1412.6436 6196.6206 524800
-4784.5977 1325.8759 5816.0098 459264
-5239.2559 1462.4009 6414.8828 197120
-4751.9707 1336.0812 5860.7764 197120
-4628.1089 1310.8354 5750.0347 768
-4665.4136 1331.2014 5839.3706 66304
-4575.1396 1315.1973 5769.168 1024
-4563.5063 1321.7286 5797.8184 132096
-4574.2632 1334.8934 5855.5659 1383168
-4602.1504 1353.2968 5936.293 1449217
-4551.3706 1348.6726 5916.0088 68096
-4504.4453 1345.1278 5900.4595 1778440
-4493.6958 1352.4149 5932.4248 1777934
-4560.2803 1383.2748 6067.7925 197888
-4585.9478 1402.1151 6150.4365 658944
-4517.6934 1392.3113 6107.4316 527104
-4486.9712 1394.0098 6114.8823 329472
-4393.0684 1375.947 6035.6494 131072
-4385.3291 1384.7968 6074.4688 197120
-4340.0815 1381.8502 6061.5439 262656
-4262.3032 1368.4106 6002.5908 394752
-4240.6226 1372.9066 6022.3125 723200
-4232.8003 1382.0038 6062.2173 66304
-4198.0591 1382.3923 6063.9219 592640
-4184.4438 1389.8042 6096.4341 658688
-4259.229 1426.9618 6259.4277 132352
-4230.9121 1429.9266 6272.4331 1024
-4238.0098 1445.0194 6338.6382 132608
-4212.3794 1449.123 6356.6392 264960
-4193.6802 1455.7064 6385.5176 1186816
-4170.7593 1460.9312 6408.436 2173706
-4158.9243 1470.1709 6448.9663 1120512
-4133.5142 1474.7385 6469.0024 2107914
-3948.251 1421.8262 6236.8999 1712645
-4028.9775 1464.6061 6424.5557 1053696
-4041.9983 1483.3547 6506.7979 394752
-4067.2751 1507.006 6610.5449 1907972
-3996.4041 1495.1459 6558.5205 2696972
-4010.3574 1515.0992 6646.0464 657408
-4082.6924 1557.7236 6833.02 1446144
-4090.158 1576.2032 6914.082 2629897
-4041.7815 1573.3198 6901.4336 2564364
-4046.0676 1591.0864 6979.3672 1840133
-4021.1787 1597.6287 7008.0649 590592
-4010.9309 1610.1851 7063.1445 2627843
-3952.9761 1603.6526 7034.4893 5523497
-3924.1045 1608.905 7057.5293 9669219
-3263.1123 1352.3057 5931.9458 12893066
0 0 0 0
-4303.7017 1822.8185 7995.8701 13684378
-4256.6455 1822.9567 7996.4761 13751200
-4215.1304 1825.4977 8007.6221 13750689
-4028.6924 1764.6185 7740.5728 13685157
-3895.4663 1725.913 7570.7896 13684390
-3784.8013 1696.4178 7441.4082 13816233
-3795.4614 1721.2487 7550.3296 13685417
-3793.4438 1740.8539 7636.3286 13619369
-3756.3442 1744.6385 7652.9302 13685161
-3809.9802 1791.173 7857.0552 13553575
-3749.854 1784.7145 7828.7251 13553317
-3759.2407 1811.5927 7946.627 13487267
-3701.9783 1806.627 7924.8447 12960923
-3747.1499 1852.1652 8124.6001 13421476
-3744.1724 1874.7797 8223.7998 13618853
-3718.1177 1886.2831 8274.2598 13619368
-3647.8542 1875.3661 8226.3721 13619365
-3651.844 1902.8439 8346.9043 13750952
-3693.6543 1951.0538 8558.3799 13816232
-3648.3015 1953.924 8570.9697 13684389
-3633.4802 1973.458 8656.6562 13156502
-3551.7246 1956.6763 8583.043 10719595
-3417.3655 1910.0066 8378.3242 7099699
-3289.7585 1865.7903 8184.3672 3809548
-2971.2068 1710.3363 7502.4614 7692098
-2974.9521 1738.5035 7626.0186 7429949
-3128.6421 1856.5159 8143.6846 8286285
-3020.7053 1820.5461 7985.9019 8286801
-2941.6284 1801.1019 7900.6089 8747354
-2855.8496 1776.8586 7794.2651 8812635
-2850.0825 1802.4188 7906.3862 8746587
-2758.9924 1773.9724 7781.605 8680795
-2736.7031 1789.5485 7849.9297 8615257
-2703.6912 1798.5302 7889.3281 8615001
-2649.2573 1793.3273 7866.5049 8615001
-2599.2036 1790.9558 7856.1025 8615001
-2550.8472 1789.6887 7850.5444 8615001
-2496.021 1783.7512 7824.4995 8418649
-2441.7168 1777.969 7799.1357 8418649
-2394.7134 1777.3822 7796.5615 8352856
-2370.4807 1794.0057 7869.481 8418136
-2328.123 1797.3037 7883.9482 8746844
-2272.6147 1790.3767 7853.563 8747101
-2207.4204 1775.3701 7787.7354 8681308
-2180.5491 1791.2028 7857.186 8418138
-2113.5962 1774.083 7782.0898 8352601
-2073.2913 1779.066 7803.9482 8352346
-2023.0161 1775.5259 7788.4189 8221018
-1983.4849 1781.4701 7814.4932 8155226
-1950.0973 1793.3481 7866.5972 8287069
-1886.8049 1777.6338 7797.665 8418655
-1830.0723 1767.4656 7753.062 8089690
-1798.1681 1781.3701 7814.0552 7365967
-1763.7532 1793.457 7867.0742 7366224
-1703.1844 1778.8837 7803.1479 7497810
-1667.0823 1789.764 7850.875 7695191
-1626.9163 1796.781 7881.6553 7826777
-1579.1466 1795.567 7876.3301 7629655
-1513.8304 1773.7202 7780.4985 7366996
-1456.2926 1759.9009 7719.8794 7432535
-1429.8489 1783.9806 7825.5059 7564120
-1382.7754 1783.0726 7821.5225 7564120
-1343.4784 1792.4769 7862.7749 7432534
-1282.0879 1772.0206 7773.043 7366741
-1251.7283 1794.527 7871.7676 7366741
-1186.7727 1767.2578 7752.1509 7366741
-1089.2573 1687.3547 7401.6523 7234900
-1090.6489 1760.3907 7722.0273 7366997
-1031.9226 1738.5389 7626.1743 7564378
-973.02252 1714.3796 7520.1982 7629914
-949.40295 1753.046 7689.8096 7564378
-887.00098 1720.39 7546.563 7301206
-825.72729 1686.5715 7398.2163 7301205
-793.7702 1712.1978 7510.6274 7235413
-734.98651 1679.5653 7367.4834 7235412
-683.97089 1661.6837 7289.0449 7301206
-654.80334 1698.0482 7448.5596 7301205
-602.81134 1676.2026 7352.7329 7301206
-563.33978 1688.4803 7406.5903 7367512
-519.68756 1689.2437 7409.9385 7499354
-475.35895 1687.7463 7403.3701 7367255
-430.9902 1685.7875 7394.7773 7498584
-385.5845 1678.8701 7364.4346 7564634
-342.44257 1681.302 7375.1016 7499098
-301.20218 1695.1469 7435.8325 7499354
-254.90714 1680.415 7371.2109 7499098
-213.48752 1698.3763 7449.999 7498841
-170.64177 1711.3989 7507.1235 7433048
-124.14333 1684.0551 7387.1782 7170389
-79.670464 1669.3693 7322.7588 7038547
-36.571426 1682.7708 7381.5444 7104340
7.1722689 1683.9633 7386.7749 7498841
52.139542 1723.554 7560.4414 7564891
97.098015 1726.3955 7572.9062 7696476
141.65581 1722.5685 7556.1187 7696477
186.67444 1724.8378 7566.0728 7696222
229.06223 1706.627 7486.1904 7893601
275.57492 1720.0719 7545.167 7828065
318.73007 1711.7314 7508.582 7564637
362.93704 1710.3912 7502.7026 7433308
401.26971 1684.6809 7389.9238 7170650
441.21088 1670.1185 7326.0449 6973015
487.57611 1680.3037 7370.7227 7104600
543.06775 1717.6805 7534.6777 7038294
568.50665 1661.545 7288.437 6972500
619.42322 1682.5411 7380.5371 6511693
661.03149 1677.151 7356.8936 6380363
717.67676 1708.2194 7493.1758 5985605
768.30933 1722.1897 7554.457 5787969
824.81775 1747.0674 7663.5845 5327420
878.00214 1762.6755 7732.0503 4998712
922.70862 1760.5598 7722.769 4735540
973.00714 1768.8092 7758.9561 4143403
1051.3544 1825.0029 8005.4521 3880489
1100.3223 1827.5481 8016.6162 3353890
1179.3241 1877.7021 8236.6191 2893855
1332.7062 2037.5909 8937.9785 2893600
1437.3829 2113.6377 9271.5605 3090722
1564.7449 2216.2151 9721.5205 2959906
1642.4119 2243.6223 9841.7432 2828323
1650.0697 2176.793 9548.5938 2894116
1766.0624 2252.5737 9881.0088 2894116
1561.0183 1927.1548 8453.5459 2828322
1488.0063 1779.9036 7807.6216 2762786
1490.9248 1729.6194 7587.0479 2828322
1520.2197 1711.9824 7509.6826 2762531
1532.7081 1676.9603 7356.0566 2630944
1777.176 1890.6692 8293.5 2762274
1706.4525 1766.58 7749.1768 2762530
1761.9094 1776.197 7791.3633 2762275
1788.7904 1757.2512 7708.2563 2762275
1818.3473 1741.8118 7640.5308 2762018
1884.5936 1761.4142 7726.5171 2762018
1823.8135 1664.1787 7299.9893 2630689
1801.5731 1605.8003 7043.9102 2630689
1833.0774 1596.8851 7004.8037 2696482
1832.6569 1561.1693 6848.1343 2762017
1926.9448 1605.9316 7044.4863 2828068
1900.6128 1550.4015 6800.9014 2828067
1931.6688 1543.019 6768.5176 2827810
2004.5708 1568.6833 6881.0957 2696738
1968.0765 1509.4229 6621.147 2696737
1924.8602 1447.4242 6349.1865 2762530
2058.3716 1518.1473 6659.417 2762273
2041.4369 1477.3362 6480.3975 2696481
2046.7646 1453.8452 6377.353 2696482
2096.864 1462.4315 6415.0171 2696482
2156.9072 1477.5236 6481.2192 2762274
2142.2319 1441.7994 6324.5137 2827811
2210.9373 1462.457 6415.1289 2893604
2248.8411 1462.3865 6414.8198 2828068
2303.3872 1472.9607 6461.2036 2893861
2317.2002 1457.5671 6393.6792 2893861
2378.7805 1472.2322 6458.0083 2762275
2400.7349 1462.2966 6414.4253 2696482
2453.7722 1471.3083 6453.9556 2564896
2504.7395 1478.8212 6486.9111 2564896
2550.9868 1483.3624 6506.8315 2499103
2575.3987 1475.2605 6471.292 2433310
2596.801 1465.6976 6429.3442 2499103
2644.4294 1470.9999 6452.603 2564896
2700.4092 1480.7305 6495.2861 2696482
2716.2271 1468.4747 6441.5259 2696483
2774.5913 1479.2418 6488.7563 2565666
2771.9861 1457.6537 6394.0591 2565666
2855.1938 1481.1641 6497.1885 2434080
2870.6736 1469.3816 6445.5044 2434080
2910.7454 1470.3312 6449.6694 2368287
2933.5032 1462.6233 6415.8589 2236701
2960.9438 1457.4178 6393.0244 2368287
3002.8708 1459.3839 6401.6489 2565666
3025.969 1452.2646 6370.4199 2565664
3079.0569 1459.5363 6402.3174 2236700
3076.9692 1440.795 6320.1079 2170907
3121.6333 1444.1328 6334.7495 2039321
3121.9448 1427.1168 6260.1074 2104343
3153.9343 1424.8109 6249.9927 1776149
3175.5735 1417.9369 6219.8398 1710356
3189.3962 1407.7708 6175.2451 1578771
3182.6506 1388.8594 6092.29 1644818
3232.2295 1394.6757 6117.8032 1381901
3217.6985 1373.0071 6022.7529 986886
3226.158 1361.5161 5972.3477 986368
3214.8069 1342.0051 5886.7617 854784
3204.8958 1323.5072 5805.6201 131584
3260.5144 1332.1765 5843.6484 196864
3238.7004 1309.3588 5743.5571 196864
3252.4143 1301.2294 5707.8975 131584
3196.2725 1265.6071 5551.6387 66304
3154.9934 1236.5359 5424.1167 1024
3146.03 1220.5887 5354.1636 1024
3139.1089 1205.7443 5289.0479 1024
3141.458 1194.719 5240.6851 1024
3162.3652 1190.8983 5223.9253 1024
3186.5781 1188.3842 5212.897 1024
3197.6963 1181.0819 5180.8657 1024
3193.3103 1168.2466 5124.5625 1024
3206.0164 1161.847 5096.4907 1024
3227.8074 1158.8284 5083.2495 1024
3268.5625 1162.6113 5099.8433 1280
3292.29 1160.3236 5089.8081 1024
3307.1099 1154.9666 5066.3091 1024
3319.1274 1148.736 5038.9785 1024
3302.6382 1132.8384 4969.2432 1024
3332.9507 1133.1333 4970.5371 1024
3327.7229 1121.4462 4919.2705 1024
3140.1333 1049.0393 4601.6548 1024
3094.0979 1024.7618 4495.1606 1024
3055.8237 1003.4473 4401.6636 1024
3017.5603 982.49695 4309.7642 1024
3076.189 993.18091 4356.6299 1024
3231.6758 1034.6985 4538.7485 1024
3202.9666 1017.0428 4461.3008 1024
3690.239 1162.1753 5097.9307 1024
3372.8508 1053.5951 4621.6392 1024
3638.9358 1127.5586 4946.083 1024
3379.9419 1038.9393 4557.3511 1024
3331.4651 1015.9216 4456.3828 768
3265.0264 987.83154 4333.1646 768
3744.1973 1123.9657 4930.3228 768
3958.0845 1178.9733 5171.6157 256
3568.5913 1054.7908 4626.8838 256
3835.916 1125.1615 4935.5679 0
3740.6816 1088.9249 4776.6147 197632
3710.1716 1071.9327 4702.0781 66048
3173.1621 909.94806 3991.5256 131840
3165.6177 901.06842 3952.5745 197632
3187.6245 900.66901 3950.8223 131840
3270.2837 917.28778 4023.7214 131584
3279.5378 913.22565 4005.9026 131584
3283.0525 907.63507 3981.3792 197376
3280.5161 900.46338 3949.9202 65792
3293.2134 897.5451 3937.1191 131585
3298.5916 892.68713 3915.8093 197377
3305.002 888.17426 3896.0139 65792
3311.7825 883.823 3876.9268 131584
3311.6328 877.69495 3850.0454 0
3356.3081 883.44952 3875.2883 0
3386.5754 885.35925 3883.6653 65792
3394.0767 881.33148 3865.9973 131584
3359.3154 866.45709 3800.7505 197376
3464.5942 887.66034 3893.7595 131584
3447.6848 877.48456 3849.123 65792
3449.7214 872.23279 3826.0857 65792
3469.6238 871.53729 3823.0349 131584
3490.7334 871.15216 3821.3455 131584
3518.1487 872.33551 3826.5361 131584
3523.1741 867.98755 3807.4636 0
3509.5181 859.12164 3768.5732 65792
3516.3569 855.35339 3752.0437 65792
3539.5457 855.58466 3753.0579 131585
3875.1309 930.85437 4083.2317 131584
3879.6541 926.15839 4062.6326 131328
0 0 0 0
0 0 0 0
0 0 0 0
0 0 0 0
-5001.0488 1283.2363 5486.3682 512
-5069.6904 1309.3606 5598.0605 512
-4978.7139 1294.3328 5533.8101 256
-4943.5605 1293.7144 5531.166 65792
-4912.5718 1294.1847 5533.1768 196608
-4860.8213 1289.155 5511.6733 196864
-4999.4663 1334.8945 5707.2285 393216
-5061.958 1360.7849 5817.9209 393216
-5039.7319 1364.1 5832.0938 458752
-4437.3452 1209.345 5170.4517 853504
-5194.9941 1425.6764 6095.3584 1050880
-5310.3335 1467.5321 6274.3091 984832
-5246.3521 1460.0725 6242.4165 919040
-5256.3076 1473.2301 6298.6704 853248
-4633.1157 1307.849 5591.5977 656384
-4418.4653 1256.2406 5370.9502 459264
-4555.2686 1304.5321 5577.4165 197120
-4495.5474 1296.8379 5544.5205 131584
-5182.5547 1506.0261 6438.8867 66304
-4696.3721 1374.8652 5878.1196 1024
-4588.9189 1353.4459 5786.5435 1024
-4525.9971 1344.9371 5750.1646 198656
-4554.6235 1363.7097 5830.4253 1711873
-4533.771 1367.8414 5848.0903 264192
-4427.376 1346.0299 5754.8369 198400
-4514.7563 1383.2495 5913.9663 395776
-4478.1021 1382.752 5911.8384 329984
-4419.4414 1375.3977 5880.3965 395776
-4477.1299 1404.424 6004.4956 329216
-4464.1812 1411.5797 6035.0894 197632
-4405.0688 1404.1364 6003.2656 197632
-4301.21 1382.1921 5909.4453 394752
-4344.043 1407.4141 6017.2798 394240
-4309.7041 1407.844 6019.1177 393472
-4290.5312 1413.2767 6042.3447 525056
-4269.0059 1418.0193 6062.6216 1183232
-4256.0776 1425.7224 6095.5552 1183744
-4179.4619 1412.0403 6037.0586 920576
-4171.4346 1421.4948 6077.4805 986112
-4168.4214 1432.8375 6125.9756 65792
-4192.7007 1453.8434 6215.7842 198144
-4154.1895 1453.2556 6213.271 659200
-4247.8008 1499.2909 6410.0913 857088
-4165.3457 1483.4521 6342.374 1975560
-3982.3599 1431.1962 6118.958 1909253
-4125.9575 1496.4271 6397.8472 2237959
-4174.9575 1528.2404 6533.8623 1974273
-4115.3511 1520.5217 6500.8618 3090961
-4101.9399 1529.8866 6540.9004 2498056
-4074.9487 1534.3168 6559.8413 1510144
-4171.5854 1585.8297 6780.0806 1247234
-4212.1675 1616.8279 6912.6104 525056
-4172.1636 1617.1986 6914.1953 2432265
-4147.1543 1623.4463 6940.9072 5063210
-4232.5024 1673.4525 7154.7041 8944723
-4218.6797 1684.8633 7203.4907 12762770
-4293.5635 1732.2976 7406.2915 14211245
-4456.2744 1816.5125 7766.3447 13817000
-4470.6484 1841.3872 7872.6953 13816485
-4400.9233 1831.7823 7831.6299 13816225
-4183.375 1759.7889 7523.8286 13750176
-4040.1057 1717.8276 7344.4268 13420956
-4114.0547 1768.318 7560.2939 13684122
-4135.7598 1797.2173 7683.8501 13749658
-4085.832 1795.2848 7675.5884 13815452
-4048.5728 1798.938 7691.2075 13814683
-3954.9453 1777.3425 7598.8774 13485723
-3872.3076 1760.2457 7525.7812 13288601
-3810.7236 1752.4321 7492.375 13485980
-3763.4243 1751.0809 7486.5981 13683874
-3730.1392 1756.2959 7508.894 13618852
-3690.7148 1758.7114 7519.2217 13421986
-3682.0308 1776.0132 7593.1943 13422243
-3714.5427 1813.8599 7755.0044 13619625
-3660.55 1809.8842 7738.0059 13685417
-3716.7722 1860.9919 7956.5137 13620138
-3701.5398 1877.1763 8025.708 13882798
-3668.7776 1884.7761 8058.2007 14144943
-3827.3525 1992.1689 8517.3496 13024920
-3837.9578 2024.3833 8655.0791 12826003
-3829.3181 2047.1816 8752.5518 7890243
-3815.2605 2067.6699 8840.1475 5455905
-4079.4771 2241.6377 9583.9326 6245170
-3564.1094 1986.0952 8491.3818 8811609
-3469.283 1960.9362 8383.8164 9272675
-3370.1433 1932.5725 8262.5498 9207394
-3247.5889 1889.7479 8079.457 9010015
-3184.3196 1880.6554 8040.583 8681050
-3061.625 1835.6572 7848.1968 8615769
-3027.9783 1843.4846 7881.6626 8747099
-2932.0967 1813.0743 7751.6455 8616028
-2873.3723 1805.0378 7717.2866 8484441
-2775.7629 1771.9191 7575.6904 8418649
-2760.9482 1791.433 7659.1196 8549723
-2703.6631 1783.5813 7625.5508 8418394
-2653.2407 1780.0673 7610.5269 8484186
-2568.6257 1753.0952 7495.21 7497292
-2465.3794 1712.234 7320.5117 7825229
-2469.6367 1745.9091 7464.4863 8089172
-2430.9277 1749.8835 7481.4785 7891793
-2367.0471 1735.5492 7420.1938 7760464
-2320.1799 1733.3829 7410.9316 8023636
-2292.7546 1745.9381 7464.6104 8089429
-2254.1418 1750.3005 7483.2612 7628878
-2242.7192 1776.3741 7594.7373 7760465
-2185.7737 1766.7203 7553.4634 7365708
-2145.2048 1770.1765 7568.2397 7299915
-2117.1252 1784.3064 7628.6504 7694417
-2071.1011 1783.5989 7625.6255 7760466
-2016.4543 1775.2688 7590.0117 7760467
-2002.26 1802.9851 7708.5098 7826517
-1927.5553 1776.2352 7594.1436 7957847
-1847.0873 1742.7688 7451.0601 7892310
-1796.4558 1736.5042 7424.2759 7629139
-1762.2574 1746.2083 7465.7656 7694932
-1758.0964 1786.9426 7639.9219 7760468
-1719.0442 1793.4288 7667.6533 7563860
-1677.7889 1797.9069 7686.7983 7498324
-1588.6998 1749.9457 7481.7446 7498325
-1531.5842 1735.4607 7419.8154 7498325
-1490.7303 1739.0907 7435.3354 7498325
-1491.8674 1793.4204 7667.6167 7564119
-1424.2871 1765.9609 7550.2163 7498327
-1382.509 1769.75 7566.4165 7366741
-1339.1837 1771.7462 7574.9507 7432534
-1273.2727 1742.9635 7451.8926 7498327
-1214.6635 1722.467 7364.2617 7564120
-1168.5485 1718.8209 7348.6733 7564377
-1115.4247 1704.1846 7286.0967 7498327
-1059.9913 1684.6985 7202.7856 7432791
-1034.7052 1713.5023 7325.9341 7564376
-984.82477 1702.3162 7278.1089 7301206
-933.21411 1686.9779 7212.5312 7169620
-890.71436 1687.4277 7214.4541 7169620
-833.21564 1658.0751 7088.96 7103827
-793.68835 1663.2676 7111.1597 6643276
-757.76093 1677.0087 7169.9087 6840655
-707.87665 1659.6597 7095.7344 6840655
-672.45038 1676.158 7166.271 6906448
-633.74835 1686.1646 7209.0537 7235412
-583.66553 1665.1492 7119.2041 7432793
-541.71216 1665.8589 7122.2383 7301462
-501.26926 1671.7258 7147.3218 7367255
-455.52927 1659.3796 7094.5371 7235669
-411.83472 1652.7316 7066.1138 7301208
-369.62943 1651.2318 7059.7017 7235928
-332.74091 1676.1317 7166.1592 7433050
-288.87735 1668.0409 7131.5679 7104085
-248.76447 1682.5458 7193.5815 7170135
-206.34035 1684.1843 7200.5869 7433306
-163.7114 1684.5691 7202.2324 7301720
-120.911 1682.8396 7194.8379 7235926
-78.229019 1681.7716 7190.2715 6972499
-35.817204 1690.9032 7229.313 5985860
7.1721907 1727.714 7386.6943 6248776
53.102726 1801.0195 7700.1064 6051654
98.317703 1793.5176 7668.0327 5722432
140.03406 1747.108 7469.6123 5327675
184.62366 1750.2283 7482.9526 4932661
227.81644 1741.4628 7445.4761 4537904
269.10266 1723.3315 7367.958 4208941
308.79471 1701.4783 7274.5264 3814696
347.05563 1678.0591 7174.3994 3353891
383.7294 1652.9143 7066.895 2499096
419.31039 1628.4735 6962.4004 2762270
457.20352 1616.5864 6911.5781 2630429
479.68286 1556.6343 6655.2578 2696476
516.53278 1548.8822 6622.1147 2367512
553.83472 1543.4849 6599.0386 2630684
591.3316 1539.3065 6581.1748 2696221
636.92133 1555.4087 6650.0176 2696222
672.79974 1547.3005 6615.3521 2761758
717.34113 1558.9113 6664.9932 2761759
750.60376 1546.0786 6610.1279 2762014
786.78326 1540.2288 6585.1177 2696478
828.41028 1545.0924 6605.9116 2630430
871.84125 1552.7296 6638.564 2564638
919.3689 1566.6887 6698.2451 2696224
952.29822 1555.6449 6651.0283 2762016
998.24213 1565.8944 6694.8486 2893859
1029.4229 1553.0872 6640.0923 2828323
1089.4299 1583.1122 6768.4619 2762530
0 0 0 0
0 0 0 0
0 0 0 0
0 0 0 0
1232.0034 1511.9854 6464.3652 2630944
1273.8453 1516.1965 6482.3696 2565151
1308.782 1512.1826 6465.2085 2565150
1350.1508 1515.6174 6479.894 2499358
1397.2264 1525.0913 6520.3989 2565151
1414.8918 1502.8176 6425.1694 2565151
1460.0908 1510.1895 6456.687 2498847
1474.4453 1486.0967 6353.6802 2499103
1505.6984 1479.8114 6326.8086 2564896
1551.1074 1487.4064 6359.2803 2630689
1574.1766 1473.7267 6300.7935 2564896
1614.4232 1476.3898 6312.1792 2630689
1663.9238 1487.2032 6358.4111 2564896
1662.1742 1452.7448 6211.0874 2564896
1694.4598 1448.882 6194.5723 2499103
1703.4913 1425.7207 6095.5479 2434080
1785.6484 1463.4521 6256.8657 2434080
1739.5238 1396.6523 5971.2686 2302494
1771.8617 1394.2567 5961.0264 2368287
1788.2032 1379.6135 5898.4209 2434080
1863.6156 1410.2318 6029.3267 2499873
1921.8204 1426.9219 6100.6836 2499873
1940.9532 1414.5209 6047.6641 2434080
1933.4067 1383.4786 5914.9453 2434080
2032.7078 1428.637 6108.0161 2499873
1993.7961 1376.7753 5886.2861 2434080
1965.9661 1334.2177 5704.3345 2499874
2201.3215 1468.6924 6279.27 2565666
2218.978 1455.8654 6224.4287 2368287
2255.1426 1455.4021 6222.4482 2434080
2282.6172 1449.4359 6196.9404 2499873
2330.7932 1456.5956 6227.5508 2499873
2307.9709 1419.8541 6070.4663 2499873
2358.1504 1428.4617 6107.2666 2368287
2428.0852 1448.5948 6193.3447 2170909
2528.7883 1486.2117 6354.1724 2170910
2556.6636 1480.5508 6329.9692 2171166
2557.1558 1459.4252 6239.6489 2302494
2597.125 1461.1112 6246.8569 2368543
2631.6943 1459.7545 6241.0566 2434080
2656.8328 1453.277 6213.3623 2565666
2664.0715 1437.319 6145.1353 2565666
2751.8269 1464.646 6261.9697 2499874
2766.6938 1452.9675 6212.0396 2302493
2750.9082 1425.7095 6095.5 2236701
2762.1838 1413.0011 6041.1665 2236701
2830.9885 1429.6707 6112.4355 2434080
2856.1619 1424.1631 6088.8887 2368287
2874.5859 1415.4696 6051.7207 2236701
2929.5808 1424.7762 6091.5103 2105114
2978.1533 1430.7709 6117.1396 2039322
3005.6858 1426.6349 6099.4565 1973528
3006.019 1409.8405 6027.6533 2170392
3032.3032 1405.4686 6008.9624 1907735
3055.7644 1399.9052 5985.1758 1907735
3102.9778 1405.2258 6007.9238 1907735
3118.0178 1396.0208 5968.5684 1710099
3132.0029 1386.5552 5928.0991 1578770
3135.0459 1372.5094 5868.0474 1381645
3166.3262 1370.998 5861.5859 1184522
3156.4485 1351.8918 5779.8989 1184265
3182.3455 1348.3535 5764.771 1117958
3165.5654 1327 5673.4761 526337
3156.2966 1309.2111 5597.4209 262656
3187.3076 1308.326 5593.6372 262400
3162.7656 1284.8906 5493.4409 262400
3165.4521 1272.8816 5442.0977 197120
3147.7271 1252.9897 5357.0518 66048
3117.6455 1228.6256 5252.8848 768
3121.5293 1217.9962 5207.4395 1024
3132.3206 1210.2435 5174.2939 1024
3119.5269 1193.6172 5103.209 1024
3123.7576 1183.7614 5061.0713 1024
3156.3447 1184.7366 5065.2407 1024
3148.1582 1170.5331 5004.5151 1024
3166.6614 1166.4259 4986.9551 1024
3166.2017 1155.4742 4940.1323 1024
3186.5818 1152.2589 4926.3853 1024
3226.7649 1156.1975 4943.2246 1024
3232.8613 1147.9615 4908.0122 1024
3231.3875 1137.2081 4862.0371 66304
3235.9973 1128.7671 4825.9478 66304
3260.1179 1127.2196 4819.332 768
3307.4392 1133.6515 4846.8306 66304
3263.1157 1108.8309 4740.7129 66304
3113.1931 1048.8571 4484.2993 66304
3084.7573 1030.4814 4405.7363 66304
3080.0974 1020.2903 4362.165 1024
3075.6633 1010.343 4319.6357 1024
3083.6287 1004.5992 4295.0791 1024
3088.2986 997.88483 4266.3721 1024
3109.73 996.65143 4261.0986 1024
3087.2617 981.48157 4196.2412 768
3816.9092 1203.7512 5146.5366 768
3178.8472 994.57745 4252.2314 768
3128.4214 971.10321 4151.8696 768
3685.7441 1135.1768 4853.3521 768
3124.0103 954.71851 4081.8181 512
3119.5007 946.01611 4044.6118 512
3150.7349 948.20349 4053.9639 256
3154.1382 942.04559 4027.6362 131840
3415.9587 1012.5818 4329.208 131840
3286.8003 967.03387 4134.4712 131840
3301.5735 964.19366 4122.3281 131840
3300.0188 956.6618 4090.1267 131840
3294.0293 947.9635 4052.9377 197632
3302.656 943.56708 4034.1411 131584
3287.6599 932.53314 3986.9666 131584
3282.3711 924.39062 3952.1538 131584
3289.0637 919.71368 3932.158 65792
3292.8345 914.29132 3908.9749 131584
3305.2363 911.32446 3896.2903 65792
3311.7188 906.77789 3876.8523 65792
3330.7549 905.7077 3872.2766 65792
3354.3425 905.88135 3873.0188 65792
3384.6309 907.84985 3881.4351 131584
3391.8877 903.65588 3863.5039 131584
3428.1926 907.2052 3878.6787 65792
3439.113 904.03436 3865.1223 65792
3509.7144 916.48993 3918.375 65792
3467.2634 899.45459 3845.5417 65792
3472.6079 894.95941 3826.3232 131584
3489.6655 893.52179 3820.1768 65792
3512.1343 893.47919 3819.9946 65792
3519.2949 889.56769 3803.2712 65792
3512.3826 882.17145 3771.6494 131584
3411.2285 851.34863 3639.8689 131584
3540.1487 877.97247 3753.697 65792
3880.2134 956.30176 4088.5872 262912
3898.4072 954.82422 4082.27 262912
0 0 0 0
0 0 0 0
0 0 0 0
0 0 0 0
-5017.7764 1320.1461 5504.7188 512
-5035.2949 1333.423 5560.0806 512
-5027.2368 1340.057 5587.7432 512
-5048.3057 1354.5945 5648.3608 65792
-5035.8706 1360.2762 5672.0522 65536
-4793.8442 1303.6008 5435.7285 196608
-4756.4155 1302.1718 5429.77 196608
-5232.8066 1442.3505 6014.2842 393216
-5201.502 1443.5529 6019.2979 393216
-4422.8296 1235.9258 5153.5381 985344
-5238.0195 1473.9005 6145.8408 1050624
-5236.8711 1483.8939 6187.5112 1182208
-4890.8882 1395.6288 5819.4648 984832
-4878.8154 1402.0688 5846.3188 1050624
-4630.8501 1340.3258 5588.8638 919552
-4430.8066 1291.6633 5385.9521 262656
-4635.4326 1361.1195 5675.5688 262656
-4488.2764 1327.5408 5535.5527 66048
-4520.4595 1346.9031 5616.2896 1024
-4247.1553 1274.8553 5315.8662 1024
-4353.5176 1316.5459 5489.7065 1024
-4508.4683 1373.6683 5727.8945 1024
-4507.4609 1383.7786 5770.0522 768
-4503.0972 1393.005 5808.5244 66816
-4487.7583 1398.9525 5833.3242 1316864
-4406.6558 1384.3326 5772.3628 263680
-4384.2759 1388.0763 5787.9727 198144
-4458.7876 1422.7968 5932.7495 1580036
-4373.7949 1406.7667 5865.9077 1185280
-4435.7617 1438.126 5996.6689 2830351
-4489.1353 1467.1833 6117.8315 3158286
-4441.1489 1463.3164 6101.7075 3485450
-4384.7886 1456.6044 6073.7197 3549960
-4303.0884 1441.2937 6009.8779 3416580
-4266.2402 1440.876 6008.1357 1705984
-4212.231 1434.6063 5981.9927 4599308
-4202.1729 1443.3262 6018.3525 4208423
-4168.5444 1444.0305 6021.2891 983552
-4124.665 1441.1649 6009.3408 2759425
-4164.1646 1467.6361 6119.7192 2562827
-4130.7046 1468.6322 6123.873 590848
-4101.688 1471.2399 6134.7461 1181952
-4142.0693 1499.0092 6250.5386 1708547
-4192.2646 1530.8633 6383.3628 1378304
-4054.2708 1493.9518 6229.4502 1773572
-4375.1372 1627.0002 6784.2334 1839626
-4335.1274 1627.0714 6784.5298 3353888
-4154.0474 1573.7015 6561.9888 6641727
-4054.2793 1550.4178 6464.9014 11444603
-4092.8159 1580.0845 6588.604 12827281
-4205.0366 1639.043 6834.4482 13881507
-4095.6772 1611.9407 6721.438 13816483
-4238.8657 1684.6777 7024.7354 13685409
-4240.4536 1702.0222 7097.0576 13619358
-4230.8413 1715.1735 7151.896 13685152
-4184.3477 1713.488 7144.8677 13487773
-4205.2061 1739.6307 7253.877 13684896
-4152.2358 1735.4561 7236.4702 13684897
-4127.769 1743.2318 7268.8931 13684384
-4112.0195 1754.892 7317.5132 13289112
-4105.3828 1770.7311 7383.5591 13222804
-3965.8501 1728.9735 7209.439 13090960
-4069.8369 1793.6283 7479.0356 13090961
-4036.6836 1798.6022 7499.7754 13419669
-3974.0647 1790.4117 7465.623 13617049
-3917.4382 1784.7671 7442.0859 13683098
-3855.2466 1776.4297 7407.3208 13618334
-3833.3059 1786.6608 7449.9819 13683360
-3745.3838 1766.0186 7363.9087 13684386
-3715.4058 1772.5333 7391.0742 13750180
-3624.6848 1749.8793 7296.6113 13684644
-3595.6433 1756.8142 7325.5288 13553572
-3669.7168 1814.9159 7567.7998 13421728
-3339.6182 1672.0925 6972.2583 5583122
-3354.2202 1700.4393 7090.4575 8412219
-3744.6746 1922.4623 8016.2446 8610881
-3845.9836 1999.8398 8338.8926 7230771
-3704.1448 1951.1538 8135.8818 8745040
-3475.0173 1854.5983 7733.2666 9008983
-3540.7141 1914.9109 7984.7573 8944218
-3460.5742 1896.9167 7909.7251 8417878
-3493.5544 1941.2869 8094.7393 8286551
-3404.5583 1918.1689 7998.3428 8417880
-3341.4668 1909.2 7960.9434 8352087
-3261.7122 1890.3164 7882.2031 8154708
-3208.7725 1886.6506 7866.918 8286294
-3116.4539 1859.3823 7753.2148 8286294
-3062.4363 1854.4912 7732.8203 8351830
-2998.2236 1843.1843 7685.6729 8155222
-2925.0657 1825.9446 7613.7871 8089428
-2857.4019 1811.6481 7554.1733 7957841
-2794.2512 1799.8035 7504.7842 8023634
-2711.0051 1774.4226 7398.9517 8155477
-2650.283 1763.1925 7352.1245 8154965
-2578.4421 1744.066 7272.3716 8089429
-2513.5188 1729.048 7209.7495 8023636
-2465.6794 1725.4661 7194.8135 8089428
-2420.8496 1723.9011 7188.2886 7694414
-2399.0525 1738.9756 7251.1455 7431755
-2338.0203 1725.641 7195.5435 7497548
-2298.6128 1728.0687 7205.666 7563856
-2245.2017 1719.8611 7171.4424 7629137
-2183.8904 1705.1683 7110.1768 7432015
-2116.3047 1684.9022 7025.6714 7497551
-2085.1931 1693.4446 7061.2915 7563343
-2049.9036 1698.8743 7083.9316 7299915
-2014.9957 1704.8538 7108.8647 7563344
-2000.17 1728.4424 7207.2246 7694674
-1942.0789 1714.8572 7150.5771 7694675
-1914.6522 1728.3466 7206.8242 7694676
-1874.7653 1730.9468 7217.667 7563861
-1833.4062 1732.2776 7223.2163 7629654
-1796.3118 1737.7977 7246.2339 7564117
-1766.7264 1751.0306 7301.4121 7563861
-1730.0776 1757.7515 7329.437 7498068
-1680.8267 1751.6849 7304.1406 7300946
-1626.4381 1739.8021 7254.5918 7432532
-1584.3192 1740.7552 7258.5664 7366740
-1540.6345 1739.993 7255.3882 7432791
-1507.5144 1751.4613 7303.2085 7498328
-1460.5597 1747.0591 7284.8521 7432791
-1427.626 1759.6709 7337.4409 7498327
-1365.3054 1735.7155 7237.5513 7498327
-1317.7274 1729.5564 7211.8696 7432534
-1272.6857 1726.4247 7198.811 7366741
-1230.8981 1727.6434 7203.8926 7235412
-1188.6194 1728.2356 7206.3618 7366997
-1133.5724 1709.6152 7128.7188 7104083
-1085.2571 1700.0986 7089.0371 7103826
-1048.9296 1709.3516 7127.6196 7038033
-1005.214 1706.8358 7117.1299 7038289
-990.00696 1754.6266 7316.4067 6972241
-943.20764 1748.2383 7289.7686 6774863
-866.33777 1682.8257 7017.0132 6906449
-838.77362 1711.4205 7136.2476 6643533
-802.685 1724.735 7191.7656 6511947
-750.8056 1703.7106 7104.0981 6709069
-689.95343 1658.6183 6916.0732 6577227
-646.04443 1651.1337 6884.8643 5787966
-581.32227 1585.8613 6612.6929 5919809
-542.17029 1585.9519 6613.0703 5853759
-503.62811 1587.9789 6621.5225 5590589
-473.53079 1619.2255 6751.814 4998197
-438.51208 1637.8578 6829.5068 4735027
-393.25122 1618.1346 6747.2651 4143148
-351.58997 1610.4347 6715.1587 3814441
-307.15854 1586.462 6615.1978 3814444
-272.75906 1614.8699 6733.6523 3419944
-233.74663 1621.0225 6759.3071 3025186
-184.16541 1541.2698 6426.7554 3025442
-148.35612 1565.2388 6526.7012 3025186
-115.41502 1647.0409 6867.7979 2696477
-66.865578 1473.896 6145.8223 2959648
-32.017601 1549.8191 6462.4043 2893857
6.2706494 1548.8085 6458.1904 2959907
44.214397 1537.5544 6411.2637 3091493
82.232224 1538.0879 6413.4878 3025700
121.87749 1559.1028 6501.1157 3157286
161.41331 1568.9601 6542.2178 3157287
198.69174 1557.3064 6493.6255 3025703
242.09871 1589.6757 6628.5972 2828324
276.49966 1562.127 6513.7256 2762530
315.04169 1561.8572 6512.6006 2565151
355.98563 1572.2548 6555.9561 2499615
392.09067 1561.3372 6510.4326 2696994
431.45035 1564.175 6522.2656 2565408
470.06308 1564.061 6521.79 2368542
503.1138 1546.8633 6450.0796 2302493
541.34784 1546.9054 6450.2549 2367773
583.98669 1558.6986 6499.4302 2171164
625.99603 1567.4564 6535.9482 2236701
664.11426 1566.0183 6529.9517 2302494
691.87347 1541.6561 6428.3667 2434080
717.42719 1515.1785 6317.9609 2499873
750.3136 1506.0457 6279.8789 2434081
796.47839 1523.1692 6351.2803 2368544
831.29663 1518.0275 6329.8403 2565153
863.92523 1509.5038 6294.2988 2696482
911.30048 1526.3856 6364.6924 2696482
955.12994 1536.2228 6405.7109 2696483
995.35504 1539.7323 6420.3447 2696482
1021.5355 1522.0571 6346.6436 2565666
1079.8424 1551.8053 6470.6865 2368287
1125.6898 1562.2219 6514.1221 2302495
1151.2423 1544.7167 6441.1284 2302494
1162.616 1509.9204 6296.0361 2105115
1204.1958 1515.2976 6318.4575 1973786
1207.9641 1474.2053 6147.1118 2236701
1239.306 1468.1846 6122.0063 2302494
1295.0553 1490.5989 6215.4692 2236701
1319.4177 1476.6466 6157.291 2302494
1352.6383 1473.092 6142.4697 2368287
1401.0791 1485.8651 6195.7305 2302239
1404.9735 1451.9501 6054.312 2170910
1407.0641 1417.9061 5912.3564 2170909
1450.848 1426.5101 5948.2334 2170653
1455.4446 1397.0898 5825.5571 2236188
1496.3828 1403.1093 5850.6567 2236444
1515.5901 1388.9408 5791.5776 2302237
1572.3798 1409.0793 5875.5508 2301981
1461.0596 1280.9579 5341.3125 2236189
1763.8531 1513.6383 6311.5386 2236188
1711.8656 1438.5249 5998.3325 2301725
1702.1582 1401.2738 5843.0034 2301981
1781.9575 1437.7236 5994.9912 2170652
1839.4108 1455.0719 6067.3296 2170908
1840.5529 1428.0638 5954.7119 2170907
1873.455 1426.2505 5947.1504 2236701
1913.519 1429.8557 5962.1836 2236701
1931.3591 1417.0247 5908.6812 2302494
1955.986 1409.5414 5877.4775 2302494
1982.3171 1403.5265 5852.397 2499873
2010.0355 1398.6838 5832.2036 2368288
2073.4143 1418.3997 5914.4146 2236702
2100.3113 1412.9181 5891.5576 2302495
2186.4385 1446.8097 6032.8784 2236703
2222.6323 1447.1006 6034.0908 2434080
2296.9348 1471.8008 6137.0854 2368288
2320.4675 1463.7068 6103.335 2368286
2329.7952 1447.0382 6033.8306 2236701
2383.5933 1458.0767 6079.8589 2236701
2414.6841 1455.1029 6067.459 2236701
2444.7212 1451.5909 6052.8145 2236701
2446.7617 1431.7972 5970.2793 2236701
2493.3154 1438.2448 5997.1641 2302494
2543.75 1446.7184 6032.4971 2434081
2528.094 1417.8898 5912.2886 2631460
2544.0969 1407.3629 5868.3936 2499875
2570.5483 1402.8218 5849.458 2697254
2655.5864 1429.9486 5962.5708 2631461
2669.9231 1418.7924 5916.0518 2631461
2692.4082 1412.1993 5888.5605 2631460
2714.7024 1405.6761 5861.3604 2499872
2754.1108 1408.0676 5871.332 2434080
2749.5496 1388.1998 5788.4878 2499873
2789.1877 1390.8622 5799.5894 2302493
2834.3772 1396.1942 5821.8228 2170908
2829.1921 1376.8826 5741.2969 2039322
2854.8828 1372.8773 5724.5962 2105115
2915.4148 1385.524 5777.3306 2039322
2953.8545 1387.5 5785.5698 1907736
2966.1592 1377.2953 5743.0181 1710357
2970.231 1363.5426 5685.6724 1776150
2978.2378 1351.8844 5637.0605 1841943
3038.2839 1363.8447 5686.9321 1578771
3056.3516 1356.9056 5657.998 1381392
3070.967 1348.6012 5623.3701 1315599
3097.4866 1345.6465 5611.0498 1249806
3095.2581 1330.3982 5547.4678 1184013
3108.8108 1322.1821 5513.2085 1184012
3156.3784 1328.4531 5539.3574 1184521
3112.5393 1296.5198 5406.2021 460545
3124.3994 1288.202 5371.519 256
3131.5881 1278.1454 5329.585 131584
3146.9619 1271.5969 5302.2793 131584
3121.7314 1248.9332 5207.7769 66048
3122.291 1236.9301 5157.7261 512
3115.708 1222.3574 5096.9614 512
3118.4692 1211.6953 5052.5029 768
3122.8167 1201.8466 5011.4355 768
3119.0337 1189.0836 4958.2173 1024
3149.9646 1189.6697 4960.6606 1024
3187.7747 1192.8188 4973.792 1024
3235.3481 1199.5303 5001.7773 1024
3212.292 1180.1709 4921.0532 1024
3211.6233 1169.3109 4875.7695 1024
3185.9004 1149.6041 4793.5962 66560
3217.573 1150.7732 4798.4707 768
3211.7144 1138.616 4747.7783 512
3260.0964 1145.7327 4777.4531 66304
3289.8103 1146.2224 4779.4951 66304
3261.5081 1126.6625 4697.9346 66304
3143.5447 1076.7231 4489.6987 66304
3112.812 1057.2493 4408.4966 1024
3120.4551 1051.0251 4382.5435 1024
3174.8394 1060.5172 4422.1235 1024
3159.6426 1046.8014 4364.9312 768
3110.844 1022.2662 4262.625 768
3165.8518 1031.9636 4303.0615 768
3129.5994 1011.9962 4219.8013 768
3112.3914 998.45453 4163.3354 768
3120.7205 993.25385 4141.6499 768
3150.6746 994.96326 4148.7778 512
3157.8398 989.50531 4126.0195 512
3130.9763 973.55035 4059.4907 512
3130.3997 965.95001 4027.7988 256
3593.9697 1100.6031 4589.2729 131840
3146.5581 956.35352 3987.7837 66048
3171.0828 956.6236 3988.9099 256
3310.2935 991.2312 4133.2158 131840
3295.8469 979.65747 4084.9561 66048
3294.407 972.09039 4053.4028 131584
3303.7466 967.79047 4035.4731 65792
3296.3306 958.67932 3997.4817 131584
3293.2017 950.93604 3965.1941 197377
3292.8308 944.09338 3936.6619 65792
3297.9985 938.92365 3915.1052 65792
3329.9775 941.40607 3925.4561 65792
3355.7483 942.1109 3928.395 65792
3359.4749 936.65991 3905.6658 65792
3365.9631 932.04828 3886.4363 65792
3386.26 931.29694 3883.3032 65792
3397.5774 928.10297 3869.9851 65792
3416.6384 927.0528 3865.606 131584
3417.8787 921.2135 3841.2573 65792
3464.1099 927.49744 3867.4604 131584
3468.5542 922.58417 3846.9731 65792
3490.6885 922.40967 3846.2454 0
3489.9583 916.23468 3820.4968 0
3512.6411 916.24634 3820.5457 65792
3528.7593 914.55658 3813.4995 131584
3529.2852 908.8728 3789.7998 65792
3541.7932 906.32721 3779.1851 65792
3572.5303 908.44885 3788.032 131328
3882.6489 981.1438 4091.1538 197632
3905.9019 980.89545 4090.1182 262912
0 0 0 0
0 0 0 0
0 0 0 0
0 0 0 0
-5109.519 1377.4972 5605.3647 256
-5134.7573 1393.3585 5669.9087 256
-5141.7964 1404.458 5715.0752 256
-5126.4507 1409.5499 5735.7949 65792
-5161.4048 1428.632 5813.4448 256
-5068.5352 1412.3525 5747.1997 196608
-5133.4062 1440.1049 5860.1304 196608
-5329.2212 1505.2196 6125.0977 393216
-4353.3643 1238.0236 5037.813 393216
