# .PCD v0.7 - Point Cloud Data file format
VERSION 0.7
FIELDS x y z rgb
SIZE 4 4 4 4
TYPE F F F U
COUNT 1 1 1 1
WIDTH 1296
HEIGHT 1
VIEWPOINT 0 0 0 1 0 0 0
POINTS 1296
DATA ascii
-1986.7021 1543.3115 4870.7798 6709068
-1957.8408 1543.3115 4870.7798 6577483
-1922.2551 1537.9316 4853.8003 6643019
-1901.9215 1544.7762 4875.4023 6445897
-1868.6924 1541.1965 4864.1045 6445897
-1827.8392 1531.1182 4832.2969 6840656
-1785.9238 1519.8152 4796.624 6511691
-1775.958 1535.7754 4846.9951 5327160
-1711.6952 1504.5344 4748.397 6248518
-1689.5731 1509.9091 4765.3594 6314311
-1677.4866 1524.587 4811.6841 6314311
-1664.6466 1539.0762 4857.4126 6577483
-1647.0109 1549.5631 4890.5098 6116932
-1611.3303 1543.1444 4870.252 6182724
-1598.5676 1558.8398 4919.7881 6051140
-1572.3074 1561.7118 4928.8521 5919554
-1552.4619 1571.1847 4958.749 5656382
-1522.5408 1570.6292 4956.9956 5459003
-1488.3856 1565.5981 4941.1172 5327162
-1459.6995 1566.2333 4943.1216 5327162
-1438.9681 1575.6046 4972.6982 5129784
-1408.0277 1573.9556 4967.4937 4801075
-1383.8768 1579.9878 4986.5317 4801076
-1353.8201 1579.3934 4984.6558 4603440
-1325.2189 1580.5081 4988.1743 4669233
-1295.4535 1580.254 4987.3721 4471856
-1265.8334 1580.1692 4987.1045 4208428
-1236.4988 1580.4452 4987.9756 3945769
-1200.6666 1572.2266 4962.0371 3682598
-1168.4124 1568.3978 4949.9536 3616549
-1138.467 1567.5513 4947.2817 3616550
-1113.7205 1574.0073 4967.6572 3551013
-1082.2313 1571.026 4958.248 3485221
-1059.4862 1580.9257 4989.4922 3353634
-1022.3675 1569.3304 4952.8965 3222051
-1023.9988 1618.2888 5107.4121 3156258
-1007.4659 1640.6489 5177.9819 3024672
-985.10199 1654.6195 5222.0742 2893343
-975.07031 1690.8821 5336.5205 2696221
-983.25708 1762.2268 5561.689 2893344
-952.0799 1765.5243 5572.0957 2827552
-922.41455 1771.9626 5592.4155 2630173
-933.21539 1859.5132 5868.73 2564379
-911.74451 1887.048 5955.6313 2564380
-863.44769 1859.0425 5867.2446 2498588
-774.62048 1737.7627 5484.4785 2367259
-766.776 1795.491 5666.6724 2498845
-703.12537 1721.8459 5434.2446 2564381
-618.59674 1587.5514 5010.4028 2367002
-670.0246 1806.2214 5700.5386 2367002
-557.9317 1583.8956 4998.8652 2367259
-548.20569 1643.5394 5187.1045 2367259
-495.00226 1572.1794 4961.8882 2367260
-463.83353 1566.2111 4943.0518 2367260
-425.97632 1535.3309 4845.5923 2433052
-397.17294 1534.9781 4844.479 2367515
-371.49017 1547.5702 4884.2202 2301978
-333.75162 1507.8245 4758.7803 2301979
-309.79794 1528.7675 4824.8774 2301979
-283.65823 1542.0846 4866.9072 2301979
-254.16867 1538.1439 4854.4702 2170394
-225.66997 1539.959 4860.1987 2235930
-196.35774 1535.9415 4847.5195 2301979
-167.32321 1533.0918 4838.5254 2302235
-139.28439 1540.0729 4860.5581 2499358
-109.67065 1528.7406 4824.793 2499358
-79.555153 1499.9563 4733.9482 2433565
-52.590347 1531.576 4833.7417 2367772
-23.972862 1533.1349 4838.6616 2302494
4.7105989 1537.197 4851.4819 2236701
33.09705 1520.6328 4799.2041 2236701
60.25502 1489.0201 4699.4331 2302494
91.118088 1540.0121 4860.3662 2170908
119.27169 1531.7157 4834.1826 2170908
149.72377 1550.4341 4893.2588 2236701
176.94028 1535.0093 4844.5771 2170908
204.39427 1525.6635 4815.0811 2105371
236.32571 1547.9344 4885.3696 2236701
263.29431 1536.3854 4848.9204 2170908
291.81705 1535.2854 4845.4487 2236700
320.50601 1535.1788 4845.1123 2236701
350.14471 1539.2648 4858.0078 2170908
378.29007 1536.6639 4849.7993 2170908
403.79163 1524.4491 4811.2485 2236701
431.89404 1523.0167 4806.728 2236701
466.81433 1544.3165 4873.9517 2236701
493.6673 1538.001 4854.019 2236701
523.41547 1540.9043 4863.1821 2236444
546.8316 1525.8361 4815.626 2235931
578.07788 1533.0273 4838.3223 2301724
607.85083 1535.8167 4847.1255 2301724
625.12469 1508.1985 4759.9609 2367516
650.56378 1501.8141 4739.8115 2301724
679.61798 1503.9583 4746.5786 2367516
714.30945 1517.9114 4790.6152 2367517
739.01752 1510.3938 4766.8892 2301467
765.91876 1507.7471 4758.5361 2170908
806.6123 1531.4751 4833.4233 2236701
827.50787 1517.2754 4788.6079 2236701
854.3208 1514.5073 4779.8716 2302495
873.95569 1499.6001 4732.8237 2302496
911.53418 1515.4517 4782.8521 2302496
941.40491 1517.9193 4790.6401 2302496
975.78754 1527.3044 4820.2603 2236703
1009.9769 1535.8621 4847.2686 2302496
1040.4122 1538.3954 4855.2642 2434082
1072.072 1542.5542 4868.3892 2434082
1116.1542 1563.9006 4935.7603 2565668
1144.9231 1563.2487 4933.7026 2499875
1176.1857 1565.9493 4942.2261 2565668
1193.7369 1550.7073 4894.1211 2697254
1218.1073 1544.8363 4875.5918 2565668
1241.5873 1538.1343 4854.4399 2434082
1274.5625 1543.2327 4870.5308 2434081
1323.6978 1567.2385 4946.2944 2236703
1363.1476 1578.9852 4983.3677 2236703
1406.3153 1594.4491 5032.1729 2302496
1429.269 1586.8285 5008.1216 2105117
1462.5386 1590.7382 5020.4604 2236703
1499.9229 1598.8778 5046.1499 2236447
1522.8325 1591.5714 5023.0903 2236703
1573.2803 1612.7745 5090.0088 2236702
1586.8918 1596.1295 5037.4761 2434082
1621.0793 1600.4125 5050.9937 2434080
1668.4503 1617.3201 5104.3545 2434080
1683.6166 1602.9631 5059.0435 2368287
1728.9489 1617.3273 5104.3774 2171165
1755.8826 1614.2825 5094.7681 2170908
1716.6281 1551.5188 4896.6821 2236701
1830.5823 1627.0123 5134.9443 2170909
1859.0905 1625.3352 5129.6509 2170908
1891.6193 1627.1704 5135.4434 2039322
1920.6891 1626.0194 5131.8105 2104858
1938.4038 1615.4409 5098.4243 2170651
1893.7363 1553.9963 4904.5015 2170651
1982.7065 1602.4147 5057.3125 2039065
2013.7025 1603.2343 5059.8989 2038808
2022.0204 1586.2391 5006.2612 1973014
2081.2485 1609.0963 5078.3999 1709842
2128.8625 1622.4506 5120.5469 1709842
2132.3433 1602.2671 5056.8467 1709841
2141.6477 1586.9586 5008.5322 1775632
2157.3713 1576.7599 4976.3447 1841424
2194.3542 1582.1648 4993.4028 1249543
2210.5271 1572.621 4963.2822 459776
2232.7512 1567.5764 4947.3608 262912
2256.3552 1563.6187 4934.8701 591872
2267.6111 1551.3146 4896.0376 394496
2277.3108 1538.2703 4854.8691 197888
2301.7578 1535.3885 4845.7744 66304
2306.9924 1519.9202 4796.9551 512
2350.8354 1529.9552 4828.6265 66304
2344.8293 1507.6965 4758.3765 66304
2367.7632 1504.3536 4747.8262 1024
2389.749 1500.494 4735.645 1024
2421.8889 1503.0256 4743.6348 1024
2436.885 1494.9818 4718.248 1024
2442.9438 1481.6997 4676.3291 1024
2463.0305 1477.1284 4661.9019 1024
2481.3845 1471.6309 4644.5513 1024
2423.4873 1421.5277 4486.4229 1024
2438.1975 1414.6387 4464.6807 1024
2441.946 1401.6058 4423.5483 1024
2457.3616 1395.4752 4404.1997 1024
2477.7158 1392.2485 4394.0161 1280
2498.8691 1389.5332 4385.4463 1280
2520.9399 1387.3788 4378.647 1280
2582.8066 1406.9465 4440.4038 1024
2608.1084 1406.4021 4438.6855 1024
2623.4756 1400.5652 4420.2637 1024
2625.2339 1387.65 4379.5029 1024
2448.1025 1281.3555 4044.0315 1024
2442.2756 1265.9147 3995.2991 1024
2430.7217 1247.8302 3938.2236 1024
2429.8818 1235.5375 3899.4272 1024
2454.6455 1236.3727 3902.063 1024
2460.5146 1227.7642 3874.8938 1024
2530.4268 1250.9758 3948.1514 66304
2533.8628 1241.1993 3917.2961 1024
2493.2737 1210.2305 3819.5569 1024
2533.7522 1218.8151 3846.6501 1024
2555.7715 1218.4463 3845.4861 1024
2552.1379 1205.9623 3806.0859 1024
2558.0291 1198.1581 3781.4556 1024
2618.5642 1215.8622 3837.3306 1024
2590.395 1192.4282 3763.3721 1024
2621.136 1196.2811 3775.5315 1024
2602.447 1177.6997 3716.8877 1024
2591.5801 1162.9402 3670.3059 1024
2642.6401 1175.9843 3711.4736 1024
2596.062 1145.722 3615.9644 1024
2579.1577 1128.9442 3563.0125 1024
2638.1582 1145.3939 3614.9287 1024
2590.5769 1115.6772 3521.1414 1024
2623.3018 1120.7445 3537.1338 1024
2619.2268 1110.134 3503.6467 1024
2626.5386 1104.4789 3485.7983 1024
2560.3137 1068.2303 3371.3962 1024
2649.8818 1097.0409 3462.3237 1024
2689.5042 1104.8903 3487.0969 1024
2691.7869 1097.3971 3463.448 1024
2674.9727 1082.2906 3415.7715 1024
2676.6704 1074.8451 3392.2725 768
2677.5112 1067.1686 3368.0454 768
2677.1467 1059.1292 3342.6721 768
2687.1272 1055.2703 3330.4934 768
2693.7188 1050.1465 3314.3225 768
2694.5781 1042.8784 3291.3838 768
2706.8972 1040.118 3282.6721 768
2708.373 1033.2604 3261.0288 512
2727.696 1033.2604 3261.0288 512
2767.5767 1040.9929 3285.4331 512
2765.1255 1032.806 3259.595 256
2777.8132 1030.348 3251.8376 256
2777.3699 1023.087 3228.9211 256
2795.8022 1022.8307 3228.1123 256
2801.0659 1017.7931 3212.2134 512
2814.1516 1015.6463 3205.438 66048
2828.4053 1013.9472 3200.0754 66048
2672.6846 951.7428 3003.7549 65792
2723.9792 963.59186 3041.1511 65792
2736.2998 961.58899 3034.8298 65792
2748.7185 959.64655 3028.6995 65792
2763.8096 958.65619 3025.5737 65792
2767.8013 953.85345 3010.416 131584
2783.9648 953.28009 3008.6067 65792
2806.2876 954.80969 3013.4341 131584
2813.2722 951.13428 3001.8342 65792
2825.5076 949.26904 2995.9475 65792
2824.5251 943.01416 2976.2068 131584
2834.1926 940.37061 2967.8635 65792
0 0 0 0
0 0 0 0
0 0 0 0
0 0 0 0
0 0 0 0
-4134.8398 1473.7258 4565.7788 7957844
-4149.5356 1488.7042 4612.1836 7892309
-4128.625 1491.0221 4619.3647 7891796
-4122.2998 1498.6735 4643.0698 7563345
-4085.5676 1495.299 4632.6152 7760725
-4101.3345 1511.2233 4681.9502 7892054
-4078.7583 1513.1398 4687.8882 7892052
-4026.4275 1503.9686 4659.4746 8023638
-4001.5037 1504.9785 4662.6035 8089175
-3971.7695 1504.1809 4660.1323 8154967
-3950.5549 1506.6211 4667.6924 8221273
-3786.8271 1454.3623 4505.7886 8286810
-3822.9951 1478.6782 4581.1221 8221530
-3825.0801 1490.0648 4616.3989 8353116
-3795.1748 1489.0638 4613.2979 8221529
-3736.5713 1476.7065 4575.0137 8155736
-3635.8909 1447.4182 4484.2749 7958358
-3631.7046 1456.3951 4512.0864 7892564
-3650.7903 1474.9069 4569.438 7695186
-3601.9351 1466.0424 4541.9746 7629393
-3529.1047 1447.2125 4483.6377 7563343
-3491.7544 1442.7572 4469.8345 7300428
-3485.323 1451.1067 4495.7021 7168842
-3465.4055 1453.9268 4504.439 7168842
-3459.1714 1462.5758 4531.2349 7300428
-3435.6201 1463.9813 4535.5894 7234635
-3421.1321 1469.3014 4552.0713 7168842
-3371.2205 1459.3715 4521.3071 7562829
-3370.5769 1470.7808 4556.6548 7694929
-3325.655 1462.8973 4532.231 7563601
-3319.6589 1472.1475 4560.8892 7892309
-3283.9863 1468.2812 4548.9111 7760980
-3253.8713 1466.8562 4544.4961 7563602
-3237.501 1471.6553 4559.3643 7760470
-3185.2937 1460.108 4523.5894 7628885
-3151.3464 1456.8059 4513.3589 7694677
-3134.1919 1461.2767 4527.21 7629141
-3050.4788 1434.5245 4444.3286 7498323
-3064.2415 1453.5449 4503.2559 7366737
-3033.1533 1451.4373 4496.7261 7169358
-2991.0667 1443.9824 4473.6304 6840136
-2994.9832 1458.8016 4519.542 6905416
-2946.7224 1448.2444 4486.8345 6905159
-2917.2524 1446.8143 4482.4038 6971979
-2911.8171 1457.3875 4515.1606 7169358
-2862.561 1446.0206 4479.9448 7169361
-2879.5684 1468.2271 4548.7432 7169359
-2830.8123 1457.0052 4513.9766 7037776
-2790.7288 1450.0757 4492.5078 7169361
-2782.4775 1459.7119 4522.3623 7300948
-2745.241 1454.1819 4505.2295 6971983
-2700.9609 1444.7756 4476.0879 6972239
-2674.2654 1444.6823 4475.7983 7103826
-2663.7449 1453.4125 4502.8457 6972240
-2636.762 1453.2462 4502.3306 7038032
-2614.0288 1455.4427 4509.1357 6972240
-2588.3762 1456.0422 4510.9932 6906447
-2557.9158 1453.9215 4504.4229 6906447
-2532.7588 1454.8024 4507.1519 6972240
-2496.9053 1449.4924 4490.7012 7038032
-2477.4438 1453.6865 4503.6948 6906447
-2472.9785 1466.8672 4544.5298 6906447
-2470.4011 1481.47 4589.771 6906447
-2450.5071 1485.8977 4603.4888 6774604
-2416.8157 1481.9648 4591.3042 6840655
-2384.3169 1478.6819 4581.1333 6840655
-2362.9805 1482.3258 4592.4229 6906448
-2335.2778 1482.0144 4591.458 6708812
-2301.2573 1477.6389 4577.9023 6380103
-2268.0483 1473.6864 4565.6567 6445896
-2257.0205 1484.2249 4598.3062 6643020
-2234.7876 1487.5624 4608.646 6380104
-2216.6506 1493.7426 4627.793 6248518
-2200.2756 1501.2797 4651.144 5919553
-2173.3198 1501.697 4652.437 5853760
-2152.8987 1506.6985 4667.9321 6116932
-2126.5222 1507.608 4670.75 6051139
-2094.7434 1504.6609 4661.6196 5524795
-2073.8872 1509.5858 4676.8774 5590588
-2058.8262 1518.9194 4705.7939 5393208
-2051.324 1534.1627 4753.0195 5327416
-2041.542 1548.1013 4796.2031 5261623
-2022.1472 1555.0413 4817.7041 5063988
-1999.5574 1559.6879 4832.0996 4801073
-1961.6882 1552.3783 4809.4536 4932403
-1936.5516 1555.0774 4817.8159 4801072
-1883.8422 1535.3848 4756.8057 4603437
-1858.2446 1537.5265 4763.4409 4406316
-1823.2433 1531.8334 4745.8032 4208938
-1784.1732 1522.4901 4716.8564 3879719
-1742.7632 1510.8207 4680.7031 3945513
-1708.6836 1505.2316 4663.3877 3748134
-1679.5542 1503.8912 4659.2349 3814184
-1667.52 1518.0691 4703.1597 3748134
-1656.6414 1533.7988 4751.8921 3616549
-1642.2228 1546.7383 4791.9805 3287841
-1627.0201 1559.3816 4831.1509 3156256
-1593.9774 1555.0731 4817.8027 3222048
-1585.9065 1575.4143 4880.8218 2958878
-1578.642 1597.3268 4948.7095 2827549
-1549.1853 1597.1892 4948.2832 2827549
-1518.896 1596.171 4945.1289 2761756
-1491.8512 1598.5896 4952.6221 2893342
-1466.8488 1603.3378 4967.332 2893342
-1428.5789 1593.4812 4936.7954 2630428
-1395.3098 1588.9076 4922.6255 2695965
-1363.574 1585.9215 4913.3745 2762015
-1315.8397 1563.792 4844.8149 2762015
-1290.3677 1567.7229 4856.9932 2827809
-1243.115 1544.7673 4785.874 2695967
-1213.47 1543.131 4780.8042 2630431
-1150.6792 1498.2583 4641.7837 2367259
-1105.6914 1474.9365 4569.5298 2762017
-1078.4541 1474.7163 4568.8477 2696736
-1042.381 1462.0913 4529.7339 2828066
-1023.1147 1472.9961 4563.5181 2828066
-965.19147 1427.3268 4422.0293 2762273
-948.33099 1441.5271 4466.0234 2828066
-933.44312 1459.6271 4522.0996 2828065
-911.22961 1467.0033 4544.9517 2828066
-890.19824 1476.7899 4575.272 2696737
-849.9007 1454.2258 4505.3657 2565151
-839.35803 1482.7617 4593.7729 2630944
-816.83429 1491.3357 4620.3364 2564895
-787.22729 1487.1237 4607.2871 2433567
-765.62701 1498.2778 4641.8438 2367517
-730.49231 1482.7902 4593.8613 2235931
-707.99554 1492.7498 4624.7173 2367774
-684.82806 1502.0402 4653.5 2433310
-661.84668 1512.5356 4686.0161 2301724
-634.04944 1512.4623 4685.7891 2367260
-612.52252 1528.0244 4734.0024 2170138
-588.04303 1537.3613 4762.9292 1972759
-561.82568 1542.8673 4779.9873 1972759
-535.60425 1548.9459 4798.8198 2104346
-506.38333 1546.5453 4791.3823 2104345
-473.53763 1532.1317 4746.7275 2104345
-445.69131 1533.0946 4749.7104 2038552
-420.93317 1545.5262 4788.2251 2104345
-394.61023 1553.594 4813.2202 2235931
-365.08206 1549.3168 4799.9688 2170395
-332.98355 1532.4873 4747.8291 2105115
-301.33856 1514.8314 4693.1289 2105115
-275.81711 1527.4983 4732.3726 1973529
-247.46986 1525.6115 4726.5269 1907737
-219.13277 1523.3138 4719.4087 2105115
-190.15977 1515.2769 4694.5088 2170908
-162.87805 1520.2717 4709.9834 2170908
-135.27608 1523.7249 4720.6816 2302494
-107.40149 1525.1072 4724.9644 2434080
-79.639526 1529.6274 4738.9688 2434080
-51.273697 1521.1564 4712.7241 2368287
-23.299135 1517.9133 4702.6772 2236701
4.5204411 1502.73 4655.6372 2170908
31.811352 1488.8943 4612.7725 2170908
60.917259 1533.5375 4751.0825 2170908
85.885223 1478.7156 4581.2378 2105115
114.11402 1492.8855 4625.1377 2170908
143.60324 1514.8634 4693.228 2105117
170.49133 1506.7225 4668.0068 2170654
199.90524 1520.0605 4709.3296 2105117
228.09898 1521.9894 4715.3052 2105117
256.09039 1522.2946 4716.2505 2039325
283.30978 1518.402 4704.1909 2105117
312.39786 1524.325 4722.541 2236703
340.22897 1523.6449 4720.4341 2105117
361.35056 1495.3036 4632.6294 2039324
395.52393 1521.1605 4712.7373 2105117
417.25043 1498.8942 4643.7534 2170908
440.91519 1485.9149 4603.542 2105116
474.05615 1504.5227 4661.1914 2236701
498.69577 1495.5863 4633.5054 2105115
524.59009 1491.1489 4619.7578 2039325
557.34381 1505.6827 4664.7852 2105116
584.24316 1503.7744 4658.873 2105371
609.2301 1497.3383 4638.9331 2039322
633.72491 1490.3003 4617.1284 2039579
664.69287 1498.4376 4642.3389 2236957
686.07635 1485.1803 4601.2661 2170908
717.72998 1494.3187 4629.5781 2171166
738.85406 1481.6688 4590.3872 2236703
767.63922 1484.735 4599.8867 2302495
798.43396 1491.3445 4620.3638 2170910
823.34595 1486.8918 4606.5688 2105117
856.00623 1496.2689 4635.6201 2236703
892.10364 1510.884 4680.8994 2236703
913.38177 1500.2762 4648.0352 2236703
941.68732 1501.4945 4651.8096 2236703
976.52618 1512.7645 4686.7256 2236703
1001.7084 1508.8654 4674.6455 2302496
1028.6191 1507.7098 4671.0654 2236703
1066.1069 1521.712 4714.4458 2302496
1110.6641 1544.8318 4786.0737 2368289
1126.3068 1527.5844 4732.6392 2302496
1165.1765 1541.9121 4777.0283 2302496
1188.5354 1535.521 4757.2275 2368289
1222.541 1542.8623 4779.9722 2368289
1244.9937 1535.6211 4757.5381 2434082
1267.6119 1528.9005 4736.7168 2368289
1300.8859 1535.0448 4755.7524 2302496
1346.4492 1555.1228 4817.9561 2236702
1384.6178 1566.0031 4851.665 2105117
1419.356 1572.6401 4872.2271 2039324
1463.7571 1589.5056 4924.4785 1907738
1496.248 1593.0312 4935.4014 2039324
1522.5693 1589.9789 4925.9448 2170909
1554.168 1592.4487 4933.5967 2236700
1579.4436 1588.4681 4921.2642 2236701
1611.9613 1591.7834 4931.5352 2236701
1644.4491 1594.9514 4941.3506 2236701
1686.2478 1606.8815 4978.311 2368286
1673.6082 1567.417 4856.0454 2170908
1650.6396 1519.7766 4708.4497 2170651
1780.827 1612.3898 4995.3765 2236700
1804.1239 1606.7765 4977.9858 2170908
1830.5408 1604.0779 4969.625 2105115
1846.4901 1592.4373 4933.561 2105115
1869.7648 1587.3784 4917.8882 2368286
1845.1545 1542.4458 4778.6816 2236701
1907.3629 1570.3501 4865.1323 2236701
1937.9691 1571.7924 4869.6011 2170395
1982.5916 1584.3937 4908.6411 2104600
2018.0222 1589.3909 4924.123 1973014
2047.5757 1589.6829 4925.0278 1973014
2074.1428 1587.6808 4918.8252 1775635
2039.2319 1539.3269 4769.019 1644049
2080.7622 1549.2084 4799.6328 1578256
2100.8977 1543.1088 4780.7358 1578513
2167.0791 1570.5425 4865.7285 1578512
2187.3921 1564.45 4846.853 1644046
2208.3042 1558.9385 4829.7778 788994
2225.5054 1550.9817 4805.127 394240
2268.6226 1561.0588 4836.3472 1052160
2276.9263 1547.2281 4793.498 920832
2308.6289 1549.4424 4800.3579 196864
2342.9834 1553.3608 4812.498 197120
2355.5398 1542.9071 4780.1108 197120
2381.1978 1541.1816 4774.7651 197120
2395.1917 1532.0359 4746.4307 66304
2311.3396 1461.2435 4527.1074 768
2395.5508 1497.1074 4638.2178 768
2409.6519 1488.8389 4612.6011 768
2434.7927 1487.5005 4608.4546 1024
2442.5005 1475.6595 4571.77 1024
2375.7273 1419.5735 4398.0083 1024
2367.4648 1399.2874 4335.1597 1024
2339.7493 1368.0621 4238.4204 1024
2368.0964 1369.9324 4244.2144 1024
2409.6426 1379.3186 4273.2939 1024
2377.9343 1347.0137 4173.2095 1280
2404.2156 1347.8844 4175.9072 1280
2477.499 1374.8199 4259.3569 1024
2475.6753 1359.9542 4213.3008 1024
2459.9524 1337.826 4144.7451 1024
2534.7559 1364.881 4228.5645 1024
2432.2026 1296.8403 4017.7664 1024
2444.3608 1290.6895 3998.7104 1024
2445.5957 1278.9443 3962.3225 1024
2457.5364 1272.9679 3943.8069 1024
2456.8787 1260.6399 3905.613 1024
2475.686 1258.4363 3898.7864 1024
2482.2441 1250.1046 3872.9734 768
2518.5654 1256.7773 3893.6467 1024
2503.1997 1237.7714 3834.7634 1024
2553.8962 1251.4791 3877.2322 1024
2529.9146 1228.6747 3806.5813 1024
2570.5334 1237.3699 3833.5198 1024
2592.2131 1236.8757 3831.989 1024
2600.1189 1229.875 3810.3 1024
2624.3286 1230.6405 3812.6714 1024
2630.9575 1223.2189 3789.6785 1024
2667.4924 1229.7096 3809.7874 1024
2606.5466 1191.5299 3691.5022 1024
2570.3809 1165.2192 3609.9885 1024
2800.6865 1259.144 3900.9788 1024
2579.4033 1150.1661 3563.3521 1024
2688.0466 1188.8785 3683.2881 1024
2610.739 1145.3871 3548.5461 1024
2604.6467 1133.5844 3511.9802 1024
2576.7781 1112.5668 3446.8647 1024
2534.6353 1085.7649 3363.8293 1024
2546.5613 1082.3621 3353.2874 1024
2512.8901 1059.7819 3283.3311 1024
2583.4631 1081.1746 3349.6084 1024
2669.2783 1108.5714 3434.4868 1024
2649.4722 1092.0203 3383.2092 1024
2691.96 1101.2002 3411.6497 768
2687.1943 1091.0574 3380.2261 768
2704.241 1089.8552 3376.502 768
2704.3806 1081.9071 3351.8777 768
2696.2112 1070.775 3317.3892 768
2698.1904 1063.8052 3295.7959 768
2735.9387 1070.937 3317.8909 768
2710.3337 1053.3452 3263.3894 512
2726.0542 1051.9497 3259.0659 512
2764.5903 1059.3162 3281.8882 512
2769.3997 1053.7467 3264.6335 256
2776.7461 1049.2134 3250.5884 256
2782.6526 1044.2019 3235.0625 256
2788.0078 1039.0537 3219.1125 256
2807.1553 1039.0807 3219.1963 65792
2814.804 1034.8798 3206.1814 65792
2824.9099 1031.6324 3196.1208 65792
2651.7578 961.94989 2980.2358 65792
2664.522 960.18597 2974.771 131584
2735.4873 979.28064 3033.9287 65792
2753.5747 979.31982 3034.05 65792
2774.3132 980.29541 3037.0723 65792
2773.658 973.74744 3016.7861 65792
2774.4431 967.78583 2998.3164 65792
2782.2156 964.32196 2987.585 0
2800.2058 964.42114 2987.8921 65792
2721.448 931.40723 2885.6111 65792
2747.2249 934.35883 2894.7554 131584
2761.5996 933.41992 2891.8464 65792
0 0 0 0
0 0 0 0
0 0 0 0
0 0 0 0
0 0 0 0
0 0 0 0
-3999.3213 1461.1523 4445.2212 7694932
-3918.5217 1441.1235 4384.2881 7826518
-3905.5859 1445.9523 4398.9785 8089690
-3894.7979 1451.6465 4416.3018 8089434
-3880.4077 1456.0662 4429.7476 8154968
-3818.2966 1442.5173 4388.5283 8155737
-3799.7737 1445.3629 4397.1855 8221529
-3771.2925 1444.4338 4394.3589 8418907
-3752.238 1447.1271 4402.5527 8287322
-3728.22 1447.9308 4404.9976 8287322
-3688.2859 1442.5205 4388.5381 8155736
-3789.0518 1492.4532 4540.4473 8155736
-3651.7812 1448.6707 4407.2485 8155736
-3626.7795 1449.1154 4408.6016 8023895
-3574.978 1438.7808 4377.1606 7892564
-3543.0527 1436.3529 4369.7744 7563598
-3511.5344 1434.0555 4362.7852 7300425
-3492.4482 1436.8387 4371.2524 6905411
-3477.0408 1441.1884 4384.4854 6773826
-3445.2954 1438.7805 4377.1602 7036740
-3416.8901 1437.7418 4374 7168582
-3413.9448 1447.4818 4403.6318 7102792
-3386.8804 1447.0669 4402.3691 7168585
-3391.2673 1460.1876 4442.2861 7432014
-3373.1599 1463.7524 4453.1313 7629138
-3339.1187 1460.4045 4442.9463 7563345
-3311.448 1459.812 4441.1436 7431760
-3284.0549 1459.3331 4439.6865 7234381
-3262.7275 1461.5637 4446.4727 7497553
-3264.6033 1474.3092 4485.248 7694932
-3235.1533 1473.0012 4481.2686 7563602
-3202.1519 1470.0409 4472.2627 7498067
-3185.2886 1474.5018 4485.834 7498068
-3112.2166 1452.7992 4419.8086 7432275
-3087.457 1453.4723 4421.8564 7300946
-3062.3125 1453.974 4423.3828 7432532
-3030.4338 1451.2595 4415.1245 7366738
-2996.9851 1447.7393 4404.415 7169358
-2984.3777 1454.3134 4424.415 5458226
-2949.9758 1450.2892 4412.1724 4931370
-2920.561 1448.6666 4407.2363 5655092
-2903.4607 1453.1782 4420.9619 6510401
-2860.7549 1444.84 4395.5942 6774343
-2862.4932 1459.0013 4438.6772 7103052
-2836.6064 1459.2144 4439.3252 7102794
-2826.8301 1467.7965 4465.4346 7365967
-2777.8977 1456.0176 4429.5996 7037774
-2760.073 1460.4742 4443.1582 6971982
-2728.5896 1457.7198 4434.7783 6906189
-2695.3774 1453.9792 4423.3984 6643017
-2672.1101 1455.5822 4428.2754 6380103
-2637.2178 1450.822 4413.7935 6248517
-2600.6362 1445.0277 4396.1655 6182725
-2573.6746 1444.5155 4394.6074 6182725
-2550.6973 1446.252 4399.8901 6116932
-2518.5483 1442.7703 4389.2979 6182725
-2500.4277 1447.3359 4403.188 5853760
-2452.8069 1434.7421 4364.874 5590588
-2436.7415 1440.5344 4382.4961 5459001
-2402.564 1435.6292 4367.5728 5525051
-2382.4331 1439.1016 4378.1367 5524795
-2348.3552 1434.1332 4363.0215 5064244
-2303.804 1422.5869 4327.8945 4866608
-2306.1028 1440.036 4380.9795 4801071
-2290.0378 1446.2845 4399.9893 4472108
-2266.4373 1447.8632 4404.792 4472111
-2235.7815 1444.9192 4395.8354 4537904
-2197.8635 1437.1569 4372.2202 4340525
-2189.6589 1448.8705 4407.8564 4274476
-2161.4746 1447.4871 4403.6475 4208427
-2110.0547 1430.3191 4351.418 4011048
-2107.8257 1446.4835 4400.5947 3814182
-2079.7419 1445.0879 4396.3486 3748903
-2063.2749 1451.8311 4416.8633 3485475
-2059.1313 1467.5304 4464.625 3288096
-2047.6753 1478.359 4497.5684 3090461
-2048.6292 1498.5508 4558.9976 3090462
-2037.161 1510.0743 4594.0552 2892827
-2021.0884 1518.4507 4619.5381 2695450
-2009.2118 1530.2527 4655.4434 2432278
-1988.0151 1535.1862 4670.4521 2366742
-1973.072 1545.1564 4700.7842 2366743
-1934.387 1536.5529 4674.6099 2432537
-1900.4922 1531.5597 4659.4194 2367001
-1879.2546 1536.77 4675.2705 2104344
-1850.7058 1536.0677 4673.1343 2301723
-1817.3538 1531.2971 4658.6206 2301979
-1783.5532 1525.9957 4642.4922 2367772
-1750.4884 1521.1675 4627.8032 2367772
-1726.3804 1524.0927 4636.7026 2302236
-1697.0927 1522.4657 4631.7529 2433565
-1664.9672 1518.1979 4618.769 2433565
-1640.0547 1520.4744 4625.6948 2433822
-1605.1056 1513.3655 4604.0674 2433565
-1540.1636 1477.2429 4494.1729 2433565
-1538.733 1501.8379 4568.9976 2301979
-1535.8577 1525.8785 4642.1357 2367772
-1513.3585 1530.9441 4657.5464 2433565
-1544.7201 1591.6964 4842.3716 2433565
-1453.3248 1525.8646 4642.0933 2433566
-1384.9275 1482.1042 4508.9624 2236701
-1356.3885 1480.1166 4502.9155 2171164
-1366.1681 1520.7019 4626.3872 2236701
-1326.2716 1506.5222 4583.2485 2302493
-1275.1276 1478.7061 4498.6245 2367517
-1245.2522 1474.8933 4487.0249 2367517
-1210.9305 1465.5328 4458.5479 2499103
-1176.7151 1455.8864 4429.2007 2433310
-1159.132 1466.8475 4462.5474 2499103
-1137.2241 1472.7197 4480.4121 2433310
-1085.6298 1439.5094 4379.3774 2564896
-1066.2646 1448.4541 4406.5894 2564896
-1037.7101 1445.0509 4396.2363 2565151
-1014.3661 1448.9155 4407.9937 2630943
-983.72278 1442.2823 4387.8135 2630944
-955.90179 1439.5394 4379.4688 2630944
-930.20752 1439.9353 4380.6733 2762530
-907.34064 1444.8566 4395.645 2696737
-886.74988 1453.8003 4422.854 2696737
-863.53296 1458.8519 4438.2227 2630944
-839.11993 1462.1368 4448.2163 2565151
-807.28772 1452.288 4418.2534 2499358
-781.72894 1453.443 4421.7671 2301979
-757.17175 1456.6046 4431.3857 2104089
-741.00079 1476.7062 4492.54 2104345
-712.8338 1473.5085 4482.812 2170138
-680.16333 1460.3938 4442.9136 2235931
-652.2782 1456.9115 4432.3193 2367517
-632.74646 1472.5776 4479.98 2301724
-611.9068 1486.4386 4522.1489 2301724
-586.37457 1489.6482 4531.9131 2235931
-562.83698 1498.4761 4558.77 2235931
-538.92731 1507.1534 4585.1689 2038552
-513.45093 1512.1382 4600.334 1972759
-489.10312 1521.1918 4627.8774 1972759
-457.59052 1507.7139 4586.874 2038552
-436.68216 1529.6799 4653.7007 2235931
-408.06805 1525.7948 4641.8809 2170138
-372.89981 1495.0706 4548.4097 2301724
-349.67456 1511.1726 4597.3965 2236188
-323.24539 1514.9795 4608.978 2170908
-293.02127 1500.0615 4563.5933 2170651
-266.23151 1501.479 4567.9058 2105115
-238.77112 1499.0073 4560.3862 2236444
-211.38139 1496.405 4552.4692 2302494
-184.11957 1494.0792 4545.3936 2302494
-157.81735 1500.0775 4563.6421 2236701
-130.76801 1499.9866 4563.3652 2368287
-103.17241 1491.9489 4538.9126 2368287
-76.580032 1497.8655 4556.9126 2434080
-49.389698 1492.1617 4539.5601 2302494
-22.469112 1490.7108 4535.146 2236702
4.4832435 1517.7238 4617.3267 2105116
32.677071 1557.4896 4738.3052 1973531
58.501652 1499.7625 4562.6836 1973531
83.447319 1463.1166 4451.1968 1776152
111.56386 1486.3165 4521.7773 1907738
137.37593 1475.775 4489.7075 1841945
167.43451 1506.8716 4584.3115 2039324
193.72087 1500.0765 4563.6392 2039324
220.32899 1497.1326 4554.6826 2039324
248.91656 1506.8135 4584.1348 2039324
274.47708 1498.0681 4557.5288 2039324
302.53125 1503.2804 4573.3862 2105117
330.9978 1509.5166 4592.3584 2105117
354.62009 1494.391 4546.3423 1973531
385.05783 1508.0944 4588.0317 1973531
406.36914 1486.6034 4522.6504 1973531
433.04965 1486.1986 4521.4185 1907738
460.09225 1487.011 4523.8901 2170910
482.46063 1473.4587 4482.6606 2039323
509.27209 1474.1821 4484.8613 2039323
541.7677 1490.4716 4534.418 2105116
566.1416 1483.9336 4514.5278 2105116
589.10236 1474.4486 4485.6719 2105117
615.54657 1474.1249 4484.687 1907739
644.56055 1479.7272 4501.731 2039324
672.86133 1483.3123 4512.6377 1973531
702.04834 1488.5022 4528.4268 1973531
730.22028 1491.2371 4536.7471 1973531
743.94159 1465.3148 4457.8843 1841945
768.80316 1462.3604 4448.8965 2170910
791.03387 1454.7637 4425.7852 2236703
827.86267 1473.6398 4483.2114 2170910
853.08887 1471.3311 4476.1875 2170910
883.41644 1477.6947 4495.5474 2170910
914.50299 1484.918 4517.5225 2170653
947.56732 1494.8507 4547.7407 2236703
965.75299 1481.411 4506.8535 2236703
1016.621 1517.4785 4616.5806 2368289
1027.2155 1493.116 4542.4634 2302496
1042.7729 1477.0275 4493.5176 2236703
1106.9462 1528.8867 4651.2876 2236702
1147.4204 1546.2894 4704.231 2170910
1167.9288 1536.5983 4674.748 2039324
1196.152 1537.2709 4676.7944 2302496
1226.0781 1540.052 4685.2554 2302495
1248.337 1533.2927 4664.6919 2236703
1264.6241 1519.6504 4623.188 2236703
1308.464 1538.9934 4682.0347 2170910
1349.9957 1554.8748 4730.3501 2039324
1389.3823 1567.6896 4769.3364 1973531
1420.3247 1570.6556 4778.3599 1973531
1466.4521 1589.9698 4837.1191 2039324
1483.4327 1577.5475 4799.3267 1973528
1524.7094 1590.9438 4840.082 2105114
1536.092 1573.2289 4786.1885 2105115
1553.848 1562.5654 4753.7471 2105115
1519.2175 1500.5392 4565.0464 2236700
1630.8619 1582.632 4814.7954 2434080
1583.3877 1510.1439 4594.2666 2302494
1646.5287 1543.8217 4696.7236 2236703
1630.9677 1503.8135 4575.0078 1776152
1656.1207 1502.0396 4569.6113 2039324
1767.2908 1577.0823 4797.9116 1973530
1727.9222 1517.5391 4616.7646 2170653
1828.3029 1580.6727 4808.8345 2302495
1810.9142 1541.613 4690.0044 2302495
1820.5715 1526.4102 4643.7529 2236701
1917.2018 1583.4943 4817.4185 1973016
1942.3163 1580.7021 4808.9243 1973014
1956.715 1569.3964 4774.5288 1841428
2000.4072 1581.5732 4811.5737 1841428
2003.0051 1561.3739 4750.1221 1775378
2003.2894 1539.9558 4684.9624 1775891
2020.1089 1531.6604 4659.7256 1775635
2059.9487 1540.8076 4687.5542 1446927
2117.4163 1562.7212 4754.2212 1381391
2138.5393 1557.5879 4738.6045 1381391
2169.7888 1559.868 4745.541 1513231
2190.9133 1554.9039 4730.4385 1381646
2243.0654 1571.8073 4781.8633 1184263
2254.4375 1560.0693 4746.1533 1117699
2268.7986 1550.6635 4717.5381 65792
2304.5374 1555.9199 4733.5298 196864
2322.2292 1549.012 4712.5137 196864
2354.4465 1551.8419 4721.1235 196864
2365.5852 1540.8756 4687.7607 196864
2369.0369 1525.2147 4640.1162 66048
2400.7732 1527.9143 4648.3291 512
2381.9512 1498.7408 4559.5757 66304
2381.3894 1481.5826 4507.3755 66304
2433.334 1497.1094 4554.6123 66304
2302.8005 1401.2574 4263.0044 768
2293.4275 1380.4119 4199.5869 1024
2307.6785 1374.0803 4180.3247 1024
2312.6533 1362.4187 4144.8467 1024
2315.3782 1349.6904 4106.124 1024
2324.8879 1341.141 4080.1143 1024
2341.8757 1337.037 4067.6284 1024
2349.1394 1327.5211 4038.679 1024
2376.9285 1329.6797 4045.2456 1024
2427.2029 1344.2478 4089.5659 1024
2404.7217 1318.6324 4011.637 1024
2416.1453 1311.9282 3991.241 1024
2417.1997 1299.7783 3954.2776 1024
2419.6077 1288.5824 3920.2166 1024
2429.5173 1281.5566 3898.8425 1024
2407.3728 1257.9139 3826.915 1024
2456.4243 1271.5673 3868.4521 1024
2469.2585 1266.3937 3852.7124 66048
2485.1213 1262.8538 3841.9431 1024
2540.8354 1279.4453 3892.4192 1024
2537.3406 1266.1917 3852.0979 1024
2650.2712 1310.7556 3987.6733 1024
2571.6382 1260.6265 3835.1672 1024
2562.9316 1245.3536 3788.7031 1024
2678.584 1290.2487 3925.2856 1024
2646.0449 1263.6025 3844.2212 1024
2675.8972 1266.9518 3854.4104 1024
2696.1987 1265.7606 3850.7864 1024
2591.0938 1206.2098 3669.6169 1024
2583.8977 1192.8499 3628.9722 1024
2522.3853 1154.8423 3513.3428 1024
2572.2717 1168.042 3553.5 1024
2564.7705 1155.1797 3514.3694 1024
2568.26 1147.4351 3490.8081 1024
2642.103 1170.9952 3562.4846 1024
2640.5474 1161.0297 3532.1667 1024
2675.6672 1167.2201 3550.9995 1024
2660.1943 1151.4155 3502.918 1024
2614.7827 1122.9978 3416.4634 1024
2638.7856 1124.5999 3421.3374 1024
2586.4004 1093.8705 3327.8501 1024
2669.2808 1120.3813 3408.5034 1024
2602.0022 1083.9409 3297.6418 768
2674.9963 1106.0428 3364.8821 768
2692.1135 1104.8851 3361.3596 768
2688.0171 1095.1019 3331.5964 768
2743.991 1109.7556 3376.177 768
2744.9014 1102.0889 3352.8528 768
2738.7532 1091.7186 3321.304 512
2741.5679 1085.0438 3300.9971 512
2720.5286 1069.0896 3252.46 512
2758.824 1076.5126 3275.043 512
2763.4167 1070.7727 3257.5808 256
2775.5876 1068.0286 3249.2322 256
2780.7571 1062.6466 3232.8589 256
2789.5527 1058.7146 3220.8965 256
2804.7764 1057.2589 3216.468 65792
2819.4097 1055.6021 3211.4272 65792
2822.3433 1049.6162 3193.2168 131584
2836.6958 1047.9286 3188.0825 65792
2715.759 996.61536 3031.9739 65792
2669.3845 973.15936 2960.6143 131584
2741.8782 993.06158 3021.1624 65792
2749.3079 989.2934 3009.6985 65792
2799.3213 1000.7981 3044.699 0
2778.8831 987.12933 3003.1147 65792
2785.7688 983.27893 2991.4006 65792
2815.5576 987.50995 3004.2727 65792
2808.0105 978.67523 2977.395 65792
2736.2026 947.69385 2883.1414 65792
2834.9697 975.80957 2968.677 131584
0 0 0 0
0 0 0 0
0 0 0 0
0 0 0 0
0 0 0 0
0 0 0 0
-3855.6929 1434.0715 4285.5791 7892565
-3837.7275 1436.8525 4293.8901 7892565
-3831.8936 1444.2433 4315.9766 7957588
-3800.1167 1441.8896 4308.9429 7760466
-3779.6223 1443.8141 4314.6938 7826002
-3717.6729 1429.8212 4272.8774 7892052
-3682.3687 1425.9542 4261.3218 8023382
-3664.009 1428.641 4269.3506 7826259
-3653.2207 1434.3376 4286.3745 7497294
-3552.4478 1404.5367 4197.3174 7431501
-3529.8384 1405.4373 4200.0083 7563086
-3484.2036 1397.1174 4175.1455 7432012
-3463.0466 1398.5642 4179.4692 7497805
-3451.3923 1403.8972 4195.4062 7234377
-3396.6865 1391.6688 4158.8628 6905668
-3365.2944 1388.8832 4150.5386 6773569
-3351.2827 1393.2827 4163.686 7036740
-3382.925 1416.8687 4234.1699 7300169
-3419.3611 1442.8296 4311.752 7892307
-3403.1956 1446.8188 4323.6733 7695185
-3379.3857 1447.5941 4325.9902 7563600
-3365.9106 1452.842 4341.6729 7102796
-3359.4097 1461.204 4366.6621 7826262
-3353.4993 1469.9548 4392.813 7629139
-3351.6135 1480.6206 4424.6865 7102795
-3324.0969 1480.0426 4422.959 7037002
-3287.3657 1475.3197 4408.8452 6971209
-3266.2654 1477.5925 4415.6372 7102795
-3231.1455 1473.5085 4403.4326 7168587
-3205.0161 1473.4912 4403.3809 7168331
-3171.6189 1470.105 4393.2617 6577221
-3168.9177 1481.0089 4425.8467 6840395
-3120.2451 1470.4302 4394.2334 6577223
-3088.6912 1467.8087 4386.3994 6379845
-3049.6516 1461.5552 4367.7114 6379845
-3013.3716 1456.5286 4352.6899 6182723
-2983.4321 1454.5063 4346.6465 6050880
-2920.0037 1435.9797 4291.2817 5985085
-2912.3635 1444.8041 4317.6523 5853500
-2906.6982 1454.7729 4347.4434 5853244
-2785.2004 1406.429 4202.9722 5195315
-2812.4636 1433.0094 4282.4053 4865582
-2771.1235 1424.8008 4257.8745 4734251
-2713.2649 1407.87 4207.2788 4339749
-2692.1479 1409.8669 4213.2461 4668715
-2684.2949 1418.9124 4240.2773 4471338
-2709.6912 1445.8702 4320.8384 4208425
-2667.8303 1437.1122 4294.666 4274474
-2663.5854 1448.6438 4329.127 4208682
-2640.9858 1450.3199 4334.1357 4274475
-2612.793 1448.9272 4329.9741 4011304
-2576.4167 1442.9237 4312.0332 3879720
-2542.9683 1438.4563 4298.6826 3813928
-2513.6145 1436.238 4292.0537 3550756
-2454.1453 1416.5909 4233.3403 3353634
-2423.887 1413.5736 4224.3232 3287841
-2396.511 1412.1917 4220.1934 3024669
-2357.2961 1403.7307 4194.9087 2958619
-2335.3767 1405.4983 4200.1909 2761498
-2304.2832 1401.7235 4188.9102 2564119
-2285.2029 1405.2533 4199.459 2498327
-2243.5757 1394.8438 4168.3511 2432792
-2207.9114 1387.9508 4147.752 2235670
-2186.3557 1389.8715 4153.4917 2235671
-2155.269 1385.7083 4141.0503 2038550
-2136.689 1389.5824 4152.6279 2235928
-2103.4849 1383.9255 4135.7231 2367257
-2080.3899 1384.8647 4138.5298 2301720
-2061.1108 1388.3969 4149.085 2433050
-2039.8538 1390.6655 4155.8647 2367514
-2006.104 1384.3689 4137.0479 2301464
-2004.179 1400.1497 4184.207 2235671
-1990.7604 1408.1956 4208.2515 2235671
-1998.3193 1431.4725 4277.8125 2169880
-1971.5133 1430.4147 4274.6509 2235673
-1960.9836 1441.292 4307.1567 2169880
-1934.7368 1440.7517 4305.5425 2367002
-1924.4128 1452.2133 4339.7939 2301209
-1888.6249 1444.509 4316.7705 2169880
-1870.2771 1450.1152 4333.5244 2235416
-1855.459 1458.6527 4359.0376 2301466
-1850.0752 1474.9524 4407.7476 2169880
-1806.1324 1460.5381 4364.6719 2038551
-1774.1858 1455.5466 4349.7554 1907221
-1742.3463 1450.4971 4334.6655 1644049
-1739.9973 1470.2146 4393.5894 1907221
-1697.4521 1456.0515 4351.2642 1973014
-1668.6746 1453.4431 4343.4692 2104600
-1634.951 1446.3776 4322.3545 2170393
-1618.8153 1454.8938 4347.8047 2170393
-1592.5129 1454.4009 4346.3315 2367772
-1581.0366 1467.6543 4385.938 2301979
-1532.7411 1446.6011 4323.0225 2301978
-1498.1027 1437.9407 4297.1416 2367772
-1444.1964 1410.1669 4214.1426 2301979
-1458.0255 1448.7188 4329.3511 2367772
-1443.2701 1459.741 4362.2896 2367772
-1445.3015 1488.453 4448.0928 2433565
-1423.5131 1493.245 4462.4131 2499358
-1364.0605 1457.9615 4356.9722 2236701
-1343.2173 1463.3801 4373.165 2236701
-1314.7887 1460.5853 4364.813 2104858
-1276.6373 1446.6606 4323.2007 2170908
-1253.3521 1449.3567 4331.2573 2170908
-1233.2677 1455.9443 4350.9438 2236701
-1202.4994 1449.9309 4332.9731 2236701
-1172.6577 1444.7966 4317.6304 2433054
-1153.2356 1452.5576 4340.8232 2235931
-1120.6229 1443.6793 4314.291 2301724
-1084.1407 1429.285 4271.2754 2433310
-1062.8239 1434.6741 4287.3799 2433566
-1042.5806 1441.8114 4308.709 2367773
-1015.218 1439.2147 4300.9492 2368029
-978.37793 1422.7026 4251.6045 2368029
-946.17108 1412.2332 4220.3174 2499359
-926.38385 1420.2356 4244.2319 2499615
-902.88538 1422.8363 4252.0039 2499872
-884.32489 1433.5913 4284.144 2565409
-859.16644 1433.9701 4285.2759 2499616
-838.15668 1441.5066 4307.7983 2434079
-809.77966 1436.4484 4292.6821 2499616
-782.84955 1433.7118 4284.5039 2302493
-755.77838 1430.5247 4274.98 2105115
-738.26062 1445.8264 4320.7075 1973530
-716.04022 1452.6868 4341.209 1973786
-689.15112 1450.2338 4333.8784 2039324
-663.67157 1450.6718 4335.1875 2039323
-640.0882 1455.4568 4349.4868 2105115
-619.79144 1468.4299 4388.2559 2039578
-594.17157 1469.3754 4391.0811 2170908
-571.89917 1479.0647 4420.0366 1973786
-552.04974 1496.2512 4471.397 1907736
-525.34058 1495.641 4469.5732 1907992
-496.49985 1488.5754 4448.4585 1907736
-470.87518 1490.9001 4455.4058 1973529
-446.03302 1496.1257 4471.022 2039322
-420.23166 1498.5906 4478.3882 2039579
-398.64954 1517.4486 4534.7432 2039322
-371.6391 1516.8761 4533.0322 2105115
-334.63284 1472.2372 4399.6333 1973787
-312.15665 1489.382 4450.8691 1973531
-283.18094 1475.8188 4410.3369 2039324
-253.6451 1456.2819 4351.9526 1973530
-229.53186 1466.9796 4383.9219 2039322
-203.02843 1463.1821 4372.5732 2039324
-178.61057 1475.5024 4409.3916 1973532
-152.09175 1471.7151 4398.0732 2039323
-128.87885 1504.9657 4497.4395 2236703
-104.81441 1543.0161 4611.1494 2170908
-74.037094 1474.2319 4405.5947 2170910
-48.009937 1476.6237 4412.7422 2302496
-21.935863 1481.5673 4427.5156 2236703
4.3260942 1490.9241 4455.4775 2170910
30.844652 1496.6528 4472.5972 2170654
56.640411 1478.2228 4417.521 2105117
83.124298 1483.726 4433.9663 1973531
109.92165 1490.837 4455.2173 1710359
136.12538 1488.7021 4448.8374 1710359
162.68758 1490.5441 4454.3418 1841945
189.74489 1495.7749 4469.9736 1973531
215.00659 1487.3032 4444.6567 1973531
244.50284 1506.7761 4502.8496 1973531
270.56378 1503.3301 4492.5513 1907738
297.54837 1505.1733 4498.0601 2039324
325.14813 1509.5697 4511.1982 1973531
351.19589 1506.6401 4502.4434 1973531
375.29532 1496.356 4471.71 1907738
396.39951 1476.2731 4411.6943 1907738
423.1153 1478.2811 4417.6953 1907738
442.83154 1457.0249 4354.1733 1841945
474.12003 1474.0885 4405.166 1973531
501.0675 1476.579 4412.6084 1973531
534.93738 1498.21 4477.2505 2039325
542.9801 1448.88 4329.833 2039324
573.30957 1460.7881 4365.4189 2039324
588.45099 1434.6394 4287.2764 1907738
634.35162 1482.5426 4430.4302 1907738
715.44019 1605.6079 4798.1987 1907738
688.92358 1487.0059 4443.7681 1973531
703.71777 1463.0206 4372.0908 1907738
746.38385 1496.6266 4472.519 1907738
770.74487 1492.4819 4460.1328 1907738
791.94568 1482.6952 4430.8862 2039324
809.91943 1467.689 4386.0415 1973531
834.6427 1465.4666 4379.3999 1973531
895.33246 1524.6238 4556.1855 2039324
890.46118 1471.9448 4398.7598 2170653
911.32324 1463.5897 4373.7915 2105117
947.46088 1479.551 4421.4902 2170909
973.00781 1478.5599 4418.5283 2236703
994.90808 1472.2247 4399.5962 2236703
1019.8866 1470.6517 4394.8955 2039324
1055.556 1484.1893 4435.3511 2039324
1109.7974 1522.5482 4549.9829 2039324
1156.7975 1549.389 4630.1938 2105117
1149.7577 1504.283 4495.3989 2105117
1222.0491 1562.6621 4669.8594 2302496
1281.5621 1602.478 4788.8452 2236703
1242.8644 1520.4253 4543.6387 2170910
1283.0723 1536.3326 4591.1763 2170910
1316.5432 1543.6801 4613.1333 2105117
1338.9557 1538.026 4596.2368 2039324
1374.027 1546.8486 4622.6021 1973531
1401.817 1547.2892 4623.9189 1907738
1421.0408 1538.4391 4597.4712 1973531
1388.4821 1474.9158 4407.6382 2039324
1481.7179 1544.8965 4616.7686 2170908
1499.7769 1535.3785 4588.3252 2236701
1536.2405 1544.7056 4616.1982 2368289
1500.1469 1482.0256 4428.8853 2368289
1537.7754 1493.0803 4461.9209 2434082
1623.8367 1549.9916 4631.9946 2499875
1630.9182 1530.8759 4574.8691 2368289
1676.7668 1548.1792 4626.5786 2236703
1700.1738 1544.5388 4615.6997 2236703
1668.063 1491.3762 4456.8286 2302496
1761.1943 1550.1021 4632.3247 2236703
1782.8065 1545.0441 4617.2095 2170910
1791.5029 1529.1151 4569.6074 2039324
1828.7958 1537.705 4595.2773 1907736
1859.1467 1540.2916 4603.0073 1841943
1903.9919 1554.6383 4645.8809 1841943
1936.5251 1558.6661 4657.918 1776150
1968.8054 1562.3802 4669.0171 1841943
1985.653 1553.9143 4643.7173 1710357
2012.5471 1553.4343 4642.2832 1776150
1998.576 1521.8501 4547.8965 1776150
2023.0154 1519.965 4542.2632 1841943
2058.8186 1526.5555 4561.9585 1710357
2094.8386 1533.134 4581.6177 1512977
2125.3911 1535.5935 4588.9678 1315598
2165.4309 1544.7594 4616.3589 1117963
2181.2009 1536.5989 4591.9722 1052427
2204.6812 1534.0043 4584.2183 1052426
2262.3953 1555.0026 4646.9697 921093
2283.1357 1550.3887 4633.1812 459777
2318.6165 1555.7748 4649.2773 131072
2337.9202 1550.3074 4632.9385 196608
2336.6956 1531.5122 4576.771 262400
2352.947 1524.4711 4555.729 262400
2316.9343 1484.1116 4435.1191 262400
2346.6484 1486.2869 4441.6196 197120
2377.7908 1489.3083 4450.6489 768
2376.7532 1472.329 4399.9077 66304
2375.8965 1455.829 4350.5991 768
2290.8162 1388.629 4149.7788 1024
2289.1309 1372.8715 4102.689 1024
2303.7761 1367.136 4085.5491 1024
2315.595 1359.86 4063.8054 1024
2332.6477 1355.7758 4051.6001 1024
2335.5334 1343.6248 4015.2878 1024
2332.1995 1328.1763 3969.1218 1024
2353.5979 1326.981 3965.5498 1024
2362.4265 1318.7922 3941.0786 1024
2413.9902 1334.3867 3987.6812 1024
2419.8521 1324.6609 3958.6165 1024
2454.8853 1330.9373 3977.3728 1024
2448.7773 1315.0015 3929.7505 1024
2464.2749 1310.8588 3917.3704 1024
2537.8032 1337.3746 3996.6101 1024
2523.4619 1317.5225 3937.2842 1024
2579.8411 1334.6198 3988.3777 1024
2601.2568 1333.4832 3984.9812 1024
2609.6763 1325.7648 3961.9155 1024
2628.418 1323.3812 3954.7922 1024
2632.0015 1313.4751 3925.189 1024
2646.7756 1309.2782 3912.647 1024
2642.8848 1296.0015 3872.9705 1024
2664.7725 1295.4856 3871.429 1024
2648.7368 1276.6993 3815.2881 1024
2662.5461 1272.4945 3802.7227 1024
2569.959 1217.9377 3639.6851 1024
2611.8882 1227.5076 3668.2834 1024
2608.5825 1215.8358 3633.4038 1024
2493.5015 1152.6842 3444.6814 1024
2566.8074 1176.9377 3517.1606 1024
2560.0999 1164.408 3479.7168 1024
2576.2065 1162.3722 3473.6328 1024
2591.0647 1159.8098 3465.9753 1024
2606.0237 1157.3325 3458.5723 1024
2618.1606 1153.6503 3447.5684 1024
2684.3179 1173.6442 3507.3179 1024
2714.3301 1177.6487 3519.2852 1024
2721.4402 1171.7314 3501.6023 1024
2683.9563 1146.849 3427.2434 1024
2741.9502 1162.8312 3475.0046 768
2736.9817 1152.0726 3442.8535 768
2736.7007 1143.4316 3417.0308 768
2688.292 1114.9569 3331.937 768
2722.5986 1120.9529 3349.8557 768
2738.26 1119.2411 3344.7402 768
2710.7754 1100.0453 3287.375 768
2725.3198 1098.0571 3281.4338 512
2723.6841 1089.6241 3256.2327 512
2757.4827 1095.3856 3273.4504 256
2757.5613 1087.7654 3250.678 256
2767.8174 1084.2378 3240.136 256
2778.7927 1081.0383 3230.575 256
2787.717 1077.0905 3218.7769 256
2799.0088 1074.1046 3209.854 65792
2815.5032 1073.1421 3206.9775 0
2823.0098 1068.7897 3193.9709 65792
2626.3462 987.71136 2951.6765 65792
2702.9873 1009.8096 3017.7151 65792
2717.1355 1008.4242 3013.5747 65792
2760.9832 1018.0074 3042.2131 65792
2748.646 1006.8847 3008.9741 65792
2760.0969 1004.5632 3002.0364 131584
2770.2124 1001.7885 2993.7446 65792
2793.3398 1003.7246 2999.5305 65792
2838.8628 1013.6327 3029.1399 65792
2822.0852 1001.3113 2992.3186 65792
2818.5144 993.8006 2969.8735 65792
2831.0911 992.04108 2964.6155 65792
0 0 0 0
0 0 0 0
0 0 0 0
0 0 0 0
0 0 0 0
0 0 0 0
-3819.6479 1445.8214 4245.5151 7958359
-3797.4739 1446.9578 4248.8521 7892310
-3769.7156 1445.9674 4245.9438 7629138
-3730.772 1440.6444 4230.3135 7694931
-3714.552 1444.0835 4240.4121 7628881
-3679.4878 1440.1936 4228.9897 7497552
-3644.7561 1436.3813 4217.7954 7103050
-3616.4851 1435.0803 4213.9751 6971462
-3565.1172 1424.5322 4183.0015 6576705
-3523.2722 1417.6681 4162.8457 6181434
-3435.0247 1391.9045 4087.1934 5984309
-3413.751 1393.1062 4090.7219 5655087
-3389.417 1393.0671 4090.6074 6247481
-3335.0063 1380.5769 4053.9309 6115639
-3277.5693 1366.6436 4013.0171 6115640
-3277.1907 1376.472 4041.8774 5852983
-3226.814 1365.2905 4009.0442 5655604
-3278.4087 1397.4082 4103.3545 5523762
-3324.8972 1427.8129 4192.6348 5128749
-3312.4961 1433.1959 4208.4419 4405285
-3346.4626 1458.8746 4283.8447 4733993
-3259.9438 1432.0192 4204.9863 4602665
-3272.5374 1448.6235 4253.7432 4536872
-3213.7104 1433.6248 4209.7012 5589304
-3183.0364 1431.0487 4202.1367 5392181
-3184.8984 1443.1753 4237.7451 5129779
-3137.1436 1432.8326 4207.375 5195316
-3169.3469 1459.1365 4284.6138 4932146
-3116.2957 1446.2977 4246.9141 4603180
-3067.6282 1435.3011 4214.6235 4603181
-3057.9985 1442.5392 4235.8774 4076839
-3042.4182 1447.0667 4249.1719 3879718
-3003.282 1440.3723 4229.5146 3748133
-2972.3066 1437.5122 4221.1162 3748135
-2915.3621 1421.9374 4175.3818 3616291
-2890.5676 1421.911 4175.3047 3550754
-2862.0835 1420.0535 4169.8501 3419168
-2812.3279 1407.5177 4133.04 3090717
-2796.3816 1411.8311 4145.7061 3090461
-2758.0066 1404.7969 4125.0508 2827290
-2673.7039 1374.0344 4034.7197 2761240
-2649.864 1374.0695 4034.8225 2695447
-2598.9658 1359.9463 3993.3513 2629654
-2568.0571 1356.1196 3982.1145 2761241
-2577.0129 1373.4685 4033.0581 2695450
-2538.603 1365.6615 4010.1333 2629658
-2477.4268 1345.3439 3950.4724 2432536
-2468.627 1353.3524 3973.989 2564379
-2439.4458 1350.2343 3964.8328 2498587
-2413.7427 1348.9991 3961.2061 2301978
-2416.0071 1363.5239 4003.8564 2301979
-2376.386 1354.4633 3977.251 2301979
-2370.8884 1364.8655 4007.7959 2301979
-2357.884 1371.1125 4026.1399 2170393
-2354.9336 1383.3939 4062.2029 2038807
-2326.8962 1381.0393 4055.2888 2169623
-2294.4436 1375.9877 4040.4553 2170393
-2272.0125 1376.9028 4043.1426 2170393
-2257.9968 1382.9919 4061.0227 2236186
-2232.5195 1382.1166 4058.4521 2236186
-2227.8569 1394.2484 4094.0762 2170393
-2211.4822 1399.2371 4108.7246 2236186
-2189.8567 1400.9773 4113.835 2170393
-2157.4094 1395.7556 4098.502 2236186
-2145.4922 1403.8483 4122.2651 2104601
-2120.6138 1403.549 4121.3862 2236184
-2084.387 1395.644 4098.1743 2236184
-2078.3398 1407.9983 4134.4512 2301977
-2060.0376 1412.2461 4146.9243 2104854
-2031.228 1409.3062 4138.2915 2103828
-1992.4209 1399.2729 4108.8301 2104084
-1992.9368 1416.9497 4160.7363 2169878
-1969.4521 1417.7916 4163.2085 2104084
-1952.0502 1423.0891 4178.7642 2038294
-1938.3866 1431.2832 4202.8252 2169880
-1913.4615 1431.2671 4202.7778 2104343
-1878.2147 1423.428 4179.7593 2038551
-1866.4094 1433.3822 4208.9888 2038550
-1835.0461 1428.3824 4194.3071 1907221
-1819.8523 1436.0043 4216.688 1907220
-1785.4065 1428.4353 4194.4629 2038037
-1769.1729 1435.4296 4215.0005 2038037
-1745.8737 1436.8091 4219.0513 1841171
-1727.8512 1442.6345 4236.1572 1775892
-1704.4761 1444.0967 4240.4507 1841685
-1677.5643 1442.5613 4235.9424 2104857
-1652.0751 1442.2213 4234.9438 2104857
-1625.1823 1440.6266 4230.2612 2104858
-1603.1827 1443.3875 4238.3682 2105114
-1580.17 1445.3092 4244.0112 2039321
-1558.0417 1448.1155 4252.2515 2105115
-1528.8048 1444.2982 4241.0425 2104601
-1506.4022 1446.9178 4248.7349 2170394
-1468.8883 1434.8651 4213.3433 2105115
-1447.5989 1438.5184 4224.0708 2105115
-1425.855 1441.8407 4233.8262 2236700
-1392.7655 1433.6036 4209.6392 2236701
-1364.7869 1430.4229 4200.2988 2302494
-1341.8948 1432.5542 4206.5571 2236701
