# .PCD v0.7 - Point Cloud Data file format
VERSION 0.7
FIELDS x y z rgb
SIZE 4 4 4 4
TYPE F F F U
COUNT 1 1 1 1
WIDTH 1291
HEIGHT 1
VIEWPOINT 0 0 0 1 0 0 0
POINTS 1291
DATA ascii
4804.1206 1418.2151 6747.1787 2170393
4860.1875 1422.925 6769.5859 2236186
4886.2349 1418.8408 6750.1553 2236186
4942.4585 1423.5143 6772.3896 2236186
5016.7065 1433.262 6818.7642 2236186
5080.2944 1439.8328 6850.0249 2236186
5120.7412 1439.7927 6849.8345 2236186
5161.3638 1439.8024 6849.8804 2301979
5225.6558 1446.363 6881.0928 2236186
5283.8257 1451.1409 6903.8232 2301979
5267.5234 1435.5494 6829.647 2301979
5335.2515 1442.9219 6864.7212 2236441
5366.0835 1440.2797 6852.1509 2301466
5438.0142 1448.6252 6891.855 2301977
5444.6299 1439.577 6848.8081 2565149
5594.3081 1468.2091 6985.0254 2565406
5591.4487 1456.6815 6930.1826 2630941
5645.2959 1459.9874 6945.9111 2565149
5762.1797 1479.4301 7038.4097 2762269
5698.1978 1452.49 6910.2417 2696733
5790.5879 1465.5098 6972.1836 2630940
5689.9414 1429.8364 6802.4673 2433560
5758.6484 1436.923 6836.1812 1577996
5630.8784 1395.2269 6637.812 986375
5656.27 1391.7969 6621.4932 657666
5749.4644 1404.9827 6684.2251 3025697
5670.7056 1376.2559 6547.5571 3683628
5672.8623 1367.424 6505.5386 3749934
5652.0522 1353.2125 6437.9277 3881521
5535.3115 1316.3778 6262.686 3223077
5425.4697 1281.6635 6097.5322 3025698
5473.2642 1284.4006 6110.5547 2499353
5521.8115 1287.2775 6124.2407 2236182
5623.0869 1302.3286 6195.8472 2499354
5624.1602 1294.1279 6156.832 3353896
5801.8662 1326.4144 6310.4355 3485737
5608.8594 1274.0782 6061.4453 2301718
5616.8745 1267.7808 6031.4849 2038546
5643.105 1265.6481 6021.3389 3749163
5725.2339 1276.0007 6070.5913 3485990
5959.9941 1320.0287 6280.0557 3617576
5696.7485 1253.8959 5965.4277 3420196
0 0 0 0
0 0 0 0
0 0 0 0
0 0 0 0
0 0 0 0
0 0 0 0
-3949.7778 948.79651 4390.1538 131328
-3918.2307 947.4585 4383.9624 131584
-3884.7751 945.63788 4375.5386 65792
-3866.8901 947.60864 4384.6572 65792
-3849.7512 949.7901 4394.751 65792
-3824.8064 950.06219 4396.0103 131584
-3791.656 948.28601 4387.7915 65792
-3774.0054 950.38843 4397.5195 65536
-3756.2288 952.48822 4407.2354 0
-3709.7546 947.28943 4383.1802 65792
-3668.1272 943.26355 4364.5522 65792
-3649.9512 945.25403 4373.7622 65792
-3627.7341 946.21887 4378.2266 65792
-3620.8411 951.22333 4401.3828 131584
-3614.5532 956.46063 4425.6162 65792
-3737.325 996.17499 4609.3774 65792
-3717.4458 998.17096 4618.6128 66048
-3520.2974 952.24481 4406.1094 66048
-3482.5754 949.07983 4391.4644 256
-3467.6309 952.12122 4405.5371 66304
-3358.4998 929.15131 4299.2539 66304
-3339.5142 930.96033 4307.624 66304
-3344.521 939.53705 4347.3096 66304
-3325.2625 941.37744 4355.8252 66048
-3241.8271 924.93628 4279.7505 66304
-3180.4604 914.58185 4231.8398 132096
-3155.5308 914.62408 4232.0352 132096
-3113.0586 909.54156 4208.5181 66304
-3130.3611 921.98242 4266.0825 512
-3109.1123 923.17883 4271.6187 512
-3075.2026 920.60474 4259.708 256
-3178.197 959.31122 4438.8062 256
-3059.9719 931.33344 4309.3506 131840
-3071.9321 942.84149 4362.5991 66048
-3025.2041 936.37915 4332.6978 197632
-2900.9871 905.61615 4190.355 197632
-2974.8381 936.68774 4334.1255 263424
-2957.6506 939.38556 4346.6084 197632
-2889.8354 925.90955 4284.2539 197632
-2893.2185 935.2088 4327.2822 197632
-2838.4163 925.69836 4283.2769 197632
-2770.9246 911.84058 4219.1558 263424
-2754.981 914.84802 4233.0713 197376
-2694.595 903.01703 4178.3286 131584
-2707.3105 915.69177 4236.9756 256
-2669.4692 911.34399 4216.8579 256
-2712.6401 934.83246 4325.541 256
-2616.1909 910.19409 4211.5371 256
-2379.4604 835.80615 3867.3386 395010
-2623.9604 930.65155 4306.1953 461060
-2639.2319 945.25977 4373.7891 395267
-2642.363 955.7666 4422.4048 395267
-2641.2341 964.92755 4464.7935 395267
-2624.7039 968.59033 4481.7412 395267
-2521.8462 940.14502 4350.1226 395267
-2564.8101 966.03607 4469.9224 461060
-2510.4761 955.43768 4420.8828 526596
-2512.4158 966.2583 4470.9507 592389
-2501.1365 972.17139 4498.311 526596
-2502.5801 983.21051 4549.3896 526596
-2526.6182 1003.4635 4643.1021 0
-2559.8596 1027.8578 4755.9766 66048
-2602.4949 1056.6091 4889.0112 658181
-2641.4885 1084.5127 5018.1226 658181
-2678.1902 1112.0999 5145.7705 658181
-2693.2202 1131.2196 5234.2393 723974
-2726.7183 1158.6323 5361.0801 658181
-2739.9541 1177.9802 5450.604 460548
-2780.2058 1209.5428 5596.647 0
-2796.6155 1231.3698 5697.6416 2631971
-2679.3506 1194.1531 5525.437 3224107
-2638.7412 1190.6027 5509.0088 3289899
-2635.1919 1203.8942 5570.5098 3289899
-2627.3792 1215.5504 5624.4443 3224106
-2605.8306 1221.0697 5649.9824 3355691
-2581.0215 1225.1851 5669.0244 3224106
-2573.0535 1237.5084 5726.0459 3355692
-2561.3181 1248.3252 5776.0957 3289899
-2543.2712 1256.3171 5813.0752 3421486
-2504.7808 1254.2914 5803.7012 3553071
-2477.519 1257.91 5820.4458 3750450
-2459.9399 1266.6167 5860.7319 3947829
-2444.875 1276.8856 5908.2471 4013622
-2417.2422 1280.7939 5926.3311 4079415
-2388.3462 1284.1382 5941.8052 4276795
-2353.1389 1284.1382 5941.8052 3882037
-2297.6899 1272.9244 5889.9185 2302750
-2288.3728 1287.3163 5956.5103 329218
-2217.0623 1266.7383 5861.2944 263424
-2106.7952 1222.8928 5658.418 395009
-2116.8223 1248.5836 5777.2915 526595
-2096.8223 1257.1166 5816.7739 592135
-2056.8337 1253.7507 5801.2002 657928
-2028.7885 1257.6743 5819.3545 723721
-1973.3975 1244.4884 5758.3423 657928
-1920.4908 1232.4329 5702.5605 789514
-1900.6499 1241.5447 5744.7217 789514
-1874.7518 1246.9601 5769.7788 921100
-1866.7671 1264.7125 5851.9209 1052686
-1864.1923 1286.8717 5954.4531 986893
-1845.1385 1298.2906 6007.2896 1118479
-1821.2314 1306.6768 6046.0928 1184272
-1788.3916 1308.8618 6056.2036 1250065
-1759.97 1314.4363 6081.9966 1184272
-1733.8705 1322.0142 6117.0601 1184272
-1703.5 1326.5898 6138.2319 1118479
-1656.0679 1317.7883 6097.5073 1250065
-1615.2306 1313.9592 6079.7896 1381651
-1568.3297 1304.9104 6037.9199 1381651
-1546.9774 1317.1925 6094.75 1513237
-1507.3936 1314.1672 6080.752 1513237
-1476.3745 1318.6437 6101.4648 1513237
-1439.9332 1318.3804 6100.2461 1513237
-1389.5612 1305.02 6038.4272 1513237
-1358.6334 1309.6978 6060.0713 1447444
-1325.9993 1312.9397 6075.0718 1513237
-1306.0416 1329.2646 6150.6084 1447444
-1258.7605 1317.9188 6098.1108 1447444
-1218.5161 1313.4878 6077.6084 1447444
-1187.8472 1319.4231 6105.0708 1447444
-1195.443 1369.5696 6337.1025 1447444
-1156.8589 1368.3462 6331.4419 1447444
-1128.4712 1379.5056 6383.0776 1447444
-1066.0997 1348.4547 6239.4023 1513237
-942.81732 1235.3619 5716.1133 1513237
-1006.9377 1368.5421 6332.3486 1513237
-944.45135 1333.2991 6169.2764 1513237
-964.16052 1415.927 6551.6021 1447444
-804.90411 1231.6403 5698.8931 1381651
-860.48157 1374.3411 6359.1807 1579030
-756.54315 1263.6694 5847.0947 1579030
-708.61426 1240.4186 5739.5112 1513237
-720.6181 1325.0238 6130.9858 1513237
-681.36255 1319.3561 6104.7607 1513237
-657.61957 1344.7747 6222.3745 1579030
-611.47345 1324.6792 6129.3916 1579030
-576.14148 1326.9529 6139.9116 1579030
-511.94891 1258.5815 5823.5527 1579030
-507.81894 1338.6581 6194.0728 1579030
-447.87152 1272.6083 5888.4551 1513237
-491.69061 1515.1566 7010.7451 1382164
-452.22687 1522.1501 7043.1045 1382164
-392.56219 1455.6587 6735.4434 1447957
-341.8844 1411.2128 6529.7886 1513750
-294.13193 1369.0389 6334.6475 1447957
-253.92691 1354.795 6268.7397 1447957
-223.19923 1394.8994 6454.3057 1513750
-189.01784 1425.5415 6596.0889 1513237
-150.32016 1429.2191 6613.1055 1579030
-108.71606 1398.1129 6469.1748 1579030
-71.173805 1413.8096 6541.8047 1381651
-32.743855 1428.33 6608.9912 1447444
6.4008946 1424.7292 6592.3311 1579030
45.457703 1424.5601 6591.5479 1513237
74.994972 1264.0892 5849.0371 1447444
109.81249 1265.9294 5857.5518 1513237
164.71474 1442.8177 6676.0278 1513237
206.52696 1458.7388 6749.6953 1579030
246.63051 1459.3831 6752.6768 1710616
289.12564 1472.0239 6811.1665 1710616
307.53046 1373.9406 6357.3276 1579030
366.30157 1457.9268 6745.938 1644823
400.83954 1438.4252 6655.7026 1710616
407.85349 1332.4939 6165.5503 1710616
475.80447 1426.6995 6601.4473 1710616
524.14716 1452.2635 6719.7339 1710616
641.315 1651.4492 7641.3813 1710616
663.44922 1595.7812 7383.8013 1644823
700.54065 1580.752 7314.2593 1579030
684.89478 1455.4066 6734.2773 1710616
696.15466 1397.8901 6468.144 1644823
727.83783 1385.2467 6409.6416 1710616
781.23743 1413.1389 6538.7012 1842202
791.49878 1364.0518 6311.5708 1907995
819.43256 1348.4763 6239.5024 1973531
844.65186 1329.9713 6153.8784 1842202
917.57141 1384.9977 6408.4897 1842202
926.17267 1342.4254 6211.5049 1907995
967.62372 1348.9014 6241.4692 1907995
1018.6132 1367.7078 6328.4878 2039581
992.3797 1285.1719 5946.5879 2039581
1032.3771 1291.1266 5974.1411 2039581
1073.532 1298.0863 6006.3442 1907995
1325.7238 1551.5912 7179.3306 1907995
1270.8605 1441.137 6668.25 1907995
1315.9263 1447.2448 6696.5117 1907995
1386.5453 1480.2758 6849.3486 1973531
1268.7749 1316.0233 6089.3398 1973531
1307.474 1318.663 6101.5537 2039324
1345.5685 1320.5673 6110.3652 2039324
1375.2705 1314.351 6081.6021 2039324
1470.498 1369.4761 6336.6704 2039324
1545.6909 1403.6626 6494.8535 2039324
1634.9789 1448.677 6703.1387 1973531
1524.8917 1319.0892 6103.5264 1907739
1572.6259 1328.8644 6148.7563 1841945
1812.4102 1496.8042 6925.8271 1776152
1790.1993 1445.7256 6689.4824 1776152
1694.0782 1338.4645 6193.1772 1710360
2125.3914 1643.634 7605.2192 1644566
2088.114 1581.2788 7316.6973 1578773
2150.6082 1595.4783 7382.3989 1644566
2094.0439 1522.5458 7044.9355 1644563
2121.304 1512.2206 6997.1597 1644564
2338.8933 1635.3708 7566.9854 1841943
2167.2378 1486.8447 6879.7437 1710357
2165.2361 1458.0458 6746.4888 1776150
2223.9116 1470.4099 6803.6982 1841943
2251.1562 1461.9222 6764.4253 1907736
2245.4541 1432.7096 6629.2563 1973529
2273.1528 1425.4464 6595.6494 2039322
2314.4851 1426.8339 6602.0688 2039322
2348.5576 1423.774 6587.9111 1973529
2376.5791 1417.2058 6557.519 1907736
2412.4902 1415.478 6549.5244 1973529
2563.4294 1480.2267 6849.1216 1973529
2557.5796 1453.832 6726.9912 1841943
2541.2681 1422.3917 6581.5146 1841943
2517.6567 1387.8777 6421.8159 1841943
2536.1697 1377.2672 6372.7202 1841943
2583.2458 1382.2516 6395.7832 1841943
2575.2036 1358.0255 6283.687 1776150
2615.4766 1359.6055 6290.998 1710357
2670.2046 1368.5497 6332.3838 1775380
2600.5811 1314.3959 6081.8096 2236186
2595.1667 1293.7316 5986.1948 65536
2643.0278 1299.8252 6014.3901 1775380
2743.332 1331.2047 6159.5854 1577744
2767.3528 1325.2296 6131.9385 1578771
2940.1877 1389.75 6430.479 1710357
2931.5112 1367.9213 6329.4756 1644564
3006.269 1385.0851 6408.894 1578771
3013.1162 1370.9222 6343.3613 1578771
3032.9985 1362.9661 6306.5479 1447185
3101.9905 1377.0039 6371.502 1381392
3146.0823 1379.7837 6384.3638 1447185
3242.1321 1405.0138 6501.106 1643794
3256.6069 1394.7153 6453.4541 1643794
3281.8625 1389.2192 6428.0234 1643538
3354.0005 1403.467 6493.9492 1643537
3408.728 1410.189 6525.0518 1709587
3584.5576 1466.298 6784.6724 1775380
3507.9766 1419.0568 6566.0835 1709587
3519.6821 1408.174 6515.728 1709587
3515.2139 1391.1266 6436.8481 1841173
3565.3689 1395.83 6458.6118 1775380
3746.4792 1451.1577 6714.6172 1775380
3885.3564 1489.136 6890.3457 1775380
4011.3047 1521.4207 7039.729 1775636
3994.657 1499.5132 6938.3613 1709842
3766.7241 1399.5477 6475.814 1709587
3757.2944 1381.9661 6394.4619 1643794
3900.2715 1420.2322 6571.5225 1578001
3816.6978 1376.0618 6367.1426 1643794
3831.7969 1367.983 6329.7617 1709587
3853.4641 1362.3832 6303.8511 1841173
3877.5417 1357.7349 6282.3423 1841172
3902.6799 1353.5426 6262.9448 1709843
4290.0786 1473.8866 6819.7856 1841172
3966.8408 1350.1187 6247.1021 2038807
4747.542 1600.8926 7407.4521 2038807
4706.8159 1572.6205 7276.6343 2236186
4539.1406 1502.8306 6953.7114 2236186
4540.6611 1489.8104 6893.4663 2301979
4540.5596 1476.4951 6831.855 2236186
4528.0874 1459.4279 6752.8833 2301979
4557.686 1456.1005 6737.4873 2301979
4629.9775 1466.3519 6784.9219 2236186
4665.7661 1464.9657 6778.5078 2367771
4695.3384 1461.6681 6763.2495 2433565
4605.9053 1421.6932 6578.2827 2499358
4578.2241 1401.29 6483.876 2433565
4638.3262 1407.8715 6514.3281 2367772
4686.4097 1410.7261 6527.5371 2499358
4742.2417 1415.8475 6551.2344 2499358
4766.4028 1411.5068 6531.1494 2499358
4831.8677 1419.3693 6567.5293 2367771
4873.4414 1420.1439 6571.1138 2301979
4910.7935 1419.6858 6568.9941 2170393
4953.4082 1420.7445 6573.8926 2170393
5007.7017 1425.1101 6594.0928 2038807
5058.9473 1428.5475 6609.998 2170393
5076.9536 1422.6182 6582.5625 2104600
5129.4092 1426.3586 6599.8696 2236186
5150.9429 1421.5088 6577.4297 2301466
5190.6587 1421.7119 6578.3696 2367770
5154.0537 1401.1639 6483.292 2499356
5240.5698 1414.1434 6543.3491 2499356
5287.6431 1416.3672 6553.6387 2499356
5344.918 1421.271 6576.3291 2565149
5414.5234 1429.359 6613.7529 2499356
5399.6509 1415.1901 6548.1919 2499356
5399.7578 1405.1211 6501.6025 2433563
5350.0439 1382.3225 6396.1113 2367770
5393.6147 1383.7776 6402.8442 2433563
5440.8691 1386.1506 6413.8242 2367769
5448.4844 1378.4622 6378.2495 2038805
5457.3486 1371.1935 6344.6167 2236184
5477.4707 1366.8335 6324.4424 2301977
5473.6299 1356.5938 6277.0625 2367771
5530.8545 1361.5247 6299.8784 1446928
5584.7891 1365.585 6318.6655 1907218
5531.8931 1343.6431 6217.1387 2367770
5477.7271 1321.6849 6115.5371 131072
5562.5962 1333.342 6169.4751 1314824
5759.5894 1371.5474 6346.2539 5262403
5841.3657 1381.9979 6394.6094 4078129
5830.0796 1370.4382 6341.1221 3749164
5889.6343 1375.5721 6364.877 3354663
5631.9614 1307.0209 6047.6851 3222821
5576.6704 1286.0067 5950.4512 3617576
5583.2476 1279.4343 5920.04 3683368
5576.0493 1269.8068 5875.4927 2828060
5555.6694 1257.3156 5817.6948 2894109
0 0 0 0
0 0 0 0
0 0 0 0
0 0 0 0
0 0 0 0
0 0 0 0
-3874.0649 956.12402 4305.9995 65792
-3846.8352 955.69781 4304.0806 65792
-3820.7498 955.55231 4303.4248 65792
-3832.7715 964.99921 4345.9702 65792
-3813.811 966.72064 4353.7227 65792
-3774.6248 963.30383 4338.335 131584
-3771.9648 969.22571 4365.0044 65792
-3736.9277 966.85248 4354.3164 65792
-3720.3923 969.26648 4365.188 0
-3661.6311 960.63617 4326.3208 0
-3647.9954 963.8064 4340.5981 0
-3635.635 967.36108 4356.6069 256
-3610.8213 967.62927 4357.8149 256
-3587.6519 968.34521 4361.0391 0
-3381.2451 919.25507 4139.9565 0
-3362.8845 920.94489 4147.5669 256
-3525.2681 972.52161 4379.8481 0
-3477.3237 966.40967 4352.3223 256
-3454.7161 967.30042 4356.334 256
-3392.125 956.92529 4309.6084 256
-3349.2048 951.98401 4287.355 256
-3341.3159 957.00067 4309.9478 256
-3316.8757 957.31769 4311.3755 256
-3304.4851 961.1441 4328.6084 256
-3302.9714 968.21893 4360.4707 256
-3255.3401 961.78015 4331.4727 256
-3076.592 916.19299 4126.1665 512
-3034.1699 910.79791 4101.8691 512
-3471.4875 1050.4869 4730.9727 512
-3400.9182 1037.5105 4672.5317 256
-3122.5215 960.39911 4325.2529 256
-3311.2822 1026.885 4624.6787 256
-3091.7002 966.78973 4354.0337 256
-3074.0295 969.35291 4365.5776 256
-2877.1294 914.96252 4120.625 256
-2851.9263 914.71027 4119.4888 131840
-2813.698 910.23993 4099.356 197632
-2790.0054 910.43488 4100.2344 131840
-2904.8625 956.24213 4306.5317 197632
-2886.4998 958.61841 4317.2334 131840
-2706.8894 907.00732 4084.7979 131840
-2816.0527 952.09845 4287.8701 197632
-2800.8215 955.57025 4303.5059 197377
-2643.0747 910.03644 4098.4395 66048
-2751.2966 956.08289 4305.8145 256
-2743.7065 962.36975 4334.1279 256
-2739.2256 969.8761 4367.9336 256
-2725.8293 974.33899 4388.0327 256
-2846.9089 1027.4187 4627.0825 394753
-2585.1799 942.03601 4242.5527 329474
-2556.7024 940.80731 4237.0195 395267
-2560.6741 951.6134 4285.6855 461060
-2566.1689 963.20764 4337.9014 395267
-2621.4128 993.89862 4476.1216 395267
-2582.167 989.02545 4454.1748 395267
-2557.26 989.60046 4456.7642 461060
-2528.6113 988.72437 4452.8188 526596
-2517.6899 994.83453 4480.3364 526596
-2521.5449 1006.9758 4535.0156 526596
-2507.3921 1012.1099 4558.1377 592389
-2509.499 1023.9903 4611.6426 0
-2606.1973 1075.1549 4842.0674 65792
-2609.4697 1088.4879 4902.1138 592388
-2651.0676 1118.2878 5036.3203 592388
-2670.021 1139.1053 5130.0742 592388
-2702.4753 1166.2285 5252.2266 460804
-2717.9575 1186.5743 5343.856 0
-2774.6746 1225.6136 5519.6733 1118733
-2761.7644 1234.4623 5559.5239 2829350
-2715.095 1228.2524 5531.5571 2960936
-2621.0002 1200.1746 5405.1055 3092520
-2602.0164 1206.2211 5432.3369 3224105
-2580.123 1211.0536 5454.1006 3224106
-2559.7534 1216.7328 5479.6772 3158570
-2547.187 1226.3148 5522.8311 3092521
-2528.0767 1232.9548 5552.7349 2960936
-2515.2339 1242.8669 5597.375 2895143
-2516.2998 1260.0085 5674.5737 3158315
-2446.5471 1241.6725 5591.9956 3289900
-2442.2173 1256.4924 5658.7388 3421485
-2426.071 1265.5607 5699.5786 3421485
-2412.7214 1276.3646 5748.2354 3487278
-2386.0371 1280.3226 5766.0605 3684658
-2375.3047 1293.0796 5823.5127 3487279
-2318.9272 1280.998 5769.1021 723975
-2329.5076 1306.0963 5882.1353 197376
-2215.4778 1261.0303 5679.1753 263425
-2143.2732 1238.7477 5578.8237 526342
-2110.5879 1238.9657 5579.8057 592135
-2072.4338 1235.9293 5566.1309 592135
-2038.9377 1235.6176 5564.7266 657928
-2004.4985 1234.7145 5560.6597 723721
-1971.8729 1234.9171 5561.5723 789514
-1928.7871 1228.4645 5532.5122 723721
-1899.7758 1230.9077 5543.5156 723721
-1862.1383 1227.7496 5529.293 723721
-1864.8597 1251.5646 5636.5459 789514
-1855.0249 1267.6674 5709.0664 921100
-1833.6749 1276.3534 5748.1846 986893
-1815.3004 1287.4783 5798.2866 986893
-1790.361 1294.2865 5828.9482 1052686
-1778.8832 1311.2858 5905.5059 1052686
-1754.2538 1319.0781 5940.5996 1118479
-1691.3566 1297.8256 5844.8867 1184272
-1658.0541 1298.868 5849.5815 1315858
-1620.6638 1296.6846 5839.748 1381651
-1589.6964 1299.6566 5853.1333 1381651
-1566.7858 1309.4951 5897.4419 1381651
-1523.6428 1302.4868 5865.8789 1381651
-1486.3523 1300.271 5855.9004 1579030
-1458.5198 1306.4211 5883.5977 1644823
-1428.5289 1310.8918 5903.7319 1513237
-1385.2091 1303.0485 5868.4087 1644823
-1354.2953 1306.772 5885.1777 1579030
-1324.1593 1311.4625 5906.3022 1579030
-1290.7567 1313.0847 5913.6079 1644823
-1264.1478 1321.9015 5953.3154 1513237
-1253.7444 1348.6567 6073.8101 1381651
-1231.5194 1363.9011 6142.4648 1447444
-1198.6465 1367.9225 6160.5752 1447444
-1144.5912 1347.2634 6067.5347 1513237
-1053.0067 1279.6571 5763.0635 1381651
-1072.4639 1346.9843 6066.2778 1315858
-979.67523 1273.1146 5733.5986 1381651
-987.16412 1328.9323 5984.979 1513237
-970.10138 1354.6266 6100.6958 1513237
-939.48602 1362.6528 6136.8428 1513237
-818.02356 1234.2531 5558.5815 921100
-773.11017 1215.4244 5473.7852 1447444
-795.81689 1305.9092 5881.292 1644823
-776.35712 1332.319 6000.231 1579030
-739.02728 1329.1248 5985.8457 1513237
-696.18848 1315.2012 5923.1396 1710616
-659.36664 1311.7697 5907.6855 1579030
-610.78125 1283.2384 5779.1919 1579030
-598.84064 1332.8806 6002.7607 1579030
-561.23187 1328.0533 5981.021 1644823
-494.58923 1249.2411 5626.082 1644823
-505.59085 1369.3259 6166.896 1644823
-512.52576 1496.2489 6738.5059 1644823
-395.96204 1253.6205 5645.8047 1579543
-407.77573 1410.1632 6350.8105 1579543
-377.74091 1439.1031 6481.1445 1645336
-338.48447 1435.4854 6464.8516 1711129
-279.44345 1336.3322 6018.3047 1579543
-246.62773 1351.9283 6088.5439 1513750
-194.58447 1249.4108 5626.8457 1513750
-183.55077 1422.2637 6405.3062 1579030
-142.53635 1392.368 6270.6685 1447444
-106.76836 1410.7107 6353.2764 1579030
-69.26857 1413.689 6366.689 1447444
-31.436916 1408.9174 6345.1997 1513237
6.1831951 1414.0066 6368.1196 1447444
44.396301 1429.4432 6437.6401 1513237
81.670319 1414.3492 6369.6631 1447444
119.77794 1418.6703 6389.123 1579030
158.80707 1429.209 6436.585 1513237
195.59285 1419.3864 6392.3477 1710616
222.85718 1354.8649 6101.769 1579030
276.07315 1444.1067 6503.6787 1513237
312.04797 1432.3463 6450.7144 1644823
349.23068 1428.092 6431.5547 1579030
388.80258 1433.4836 6455.8364 1644823
432.06473 1450.2961 6531.5532 1776409
494.44592 1523.2446 6860.084 1776409
580.74762 1653.2041 7445.3696 1644823
572.14697 1513.7295 6817.2314 1579030
654.8692 1618.3301 7288.3105 1513237
682.76099 1582.8726 7128.624 1513237
726.15289 1585.3877 7139.9512 1579030
660.97101 1363.6301 6141.2441 1776409
699.9671 1368.7274 6164.2002 1776409
698.41461 1297.962 5845.501 1842202
736.69678 1304.4164 5874.5688 1842202
775.89429 1311.8358 5907.9834 1841945
804.97534 1302.2489 5864.8076 1776409
826.49457 1281.7285 5772.3921 1842202
857.76556 1277.3611 5752.7231 1973788
886.82764 1270.1639 5720.3096 1842202
915.60461 1263.1033 5688.5112 1973788
950.63104 1264.8591 5696.4194 2039581
987.1955 1268.4709 5712.6855 2039581
1063.3899 1321.0767 5949.6001 1907995
1067.924 1284.1373 5783.2402 1842202
1166.0804 1358.5721 6118.4653 1907995
1365.9548 1543.4539 6951.0981 1907995
1251.8385 1373.105 6183.915 1841945
1199.1558 1277.9135 5755.2104 1841945
1317.3683 1365.0697 6147.7271 1907738
1435.092 1447.0426 6516.9004 1907738
1449.8536 1423.6206 6411.417 1841945
1372.4049 1313.1646 5913.9673 2105117
1571.4 1466.1342 6602.8813 2039324
1773.6288 1614.6152 7271.5806 1973531
1753.043 1558.0256 7016.7236 1841945
1746.2097 1515.9976 6827.4463 1776152
1761.8287 1494.9237 6732.5381 1841945
1751.4319 1453.1974 6544.6191 1841945
1728.1023 1402.7806 6317.562 1841945
1751.4144 1391.5602 6267.0298 1907738
1909.5195 1485.6797 6690.9067 1841943
1732.2776 1320.3649 5946.3945 1841943
1861.3849 1390.4893 6262.207 1776150
2019.4413 1479.0754 6661.1636 1776150
2024.1442 1454.0996 6548.6821 1776150
2043.3386 1440.2777 6486.4341 1776150
2072.4668 1433.839 6457.4365 1776150
2140.4717 1454.0431 6548.4277 1841943
2121.8074 1415.7007 6375.749 1907736
2169.8665 1422.4398 6406.0991 2039322
2196.5029 1415.145 6373.2466 1973529
2212.6184 1401.4333 6311.4946 2039322
2262.2441 1409.0493 6345.7939 1973529
2291.127 1403.7078 6321.7378 1973529
2294.1909 1382.9739 6228.3608 1973529
2392.0095 1419.1119 6391.1118 1973529
2444.1292 1427.4342 6428.5918 1907736
2417.7246 1390.3446 6261.5552 1907737
2456.8933 1391.5149 6266.8262 1907738
2439.0725 1360.8539 6128.7407 1907739
2474.5354 1360.3851 6126.6299 1710359
2502.2278 1355.7201 6105.6206 1710358
2506.6584 1338.7643 6029.2583 1710357
2551.0078 1343.3052 6049.709 1709587
2525.8269 1311.6146 5906.9868 131072
2534.3235 1298.0394 5845.8496 65536
2514.9829 1270.7646 5723.0151 1577744
2626.3945 1309.403 5897.0264 1380622
2679.0071 1318.0969 5936.1807 1184013
2749.051 1335.0308 6012.4438 1512978
2776.8547 1331.2804 5995.5542 1447185
2812.2681 1331.2271 5995.314 1315599
2835.9907 1325.7102 5970.4678 1578771
2875.5215 1327.6278 5979.104 1710357
2917.2151 1330.4851 5991.9722 1644564
2977.8218 1341.796 6042.9121 1644564
3021.0842 1345.1156 6057.8623 1709587
3045.7954 1340.1945 6035.6992 1709587
3099.8909 1348.1669 6071.604 1709587
3147.761 1353.2802 6094.6318 1709587
3218.8225 1368.1346 6161.5308 1709587
3255.5327 1368.219 6161.9106 1775380
3283.3279 1364.5963 6145.5952 1709587
3323.1843 1366.0107 6151.9658 1643794
3412.5325 1387.5178 6248.8247 1709587
3443.0476 1384.8986 6237.0288 1643794
3639.8398 1448.5065 6523.4932 1643794
3544.1089 1395.5886 6285.1724 1775380
3561.4548 1387.8353 6250.2549 1709587
3600.5088 1388.614 6253.7617 1643794
3617.408 1380.9193 6219.1074 1709587
3648.9038 1378.8956 6209.9941 1643794
3680.9873 1377.1324 6202.0527 1709587
3723.8918 1379.4122 6212.3208 1643794
3930.9502 1441.8588 6493.5542 1512208
3862.032 1402.8484 6317.8672 1512208
4061.2502 1461.05 6579.9844 1578001
4031.3577 1436.5052 6469.4448 1578001
3932.2705 1387.9989 6250.9912 1578001
4066.2986 1421.9139 6403.7314 1775635
4586.7568 1589.0808 7156.584 1907221
4248.0879 1458.2668 6567.4502 1841428
4516.7056 1536.4027 6919.3423 2038807
4549.9136 1533.776 6907.5132 2104600
4474.3457 1494.8549 6732.2275 2104600
4390.6235 1453.9214 6547.8794 2038807
4474.8364 1468.8281 6615.0137 1973014
4433.3867 1442.5863 6496.8311 2104600
4489.6748 1448.3258 6522.6797 2170393
4564.7988 1459.9917 6575.2183 2104600
4354.1597 1380.8361 6218.7329 2104600
4706.1182 1479.9283 6665.0049 2235929
4647.6348 1449.3743 6527.4014 2236186
4633.666 1433.092 6454.0728 2236186
4630.1431 1420.2804 6396.374 2170393
4651.8022 1415.3386 6374.1187 2170393
4674.3433 1410.7427 6353.4199 2236186
4679.4209 1400.9918 6309.5063 2236186
4744.2891 1409.1544 6346.2676 2367772
4850.228 1429.2917 6436.958 2367772
4855.9116 1419.8015 6394.2173 2170393
4906.7163 1423.5487 6411.0938 2170393
4908.6108 1413.1576 6364.2959 2104600
4920.8726 1405.8867 6331.5508 2170393
4919.4932 1394.8583 6281.8828 2169880
4987.4316 1403.502 6320.8105 2104598
4982.3081 1391.6097 6267.2529 2236184
5034.147 1395.6859 6285.6108 2235928
5053.9067 1390.874 6263.9399 2235929
4989.0239 1363.0078 6138.4414 2301464
5059.4312 1372.2386 6180.0137 2367770
5056.9995 1361.7234 6132.6567 2367770
5178.3457 1384.4506 6235.0107 2301977
5231.9238 1388.8658 6254.896 2367770
5245.5679 1382.6929 6227.0947 2499356
5239.5181 1371.4512 6176.4668 2499355
5256.2061 1366.276 6153.1597 2367770
5303.7212 1369.1298 6166.0122 2367770
5300.5703 1358.9548 6120.1885 2367770
5343.3667 1360.6182 6127.6792 2301977
5386.2588 1362.2832 6135.1777 2301977
5476.3589 1375.7855 6195.9868 2170647
5400.5557 1347.7069 6069.5322 2301977
5510.1934 1365.9705 6151.7837 2499356
5689.6392 1401.1854 6310.3784 2696479
5781.439 1414.4972 6370.3286 2696479
5902.0391 1434.6367 6461.0293 2104600
5852.1943 1413.3528 6365.1753 1381388
5807.9355 1393.682 6276.5854 2564378
5698.1104 1358.6282 6118.7173 4011308
5705.6025 1351.8131 6088.0254 4406578
5658.7549 1332.2902 6000.1016 2169616
5486.8315 1283.7472 5781.4834 2827802
5694.1128 1323.9781 5962.6675 4012077
0 0 0 0
0 0 0 0
0 0 0 0
0 0 0 0
0 0 0 0
0 0 0 0
-3719.9104 942.578 4134.6577 131840
-3697.2505 943.04712 4136.7158 66304
-3667.2678 941.64233 4130.5537 66048
-4002.1987 1034.547 4538.0835 256
-4002.7451 1041.687 4569.4038 66048
-3625.6709 949.98193 4167.1357 256
-3580.6897 944.62946 4143.6567 0
-3578.0571 950.45221 4169.1982 0
-3645.4082 975.07507 4277.208 0
-3640.207 980.50073 4301.0078 0
-3515.0208 953.45667 4182.3774 0
-3592.0491 981.2691 4304.3779 0
-3570.2688 982.29382 4308.873 0
-3520.4792 975.57172 4279.3862 0
-3358.8308 937.52954 4112.5127 0
-3337.4736 938.3761 4116.2261 256
-3302.5596 935.39545 4103.1514 0
-3250.1772 927.38629 4068.0188 256
-3223.937 926.77234 4065.3257 256
-3204.698 928.177 4071.4873 256
-3175.1353 926.59015 4064.5266 66304
-3161.4788 929.65643 4077.9771 131840
-3132.0896 928.10797 4071.1846 66304
-3115.7131 930.42145 4081.3328 512
-3264.5356 982.48901 4309.729 512
-3063.6533 929.30127 4076.4192 256
-3050.2546 932.58978 4090.8442 0
-3033.2402 934.81665 4100.6123 0
-3030.9441 941.65204 4130.5962 0
-3023.3357 946.935 4153.77 256
-3113.8752 983.29761 4313.2764 256
-3098.9688 986.68909 4328.1528 512
-3270.043 1049.8459 4605.1934 66048
-3036.8403 983.18079 4312.7637 66048
-2857.2781 932.89752 4092.1941 131840
-2813.4985 926.46582 4063.9812 131840
-2795.1514 928.37024 4072.335 131840
-2779.3884 931.17346 4084.6313 131840
-2886.1685 975.44202 4278.8174 197632
-2720.0061 927.43097 4068.2148 197632
-2701.252 929.27191 4076.2905 197632
-2679.0886 929.96289 4079.3213 131840
-2665.7368 933.75293 4095.9463 65792
-2646.3552 935.4809 4103.5264 66048
-2741.8049 978.21021 4290.96 256
-2720.9331 979.85004 4298.1533 256
-2640.968 960.03949 4211.2534 256
-2567.1924 942.12238 4132.6592 256
-2415.0059 894.8075 3925.1106 395010
-2609.0603 976.10889 4281.7427 329474
-2561.8943 967.87488 4245.624 263681
-2549.8945 972.8949 4267.6445 395267
-2622.644 1010.675 4433.3682 395267
-2381.6201 927.0788 4066.6702 395267
-2457.3303 966.32709 4238.8345 395267
-2532.5032 1006.1725 4413.6182 395267
-2453.9875 985.15143 4321.4082 460546
-2516.8511 1021.0419 4478.8433 526596
-2509.1863 1028.7804 4512.7886 526596
-2503.2136 1037.387 4550.5415 526596
-2513.5146 1052.9985 4619.022 256
-2560.6057 1084.536 4757.3628 66048
-2591.8667 1109.9963 4869.0454 460803
-2632.5618 1140.1155 5001.1646 592389
-2643.0361 1157.6833 5078.2266 0
-2664.8979 1180.7013 5179.1958 526341
-2704.2769 1212.1068 5316.9575 2500385
-2651.5059 1202.4628 5274.6533 2763558
-2599.3123 1192.8535 5232.502 2960936
-2563.4136 1190.5804 5222.5312 3026729
-2522.4351 1185.8638 5201.8413 3224107
-2511.5876 1195.371 5243.5449 3289901
-2516.9146 1212.9108 5320.4844 3289901
-2487.4673 1213.9254 5324.9346 3289901
-2460.1785 1216.0327 5334.1787 3158314
-2452.3203 1227.9244 5386.3418 3224106
-2443.7444 1239.7654 5438.2827 3355691
-2429.7959 1249.1609 5479.4966 3355692
-2438.9783 1270.8635 5574.6958 3553071
-2394.8792 1265.0178 5549.0537 3553071
-2379.3032 1274.2855 5589.707 3553072
-2366.7505 1285.4569 5638.7104 2368798
-2350.7493 1295.0483 5680.7842 329219
-2296.7056 1283.6562 5630.812 197633
-2173.0332 1232.4384 5406.1426 329217
-2164.7141 1246.0892 5466.0225 395010
-2112.7007 1234.6206 5415.7153 461059
-2081.5225 1235.162 5418.0898 657928
-2053.5984 1237.6813 5429.1411 789514
-2008.0299 1229.4777 5393.1553 855307
-1963.7802 1221.8291 5359.6045 789514
-1932.4938 1222.1271 5360.9121 855307
-1898.3962 1220.6278 5354.335 855307
-1878.6686 1228.474 5388.7524 855307
-1857.1738 1235.4159 5419.2041 855307
-1860.1597 1259.1737 5523.418 921100
-1840.08 1267.889 5561.6484 986893
-1816.6233 1274.5531 5590.8809 986893
-1784.9971 1275.6266 5595.5894 921100
-1768.1766 1287.5216 5647.7676 986893
-1736.9698 1289.1979 5655.1206 986893
-1709.0438 1293.4231 5673.6543 1052686
-1679.8083 1296.8068 5688.4976 1315858
-1644.9437 1295.8945 5684.4956 1184272
-1589.9208 1278.7313 5609.209 1250065
-1555.2692 1277.5692 5604.1108 1315858
-1520.9755 1276.6566 5600.1079 1381651
-1499.3864 1286.6051 5643.7476 1513237
-1474.3571 1293.9883 5676.1338 1447444
-1450.3845 1302.6652 5714.1953 1579030
-1395.5769 1283.4003 5629.689 1644823
-1376.083 1296.4624 5686.9868 1644823
-1355.4266 1309.0576 5742.2358 1710616
-1325.4143 1313.0328 5759.6733 1644823
-1288.2831 1309.9795 5746.2798 1710616
-1265.2321 1321.4662 5796.667 1579030
-1227.9359 1318.3005 5782.7808 1776409
-1198.9913 1324.1768 5808.5571 1842202
-1140.942 1297.307 5690.6914 1710616
-1125.1765 1318.3434 5782.9688 1513237
-1046.2334 1264.3524 5546.1353 1513237
-1014.6179 1265.9091 5552.9629 1315858
-972.22925 1253.6781 5499.3115 1250065
-912.06641 1216.8844 5337.9146 1315858
-912.00946 1260.5217 5529.3315 1381651
-941.03571 1349.1058 5917.9097 1381651
-936.75232 1394.9452 6118.9854 1447444
-858.17267 1329.3844 5831.4004 1447444
-824.19513 1330.3138 5835.4775 1579030
-798.13556 1344.6647 5898.4277 1513237
-755.11255 1330.4417 5836.0381 1513237
-716.93347 1323.7976 5806.8936 1644823
-680.55695 1319.98 5790.1475 1644823
-653.0285 1333.8292 5850.8979 1579030
-622.92712 1343.6818 5894.1162 1579030
-585.01447 1336.8542 5864.1675 1513237
-557.40411 1354.194 5940.2285 1776409
-522.4873 1354.9238 5943.4302 1710616
-542.13733 1507.49 6612.668 1644823
-506.1683 1517.1222 6654.9204 1447700
-383.52017 1246.6317 5468.4023 1447957
-393.31729 1396.4601 6125.6304 1447701
-356.81113 1395.6414 6122.0391 1579030
-317.03351 1380.3929 6055.1514 1710616
-278.49457 1367.3342 5997.8691 1776665
-244.30887 1374.955 6031.2974 1645336
-208.58275 1375.0323 6031.6367 1711129
-170.47557 1356.1996 5949.0264 1644823
-136.62097 1370.1979 6010.4307 1447444
-101.51118 1377.0408 6040.4468 1513237
-65.758102 1377.8577 6044.0308 1513237
-30.552912 1405.8394 6166.7729 1644823
5.9840698 1404.9882 6163.0396 1579030
42.495026 1404.7394 6161.9482 1513237
78.726097 1399.7441 6140.0366 1513237
115.03017 1398.7943 6135.8701 1513237
152.52777 1409.3286 6182.0791 1644823
191.55341 1427.1677 6260.3311 1644823
229.04605 1429.6499 6271.2192 1710616
252.11339 1353.9684 5939.2388 1710616
291.13318 1372.0055 6018.3599 1644823
338.21994 1419.9744 6228.7769 1579030
393.68332 1490.212 6536.8774 1579030
420.19611 1448.0961 6352.1343 1644823
451.1673 1427.0065 6259.624 1710616
489.66278 1431.1119 6277.6328 1776409
571.59058 1552.613 6810.6021 1710616
489.72021 1242.5048 5450.2993 1579030
523.45032 1245.9202 5465.2812 1644823
595.67126 1335.2161 5856.981 1579030
619.71454 1312.6332 5757.9204 1644823
611.91669 1228.4829 5388.792 1710616
654.06909 1247.9863 5474.3442 1842202
695.35199 1264.0657 5544.8774 1776409
718.99304 1248.0706 5474.7139 1973531
753.26855 1251.1195 5488.0879 1776409
794.8963 1265.6219 5551.7041 1710616
829.18524 1267.7515 5561.0454 1776409
864.07935 1270.6082 5573.5762 1842202
885.16602 1253.6984 5499.4009 1842202
933.98401 1275.8721 5596.6665 1842202
952.91046 1257.0917 5514.2856 1842202
998.11298 1273.0712 5584.3799 1842202
1080.7025 1334.1812 5852.4414 1842202
1067.1471 1276.4857 5599.3584 1776409
1280.1167 1485.0613 6514.2837 1776409
1321.7985 1488.5321 6529.5083 1841945
1425.1093 1559.2346 6839.6484 1776152
1318.0778 1402.2522 6151.0381 1841945
1302.9568 1348.8668 5916.8608 1973531
1295.6078 1306.114 5729.3242 1776152
1362.6013 1338.5764 5871.7217 1776152
1575.9222 1509.5907 6621.8828 1841945
1530.2388 1430.2205 6273.7222 1776152
1549.1619 1413.5668 6200.6699 1776152
1634.6144 1456.9846 6391.124 1710359
1557.9048 1357.1685 5953.2764 1841945
1829.2107 1558.2336 6835.2568 1907738
1885.5956 1571.4707 6893.3223 1907738
1592.7465 1299.2633 5699.2734 1973529
1614.8397 1289.9355 5658.3564 1973529
1649.7852 1291.0448 5663.2222 1973529
1975.6989 1515.2688 6646.79 1973529
1938.2584 1457.499 6393.3809 1973529
1964.7013 1449.0612 6356.3677 1907736
2013.87 1457.3867 6392.8882 1841943
2018.031 1433.4354 6287.8247 1907736
1993.6632 1390.4553 6099.2905 1841943
2021.668 1384.8821 6074.8433 1841943
2057.1243 1384.5189 6073.25 1841943
2093.5369 1384.8007 6074.4863 1776150
2122.1128 1379.9771 6053.3271 1776150
2139.822 1368.3646 6002.3892 1907736
2203.981 1386.3499 6081.2822 1907736
2247.6392 1391.0684 6101.98 1841943
2243.6362 1366.6072 5994.6797 1776150
2290.2371 1373.2507 6023.8218 1776150
2278.2529 1345.1014 5900.3438 1907736
2323.1826 1350.8975 5925.7686 1973529
2336.8838 1338.6326 5871.9678 1907738
2358.3167 1331.0913 5838.8877 1841945
2407.9695 1339.4659 5875.6235 1907738
2452.3054 1344.6863 5898.5229 1776151
2591.5381 1401.0641 6145.8262 1710614
2456.5671 1309.6909 5745.0142 1776407
2512.9263 1321.4266 5796.4932 1973529
2550.8325 1323.2733 5804.5938 1710357
2604.5715 1333.1748 5848.0273 1710357
2613.8657 1320.3656 5791.8394 1841943
2659.6763 1326.0953 5816.9727 1644564
2677.2087 1317.7594 5780.4067 1512978
2709.519 1316.8162 5776.2695 1578771
2758.3806 1323.8398 5807.0791 1578771
2789.9106 1322.475 5801.0923 1512978
2865.0051 1341.5426 5884.7329 1776150
2932.2236 1356.5081 5950.3794 1776150
2989.6917 1366.6604 5994.9136 1972759
3002.5549 1356.4242 5950.0117 1972759
3063.5757 1367.9283 6000.4751 1906966
3108.8364 1372.2123 6019.2666 1906966
3132.5059 1366.9771 5996.3018 1775380
3169.8442 1367.7571 5999.7241 1709587
3207.1536 1368.5074 6003.0151 1512208
3221.7942 1359.6746 5964.2695 1578001
3274.8391 1367.0652 5996.689 1512208
3351.8945 1384.2125 6071.9062 1183243
3402.1409 1390.0421 6097.478 1380621
3419.5063 1382.4559 6064.2007 1512208
3487.1973 1395.1616 6119.9351 1709587
3516.9431 1392.5811 6108.6152 1841173
3543.2764 1388.7156 6091.6592 1906966
3549.7385 1377.2185 6041.2266 1906966
3613.791 1388.0717 6088.8345 1775894
3658.3977 1391.3148 6103.061 1776150
3692.7056 1390.6161 6099.9961 1710357
3718.6321 1386.8054 6083.2803 1841173
4100.8564 1514.6678 6644.1538 1775380
3926.2617 1436.391 6300.7891 1775380
3873.6575 1403.7974 6157.8159 1643794
3798.6736 1363.7775 5982.2671 1249036
3814.47 1356.7878 5951.6064 1446414
3851.8687 1357.5396 5954.9043 1709586
3977.4463 1389.073 6093.2271 1973014
4440.0132 1536.6698 6740.6665 2038807
4122.147 1413.9382 6202.2993 1973014
4228.0293 1437.4414 6305.397 2038807
4188.1348 1411.4059 6191.1909 2104600
4242.019 1417.1516 6216.395 2104600
4249.5371 1407.4419 6173.8032 2038807
4394.2036 1442.9338 6329.4897 2104600
4384.8716 1427.6841 6262.5962 2236186
4490.2183 1449.7155 6359.2378 2301979
4513.5176 1445.111 6339.0396 2236186
4510.105 1432.1003 6281.9683 2170393
4569.0669 1438.9465 6311.9995 1973014
4599.3223 1436.7145 6302.208 1973014
4576.9414 1418.2086 6221.0312 2038807
4506.29 1385.1605 6076.0649 2038807
4540.519 1384.6195 6073.6914 2236186
4580.1768 1385.7294 6078.5601 2301979
4753.0649 1426.8164 6258.79 2301979
4760.8628 1418.0925 6220.5225 2170393
4775.9141 1411.6466 6192.2471 2170136
4733.3394 1388.396 6090.2573 2301979
4766.5747 1387.5659 6086.6162 2169623
4843.1694 1399.2754 6137.9805 1907221
4843.2876 1388.8796 6092.3789 1907221
4910.5786 1397.7581 6131.3242 2170392
4944.229 1397.0007 6128.0024 2104599
4961.9692 1391.7917 6105.1528 2104600
4954.1533 1379.5419 6051.418 2104600
4962.6807 1371.9863 6018.2759 2170392
4992.6372 1370.4205 6011.4072 2236184
5020.7739 1368.381 6002.4609 2170391
5048.5522 1366.2733 5993.2148 2236183
5100.9541 1370.8121 6013.125 2301977
5082.8687 1356.4769 5950.2427 2367770
5147.9058 1364.3695 5984.8643 2499356
5131.2856 1350.6602 5924.7275 2433563
5240.4395 1370.0184 6009.6436 2565149
5272.8569 1369.1897 6006.0078 2565149
5304.7021 1368.2242 6001.7734 2499356
5341.6323 1368.5746 6003.3096 2499356
5348.4092 1361.2458 5971.1621 2499355
5279.8047 1334.9539 5855.8311 2433562
5386.4805 1353.0339 5935.1401 2367770
5511.8311 1375.54 6033.8643 2433305
5565.0767 1379.8773 6052.8896 2564890
5589.6372 1377.0922 6040.6724 2499097
5690.2026 1392.9481 6110.2256 3222820
5712.3218 1389.5216 6095.1948 3420453
5746.4531 1389.0417 6093.0903 2301460
5712.8945 1372.308 6019.6865 788485
5690.9922 1358.5645 5959.3999 1906447
0 0 0 0
0 0 0 0
0 0 0 0
0 0 0 0
0 0 0 0
0 0 0 0
-3684.6772 957.91772 4095.4961 256
-3663.3669 958.69153 4098.8047 256
-3646.394 960.61853 4107.043 65792
-3634.134 963.82117 4120.7358 65792
-3597.8799 960.66052 4107.2227 256
-3576.895 961.56177 4111.0757 0
-3578.6062 968.61835 4141.2456 0
-3642.5461 992.73206 4244.3418 65792
-3305.0093 907.00281 3877.8135 65792
-3590.2764 992.18738 4242.0132 197377
-3583.2344 997.22284 4263.542 0
-3516.614 985.63141 4213.9834 0
-3514.199 991.99817 4241.2041 256
-3417.1072 971.53845 4153.7305 66048
-3356.4548 961.21735 4109.6035 66048
-3116.1201 898.91229 3843.2234 132096
-3279.8843 953.11902 4074.9795 131840
-3291.5005 963.58832 4119.7402 131584
-3267.9124 963.83099 4120.7778 66304
-3119.8479 927.08832 3963.6875 66304
-3090.0713 925.20496 3955.6355 132096
-3142.2915 948.03131 4053.2275 66304
-2960.8977 900.185 3848.6646 512
-2934.4023 899.05426 3843.8301 132096
-2926.8687 903.76074 3863.9526 66304
-2901.8057 903.08618 3861.0686 66304
-3033.8442 951.68188 4068.8352 131840
-3023.7688 956.11945 4087.8079 66304
-2997.8926 955.59222 4085.5535 66304
-2966.3452 953.23389 4075.4707 132096
-2942.0293 953.17975 4075.239 66304
-2932.6902 958.01709 4095.9209 66304
-2893.3872 953.06531 4074.75 197632
-2668.4812 886.37915 3789.6392 197632
-2825.7993 946.60046 4047.1101 197632
-2782.2776 939.9986 4018.8843 131840
-2615.9263 891.42609 3811.2168 66048
-2606.1506 895.82843 3830.0386 131840
-2572.4221 892.00238 3813.6807 131840
-2552.0046 892.76495 3816.9412 66048
-2539.1831 896.22235 3831.7227 131840
-2513.4341 895.138 3827.0869 131840
-2657.9375 955.22003 4083.9624 131585
-2479.3633 899.23035 3844.583 197632
-2483.9546 909.24994 3887.4209 256
-2665.4163 984.80621 4210.4556 256
-2741.2314 1022.3878 4371.1323 256
-2527.762 951.76355 4069.1846 256
-2415.4258 918.22485 3925.7927 395009
-2533.1125 972.32764 4157.1045 263682
-2493.4753 966.51172 4132.2388 329474
-2480.4658 971.00391 4151.4448 329474
-2443.3403 966.05121 4130.27 329474
-2419.6216 966.35254 4131.5586 329474
-2512.3879 1013.6577 4333.8076 395267
-2497.9275 1018.2309 4353.3599 395267
-2497.7964 1028.8016 4398.5542 460803
-2497.8835 1039.6862 4445.0898 460803
-2478.5461 1042.6313 4457.6821 460803
-2496.0002 1061.2836 4537.4282 526596
-2539.0044 1091.3241 4665.8638 256
-2595.2061 1127.7611 4821.647 256
-2609.5808 1146.6307 4902.3228 256
-2606.6333 1158.2284 4951.9072 256
-2617.5991 1176.3425 5029.353 1842456
-2602.5769 1183.0605 5058.0752 2237213
-2536.0928 1166.2694 4986.2861 2368799
-2513.3274 1169.4243 4999.7744 2500385
-2514.3459 1183.8528 5061.4624 2763557
-2484.7173 1184.0255 5062.2007 2895143
-2488.9846 1200.552 5132.8584 3092520
-2458.9612 1200.7428 5133.6743 3026727
-2449.1162 1210.9154 5177.166 3092520
-2421.0435 1212.2191 5182.7402 3092520
-2400.866 1217.5605 5205.5767 3158313
-2418.2151 1242.3196 5311.4321 3092520
-2408.7798 1253.79 5360.4731 3158313
-2378.4324 1254.5366 5363.665 3289899
-2359.2085 1261.2502 5392.3687 3026729
-2322.187 1258.5029 5380.6226 1381904
-2325.9333 1278.0806 5464.3252 329218
-2215.3699 1234.512 5278.0513 329217
-2153.9548 1217.4758 5205.2144 329216
-2147.321 1231.3583 5264.5679 328963
-2092.0496 1217.348 5204.6685 526342
-2089.7727 1234.2173 5276.7915 657928
-2044.7729 1225.9835 5241.5889 657928
-1996.4065 1215.4463 5196.5376 723721
-1959.3741 1211.5873 5180.0386 855307
-1928.9493 1211.7561 5180.7607 855307
-1897.2723 1211.1313 5178.0894 986893
-1883.8217 1222.3119 5225.8911 986893
-1882.4962 1241.8652 5309.4897 986893
-1865.7087 1251.7097 5351.5786 986893
-1847.6167 1261.0042 5391.3164 921100
-1823.2208 1266.2476 5413.7344 986893
-1796.9169 1270.33 5431.188 1118479
-1765.7676 1271.0735 5434.3667 986893
-1741.202 1276.6715 5458.3013 1184272
-1712.201 1279.168 5468.9746 1184272
-1680.4865 1279.6946 5471.2256 1052686
-1650.7169 1281.7518 5480.0215 1250065
-1622.058 1284.7716 5492.9321 1315858
-1584.3951 1280.6372 5475.2559 1381651
-1557.442 1285.1675 5494.6245 1447444
-1504.8903 1268.3165 5422.5801 1447444
-1476.4911 1271.5304 5436.3203 1447444
-1404.7346 1236.7161 5287.4746 1579030
-1397.1687 1258.1155 5378.9658 1579030
-1389.9989 1280.8789 5476.2891 1644823
-1382.0413 1303.9874 5575.0874 1644823
-1336.2737 1291.6793 5522.4653 1644823
-1305.6709 1293.78 5531.4468 1644823
-1277.0992 1298.0532 5549.7168 1579030
-1254.6128 1308.9011 5596.0957 1644823
-1226.7692 1314.5972 5620.4487 1644823
-1177.838 1297.3833 5546.8521 1644823
-1197.0044 1356.3435 5798.9316 1776409
-1087.3193 1268.4702 5423.2368 1842202
-1027.4814 1235.1674 5280.8535 1776409
-970.05573 1202.7634 5142.3135 1710616
-943.43567 1207.6923 5163.3857 1250065
-915.51868 1211.2354 5178.5342 1381651
-886.04773 1212.8971 5185.6387 1579030
-935.81146 1327.0378 5673.6377 1579030
-908.63202 1336.5093 5714.1318 1579030
-864.97815 1321.5435 5650.1475 1447444
-838.2074 1332.2059 5695.7334 1447444
-801.18048 1326.7786 5672.5293 1447444
-767.43671 1326.5508 5671.5552 1447444
-733.30676 1325.6041 5667.5078 1447444
-703.89813 1333.5107 5701.3125 1579030
-673.02405 1339.2986 5726.0576 1513237
-631.71741 1323.8383 5659.9585 1513237
-606.22638 1341.6461 5736.0942 1513237
-583.2746 1367.5227 5846.7275 1579030
-554.13678 1381.2479 5905.4087 1579030
-519.44031 1382.0342 5908.77 1710616
-499.8212 1425.9482 6096.521 1579030
-488.21387 1501.3423 6418.8618 1579030
-432.37411 1441.9614 6164.9839 1513750
-384.29083 1399.8757 5985.0503 1514007
-337.07199 1352.7018 5783.3618 1645079
-305.91443 1366.6002 5842.7837 1645336
-268.89972 1354.5414 5791.2271 1710616
-213.20215 1231.0758 5263.3604 1579030
-200.26846 1354.5376 5791.2109 1579287
-169.33665 1382.1537 5909.2812 1513237
-133.85278 1377.3279 5888.6484 1579030
-97.563683 1357.8914 5805.5498 1579030
-63.698772 1369.3994 5854.7515 1644823
-28.801296 1359.6875 5813.2285 1644823
5.6412783 1358.9313 5809.9956 1644823
40.798206 1383.7024 5915.9023 1710616
76.037308 1387.0771 5930.3311 1447444
110.26849 1375.7437 5881.8755 1315858
147.36221 1396.9907 5972.7153 1513237
184.40967 1409.6549 6026.8599 1644823
219.29796 1404.3826 6004.3188 1710616
256.22302 1411.8049 6036.0527 1710616
292.05981 1412.1472 6037.5156 1513237
331.39737 1427.494 6103.1299 1447444
364.78885 1416.7284 6057.1025 1710616
403.17572 1425.5541 6094.8359 1710616
440.59387 1429.7853 6112.9258 1907995
489.20819 1466.9464 6271.8052 1907995
561.35364 1564.4393 6688.6274 1776409
586.03992 1525.5317 6522.2817 1842202
610.77795 1491.5646 6377.0581 1842202
582.54718 1339.7382 5727.937 1842202
617.41992 1341.7644 5736.6001 1842202
598.737 1233.2665 5272.7261 1776409
629.25433 1231.8458 5266.6523 1710616
661.14441 1233.1198 5272.0991 1710616
695.91357 1239.4065 5298.9771 1907738
727.20532 1239.2244 5298.1987 1710616
762.12488 1244.9838 5322.8223 1776409
796.11945 1248.8344 5339.2852 1842202
826.70593 1247.2487 5332.5063 1842202
861.68994 1252.1703 5353.5479 2039581
880.00446 1233.3789 5273.207 1381651
930.83679 1259.8893 5386.5498 1315858
1021.249 1336.4373 5713.8242 1776409
998.39557 1264.606 5406.7158 1710616
1038.8702 1274.9613 5450.9888 1710616
1240.72 1476.7688 6313.8003 1513237
1322.7631 1528.3364 6534.2729 1578773
1267.5579 1422.9025 6083.4985 1512980
1213.4972 1324.5486 5662.9951 1447187
1201.0242 1275.6597 5453.9746 1512980
1409.1998 1457.5524 6231.6416 1776152
1350.3481 1361.0187 5818.9204 1710359
1376.6101 1352.9426 5784.3916 1710359
1418.141 1359.9006 5814.1401 1841945
1512.0811 1415.5936 6052.2505 1907738
1597.8073 1461.1945 6247.2129 1841945
1582.9485 1414.8279 6048.9766 1776152
1489.9668 1302.2352 5567.5962 1973531
1557.4866 1331.7604 5693.8286 1907738
1595.3468 1335.2102 5708.5781 2039322
1586.8955 1300.5615 5560.4409 2039322
1598.0576 1283.0699 5485.6567 1907736
1806.6567 1421.6365 6078.0864 1907736
1807.5648 1394.5511 5962.2852 1973529
1892.9158 1432.4038 6124.1211 2039322
1928.1996 1431.6581 6120.9331 1776150
1940.7594 1414.3795 6047.0596 1841943
1935.3048 1384.8368 5920.7524 1841943
1943.9999 1366.2908 5841.4604 1907736
2005.2479 1384.6831 5920.0952 1907736
2010.5106 1364.448 5833.582 1973529
2055.4929 1371.3976 5863.2939 1973529
2092.7 1373.0146 5870.2075 2039322
2057.342 1327.7476 5676.6719 2105115
2220.7766 1410.1677 6029.0527 2039322
2203.7505 1377.202 5888.1104 1973529
2235.0947 1375.021 5878.7856 1973529
2283.8672 1383.4641 5914.8838 1907736
2260.6577 1348.7078 5766.2856 1841943
2270.3657 1334.3325 5704.8257 1841943
2321.8884 1344.5938 5748.6963 1841943
2342.5513 1336.9457 5715.998 1776150
2396.7039 1348.3567 5764.7847 1776150
2541.0447 1409.4728 6026.0815 1841943
2339.8591 1279.8936 5472.0762 1972759
2374.1633 1280.9078 5476.4131 2038552
2485.0994 1322.6816 5655.0132 1972759
2545.0491 1336.5676 5714.3818 1907479
2646.1624 1371.423 5863.4028 1907736
2578.2776 1318.9236 5638.9458 1776150
2624.3726 1325.328 5666.3276 1381392
2654.249 1323.4838 5658.4424 855048
2717.625 1338.1808 5721.2783 920841
2722.1089 1323.8741 5660.1118 1118220
2787.9255 1339.3813 5726.4111 1512978
2850.6287 1353.0377 5784.7979 1710357
2888.2046 1354.5848 5791.4126 1906966
2923.5784 1355.075 5793.5078 1841173
2982.1177 1366.166 5840.9272 1841686
3041.8152 1377.5275 5889.502 1907479
3083.9385 1380.7626 5903.3335 1841687
3112.3721 1377.8645 5890.9429 1907479
3153.5312 1380.6022 5902.6475 1775893
3188.4282 1380.5681 5902.502 1644308
3210.99 1375.2516 5879.772 1775894
3240.5154 1372.9999 5870.1445 1841430
3322.6426 1392.8464 5954.9971 1380879
3329.5076 1381.0577 5904.5957 1512207
3369.4949 1383.1102 5913.3706 1775380
3422.1958 1390.2854 5944.0474 1709587
3421.2751 1375.7522 5881.9121 1512208
3464.4187 1379.0526 5896.0225 1512208
3496.9294 1378.0968 5891.936 1249036
3528.1741 1376.6658 5885.8179 1380621
3563.8879 1376.9895 5887.2021 1380622
3583.9377 1371.3135 5862.9346 1446415
3627.1187 1374.5122 5876.6104 1512208
3823.3335 1435.0914 6135.6118 1578001
3864.7346 1436.9673 6143.6318 1578001
3828.2869 1410.1328 6028.9033 1709587
3735.6868 1363.3024 5828.6836 1643794
4024.7432 1455.3356 6222.1641 1578001
3763.9846 1348.6914 5766.2158 1380622
3895.5571 1383.2793 5914.0933 1775380
4360.7114 1534.6464 6561.2505 1775636
4021.3193 1402.6997 5997.1235 1841428
4065.8032 1405.7937 6010.3521 1841172
4082.8264 1399.4218 5983.1089 1906965
4098.6948 1392.7668 5954.6567 1973014
4182.0752 1408.9709 6023.936 2038807
4237.1992 1415.4615 6051.686 2104600
4299.7764 1424.3123 6089.5264 2170136
4272.6274 1403.5408 6000.7197 2104600
4320.1362 1407.4347 6017.3677 2236186
4351.2905 1405.9802 6011.1494 2170393
4505.2715 1443.9147 6173.335 1907221
4534.3062 1441.5162 6163.0806 1907221
4517.9365 1424.8365 6091.7681 1907221
4498.3306 1407.4089 6017.2573 1841428
4585.0522 1423.2607 6085.0308 1973014
4556.1816 1403.2639 5999.5356 1841428
4526.5498 1383.344 5914.3701 1841428
4443.438 1347.5118 5761.1729 1907477
