# .PCD v0.7 - Point Cloud Data file format
VERSION 0.7
FIELDS x y z rgb
SIZE 4 4 4 4
TYPE F F F U
COUNT 1 1 1 1
WIDTH 1322
HEIGHT 1
VIEWPOINT 0 0 0 1 0 0 0
POINTS 1322
DATA ascii
-112.90562 1381.9059 10377.506 2039581
-50.946732 1369.327 10283.044 1907995
10.040666 1377.0389 10340.958 1973788
70.584633 1362.9363 10235.053 2105374
131.45717 1365.2806 10252.658 2171167
193.77252 1376.3918 10336.098 2302753
252.78131 1364.3196 10245.44 2236960
314.87341 1370.3417 10290.664 2171167
379.58664 1383.9663 10392.979 2105374
445.89856 1398.8025 10504.393 1908510
517.27289 1423.9397 10693.162 1842717
581.04083 1424.937 10700.651 1645338
654.45569 1447.0685 10866.849 1579545
722.90619 1455.2415 10928.225 1513752
793.83057 1466.6415 11013.833 1645338
859.77649 1467.8101 11022.609 1645338
931.51416 1478.0033 11099.155 1447959
1018.1644 1508.9529 11331.573 1513752
1104.3372 1535.4094 11530.25 1447959
1177.6134 1541.897 11578.969 1513752
1274.8514 1577.3171 11844.959 1513752
1334.2434 1564.6588 11749.9 1513750
1408.1371 1569.4187 11785.646 1447957
1485.1716 1577.0641 11843.059 1382164
1565.457 1587.3158 11920.045 1382164
1643.3206 1594.3326 11972.737 1184785
1723.7528 1603.158 12039.012 1184529
1766.0907 1577.2603 11844.531 1381651
1850.3363 1589.3386 11935.235 1184272
1922.0972 1590.1989 11941.695 1315858
2055.7014 1640.3462 12318.278 1513237
2144.2542 1652.3379 12408.332 1579030
2141.0488 1595.171 11979.034 1644823
2200.802 1587.0746 11918.232 1644823
2344.2852 1637.9849 12300.547 1579030
2404.7102 1629.541 12237.137 1513237
2475.5073 1628.4144 12228.677 1447444
2530.1033 1616.9974 12142.94 1447444
2684.0464 1667.9495 12525.567 1447444
2776.9766 1679.2642 12610.536 1447444
2833.9333 1668.8027 12531.975 1447444
2996.7329 1719.611 12913.522 1447444
3180.9851 1779.8928 13366.213 1447444
3225.5945 1761.0078 13224.396 1513237
3308.762 1763.5704 13243.64 1513237
3242.2957 1688.1071 12676.942 1579030
3488.7783 1775.309 13331.791 1579030
3452.4255 1717.9121 12900.765 1579030
3574.7581 1740.2521 13068.529 1513237
3549.0952 1691.1259 12699.612 1513237
4048.9883 1889.265 14187.551 1579030
4063.0742 1857.2759 13947.326 1579030
4054.7649 1816.5291 13641.336 1513237
4245.0171 1864.5918 14002.266 1250065
3999.5024 1723.0739 12939.527 1250065
3942.2451 1666.4596 12514.379 1250065
4139.7002 1717.6195 12898.567 1381394
4225.1201 1721.2821 12926.072 1249808
4315.6567 1726.8618 12967.974 1249808
4357.7583 1713.2047 12865.415 1381394
4881.8887 1886.2633 14165.009 1315601
5032.4507 1911.5721 14355.066 1447186
4683.4463 1749.4337 13137.479 1578771
4885.5972 1795.1073 13480.467 1512978
5321.166 1923.696 14446.112 1578772
4980.0527 1771.8743 13305.998 1512980
5488.0762 1922.1943 14434.835 1512980
5829.688 2010.5096 15098.044 1447187
5670.6953 1926.119 14464.308 1447187
5570.2168 1863.8207 13996.474 1249808
6092.5488 2008.688 15084.364 1249809
5778.9321 1877.7426 14101.021 1315601
5607.1035 1795.9438 13486.749 1315600
5330.7168 1683.4249 12641.782 1249806
5650.2017 1759.5916 13213.759 1512978
5908.5557 1814.8987 13629.092 1381392
6317.5469 1914.3608 14376.009 1249806
6442.6099 1926.2843 14465.55 1249806
6586.5654 1943.4695 14594.602 1249806
6362.519 1853.0316 13915.453 1381392
6541.3784 1880.7493 14123.601 1381392
7021.2173 1993.2101 14968.133 1381392
7131.563 1999.2805 15013.719 1315599
7342.7524 2033.124 15267.868 1315856
7429.418 2032.0839 15260.057 1315599
7462.9316 2016.7054 15144.571 1249548
7468.3311 1994.1855 14975.457 1315084
7658.0015 2020.8207 15175.476 1249291
7727.4546 2015.4824 15135.387 1249291
7745.2681 1996.952 14996.232 1314828
7859.7095 2003.4735 15045.205 1446158
7965.7817 2007.7388 15077.236 1446414
7944.9556 1980.2802 14871.034 1446670
8076.6558 1991.0242 14951.717 1446670
8468.1182 2064.8755 15506.309 1446672
8946.7139 2158.1604 16206.836 1512977
8433.9424 2012.8623 15115.711 2565665
8638.5889 2040.0387 15319.795 2236185
9001.3965 2103.6121 15797.202 2630685
8977.2393 2076.3748 15592.662 2630685
9265.6426 2121.2485 15929.645 2564890
8908.6328 2018.9486 15161.417 2499097
9229.8516 2070.8628 15551.27 2630426
8680.873 1928.4379 14481.722 2499354
9021.3672 1984.4618 14902.437 2235925
9359.0996 2038.7976 15310.475 2434589
9327.0371 2012.3073 15111.544 2500126
9972.626 2131.1335 16003.876 2763555
10180.666 2155.0986 16183.844 3618609
9691.6074 2032.4277 15262.64 3947827
10259.655 2131.6616 16007.842 3816242
9677.9668 1992.3833 14961.924 3487276
10175.337 2075.761 15588.053 3026468
10399.001 2102.3047 15787.385 2434074
10384.84 2080.7241 15625.324 2170900
10512.857 2087.7605 15678.164 1513234
10632.409 2093.0071 15717.564 789511
9261.5537 1807.3212 13572.188 262912
9616.3193 1860.3965 13970.76 131328
9656.791 1852.2809 13909.815 131328
9663.7197 1837.923 13801.994 131072
9592.5303 1809.0739 13585.35 131072
9537.4297 1783.7136 13394.905 65536
9499.8594 1762.0237 13232.023 65536
9623.1123 1770.2739 13293.979 65536
9575.7109 1747.2515 13121.091 0
9563.8545 1731.0333 12999.3 256
9494.1309 1704.6842 12801.43 256
9562.1475 1703.2882 12790.945 256
9600.1367 1696.6074 12740.776 256
9494.8057 1664.9 12502.668 256
9316.5781 1621.0002 12173 256
9451.1787 1631.786 12253.996 256
9724.5059 1666.1766 12512.254 256
9066.6807 1541.712 11577.58 256
8988.9502 1517.0164 11392.127 256
8930.9219 1495.9891 11234.221 256
8792.0312 1461.828 10977.687 256
8944.2686 1476.2184 11085.752 256
8907.5566 1459.4412 10959.762 65792
8094.0703 1316.5586 9886.7764 65792
9024.2305 1457.3081 10943.743 657152
8347.2285 1338.363 10050.519 394240
8404.8564 1338.0564 10048.216 262144
8433.6162 1333.1908 10011.678 262144
8420.0361 1321.7467 9925.7373 196608
8427.4238 1313.73 9865.5352 196608
8663.1328 1341.1709 10071.604 0
8473.3838 1302.8204 9783.6094 0
8307.3682 1268.6152 9526.7432 256
8418.6953 1276.9391 9589.252 256
8357.9863 1259.2319 9456.2783 256
8206.5146 1228.177 9223.0703 256
8270.1152 1229.5077 9233.0625 256
8335.2578 1231.0486 9244.6338 256
8325.8672 1221.6332 9173.9287 0
8313.4463 1211.8983 9100.8242 0
8261.6982 1196.5928 8985.8867 0
8221.6289 1183.1642 8885.043 0
8251.499 1179.9072 8860.585 0
8336.4756 1184.5214 8895.2354 0
8421.0371 1189.0189 8929.0098 0
8483.4404 1190.3513 8939.0156 0
8431.7705 1175.7603 8829.4434 0
0 0 0 0
0 0 0 0
0 0 0 0
0 0 0 0
0 0 0 0
0 0 0 0
-3428.1807 529.98492 3810.4016 197378
-3396.6169 528.58655 3800.3481 263170
-3375.345 528.78186 3801.7522 197377
-3346.8245 527.83655 3794.9561 263170
-3316.8103 526.64142 3786.363 263170
-3289.877 525.92242 3781.1936 263170
-3261.1382 524.90295 3773.8643 263170
-3236.8643 524.59302 3771.636 197377
-3200.0278 522.22864 3754.637 131585
-3175.95 521.92792 3752.4749 131584
-3167.2239 524.16357 3768.5483 197377
-3124.2275 520.71912 3743.7839 197377
-3102.0442 520.71912 3743.7839 197377
-3074.2778 519.77515 3736.9973 197377
-3030.9255 516.16333 3711.0293 65792
-3006.9863 515.8288 3708.6245 131585
-2982.8123 515.44885 3705.8926 197377
-2955.7463 514.55975 3699.5005 197377
-2912.3872 510.79974 3672.4673 197377
-2887.1475 510.185 3668.0474 328963
-2853.7612 508.11041 3653.1321 328963
-2825.9688 507.00772 3645.2041 328963
-2801.5581 506.49948 3641.55 263170
-2782.7539 507.00476 3645.1829 263170
-2757.8269 506.39371 3640.7896 263170
-2739.9058 507.06958 3645.6487 263170
0 0 0 0
0 0 0 0
0 0 0 0
-3485.1196 665.98816 4788.2163 328963
-3479.2446 670.32251 4819.3789 263170
-3045.6602 591.64276 4253.6997 263170
-3252.4028 637.07635 4580.3511 263170
-3420.187 675.57922 4857.1729 263170
-3389.7737 675.25397 4854.8345 328963
-2546.3298 511.57867 3678.0674 328963
-3396.0557 688.18579 4947.8096 263170
-3409.7312 696.97388 5010.9927 328963
-2478.4219 511.0578 3674.3225 328963
-3644.4131 758.14856 5450.8169 328963
-3654.6526 767.07684 5515.0078 394756
-3368.1228 713.31519 5128.481 328963
-3634.2043 776.6745 5584.0117 394756
-3270.3232 705.3302 5071.0718 394756
-3199.1287 696.37372 5006.6777 394756
-3327.7651 731.15497 5256.7427 328963
-3496.3264 775.44849 5575.1968 328963
-3560.2017 797.14722 5731.2031 328963
-3318.8992 750.27502 5394.209 328963
-3348.4355 764.31281 5495.1357 394756
-3398.9595 783.46399 5632.8257 394756
-3405.3896 792.73047 5699.4487 394756
-3352.5415 788.24524 5667.2012 328963
-3343.8381 794.15344 5709.6792 328963
-3269.2458 784.37402 5639.3687 131584
-3214.9536 779.31354 5602.9854 0
-3226.9634 790.38684 5682.5981 0
-3187.9189 789.05695 5673.0371 0
-3158.5859 790.12811 5680.7388 0
-3147.7185 795.89136 5722.1738 0
-3072.9097 785.43658 5647.0078 329476
-3077.3435 795.22906 5717.4126 263683
-3084.3389 805.90894 5794.1968 329476
-3014.1926 796.4458 5726.1606 329476
-2857.7178 763.6969 5490.7075 329476
-2534.8298 685.20935 4926.4102 329476
-2780.6152 760.40625 5467.0488 197890
-2752.8328 761.68237 5476.2236 329476
-2705.0803 757.39752 5445.417 263683
-2637.4495 747.37622 5373.3677 263683
-2604.5046 747.05908 5371.0874 263683
-2382.9888 691.97656 4975.064 329474
-2352.593 691.70715 4973.1265 329474
-2257.0144 672.02264 4831.6025 263681
-2287.3623 689.80865 4959.4771 263681
-2207.0825 674.26093 4847.6948 329217
-2178.5146 674.30945 4848.0435 329217
-2111.405 662.27008 4761.4849 395010
-1929.1053 613.28442 4409.2954 0
-2072.3445 667.867 4801.7246 0
-1993.0348 651.24866 4682.2446 512
-2007.6625 665.28967 4783.1948 395269
-1984.9822 667.19281 4796.8774 395269
-1955.5538 666.8501 4794.4136 395269
-1955.2731 676.58325 4864.3916 395267
-1944.6438 682.97321 4910.333 329474
-1927.0304 687.06714 4939.7666 395267
-1932.5388 699.65839 5030.2935 329474
-1935.8629 711.84088 5117.8813 329729
-1951.6119 729.05273 5241.6279 395009
-1959.4432 743.81561 5347.7681 460800
-1942.8059 749.62274 5389.519 394753
-1853.5354 727.13037 5227.8071 197120
-2703.5452 1078.61 7754.8198 131072
-2761.7197 1120.8701 8058.6548 131072
0 0 0 0
0 0 0 0
0 0 0 0
-3028.875 1320.6339 9494.8848 256
-2987.0571 1327.0504 9541.0176 256
-2880.7461 1304.5095 9378.957 256
-2855.8899 1318.6936 9480.9346 256
-2759.373 1299.6936 9344.332 256
-2844.3008 1367.1281 9829.1611 256
-2699.8088 1324.8048 9524.8721 256
-2677.5054 1341.9126 9647.8711 0
-2658.6018 1361.5082 9788.7559 0
-2584.6021 1353.1328 9728.541 0
-2494.8218 1335.9254 9604.8252 0
-2445.4075 1340.0342 9634.3662 0
-2387.3174 1339.4716 9630.3213 0
-2349.3979 1350.4761 9709.4395 0
-2282.7927 1345.1299 9671.002 131329
-2227.5127 1346.3535 9679.7998 131329
-2157.4343 1338.4611 9623.0557 131586
-2088.1899 1330.6716 9567.0527 263171
-2027.9764 1328.3627 9550.4521 460549
-1955.676 1317.7769 9474.3438 460549
-1878.147 1302.938 9367.6582 263172
-1826.0664 1305.3875 9385.2686 328964
-1754.4557 1293.5909 9300.4561 328964
-1694.5027 1289.9037 9273.9453 197379
-1634.2816 1285.7581 9244.1406 460549
-1512.6196 1231.3105 8852.6826 921099
-1438.3147 1212.8859 8720.2148 986893
-1357.1799 1187.1139 8534.9238 1118479
-1309.3021 1189.5625 8552.5283 1381651
-1241.9724 1173.8237 8439.3721 1381651
-1169.6575 1151.855 8281.4248 1513237
-1110.2131 1141.192 8204.7617 526343
-1032.6759 1110.1029 7981.2422 0
-965.69159 1087.9181 7821.7417 0
-934.50006 1105.8525 7950.6836 0
-880.66846 1097.4773 7890.4692 0
-844.25897 1111.0916 7988.3506 0
-837.96844 1168.3157 8399.7715 131585
-818.7381 1213.5864 8725.252 131585
-790.3006 1250.3928 8989.877 131585
-746.5636 1266.5635 9106.1377 263171
-706.98389 1292.856 9295.1719 328964
-661.50903 1311.9 9432.0918 328964
-613.69489 1329.3918 9557.8516 592135
-561.56061 1340.1305 9635.0586 395013
-503.96933 1338.803 9625.5146 460550
-447.76254 1341.2841 9643.3525 526343
-390.59326 1341.1859 9642.6465 657928
-332.93307 1339.0798 9627.5049 789514
-275.48291 1337.1223 9613.4307 921100
-217.96729 1333.7434 9589.1377 1184272
-159.72743 1321.9877 9504.6182 1184272
-104.76155 1339.2821 9628.959 1776409
-47.659683 1337.9789 9619.5889 2039581
9.3358488 1337.3492 9615.0625 1973788
66.264519 1336.453 9608.6191 1907995
122.94678 1333.7122 9588.9131 2039581
179.25787 1329.9501 9561.8652 2039581
236.40884 1332.7299 9581.8506 2105374
295.88873 1345.0194 9670.208 2105373
352.7225 1343.2445 9657.4473 2039581
414.48901 1358.1277 9764.4521 1974560
476.42206 1369.8438 9848.6865 1711131
541.22394 1386.3514 9967.3701 1645338
614.9101 1420.1287 10210.217 1645338
677.72107 1424.9885 10245.157 1645338
722.18896 1393.6517 10019.856 1579545
814.0224 1451.5363 10436.026 1579545
876.52502 1452.6384 10443.95 1382166
954.74915 1477.9315 10625.799 921615
1056.0886 1533.6637 11026.493 790029
1098.6881 1502.5686 10802.931 855822
1149.2482 1485.1849 10677.948 855823
1221.0504 1495.6344 10753.076 1118992
1276.4639 1485.9689 10683.584 921613
1360.032 1508.4436 10845.17 921613
1408.9897 1492.2352 10728.638 921613
1501.4707 1521.5309 10939.263 1053199
1575.8711 1530.838 11006.178 1118992
1638.4749 1528.4014 10988.658 1184785
1682.1797 1509.1952 10850.573 1118479
1764.7446 1524.9839 10964.088 1118479
1834.5045 1528.9789 10992.811 1250065
1917.8734 1543.6536 11098.316 1250065
1978.1798 1539.408 11067.792 1381651
2071.1406 1560.031 11216.064 1447444
1852.6366 1352.0631 9720.8496 1513237
2147.3062 1519.8606 10927.254 1447444
2232.2283 1533.7217 11026.91 1447444
2328.0698 1554.0834 11173.304 1381651
2493.2493 1618.3251 11635.179 1315858
2610.072 1648.5669 11852.605 1381651
2668.2156 1641.132 11799.151 1250065
2709.0422 1623.6976 11673.805 1184272
2812.4175 1643.6875 11817.524 1184272
2868.563 1635.7736 11760.627 1184272
2968.1143 1652.3999 11880.163 1184272
3039.4148 1652.8925 11883.705 1184272
3229.3513 1716.4183 12340.434 1250065
3273.4299 1701.3235 12231.907 1315858
3312.4783 1684.3248 12109.692 1381651
3539.949 1761.8242 12666.886 1381651
3417.7432 1665.6855 11975.684 1315858
3495.8362 1669.0908 12000.166 1315858
3598.9102 1684.0498 12107.716 1315858
3638.1196 1669.124 12000.403 1250065
3755.5103 1689.9512 12150.144 1250065
3780.9373 1669.3903 12002.318 1250065
3715.7017 1610.2975 11577.463 1447187
3762.5747 1601.0519 11510.99 1315601
4114.8613 1719.7811 12364.61 1249808
4182.7998 1717.5938 12348.884 1249808
4466.2534 1802.4575 12959.024 1315601
4486.1621 1779.8909 12796.777 1315601
4772.5288 1862.0347 13387.363 1315601
4847.9282 1860.5282 13376.531 1381394
5094.4761 1923.696 13830.686 1447188
5110.564 1899.2191 13654.706 1447187
5066.8994 1853.6456 13327.049 1381394
5032.1123 1812.6687 13032.438 1249808
4863.0693 1725.2997 12404.287 1315601
5127.4897 1792.0251 12884.019 1381394
5048.3491 1738.4817 12499.062 1447187
5483.8838 1861.161 13381.082 1512980
5559.8862 1860.0616 13373.178 1381394
5530.8159 1824.3352 13116.317 1381392
5624.4185 1829.5015 13153.461 1447185
5695.3125 1827.2411 13137.209 1381392
5765.582 1824.8441 13119.976 1315598
5477.9736 1710.7469 12299.658 1249806
5773.0127 1779.2153 12791.921 1315598
5904.9307 1796.2871 12914.661 1249806
5874.5938 1764.1957 12683.936 1184013
5785.2432 1715.4165 12333.23 1118220
6190.3862 1812.6504 13032.308 1184013
6188.25 1789.6992 12867.297 1315599
6700.6885 1914.3154 13763.243 1381391
6381.5879 1801.2295 12950.195 1381392
6585.021 1836.5657 13204.249 1512208
6577.5166 1812.9321 13034.333 1446415
6853.5981 1867.1036 13423.807 1314829
6804.02 1832.3315 13173.808 1249036
6842.0005 1821.6605 13097.087 1249036
6934.1147 1825.48 13124.547 1183756
6934.7231 1805.3923 12980.124 1315342
7068.0107 1819.9078 13084.486 1184013
7276.8633 1853.3545 13324.955 1250062
7411.793 1867.4575 13426.352 1184013
7316.7998 1823.9457 13113.516 1315341
7388.2246 1822.3969 13102.381 1380877
7445.6567 1817.465 13066.922 1512461
7891.0669 1906.3643 13706.076 1577484
7993.2021 1911.3669 13742.045 1577740
7835.7363 1854.8181 13335.478 1577995
7978.1289 1869.6699 13442.257 854533
8040.2661 1865.6062 13413.041 986118
8358.1299 1920.3781 13806.831 2170645
8567.9043 1949.4944 14016.166 3683629
8606.0781 1939.381 13943.455 3420970
8886.168 1983.4574 14260.35 2960677
8581.5449 1897.421 13641.778 2763041
8701.4268 1905.9742 13703.272 2894371
9071.7314 1968.7152 14154.358 2762785
8920.6943 1918.2036 13791.197 2630942
8552.6826 1822.3765 13102.235 1841427
8969.3584 1893.9681 13616.953 1906706
9219.8008 1929.4943 13872.373 1973013
9604.1699 1992.1727 14323.01 1973269
10114.157 2079.5818 14951.448 2302747
10167.184 2072.3323 14899.326 2762785
10231.74 2067.5376 14864.855 2828578
9487.457 1900.7766 13665.903 3091750
9975.7881 1981.698 14247.699 3553071
10148.423 1999.0742 14372.628 3881778
10239.525 2000.2345 14380.97 3947828
10262.622 1988.2003 14294.449 3684402
10356.86 1990.0332 14307.626 2894883
10104.65 1925.8077 13845.868 1776403
10089.096 1907.3569 13713.214 986889
9198.0664 1725.0134 12402.229 131585
9206.876 1712.9799 12315.712 0
9796.5254 1808.3533 13001.413 131584
9242.2529 1692.7281 12170.109 0
9098.1846 1653.4407 11887.647 65792
9047.7725 1631.6469 11730.957 65792
9756.3516 1746.0159 12553.229 0
9108.2051 1617.6888 11630.604 0
8958.3174 1579.1195 11353.305 256
8853.2559 1548.9679 11136.524 256
8629.4424 1498.6392 10774.679 256
8731.1201 1505.1613 10821.57 65536
8611.2666 1473.6768 10595.209 65536
8163.3345 1386.9094 9971.3818 256
7712.6108 1300.9178 9353.1338 525568
8502.6631 1423.9471 10237.67 262656
8416.0801 1399.4624 10061.634 262144
8389.4551 1385.2223 9959.2529 196608
8391.4082 1375.8668 9891.9902 196608
8399.6162 1367.6593 9832.9814 131072
8415.4902 1360.8048 9783.6992 65536
8373.1543 1344.6957 9667.8809 256
8312.8389 1325.9377 9533.0176 256
8414.7441 1333.1332 9584.751 0
8353.5889 1314.5721 9451.3027 0
8256.7764 1290.6842 9279.5576 0
8318.2119 1291.686 9286.7598 0
8356.252 1289.0654 9267.9189 0
8267.1621 1266.9955 9109.2441 0
8081.5454 1230.5146 8846.96 0
8123.6558 1228.9547 8835.7441 0
8149.5024 1224.9701 8807.0967 0
8194.624 1223.915 8799.5107 0
8094.2534 1201.2805 8636.7773 0
8082.6152 1192.0167 8570.1738 0
8208.6729 1203.0491 8649.4922 0
8369.7061 1219.0386 8764.4512 0
0 0 0 0
0 0 0 0
0 0 0 0
0 0 0 0
0 0 0 0
0 0 0 0
-3428.1184 552.55304 3810.3325 197377
-3394.6777 550.79053 3798.1785 263170
-3373.3792 550.98773 3799.5383 263170
-3345.5725 550.11737 3793.5366 263170
-3317.5227 549.19501 3787.176 263170
-3286.5154 547.76721 3777.3303 263170
-3262.2935 547.45844 3775.2012 263170
-3230.2175 545.81836 3763.8911 197377
-3198.1819 544.16229 3752.4712 131584
-3160.2634 541.4751 3733.9404 131585
-3146.4468 542.90869 3743.8264 131584
-3115.4199 541.37201 3733.2295 197377
-3085.1985 539.95428 3723.4531 197377
-3063.1355 539.95428 3723.4531 197377
-3035.7004 539.00043 3716.8757 197377
-3005.3303 537.50769 3706.582 197377
-2974.6006 535.92822 3695.6899 263170
-2946.1672 534.74213 3687.511 197377
-2909.4028 532.01483 3668.7039 263170
-2885.6592 531.64539 3666.1565 263170
-2854.9429 529.97607 3654.6448 263170
-2830.5122 529.45691 3651.0647 197377
-2809.8198 529.6344 3652.2888 263170
-2787.6189 529.52808 3651.5557 263170
-3124.9768 598.25519 4125.4883 263170
-2741.2598 528.9328 3647.4504 263170
0 0 0 0
0 0 0 0
0 0 0 0
-3384.6589 674.34485 4650.1929 328963
-3444.8008 691.96051 4771.668 197377
-3304.4468 669.26062 4615.1323 263170
-2608.3718 532.69055 3673.3635 328963
-2582.688 531.88373 3667.7998 328963
-3259.7041 677.00677 4668.5488 328963
-2542.7703 532.62708 3672.9258 328963
-2530.0076 534.52875 3686.0393 328963
-3120.0898 664.93903 4585.3315 328963
-3456.1963 743.03894 5123.8979 394756
-3043.6523 660.14624 4552.2808 328963
-3333.8242 729.54797 5030.8662 263170
-3081.1306 680.3338 4691.4917 328963
-2941.0657 655.31903 4518.9932 394756
-2903.6335 652.92303 4502.4707 328963
-2871.4473 651.6731 4493.8516 328963
-2822.4414 646.54694 4458.502 394756
-2297.6143 531.2959 3663.7461 328963
-3007.9417 702.18524 4842.1763 263170
-2724.4575 642.13275 4428.0625 263170
-2711.292 645.24384 4449.5161 394756
-2894.7432 695.66705 4797.228 328963
-2741.9646 665.48602 4589.1035 328963
-2773.9258 679.98663 4689.0977 328963
-2803.6968 694.23828 4787.3755 197377
-3044.824 761.65131 5252.2466 131584
-2877.791 727.30249 5015.3818 0
-2841.3157 725.57703 5003.4829 0
-2786.2107 719.00745 4958.1802 0
-2066.6082 538.99072 3716.8088 256
-2924.4456 770.9386 5316.2905 0
-2912.0149 776.02069 5351.3359 329476
-2906.7937 783.1571 5400.5474 263683
-2847.833 775.81244 5349.8999 263683
-2552.4553 703.17236 4848.9834 263683
-1993.995 555.57684 3831.1846 329476
-2751.0122 775.3277 5346.5571 329476
-2670.5752 761.42639 5250.6958 329476
-1979.3416 570.99615 3937.5137 263683
-2541.1987 741.82361 5115.5176 263683
-2294.428 677.87238 4674.5181 263683
-2307.3604 690.02307 4758.3076 263683
-2513.2268 760.88574 5246.9673 263681
-2370.1809 726.56641 5010.3057 329474
-2239.7332 695.28717 4794.6084 263681
-2358.9126 741.6925 5114.6133 263681
-2184.884 695.91498 4798.9375 395010
-1940.8875 626.35052 4319.2305 329217
-1970.9348 644.54645 4444.707 263424
-1987.0771 658.62628 4541.7998 0
-1975.0906 663.6413 4576.3828 0
-1940.3041 661.02838 4558.3643 66048
-1958.9441 676.80023 4667.1245 395269
-1974.0387 691.78119 4770.4316 395269
-1940.7563 689.99799 4758.1348 395269
-1936.3744 698.58868 4817.375 395267
-1932.8208 707.73975 4880.4795 395267
-1924.2172 715.29144 4932.5552 395267
-1931.717 729.15466 5028.1543 395267
-1970.2809 755.36151 5208.873 395778
-1979.7007 771.05145 5317.0688 460802
-2049.0825 810.98047 5592.4141 395008
-2039.609 820.5 5658.0596 394752
-2151.083 879.80603 6067.0259 394752
-2544.5034 1058.4058 7298.6265 460547
-2631.7893 1113.6409 7679.52 526083
-2597.7957 1118.5972 7713.6982 591875
-2718.3784 1191.4829 8216.3086 657924
-2802.8823 1250.9252 8626.2139 789511
-2792.49 1269.4366 8753.8672 855305
-2734.1445 1266.4374 8733.1846 789769
-2564.4475 1210.75 8349.1719 592390
-2618.7876 1260.7268 8693.8057 394754
-2574.406 1264.2296 8717.96 197378
-2559.7217 1282.7581 8845.7295 197122
-2481.6277 1269.6202 8755.1328 66305
-2521.9141 1317.7788 9087.2285 263427
-2526.1396 1348.7847 9301.041 395013
-2455.9207 1340.5391 9244.1797 395013
-2370.0718 1323.1909 9124.5498 329222
-2294.6094 1310.9669 9040.2549 395271
-2260.064 1322.0945 9116.9883 460807
-2236.395 1340.2852 9242.4287 395015
-2175.343 1336.4226 9215.7939 263683
-2128.6741 1341.425 9250.29 394756
-2052.1885 1327.406 9153.6162 526086
-1963.8279 1304.7361 8997.2871 460549
-1892.7073 1292.5745 8913.4229 460549
-1831.3676 1286.5861 8872.127 394757
-1770.9775 1280.9307 8833.1279 460549
-1703.9027 1269.9484 8757.3955 394756
-1656.4325 1273.3468 8780.8311 131585
-1605.7867 1274.4453 8788.4062 131585
-1543.8248 1266.3354 8732.4814 0
-1457.6049 1237.0751 8530.7061 0
-1416.2272 1245.1375 8586.3027 0
-1359.2096 1239.5376 8547.6875 0
-1297.2003 1228.7761 8473.4775 0
-1216.7513 1198.9777 8267.9912 0
-1153.3073 1184.1383 8165.6611 0
-1076.6608 1153.8506 7956.8008 0
-1030.9723 1155.4855 7968.0747 0
-967.71814 1136.6454 7838.1562 0
-916.36743 1130.5919 7796.4121 0
-877.69104 1140.363 7863.7925 328963
-828.22418 1136.4242 7836.6304 0
-799.45825 1162.1085 8013.7461 65792
-757.776 1171.0756 8075.582 0
-720.46094 1188.4554 8195.4316 0
-676.23138 1196.1173 8248.2666 65792
-640.66266 1221.4858 8423.2041 65792
-598.54108 1237.5914 8534.2666 65792
-547.05707 1235.5248 8520.0156 197377
-506.59756 1260.4681 8692.0215 197377
-462.15134 1280.0153 8826.8154 197377
-414.27664 1293.8435 8922.1738 197377
-363.04782 1299.71 8962.6279 197377
-307.88437 1291.0872 8903.166 394756
-255.13164 1291.0978 8903.2393 394756
-206.15182 1315.1838 9069.334 526343
-150.06374 1294.9172 8929.5781 1315858
-95.657516 1274.9923 8792.1787 1513237
-43.899738 1284.9268 8860.6846 1513237
8.5675573 1279.5769 8823.793 1710616
61.039982 1283.5281 8851.04 1842202
113.3115 1281.5551 8837.4346 1842202
166.36714 1286.8948 8874.2559 1907995
221.86322 1304.0134 8992.3037 1776409
272.69894 1292.4149 8912.3223 1842202
333.87799 1325.6475 9141.4893 2039581
390.4686 1333.927 9198.584 1776667
450.04517 1349.1294 9303.418 1776667
512.53735 1368.8005 9439.0674 1513496
566.33667 1363.6696 9403.6846 1579032
635.58429 1393.3232 9608.1729 1447703
701.30505 1411.0054 9730.1064 1382166
750.98303 1396.1755 9627.8418 1250580
818.06091 1413.5044 9747.3398 1184787
879.58124 1419.5784 9789.2246 1250580
952.85455 1442.6958 9948.6387 1382166
1004.3016 1431.9979 9874.8682 1316373
1068.6848 1439.9077 9929.4131 1250581
1130.7893 1444.0822 9958.1992 1382164
1191.826 1446.5465 9975.1934 1382164
1260.142 1457.1954 10048.627 1447957
1315.6403 1452.7301 10017.835 1316371
1360.524 1437.4359 9912.3682 1184785
1427.2501 1445.5298 9968.1816 1184785
1497.3063 1456.2188 10041.892 1250835
1537.988 1438.6144 9920.4941 1315858
1605.5824 1446.553 9975.2373 1118479
1665.0103 1446.8315 9977.1592 1052686
1729.0503 1450.9614 10005.638 986893
1799.5157 1460.0306 10068.178 1052686
1868.5176 1467.3685 10118.779 1118479
1966.6578 1496.4213 10319.123 1118479
2054.7742 1516.3248 10456.375 1250065
2064.0432 1478.5811 10196.099 1315858
2100.9907 1462.2473 10083.464 1381651
2198.7866 1487.9952 10261.019 1381651
2305.5366 1518.254 10469.679 1315858
2348.1316 1505.7865 10383.704 1250065
2465.6409 1540.7692 10624.94 1315858
2616.8284 1594.5311 10995.676 1381651
2649.9043 1575.4598 10864.162 1381651
2707.3127 1571.4165 10836.28 1381651
2732.5496 1549.3197 10683.903 1315858
2828.0593 1567.165 10806.963 1315858
2875.3354 1558.0836 10744.338 1315858
2958.9724 1568.6718 10817.353 1250065
3014.2939 1564.118 10785.951 1184272
2991.5583 1520.0905 10482.343 1250065
3053.7593 1520.1349 10482.648 1184272
3134.4741 1529.2096 10545.227 1250065
3191.7383 1526.7124 10528.007 1315858
3240.8562 1520.4891 10485.092 1184272
3371.3333 1551.9525 10702.06 1381651
3370.8027 1523.0601 10502.82 1381394
3406.5715 1511.319 10421.855 1381651
3477.9797 1515.5259 10450.866 1315858
3586.2319 1535.3595 10587.636 1250065
3633.8259 1528.9882 10543.7 1381394
3714.272 1536.4219 10594.962 1381394
3841.4153 1562.6035 10775.508 1315601
3958.449 1583.8843 10922.256 1315601
3970.8435 1563.2847 10780.204 1315601
4099.9937 1588.5753 10954.605 1381395
4275.0229 1630.5768 11244.242 1447187
4437.4712 1666.564 11492.404 1447187
4348.2725 1608.382 11091.188 1512980
4427.1372 1613.1718 11124.219 1381394
4508.6699 1618.7788 11162.885 1315601
4586.1792 1622.8 11190.615 1381394
4683.7021 1633.6879 11265.695 1512980
4772.2207 1641.1727 11317.31 1578771
5043.0703 1710.2852 11793.9 1710357
5117.4751 1711.7976 11804.33 1644564
5614.9038 1852.8629 12777.097 1710357
5239.8096 1706.0813 11764.91 1710357
5431.0645 1745.136 12034.227 1512977
5403.1128 1713.6548 11817.137 1381391
5490.9102 1719.2206 11855.519 1249806
5559.3638 1718.6655 11851.69 1184013
5736.5361 1751.3156 12076.84 1052427
5947.082 1793.2238 12365.834 854791
5755.5586 1714.3517 11821.942 920841
5499.7773 1618.4666 11160.731 986378
5961.146 1733.3944 11953.259 1183500
6149.7656 1767.244 12186.681 1249036
6482.8457 1841.3391 12697.631 1314829
6710.3008 1884.0778 12992.351 1248780
6574.1255 1824.9069 12584.315 1051657
6683.6421 1834.4994 12650.465 1052170
6937.918 1883.1719 12986.104 1118219
6513.353 1748.5385 12057.689 1118220
6707.0366 1780.9974 12281.522 1249805
6681.1289 1755.0748 12102.764 1249806
6694.9663 1740.0327 11999.035 1118477
7030.4492 1808.0243 12467.896 1315084
7124.3745 1813.1266 12503.081 1380877
7113.2041 1791.6523 12354.998 1577743
7215.731 1798.9622 12405.404 1577741
7222.6719 1782.5337 12292.116 1643534
7224.9482 1765.2936 12173.231 1709327
7315.8999 1769.8467 12204.629 1709327
7411.6597 1775.4623 12243.354 1644047
7674.564 1820.6204 12554.757 1512461
7699.1919 1808.9282 12474.13 1578254
7650.0259 1780.2856 12276.613 1906450
7869.2534 1814.0536 12509.473 1841167
7892.0488 1802.3317 12428.641 1051652
7765.5156 1757.0389 12116.309 1774347
7776.3525 1743.3732 12022.07 1116417
7685.6606 1707.4001 11774.006 1906191
7791.0171 1715.2358 11828.039 2827290
8230.1592 1795.7611 12383.331 2499097
8127.0386 1757.5912 12120.115 2762269
8520.7393 1826.5935 12595.947 2630942
8512.3223 1808.944 12474.238 2762527
8737.6143 1840.8362 12694.162 2170394
8718.332 1821.0968 12558.042 1776406
9132.6514 1891.4963 13043.508 1776149
9200.8545 1889.6306 13030.642 1776150
10022.09 2041.1631 14075.59 2105115
10702.083 2161.6655 14906.56 2171165
11374.051 2278.5874 15712.837 2368286
11192.24 2223.9602 15336.135 2631713
11126.234 2193.0388 15122.904 3223848
11029.576 2156.6174 14871.749 4013364
10920.332 2118.3325 14607.741 4408121
10521.346 2024.8873 13963.354 4342329
10105.078 1929.6006 13306.27 4605757
10044.17 1903.1206 13123.668 4342328
9863.5156 1854.5331 12788.615 3881775
9555.4727 1782.9174 12294.763 3026468
9231.8379 1709.4985 11788.476 1381645
8929.5566 1641.1066 11316.854 526596
8549.6953 1559.5825 10754.675 66048
8643.0186 1564.9417 10791.631 0
8539.7773 1534.8925 10584.415 65536
8378.5723 1494.9396 10308.905 65792
8446.2188 1496.1018 10316.92 921095
8609.2139 1514.0155 10440.45 262656
8213.1426 1434.0575 9889.0713 131072
8443.708 1463.8715 10094.664 262144
8445.5449 1453.8906 10025.837 262144
8409.8711 1437.637 9913.7539 196608
8352.7295 1417.9645 9778.0947 196608
8381.1123 1412.9813 9743.7324 65536
8423.3594 1410.3879 9725.8486 256
8391.7539 1395.5482 9623.5156 256
8466.9707 1398.5535 9644.2393 0
8409.4756 1379.7443 9514.5342 0
8220.2881 1339.7227 9238.5498 0
8203.6191 1328.1613 9158.8242 0
8200.9785 1319.0081 9095.7051 0
8253.5059 1318.7894 9094.1973 0
8170.168 1297.0051 8943.9756 0
8169.3711 1288.5205 8885.4668 0
8095.0977 1268.6296 8748.3018 0
8146.48 1268.5587 8747.8135 0
8001.6128 1238.1224 8537.9277 0
8213.8672 1262.9801 8709.3438 0
8252.3506 1260.9749 8695.5156 0
8328.9863 1264.788 8721.8105 0
0 0 0 0
0 0 0 0
0 0 0 0
0 0 0 0
0 0 0 0
0 0 0 0
-3430.2854 575.49432 3812.7412 263170
-3398.7893 573.99066 3802.7788 197377
-3375.2759 573.82391 3801.6743 197377
-3342.0793 571.99774 3789.5757 197377
-3315.8184 571.34192 3785.2307 197377
-3286.5154 570.14948 3777.3303 263170
-3256.9636 568.89709 3769.0332 197377
-3218.6648 566.08905 3750.4297 197377
-3197.4705 566.27118 3751.6362 197377
-3161.0254 563.73608 3734.8408 197377
-3147.7751 565.33093 3745.407 197377
-3113.9241 563.22229 3731.437 197377
-3090.7783 563.03369 3730.1875 197377
-3065.4341 562.43896 3726.2473 197377
-3037.1526 561.29279 3718.6536 197377
-3010.0125 560.34229 3712.3567 263170
-2983.2532 559.44934 3706.4404 197377
-2953.1394 557.9093 3696.2375 197377
-2920.1282 555.79474 3682.2283 197377
-2887.4395 553.71033 3668.4185 197377
-2858.9705 552.40948 3659.8005 263170
-2836.813 552.31769 3659.1921 263170
-2809.8198 551.2757 3652.2888 263170
-2789.5054 551.53802 3654.0269 263170
-3124.9783 622.70062 4125.4902 197377
0 0 0 0
0 0 0 0
0 0 0 0
-2946.531 606.10736 4015.5574 263170
-3200.2871 663.66479 4396.8843 263170
-3303.7498 690.74377 4576.2871 263170
-3097.6655 653.01569 4326.3325 263170
-3108.0293 660.66803 4377.0303 263170
-3069.1299 657.8891 4358.6196 263170
-3069.9675 663.65326 4396.8081 263170
-3251.7234 708.961 4696.979 263170
-3046.8093 670.01904 4438.9824 328963
-3038.5986 674.03229 4465.5708 328963
-3024.7751 676.86005 4484.3052 328963
-2740.4294 618.66614 4098.7612 263170
-2956.7532 673.47089 4461.8516 328963
-3037.875 698.19135 4625.6284 328963
-3006.5183 697.2757 4619.562 328963
-2867.0239 671.03339 4445.7026 328963
-2827.5127 667.92273 4425.0938 394756
-2801.5217 667.97736 4425.4561 328963
-2754.0081 662.85284 4391.5054 263170
-2716.2605 660.00366 4372.6289 197377
-2255.6501 553.36182 3666.1096 328963
-2498.5874 618.92035 4100.4453 263170
-2614.2234 653.92322 4332.3447 328963
-2580.1997 651.81305 4318.3647 328963
-2539.0876 647.85211 4292.123 328963
-2512.2036 647.47803 4289.6445 263170
-2464.6116 641.70459 4251.3945 65792
-2329.5432 612.80078 4059.9021 0
-2091.5447 555.93469 3683.1555 0
-2311.7161 620.93561 4113.7969 0
-2335.5903 634.03394 4200.5752 0
-2044.3245 560.94299 3716.3362 256
-2027.4218 562.36261 3725.7415 263683
-2231.0916 625.66907 4145.1567 263683
-2199.198 623.59009 4131.3833 395269
-2558.1907 733.54907 4859.8789 329476
-1993.0227 577.99622 3829.3164 263683
-2175.9016 638.2998 4228.8374 263683
-2121.3328 629.54181 4170.814 329476
-2241.6282 673.08301 4459.2817 329476
-2069.7681 628.89246 4166.5122 263683
-2078.9419 639.30554 4235.5005 263683
-2062.3657 641.95789 4253.0728 263683
-2072.2441 653.01227 4326.3096 263682
-1978.4998 631.28064 4182.334 263681
-2058.8076 665.23694 4407.3003 263681
-2097.5554 686.4646 4547.9365 263681
-2028.8594 672.62402 4456.2407 263425
-2021.6006 679.05524 4498.8486 329217
-1936.2637 659.08142 4366.519 263424
-1974.9506 681.35468 4514.0825 256
-2063.147 721.55469 4780.4141 0
-1942.1509 688.69348 4562.7031 66305
-1946.8436 700.10333 4638.2954 329476
-1930.5558 704.18719 4665.3516 395269
-1934.7743 715.97815 4743.4688 395269
-1958.8755 735.58301 4873.354 329474
-1957.7897 746.17493 4943.5273 461060
-1926.2533 745.30658 4937.7744 395267
-1945.3755 764.31476 5063.7065 395267
-1969.8838 786.06775 5207.8232 395267
-1978.3806 802.02209 5313.5234 395267
-2012.8678 829.1991 5493.5757 526595
-2051.0959 858.83612 5689.9253 395010
-2122.1992 903.45923 5985.5605 460547
-2537.1304 1098.4608 7277.4771 395011
-2399.8323 1056.9819 7002.6729 592133
-2429.2454 1088.7615 7213.2178 460804
-2582.6086 1178.2277 7805.9448 460803
-2583.9683 1200.3455 7952.479 526597
-2541.8171 1202.6974 7968.0605 592135
-2528.7883 1219.1787 8077.252 789514
-2489.6599 1223.4701 8105.6831 855307
-2486.1943 1245.8004 8253.625 986893
-2453.6951 1254.1866 8309.1855 1250065
-2356.5969 1229.2209 8143.7837 1250065
-2337.3665 1244.6771 8246.1826 1184785
-2295.8838 1248.6903 8272.7715 1776921
-2225.5881 1236.8662 8194.4346 1776922
-2196.9763 1248.197 8269.5029 2105887
-2143.6917 1245.7073 8253.0078 2171680
-2070.1604 1231.0612 8155.9751 1513749
-2013.8362 1226.1921 8123.7173 855820
-1976.436 1232.8893 8168.0864 921612
-1939.9802 1240.5265 8218.6846 1184785
-1892.2927 1241.1899 8223.0801 1250578
-1842.7118 1240.6138 8219.2627 1316371
-1795.9391 1241.9481 8228.1035 2105887
-1755.6798 1247.9871 8268.1123 1315858
-1733.4336 1267.5444 8397.6826 1184272
-1679.7021 1264.5542 8377.8721 1184272
-1612.1501 1250.6604 8285.8232 1184272
-1562.037 1249.8472 8280.4355 1381651
-1495.6143 1235.5081 8185.4365 1579030
-1454.9237 1242.1772 8229.6211 1513237
-1386.2141 1224.5576 8112.8877 1644823
-1332.045 1218.978 8075.9229 1579030
-1274.1576 1209.4534 8012.8198 1447444
-1221.6218 1204.4677 7979.7891 1250065
-1166.4342 1196.3608 7926.0796 1250065
-1106.2416 1182.2247 7832.4263 1250065
-1064.6224 1187.5692 7867.8345 855307
-1001.478 1168.2924 7740.1221 395014
-944.78888 1155.0574 7652.438 256
-907.42236 1165.3016 7720.3081 263429
-868.15393 1174.0615 7778.3433 987407
-836.32324 1194.4263 7913.2632 855820
-796.51978 1205.1471 7984.291 921100
-759.92255 1222.3795 8098.458 986893
-719.02765 1234.5558 8179.1279 1184272
-676.89978 1246.2222 8256.4199 986892
-630.50922 1251.2471 8289.71 723721
-583.17316 1255.0862 8315.1445 723721
-539.63495 1268.5616 8404.4219 592135
-495.89102 1284.2443 8508.3223 328963
-445.92053 1285.5264 8516.8164 197378
-397.75748 1293.0114 8566.4053 263171
-347.62619 1295.3518 8581.9111 394757
-298.27197 1301.886 8625.2012 263170
-240.97296 1269.2751 8409.1484 394756
-196.55759 1305.214 8647.25 1184272
-143.18082 1286.0082 8520.0078 1381651
-91.102516 1263.8965 8373.5146 1447444
-41.521061 1264.962 8380.5742 1579030
8.1941614 1273.8156 8439.2295 1579030
58.295231 1275.9 8453.04 1381651
109.67864 1291.1538 8554.0986 1381651
160.19437 1289.7791 8544.9912 1710616
210.13127 1285.5237 8516.7979 1842202
262.10138 1292.9463 8565.9736 1907995
313.92957 1297.3737 8595.3066 1842203
365.67197 1300.2603 8614.4297 1711131
420.73965 1312.8153 8697.6094 1645338
491.44873 1366.1096 9050.6924 1645338
543.26868 1361.5757 9020.6543 1579545
600.60669 1370.4448 9079.4141 1447959
633.96967 1327.6476 8795.876 1447959
693.33002 1341.6603 8888.7119 1579545
768.88348 1382.817 9161.3818 1645338
804.44397 1351.3625 8952.9912 1645338
856.75 1350.1899 8945.2227 1908511
918.82434 1363.6514 9034.4062 2105888
977.65405 1371.0802 9083.624 2040093
1052.3049 1398.764 9267.0332 1974301
1083.5736 1368.8966 9069.1562 1974301
1151.1134 1385.5082 9179.2109 1908508
1228.5845 1412.035 9354.9561 1645336
1247.2744 1371.6299 9087.2656 1645336
1302.4547 1373.0367 9096.5859 1513750
1341.5803 1358.0798 8997.4941 1513494
1409.4215 1372.2239 9091.2002 1644823
1485.2883 1392.8525 9227.8691 1776409
1571.0104 1420.9304 9413.8887 2039581
1630.9468 1424.5597 9437.9336 1842202
1665.6798 1406.6643 9319.374 1710616
1721.0693 1406.8021 9320.2871 1710616
1834.0518 1452.5442 9623.335 1710616
1848.8882 1420.141 9408.6592 1842202
1947.7054 1452.2529 9621.4053 1842202
1957.3331 1417.9277 9393.9961 1907995
2069.8315 1457.9617 9659.2275 1842202
2118.1606 1451.8573 9618.7852 1842202
2186.9365 1459.7207 9670.8809 1776409
2251.822 1464.6521 9703.5518 1842202
2320.8784 1471.983 9752.1211 1644823
2367.0188 1464.7769 9704.3789 1644823
2422.293 1463.4309 9695.4619 1710616
2490.0728 1469.5273 9735.8516 1710616
2573.3479 1484.2853 9833.625 1776409
2585.178 1458.0931 9660.0986 1644823
2636.5 1454.8276 9638.4639 1513237
2698.3567 1457.3904 9655.4424 1579030
2752.0571 1455.533 9643.1367 1644823
2820.9392 1461.6173 9683.4463 1776409
2867.5684 1456.1588 9647.2832 1710616
2909.0403 1448.3459 9595.5215 1842202
2967.2437 1449.0033 9599.877 1842202
3020.1069 1447.0773 9587.1162 1973788
3017.5747 1419.1698 9402.2246 2039067
3123.979 1442.5782 9557.3096 1907738
3200.512 1451.6049 9617.1123 1973531
3283.2573 1463.084 9693.1631 2039324
3307.6199 1448.5994 9597.2002 1776152
3371.8887 1451.786 9618.3125 1512980
3417.7363 1447.0675 9587.0518 1644566
3509.2144 1461.5071 9682.7158 1644566
3609.7546 1479.1956 9799.9053 1644566
3662.0608 1476.8718 9784.5098 1512980
3834.9229 1522.4816 10086.682 1447187
3856.9067 1507.7115 9988.8281 1447187
3972.4084 1529.3926 10132.468 1578773
4043.8037 1533.6997 10161.003 1578773
3823.3071 1428.7983 9466.0156 1512980
4174.6431 1537.5387 10186.438 1578772
4369.8076 1586.4807 10510.686 1512979
4438.8433 1588.8988 10526.706 1447185
4468.1812 1577.2369 10449.444 1512978
4584.5659 1596.2009 10575.084 1776150
4880.2231 1676.2288 11105.281 1907736
4749.7358 1609.705 10664.551 1973529
4882.3394 1632.9202 10818.354 1907735
4646.9521 1534.0522 10163.34 1710357
5041.1729 1642.9015 10884.482 1512978
5116.5288 1646.3961 10907.636 1447185
5252.3232 1669.0094 11057.451 1447185
5448.5171 1710.0215 11329.163 1512978
5312.0615 1646.9036 10910.997 1578771
5436.9033 1665.3398 11033.141 1512978
5552.9712 1680.6826 11134.788 1380622
5667.0298 1695.0638 11230.066 1314829
5863.6724 1733.5264 11484.887 1117450
6004.9839 1754.936 11626.729 1183243
6039.4038 1744.9756 11560.74 1183500
6105.1846 1744.1982 11555.59 1117706
6218.5117 1756.871 11639.549 986377
6274.9507 1753.3699 11616.354 1117707
6309.2734 1743.8318 11553.162 1117963
6278.605 1716.7285 11373.599 1183498
6223.228 1683.5166 11153.563 1249291
6289.1885 1683.4822 11153.336 1249291
6255.1221 1656.9517 10977.567 1249034
6379.2695 1672.446 11080.22 1314314
6488.5493 1683.7667 11155.222 1314313
6645.2363 1707.0371 11309.391 1380361
6612.5669 1681.686 11141.437 1380105
6759.5352 1702.0699 11276.482 1182983
6795.3066 1694.329 11225.197 1117446
6832.166 1687.0065 11176.685 985861
6985.3545 1708.2731 11317.58 1249290
7028.4468 1702.4673 11279.115 1315082
7120.2778 1708.4653 11318.854 1446667
7209.3066 1713.6852 11353.437 1446668
7235.1338 1703.9244 11288.769 1512717
7300.979 1703.6805 11287.153 1643790
7420.7144 1715.9021 11368.123 1643534
7496.3564 1717.7998 11380.696 1643276
7511.1978 1705.8551 11301.561 1643788
7725.2065 1738.9546 11520.851 1380362
7472.4507 1667.3252 11046.294 1117445
7882.0513 1743.448 11550.619 657153
7956.0132 1744.6584 11558.638 2433563
7927.4194 1723.5508 11418.797 2038549
8506.6328 1833.8293 12149.41 1775892
8825.8057 1886.6689 12499.481 1842198
9003.6963 1908.6788 12645.3 2434333
8960.8584 1883.9198 12481.268 2565665
10010.679 2087.405 13829.388 2631715
10092.623 2087.405 13829.388 2499872
9809.9492 2012.6001 13333.794 2105115
10379.818 2112.5 13995.647 1974038
10083.012 2035.8287 13487.688 2039318
10252.957 2053.8625 13607.165 2039575
9620.3994 1912.1127 12668.049 1907989
9873.7246 1947.2688 12900.965 2368540
9737.1885 1905.5884 12624.825 2500127
9655.1172 1875.121 12422.973 2763044
9750.1094 1879.2421 12450.276 3157802
9358.3926 1790.1969 11860.339 3421486
9048.5186 1718.0186 11382.146 3947830
8830.8076 1664.2776 11026.103 4540223
8832.0078 1652.2795 10946.613 5461068
8513.9326 1581.1624 10475.45 6052946
8072.7666 1488.38 9860.7539 5394756
8224.2695 1505.4167 9973.625 5131326
8936.8643 1624.1835 10760.473 4407092
8969.583 1618.5819 10723.361 3420710
8806.7227 1578.0148 10454.598 1972756
8976.4951 1597.2002 10581.704 1052167
8259.8242 1459.4873 9669.335 197377
7968.6431 1398.3368 9264.2031 0
8048.7256 1402.7266 9293.2861 0
8058.4722 1394.8821 9241.3145 256
8046.7021 1383.4438 9165.5352 0
7966.9678 1360.5526 9013.877 0
7895.416 1339.3545 8873.4355 0
7686.0474 1295.2124 8580.9873 0
8041.1226 1346.1426 8918.4082 0
8270.541 1375.5094 9112.9678 0
8231.4443 1360.1268 9011.0557 0
8227.6123 1350.7318 8948.8125 0
8137.3052 1327.3516 8793.915 0
8166.9824 1323.7161 8769.8291 0
8143.1377 1311.5066 8688.9385 0
8157.2773 1305.5294 8649.3398 0
8250.2793 1312.1698 8693.333 0
8253.915 1304.6027 8643.1992 0
0 0 0 0
0 0 0 0
0 0 0 0
0 0 0 0
0 0 0 0
0 0 0 0
-3428.9492 597.85333 3811.2559 197377
-3400.7288 596.86395 3804.9485 131584
-3375.2759 596.3504 3801.6743 197377
-3340.8169 594.22791 3788.144 131584
-3315.7651 593.76141 3785.1699 65792
-3290.2051 593.19684 3781.5708 131584
-3260.0164 591.78424 3772.5659 197377
-3229.7368 590.33557 3763.3308 197377
-3200.7297 589.10107 3755.4607 197377
-3169.3889 587.41656 3744.7224 197377
-3145.7556 587.14709 3743.0042 131584
-3110.5393 584.69629 3727.3811 131585
-3086.6746 584.35962 3725.2346 197377
-3063.7495 584.19727 3724.1995 197377
-3033.1545 582.55945 3713.7585 197377
-3002.6328 580.9118 3703.2551 197377
-2978.7737 580.53839 3700.8748 131585
-2951.6003 579.50879 3694.311 131584
-2919.6802 577.52484 3681.6636 263170
-2892.386 576.43298 3674.7029 197377
-2865.0776 575.32166 3667.6184 263170
-2847.9558 576.25452 3673.5652 263170
-2817.5981 574.50293 3662.3994 197377
-2791.0212 573.5011 3656.0125 197377
-2941.8547 609.22314 3883.7368 263170
0 0 0 0
0 0 0 0
0 0 0 0
0 0 0 0
-2795.5579 602.49176 3840.8252 263170
-2799.8687 608.37354 3878.3208 263170
-2775.8933 608.15564 3876.9316 263170
-2837.4036 626.81891 3995.9084 263170
-2742.4907 610.94971 3894.7437 328963
-2703.3247 607.33527 3871.7019 328963
-2660.7668 602.89056 3843.3672 328963
-2635.8933 602.41052 3840.3074 328963
-2648.5864 610.58252 3892.4028 263170
-2584.1746 600.9668 3831.1035 328963
-2601.6465 610.39203 3891.1887 328963
-2594.5273 614.16479 3915.2395 328963
-2589.4883 618.50238 3942.8911 394756
-2558.0039 616.54498 3930.4131 328963
-2481.7412 603.65961 3848.2703 394756
-2446.0637 600.49896 3828.1211 328963
-2413.1868 597.97296 3812.0183 328963
-2379.8362 595.28076 3794.8557 263170
-2476.9309 625.47748 3987.3567 197377
-2382.2217 607.35474 3871.8262 394756
-2372.2537 610.6947 3893.1182 394756
-2297.8936 597.36084 3808.1162 328963
-2264.502 594.51831 3789.9954 460549
-2237.7524 593.38025 3782.7402 328963
-2267.5876 607.37531 3871.957 263170
-2197.2241 594.54382 3790.1577 0
-2108.9978 576.5639 3675.5378 0
-2091.1733 577.65631 3682.5015 0
-2316.5583 646.66327 4122.4141 0
-2298.27 648.39508 4133.4541 0
-2242.5935 639.5025 4076.7651 256
-2026.4127 584.14825 3723.8872 263683
-2056.8374 599.44604 3821.4092 263683
-2155.064 635.06458 4048.4736 329476
-2130.4722 634.88495 4047.3284 395269
-2144.4001 646.31079 4120.167 329476
-2103.2529 641.20929 4087.6455 329476
-2076.2683 640.35687 4082.2117 329476
-2234.4099 697.2536 4444.9224 263683
-2059.5166 650.34351 4145.8755 197890
-2028.0337 648.133 4131.7832 263683
-1995.688 645.58929 4115.5679 263683
-1957.9042 641.20166 4087.5972 263681
-1962.8728 650.8808 4149.3003 263681
-1959.6609 658.05823 4195.0562 263681
-1940.605 660.03149 4207.6353 263681
-1946.6924 670.71906 4275.7671 329218
-1939.7797 677.15015 4316.7651 329217
-1920.1719 679.26233 4330.23 197632
-1929.9597 691.97131 4411.2485 256
-1926.6869 700.2821 4464.229 0
-1924.021 709.04803 4520.1108 66304
-1925.0619 719.44672 4586.4014 461062
-1917.2462 726.78589 4633.188 395269
-1940.1259 746.14325 4756.5894 395269
-1942.3174 757.99768 4832.1602 395267
-1933.0773 765.67889 4881.127 395267
-1919.2754 771.75903 4919.8872 395267
-1945.3719 794.31787 5063.6973 395267
-1978.3511 820.43756 5230.208 461060
-1959.3575 825.49225 5262.4312 526596
-2000.9822 856.66235 5461.1372 526595
-1992.1375 866.89496 5526.3691 460801
-2074.2527 917.71307 5850.3296 3026729
-2225.323 1001.2849 6383.0918 4342589
-2243.1543 1026.7593 6545.4888 4276795
-2248.3816 1047.2594 6676.1748 4474175
-2226.4998 1055.6405 6729.6035 4737604
-2208.3093 1066.1096 6796.3433 4803654
-2223.624 1093.4432 6970.5923 4672069
-2236.3057 1120.4923 7143.0273 4738119
-2216.4404 1131.963 7216.1514 4737350
-2213.9392 1152.9274 7349.7974 4539971
-2242.1848 1191.066 7592.9272 4934730
-2205.9089 1195.7905 7623.0454 4868935
-2177.9561 1205.3185 7683.7861 4869192
-2170.6599 1226.9293 7821.5522 4606020
-2146.6201 1239.8124 7903.6807 4277056
-2098.2959 1238.9316 7898.0664 3355953
-2048.4072 1237.0659 7886.1724 3093039
-1985.4946 1227.0641 7822.4116 3224368
-1945.3441 1230.9877 7847.4238 3619126
-1896.4127 1229.4108 7837.3716 2829354
-1884.062 1252.0647 7981.7881 2895147
-1837.6031 1252.6349 7985.4229 2434596
-1788.8213 1251.6099 7978.8887 2237217
-1742.4249 1252.2434 7982.9277 2237473
-1708.0696 1261.8076 8043.8984 2236961
-1657.0402 1259.2496 8027.5918 2039581
-1605.7938 1256.3707 8009.2388 1710616
-1554.2715 1253.0939 7988.3496 1381651
-1504.3667 1250.9563 7974.7222 1052687
-1449.7355 1244.6223 7934.3442 855307
-1400.6942 1242.8237 7922.8779 592135
-1348.719 1238.2068 7893.4453 526343
-1294.0745 1230.7195 7845.7148 657929
-1252.4664 1235.5347 7876.4106 723722
-1192.1576 1221.5603 7787.3257 526342
-1131.6582 1206.2576 7689.772 526343
-1095.7218 1216.9515 7757.9448 2565925
-1024.7439 1187.9591 7573.1216 3158062
-972.65607 1179.213 7517.3662 3882042
-933.49908 1186.0568 7560.9946 3158063
-881.35736 1176.2611 7498.5479 3092268
-863.12335 1213.0811 7733.2715 3421489
-813.87457 1207.9958 7700.854 4408382
-775.55322 1219.4893 7774.1226 5461070
-737.60016 1233.0496 7860.5688 5461070
-688.48804 1228.526 7831.7314 2829351
-648.63849 1241.0712 7911.7056 723974
-606.02905 1249.8788 7967.8535 723721
-561.38605 1255.6265 8004.4941 921100
-517.5871 1264.4969 8061.0425 1052686
-471.22794 1268.2804 8085.1621 1118479
-416.44492 1247.6821 7953.8496 1250065
-368.71777 1245.6639 7940.9839 1250065
-326.65399 1264.9869 8064.1665 1315858
-280.92072 1274.2867 8123.4517 1250065
-232.98654 1275.3844 8130.4492 1381651
-187.98546 1297.2959 8270.1328 1447444
-139.78741 1304.8176 8318.083 1710616
-88.714653 1279.0847 8154.0381 1973788
-40.117146 1270.1703 8097.2095 2039581
7.8442039 1267.2834 8078.8062 2171167
55.775093 1268.6646 8087.6108 2171167
103.01665 1260.3357 8034.5146 2171167
150.97714 1263.2874 8053.3315 2302753
198.03685 1259.0944 8026.6011 2105374
248.47363 1273.8383 8120.5923 2039581
294.13922 1263.3063 8053.4521 1973788
347.77173 1285.1556 8192.7393 1908510
393.02081 1274.467 8124.6006 1908510
441.67514 1275.9482 8134.0439 1842717
493.78546 1286.14 8199.0146 1776924
544.74768 1291.7831 8234.9893 1776924
598.87878 1303.3953 8309.0156 1908510
657.03436 1321.3365 8423.3896 1908510
712.0437 1330.864 8484.126 1974303
752.90179 1314.4293 8379.3564 1974303
819.26947 1341.808 8553.8926 2369061
863.42773 1331.7408 8489.7158 2369061
923.85675 1346.4963 8583.7803 2500647
984.59009 1360.1324 8670.709 2105887
1030.8567 1353.4222 8627.9326 2171680
1066.1259 1333.5898 8501.5029 2105887
1132.1396 1352.2697 8620.585 2105887
1202.9591 1374.8289 8764.3975 1908508
1239.7017 1358.187 8658.3076 2040094
1289.7833 1356.9012 8650.1104 1908508
1349.9449 1365.9126 8707.5576 1973532
1406.0472 1370.3048 8735.5566 1776409
1445.3674 1358.61 8661.0039 1776409
1500.3938 1361.9745 8682.4521 1907995
1595.5396 1400.3268 8926.9443 2039581
1650.1118 1401.7509 8936.0225 1973788
1698.9554 1398.3716 8914.4795 1973788
1746.5786 1394.2217 8888.0244 1973788
1827.0933 1415.802 9025.5977 1907995
1872.1747 1409.4789 8985.2881 1842202
1896.3374 1388.1921 8849.5869 1842202
1925.4811 1371.599 8743.8076 1907995
1982.0387 1374.892 8764.7998 1973788
2034.8496 1375.484 8768.5742 2105629
