# .PCD v0.7 - Point Cloud Data file format
VERSION 0.7
FIELDS x y z rgb
SIZE 4 4 4 4
TYPE F F F U
COUNT 1 1 1 1
WIDTH 1291
HEIGHT 1
VIEWPOINT 0 0 0 1 0 0 0
POINTS 1291
DATA ascii
3131.0515 1136.9907 6510.4307 2631461
3200.8948 1148.2064 6574.6523 2565668
3252.0012 1152.5118 6599.3052 2499875
3328.6902 1165.6741 6674.6724 2434081
3390.9939 1173.5486 6719.7617 2368288
3435.4746 1175.1436 6728.895 2368288
3540.9792 1197.3368 6855.9731 2104603
3551.9373 1187.4192 6799.1851 1643537
3689.8086 1219.6757 6983.8867 3617840
3900.7197 1275.0923 7301.2031 3354667
3941.1902 1274.1897 7296.0347 2235673
3958.9734 1266.0513 7249.4341 1446156
4007.0884 1267.6835 7258.7803 1709329
4028.3384 1260.8721 7219.7783 1643794
4055.9929 1256.1877 7192.9551 1643794
3992.1045 1223.5433 7006.0332 1709587
3968.6011 1203.8214 6893.105 1578001
4009.6082 1203.8702 6893.3843 2039066
4044.5576 1202.1177 6883.3491 1841943
4149.3838 1220.9613 6991.248 1644564
4216.5195 1228.4517 7034.1382 1710357
4307.8584 1242.7778 7116.1699 1776409
4316.7964 1233.2847 7061.812 1579030
4342.0181 1228.5814 7034.8809 1710616
4374.6084 1226.0327 7020.2871 2105374
4435.3916 1231.3588 7050.7847 2105374
4486.7383 1233.9904 7065.8525 2368546
4565.5293 1244.0515 7123.4629 2500132
4601.0557 1242.2472 7113.1313 2236960
4612.5713 1234.0516 7066.2036 2302753
4732.1108 1254.6445 7184.1187 2434339
4790.2378 1258.7325 7207.5273 2368546
4877.272 1270.2775 7273.6333 2368546
4937.5479 1274.7119 7299.0254 2434339
5030.1885 1287.3524 7371.4048 2565925
5085.3354 1290.2622 7388.0664 2565925
5098.0444 1282.4467 7343.3145 2631718
5316.0142 1325.9614 7592.4805 2500132
5441.5571 1345.8851 7706.5645 2500132
5480.1665 1344.1548 7696.6562 2565925
5563.2573 1353.2731 7748.8677 2565925
5649.2896 1362.9517 7804.2881 2631718
5631.71 1347.6788 7716.835 2631718
5871.4727 1393.7383 7980.5723 2763304
5947.9707 1400.6166 8019.9575 2763304
6034.3813 1409.7014 8071.978 2763047
5844.8423 1354.6854 7756.9551 2763304
5912.4062 1359.6531 7785.3994 2631718
6155.415 1404.5775 8042.6377 2631718
6351.2788 1438.1365 8234.7979 2631718
6334.6084 1423.4263 8150.5664 2631718
6453.7305 1439.2211 8241.0078 2565925
6662.9468 1474.7191 8444.2705 2500132
6881.7827 1511.8016 8656.6055 2500132
6864.9399 1496.944 8571.5303 2500132
6956.8486 1505.8444 8622.4941 2500132
7073.0142 1519.827 8702.5596 2631461
7087.8491 1511.9917 8657.6934 2697254
7173.9868 1519.3698 8699.9404 2828840
7259.9458 1526.6051 8741.3701 2894633
7402.5562 1545.5662 8849.9414 2894633
7043.2998 1460.2135 8361.2109 2828840
7377.8848 1518.8954 8697.2246 2763047
7228.604 1477.8401 8462.1406 2828840
7234.7852 1468.9143 8411.0322 2894633
7149.6265 1441.6927 8255.1611 2960426
7146.0522 1431.1804 8194.9668 2894633
7999.3589 1591.2642 9111.6094 2631461
8142.7905 1608.937 9212.8047 2499875
8230.2402 1615.3867 9249.7354 2368289
8230.7842 1604.8063 9189.1523 2368289
7547.3823 1461.8885 8370.8018 2302496
8418.8555 1620.0415 9276.3887 2302496
8526.0156 1630.02 9333.5264 2302496
8685.2295 1649.7573 9446.543 2368289
8739.9043 1649.5122 9445.1387 2302496
8818.1602 1653.6924 9469.0742 2368289
9055.8516 1687.5295 9662.8271 2302495
8305.2188 1537.9281 8806.2061 2236446
7257.1143 1335.4537 7646.8335 2039324
10143.106 1854.9519 10621.491 2105117
0 0 0 0
0 0 0 0
0 0 0 0
0 0 0 0
0 0 0 0
0 0 0 0
0 0 0 0
0 0 0 0
-2673.0762 543.64435 3010.7659 1184526
-2654.0901 543.40967 3009.4663 1250319
0 0 0 0
0 0 0 0
0 0 0 0
-2900.0088 610.15826 3379.1277 6184793
-2925.7095 619.84521 3432.7754 6184793
-2982.511 636.3031 3523.9209 6250585
-3046.7449 654.5899 3625.1953 6184793
-3141.8123 679.80792 3764.8557 6119000
-3225.6697 702.94379 3892.9846 6250586
-3262.5964 716.11194 3965.9116 6184793
-3306.6707 731.05145 4048.6484 6184793
-3325.9695 740.69177 4102.0376 6184793
-3316.1365 743.93872 4120.0195 6250586
-3328.6763 752.2901 4166.2705 6382172
-3352.4004 763.31287 4227.3159 6447965
-3309.9563 759.32227 4205.2153 6513758
-3242.9045 749.58313 4151.2788 6579551
-3222.5486 750.57111 4156.7505 6711137
-3185.2666 747.60168 4140.3057 6645344
-3131.8984 740.78143 4102.5342 6776929
-3083.0784 734.93854 4070.1755 6645344
-3064.616 736.29718 4077.7 6184793
-3027.1135 733.06659 4059.8086 4145210
-2981.9585 727.9162 4031.2849 5790035
-2998.6851 737.91028 4086.6333 6974309
-3062.9675 759.86487 4208.2202 6776930
-3052.061 763.37372 4227.6528 6776930
-3049.0098 768.92163 4258.3779 6842723
-3043.7515 774.00098 4286.5078 6908516
-3033.7583 777.9516 4308.3867 6711137
-3025.4109 782.39484 4332.9941 6842723
-3006.6975 784.21051 4343.0493 6842723
-3006.8181 791.01221 4380.7183 6776930
-2972.1472 788.69995 4367.9126 6513758
-2954.1348 790.80658 4379.5791 6119256
-2929.9731 791.28967 4382.2549 5987414
-2901.9041 790.7168 4379.082 5921620
-2888.2666 794.1015 4397.8267 6053207
-2840.5117 788.08203 4364.4902 6316379
-2625.1909 735.03479 4070.7085 6447965
-2792.4915 789.1283 4370.2847 6513759
-2670.166 761.62323 4217.9585 6579551
-2653.8916 764.13361 4231.8613 6579552
-2696.843 783.90741 4341.3706 6579552
-2671.1187 783.90741 4341.3706 6579551
-2547.2732 754.83124 4180.3438 6447965
-2519.0171 753.78815 4174.5669 6447965
-2559.4253 773.47516 4283.5957 6447965
-2526.6108 771.20654 4271.0317 6316378
-2548.8516 785.86676 4352.2217 6382170
-2490.1338 775.61011 4295.4194 6250584
-2481.8535 781.01392 4325.3467 6053205
-2443.7009 777.03186 4303.2935 6053205
-2471.9465 794.30145 4398.9341 6053205
-2462.5071 799.70074 4428.8359 6118998
-2436.3215 799.71948 4428.9399 6118998
-2405.3093 798.13696 4420.1758 5987412
-2395.1531 803.5163 4449.9673 5855826
-2374.4849 805.44977 4460.6748 5987412
-2302.7493 789.90906 4374.6089 6118998
-2303.5398 799.17633 4425.9316 6184791
-2265.9497 795.18817 4403.8447 6250584
-2262.6389 803.27679 4448.6406 6250584
-2234.1929 802.5274 4444.4907 6250584
-2247.6733 816.99994 4524.6411 6316377
-2222.4336 817.57776 4527.8413 6250584
-2204.9153 821.04486 4547.0425 6513756
-2184.1011 823.35529 4559.8379 6776927
-2151.2129 821.11493 4547.4307 6908514
-2111.9519 816.35443 4521.0664 6908517
-2095.1069 820.2478 4542.6279 6908516
-2056.5764 815.64172 4517.1191 6842723
-2030.9297 816.09137 4519.6094 6908516
-1977.1447 805.09515 4458.7109 6908260
-1957.5042 807.89294 4474.2056 6908516
-1923.5422 804.77582 4456.9424 7040102
-1887.7195 800.78259 4434.8271 7040102
-1875.7272 806.92822 4468.8628 6908516
-1849.548 807.05939 4469.5894 6842723
-1825.853 808.29413 4476.4272 6842723
-1800.2439 808.70538 4478.7051 7040102
-1778.8002 811.02826 4491.5688 7105895
-1755.7168 812.66254 4500.6201 6974309
-1728.8395 812.56403 4500.0747 6776930
-1709.6348 816.12531 4519.7974 6776930
-1674.0033 811.83356 4496.0288 6184793
-1643.0087 809.68787 4484.146 6513758
-1639.8567 821.41833 4549.1108 6776930
-1619.0779 824.56378 4566.5308 6776930
-1591.7115 824.40448 4565.6479 6776930
-1568.7451 826.55768 4577.5732 6711137
-1549.9972 831.04871 4602.4448 6776931
-1516.0562 827.40863 4582.2856 7040103
-1507.9523 837.9939 4640.9082 7237482
-1474.335 834.53076 4621.729 7237482
-1445.1736 833.50659 4616.0571 7764082
-1432.2578 841.99335 4663.0576 7763826
-1409.022 844.62775 4677.647 7435118
-1384.6597 846.67908 4689.0073 7435118
-1363.9316 851.08203 4713.3916 7500911
-1336.9459 851.6828 4716.7188 7171688
-1307.7007 850.83905 4712.0459 6974310
-1287.1504 855.7392 4739.1836 7237739
-1256.0123 853.66174 4727.6787 6908774
-1236.0327 859.24646 4758.6074 5724500
-1198.9762 852.94379 4723.7021 4408640
-1148.2385 836.37421 4631.938 2368801
-1120.5945 836.22656 4631.1201 395013
-1098.4056 840.24445 4653.3721 1250065
-1077.0514 845.12408 4680.396 1316114
-1045.2742 841.86707 4662.3584 1513238
-1013.2136 838.19879 4642.043 1973788
-1003.6575 853.46252 4726.5752 2039581
-978.21094 855.70215 4738.9785 1907995
-944.99628 851.07812 4713.3701 1907995
-913.23596 847.52216 4693.6768 1776409
-890.52869 852.40826 4720.7368 1907995
-868.63647 858.41681 4754.0127 1842202
-833.93225 851.74243 4717.0488 2039581
-803.59399 849.21899 4703.0742 2105374
-780.65387 854.61334 4732.9487 2039581
-750.61017 852.34338 4720.377 2500386
-718.92242 847.95837 4696.0928 3487281
-692.02765 849.10132 4702.4224 3684660
-658.06335 841.30206 4659.229 3289902
-628.19135 838.28064 4642.4961 3092523
-600.73993 838.36053 4642.9385 2960937
-571.12897 835.28967 4625.9321 3092523
-533.80548 820.06085 4541.5928 3092523
-502.77328 813.39313 4504.666 2961194
-468.46796 800.3855 4432.6284 2895146
-425.34079 769.86523 4263.6035 0
-403.20728 775.88837 4296.9604 2
-380.41153 781.36316 4327.2808 2
-356.40237 784.95703 4347.1836 0
-328.67224 780.27698 4321.2651 2434342
-305.20111 785.77148 4351.6943 0
-282.74518 795.13489 4403.5503 131585
-254.55963 788.65149 4367.644 2434591
-243.55179 839.94141 4651.6938 2565919
-218.20323 848.55371 4699.3896 2500124
-193.44106 862.29932 4775.5146 2631713
-167.04483 872.22339 4830.4751 2697505
-141.16899 889.53064 4926.3247 2302750
-111.161 883.03619 4890.3579 1512977
-82.199112 883.20239 4891.2778 1315598
-54.312283 901.39124 4992.0103 263170
-24.756481 902.26099 4996.8267 197377
4.86164 904.10529 5007.0405 65792
34.616085 906.34961 5019.4702 65536
65.279312 919.31781 5091.2896 65536
96.455994 929.03369 5145.0972 65536
124.81073 913.43036 5058.6841 65536
155.99542 920.57068 5098.228 131328
186.96078 924.30975 5118.9355 65792
218.68124 930.2171 5151.6509 262913
247.98666 925.66241 5126.4268 131328
284.16046 944.94196 5233.1987 131328
315.7319 946.62885 5242.541 131328
346.20285 945.00952 5233.5732 197120
378.1156 947.26855 5246.084 131328
409.41687 947.7688 5248.8545 197120
445.29651 958.04883 5305.7861 131328
473.38544 951.31665 5268.5029 197120
501.76022 945.95648 5238.8174 262913
539.79999 958.38031 5307.6221 262913
571.96497 959.5802 5314.2671 328706
602.71936 958.41174 5307.7964 263170
638.31744 964.67957 5342.5078 328962
666.73401 960.0144 5316.6719 263425
702.73816 966.20258 5350.9424 263425
729.93872 960.27466 5318.1133 329217
762.3595 961.42084 5324.4609 197632
806.63715 976.83447 5409.8237 197632
834.42236 971.86102 5382.2798 196864
866.83533 972.44525 5385.5151 262914
904.86566 979.06598 5422.1816 262913
954.29785 997.14648 5522.314 262913
980.1217 990.17767 5483.7197 262913
997.40625 975.30603 5401.3584 394500
1051.0834 995.83881 5515.0718 394499
1085.6877 997.60791 5524.8691 460292
1118.9371 998.06494 5527.3999 657670
1133.9098 982.6571 5442.0698 394500
1189.8735 1002.6424 5552.7505 263171
1208.1804 990.67456 5486.4717 0
1254.8822 1002.0069 5549.2314 2368287
1316.1327 1024.0808 5671.4795 2763044
1341.4052 1017.7581 5636.4634 3157802
1373.8231 1017.0324 5632.4443 3355181
1402.1465 1013.3817 5612.2266 3486767
1433.5581 1012.0805 5605.02 3223595
1485.4705 1024.9839 5676.481 3157802
1515.0981 1022.2798 5661.5049 3157802
1540.8634 1017.1431 5633.0576 3092009
1566.2545 1011.9827 5604.478 3092009
1597.1187 1010.4991 5596.2622 3092009
1646.7141 1020.6863 5652.6802 3223595
1694.8159 1029.5599 5701.8232 3355182
1727.374 1028.8289 5697.7744 3355181
1749.5161 1022.041 5660.1821 3355181
1811.7408 1038.4835 5751.2432 3026216
1845.5991 1038.3597 5750.5576 3091752
1866.4071 1031.0311 5709.9712 3026216
1914.1406 1038.5729 5751.7378 3223595
1956.9087 1043.2036 5777.3833 3223595
1974.3258 1034.3933 5728.5908 3355180
2004.8628 1032.6383 5718.8716 3420974
2065.7688 1046.3237 5794.6631 3355182
2118.4839 1055.4807 5845.376 3355182
2122.2212 1040.3339 5761.4902 3223596
2197.8557 1060.3533 5872.3604 2894631
2215.0879 1052.0117 5826.1636 2631459
2281.8586 1067.0923 5909.6821 2763045
2310.7107 1064.2528 5893.9565 2697252
2352.6316 1067.4274 5911.5376 2763045
2395.4839 1070.9253 5930.9092 2894631
2444.4375 1077.01 5964.6074 2828838
2470.6482 1073.0439 5942.6426 2631459
2529.269 1083.0677 5998.1558 2565666
2568.6516 1084.6897 6007.1382 2499873
2622.8787 1092.4503 6050.1172 2434080
2660.6365 1093.2344 6054.4595 2434080
2691.325 1091.1316 6042.8145 2499875
2734.3367 1094.0145 6058.7803 2368289
2775.6284 1096.1436 6070.5713 2302496
2821.6418 1100.059 6092.2549 2434082
2863.98 1102.4607 6105.5562 2434082
2923.0503 1111.163 6153.7505 2434082
2978.6687 1118.3547 6193.5791 2368289
3051.9517 1131.923 6268.7217 2434082
3094.1165 1133.7627 6278.9097 2434082
3144.084 1138.3834 6304.5005 2499874
3213.9016 1149.9985 6368.8262 2499873
3275.4802 1158.4303 6415.522 2499873
3320.7258 1160.9584 6429.5229 2236701
3387.677 1170.9314 6484.7549 2301724
3441.8489 1176.3134 6514.5605 2367517
3514.6301 1187.8652 6578.5366 2499358
3663.9875 1224.7611 6782.8701 2499358
3646.7622 1205.7765 6677.7314 2695968
3638.0215 1189.9751 6590.2207 2498844
3735.5376 1208.896 6695.0073 2301721
3697.5835 1184.0391 6557.3467 2169877
3793.592 1202.1505 6657.6499 2104084
3841.5996 1204.8346 6672.5146 2169880
3765.4817 1168.9313 6473.6782 2169879
3922.8198 1205.494 6676.1665 2169879
3968.4609 1207.3444 6686.4141 2104344
3975.7671 1197.6106 6632.5073 2038807
4061.8113 1211.5533 6709.7241 1972759
4084.394 1206.4801 6681.6274 2104345
4092.6777 1197.321 6630.9033 2104088
4130.9243 1197.0182 6629.2271 2235932
4161.1831 1194.4287 6614.8857 2302497
4211.9712 1197.725 6633.1406 2236703
4331.938 1220.4503 6758.9966 2697254
4331.3169 1209.097 6696.1206 2697511
4377.5947 1210.9229 6706.2324 2631718
4478.7734 1227.766 6799.5112 2763304
4564.7559 1240.1799 6868.2612 2763304
4609.9004 1241.3776 6874.894 2763304
4676.9834 1248.4102 6913.8413 2763304
4749.6069 1256.7865 6960.2305 2631718
4806.9629 1261.0137 6983.6411 2434339
4857.0811 1263.2861 6996.2266 2434339
4947.3457 1275.8737 7065.9375 2368546
5021.4102 1284.1071 7111.5347 2302753
5061.7749 1283.6571 7109.0435 2302753
5233.6938 1316.3011 7289.8301 2171167
5314.0601 1325.5735 7341.1807 2171167
5395.0708 1334.8545 7392.5801 2105374
5486.7397 1346.6019 7457.6387 2302753
5559.6162 1353.5862 7496.3188 2500132
5441.104 1314.2323 7278.3721 2697511
5579.4893 1337.0598 7404.7935 2631718
5629.0415 1338.4093 7412.2671 2631718
5805.9692 1369.7894 7586.0537 2697511
5990.2344 1402.405 7766.6831 2631718
6049.9863 1405.5953 7784.3511 2631718
6279.123 1447.7926 8018.0449 2565925
6319.4995 1446.1602 8009.0039 2500132
6518.1846 1480.5094 8199.2344 2500132
6498.5322 1465.1255 8114.0356 2565925
6565.7969 1469.4189 8137.814 2631718
6601.5654 1466.6528 8122.4946 2697254
6655.1748 1467.8615 8129.1885 2763047
6722.7241 1472.1055 8152.6919 2763047
6815.1836 1481.7046 8205.8525 2894633
6880.5503 1485.319 8225.8701 2894633
6988.2104 1497.9485 8295.8135 2894633
7109.3872 1513.2784 8380.7129 2960426
7181.5054 1518.026 8407.0049 3026219
6775.8647 1422.4149 7877.5 2894633
7276.8384 1517.13 8402.043 2763047
7449.7295 1542.6216 8543.2188 2631461
7296.4136 1500.677 8310.9248 2631461
7352.7144 1502.1184 8318.9072 2565668
7665.9253 1555.6764 8615.5176 2499875
7784.937 1569.3767 8691.3916 2565668
8090.5181 1620.2607 8973.1934 2499875
8228.0479 1637.0448 9066.1455 2499875
8221.3535 1625.1029 9000.0098 2434082
8319.5879 1633.9219 9048.8506 2236703
8313.208 1622.2142 8984.0117 2368289
8080.6743 1566.8053 8677.1504 2302496
8411.7676 1620.6904 8975.5732 2434082
7211.9937 1380.8005 7647.0352 2499875
7066.4287 1344.4838 7445.9082 2499875
7158.7471 1353.5973 7496.3799 2434082
0 0 0 0
0 0 0 0
0 0 0 0
0 0 0 0
0 0 0 0
0 0 0 0
0 0 0 0
0 0 0 0
-2675.8203 562.06079 3013.8567 1118732
-2668.3516 564.25769 3025.6372 1052939
-2418.1157 514.80096 2760.4424 6513758
0 0 0 0
0 0 0 0
-2925.6323 635.74896 3408.9844 6053207
-2914.623 637.75995 3419.7676 6119000
-2982.511 657.18372 3523.9209 6053207
-3016.1335 669.27795 3588.772 6250586
-3096.9744 692.09607 3711.1262 6250586
-3225.6697 726.01129 3892.9846 6382172
-3243.1218 735.19678 3942.239 6382172
-2606.2646 595.11145 3191.0796 6513758
-3325.9695 764.99799 4102.0376 6645344
-3313.7727 767.80383 4117.083 6711137
-2614.7756 610.33881 3272.7312 6645344
-3299.0989 775.82684 4160.1035 6711136
-3291.0476 779.75977 4181.1924 6776930
-3254.0413 776.83978 4165.5352 6645344
-3224.385 775.64337 4159.1196 6711137
-3186.104 772.33765 4141.394 6711137
-2987.7542 729.87756 3913.7166 6645344
-2857.687 703.56445 3772.6213 6645344
-2928.355 726.64716 3896.3945 6579551
-2970.5554 742.97668 3983.9558 6447965
-2935.5376 740.09967 3968.5288 6119000
-2938.1643 746.74365 4004.155 5790035
-2946.8831 755.05682 4048.7314 3684659
-2933.0576 757.68268 4062.8118 5592656
-2978.5874 775.81183 4160.0229 5921621
-2963.4729 778.3161 4173.4517 5987414
-2962.303 784.55585 4206.9097 6119256
-2939.312 785.073 4209.6831 6250586
-2940.6548 792.15417 4247.6533 6447965
-2917.4834 792.69696 4250.564 6447965
-2872.9824 787.40338 4222.1787 6447965
-2879.4873 796.1189 4268.9126 6447965
-2850.0425 794.9613 4262.7056 6447965
-2849.2156 801.83679 4299.5732 6382172
-2836.1736 805.3678 4318.5068 6447965
-2731.6213 782.74109 4197.1787 6382172
-2533.4922 732.63776 3928.5171 6316380
-2620.9954 764.9707 4101.8911 6382173
-2637.375 776.95624 4166.1597 6382173
-2620.2725 779.21149 4178.2524 6447965
-2597.3772 779.77069 4181.251 6382172
-2559.594 775.828 4160.1099 6382172
-2591.2964 793.07489 4252.5903 6382172
-2528.4998 781.45483 4190.2817 6382172
-2501.5291 780.78638 4186.6973 6447965
-2478.6392 781.39105 4189.9395 6513757
-2484.491 791.16046 4242.3247 6513758
-2437.4939 784.1283 4204.6172 6447963
-2465.1033 801.19928 4296.1543 6382170
-2423.0435 795.74664 4266.9165 6513756
-2374.8052 788.12848 4226.0669 6513756
-2403.9663 806.30829 4323.5498 6447962
-2369.3518 803.25854 4307.1968 6447963
-2376.7798 814.5509 4367.748 6447963
-2350.2412 814.32294 4366.5254 6316634
-2339.5742 819.65045 4395.0923 6184792
-2285.2786 809.64075 4341.4189 6184793
-2263.9556 811.21796 4349.876 6316379
-2250.1414 815.55304 4373.1216 6316379
-2247.5452 824.10236 4418.9644 6711137
-2231.4182 827.8335 4438.9712 6974309
-2218.5364 832.87177 4465.9873 6974310
-2196.0393 834.3786 4474.0669 7171688
-2169.8804 834.51385 4474.7925 7171688
-2140.5134 833.40338 4468.8379 7105896
-2095.3438 826.03534 4429.3291 6908517
-2070.2278 826.48633 4431.7476 7040102
-2029.9208 820.80634 4401.2905 7040359
-1991.8818 815.90753 4375.0225 7040360
-1957.8856 812.55737 4357.0581 6974567
-1920.3473 807.62787 4330.6255 6974567
-1883.7562 802.96875 4305.6426 6908774
-1864.9824 805.88055 4321.2563 6777188
-1841.4635 806.79462 4326.1577 6776932
-1825.7699 811.21143 4349.8413 6645601
-1804.7821 813.36865 4361.4087 6514272
-1791.4844 819.10468 4392.166 6711138
-1766.6304 819.64813 4395.0801 6776931
-1745.7968 822.10114 4408.2334 6842723
-1724.5118 824.41278 4420.6289 6974309
-1698.1041 824.30908 4420.0728 6974310
-1682.3082 829.43402 4447.5532 6908517
-1653.6859 828.29761 4441.46 6842724
-1630.4706 829.87659 4449.9263 6908516
-1608.2061 831.99927 4461.3086 6908516
-1584.7699 833.57672 4469.7671 7237481
-1558.0696 833.46161 4469.1499 7105895
-1549.0455 842.96161 4520.0903 6974310
-1526.5566 845.33972 4532.8423 6842724
-1505.6716 848.70691 4550.8979 6974310
-1483.2712 851.32745 4564.9492 7040103
-1460.1345 853.61462 4577.2139 7105896
-1428.5896 850.97986 4563.0859 7303275
-1400.0884 850.09155 4558.3223 7303275
-1379.21 853.8877 4578.6777 7105896
-1369.8245 865.0943 4638.7695 7105896
-1342.7079 865.3327 4640.0479 6974053
-1314.4507 864.83063 4637.3555 6776932
-1287.5616 865.2265 4639.4785 6711137
-1254.074 861.10889 4617.3989 6776930
-1220.5406 856.77539 4594.1621 6842722
-1203.0031 863.72864 4631.4468 6974309
-1164.7811 855.8092 4588.981 6842981
-1148.4528 863.98151 4632.8027 6908773
-1095.6707 844.45844 4528.1167 7040359
-1085.6641 857.75079 4599.3921 6645602
-1063.8208 862.13519 4622.9023 6316381
-1030.9242 857.55664 4598.3511 4605761
-983.73389 840.51685 4506.9814 1447700
-963.01941 845.77869 4535.1963 986893
-940.01929 849.27765 4553.958 1579030
-933.13788 867.97644 4654.2241 2302753
-907.84497 870.16681 4665.9688 1710616
-879.24286 869.22327 4660.9097 1710616
-856.65948 874.36169 4688.4629 1644823
-826.2533 871.59253 4673.6138 1776409
-793.66345 866.24786 4644.9551 1842202
-762.73242 862.39478 4624.2944 1907995
-737.40472 864.82617 4637.3315 1973787
-709.28101 864.03967 4633.1143 1974044
-679.8031 861.47369 4619.355 1907994
-640.87146 846.20966 4537.5068 1908251
-623.11871 858.79797 4605.0078 2303007
-591.3208 852.29559 4570.1406 2171421
-557.92676 842.75793 4518.9985 2105372
-522.4527 828.95837 4445.0034 1974043
-494.34241 825.99792 4429.1284 1644823
-462.35501 815.86383 4374.7881 1644823
-424.25241 793.09418 4252.6938 0
-403.04419 801.02551 4295.2227 2039839
-378.18399 802.27863 4301.9419 987408
-350.75412 797.86761 4278.2896 789771
-322.29367 790.24249 4237.4023 2040097
-300.28192 798.4765 4281.5542 526600
-277.35965 805.58563 4319.6748 592134
-257.25479 823.1554 4413.8867 2434591
-240.64676 857.15729 4596.21 2565919
-215.60307 865.95618 4643.3906 2368538
-190.30223 876.14514 4698.0259 2500126
-164.09273 884.92566 4745.1084 2960419
-137.13496 892.4679 4785.5508 3157798
-107.85353 884.87781 4744.8516 2696991
-81.169662 900.76105 4830.02 2696988
-52.486912 899.68207 4824.2344 2762527
-23.974411 902.43091 4838.9741 2828577
4.7065063 903.97748 4847.2671 2565405
33.514481 906.30231 4859.7329 1710357
63.006096 916.42194 4913.9961 986635
93.137207 926.50604 4968.0688 591878
120.66489 912.06799 4890.6499 0
150.47763 917.14923 4917.896 65536
181.44493 926.47699 4967.9131 65536
209.88884 922.11462 4944.521 65536
242.19713 933.71875 5006.7446 65536
267.9151 920.15601 4934.0186 65536
295.69681 915.65247 4909.8701 65536
330.59189 932.00995 4997.5815 65536
364.04654 941.95081 5050.8857 65536
397.37039 950.0686 5094.415 65536
431.56839 958.98267 5142.2134 65792
463.02939 961.04016 5153.2461 197120
494.66336 963.17993 5164.7197 262913
524.13605 961.10724 5153.606 262913
550.18347 953.32758 5111.8901 197120
578.6933 950.40393 5096.2129 197377
618.68384 965.69037 5178.1812 197377
655.33685 974.56879 5225.7886 328963
677.44684 961.99457 5158.3638 329217
715.57709 972.27313 5213.479 395010
750.39746 977.38989 5240.916 395010
783.64758 980.13593 5255.6406 329217
820.91937 987.50995 5295.1812 262912
853.42651 988.82043 5302.2085 526083
881.5705 985.16211 5282.5913 526083
925.66168 998.96454 5356.6025 526083
953.08545 994.461 5332.4536 526085
976.29187 985.98712 5287.0151 328707
1020.2811 998.37683 5353.4512 65792
1069.776 1015.2444 5443.8975 986636
1097.8887 1011.4262 5423.4238 1578773
1105.8618 989.79938 5307.457 1907736
1149.3408 1000.2691 5363.5977 2170908
1179.97 999.29333 5358.3652 2697252
1213.4052 1000.6827 5365.8149 2828837
1261.8641 1014.0746 5437.625 2829093
1295.9991 1015.5753 5445.6719 2894630
1328.9865 1016.1254 5448.6216 2828580
1364.7906 1018.7521 5462.7061 2828323
1406.0226 1025.2148 5497.3604 3026216
1441.8495 1027.533 5509.7905 3091752
1478.1328 1030.0664 5523.3755 3026216
1508.7103 1028.6002 5515.5132 3157802
1537.9114 1026.2775 5503.0586 3289388
1564.2874 1022.2052 5481.2222 3552560
1601.3643 1025.149 5497.0073 3552560
1632.2295 1024.0781 5491.2651 3618355
1658.5834 1020.2742 5470.8677 3552560
1706.8026 1029.8083 5521.9922 3289388
1743.6903 1032.2756 5535.2217 3223595
1784.6439 1037.0144 5560.6318 3223595
1825.7241 1041.6538 5585.5083 3092009
1865.4393 1045.3628 5605.397 3157802
1886.8104 1038.8422 5570.4321 3092010
1921.869 1039.9523 5576.3848 3355182
1980.9666 1053.8129 5650.7075 3223596
2013.5852 1053.3608 5648.2837 3157803
2061.6011 1060.8467 5688.4238 3223596
2091.1726 1058.7533 5677.1987 3026217
2131.7234 1062.1969 5695.6641 2960424
2172.8479 1065.8147 5715.063 2894631
2217.7212 1071.132 5743.5752 2894631
2247.147 1068.9404 5731.8237 2894632
2284.8035 1070.6711 5741.104 2763048
2339.5381 1080.2362 5792.394 2697254
2378.7036 1082.4403 5804.2124 2697254
2407.4878 1079.9248 5790.7236 2763047
2449.8708 1083.494 5809.8628 2763047
2496.9675 1089.0204 5839.4956 2828840
2529.5828 1088.1659 5834.9141 2631461
2580.123 1094.9415 5871.2461 2368289
2618.085 1096.2699 5878.3691 2302496
2651.2 1095.5605 5874.5649 2368289
2709.5039 1105.1436 5925.9507 2170910
2769.3801 1115.1144 5979.416 2170910
2802.429 1114.1676 5974.3389 2170910
2841.3103 1115.5343 5981.667 2170910
2865.4641 1111.1562 5958.1914 2105117
2957.0918 1132.7311 6073.8794 2302496
3001.5862 1135.9496 6091.1372 2368289
3045.3857 1138.8317 6106.5913 2302494
3135.2866 1158.6833 6213.0396 2565666
3188.0042 1164.4922 6244.187 2499873
3240.5732 1170.1141 6274.333 2763045
3323.5723 1186.4718 6362.0449 2828068
3336.8555 1177.8538 6315.834 2894117
3419.1641 1193.5216 6399.8477 3091495
3485.2349 1203.2399 6451.9585 3025702
3472.5662 1185.858 6358.7544 2960165
3542.3611 1196.708 6416.9336 2762530
3592.4807 1200.7512 6438.6138 2630944
3621.3462 1197.6802 6422.1465 2565408
3616.9187 1183.7765 6347.5928 2433565
3676.248 1190.8112 6385.3135 2367517
3658.3411 1172.9388 6289.48 2433823
3797.2422 1205.1962 6462.4482 2368030
3847.8862 1209.0771 6483.2588 2302237
3868.7202 1203.6073 6453.9282 2301724
3969.8127 1222.9694 6557.751 2170395
4010.6514 1223.5739 6560.9922 2104859
3939.7683 1190.4098 6383.1616 2170651
3976.3684 1190.0438 6381.1992 2236444
3936.593 1167.0426 6257.8628 2434337
4064.2744 1193.6514 6400.5435 2828838
4073.751 1185.3733 6356.1553 1973529
4192.0034 1208.6084 6480.7451 2170909
4279.9502 1222.7634 6556.6465 2828840
4307.8252 1219.6559 6539.9834 2763304
4361.2812 1223.7817 6562.1074 2828840
4419.8628 1229.2604 6591.4844 2763047
4497.5229 1239.9027 6648.5498 2697254
4576.6812 1250.7697 6706.8203 2763047
4591.1479 1243.922 6670.1021 2763047
4714.981 1266.5698 6791.543 2565668
4782.021 1273.7074 6829.8159 2631461
4861.3618 1283.974 6884.8672 2434339
4914.7363 1287.2687 6902.5337 2368546
5007.1821 1300.6581 6974.3296 2236960
5122.3818 1319.6904 7076.3843 2368546
5183.8877 1324.6926 7103.207 2368546
5212.5366 1321.2859 7084.939 2236960
5256.666 1321.826 7087.8354 2236703
5282.689 1317.8407 7066.4658 2105373
5336.4561 1320.7849 7082.2529 1973788
5402.2241 1326.6302 7113.5962 1973788
5478.8862 1335.0396 7158.6885 1644823
5549.6265 1341.8877 7195.4097 1710873
5572.5176 1337.1499 7170.0049 2302753
6009.4478 1431.0826 7673.6865 2302753
6046.9966 1429.2104 7663.6475 2434339
5935.2549 1392.3445 7465.9663 2500132
5885.48 1370.453 7348.5811 2500132
6015.5806 1390.4602 7455.8628 2565925
6170.1265 1415.7847 7591.6567 2631461
6149.4385 1400.825 7511.4399 2631461
6302.7002 1425.4207 7643.3257 2763047
6415.9131 1440.6726 7725.1094 2828840
6542.875 1458.7738 7822.1709 2828840
6615.4561 1464.5812 7853.311 2894633
6777.9634 1490.0769 7990.0229 2894633
6839.0562 1493.0785 8006.1177 2894633
6950.5073 1506.9569 8080.5361 2828840
7017.0767 1510.9813 8102.1157 2828840
7051.0796 1507.9861 8086.0547 2499875
7132.4829 1515.1001 8124.2012 2302496
7343.3818 1549.4421 8308.3486 2434082
7465.1772 1564.6514 8389.9023 2302496
7716.6606 1606.6611 8615.166 2236703
7675.0518 1587.496 8512.3994 2368289
7638.168 1569.5522 8416.1816 2434082
7753.8159 1582.9812 8488.1904 2565668
7828.2021 1587.8678 8514.3926 2499875
7945.8486 1601.4103 8587.0098 2565668
8044.1436 1610.9053 8637.9229 2565668
8159.7256 1623.72 8706.6377 2565668
8312.3203 1643.6929 8813.7354 2499875
8323.5684 1635.6406 8770.5576 2302496
8391.7383 1638.8044 8787.5225 2302496
0 0 0 0
0 0 0 0
0 0 0 0
0 0 0 0
0 0 0 0
0 0 0 0
0 0 0 0
0 0 0 0
-2697.2651 584.56671 3038.0105 987146
-2684.2417 585.65283 3043.6553 1118732
-2431.6418 534.12878 2775.8833 6776930
0 0 0 0
0 0 0 0
-2907.6672 651.92072 3388.0513 6382172
-2887.8367 651.97601 3388.3389 6316635
-2947.3228 670.06451 3482.3452 6316635
-2969.7393 679.92102 3533.5696 6382172
-3004.9045 692.85693 3600.7981 6447965
-2568.3965 596.44397 3099.7371 6447965
-2484.8638 581.20197 3020.5239 6513757
-3240.5518 763.45404 3967.6934 6447965
-2958.1338 702.01111 3648.3728 6448221
-2617.2874 625.69556 3251.7585 6513758
-2609.6331 628.49255 3266.2947 6645344
-3272.6519 794.06018 4126.7544 6447965
-2874.8984 702.80249 3652.4856 6316378
-2610.7639 643.07281 3342.0686 6250586
-3188.4998 791.3811 4112.8311 6119000
-3169.6326 792.75745 4119.9839 6119000
-3142.9275 792.17963 4116.981 6053207
-3079.8582 782.35541 4065.9243 5987414
-3050.342 780.96674 4058.7075 5921621
-3019.8762 779.31097 4050.1021 5987414
-2976.8496 774.36127 4024.3784 5987414
-2940.8403 771.17163 4007.802 6119000
-2904.2434 767.77484 3990.1487 6053207
-2865.6565 763.79187 3969.449 6184793
-2816.0891 756.79205 3933.071 4671554
-2815.8325 763.03772 3965.5298 3816245
-2775.6091 758.46716 3941.7764 5987414
-2818.3784 776.69019 4036.4819 6316379
-2773.28 770.80322 4005.8875 6316379
-2787.8882 781.55267 4061.7527 6316379
-2775.6956 784.91071 4079.2046 6382172
-2729.6819 778.67969 4046.8218 6184793
-2692.2395 774.80511 4026.6853 5658449
-2674.9167 776.70319 4036.5498 6382172
-2710.7754 794.21692 4127.5693 6513758
-2647.9404 782.87061 4068.6018 6382172
-2581.4812 770.23431 4002.9307 6447965
-2546.084 766.71759 3984.6541 6447964
-2544.6812 773.46771 4019.7349 6316379
-2519.7495 773.12622 4017.96 6447964
-2511.134 777.83221 4042.417 6447965
-2511.8423 785.54456 4082.4985 6447965
-2462.2446 777.52155 4040.8027 6645344
-2487.9932 793.36731 4123.1533 6645344
-2442.8992 786.71295 4088.571 6579551
-2418.4539 786.64185 4088.2014 6513758
-2401.0891 788.89557 4099.9136 6513758
-2280.3235 756.875 3933.502 6513757
-2377.3516 797.22882 4143.2217 6447963
-2347.939 795.58118 4134.6592 6513756
-2334.5579 799.38831 4154.4448 6382171
-2310.1394 799.45697 4154.8018 6382173
-2296.7507 803.38519 4175.2168 6513757
-2280.8203 806.50012 4191.4053 6513758
-2272.0054 812.22754 4221.1709 6579551
-2264.5986 818.59143 4254.2441 6711137
-2240.387 818.95557 4256.1367 6711137
-2228.7124 823.9632 4282.1611 6842723
-2207.4722 825.50891 4290.1943 6842723
-2177.2854 823.70593 4280.8242 6974309
-2164.2939 828.4425 4305.4404 7171688
-2122.0857 821.97516 4271.8291 7237224
-2122.4626 832.04572 4324.1665 7237738
-2091.2227 829.81665 4312.582 7237481
-2067.0078 830.35455 4315.3774 7237481
-2039.0701 829.3916 4310.373 6974309
-2005.5012 826.08478 4293.187 6842723
-2020.7599 843.06384 4381.4277 6842467
-1930.5182 815.89716 4240.2417 6711395
-1907.3623 816.7403 4244.624 6777188
-1911.2814 829.35455 4310.1807 6711395
-1851.076 814.10852 4230.9463 6711396
-1842.3806 821.409 4268.8872 6711394
-1816.5043 821.14612 4267.521 6580064
-1790.4973 820.81598 4265.8052 6711650
-1759.7067 818.25195 4252.48 6777443
-1736.3743 819.13196 4257.0532 6842723
-1708.7147 817.96631 4250.9956 6842723
-1688.0806 820.17938 4262.4966 6974309
-1638.3431 808.10449 4199.7432 6908516
-1630.5745 816.67725 4244.2964 6842723
-1618.2988 823.22614 4278.3306 6776930
-1606.3212 830.13727 4314.248 6908516
-1582.0265 830.80371 4317.7114 6908517
-1576.8225 841.68225 4374.248 6842724
-1549.8324 841.10114 4371.2275 6908517
-1525.5941 842.01892 4375.9976 6842724
-1509.8951 847.76312 4405.8501 6842724
-1484.9594 848.43195 4409.3262 7040103
-1465.3354 852.21405 4428.9819 7171689
-1442.2192 854.06598 4438.6064 7237482
-1424.853 859.45508 4466.6138 7237482
-1400.9067 861.00397 4474.6636 7171689
-1374.984 861.37463 4476.5894 6908517
-1347.4722 860.74451 4473.3149 6842724
-1318.1882 858.93457 4463.9087 6908517
-1292.8129 859.64941 4467.6235 6908517
-1266.9969 860.09509 4469.9399 6842980
-1242.9489 861.78552 4478.7251 6843237
-1224.0581 867.20355 4506.8828 6909030
-1190.2438 862.05457 4480.123 6909030
-1157.9215 857.77594 4457.8872 6777445
-1134.5358 860.0722 4469.8208 6843235
-1112.6221 863.62079 4488.2632 6909029
-1085.5117 863.21082 4486.1323 6843236
-1050.8958 856.66187 4452.0972 6908517
-1049.1254 877.23987 4559.042 6908516
-1003.2541 861.05548 4474.9312 6579551
-977.3822 861.62317 4477.8813 6711137
-934.37146 846.69196 4400.2832 6514015
-879.63715 819.97504 4261.4346 6777187
-872.02869 836.90662 4349.4287 5855826
-865.43018 855.86841 4447.9736 2631971
-854.60889 871.71405 4530.3242 394757
-823.80688 867.5459 4508.6621 1447445
-800.76074 871.53973 4529.418 1907995
-781.54401 880.12292 4574.0254 2039581
-758.62854 885.008 4599.4131 2039581
-730.18243 883.56476 4591.9126 2302752
-699.29474 878.94092 4567.8823 2368546
-668.45239 874.00415 4542.2256 2236960
-639.85748 871.71472 4530.3276 2171167
-610.13849 867.62653 4509.0811 1776409
-574.18164 853.88721 4437.6772 1710616
-544.08929 847.96906 4406.9204 1644823
-514.69019 842.58905 4378.9604 1513750
-480.2626 827.96875 4302.9785 1184785
-452.93094 824.62823 4285.6177 131586
-422.35477 814.633 4233.6719 1908510
-398.11691 816.3725 4242.7124 461064
-370.13562 810.15302 4210.3896 922129
-341.16867 800.72119 4161.3721 592649
-322.14734 814.98047 4235.478 2105633
-300.53433 824.53888 4285.1533 2039581
-279.32263 837.06409 4350.2471 1645076
-256.03369 845.27795 4392.9351 1447697
-235.81795 866.64545 4503.9824 1512977
-210.73114 873.28052 4538.4648 1842198
-184.58202 876.81049 4556.8101 1974039
-159.55209 887.77747 4613.8062 2565919
-133.04945 893.39105 4642.98 2367769
-106.20402 899.02954 4672.2832 1907217
-79.616287 911.59491 4737.5859 2038802
-52.133305 922.01385 4791.7334 2104596
-23.270708 903.7738 4696.9395 2367768
4.5494928 901.58374 4685.5576 2433561
32.490677 906.53265 4711.2773 2499611
60.491249 907.79865 4717.8569 2631451
87.569862 898.80157 4671.0986 2566174
116.85372 911.32446 4736.1802 2697760
144.48634 908.6131 4722.0894 2500126
171.72862 904.7251 4701.8833 2171164
199.18877 902.9101 4692.4507 592135
227.88715 906.46509 4710.9258 394756
256.14688 907.6897 4717.2905 0
284.8338 910.03827 4729.4961 0
314.47653 914.74634 4753.9644 65536
339.56857 906.53156 4711.2715 65536
373.48483 921.33282 4788.1943 65536
402.69913 923.26404 4798.231 65536
432.16971 925.48938 4809.7959 65536
462.36099 928.88727 4827.4546 65536
495.65988 937.76868 4873.6118 65536
521.02185 931.48248 4840.9424 65536
558.09399 945.69537 4914.8071 65792
588.49976 947.76245 4925.5498 263170
628.18005 963.86487 5009.2349 262914
646.33246 946.97278 4921.4458 395010
685.33191 960.7644 4993.1216 658182
717.08673 963.67877 5008.2676 658182
744.89948 961.27435 4995.7715 723975
776.88873 964.23737 5011.1704 723462
822.44604 983.20227 5109.7314 328705
860.55847 992.23639 5156.6821 0
883.13794 983.35541 5110.5273 986634
934.2417 1005.7714 5227.0239 1841943
934.8891 974.1723 5062.8027 2170908
991.31012 1000.8484 5201.4395 2434080
1008.8894 987.88287 5134.0566 2368286
1046.214 994.44452 5168.1577 2236701
1069.9873 988.11859 5135.2817 2236700
1108.2389 995.14313 5171.7886 2302493
1145.8989 1001.2729 5203.645 2301979
1183.5619 1007.0839 5233.8452 2565150
1220.2681 1011.8047 5258.3794 2762529
1237.5983 1000.6247 5200.2764 2894116
1272.8589 1004.1327 5218.5078 3091495
1310.7117 1009.4709 5246.25 3157288
1339.2334 1007.5416 5236.2236 2959909
1382.5186 1016.5551 5283.0669 3025702
1418.8656 1020.1809 5301.9106 2959909
1451.6393 1021.1359 5306.874 3091495
1476.3204 1016.4786 5282.6694 2960166
1509.5751 1017.7952 5289.5122 2894373
1538.671 1016.3113 5281.8003 2697251
1563.3954 1012.0568 5259.689 2631459
1604.999 1018.6816 5294.1187 2894630
1635.6095 1018.2088 5291.6616 3157802
1695.5115 1035.6456 5382.2812 3026216
1715.7208 1028.6412 5345.8794 3223595
1744.1058 1026.7037 5335.8101 3355181
1784.3536 1031.6941 5361.7451 2894630
1819.0503 1033.3564 5370.3843 3420973
1854.6753 1035.4797 5381.4194 3092010
1867.792 1025.1772 5327.877 2434079
1921.5337 1037.1445 5390.0708 2434080
1959.4668 1040.3273 5406.6118 2697252
2008.6295 1049.2738 5453.1074 2697252
2054.0386 1056.0073 5488.1016 2434080
2090.0837 1057.7917 5497.3755 2565666
2129.061 1060.9827 5513.9585 2697251
2173.7395 1066.8752 5544.5825 2828837
2213.614 1070.2698 5562.2236 2960423
2248.9858 1071.4194 5568.1987 2828838
2290.2859 1075.3193 5588.4663 2697253
2316.5181 1072.1343 5571.9141 2763045
2350.0457 1072.3679 5573.1279 2763045
2412.5063 1085.6146 5641.9717 2828838
2436.7263 1081.5264 5620.7251 2763046
2471.9688 1082.3746 5625.1338 2631461
2524.7915 1090.7957 5668.8975 2565668
2556.3643 1089.9354 5664.4268 2631461
2604.3113 1095.9883 5695.8838 2499875
2642.8921 1097.9951 5706.3135 2434082
2680.0195 1099.355 5713.3809 2302239
2725.3801 1104.0162 5737.605 2302496
2763.2864 1105.5801 5745.7324 2236703
2791.282 1103.1887 5733.3052 2170910
2882.3206 1125.4718 5849.1104 2236702
2930.1621 1130.5583 5875.5454 2170909
2995.5393 1142.2119 5936.1094 2105115
3047.9241 1148.6982 5969.8193 2302494
3083.04 1148.6023 5969.3203 2434080
3129.1057 1152.5415 5989.793 2564896
3182.9138 1159.2124 6024.4614 2499103
3231.2947 1163.7805 6048.2021 2301724
3241.0251 1154.4806 5999.8701 2433310
3294.8704 1160.9264 6033.3687 2696482
3367.0125 1173.6112 6099.292 2762275
3380.5112 1165.8027 6058.7119 2762531
3490.2012 1190.9825 6189.5718 2894374
3457.3782 1167.5137 6067.6035 2960167
3471.5779 1160.2434 6029.8198 2696996
3583.3999 1185.4155 6160.6401 2499617
3542.2466 1159.985 6028.4766 2301467
3555.7542 1152.7833 5991.0488 1775380
3595.1721 1154.0411 5997.5859 2170138
3734.5703 1187.0536 6169.1528 2104604
3781.1377 1190.2053 6185.5327 1907737
3737.1733 1165.073 6054.9194 1973530
3745.7996 1156.6582 6011.187 2039324
3819.0613 1168.1722 6071.0264 2105117
3915.8135 1186.5898 6166.7432 2105117
3988.5908 1197.469 6223.2822 2368289
4009.1982 1192.6298 6198.1323 2368546
4058.6064 1196.3679 6217.5601 2565668
4125.2778 1205.0819 6262.8467 2631461
4189.6899 1212.9863 6303.9263 2631718
4280.4731 1228.3185 6383.6079 2565925
4345.3413 1236.0107 6423.5845 2697511
4405.2124 1242.1603 6455.5439 2763304
4418.3096 1235.1283 6418.9985 2829097
4466.5479 1237.9562 6433.6953 2763047
4534.5449 1246.1664 6476.3638 2631461
4598.5576 1253.153 6512.6729 2631461
4571.896 1235.519 6421.0293 2697254
4697.8726 1259.0852 6543.5029 2828840
4864.2334 1293.0002 6719.7612 2697254
4934.6792 1301.0758 6761.73 2368289
4937.1528 1291.244 6710.6338 2565668
5001.2236 1297.5507 6743.4097 2565668
5068.5605 1304.5979 6780.0342 2565668
5179.1606 1322.5822 6873.499 2236960
5297.6147 1342.276 6975.8481 2105374
5284.5049 1328.5879 6904.7109 2171167
5421.5015 1352.5587 7029.2881 2105374
5525.8916 1368.0916 7110.0127 2039581
5749.6953 1412.7299 7341.999 2171167
5771.2305 1407.3724 7314.1562 2236960
5584.4805 1351.681 7024.7266 2236960
5857.2983 1407.2257 7313.3936 2105374
5766.8535 1375.3209 7147.584 1842202
5775.9365 1367.4445 7106.6499 1973531
6013.2456 1413.3231 7345.0825 2236703
6074.5532 1417.4731 7366.6504 2434082
6161.8584 1427.5872 7419.2134 2434082
6213.437 1429.3394 7428.3193 2565668
6280.6289 1434.6333 7455.832 2631461
6352.8735 1440.9994 7488.9165 2763047
6549.6099 1475.3192 7667.2783 2763047
6583.0566 1472.6383 7653.3452 2763047
6607.7339 1468.0454 7629.4761 2828840
6656.5923 1468.8512 7633.6636 2763047
6662.6299 1460.2606 7589.0181 2697254
6712.7852 1461.39 7594.8877 2631461
7060.3535 1526.8207 7934.9326 2565668
7090.8223 1523.2655 7916.4561 2434082
7106.606 1516.6232 7881.936 2434082
7181.4902 1522.598 7912.9873 2434082
7319.1479 1541.718 8012.3545 2434082
7427.2524 1554.4065 8078.2969 2368289
7299.605 1517.9092 7888.6196 2302496
6601.5552 1364.0194 7088.8496 2368289
6543.5811 1343.4923 6982.1699 2368289
7899.7671 1611.7468 8376.2959 2302496
8011.1919 1624.2751 8441.4062 2368289
7476.2612 1506.4121 7828.8687 2302496
0 0 0 0
0 0 0 0
0 0 0 0
0 0 0 0
0 0 0 0
0 0 0 0
0 0 0 0
0 0 0 0
-2701.9153 603.60693 3043.248 1184525
-2682.0605 603.19714 3041.1819 1381904
-2424.1814 548.88782 2767.3667 6579551
0 0 0 0
-2972.5481 682.28033 3439.9011 5987414
-2891.6333 668.29065 3369.3684 5987414
-2877.2412 669.58752 3375.9072 6053207
-2909.3459 681.79895 3437.4744 6053207
-2945.9998 695.25623 3505.323 5855828
-2987.1555 709.97461 3579.5295 5724242
-3117.9119 746.35162 3762.9341 5592655
-3155.9414 760.89636 3836.2654 5461069
-3201.7329 777.53711 3920.1641 5592656
-3209.0276 785.00378 3957.8093 5724242
-3203.241 789.35681 3979.7563 5790035
-3213.7644 797.82355 4022.4436 5855828
-3240.5896 810.49384 4086.3245 5790035
-2598.7947 654.86957 3301.7026 5855828
-2605.1648 661.45428 3334.9011 5921621
-3180.5693 813.72223 4102.6016 5921621
-3155.4529 813.5144 4101.5532 5921621
-3094.1191 803.89331 4053.0461 5987414
-2632.7756 689.38098 3475.7012 5987414
-3027.2073 798.91071 4027.925 6119000
-2661.9644 708.10217 3570.0891 6119000
-2641.7092 708.34326 3571.3047 6184793
-2684.3594 725.59174 3658.2676 6250586
-2681.2219 730.64374 3683.7385 6184793
-2683.4858 737.2627 3717.1099 6250586
-2652.6433 734.82031 3704.7957 6119000
-2713.3779 757.91687 3821.2434 6184793
-2675.8242 753.7168 3800.0674 5855828
-2652.3999 753.45898 3798.7676 4408382
-2587.7139 741.37537 3737.845 5066312
-2598.5459 750.9057 3785.8945 6250586
-2672.385 778.96783 3927.3777 6250586
-2650.5991 779.40466 3929.5798 6382172
-2627.8818 779.57288 3930.428 6513758
-2615.7405 782.90961 3947.251 6513758
-2600.6792 785.42456 3959.9309 6447965
-2553.8528 778.30481 3924.0347 6250586
-2562.3843 788.0799 3973.3184 6184793
-2511.5674 779.61395 3930.635 6250586
-2368.1863 741.98779 3740.9326 6382171
-2468.8435 780.83398 3936.7859 6447965
-2437.9839 778.42877 3924.6599 6513758
-2407.4858 776.09393 3912.8882 6447965
-2377.1218 773.75739 3901.1074 6513758
-2380.4219 782.44012 3944.8838 6513758
-2374.45 788.21729 3974.011 6513758
-2345.1526 786.28943 3964.2913 6447962
-2326.519 787.93414 3972.5835 6447962
-2213.926 757.46564 3818.9683 6316377
-2350.8345 812.61292 4097.0083 6053206
-2338.6902 816.85028 4118.3721 6316378
-2294.27 809.7851 4082.7512 6382172
-2263.0315 807.27142 4070.0776 6513758
-2272.9387 819.53925 4131.9292 6579551
-2243.876 817.87012 4123.5142 6711137
-2219.03 817.71808 4122.7476 6842723
-2197.1401 818.66412 4127.5171 6842723
-2164.7332 815.66864 4112.4146 6842723
-2161.6492 823.77972 4153.3086 6908516
-2131.2102 821.53278 4141.98 6908516
-2104.4089 820.6521 4137.54 6974053
-2105.343 830.69397 4188.1689 6974309
-2066.0632 824.91931 4159.0542 6842723
-2044.2642 826.06885 4164.8501 7040103
-2023.3438 827.60602 4172.6001 6908517
-1988.9271 823.59259 4152.3652 6908516
-1980.3934 830.33063 4186.3369 6842724
-1930.4727 819.66699 4132.5732 6776931
-1898.1263 816.28711 4115.5327 6776931
-1870.9048 815.05194 4109.3052 6777188
-1860.1404 821.0481 4139.5366 6777444
-1835.7068 821.09052 4139.7505 6843236
-1806.5255 818.98181 4129.1187 6843236
-1785.4105 820.52209 4136.8848 6842981
-1762.2031 821.13031 4139.9512 6843236
-1742.597 823.45758 4151.6846 6909028
-1724.6305 826.63721 4167.7158 6909028
-1703.4213 828.33246 4176.2627 6974309
-1683.5516 830.73859 4188.394 6908516
-1659.5483 831.14661 4190.4512 6908516
-1636.3195 831.96075 4194.5557 6908516
-1613.4326 832.97656 4199.6772 7040102
-1590.5585 834.03094 4204.9932 7040103
-1572.2155 837.53253 4222.6475 6974310
-1552.3016 840.29706 4236.5854 7040103
-1534.8507 844.50769 4257.8145 7040103
-1508.2396 843.73468 4253.917 7040103
-1491.2871 848.43036 4277.5918 6974310
-1472.9658 852.49622 4298.0908 7040103
-1449.3943 853.61316 4303.7222 6974310
-1425.163 854.37451 4307.5605 7105896
-1399.9554 854.56769 4308.5347 6908517
-1382.4978 859.58661 4333.8389 6908517
-1362.3676 863.10242 4351.5649 6908517
-1341.6046 866.34528 4367.9146 6974310
-1313.8328 865.10065 4361.6396 7040103
-1289.3605 866.02228 4366.2861 7040103
-1263.9203 866.31824 4367.7783 6974310
-1237.3929 865.86591 4365.4976 6842981
-1211.3844 865.76495 4364.9888 6711395
-1184.3094 864.88086 4360.5312 6711395
-1152.1079 860.13 4336.5786 6711395
-1134.3516 866.19263 4367.145 6776932
-1109.0719 866.65942 4369.4985 6645857
-1083.0648 866.56665 4369.0308 6777443
-1053.0397 863.17566 4351.9341 6842980
-1025.9418 862.0741 4346.3804 6842724
-997.82318 860.03601 4336.105 6908517
-962.35492 851.38806 4292.5039 6842723
-952.03351 865.12177 4361.7461 6776930
-897.29938 838.13757 4225.6978 6711137
-890.53149 855.69379 4314.2124 6711137
-869.93646 860.60895 4338.9932 6579808
-845.95892 862.37537 4347.8989 6645602
-826.16437 868.65082 4379.5386 6645347
-795.0528 863.04828 4351.292 7040105
-783.03552 878.49237 4429.1572 7040105
-764.48431 887.42285 4474.1831 4539970
-736.94073 886.18152 4467.9243 1776666
-709.02844 884.38776 4458.8809 1250322
-678.79144 879.44336 4433.9521 855052
-660.91608 890.76147 4491.0151 1907995
-625.6604 878.62158 4429.8091 1842202
-590.78485 865.97589 4366.0522 1710616
-565.66071 867.12012 4371.8213 3618613
-539.37878 866.51434 4368.7671 4868678
-511.0665 862.4212 4348.1304 4803398
-478.83981 850.93719 4290.2305 4672068
-450.43707 845.34204 4262.021 2039838
-425.25085 845.47711 4262.7021 0
-397.43982 840.08124 4235.4971 0
-368.43875 831.27283 4191.0874 395271
-341.59555 826.41168 4166.5786 131841
-318.39056 830.28076 4186.0854 2171169
-299.37674 846.65649 4268.6479 2105374
-278.02133 858.82123 4329.98 1645077
-255.37581 869.06909 4381.6475 2171165
-232.45007 880.57513 4439.6582 1447186
-206.54669 882.29822 4448.3457 723462
-180.76392 885.11591 4462.5518 1052426
-154.91441 888.51654 4479.6973 1512720
-128.52951 889.61786 4485.2495 2038804
-101.71555 887.54913 4474.8198 2235925
-75.339516 889.19067 4483.0957 2104339
-48.628365 886.51062 4469.5835 2038546
-22.387842 896.26099 4518.7427 2170389
4.4257226 904.06445 4558.0859 2038803
31.33567 901.23035 4543.7969 1841424
58.787575 909.39935 4584.9834 1709838
86.364868 913.73102 4606.8228 2235927
113.58329 913.09717 4603.627 2104598
141.78351 919.07294 4633.7554 1709840
168.59789 915.58386 4616.1646 2301975
197.58598 923.22571 4654.6929 2894112
224.68445 921.24756 4644.7192 2499868
251.10513 917.2254 4624.4404 2237211
277.37512 913.49835 4605.6494 2302493
304.1777 912.03589 4598.2759 2368287
330.19299 908.64746 4581.1924 1118479
364.28433 926.30963 4670.2412 526343
390.60654 923.11719 4654.1455 0
417.22391 920.99738 4643.458 0
447.46628 926.64679 4671.9409 65536
473.81552 924.04535 4658.8252 197120
503.93518 928.67877 4682.1855 328450
535.93866 936.11902 4719.6978 394756
563.13855 934.84711 4713.2852 460549
594.24005 939.86621 4738.5903 394757
630.91559 952.85071 4804.0552 329217
656.39587 948.53613 4782.3022 197632
686.53955 951.03888 4794.9204 197633
729.08936 969.84546 4889.7388 1052940
759.60211 971.81445 4899.666 2170907
790.96002 974.68005 4914.1138 2894630
818.52356 972.83246 4904.7983 3025702
850.00342 975.60657 4918.7847 2499613
878.3595 974.73016 4914.3662 2828836
906.37903 973.54858 4908.4092 3025700
945.13306 983.61194 4959.1465 2959909
972.93134 982.0105 4951.0723 2828323
997.24506 977.08875 4926.2578 2630944
1037.5635 987.68207 4979.667 2959909
1068.8551 989.33441 4987.9976 2894116
1100.3752 991.10352 4996.917 3091495
1140.4077 1000.2462 5043.0122 3157289
1169.8129 999.83875 5040.958 3025701
1193.5309 994.71167 5015.1089 2828322
1223.8262 995.18237 5017.4819 2959907
1267.3722 1006.1502 5072.7793 3091495
1291.2955 1001.3928 5048.793 3091495
1331.4081 1009.121 5087.7568 3025702
1354.0626 1003.5679 5059.7593 3157288
1396.79 1012.8103 5106.3574 2959909
1419.1245 1007.1872 5078.0073 2960166
1456.6443 1012.3513 5104.0439 2631458
1486.4751 1012.0704 5102.6274 2565665
1522.8071 1016.1388 5123.1392 2565410
1551.2706 1014.9001 5116.894 2697251
1583.0217 1015.8187 5121.5254 2697251
1603.7924 1009.7891 5091.1255 2236700
1634.043 1009.8408 5091.3862 2170907
1668.2562 1012.2952 5103.7607 2697253
1691.6305 1008.2021 5083.1245 3486767
1738.5906 1018.0634 5132.8428 3223595
1794.3466 1032.6476 5206.373 2894631
1828.5793 1034.5616 5216.0229 2828838
1875.7472 1043.6085 5261.6357 2631459
1907.0101 1043.6555 5261.8721 2170908
1940.3213 1044.8038 5267.6616 2039322
1965.7751 1041.7518 5252.2739 2302494
1998.0828 1042.3705 5255.3931 2499873
2041.2825 1048.5651 5286.625 2565666
2080.4075 1052.511 5306.5195 2763045
2118.3254 1055.7379 5322.7886 2434080
2136.3403 1049.0962 5289.3032 2170908
2166.95 1048.7421 5287.5176 2236703
2197.2466 1048.2488 5285.0308 2565668
2262.5444 1064.2329 5365.6187 2763047
2268.1577 1052.0891 5304.3926 2565668
2309.1213 1056.4507 5326.3823 1973530
2349.0464 1060.2257 5345.4155 1776152
2393.7971 1066.0493 5374.7769 1907738
2391.7551 1051.1553 5299.6841 1447187
2437.4795 1057.3678 5331.0063 1052429
2467.209 1056.5717 5326.9927 1315601
2546.9475 1076.9414 5429.6919 1644566
2614.5454 1091.7334 5504.27 1578773
2666.8345 1099.8475 5545.1792 1841945
2712.3591 1105.0081 5571.1978 1776152
2746.5806 1105.495 5573.6523 2368289
2801.1057 1114.0455 5616.7627 2302495
2855.6572 1122.4055 5658.9116 2368287
2899.2878 1126.329 5678.6929 2631459
2935.24 1127.2136 5683.1533 2499874
2987.1704 1134.1448 5718.0981 2762788
3026.7461 1136.2821 5728.8745 2762275
3031.7937 1125.5537 5674.7842 3091240
3068.5417 1126.7003 5680.5649 2959654
