# .PCD v0.7 - Point Cloud Data file format
VERSION 0.7
FIELDS x y z rgb
SIZE 4 4 4 4
TYPE F F F U
COUNT 1 1 1 1
WIDTH 1287
HEIGHT 1
VIEWPOINT 0 0 0 1 0 0 0
POINTS 1287
DATA ascii
2820.5198 1055.8146 3601.6262 6961431
2890.7974 1073.9956 3663.6458 7092762
2919.5713 1076.6011 3672.5332 7487520
2935.1394 1074.3342 3664.8005 8737840
2978.2483 1082.1072 3691.3162 8803889
2984.5469 1076.4899 3672.1541 8672560
3011.5413 1078.3646 3678.5491 8935474
3008.5708 1069.5597 3648.5137 8343082
3020.385 1066.0989 3636.7083 8343082
3060.5867 1072.636 3659.0078 8079911
3053.2234 1062.5286 3624.5288 8145705
3061.8362 1058.0831 3609.3645 7882277
3094.4177 1061.9248 3622.4695 7948583
3117.9153 1062.6177 3624.833 8277549
3153.0383 1067.236 3640.5872 8146217
3169.96 1065.6726 3635.2542 7883045
3194.1497 1066.5574 3638.272 7948838
3221.9116 1068.6149 3645.2908 8014374
3198.491 1053.7825 3594.6941 8146216
3225.7019 1055.717 3601.2932 8145706
3279.4553 1066.256 3637.2437 7619362
3223.9351 1041.361 3552.321 7949353
3288.3271 1055.2703 3599.7693 7751462
3269.3281 1042.4115 3555.905 7619621
3325.8789 1053.6519 3594.2485 7488804
3347.3872 1053.7183 3594.4749 7686183
3379.0625 1056.9641 3605.5471 7817514
3401.9583 1057.4401 3607.1707 8541494
3437.2922 1061.7522 3621.8804 7817771
3458.4106 1061.647 3621.5217 6830620
0 0 0 0
0 0 0 0
0 0 0 0
0 0 0 0
0 0 0 0
0 0 0 0
0 0 0 0
-3099.9175 1037.3058 3468.3823 1280
-3085.2422 1039.2853 3475.0007 1280
-3068.4541 1040.5748 3479.3127 1280
-3043.3457 1039.0411 3474.1846 1280
-3025.168 1039.869 3476.9526 1280
-3002.8018 1039.2585 3474.9114 1280
-2989.825 1041.9116 3483.7825 1280
-2970.4878 1042.3699 3485.3147 1280
-2942.5315 1039.7887 3476.6841 1280
-2926.3958 1041.3776 3481.9968 1280
-2906.5195 1041.6486 3482.9028 1280
-2889.3958 1042.9169 3487.1436 1280
-2879.5991 1046.8672 3500.3521 1280
-2862.1514 1048.0731 3504.3843 1280
-2851.6277 1051.8507 3517.0151 1280
-2831.5156 1052.121 3517.9189 1280
-2814.762 1053.6527 3523.0403 1280
-2795.9609 1054.4348 3525.6558 1280
-2774.9172 1054.3768 3525.4617 1280
-2755.4814 1054.9335 3527.323 1280
-2734.5273 1054.913 3527.2542 1280
-2722.0801 1058.1991 3538.2419 1280
-2705.5586 1059.9401 3544.0632 1280
-2685.3835 1060.2659 3545.1526 1280
-2665.0332 1060.5269 3546.0254 1536
-2647.5679 1061.9493 3550.7815 1280
-2631.4929 1063.9567 3557.4934 1280
-2607.9282 1062.9438 3554.1064 1280
-2581.8706 1060.8901 3547.2397 1280
-2565.9507 1063.0026 3554.3027 1280
-2552.0383 1065.9884 3564.2864 1280
-2535.7024 1068.0032 3571.0232 1280
-2517.4597 1069.2422 3575.1663 1280
-2499.2007 1070.4951 3579.3557 1280
-2484.4626 1073.2905 3588.7026 1280
-2463.7822 1073.5452 3589.554 1280
-2450.0957 1076.8782 3600.698 768
-2439.7073 1081.7318 3616.9272 512
-2448.6758 1095.3304 3662.3958 197376
-2394.7654 1080.7939 3613.791 789249
-2403.2209 1094.3958 3659.2708 788736
-2414.1394 1109.3771 3709.363 985602
-2394.7297 1110.5687 3713.3477 985601
-2378.1697 1113.1165 3721.8662 1116418
-2361.1428 1115.4913 3729.8066 984576
-2342.5044 1117.1423 3735.3271 984064
-2330.7505 1122.1395 3752.0359 1115904
-2301.5271 1118.7412 3740.6733 1181698
-2283.22 1120.6348 3747.0046 1378305
-2267.7146 1123.9541 3758.1033 1180928
-2246.6968 1124.58 3760.1958 1180928
-2217.3813 1121.0234 3748.3042 1049344
-2197.5923 1122.2599 3752.4385 1180928
-2172.8398 1120.9609 3748.0955 1115136
-2150.5029 1120.8943 3747.8723 1312256
-2124.967 1119.1415 3742.0115 1246720
-2097.166 1116.146 3731.9958 1312512
-2076.2986 1116.8164 3734.2373 1378048
-2054.1089 1116.7821 3734.1228 1378304
-2027.8539 1114.5131 3726.5356 1377792
-2010.5641 1117.1754 3735.4377 1246208
-1975.4061 1109.8579 3710.9707 1048832
-1961.5381 1114.4719 3726.3984 983296
-1936.861 1112.9799 3721.4094 1312000
-1911.1218 1110.8361 3714.2412 1246208
-1892.0631 1112.5704 3720.0405 1312000
-1870.0367 1112.5802 3720.0732 1312000
-1836.41 1105.6062 3696.7546 1312000
-1806.3528 1100.6388 3680.1453 1312000
-1790.297 1104.1854 3692.0039 1312000
-1769.2979 1104.7334 3693.8359 1246208
-1739.1394 1099.5044 3676.3521 1114624
-1723.4099 1103.3805 3689.3125 1180416
-1704.129 1105.0533 3694.906 1377024
-1676.7946 1101.4795 3682.9563 1443072
-1655.595 1101.8944 3684.3435 1640449
-1635.0299 1102.7483 3687.1987 1311744
-1611.5631 1101.6418 3683.4993 1377792
-1580.0128 1094.9034 3660.968 1312000
-1562.7922 1098.0455 3671.4744 1311744
-1540.8439 1097.9077 3671.0134 1312000
-1517.7738 1096.9552 3667.8286 1312000
-1485.0125 1088.8691 3640.7917 1246208
-1463.675 1089.0446 3641.3782 1377792
-1445.6506 1091.7271 3650.3477 1377792
-1422.101 1090.2552 3645.4263 1509377
-1397.7106 1088.0835 3638.1646 1443584
-1377.4253 1089.0895 3641.5283 1377792
-1350.9261 1085.136 3628.3096 1377792
-1329.068 1084.843 3627.3301 1443584
-1307.4506 1084.7401 3626.9858 1443584
-1285.4327 1084.2961 3625.501 1378048
-1261.2638 1081.9916 3617.7954 1377792
-1241.4622 1083.4187 3622.5671 1311488
-1219.9641 1083.3893 3622.4692 1048576
-1198.0607 1082.9927 3621.1428 1114112
-1169.785 1076.7163 3600.1567 1245696
-1154.9186 1082.7783 3620.4263 1509120
-1127.8438 1077.4075 3602.4678 1508864
-1104.4626 1075.4259 3595.842 1574656
-1083.0082 1075.2794 3595.3523 1508864
-1060.1121 1073.6667 3589.9602 1574657
-1035.6168 1070.3354 3578.8215 1706242
-1015.5456 1071.5326 3582.8245 1705729
-993.12701 1070.2513 3578.5405 1639937
-971.05231 1069.2928 3575.3357 1574656
-951.15582 1070.7438 3580.187 1640449
-931.55377 1072.5999 3586.3931 1508864
-910.85034 1073.2448 3588.5493 1509120
-890.22833 1074.0189 3591.1379 1574400
-870.56824 1076.0198 3597.8281 1574144
-848.69562 1075.3177 3595.4807 1705985
-829.35864 1077.8751 3604.0315 1705985
-807.216 1076.8247 3600.5195 1508096
-779.58044 1068.1912 3571.6516 1376768
-763.19141 1074.9156 3594.136 1311232
-739.11328 1070.8856 3580.6611 1311232
-718.49426 1071.7773 3583.6431 1114112
-692.74756 1064.8417 3560.4524 1442816
-673.18121 1067.2686 3568.5669 1968132
-651.38904 1066.2096 3565.0259 1771009
-634.14758 1072.778 3586.9885 1639168
-614.44867 1075.5006 3596.0918 1837058
-592.03888 1073.5033 3589.4136 1836801
-571.84613 1075.5267 3596.1797 1771264
-547.17676 1068.9618 3574.2285 1639680
-530.29266 1077.6896 3603.4111 1902850
-509.61258 1079.1117 3608.166 1837057
-490.84921 1084.8945 3627.5022 1902850
-468.11435 1082.0273 3617.9153 1902850
-445.84772 1080.0192 3611.2004 1968643
-425.99591 1083.9529 3624.3535 2034436
-404.13184 1082.9124 3620.8745 2034436
-382.18317 1081.5157 3616.2046 1771265
-362.77374 1087.5657 3636.4333 1705472
-339.29318 1081.4039 3615.8308 2164993
-317.26511 1079.3531 3608.9736 2099457
-295.44812 1077.7759 3603.7 2033664
-277.96317 1092.9872 3654.5608 1901824
-254.56165 1085.5382 3629.6541 2033152
-234.63905 1092.9188 3654.3325 2362116
-211.93214 1087.5128 3636.2568 2493701
-190.37256 1087.4368 3636.0024 2362114
-169.88745 1094.2623 3658.8245 2362370
-147.58473 1089.6646 3643.4512 2296320
-126.76841 1096.3462 3665.7925 2296065
-105.6985 1103.1445 3688.5234 2558977
-83.830772 1102.9899 3688.0066 2624770
-62.111031 1105.3601 3695.9316 2821635
-40.187935 1104.7218 3693.7974 2756099
-18.06975 1090.7804 3647.1824 2689793
3.5726259 1100.4382 3679.4749 2689537
25.407833 1101.8625 3684.2371 3280641
46.576515 1086.4233 3632.6138 4200451
69.147186 1103.1097 3688.4075 6304274
91.540642 1109.6333 3710.2197 8409128
112.58072 1100.4017 3679.3528 8409382
134.67244 1102.7771 3687.2952 8803884
156.5316 1102.8507 3687.5413 8935213
177.32585 1096.3225 3665.7131 9263922
198.93765 1095.722 3663.7053 9132336
223.55156 1110.1482 3711.9412 8474406
244.65192 1106.1045 3698.4204 8934443
266.91284 1107.5414 3703.2251 8868907
290.10904 1112.3461 3719.2903 9066799
309.21896 1101.9108 3684.3982 8869421
331.30109 1102.7449 3687.187 8211490
353.97562 1105.3256 3695.8162 8869420
380.52667 1119.0051 3741.5559 8935213
398.55722 1107.502 3703.0933 8935213
420.89365 1108.5399 3706.5637 8935213
442.64709 1108.0156 3704.8108 9329716
459.68311 1096.2905 3665.6062 8803627
479.41425 1091.7609 3650.4607 8935213
502.89484 1095.7922 3663.9402 8803627
525.5202 1097.7036 3670.3311 8935214
546.4613 1096.0847 3664.9182 9264179
566.94421 1093.7058 3656.9639 9132079
594.95557 1105.4905 3696.3677 9131822
611.74677 1096.3306 3665.7402 8605222
640.32098 1108.1913 3705.3982 8671272
664.32208 1111.6135 3716.8406 8736808
681.84631 1104.3259 3692.4736 8868651
707.08551 1109.5983 3710.1025 8737064
727.67419 1107.4751 3703.0032 8276514
760.50366 1123.5603 3756.7866 8539685
769.20691 1104.1006 3691.7202 8802601
796.33667 1111.4347 3716.2429 8868394
818.98083 1112.2821 3719.0764 8868394
834.50311 1103.666 3690.2673 8999980
858.7782 1106.7704 3700.6472 8802857
880.71265 1106.7787 3700.6748 8605478
902.80743 1106.9833 3701.3589 8671272
920.2829 1101.6484 3683.5212 8868650
939.66711 1098.7927 3673.9727 8539685
962.59546 1100.1169 3678.4001 8934187
983.5849 1099.2155 3675.3862 8737065
1005.7852 1099.677 3676.9294 8934444
1024.0697 1095.9285 3664.3958 8671015
1047.2147 1097.4292 3669.4133 8736809
1071.8112 1100.3589 3679.2092 9263408
1092.4995 1099.2396 3675.4668 9131823
1111.8339 1096.8282 3667.4041 9526324
1126.2758 1089.7754 3643.822 9066030
1168.5264 1109.3895 3709.4045 8999980
1175.5951 1095.4945 3662.9446 8934187
1195.0735 1093.4576 3656.1343 9066030
1227.8092 1103.4076 3689.4031 9328945
1241.7478 1096.4122 3666.0132 8802857
1255.7839 1089.7422 3643.7107 9131823
1273.7345 1086.6368 3633.3279 8934701
1302.8693 1093.0176 3654.6628 8803115
1319.4009 1088.7894 3640.5254 8737321
1334.9906 1083.9327 3624.2859 8802858
1358.3872 1085.4678 3629.4189 8605736
1376.7037 1082.9591 3621.0305 8474150
1399.3558 1083.8855 3624.1282 8606249
1418.2758 1081.9369 3617.6125 8803628
1434.6779 1078.1541 3604.9641 8605223
1460.7371 1081.6329 3616.5964 9394995
1478.2316 1078.7611 3606.9941 9131824
1496.6616 1076.6442 3599.9158 8802859
1524.1455 1081.0082 3614.5073 8276258
1558.4183 1089.9995 3644.5715 8737065
1569.3463 1082.6404 3619.9648 8934444
1590.0441 1082.1285 3618.2537 9263410
1607.4954 1079.4504 3609.2988 8802858
1629.7795 1080.0453 3611.2878 8539687
1658.7345 1084.9882 3627.8149 8342052
1666.0983 1075.8623 3597.3013 7355156
1697.428 1082.2471 3618.6499 8934188
1711.4325 1077.5643 3602.9922 8671016
1722.3102 1071.0525 3581.219 7947550
1757.5146 1079.6429 3609.9426 8605223
1782.7169 1081.9564 3617.678 8276258
1804.0193 1081.8762 3617.4097 8605223
1843.7039 1092.6923 3653.575 8606249
1848.0739 1082.5706 3619.7314 8408614
1873.2976 1084.7567 3627.0413 8671786
1893.7332 1084.1521 3625.0198 8671786
1901.1949 1076.217 3598.4873 8540203
1939.5851 1085.7714 3630.4338 8869168
1936.2239 1072.0002 3584.3882 8737582
1972.0977 1080.0151 3611.187 8803118
2021.807 1095.3534 3662.4729 9066546
2031.3065 1088.8129 3640.6038 8540715
2044.1173 1084.166 3625.0662 8409386
2065.5972 1084.166 3625.0662 8869681
2084.2773 1082.7117 3620.2034 8869424
2116.4211 1088.2095 3638.5859 8606509
2127.8135 1083.0342 3621.2817 8474922
2146.6755 1081.7264 3616.9089 8474922
2182.9795 1089.1466 3641.7192 8672045
2200.6775 1087.2292 3635.3086 8672045
2223.0977 1087.6597 3636.7476 8672045
2254.542 1092.4545 3652.7795 8145701
2270.2581 1089.6091 3643.2661 7224342
2277.5278 1082.802 3620.5054 7948066
2312.9294 1089.3717 3642.4719 7685150
2317.1509 1081.27 3615.3831 8277544
2327.6992 1076.2423 3598.5718 8145958
2346.4373 1075.0579 3594.6116 8211494
2360.0981 1071.5896 3583.0151 8145957
2387.8542 1074.526 3592.8333 7948579
2409.1523 1074.5302 3592.8469 8212268
2429.2849 1074.0188 3591.1375 8146474
2448.8452 1073.2655 3588.6187 8343852
2469.97 1073.205 3588.4163 8475182
2488.217 1071.9059 3584.0725 8475182
2520.855 1076.7758 3600.3557 7817253
2510.7744 1063.4698 3555.8655 7883301
2529.8042 1062.6128 3553 7750945
2557.1348 1065.228 3561.7441 7816992
2546.1294 1051.9613 3517.3853 7948579
2555.8054 1047.3855 3502.0852 8145701
2588.45 1052.2202 3518.2507 8080165
2583.6541 1041.8795 3483.675 8277546
2629.3926 1051.9196 3517.2454 7751459
2632.6367 1044.9351 3493.8916 7883045
2663.2148 1048.8241 3506.8955 7554337
2685.5125 1049.4174 3508.8789 8014631
2697.4907 1045.9999 3497.4519 7948840
2717.05 1045.5518 3495.9536 7225630
2794.6108 1067.2611 3568.542 7158811
2830.6709 1072.9144 3587.4448 7421726
2846.3611 1070.8202 3580.4421 7158811
2860.9866 1068.3593 3572.2139 7619362
2901.8865 1075.6738 3596.6711 8079912
2913.6001 1072.142 3584.8621 8474670
2931.4795 1070.9137 3580.7549 7882277
2955.9895 1072.1079 3584.748 7487519
2974.1707 1071.006 3581.0637 8145449
2986.8801 1067.9633 3570.8899 8803379
2963.4941 1052.1482 3518.01 8474670
2982.334 1051.441 3515.6455 8474671
3044.8027 1066.0187 3564.3879 7948326
3045.158 1058.7986 3540.2466 8145960
3082.075 1064.303 3558.6511 8145959
3067.0317 1051.9114 3517.218 7948324
3096.8586 1054.9725 3527.4534 8145703
3132.5212 1059.9673 3544.1543 8211496
3154.5383 1060.309 3545.2966 8080423
3149.5747 1051.6372 3516.3015 8080680
3160.1482 1048.2334 3504.9202 8014890
3216.9668 1060.1134 3544.6428 8015402
3228.5947 1057.0438 3534.3794 7488547
3249.1089 1056.9045 3533.9133 8080685
3238.3616 1046.6631 3499.6694 8410421
3278.6194 1052.9321 3520.6311 8870972
3334.4597 1064.0946 3557.9546 8410165
3386.6099 1073.9468 3590.8967 8080944
3390.4458 1068.4503 3572.5186 7620394
3422.1428 1071.7477 3583.5435 7554600
0 0 0 0
0 0 0 0
0 0 0 0
0 0 0 0
0 0 0 0
0 0 0 0
0 0 0 0
-3036.6282 1036.2596 3397.5701 1280
-3021.6924 1038.0447 3403.4229 1280
-3006.5256 1039.7738 3409.092 1280
-2988.1807 1040.4198 3411.21 1280
-2966.0852 1039.7599 3409.0464 1280
-2944.1562 1039.1495 3407.0452 1024
-2930.5615 1041.4928 3414.728 1024
-2907.6726 1040.5426 3411.6128 1280
-2889.158 1041.1554 3413.6216 1280
-2869.7876 1041.4663 3414.6414 1280
-2853.1472 1042.7795 3418.9465 1280
-2839.4438 1045.1924 3426.8579 1280
-2825.7751 1047.6531 3434.9253 1280
-2806.7122 1048.1349 3436.5051 1280
-2789.1877 1049.2025 3440.0056 1280
-2769.688 1049.5374 3441.1035 1280
-2753.4915 1051.1382 3446.3521 1280
-2734.7837 1051.7971 3448.5125 1280
-2717.4089 1052.9824 3452.3989 1280
-2698.0034 1053.3929 3453.7449 1280
-2690.509 1058.4957 3470.4753 1280
-2670.3462 1058.6548 3470.9966 1280
-2645.4031 1056.9065 3465.2644 1536
-2633.7627 1060.4871 3477.0042 1536
-2610.187 1059.2805 3473.0483 1536
-2589.7681 1059.3461 3473.2632 1536
-2579.0994 1063.433 3486.6631 1536
-2556.7744 1062.7408 3484.3938 1280
-2536.0811 1062.7212 3484.3291 1536
-2513.7214 1061.9973 3481.9558 1536
-2501.8794 1065.7416 3494.2319 1280
-2480.0913 1065.2762 3492.7063 1280
-2462.6548 1066.6879 3497.335 1280
-2443.322 1067.2954 3499.3264 1280
-2436.0747 1073.2373 3518.8083 1024
-2417.4773 1074.2385 3522.0911 768
-2403.9048 1077.5095 3532.8152 512
-2357.9705 1066.2047 3495.7505 657920
-2367.7478 1080.114 3541.355 788736
-2387.7183 1098.9636 3603.1567 854272
-2382.6743 1106.5364 3627.9854 788224
-2371.0854 1111.1798 3643.2097 919552
-2330.0234 1101.9695 3613.012 919040
-2319.5771 1107.202 3630.168 984576
-2308.0071 1111.9911 3645.8699 983808
-2294.958 1116.1514 3659.5103 918272
-2277.325 1118.1405 3666.0317 1180928
-2254.9426 1117.8136 3664.9597 1115136
-2235.2058 1118.8042 3668.208 1246464
-2217.3403 1120.7605 3674.6221 1378305
-2193.415 1119.6621 3671.0205 1246720
-2169.4839 1118.5388 3667.3376 1378304
-2145.1831 1117.2001 3662.9485 1246464
-2119.8008 1115.2651 3656.6042 1115136
-2094.7014 1113.4406 3650.6221 1312512
-2069.8813 1111.7279 3645.0068 1312512
-2038.2418 1106.278 3627.1379 1312256
-2032.8369 1115.1027 3656.0713 1246720
-2006.2117 1112.3517 3647.0518 1115136
-1986.2363 1113.2678 3650.0559 1311744
-1965.4213 1113.7285 3651.5664 1377792
-1928.6639 1105.0651 3623.1616 1443584
-1895.3279 1098.189 3600.6167 1377792
-1893.8302 1109.814 3638.7317 1443585
-1867.2916 1106.8634 3629.0576 1246208
-1842.394 1104.8281 3622.3848 1246208
-1810.7534 1098.6537 3602.1406 1312000
-1789.9353 1098.9766 3603.1992 1246208
-1773.8965 1102.2772 3614.021 1377794
-1742.5001 1095.9988 3593.4358 1312000
-1720.7186 1095.6875 3592.4153 1312000
-1708.0806 1101.2634 3610.697 1377792
-1686.0493 1100.8479 3609.3347 1246208
-1656.0564 1095.1566 3590.6748 1180416
-1639.2634 1098.1599 3600.5217 1311232
-1617.0471 1097.5614 3598.5593 1443072
-1596.9039 1098.3729 3601.22 1311488
-1570.7399 1095.0089 3590.1907 1377280
-1547.3684 1093.5262 3585.3291 1312000
-1526.9615 1094.1265 3587.2971 1180416
-1505.3368 1093.8585 3586.4189 1377536
-1481.6521 1092.0648 3580.5378 1377536
-1458.6589 1090.736 3576.1809 1246208
-1429.5898 1084.7576 3556.5798 1377792
-1407.5854 1084.0413 3554.231 1443584
-1387.0487 1084.4506 3555.5728 1509120
-1367.282 1085.4838 3558.9604 1377792
-1343.923 1083.6528 3552.9575 1443584
-1317.8192 1079.5153 3539.3914 1575170
-1296.8046 1079.48 3539.2759 1377792
-1277.0695 1080.526 3542.7058 1443584
-1252.8964 1077.7896 3533.7336 1312000
-1225.0648 1071.7594 3513.9626 1443584
-1212.8201 1079.3927 3538.99 1509377
-1191.3525 1078.942 3537.5122 1443072
-1166.7498 1075.585 3526.5054 1377280
-1147.0476 1076.7057 3530.1797 1245696
-1123.3163 1074.0155 3521.3596 1311488
-1102.3066 1073.8751 3520.8992 1442816
-1068.4883 1061.01 3478.7188 1443072
-1056.3082 1069.5485 3506.7139 1640449
-1039.809 1073.9686 3521.2061 1640449
-1006.0699 1060.3988 3476.7146 1706242
-987.39337 1062.4696 3483.5042 1640449
-967.55945 1063.3567 3486.4128 1640450
-945.92065 1062.2557 3482.803 1574656
-925.13971 1062.0905 3482.2612 1574656
-904.99225 1062.6615 3484.1335 1574656
-887.86835 1066.8926 3498.0059 1443072
-860.43866 1058.646 3470.9678 1377280
-845.56732 1065.8251 3494.5059 1574144
-826.87305 1068.4249 3503.0298 1442816
-807.04181 1069.6517 3507.0522 1640192
-786.43829 1069.8927 3507.8423 1771779
-759.67181 1061.5349 3480.4399 1640449
-743.33887 1067.697 3500.6433 1443072
-721.95544 1066.7504 3497.5393 1442816
-702.9082 1069.3016 3505.9043 1508352
-682.80322 1070.3502 3509.3423 1574144
-658.62683 1064.8818 3491.4133 1508352
-630.3454 1052.2067 3449.8552 1442560
-609.40637 1051.3486 3447.0422 1837314
-591.04517 1055.0327 3459.1213 1770753
-570.36938 1054.7017 3458.0356 1902338
-555.42767 1065.3441 3492.929 1771009
-535.02789 1065.9363 3494.8704 1771008
-514.98865 1067.3234 3499.4182 1771264
-496.51999 1072.2184 3515.4675 1771008
-472.47476 1064.9724 3491.7102 1705472
-452.086 1065.6821 3494.0371 2034436
-432.69904 1068.9346 3504.7009 1968643
-416.28131 1080.22 3541.7021 1837057
-396.87714 1084.5427 3555.8752 2034436
-373.76135 1078.6387 3536.5176 1902849
-349.40408 1068.2378 3502.4163 1836800
-332.76678 1081.6161 3546.2795 1968641
-312.2244 1083.2493 3551.6345 1837056
-287.62183 1070.0138 3508.2395 1836544
-273.19604 1095.5255 3591.884 1902080
-252.02351 1096.0074 3593.4644 2230787
-228.05545 1083.2991 3551.7976 2493702
-206.23135 1079.2264 3538.4446 2559238
-186.9146 1088.8378 3569.9575 2559494
-165.53683 1087.3644 3565.1262 2559749
-143.63733 1081.5311 3546.0012 2362627
-123.61842 1090.2853 3574.7031 2296577
-102.96671 1095.9247 3593.1931 2361600
-81.623703 1095.2284 3590.9099 2493184
-59.691692 1083.3512 3551.9683 2624513
-38.610256 1082.3811 3548.7881 2755842
-17.737892 1091.962 3580.2007 2623745
3.4982057 1098.8636 3602.8291 2821379
24.880457 1100.3693 3607.7654 3018757
46.257034 1100.3484 3607.6968 3280642
67.195839 1093.2184 3584.3198 4069125
88.193756 1090.2439 3574.5674 5975061
109.68948 1093.3837 3584.8616 7553827
130.46028 1089.4508 3571.9673 8738092
151.21361 1086.4905 3562.261 9000751
173.54001 1094.1736 3587.4517 9001007
194.56613 1092.8762 3583.198 8605993
216.70839 1097.4868 3598.3145 8737579
237.30495 1094.1444 3587.356 8802602
260.827 1103.7312 3618.7883 8605478
281.40112 1100.3347 3607.6519 8408869
302.98123 1101.0736 3610.0747 9461301
324.15265 1100.3278 3607.6292 8277284
346.07141 1102.0541 3613.2893 8277027
368.64093 1105.5309 3624.6887 8737064
391.73737 1110.1179 3639.7283 9000236
410.1076 1101.532 3611.5774 6698255
434.27151 1108.5875 3634.7104 9132593
450.30978 1095.2135 3590.8611 8935213
470.31247 1092.2533 3581.1558 8737834
492.42563 1094.2385 3587.6648 8934957
514.57068 1096.1273 3593.8574 8671785
536.16003 1096.7294 3595.8313 9066799
554.74701 1091.3787 3578.2881 8934701
577.86273 1095.0035 3590.1729 9131567
599.05939 1094.8635 3589.7141 9065773
618.09003 1090.9103 3576.7524 8934444
644.33856 1099.5361 3605.0337 8736808
665.38202 1099.0112 3603.3127 8934444
687.61047 1100.4153 3607.9165 8539429
707.96429 1098.8252 3602.7029 9066029
726.92706 1095.2323 3590.9229 9131566
749.59161 1097.2625 3597.5791 8934444
778.92163 1108.6675 3634.9724 8736808
799.3302 1107.1022 3629.8406 8539429
816.22516 1100.8801 3609.4404 9131566
833.7464 1095.7988 3592.7803 8802601
862.54248 1105.4202 3624.3257 8671015
886.62024 1108.6741 3634.9941 9131822
897.28516 1095.3993 3591.4702 8737064
919.19904 1096.1541 3593.9451 9066029
946.71234 1103.401 3617.7053 9000237
966.70715 1101.7579 3612.3186 8539429
982.79272 1095.8274 3592.874 8144928
1002.1746 1093.7458 3586.0491 8736808
1034.4612 1105.542 3624.7251 8868650
1046.0106 1095.1471 3590.6436 8802601
1071.4191 1099.3875 3604.5464 8802857
1097.0442 1103.6801 3618.6204 8671015
1114.6715 1099.916 3606.2793 9000236
1128.4739 1092.5902 3582.2605 8934187
1157.3804 1099.8889 3606.1907 9000236
1171.3486 1092.9843 3583.552 8868650
1192.2566 1092.6854 3582.5725 8671015
1212.5173 1091.8142 3579.7161 8868650
1233.1741 1091.3235 3578.1069 8802858
1250.3337 1087.8069 3566.5771 8539687
1272.082 1088.333 3568.302 8737066
1295.8608 1090.5507 3575.5732 8671529
1316.8347 1090.3744 3574.9954 8539943
1335.1405 1088.0294 3567.3071 8342564
1339.8467 1074.8479 3524.0886 8210722
1359.1732 1073.6194 3520.061 8211492
1361.6331 1059.3064 3473.1331 8211235
1400.8903 1073.6206 3520.0647 8473894
1434.7211 1083.417 3552.1843 8868651
1444.5631 1075.0771 3524.8406 8802602
1464.5704 1074.4325 3522.7268 9066031
1501.8419 1086.2932 3561.6145 9131567
1517.9796 1082.7509 3550.0002 9263409
1535.7543 1080.457 3542.4792 9131823
1554.0699 1078.6003 3536.3921 9263153
1598.5551 1094.7145 3589.2253 9263409
1603.1002 1083.413 3552.1711 8802602
1626.6644 1085.0914 3557.6743 8605479
1632.9427 1075.3438 3525.7146 8802858
1666.8457 1083.8041 3553.4534 8605223
1671.3062 1073.1483 3518.5166 8868652
1677.7596 1064.019 3488.5845 8605479
1702.3192 1066.455 3496.571 8144928
1738.8276 1076.2278 3528.6133 8605223
1764.3092 1079.0248 3537.7837 8539430
1792.0875 1083.1442 3551.2896 8540457
1808.6261 1080.4534 3542.4673 8474663
1811.9656 1070.0298 3508.2917 7487513
1852.7841 1081.7242 3546.634 8145442
1866.1088 1077.2847 3532.0781 8474410
1874.6331 1070.2028 3508.8591 7816480
1924.9615 1086.8802 3563.5391 8408360
1943.4154 1085.3938 3558.6658 8934960
1951.4349 1078.1742 3534.9949 8934704
1977.8391 1081.1577 3544.7766 8868911
1998.8431 1081.1577 3544.7766 8934704
2017.7028 1080.0098 3541.0127 8474153
2049.8274 1085.9126 3560.3667 8342567
2075.8977 1088.5208 3568.9177 8737581
2090.5195 1085.1335 3557.812 8671788
2101.8552 1080.1251 3541.3914 8672301
2128.7175 1083.116 3551.1975 7553821
2158.7288 1087.6349 3566.0134 8935472
2169.1321 1082.2828 3548.4658 9001266
2180.4314 1077.4762 3532.7063 8935473
2180.2561 1067.1448 3498.8328 8737838
2196.1799 1064.8136 3491.1895 8606252
2242.0278 1076.8989 3530.8137 8869680
2274.0303 1082.1722 3548.1033 8672300
2293.9915 1081.6711 3546.4602 8277544
2292.7717 1071.2825 3512.3992 8672045
2310.5234 1069.8654 3507.7527 8738094
2352.1079 1079.4106 3539.0483 8277543
2358.6016 1072.8257 3517.4587 8014115
2368.9973 1068.1157 3502.0159 8277544
2407.1118 1075.8765 3527.4612 8606254
2426.0774 1075.0186 3524.6484 8540458
2454.0029 1078.1117 3534.7898 8145958
2457.1782 1070.371 3509.4106 8014371
2461.3467 1063.1892 3485.8638 7620127
2485.1733 1064.5477 3490.3179 8738094
2516.4885 1069.0653 3505.1294 8014372
2529.3376 1065.7281 3494.188 8014372
2541.0391 1061.9656 3481.8516 7882529
2561.8442 1062.0375 3482.0876 8211494
2573.6875 1058.423 3470.2363 8080164
2586.572 1055.2903 3459.9658 8080165
2601.8867 1053.1908 3453.082 7620640
2629.8008 1056.1841 3462.8962 7291165
2658.9492 1059.623 3474.1711 8014631
2670.8765 1056.199 3462.9448 7883301
2691.3958 1056.199 3462.9448 8080167
2747.4165 1070.0255 3508.2778 7948323
2727.1797 1054.1677 3456.2852 7487776
2774.666 1064.5292 3490.2568 7224602
2824.6096 1075.6729 3526.7937 7224603
2856.6353 1079.8795 3540.5859 7553567
2840.2212 1065.8469 3494.5774 7882276
2873.8657 1070.6669 3510.3806 8014117
2895.0623 1070.8134 3510.8608 7619359
2905.2285 1066.9071 3498.0535 7685154
2900.5977 1057.6606 3467.7373 7553312
2922.1887 1058.0385 3468.9758 7487519
2931.8464 1054.1204 3456.1296 7816741
2941.4255 1050.2286 3443.3699 7948327
2978.1226 1056.0061 3462.3125 8935476
2981.7559 1050.0608 3442.8196 7421727
3015.3677 1054.6819 3457.9707 7685155
3022.7871 1050.1411 3443.083 8079657
3047.123 1051.4987 3447.5342 8145449
3080.3896 1055.8995 3461.9631 8080169
3096.072 1054.2545 3456.5696 7685668
3082.7441 1042.8175 3419.0713 7554338
3093.238 1039.5356 3408.311 7422753
3133.0964 1046.1008 3429.8364 7422498
3158.4978 1047.7855 3435.3599 7817256
3153.3999 1039.3956 3407.8518 7817256
3232.7981 1058.7861 3471.4272 7883305
3273.3862 1065.3011 3492.7878 7685672
3335.4771 1078.6881 3536.6794 7356707
3350.4624 1076.769 3530.3877 7225378
3374.9695 1077.915 3534.1453 7422756
0 0 0 0
0 0 0 0
0 0 0 0
0 0 0 0
0 0 0 0
0 0 0 0
0 0 0 0
-2969.5234 1033.0471 3322.4893 1280
-2963.2649 1037.7498 3337.614 1280
-2940.7969 1036.8009 3334.5623 1280
-2923.7893 1037.7775 3337.7031 1280
-2897.5354 1035.4629 3330.259 1280
-2878.3743 1035.6687 3330.9211 1280
-2864.0007 1037.6119 3337.1707 1280
-2848.2581 1039.0826 3341.9009 1280
-2833.2429 1040.8412 3347.5566 1280
-2815.6194 1041.6595 3350.1887 1280
-2789.9697 1039.4991 3343.2405 1280
-2773.7024 1040.8285 3347.5161 1280
-2764.3562 1044.793 3360.2664 1280
-2742.0608 1043.8851 3357.3467 1280
-2731.7607 1047.564 3369.1787 1280
-2706.7124 1045.5999 3362.8616 1280
-2692.9561 1048.0011 3370.5842 1280
-2679.4626 1050.5411 3378.7537 1280
-2661.6321 1051.4062 3381.5359 1280
-2645.0061 1052.7638 3385.9023 1280
-2630.4744 1054.9821 3393.0366 1280
-2610.1458 1054.8917 3392.7463 1536
-2589.8328 1054.8065 3392.4719 1536
-2577.8259 1058.1292 3403.1584 1536
-2555.323 1057.1619 3400.0476 1536
-2535.0508 1057.1096 3399.8792 1280
-2525.2476 1061.457 3413.8613 1280
-2505.0979 1061.4905 3413.9688 1280
-2483.3669 1060.8488 3411.9053 1280
-2469.5435 1063.6024 3420.7612 1280
-2449.3474 1063.6342 3420.8635 1024
-2425.1699 1061.9232 3415.3606 1024
-2417.5149 1067.4791 3433.2297 768
-2387.658 1063.2424 3419.604 768
-2378.2825 1068.1322 3435.3301 512
-2362.1216 1070.0323 3441.4414 256
-2353.7419 1075.5214 3459.095 329216
-2357.8064 1086.8428 3495.5071 657152
-2342.7224 1089.4601 3503.925 722688
-2349.2158 1102.2485 3545.0549 1051651
-2321.0393 1098.8536 3534.1365 1248260
-2308.9097 1103.0634 3547.6758 985089
-2292.0093 1105.0503 3554.0662 984320
-2259.0796 1099.2739 3535.4883 918784
-2252.0127 1106.0924 3557.418 1049856
-2239.5286 1110.3536 3571.123 1049856
-2214.3218 1108.3284 3564.6094 1246720
-2202.5398 1113.0482 3579.7893 1049344
-2179.8667 1112.3025 3577.3909 1049344
-2158.7847 1112.3621 3577.5823 983552
-2134.217 1110.6089 3571.9436 983552
-2110.6868 1109.3658 3567.9458 983552
-2095.2905 1112.416 3577.7559 1049088
-2066.7844 1108.4973 3565.1523 1049344
-2022.264 1095.8198 3524.3792 1049344
-2011.2819 1101.241 3541.8147 983552
-1993.0007 1102.7379 3546.6294 1115136
-1975.6791 1104.8035 3553.2722 1246720
-1957.5183 1106.4391 3558.533 983808
-1934.8021 1105.5074 3555.5366 1048832
-1901.1877 1098.2598 3532.2266 983040
-1882.017 1099.2872 3535.5312 1114624
-1852.9307 1094.4811 3520.0735 1114368
-1830.8964 1093.7781 3517.8127 1377793
-1813.1625 1095.6578 3523.8584 1377792
-1794.608 1097.0797 3528.4314 1509120
-1776.947 1099.0878 3534.8894 1312000
-1751.5291 1096.2883 3525.8862 1246208
-1730.6018 1096.2664 3525.8152 1246208
-1707.0701 1094.5735 3520.3708 1311744
-1685.9913 1094.4314 3519.9138 1377793
-1664.168 1093.7961 3517.8706 1246464
-1646.4536 1095.8796 3524.5718 1114624
-1626.5055 1096.511 3526.6023 1180416
-1602.8004 1094.5929 3520.4333 1180416
-1581.9365 1094.5902 3520.4248 1180416
-1558.8806 1093.0505 3515.4724 1114624
-1537.4816 1092.6465 3514.1731 1377536
-1520.1451 1095.1583 3522.2517 1509121
-1485.7207 1085.2578 3490.4099 1575169
-1468.9907 1088.1854 3499.8257 1443584
-1446.9362 1087.1962 3496.6436 1443328
-1418.1694 1081.0614 3476.9131 1377792
-1399.042 1082.2021 3480.582 1312000
-1374.1146 1078.8234 3469.7153 1443584
-1354.2924 1079.411 3471.605 1312000
-1337.5677 1082.5237 3481.616 1509377
-1314.2218 1080.291 3474.4355 1509377
-1292.3951 1079.2562 3471.1074 1640963
-1266.038 1074.3434 3455.3066 1509121
-1247.0543 1075.629 3459.4414 1443584
-1225.6178 1074.8064 3456.7957 1246208
-1201.3237 1071.4073 3445.8638 1312000
-1183.1633 1073.4557 3452.4519 1377792
-1160.9254 1071.8118 3447.1643 1377536
-1140.2848 1071.61 3446.5154 1377536
-1109.6453 1061.8326 3415.0696 1443328
-1096.1982 1068.4495 3436.3503 1377280
-1067.1317 1059.8044 3408.5464 1377280
-1054.5754 1067.5391 3433.4226 1508864
-1031.514 1064.7345 3424.4026 1508608
-1011.7844 1065.3256 3426.3035 1377280
-985.85089 1059.2749 3406.8433 1574400
-966.20746 1059.8711 3408.7607 1508864
-946.54449 1060.4708 3410.6895 1377280
-926.34082 1060.4777 3410.7117 1508864
-907.10425 1061.6168 3414.3752 1311488
-887.98047 1062.9427 3418.6399 1640193
-861.99884 1055.9299 3396.0854 1508864
-846.50696 1061.7388 3414.7676 1443072
-827.39227 1063.1769 3419.3931 1508864
-803.09015 1057.8541 3402.2739 1245696
-785.31256 1061.073 3412.6262 1639936
-771.42981 1069.8635 3440.8984 1640193
-748.91089 1066.829 3431.1389 1705729
-720.73761 1055.3457 3394.2063 1376768
-705.22015 1062.2665 3416.4648 1574144
-688.28717 1067.4011 3432.9788 1508352
-665.52551 1063.5341 3420.5415 1639936
-644.48016 1062.2528 3416.4211 1639937
-620.95178 1056.6633 3398.4441 1639936
-601.07953 1057.1293 3399.9426 1442560
-574.36707 1045.1803 3361.5122 983040
-554.44873 1045.1803 3361.5122 1902852
-534.93262 1045.9666 3364.0413 1770753
-519.89581 1055.9114 3396.0256 1771009
-502.48062 1061.6321 3414.4243 1705472
-483.21826 1063.7664 3421.2886 1902594
-462.41446 1062.5454 3417.3621 1771264
-442.63538 1063.6753 3420.9958 1771264
-423.67505 1066.9755 3431.6099 1837057
-403.59305 1067.6411 3433.751 2166022
-385.13748 1072.9086 3450.6919 2034436
-364.75253 1073.0903 3451.2766 1902850
-346.20703 1079.0267 3470.3691 1837057
-323.57294 1072.1652 3448.3013 1837058
-300.63461 1063.3026 3419.7974 1902850
-281.09857 1066.0623 3428.6729 1771521
-265.04315 1083.4802 3484.6926 1902592
-244.94781 1085.9313 3492.5757 1704704
-221.78378 1073.9747 3454.1208 1901824
-200.57628 1070.0247 3441.4167 1902080
-181.17838 1075.9269 3460.3992 2033664
-161.04871 1078.4352 3468.4666 2164994
-140.43047 1077.9271 3466.8325 2625031
-120.438 1082.8713 3482.7344 2493955
-100.27955 1088.0594 3499.4202 2362370
-78.750893 1077.2097 3464.5254 2362371
-58.785168 1087.6257 3498.0254 2625285
-38.349689 1095.9628 3524.8389 2691591
-17.222698 1080.8441 3476.2146 2624770
3.4051194 1090.4032 3506.9585 2887428
24.302513 1095.6899 3523.9614 2821892
44.971748 1090.5574 3507.4541 2821122
65.132912 1080.2428 3474.2805 3083779
85.810684 1081.3929 3477.9795 3214336
105.69574 1074.0424 3454.3384 4528903
124.44053 1059.3696 3407.1479 6172946
145.22777 1063.7537 3421.2478 7882276
166.69417 1071.4288 3445.9331 8868911
188.55132 1079.6666 3472.427 8672043
210.70544 1087.8167 3498.6392 8540456
230.80482 1084.8484 3489.093 8540456
252.13799 1087.6908 3498.2346 8803628
272.21991 1085.1136 3489.946 8013856
296.34399 1097.8755 3530.9907 8211235
319.56287 1105.8218 3556.5476 7553562
336.71866 1093.1021 3515.6384 8408614
360.83881 1103.1559 3547.9736 8474663
381.10263 1100.9622 3540.9182 8013855
403.04587 1103.5961 3549.3892 7685147
423.55289 1102.2311 3544.999 7948062
440.15332 1091.309 3509.8716 8211235
456.03076 1079.6609 3472.4089 7750940
479.47464 1086.1589 3493.3079 9000750
496.94727 1079.1521 3470.7725 9132593
527.02679 1098.9908 3534.5779 8869165
549.07031 1101.1964 3541.6716 7750171
561.69647 1085.0477 3489.7341 7618585
583.40381 1086.9655 3495.9019 7553048
602.06567 1083.2721 3484.0232 8342307
622.36792 1082.6771 3482.1096 8737578
649.37738 1093.4139 3516.6411 8869420
672.18469 1096.6274 3526.9768 8935213
688.48688 1089.3546 3503.5859 8999981
711.37872 1092.6287 3514.116 9000237
731.54028 1091.6423 3510.9438 9066029
751.31775 1090.1533 3506.1545 8999980
779.60071 1100.7535 3540.2471 8605221
798.39539 1097.7524 3530.595 8605222
824.72876 1105.0052 3553.9214 7618585
839.98846 1097.4293 3529.5557 8013343
853.16699 1087.5686 3497.8416 8473894
874.86823 1088.7822 3501.7446 8473636
894.56012 1087.4966 3497.6101 8539429
915.12762 1087.3099 3497.0095 8737065
936.66266 1088.2555 3500.0505 8539429
952.46063 1082.6388 3481.9866 9000236
979.08807 1089.3091 3503.4392 8934444
995.02509 1084.0554 3486.5422 8737064
1013.8304 1082.0767 3480.1785 9065773
1045.4026 1093.5316 3517.0198 8868651
1066.9845 1094.2926 3519.4675 9328945
1077.6407 1084.0342 3486.4741 8868394
1109.833 1095.4178 3523.0864 9065773
1124.5953 1089.4955 3504.0386 8868650
1141.2256 1085.5643 3491.3953 8934187
1166.4768 1089.8278 3505.1074 8737064
1186.1256 1088.7993 3501.7998 8736808
1210.3914 1091.9714 3512.002 8671015
1222.7529 1084.4784 3487.9028 8869164
1238.0059 1079.7562 3472.7153 8540199
1257.3223 1078.6744 3469.2363 8869165
1280.2242 1080.6543 3475.6038 8803372
1296.3888 1076.9742 3463.7681 9066801
1310.9393 1072.0889 3448.0557 9000751
1319.7156 1062.7039 3417.8713 8540200
1353.9818 1073.8181 3453.6172 8343077
1367.9113 1068.7128 3437.1973 9197617
1388.0807 1068.5608 3436.7087 8868395
1414.7504 1073.3448 3452.0952 8736809
1440.6808 1077.4398 3465.2654 8802858
1453.9028 1072.0488 3447.927 8868395
1484.2155 1079.2347 3471.0381 8539687
1508.2258 1081.7041 3478.9802 8473894
1527.2969 1080.6122 3475.4683 8144929
1552.963 1084.1534 3486.8577 8802859
1559.4299 1074.3744 3455.4062 8605479
1585.0234 1077.8552 3466.6016 8802858
1593.4232 1069.7046 3440.3875 9197360
1620.0273 1073.8264 3453.644 8868652
1626.325 1064.5533 3423.8198 8671273
1650.0187 1066.7554 3430.9021 8868397
1670.1923 1066.6559 3430.582 8802604
1699.9142 1072.5834 3449.646 8276260
1716.7848 1070.3575 3442.4875 7947809
1737.8036 1070.7401 3443.7178 8079652
1763.0837 1073.7089 3453.2659 8671789
1776.332 1069.3661 3439.2988 9066292
1801.5756 1072.2612 3448.6101 7026708
1841.6064 1083.7939 3485.7014 7882018
1833.6555 1067.1464 3432.1594 7948068
1863.2637 1072.4828 3449.3225 8277032
1872.3252 1066.0052 3428.4895 9000753
1911.4418 1076.5948 3462.5479 8605739
1937.1646 1079.4958 3471.8779 8605996
1959.3639 1080.3929 3474.7632 8934960
1977.5846 1079.1006 3470.6067 8605739
1993.0309 1076.3362 3461.7161 8474153
2005.2222 1071.8884 3447.4109 8145444
2019.3156 1068.5369 3436.6316 8803632
2052.429 1075.2162 3458.1138 8539946
2080.4084 1079.1006 3470.6069 8145188
2096.6541 1076.8823 3463.4722 8079651
2117.688 1077.1423 3464.3086 7816223
2143.6511 1079.8807 3473.1157 8868911
2128.9382 1062.2709 3416.479 8145445
2172.9617 1074.0243 3454.2803 8737581
2199.3193 1076.9081 3463.5552 8672301
2220.3469 1077.153 3464.343 8672302
2238.6487 1076.0831 3460.9019 8803631
2230.3823 1062.3777 3416.8223 7948322
2276.5669 1074.6215 3456.2009 8343337
2297.7769 1074.9633 3457.3003 8014372
2340.0366 1085.0597 3489.7725 7751201
2366.4946 1087.7162 3498.3164 7619616
2365.2563 1077.707 3466.1248 8211496
2384.8857 1077.2965 3464.8044 8145701
2404.8113 1077.0256 3463.9333 8145701
2425.6084 1077.1464 3464.3215 8014372
2443.0186 1075.7737 3459.9067 7948578
2471.4026 1079.2159 3470.9778 8343081
2480.2937 1074.1594 3454.7148 8013858
2516.1453 1080.766 3475.9631 7290135
2511.1968 1069.8827 3440.9602 7816736
2527.5239 1068.1661 3435.4392 7816736
2518.3904 1055.8029 3395.6765 8211751
2546.2412 1059.0178 3406.0166 8079908
2533.1118 1045.2721 3361.8076 8606509
2562.6633 1049.2155 3374.4902 7948325
2615.0881 1062.3903 3416.8628 8014631
2619.0483 1055.8247 3395.7468 7949095
2659.6531 1064.0193 3422.1023 8014887
2684.3315 1065.7667 3427.7224 8080424
2700.6497 1064.1935 3422.6626 8079912
2710.3884 1060.0704 3409.4019 8211752
2738.0376 1062.9615 3418.7004 7685152
2743.72 1057.3447 3400.6357 8211496
2786.9055 1066.1573 3428.9785 8080167
2831.3467 1075.319 3458.4443 7619616
2838.7253 1070.3741 3442.5408 7751202
2837.2163 1062.1727 3416.1631 8079910
2856.2791 1061.7343 3414.7532 8145960
2879.5901 1062.87 3418.406 8145960
2877.3662 1054.6309 3391.907 8080166
2875.5876 1046.668 3366.2969 8342829
2867.8887 1036.6748 3334.1565 8408622
2915.9766 1046.8458 3366.8691 7290653
2965.3823 1057.3486 3400.6482 7553825
2981.1948 1055.8125 3395.7075 8014633
2986.3413 1050.5447 3378.7654 8079656
3005.6284 1050.2885 3377.9412 8145705
3032.8127 1052.7769 3385.9443 8014890
3041.3901 1048.816 3373.2056 7488289
3065.5273 1050.2378 3377.7781 7948840
3064.553 1043.0936 3354.801 7751462
3087.9575 1044.286 3358.636 7883561
3119.3284 1048.14 3371.0312 7817770
3195.7102 1066.973 3431.6018 7817514
3225.4526 1070.0946 3441.6416 9989712
3252.3193 1072.2288 3448.5054 8410165
3235.0098 1059.863 3408.7351 7751721
3269.3345 1064.4625 3423.5278 7422756
0 0 0 0
0 0 0 0
0 0 0 0
0 0 0 0
0 0 0 0
0 0 0 0
0 0 0 0
-2936.3882 1040.9873 3285.4155 1280
-2916.6926 1040.9059 3285.1584 1280
-2899.9929 1041.8997 3288.2949 1280
-2883.302 1042.9102 3291.4841 1280
-2859.0862 1041.1938 3286.0676 1280
-2838.23 1040.6862 3284.4651 1280
-2823.4985 1042.4326 3289.9768 1280
-2811.2261 1045.1174 3298.4504 1280
-2789.9729 1044.4779 3296.4319 1280
-2773.1726 1045.5079 3299.6829 1280
-2757.0188 1046.7982 3303.7551 1280
-2739.4128 1047.5515 3306.1328 1280
-2723.7061 1049.0472 3310.8533 1280
-2707.2114 1050.259 3314.6775 1280
-2690.3848 1051.3588 3318.1484 1280
-2678.6912 1054.4952 3328.0476 1280
-2663.7891 1056.406 3334.0779 1280
-2646.9272 1057.5623 3337.7271 1280
-2630.551 1058.9314 3342.0481 1280
-2615.2283 1060.7485 3347.7832 1280
-2595.5715 1060.8223 3348.0159 1280
-2575.5554 1060.749 3347.7847 1280
-2557.8857 1061.6486 3350.6238 1280
-2542.5886 1063.5546 3356.6392 1536
-2521.2361 1062.9377 3354.6924 1536
-2505.0881 1064.5228 3359.6951 1280
-2492.1775 1067.52 3369.1541 1280
-2466.8818 1065.2175 3361.8875 1280
-2448.7009 1065.9747 3364.2773 1280
-2434.5242 1068.502 3372.2534 1280
-2417.3276 1069.7346 3376.1436 1024
-2390.7458 1066.7998 3366.8813 1024
-2377.2451 1069.702 3376.0408 768
-2351.5779 1067.1322 3367.9302 768
-2340.2893 1071.0992 3380.4507 197632
-2380.2446 1098.7904 3467.8455 66048
-2311.9109 1076.5393 3397.6196 592128
-2291.7786 1076.5393 3397.6196 657152
-2290.1296 1085.2985 3425.2642 920322
-2303.697 1101.49 3476.3655 1117700
-2281.0791 1100.5159 3473.291 1050881
-2267.8496 1104.0947 3484.5862 853504
-2250.3176 1105.6255 3489.4175 1116161
-2230.855 1106.2273 3491.3167 1116161
-2214.281 1108.2861 3497.8147 1181954
-2191.9978 1107.4993 3495.3311 1378563
-2177.2495 1110.5409 3504.9307 1181441
-2156.5491 1110.5758 3505.0408 1049856
-2135.2937 1110.3226 3504.2419 918272
-2113.7693 1109.9233 3502.9817 984320
-2081.0554 1103.5824 3482.9695 1115136
-2075.3032 1111.5554 3508.1326 1115136
-2035.9141 1101.4912 3476.3694 1246720
-1996.9797 1091.4698 3444.7412 1180928
-1990.3094 1099.0576 3468.689 1114880
-1971.5657 1100.0674 3471.8757 983552
-1954.9857 1102.3184 3478.98 1246720
-1940.3053 1105.7001 3489.6526 1246720
-1921.9443 1107.0343 3493.8638 1114880
-1899.5676 1106.0596 3490.7871 1245952
-1868.6987 1100.0641 3471.8652 1245952
-1850.6825 1101.5854 3476.6667 983296
-1818.5297 1094.6318 3454.7207 851968
-1810.5238 1102.2201 3478.6699 1114624
-1790.9993 1102.8901 3480.7847 1245952
-1758.9388 1095.7662 3458.301 1312001
-1741.9178 1097.9541 3465.2058 1246208
-1717.6052 1095.543 3457.5964 1114624
-1703.6816 1099.7804 3470.9697 1114624
-1682.7693 1099.5546 3470.2571 1246208
-1670.1522 1104.8107 3486.8457 1180416
-1635.2473 1095.2701 3456.7354 1114624
-1619.1807 1098.2654 3466.1885 1048832
-1595.6753 1096.2273 3459.7559 1048832
-1575.7368 1096.6184 3460.9905 1180416
-1554.7769 1096.2994 3459.9839 1246208
-1533.1899 1095.524 3457.5366 983296
-1511.5303 1094.675 3454.8572 1114368
-1487.5413 1092.0927 3446.7068 1377792
-1467.8149 1092.6113 3448.3438 1377793
-1436.8182 1084.6367 3423.1755 1312000
-1427.8215 1093.2792 3450.4517 1246208
-1391.5328 1080.9718 3411.6086 1377792
-1373.4879 1082.6824 3417.0076 1312000
-1350.366 1080.3823 3409.7485 1312000
-1333.2252 1082.8705 3417.6013 1246208
-1314.1718 1083.8579 3420.7175 1312000
-1294.2173 1084.1215 3421.5493 1377792
-1268.8483 1079.7856 3407.8655 1706756
-1249.3417 1080.3792 3409.7388 1377792
-1227.9479 1079.3334 3406.438 1509377
-1205.785 1077.5656 3400.8586 1180416
-1183.7881 1075.8882 3395.5649 1180416
-1164.1348 1076.3198 3396.927 1114880
-1142.3634 1074.7738 3392.0476 1311488
-1123.0652 1075.5409 3394.4688 1311488
-1102.12 1074.73 3391.9094 1245952
-1076.6901 1069.4344 3375.1963 1311744
-1056.486 1069.2273 3374.5425 1311744
-1033.2893 1065.925 3364.1204 1640706
-1013.3373 1065.9059 3364.0598 1311744
-996.2807 1068.9926 3373.8018 1377280
-974.23279 1066.7405 3366.6941 983040
-950.10406 1062.0682 3351.9482 1508864
-932.44147 1064.579 3359.8721 1640449
-909.14453 1060.6261 3347.3965 1640449
-889.06348 1060.3322 3346.4688 1377280
-873.32269 1065.3193 3362.209 1508608
-853.26526 1065.1508 3361.6768 1508864
-832.52649 1064.1034 3358.3713 1508864
-810.72955 1061.619 3350.5305 1377280
-797.08472 1069.9528 3376.8323 1377280
-778.00983 1071.2391 3380.8918 1377280
-758.86871 1072.4998 3384.8708 1508864
-739.17371 1073.0249 3386.5278 1640449
-713.86145 1065.1974 3361.824 1574400
-691.13348 1060.8875 3348.2214 1574400
-674.73572 1066.3267 3365.3879 1705729
-654.68414 1066.1471 3364.8213 1705730
-638.27557 1072.0751 3383.5305 1771522
-614.23846 1065.1589 3361.7024 1771522
-591.94452 1060.9032 3348.2712 1771522
-570.81775 1058.5168 3340.7397 1771522
-549.44305 1055.4827 3331.1636 1837314
-530.26532 1056.5999 3334.6897 1771521
-512.58344 1060.8998 3348.2603 1705729
-496.22906 1068.4039 3371.9441 1705472
-478.33276 1073.0787 3386.698 1837057
-458.49164 1073.609 3388.3716 2034693
-436.54498 1069.0316 3373.925 1902850
-414.31714 1063.2932 3355.8142 1771265
-395.3042 1065.6428 3363.2297 1836800
-376.73047 1069.4888 3375.3679 1902850
-357.69901 1072.3938 3384.5364 1968641
-338.60574 1075.4475 3394.1738 2166020
-315.96609 1066.912 3367.2354 1771264
-294.93976 1063.0406 3355.0171 1902594
-276.83313 1069.8936 3376.6455 1705472
-259.98636 1083.0626 3418.2078 1837056
-240.82547 1088.0023 3433.7976 1705472
-219.09311 1081.1642 3412.2158 1836544
-198.62363 1079.801 3407.9138 1902336
-178.49614 1080.1991 3409.1699 2033665
-158.23349 1079.7762 3407.8357 2164993
-136.65384 1068.9281 3373.5981 2165506
-117.97952 1080.9823 3411.6421 2362372
-98.488319 1088.9891 3436.9124 2296578
-77.508919 1080.426 3409.8862 2362371
-57.730869 1088.4749 3435.2891 2362370
-37.45013 1090.6511 3442.1575 2362114
-17.106277 1093.9966 3452.7161 2690563
3.3345563 1088.1567 3434.2852 2624513
23.733116 1090.41 3441.3962 2755842
43.901634 1084.8959 3423.9934 2756099
64.533379 1090.6964 3442.3003 2887172
84.573723 1086.116 3427.8442 2624001
104.25507 1079.5922 3407.2546 3017216
123.24945 1069.2253 3374.5366 3870721
141.65317 1057.344 3337.0381 5974798
164.47321 1077.3002 3400.021 7355673
182.21632 1063.2758 3355.7595 8211234
204.78101 1077.3781 3400.2671 8935213
228.01732 1092.1709 3446.9541 8869164
247.60115 1088.4749 3435.2891 8803627
268.53622 1090.8295 3442.7202 9264179
291.93063 1102.1362 3478.405 8540456
311.04633 1096.8634 3461.7637 8343077
329.48184 1089.9928 3440.0796 8145698
352.63733 1098.6277 3467.332 8014113
373.18268 1098.6277 3467.332 8408613
397.18323 1108.2689 3497.7603 8408614
414.46002 1099.1229 3468.8948 8540200
435.28839 1099.8145 3471.0774 7882270
452.03537 1090.5969 3441.9863 8211491
472.01285 1089.6328 3438.9436 8343077
493.47202 1092.0273 3446.5007 8277284
516.02405 1096.5538 3460.7866 8343077
531.61304 1086.5034 3429.0669 8277284
555.88477 1094.2853 3453.627 8935215
575.03314 1091.7871 3445.7427 9461302
593.99487 1089.1179 3437.3188 9132593
615.6817 1091.4568 3444.7004 8671786
635.56378 1090.5491 3441.8352 8605736
656.0415 1090.6877 3442.2729 8473637
678.55157 1094.0951 3453.0269 8539429
696.39062 1089.9918 3440.0769 8671271
721.35364 1096.9554 3462.0542 8999980
739.30872 1093.1716 3450.1121 8605478
764.63623 1100.1992 3472.2917 8737064
781.03522 1094.3484 3453.8262 9460788
800.86517 1093.481 3451.0884 8539686
815.90503 1086.2793 3428.3594 8276513
833.38239 1082.5938 3416.7278 8407844
857.22656 1087.1577 3431.1318 8539685
873.81409 1082.5203 3416.4961 8671271
897.71881 1086.9525 3430.4844 8934187
922.75781 1092.5316 3448.092 9065773
945.87537 1095.6432 3457.9124 8671015
967.03931 1096.4078 3460.3257 8671272
983.88367 1092.3448 3447.5029 8539686
1003.7707 1091.7566 3445.6465 8605479
1029.163 1097.0603 3462.3853 8539429
1045.9532 1093.1664 3450.0957 8802857
1068.7528 1095.5819 3457.7192 8539429
1087.3472 1093.6769 3451.707 8473892
1110.2942 1096.1393 3459.4785 8407843
1136.2817 1101.46 3476.2705 8736808
1151.881 1096.7003 3461.249 8144927
1173.4045 1097.6489 3464.2432 8342050
1187.1772 1091.4395 3444.6455 8407843
1204.4736 1088.6245 3435.7612 8605222
1221.3318 1085.5135 3425.9429 8671015
1237.6628 1082.0436 3414.9915 8605222
1255.2307 1079.7491 3407.7502 9131823
1270.0654 1075.2135 3393.4355 8802602
1293.668 1078.1263 3402.6284 8999981
1310.374 1075.2904 3393.6782 9000237
1328.5352 1073.7163 3388.7102 8802602
1347.382 1072.7347 3385.6125 8868395
1362.874 1069.1505 3374.3003 8407844
1381.8707 1068.3794 3371.8667 8408100
1405.7474 1071.3495 3381.2402 8802858
1437.9594 1080.4991 3410.1172 9131566
1461.4172 1082.9086 3417.7214 9197359
1486.2878 1086.2847 3428.3765 8671015
1502.2314 1083.1332 3418.4302 7947550
1509.5981 1073.9636 3389.491 8013343
1535.2188 1077.8508 3401.7588 8473893
1543.9149 1069.9087 3376.6931 8802602
1562.9473 1069.2411 3374.5859 8342308
1581.094 1067.9921 3370.644 8539430
1596.1589 1064.7185 3360.3127 8539430
1616.2197 1064.817 3360.6238 8934445
1649.2576 1073.3589 3387.5823 8803115
1672.522 1075.4111 3394.0591 8737835
1686.4534 1071.4849 3381.6675 8474409
1721.9 1081.1599 3412.2024 7882016
1706.8057 1059.2445 3343.0364 8474153
1743.6777 1069.7125 3376.074 8276774
1748.0094 1060.2065 3346.0725 8474154
1794.0747 1075.9423 3395.7356 8408362
1805.443 1070.7512 3379.3523 7619103
1835.3209 1076.5311 3397.594 8540461
1826.9022 1059.9661 3345.3135 9198391
1863.6449 1069.6779 3375.9646 8474409
1881.4503 1068.4294 3372.0244 8408616
1919.0509 1078.3301 3403.2717 8540202
1940.1683 1078.8594 3404.9419 8737325
1976.4086 1087.7006 3432.845 8474409
1980.6724 1078.9426 3405.2046 8605739
2006.6989 1082.0968 3415.1594 9066546
2031.5475 1084.5591 3422.9307 8210981
2055.6492 1086.578 3429.3025 8671788
2050.5227 1073.2592 3387.2673 8079652
2078.321 1077.2645 3399.9087 8605739
2090.0195 1072.928 3386.2222 8672301
2111.6653 1073.7321 3388.7598 8606507
2143.5889 1079.6975 3407.5872 8672299
2162.2327 1078.9254 3405.1501 8672301
2185.2458 1080.3275 3409.5757 8474922
2201.6658 1078.4744 3403.7268 8869680
2223.9929 1079.5222 3407.0339 7882785
2253.9517 1084.2222 3421.8674 8080164
2283.3882 1088.5894 3435.6506 8474665
2298.8967 1086.2981 3428.4192 8277288
2329.718 1091.2192 3443.9504 7685408
2341.1951 1087.073 3430.8645 7027222
2353.458 1083.3599 3419.1458 7816737
2373.718 1083.3599 3419.1458 7685407
2351.5571 1064.1631 3358.5596 8343337
2389.75 1072.3715 3384.4656 8606252
2451.3958 1090.8798 3442.8789 8211494
2429.0479 1072.0135 3383.3362 8211751
2466.9397 1079.8242 3407.9873 7816992
2474.8992 1074.5126 3391.2234 8408873
2481.7471 1068.8079 3373.2188 8343080
2498.8079 1067.5574 3369.2722 8211494
2497.564 1058.5686 3340.9028 7948322
2488.0369 1046.2379 3301.9866 8672045
2517.291 1050.2802 3314.7446 7948578
2553.6311 1057.1934 3336.563 8408873
2589.031 1063.6143 3356.8276 8737581
2623.2542 1069.4574 3375.2688 8540461
2645.001 1070.1643 3377.4998 8277289
2652.7637 1065.2451 3361.9744 8145449
2676.6345 1066.8193 3366.9429 8145959
2702.4001 1069.1199 3374.2034 8014373
2704.6501 1062.1517 3352.2117 8606511
2743.5776 1069.584 3375.6682 8145959
2770.8494 1072.3975 3384.5479 7882530
