# .PCD v0.7 - Point Cloud Data file format
VERSION 0.7
FIELDS x y z rgb
SIZE 4 4 4 4
TYPE F F F U
COUNT 1 1 1 1
WIDTH 1281
HEIGHT 1
VIEWPOINT 0 0 0 1 0 0 0
POINTS 1281
DATA ascii
-2006.1273 1468.8965 5221.8403 1710357
-1980.6399 1472.9525 5236.2593 1710357
-1927.1365 1455.9713 5175.8921 1776150
-1895.2166 1455.0111 5172.4785 1644565
-1856.1104 1448.4115 5149.0176 1710358
-1826.181 1448.8722 5150.6553 1710359
-1793.8372 1447.4005 5145.4233 1644567
-1762.2694 1446.5146 5142.2744 1710359
-1722.213 1438.5074 5113.8091 1644566
-1694.9337 1441.077 5122.9438 1578773
-1663.6794 1440.2988 5120.1772 1578773
-1627.5886 1435.2269 5102.147 1644566
-1591.3422 1429.8232 5082.937 1644566
-1538.73 1409.2227 5009.7036 1447187
-1507.3149 1407.6067 5003.9585 1512980
-1476.6975 1406.6855 5000.6841 1578773
-1437.4048 1397.2933 4967.2954 1578773
-1412.7972 1402.0824 4984.3203 1578773
-1380.5116 1399.2935 4974.4058 1710359
-1352.3473 1400.6514 4979.2329 1710359
-1322.6409 1400.4369 4978.4707 1841945
-1291.1777 1398.3104 4970.9111 1907736
-1258.403 1394.631 4957.8306 1841943
-1229.6715 1395.3634 4960.4346 1710357
-1195.5253 1389.8373 4940.7896 1776150
-1171.8369 1396.4963 4964.4619 1710357
-1137.755 1390.7932 4944.188 1644564
-1103.4346 1384.4894 4921.7778 1578771
-828.30133 1067.4908 3794.8667 1578771
-804.73889 1066.0649 3789.7979 1578771
-1010.8184 1377.5043 4896.9463 1776150
-978.40369 1372.7363 4879.9966 1776150
-956.58942 1383.0038 4916.4966 1776152
-927.45721 1383.0038 4916.4966 1710359
-697.46448 1073.7717 3817.1951 1710359
-674.84607 1073.7717 3817.1951 1776152
-844.76599 1390.7502 4944.0352 1710359
-813.99231 1388.2292 4935.0728 1578773
-610.00067 1079.0961 3836.123 1644566
-580.39648 1066.4661 3791.2241 1644566
-724.16284 1384.2101 4920.7852 1776152
-692.69733 1379.6135 4904.4448 1644566
-520.99243 1083.0753 3850.2688 1644566
-499.60187 1086.1707 3861.2727 1578773
-603.24304 1374.4375 4886.0439 1512980
-573.0498 1371.4662 4875.4814 1447444
-542.96985 1368.465 4864.8125 1447444
-514.91809 1370.5258 4872.1382 1447444
-485.48755 1368.9435 4866.5132 1381651
-456.51474 1368.5334 4865.0557 1381651
-426.47809 1364.6641 4851.3003 1315858
-400.78952 1375.1542 4888.5918 1315858
-368.72202 1363.6866 4847.8257 1315858
-339.15808 1360.323 4835.8682 1315858
-310.49347 1360.2786 4835.71 1184272
-281.40228 1358.1663 4828.2007 1250065
-252.58325 1357.0378 4824.1895 1250065
-223.36392 1353.1964 4810.5337 1250065
-194.62929 1351.5973 4804.8486 1315858
-164.80022 1340.5476 4765.5674 1250065
-136.72276 1342.1224 4771.166 1250065
-108.24393 1339.5515 4762.0264 1315858
-79.765396 1335.1722 4746.4585 1315858
-51.393345 1328.7764 4723.7217 1447444
-23.361032 1326.371 4715.1704 1381651
4.5329804 1313.2571 4668.5513 1381651
32.121067 1310.1997 4657.6826 1381651
59.637051 1308.3862 4651.2358 1315858
86.865875 1303.4105 4633.5474 1381651
114.40647 1304.3792 4636.9912 1381651
141.59073 1301.6968 4627.4551 1315858
168.16357 1295.1758 4604.2734 1381651
195.29311 1294.1643 4600.6777 1381651
222.26108 1292.4611 4594.6226 1381651
247.84346 1283.9515 4564.3721 1315858
274.25858 1281.006 4553.9009 1381651
301.14008 1280.5715 4552.356 1447444
327.31213 1277.4396 4541.2222 1381651
354.35901 1277.9384 4542.9956 1315858
383.71436 1286.104 4572.0239 1315858
410.34674 1284.668 4566.9189 1381651
439.06683 1289.5413 4584.2432 1381651
468.49738 1295.8118 4606.5342 1513237
493.14673 1288.8956 4581.9478 1513237
518.68811 1284.911 4567.7827 1513237
553.21552 1302.478 4630.2324 1644823
575.82184 1291.6445 4591.7202 1644823
602.05463 1289.556 4584.2959 1776409
634.51337 1300.4078 4622.873 1645080
663.1156 1302.7847 4631.3228 1382164
687.8111 1297.6025 4612.9004 1382165
711.40344 1290.8147 4588.77 1316371
742.00165 1296.7706 4609.9429 1316371
762.24072 1284.842 4567.5376 1316371
794.02881 1292.5311 4594.8721 1118992
814.11981 1281.301 4554.9492 1250065
844.4386 1286.3719 4572.9766 1250065
862.12622 1272.4844 4523.6069 1316371
886.36749 1268.8156 4510.5645 1251348
909.25623 1263.4822 4491.6045 1382934
931.82501 1258.0201 4472.1875 1317141
951.49805 1249.0587 4440.3301 1382164
970.67419 1239.9451 4407.9316 1250065
996.14813 1239.1429 4405.0801 1250065
1017.7483 1233.686 4385.6812 1315858
1042.5038 1232.2305 4380.5068 1118479
1061.793 1224.5415 4353.1729 1052686
1084.1949 1220.7219 4339.5947 1118479
1109.5745 1220.3544 4338.2876 1052686
1132.1259 1216.9633 4326.2324 986893
1153.0288 1211.9895 4308.5513 1118479
1178.208 1211.6288 4307.269 1184272
1204.7457 1212.651 4310.9028 1184272
1229.3971 1211.7712 4307.7754 1250065
1252.89 1209.809 4300.7993 1250065
1287.9642 1218.8848 4333.0635 1381651
1322.1125 1226.7467 4361.0122 1315858
1331.8599 1212.1003 4308.9453 1447444
1348.0111 1203.7235 4279.166 1184272
1370.7732 1201.4502 4271.0845 1184272
1389.7709 1196.0197 4251.7793 1250065
1412.7084 1194.1128 4245.0005 1381651
1434.2438 1191.1082 4234.3193 1381651
1454.222 1186.936 4219.4873 1447444
1476.4369 1184.6995 4211.5366 1184272
1499.8739 1183.5016 4207.2783 1184271
1519.6771 1179.5225 4193.1328 1184272
1540.8235 1176.6971 4183.0889 1184272
1563.4618 1175.0826 4177.3496 1184015
1587.2981 1174.4047 4174.9395 1249808
1608.7926 1172.0416 4166.5391 1184015
1627.9598 1168.0802 4152.4561 1249808
1646.6969 1163.9326 4137.7114 1315601
1668.5242 1162.059 4131.0508 1644566
1696.735 1164.621 4140.1587 1644566
1710.9131 1157.6152 4115.2539 1512980
1731.1157 1154.8256 4105.3369 1381394
1753.0934 1153.2808 4099.8452 1381651
1772.0217 1149.7998 4087.4705 1315858
1785.302 1142.7972 4062.5767 1315858
1814.6351 1146.1199 4074.3887 1381651
1831.5603 1141.6213 4058.3965 1315858
1849.9824 1138.1603 4046.0928 1381651
1890.3933 1148.1429 4081.5803 1447444
1896.4005 1137.2419 4042.8281 1579030
1917.8441 1135.7546 4037.5405 1578773
1944.6129 1137.4185 4043.4556 1776663
1964.4218 1135.0204 4034.9307 1907993
1986.0922 1133.7428 4030.3889 1776406
2004.184 1130.4769 4018.7788 1776406
2025.677 1129.1838 4014.1819 1907736
2044.7578 1126.5916 4004.9668 1907736
2068.4888 1126.5916 4004.9668 1644564
2084.9297 1122.6661 3991.0117 1710357
2109.7183 1123.2732 3993.1699 1907736
2132.1587 1122.6305 3990.885 1841943
2151.1423 1120.2018 3982.2512 1973528
2172.3306 1118.9613 3977.8413 2039321
2192.3455 1117.1495 3971.4006 2105114
2207.3789 1112.8649 3956.1689 2170907
2225.7092 1110.3149 3947.1042 1841942
2257.0627 1114.2472 3961.083 1578771
2281.4197 1114.6799 3962.6216 1381392
2311.074 1117.666 3973.2366 1447185
2328.3503 1114.6659 3962.5715 1973529
2360.1519 1118.61 3976.5925 1710357
2378.3989 1116.1155 3967.7246 1578771
2397.332 1113.9884 3960.1633 1447185
2419.897 1113.5741 3958.6899 1249804
2440.355 1112.2073 3953.8313 1184012
2465.8398 1113.1357 3957.1321 1512463
2499.3154 1117.62 3973.0732 1512720
2511.55 1112.6108 3955.2656 1183498
2527.6509 1109.3912 3943.8203 1249291
2547.1521 1107.7094 3937.8413 1051912
2589.4395 1115.8772 3966.8774 1117449
2602.1968 1111.2871 3950.5603 920070
2612.8289 1105.8795 3931.3364 722690
2625.749 1101.5273 3915.8647 1183497
2641.696 1098.51 3905.1382 1315083
2663.4836 1097.9525 3903.1567 1446670
2682.8853 1096.4299 3897.7437 1512463
2697.3293 1092.9243 3885.2815 1512719
2723.6191 1094.2372 3889.949 1644049
2743.5811 1093.0072 3885.5762 1709841
2741.5391 1083.1045 3850.3726 1051913
2789.5491 1092.9762 3885.4658 788742
2804.6318 1089.8906 3874.4968 131328
2827.7878 1089.9669 3874.7683 131072
2874.479 1099.0406 3907.0244 131072
2875.5159 1090.6531 3877.2073 196608
2915.979 1097.2339 3900.6018 196608
2960.9756 1105.4038 3929.645 196608
2987.6694 1106.6665 3934.134 196608
2988.0864 1098.2518 3904.2207 196608
3012.0032 1098.5374 3905.2354 196608
3027.8955 1095.9141 3895.9099 196608
3040.6223 1092.1935 3882.6833 196608
3042.4983 1084.6603 3855.9033 196608
3061.7932 1083.4032 3851.4343 196608
3079.5703 1081.6315 3845.1362 196608
3095.3926 1079.2043 3836.5078 196608
3099.6731 1072.8179 3813.8042 196608
3124.3142 1073.5198 3816.2996 131072
3141.3076 1071.6027 3809.4844 65536
3135.3506 1061.9398 3775.1333 0
3175.7561 1068.0052 3796.6958 0
3180.4204 1062.0504 3775.5266 65536
3174.9875 1052.8304 3742.7502 65536
3210.73 1057.2974 3758.6299 65536
3209.3833 1049.5736 3731.1721 131072
3208.2878 1042.037 3704.3799 196608
3242.7109 1046.0605 3718.6836 196608
3213.1919 1029.5424 3659.9622 65536
3221.9868 1025.4392 3645.3762 65536
3227.8425 1020.4617 3627.6812 65536
3244.0352 1018.7963 3621.761 65536
3272.5825 1021.0075 3629.6213 65536
3277.9785 1016.0137 3611.8689 65536
3282.5496 1010.8309 3593.4443 65536
3313.2368 1013.7053 3603.6624 131072
3334.5898 1013.7053 3603.6624 65536
3338.4631 1008.4252 3584.8921 65536
3328.0151 998.91339 3551.0781 65536
3332.5891 994.00165 3533.6172 65536
3325.3843 985.65991 3503.9629 65536
3361.0938 990.06287 3519.615 65536
0 0 0 0
0 0 0 0
0 0 0 0
0 0 0 0
0 0 0 0
0 0 0 0
-5842.5068 1865.2072 6493.9106 1644299
-5722.9624 1839.1556 6403.2095 1841422
-5504.2236 1780.6661 6199.5723 1775630
-5383.4023 1753.2806 6104.2266 1841678
-5446.9224 1785.9675 6218.0298 1973264
-5320.7778 1756.4879 6115.3936 2104596
-5275.2046 1753.3845 6104.5884 2038803
-5241.2256 1754.1183 6107.1436 1973010
-5152.4302 1736.3893 6045.418 1973010
-5090.0054 1727.3611 6013.9854 1907217
-5060.5327 1729.4672 6021.3179 1907217
-5020.5796 1727.996 6016.1958 1907217
-4975.4497 1724.7092 6004.7529 2038802
-4923.6606 1719.0503 5985.0503 2104595
-4878.5 1715.64 5973.1772 2170389
-4812.4229 1704.7706 5935.3345 2170389
-4782.3818 1706.6007 5941.7056 2235672
-4705.3916 1691.5796 5889.4087 2170132
-4656.7681 1686.6082 5872.1001 2170132
-4596.4375 1677.2899 5839.6572 1973011
-4538.0962 1668.5614 5809.2686 2170389
-4480.1313 1659.8392 5778.9009 2038804
-4434.9644 1655.7605 5764.7007 1907218
-4417.2134 1661.9335 5786.1924 1841426
-4356.0669 1651.7483 5750.7319 1644047
-4290.3701 1639.6635 5708.6572 1380876
-4225.4663 1627.6919 5666.9771 1709840
-4172.6738 1620.2316 5641.0029 1840913
-4114.437 1610.5195 5607.1895 1840913
-4074.0676 1607.7002 5597.3735 1840913
-4019.0625 1599.0116 5567.1235 1906706
-3978.2024 1595.8536 5556.1284 2038292
-3933.1189 1590.9342 5539.0015 1973012
-3899.4634 1590.5939 5537.8164 1973269
-3895.416 1602.4272 5579.0156 1973012
-3842.76 1594.2964 5550.7065 1841426
-3802.7842 1591.3314 5540.3838 1907219
-3763.884 1588.7687 5531.4614 1907220
-3762.7878 1602.2584 5578.4272 1841428
-3700.8713 1589.8595 5535.2598 1644049
-3664.1228 1588.1475 5529.2988 1578256
-3634.0083 1589.306 5533.3325 1512463
-3644.0886 1608.2245 5599.1992 1315084
-3607.3633 1606.6443 5593.6978 1380877
-3579.4165 1608.981 5601.8325 1512462
-3535.6379 1604.1782 5585.1113 1644049
-3489.6074 1598.2532 5564.4829 1709842
-3449.7363 1595.0629 5553.376 1644049
-3413.3323 1593.4301 5547.6909 1709842
-3364.9482 1586.1183 5522.2344 1709842
-3331.3123 1585.683 5520.7188 1644049
-3305.3875 1588.9463 5532.0796 1709842
-3256.4751 1581.1133 5504.8086 1578256
-3214.0896 1576.3229 5488.1304 1381391
-3188.0989 1579.5576 5499.3926 1447184
-3141.5886 1572.5875 5475.1255 1315598
-3092.8186 1564.3292 5446.373 1381392
-3011.9849 1539.5078 5359.9551 1710357
-2977.373 1538.0345 5354.8257 1512978
-2942.2412 1536.2581 5348.6406 1512978
-2917.1814 1539.7592 5360.8301 1447185
-2867.2188 1530.0483 5327.021 1381392
-2832.4675 1528.329 5321.0347 1512978
-2793.6729 1524.3646 5307.2324 1447186
-2782.6001 1535.6085 5346.3794 1447186
-2757.3289 1539.1858 5358.834 1512978
-2716.0366 1533.799 5340.0791 1249805
-2678.2058 1530.2628 5327.7676 1184013
-2629.1206 1520.1353 5292.5073 1052426
-2620.4612 1533.4191 5338.7563 1118220
-2591.593 1535.0576 5344.4609 986634
-2568.6208 1540.272 5362.6157 920841
-2542.2266 1543.5393 5373.9912 591876
-2509.1003 1542.7505 5371.2446 986634
-2464.4163 1534.7434 5343.3672 1578771
-2434.168 1535.6349 5346.4712 1578771
-2399.5842 1533.7789 5340.0093 1578771
-2375.3699 1538.5897 5356.7588 1644564
-2329.6958 1529.4427 5324.9121 1644564
-1620.652 1078.5637 3755.1306 1578771
-2253.2864 1520.4648 5293.6548 1644564
-2203.5811 1507.916 5249.9648 1512978
-2160.5503 1499.6405 5221.1528 1512979
-2128.7185 1499.0107 5218.96 1512979
-2097.7646 1498.9896 5218.8867 1512979
-2063.1956 1496.3461 5209.6826 1447185
-2004.2704 1475.6895 5137.7646 1710357
-1972.781 1474.9072 5135.0415 1710357
-1908.2439 1449.0063 5044.8647 1644564
-1889.9714 1457.9706 5076.0747 1710357
-1834.9448 1438.4132 5007.9834 1710357
-1803.5027 1437.0045 5003.0791 1710357
-1311.3318 1062.3118 3698.5479 1710358
-1290.8499 1063.4928 3702.6597 1644566
-1700.6232 1425.318 4962.3916 1710358
-1669.9734 1424.2557 4958.6929 1710359
-1634.9866 1419.3904 4941.7534 1644566
-1608.7937 1422.121 4951.2603 1644566
-1575.4766 1418.5382 4938.7866 1578773
-1539.1276 1412.0385 4916.1572 1578773
-1513.318 1415.1438 4926.9688 1578773
-1478.6016 1409.8782 4908.6362 1578773
-1449.0793 1409.4536 4907.1577 1578773
-1409.4564 1398.986 4870.7134 1512980
-1373.7708 1392.0702 4846.6357 1644566
-1030.8823 1066.9178 3714.5845 1776152
-1011.9689 1070.1931 3725.9873 1907738
-1132.5681 1224.4445 4263.0298 1907738
-1252.5909 1385.0963 4822.3555 1907736
-944.6416 1068.9558 3721.6797 1841943
-1187.6077 1376.0189 4790.7515 1776150
-1157.0339 1373.4233 4781.7148 1644564
-875.91455 1065.829 3710.793 1710357
-863.18994 1077.391 3751.0474 1644564
-831.19531 1064.8766 3707.4775 1512978
-820.50183 1079.7134 3759.1331 1578771
-1008.0712 1363.5562 4747.3608 1644564
-978.79236 1361.9575 4741.7954 1776150
-952.24316 1364.175 4749.5156 1841943
-926.50641 1367.7268 4761.8818 1776152
-897.12628 1365.9543 4755.7109 1841945
-870.39142 1368.2253 4763.6172 1776152
-842.20972 1368.2979 4763.8696 1710359
-814.56183 1369.2726 4767.2637 1644566
-610.02661 1062.2892 3698.4695 1644566
-594.39508 1073.6388 3737.9839 1644566
-638.27216 1197.5159 4169.2749 1644566
-614.50537 1199.3463 4175.6479 1644566
-589.64526 1199.1071 4174.8145 1644566
-641.24493 1361.1447 4738.9653 1578773
-612.53845 1359.7546 4734.126 1644566
-584.3512 1359.4391 4733.0269 1644309
-554.96698 1356.1666 4721.6338 1513237
-526.08264 1353.833 4713.5093 1447444
-499.03876 1356.2397 4721.8882 1447444
-471.79529 1358.3578 4729.2622 1447444
-442.24539 1353.6832 4712.9878 1315858
-419.18259 1369.5736 4768.3115 1381651
-386.3432 1353.5099 4712.3838 1315858
-357.82187 1351.2495 4704.5142 1315858
-329.6098 1349.8737 4699.7241 1315858
-300.13626 1342.6011 4674.4038 1315858
-272.43854 1342.6011 4674.4038 1315858
-244.06361 1338.8861 4661.4697 1315858
-218.68159 1352.7367 4709.6919 1250065
-188.38776 1335.8108 4650.7627 1250065
-160.258 1331.059 4634.2188 1184272
-132.87378 1331.8146 4636.8496 1315858
-105.59304 1334.2717 4645.4043 1250065
-77.541405 1325.286 4614.1196 1315858
-49.984673 1319.5779 4594.2461 1184272
-22.715055 1316.861 4584.7871 1250065
4.4401736 1313.4667 4572.9692 1315858
31.509825 1312.3409 4569.0498 1381651
57.641762 1291.2498 4495.6187 1315858
84.603844 1296.2096 4512.8872 1250065
111.15497 1294.0031 4505.2046 1250065
137.03674 1286.3678 4478.6221 1315858
162.72858 1279.7164 4455.4644 1315858
189.153 1279.8788 4456.0298 1315858
215.59055 1280.0795 4456.7285 1315858
241.45303 1277.1943 4446.6836 1315858
267.12906 1273.9877 4435.5195 1315858
294.08395 1276.9084 4445.688 1381651
319.51321 1273.2692 4433.0176 1250065
345.73846 1273.114 4432.4775 1250065
372.9245 1276.2687 4443.4609 1250065
399.49716 1277.0468 4446.1694 1315858
426.98517 1280.4734 4458.1001 1250065
454.32425 1283.0802 4467.1758 1315858
479.70166 1280.165 4457.0264 1381651
505.72345 1279.1838 4453.6104 1513237
531.65131 1278.0743 4449.7476 1513237
558.82458 1279.922 4456.1802 1776409
585.93317 1281.4615 4461.54 1776409
614.39368 1285.6971 4476.2871 1710616
642.42749 1288.7263 4486.8335 1776409
662.87744 1276.9059 4445.6792 1579030
690.83954 1279.9065 4456.1265 1579030
714.28827 1274.6323 4437.7637 1644566
739.96112 1273.5605 4434.0322 1644566
768.38623 1277.137 4446.4839 1513237
792.26135 1273.1644 4432.6528 1381651
814.23181 1266.4841 4409.395 1315858
839.96613 1265.8916 4407.332 1381651
865.57843 1265.1565 4404.7725 1316371
888.62811 1260.8286 4389.7046 1382164
907.09906 1250.4349 4353.5181 1382164
928.65448 1244.7505 4333.7271 1250578
948.21851 1236.7745 4305.958 1315858
969.31073 1231.1576 4286.4019 1315858
991.54004 1227.2349 4272.7446 1250065
1022.2629 1233.7583 4295.4565 1052686
1031.0184 1214.0967 4227.0024 1052686
1053.4036 1211.0367 4216.3491 1118478
1074.6823 1206.8762 4201.8638 1052686
1099.801 1207.1188 4202.7085 1184272
1124.5428 1206.946 4202.1069 1250065
1150.3376 1207.8866 4205.3813 1250065
1174.0398 1206.6364 4201.0288 1250065
1194.4218 1202.0966 4185.2231 1250065
1219.0869 1201.9645 4184.7632 1184271
1260.1067 1217.641 4239.3428 855307
1277.5326 1210.3518 4213.9644 1118479
1292.2982 1200.87 4180.9521 1118479
1311.7797 1196.0444 4164.1519 1052686
1336.454 1196.0444 4164.1519 1118479
1358.2338 1193.5011 4155.2969 1184272
1387.3179 1197.3524 4168.7056 1184272
1405.0066 1191.406 4148.0024 1118479
1421.8574 1184.9657 4125.5801 986893
1445.9196 1184.6514 4124.4858 986893
1462.2289 1178.1012 4101.6807 986893
1484.2581 1176.2983 4095.4036 921100
1503.4895 1172.3717 4081.7329 1118479
1523.6903 1169.3136 4071.0854 1249808
1547.0575 1168.7428 4069.0981 1315601
1580.2852 1175.5243 4092.7087 1315601
1585.9487 1161.9066 4045.2976 1381394
1604.5812 1158.0544 4031.8857 1381394
1625.1005 1155.657 4023.5388 1315601
1646.9724 1154.277 4018.7344 1381394
1671.9335 1155.0704 4021.4968 1381394
1687.6373 1149.536 4002.2278 1315601
1708.9297 1147.9088 3996.5627 1315858
1728.3191 1145.0652 3986.6626 1250065
1746.9552 1141.8063 3975.3159 1315858
1768.8055 1140.7065 3971.4873 1315858
1787.3933 1137.5596 3960.5308 1381651
1806.7875 1135.0006 3951.6213 1315858
1834.3801 1137.5914 3960.6414 1250065
1855.856 1136.3713 3956.3938 1381651
1873.5878 1132.9176 3944.3694 1513237
1907.6556 1139.3057 3966.6099 1579284
1918.0956 1131.5985 3939.7766 1710614
1935.975 1128.413 3928.6858 1710358
1957.7386 1127.5402 3925.647 1710357
1970.3447 1121.4756 3904.5327 1710356
1994.9342 1122.2933 3907.3799 1841942
2014.5228 1120.3113 3900.479 1973528
2043.4508 1123.5089 3911.6121 2170907
2055.1301 1117.2579 3889.8484 2301979
2071.4968 1113.6654 3877.3408 2039321
2093.6389 1113.2225 3875.7988 1907735
2121.9211 1116.0188 3885.5344 1776150
2163.9458 1125.9053 3919.9551 1841685
2176.2053 1120.2592 3900.2979 1973528
2175.2109 1107.981 3857.5498 2105114
2199.9058 1108.9071 3860.7739 2105114
2226.4985 1110.761 3867.2288 1973271
2258.9109 1115.4508 3883.5569 1973271
2283.0679 1116.0107 3885.5061 1907478
2309.3721 1117.5986 3891.0344 1710356
2324.3352 1113.7208 3877.5337 1644820
2342.3606 1111.3718 3869.3555 1578771
2367.1453 1112.2446 3872.394 1249805
2407.2268 1120.2189 3900.1575 1184012
2414.6692 1112.9972 3875.0142 1118220
2440.416 1114.2693 3879.4431 986634
2453.7612 1109.9078 3864.2583 1052426
2471.2595 1107.4882 3855.8342 1446669
2504.2563 1111.995 3871.5251 1446670
2531.8628 1114.0482 3878.6733 1183498
2534.6375 1105.2365 3847.9946 985864
2553.7139 1103.6268 3842.3904 985864
2563.6431 1098.1274 3823.2437 1117449
2578.4451 1094.7935 3811.6362 1183497
2602.8916 1095.5768 3814.3633 1315084
2625.1519 1095.4344 3813.8677 920327
2629.3306 1087.8136 3787.3347 722692
2674.2634 1097.04 3819.458 657156
2691.9797 1095.0405 3812.4963 131072
2741.1223 1105.7515 3849.7876 196608
2757.5935 1103.2147 3840.9558 196608
2767.3982 1098.0746 3823.0598 196608
2792.4043 1099.0006 3826.2839 196608
2804.6191 1094.9182 3812.0703 196608
2846.1284 1102.246 3837.5828 196608
2868.9292 1102.2695 3837.6648 196608
2893.5698 1102.9941 3840.1877 196608
2908.3933 1099.9945 3829.7441 196608
2921.687 1096.4673 3817.4634 196608
2949.7043 1098.4772 3824.4612 196608
2977.9092 1100.5258 3831.5938 196608
2997.2773 1099.3025 3827.3345 196608
3003.6023 1093.3495 3806.6089 196608
3019.4993 1090.9437 3798.2329 196608
3040.4805 1090.3969 3796.3289 196608
3051.6453 1086.3635 3782.2864 196608
3049.874 1077.8173 3752.532 196608
3083.3774 1081.7706 3766.2957 196608
3103.6223 1081.0488 3763.783 196608
3097.7793 1071.3154 3729.8953 196608
3133.2195 1075.8959 3745.8423 196608
3113.0383 1061.4468 3695.5359 131072
3106.0884 1051.6793 3661.53 0
3109.6914 1045.5959 3640.3499 65536
3108.8416 1038.1091 3614.2839 65536
3160.3591 1048.0919 3649.04 65536
3159.8462 1040.801 3623.656 65536
3140.5029 1027.448 3577.166 65536
3173.7117 1031.3518 3590.7576 65536
3159.0779 1019.7598 3550.3987 65536
3189.6477 1022.8164 3561.0408 65536
3208.4038 1022.0696 3558.4407 65536
3218.6226 1018.6306 3546.4673 65536
3212.2112 1010.0073 3516.4443 0
3253.4551 1016.3826 3538.6406 196608
3275.6536 1016.7645 3539.9702 196608
3276.2993 1010.4942 3518.1396 131072
3268.2551 1001.6401 3487.313 65536
3279.1558 998.66663 3476.9607 65536
3279.4006 992.50549 3455.51 65536
3322.8875 999.42676 3479.6069 131072
0 0 0 0
0 0 0 0
0 0 0 0
0 0 0 0
0 0 0 0
0 0 0 0
0 0 0 0
-5124.5415 1680.8187 5733.6582 1512460
-5186.769 1712.5829 5842.0137 1512460
-5049.23 1678.3713 5725.3096 1446668
-5005.3091 1675.026 5713.8984 1578254
-5026.8325 1693.6853 5777.5498 1644046
-5042.3691 1710.5697 5835.146 1578254
-4995.3789 1706.3289 5820.6797 1709839
-4986.2168 1715.0406 5850.3975 1775633
-4899.8735 1697.1414 5789.3389 1775633
-4797.3042 1673.3301 5708.1133 1907219
-4778.3496 1678.5531 5725.9302 1907219
-4738.4785 1676.4506 5718.7578 1907219
-4694.6533 1672.9088 5706.6763 1973012
-4683.5176 1681.0488 5734.4434 2170391
-4608.9346 1666.3684 5684.3652 2170391
-4575.8916 1666.6012 5685.1592 2169878
-4510.8491 1655.0963 5645.9136 2236182
-4462.0342 1649.4181 5626.5439 2301975
-4420.2188 1646.2616 5615.7759 2236182
-4350.7197 1632.6681 5569.4058 2038803
-4295.875 1624.4083 5541.2295 1973013
-4256.9155 1622.0742 5533.2676 1973012
-4181.6875 1605.7766 5477.6729 1644046
-4151.5498 1606.6744 5480.7354 1446668
-4126.5938 1609.6075 5490.7407 1380875
-4104.605 1613.7537 5504.8843 1709584
-3991.7678 1581.9626 5396.438 2038805
-3952.5054 1579.0518 5386.5078 1973012
-3909.5791 1574.6177 5371.3823 2104598
-3886.8413 1578.3087 5383.9731 2104598
-3833.5271 1569.542 5354.0684 1907219
-3803.4783 1570.2343 5356.4292 2038549
-3773.4509 1570.9468 5358.8599 1973011
-3745.7566 1572.6509 5364.6733 1907219
-3708.7144 1570.426 5357.0835 1841426
-3679.1956 1571.3757 5360.3237 1841426
-3633.6995 1565.4591 5340.1401 1644049
-3634.0989 1579.3845 5387.6431 1446414
-3579.116 1569.274 5353.1543 1446414
-3544.2297 1567.8733 5348.376 1380622
-3509.79 1566.6466 5344.1914 1380622
-3485.5974 1570.0129 5355.6748 1511952
-3457.3904 1571.6165 5361.1445 1578002
-3447.6323 1581.7137 5395.5889 1512209
-3447.0845 1596.2653 5445.2271 1446415
-3383.1863 1581.4781 5394.7852 1446671
-3370.218 1590.4435 5425.3682 1512464
-3331.7815 1587.4471 5415.1465 1446927
-3273.9922 1575.0819 5372.9658 1578256
-3237.7793 1572.9559 5365.7144 1578256
-3203.1865 1571.583 5361.0303 1512977
-3200.8975 1586.1902 5410.8589 1447184
-3110.4656 1556.9722 5311.1899 1447183
-3076.1035 1555.5103 5306.2031 1381390
-3040.4958 1553.382 5298.9424 1381391
-3007.8694 1552.7478 5296.7793 1381391
-2954.2683 1541.1586 5257.2461 1447185
-2919.1519 1539.0681 5250.1147 1052427
-2873.7661 1531.4598 5224.1611 1184013
-2826.7693 1522.8181 5194.6821 986634
-2788.8103 1518.9083 5181.3452 1447185
-2758.8223 1519.3013 5182.6855 1447185
-2708.6982 1508.4893 5145.8032 1512978
-2686.7397 1513.2952 5162.1973 1512979
-2650.9124 1510.3102 5152.0146 1512976
-2634.0596 1518.1919 5178.9014 1447184
-2599.8904 1516.1613 5171.9741 1381391
-2575.0898 1519.6108 5183.7417 1512976
-2540.0542 1517.0309 5174.9404 1447184
-2526.2656 1527.2325 5209.7407 1447185
-2491.0107 1524.5488 5200.5859 1447185
-2464.8455 1527.4305 5210.416 1512978
-2434.5925 1527.8201 5211.7451 1578771
-2397.2568 1523.7179 5197.7515 1512978
-2363.0989 1521.5549 5190.373 1578771
-2336.2546 1524.1063 5199.0767 1644564
-2307.7605 1525.6351 5204.2915 1644564
-2275.5598 1524.7217 5201.1758 1512978
-1571.0039 1067.0916 3640.094 1447185
-2191.4507 1509.2458 5148.3843 1447185
-2160.9446 1509.2458 5148.3843 1512978
-2118.3308 1500.6687 5119.1255 1512978
-2090.3376 1502.3503 5124.8618 1447185
-2056.1973 1499.5983 5115.4741 1447185
-2024.7338 1498.7454 5112.5645 1447185
-1935.6859 1454.5941 4961.9546 1644564
-1894.2826 1445.436 4930.7144 1644564
-1372.4012 1063.6183 3628.2461 1710357
-1353.8054 1065.9038 3636.0427 1710357
-1326.2159 1061.0679 3619.5461 1578771
-1752.9506 1425.5397 4862.8433 1710357
-1719.8456 1421.9922 4850.7417 1578771
-1267.4786 1065.7805 3635.6221 1578773
-1235.7114 1057.0342 3605.7864 1512980
-1214.4696 1057.1421 3606.1545 1578773
-1599.1611 1416.929 4833.4702 1512980
-1561.3325 1408.6394 4805.1924 1447187
-1531.1622 1407.0792 4799.8706 1578773
-1500.2728 1404.7869 4792.0508 1512980
-1498.5682 1430.2606 4878.9473 1512980
-1469.7865 1430.3851 4879.3721 1578773
-1424.1465 1413.7791 4822.7251 1578773
-1295.6686 1312.5742 4477.4922 1578773
-1337.0323 1382.7927 4717.0234 1512980
-1306.9052 1380.4932 4709.1792 1644566
-1277.6865 1379.074 4704.3379 1710359
-1249.0035 1378.1826 4701.2974 1776153
-1218.6277 1375.3398 4691.6001 1710357
-1185.7916 1369.5231 4671.7578 1644565
-900.07129 1064.3798 3630.8435 1644565
-985.86603 1194.3854 4074.323 1710356
-854.00714 1060.6096 3617.9827 1644563
-832.66827 1060.7358 3618.4136 1644564
-808.68475 1057.4108 3607.071 1644564
-889.63684 1194.8406 4075.8755 1644564
-864.82117 1193.9231 4072.7461 1644564
-742.43048 1054.3799 3596.7317 1776150
-721.70648 1055.2396 3599.6646 1776150
-699.16022 1053.4064 3593.4109 1776152
-873.28918 1357.0911 4629.3491 1776152
-661.37189 1061.1018 3619.6619 1776152
-636.5412 1055.4927 3600.5276 1841945
-791.66467 1358.2367 4633.2573 1776152
-599.89355 1066.1946 3637.0347 1644566
-575.88629 1061.6663 3621.5874 1644566
-619.76886 1186.7888 4048.4092 1776152
-533.66498 1063.0554 3626.3262 1841945
-658.45551 1366.6643 4662.0059 1776152
-622.11713 1347.7855 4597.606 1710359
-594.63501 1347.243 4595.7554 1578773
-567.19244 1346.7423 4594.0474 1578516
-538.01807 1341.8717 4577.4326 1513237
-509.88672 1339.2238 4568.3999 1447444
-484.26257 1343.2332 4582.0767 1381651
-457.61404 1344.7086 4587.1099 1381651
-430.07056 1343.5746 4583.2412 1315858
-401.39505 1338.5126 4565.9736 1315858
-374.36783 1338.6128 4566.3154 1250065
-347.80545 1340.52 4572.8218 1184272
-319.89185 1337.1018 4561.1616 1184272
-292.68726 1336.2897 4558.3911 1315858
-263.51627 1325.422 4521.3188 1447444
-235.94107 1321.0292 4506.334 1315858
-208.66852 1317.4261 4494.043 1315858
-181.68613 1314.8684 4485.3184 1250065
-155.0881 1314.693 4484.7197 1315858
-128.6534 1316.1155 4489.5723 1250065
-102.17371 1317.6998 4494.9766 1250065
-74.49807 1299.5387 4433.0249 1315858
-48.214165 1299.0955 4431.5132 1315858
-21.914619 1296.6666 4423.2275 1315858
4.2922993 1295.9175 4420.6719 1315858
30.436989 1293.8104 4413.4844 1315858
56.666061 1295.5802 4419.5215 1315858
82.350136 1287.7091 4392.6714 1250065
108.14767 1284.9667 4383.3164 1250065
133.66592 1280.6108 4368.4575 1315858
159.53354 1280.4723 4367.9849 1250065
185.16722 1278.7571 4362.1338 1315858
210.53091 1275.8256 4352.1343 1381651
235.14738 1269.5001 4330.5566 1381651
259.05505 1260.9692 4301.4556 1381651
285.51328 1265.2694 4316.1245 1381651
310.52469 1262.9781 4308.3086 1381651
337.01746 1266.6024 4320.6714 1315858
364.22836 1272.2231 4339.8452 1250065
389.0513 1269.3116 4329.9136 1118479
415.82513 1272.7316 4341.5796 1184272
439.4382 1266.6422 4320.8076 1250065
465.0744 1266.734 4321.1206 1381651
492.32559 1270.9856 4335.6235 1315858
516.94 1268.3456 4326.6182 1315858
546.55951 1277.6554 4358.376 1513237
569.3476 1270.8761 4335.2505 1513237
602.92725 1287.731 4392.7461 1513237
626.83563 1283.3896 4377.937 1579030
646.93915 1271.9128 4338.7866 1579030
672.64813 1271.9128 4338.7866 1513237
696.32684 1268.2148 4326.1724 1513237
722.08459 1268.4316 4326.9116 1579030
747.47382 1268.0085 4325.4683 1381651
768.24805 1260.0442 4298.2998 1513237
794.98151 1262.0511 4305.1465 1447444
814.50665 1252.8459 4273.7451 1447444
845.02423 1260.5941 4300.1758 1316371
855.06415 1238.2347 4223.9028 1250578
879.51752 1237.4258 4221.1436 1316371
904.28564 1237.0922 4220.0054 1381651
920.88702 1225.9048 4181.8428 1381651
943.6662 1223.3123 4172.999 1250065
963.66333 1217.3376 4152.6182 1250065
984.08374 1212.182 4135.0312 1184272
1007.0117 1210.2904 4128.5786 1118479
1033.7017 1212.9031 4137.4907 1052686
1048.8817 1202.202 4100.9873 1184272
1070.1746 1198.8334 4089.4958 1118479
1091.6556 1195.8201 4079.2168 1184271
1117.2191 1197.3123 4084.3071 1118479
1141.4144 1197.3062 4084.2864 1184272
1165.6516 1197.3434 4084.4133 1250065
1191.6498 1199.151 4090.5793 1250065
1207.1671 1190.5502 4061.24 1250065
1241.7902 1200.7598 4096.0674 1184272
1255.2534 1190.5095 4061.1016 1184272
1277.1056 1188.4517 4054.0815 1250065
1303.9744 1191.0519 4062.9517 986893
1320.5962 1184.3679 4040.1509 1052686
1342.2913 1182.3909 4033.4067 1052686
1363.1243 1179.7368 4024.3533 986893
1383.9487 1177.1669 4015.5864 1052686
1403.4393 1173.5682 4003.311 855307
1424.4487 1171.3383 3995.7039 986893
1444.559 1168.454 3985.865 1184272
1466.0143 1166.7329 3979.9939 1184271
1489.191 1166.4148 3978.9084 1315601
1508.5266 1163.1447 3967.7534 1249808
1532.0371 1163.1447 3967.7534 1118221
1553.9568 1161.955 3963.6953 920843
1571.8492 1157.8345 3949.6392 986636
1592.2592 1155.6619 3942.228 1118222
1613.3295 1154.0245 3936.6428 1315601
1634.1965 1152.2906 3930.7278 1315601
1649.4822 1146.7253 3911.7432 1381394
1673.3164 1147.1746 3913.2761 1381651
1695.4924 1146.4905 3910.9424 1644823
1711.2156 1141.5204 3893.988 1513237
1730.2213 1138.8428 3884.8545 1644823
1749.2704 1136.264 3876.0574 1381651
1762.7501 1130.1812 3855.3071 1513237
1805.5856 1142.8345 3898.4707 1776409
1795.6735 1122.2036 3828.0942 1250065
1821.1515 1123.9285 3833.978 1381651
1841.5021 1122.4855 3829.0557 1513491
1855.9945 1117.5503 3812.2207 1578771
1871.6774 1113.4419 3798.2061 1578771
1897.7438 1115.5349 3805.3457 1578771
1914.1837 1111.9865 3793.2415 1578770
1937.89 1112.6926 3795.6501 1578770
1954.3459 1109.2673 3783.9656 1644563
1981.1947 1111.7517 3792.4404 1644563
2009.4348 1114.9523 3803.3582 1644563
2032.0089 1114.973 3803.429 1710356
2048.5413 1111.7145 3792.3135 1973014
2071.9006 1112.1912 3793.9397 2038807
2099.6304 1114.9788 3803.4485 2170393
2113.7544 1110.5587 3788.3708 2236187
2149.1597 1117.295 3811.3499 1973012
2154.4204 1108.3829 3780.9487 2038806
2179.7185 1109.8566 3785.9758 1841428
2203.8577 1110.7163 3788.9082 1841428
2230.6858 1112.9001 3796.3579 1907221
2266.0413 1119.2523 3818.0269 1775635
2266.1438 1108.2386 3780.4565 1710356
2303.6699 1115.5631 3805.4421 1710356
2320.1931 1112.6736 3795.5852 1710356
2338.6672 1110.7661 3789.0784 1710356
2363.7529 1112.0052 3793.3052 1710356
2387.2073 1112.4607 3794.8589 1578770
2412.0107 1113.5304 3798.5081 1447184
2440.6521 1116.3361 3808.0786 1512463
2440.375 1105.9843 3772.7661 1512463
2458.8762 1104.2534 3766.8618 1446670
2482.5305 1104.8473 3768.8875 1380877
2502.8469 1103.958 3765.8545 1380877
2520.2695 1101.8196 3758.5596 1183242
2536.0798 1099.0199 3749.009 1183498
2564.4319 1101.6565 3758.0034 1249290
2576.0488 1097.1204 3742.5298 1249290
2597.5264 1096.8256 3741.5237 1380877
2617.8167 1096.0385 3738.8389 1183242
2648.7681 1099.6908 3751.2979 1117450
2683.6594 1104.9045 3769.083 1183242
2716.3984 1109.1533 3783.5767 657156
2731.1375 1106.0431 3772.967 328449
2761.1519 1109.1193 3783.4604 131072
2770.8364 1104.0454 3766.1523 131072
2806.7063 1109.4028 3784.4277 131072
2832.947 1110.8994 3789.533 196608
2851.3433 1109.3206 3784.147 196608
2870.3152 1107.9885 3779.6033 196608
2878.429 1102.5182 3760.9426 0
2910.1504 1106.1047 3773.1772 0
2930.6311 1105.3969 3770.7622 0
2944.1865 1102.1072 3759.5408 131072
2948.4246 1095.4054 3736.6794 131072
2967.3738 1094.2284 3732.6641 131072
2989.3022 1094.1591 3732.428 131072
2999.2261 1089.7292 3717.3167 65536
2991.6021 1079.0347 3680.835 65536
3041.3528 1089.0394 3714.9634 196608
3022.428 1074.486 3665.3184 0
2993.7671 1056.7036 3604.6587 65536
3047.1465 1067.9258 3642.9399 65536
3041.6733 1058.5092 3610.8179 131072
3044.5576 1052.1122 3588.9961 196608
3077.5215 1056.1265 3602.6899 65536
3080.0037 1049.697 3580.7576 65536
3109.2637 1052.4193 3590.0439 65536
3096.2661 1040.8984 3550.7437 65536
3095.9385 1033.7637 3526.4053 65536
3091.9609 1025.5142 3498.2642 65536
3101.5869 1021.8563 3485.7861 65536
3128.0112 1023.7445 3492.2275 65536
3152.3303 1024.9236 3496.2495 65536
3160.3855 1020.8336 3482.2981 65536
3167.96 1016.6428 3468.002 65536
3200.3635 1020.4224 3480.895 196608
3223.865 1021.3335 3484.0032 196608
3226.9229 1015.7975 3465.1187 196608
3237.666 1012.7355 3454.6733 196608
3245.3699 1008.7673 3441.137 196608
3243.0574 1001.7546 3417.2151 196608
3263.1414 1001.7042 3417.0427 196608
0 0 0 0
0 0 0 0
0 0 0 0
0 0 0 0
0 0 0 0
0 0 0 0
0 0 0 0
-4865.6519 1628.1624 5443.9966 1249291
-4852.1704 1634.4872 5465.145 1578256
-4843.1958 1642.4255 5491.688 1644049
-4829.4609 1648.8461 5513.1558 1446670
-4850.8799 1667.4379 5575.3198 1644049
-4838.4785 1674.5795 5599.1987 1907219
-4787.3921 1668.3385 5578.3311 1973012
-4767.2661 1672.8749 5593.4995 1841426
-4724.4858 1669.4697 5582.1138 1973012
-4623.7085 1645.3777 5501.5591 1973012
-4599.5576 1648.4054 5511.6821 1973012
-4535.2007 1636.9642 5473.4268 2104598
-4512.4546 1640.4856 5485.2012 2104341
-4483.9092 1641.9343 5490.0454 2104598
-4427.7168 1633.2064 5460.8623 2104598
-4396.5386 1633.6449 5462.3281 2104598
-4338.5107 1624.0388 5430.2095 2170392
-4287.1553 1616.806 5406.0249 2170390
-4237.0815 1609.951 5383.1045 2038804
-4161.6348 1593.2781 5327.356 1907219
-4123.3418 1590.6831 5318.6797 1973013
-4083.5684 1587.4729 5307.9453 1973012
-4048.1577 1585.9219 5302.7598 1973012
-4034.9993 1593.1326 5326.8691 2104599
-3958.782 1575.363 5267.4546 1973013
-3909.2463 1568.0133 5242.8794 2038807
-3866.0005 1563.0889 5226.4141 1973013
-3828.783 1560.5419 5217.8979 2038806
-3802.1943 1562.3208 5223.8462 1973013
-3765.8057 1560.0692 5216.3174 1973012
-3715.5007 1551.9675 5189.228 1907220
-3715.5723 1564.9484 5232.6313 1709842
-3668.5002 1558.1241 5209.814 1644049
-3602.415 1543.0405 5159.3794 1644049
-3586.9497 1549.5662 5181.1992 1512463
-3543.4746 1544 5162.5879 1446670
-3528.5908 1550.9034 5185.6704 1446415
-3526.179 1563.4581 5227.6489 1446671
-3456.5488 1546.1676 5169.8354 1380622
-3430.6753 1548.3158 5177.0181 1512463
-3422.9399 1558.7626 5211.9487 1643793
-3403.6028 1564.0682 5229.689 1709842
-3352.4636 1554.7231 5198.4419 1709842
-3323.8704 1555.7572 5201.8994 1709842
-3297.3052 1557.769 5208.6265 1709842
-3274.0518 1561.3981 5220.7607 1775635
-3234.0493 1557.0326 5206.1641 1775635
-3205.3203 1558.0631 5209.6094 1578770
-3171.8401 1556.7814 5205.3237 1447441
-3133.7983 1553.2136 5193.3945 1512977
-3090.885 1547.1368 5173.0762 1512977
-3050.3877 1542.1597 5156.4341 1447183
-3010.1733 1537.2263 5139.939 1381391
-2978.6882 1536.6956 5138.1641 1118219
-2939.0354 1531.8966 5122.1182 1118219
-2899.7163 1527.1732 5106.3247 1052427
-2871.6973 1528.3644 5110.3076 1184013
-2825.1714 1519.6261 5081.0898 1249806
-2781.0151 1511.9882 5055.5513 1315598
-2737.342 1504.4492 5030.3438 1381392
-2710.0801 1505.8633 5035.0723 1315599
-2662.6421 1495.9731 5002.0029 1447185
-2628.0547 1493.1616 4992.6021 1512978
-2597.9053 1492.8362 4991.5142 1578771
-2566.0122 1491.4897 4987.0122 1447185
-2543.2578 1495.4858 5000.3735 1578771
-2518.8596 1498.5981 5010.7798 1578771
-2481.1157 1493.7499 4994.5688 1512978
-2458.2407 1497.8444 5008.2593 1315599
-2442.1501 1506.2231 5036.2754 1381392
-2409.8032 1504.6591 5031.0454 1447185
-2386.9951 1509.0863 5045.8486 1447185
-2357.22 1509.1654 5046.1133 1578771
-2322.4712 1506.0214 5035.6006 1512978
-2288.9656 1503.6122 5027.5449 1644564
-2259.1755 1503.6122 5027.5449 1447185
-2238.509 1509.7657 5048.1206 1512978
-2201.554 1504.9514 5032.0229 1578771
-2159.3591 1496.3737 5003.3418 1447185
-2104.6985 1478.7986 4944.5771 1447185
-2090.6128 1489.6383 4980.8213 1447185
-1932.4539 1396.6609 4669.938 1447185
-2014.2318 1476.9133 4938.2739 1447185
-1995.3663 1484.6484 4964.1372 1578771
-1948.3087 1471.3246 4919.5869 1644564
-1883.5516 1444.0269 4828.313 1644564
-1865.8763 1452.5389 4856.7744 1644564
-1815.6249 1435.5609 4800.0059 1578771
-1780.1704 1429.928 4781.1714 1644564
-1737.3654 1418.1132 4741.6665 1578772
-1708.2942 1417.3044 4738.9624 1578772
-1671.9032 1410.2939 4715.522 1512980
-1641.3754 1408.0751 4708.103 1644566
-1606.0281 1401.5737 4686.3647 1512980
-1573.4316 1397.2864 4672.0293 1512980
-1548.489 1399.764 4680.314 1512980
-1523.3827 1402.1815 4688.397 1512980
-1489.6406 1396.5925 4669.7095 1447187
-1456.4498 1391.3185 4652.0747 1578773
-1425.1689 1387.7007 4639.978 1578773
-1393.5759 1383.6307 4626.3696 1644566
-1366.0717 1383.5385 4626.061 1644566
-1335.5403 1380.3136 4615.2783 1512980
-1309.2488 1381.4276 4619.0034 1512980
-1275.7689 1374.8428 4596.9858 1578773
-1244.422 1370.3192 4581.8608 1578773
-937.43817 1055.3014 3528.553 1578773
-930.17725 1071.0149 3581.0933 1512978
-989.79901 1166.2692 3899.5898 1381392
-879.84668 1061.4939 3549.2588 1315599
-1092.6218 1350.4773 4515.5166 1644564
-1063.5306 1347.5189 4505.6245 1710357
-1051.3162 1366.3419 4568.562 1710357
-1007.567 1344.0928 4494.1689 1776150
-980.0271 1342.8456 4489.9985 1710357
-954.01282 1343.6776 4492.7808 1710357
-926.35016 1342.1693 4487.7373 1710357
-897.45605 1338.7346 4476.2529 1776150
-871.72906 1339.9592 4480.3477 1907736
-839.49933 1330.951 4450.2275 1776152
-813.88715 1332.1904 4454.3716 1841945
-791.74774 1339.3878 4478.437 1776152
-764.76709 1338.6105 4475.8379 1710359
-738.33795 1338.7772 4476.3955 1710359
-711.62408 1338.421 4475.2046 1644566
-682.55377 1333.4336 4458.5283 1710359
-658.65204 1338.5485 4475.6304 1710359
-631.71973 1337.675 4472.7104 1776152
-603.83075 1334.6111 4462.4653 1776152
-577.90381 1335.8013 4466.4448 1644566
-549.16986 1330.3062 4448.0713 1644566
-523.31708 1331.588 4452.3574 1579030
-496.04257 1329.1965 4444.3613 1513237
-472.00558 1335.6986 4466.1016 1381651
-442.52893 1326.6652 4435.897 1315858
-416.41129 1327.197 4437.6753 1381651
-390.40424 1328.1765 4440.9507 1315858
-362.86609 1323.7123 4426.0239 1315858
-336.01468 1321.2529 4417.8008 1250065
-310.22571 1322.9088 4423.3374 1118479
-283.74969 1321.67 4419.1953 1381651
-257.24094 1320.0112 4413.6489 1381651
-230.80487 1318.3925 4408.2358 1315858
-204.60709 1317.8949 4406.5723 1184272
-177.51349 1310.6381 4382.3081 1315858
-151.06775 1306.4972 4368.4624 1250065
-125.40186 1308.7827 4376.1045 1250065
-99.521461 1309.4376 4378.2944 1381651
-72.881279 1297.0331 4336.8179 1381651
-47.026257 1292.6998 4322.3291 1381651
-21.449726 1294.8127 4329.394 1447444
4.170774 1284.6796 4295.5122 1381651
29.507391 1279.6483 4278.6895 1381651
54.698605 1275.8755 4266.0747 1381651
79.301941 1265.1093 4230.0762 1315858
104.34074 1264.793 4229.0186 1315858
129.19832 1262.8276 4222.4473 1250065
153.58113 1257.6125 4205.0098 1250065
178.31261 1256.3098 4200.6538 1315858
203.71271 1259.4601 4211.1875 1381651
228.19638 1256.8752 4202.5444 1447444
252.10246 1251.9307 4186.0117 1381651
277.89124 1256.384 4200.9019 1381651
302.26379 1254.2284 4193.6943 1250065
328.04022 1257.7831 4205.5801 1184272
353.57083 1259.9598 4212.8584 1250065
379.10123 1261.849 4219.1748 1250065
404.17331 1262.0731 4219.9243 1184272
428.10983 1258.9319 4209.4209 1118479
453.22183 1259.4028 4210.9956 1184272
479.11627 1261.8854 4219.2964 1184272
504.52258 1262.8998 4222.6885 1118479
531.29523 1267.0769 4236.6553 1315858
555.00964 1263.9128 4226.0757 1381651
580.75659 1265.4506 4231.2173 1381651
603.52594 1260.6416 4215.1377 1513237
627.77429 1259.1813 4210.2549 1513237
653.7243 1261.1155 4216.7222 1381651
676.46863 1256.9504 4202.7959 1579030
700.51025 1255.4064 4197.6328 1579030
721.70068 1249.0336 4176.3247 1513237
744.63733 1246.0052 4166.1992 1513237
768.68805 1244.9757 4162.7568 1513237
793.24945 1244.8116 4162.208 1447701
813.72827 1238.444 4140.9165 1447443
834.77185 1233.2833 4123.6616 1513237
862.53369 1238.0596 4139.6313 1447444
884.12891 1233.9648 4125.9404 1315858
900.83026 1223.4442 4090.7629 1381651
920.58984 1217.5195 4070.9526 1381651
938.31171 1209.271 4043.3728 1315858
960.21411 1206.6871 4034.7332 1315858
981.02234 1202.887 4022.0269 1250065
1002.8657 1200.5062 4014.0667 1184272
1022.6967 1195.8828 3998.6074 1052686
1043.4974 1192.5768 3987.5532 1250065
1064.9888 1190.1892 3979.5701 1250065
1086.7389 1188.1879 3972.8782 1250065
1108.8363 1186.6432 3967.7134 1184272
1135.9705 1190.4407 3980.4109 1381651
1154.1017 1184.8412 3961.688 1381651
1177.7107 1184.9764 3962.1404 1315858
1201.4265 1185.2117 3962.927 1184272
1221.3887 1181.806 3951.5396 1315858
1246.5396 1183.4546 3957.0518 1315858
1264.6779 1178.5073 3940.5103 1315858
1286.9707 1177.541 3937.2791 1315858
1318.2596 1184.6936 3961.1946 1250065
1330.0769 1174.4032 3926.7874 1118478
1350.3704 1171.8221 3918.157 1052686
1370.3254 1169.0397 3908.8535 1052686
1390.7773 1166.7666 3901.2529 1052686
1409.9924 1163.547 3890.488 1052686
1430.9292 1161.829 3884.7437 1052686
1451.3378 1159.7433 3877.7698 1184015
1477.8098 1162.4924 3886.9617 1249808
1491.5194 1155.2717 3862.8184 1381394
1515.1298 1155.8223 3864.6592 1381394
1543.7799 1160.1437 3879.1086 1249808
1562.1779 1156.7469 3867.751 1249808
1569.3226 1145.2362 3829.2632 1249807
1594.5938 1147.0929 3835.4714 1249808
1609.0417 1141.2212 3815.8386 1315601
1627.1951 1138.1039 3805.4153 1118479
1642.951 1133.418 3789.7471 1184272
1668.3346 1135.4104 3796.4092 1250065
1683.4073 1130.4261 3779.7437 1250065
1715.6012 1136.9187 3801.4524 1644566
1733.0068 1133.5702 3790.2559 1315601
1739.5366 1123.2841 3755.863 1249807
1759.6669 1121.9296 3751.3337 1249808
1781.7361 1121.8293 3750.9988 1249808
1797.2152 1117.6335 3736.9697 1315598
1817.5887 1116.5465 3733.3352 1381392
1832.584 1112.2214 3718.8735 1578771
1856.9436 1113.6151 3723.5334 1841943
1872.131 1109.5399 3709.9077 1841941
1894.2271 1109.6063 3710.1296 1776149
1910.4985 1106.2983 3699.0691 1710356
1932.369 1106.271 3698.9773 1644563
1949.594 1103.6144 3690.0945 1644049
1986.8262 1112.2168 3718.8579 1578513
1993.6256 1103.7811 3690.6521 1907221
2019.2456 1105.8354 3697.5212 2038807
2030.0046 1099.7947 3677.3228 1709842
2057.1091 1102.6434 3686.8481 1380877
2087.9512 1107.4148 3702.8018 1512463
2101.4883 1103.0042 3688.0542 1709842
2124.0332 1103.3634 3689.2554 1775635
2170.9006 1116.2216 3732.2483 1775635
2166.7542 1102.8546 3687.5542 1775635
2191.4231 1104.275 3692.3035 1644049
2210.7856 1103.0198 3688.1064 1710099
2231.7515 1102.5812 3686.6399 1512977
2256.9792 1104.2363 3692.1741 1447185
2276.3284 1103.0112 3688.0776 1447184
2294.2825 1101.1396 3681.8201 1578770
2341.5188 1113.2252 3722.2297 1710356
2341.5447 1102.8492 3687.5361 1710356
2387.7388 1114.2091 3725.5195 1709842
2382.0076 1101.3523 3682.5312 1775635
2394.5532 1097.1031 3668.323 1644049
2420.083 1098.8254 3674.082 1512462
2437.4065 1096.8243 3667.3911 1446669
2456.2483 1095.5359 3663.0828 1249291
2480.9695 1096.8693 3667.541 1183242
2503.7319 1097.3209 3669.0515 1051657
2525.2234 1097.2128 3668.6897 1183243
2547.1855 1097.309 3669.0117 1249036
2568.9258 1097.309 3669.0117 1315083
2595.1287 1099.1991 3675.3315 1315084
2610.8042 1096.636 3666.7612 1249291
2639.376 1099.4872 3676.2949 1249291
2663.5491 1100.4746 3679.5962 1183498
2694.6418 1104.2816 3692.3254 1183243
2720.1531 1105.7583 3697.2629 1051657
2736.1089 1103.3582 3689.2378 1051657
2770.7578 1108.4744 3706.3445 1051656
2767.1045 1098.3074 3672.3499 985864
2808.5769 1106.0704 3698.3066 985864
2826.1318 1104.3671 3692.6113 656900
2849.0845 1104.7828 3694.0017 393986
2856.6228 1099.2609 3675.5378 196864
2881.2744 1100.3579 3679.2061 65536
2884.7322 1093.4053 3655.959 65536
2913.0911 1095.9243 3664.3818 196608
2910.2307 1086.748 3633.6997 131072
2915.8259 1080.8409 3613.9482 65536
2912.4819 1071.7305 3583.4861 65536
2932.189 1071.1729 3581.6216 0
2948.9534 1069.5559 3576.2151 65536
2947.5032 1061.403 3548.9543 65536
2990.1736 1069.1409 3574.8274 65536
2992.012 1062.2731 3551.864 65536
2982.9763 1051.6675 3516.4026 65536
3007.2358 1052.8661 3520.4102 65536
3016.7637 1048.926 3507.2361 65536
3042.4246 1050.6108 3512.8694 65536
3026.9309 1038.1578 3471.2312 65536
3039.3284 1035.3743 3461.9241 65536
3048.5161 1031.542 3449.1104 65536
3073.408 1033.0393 3454.1167 65536
3091.4678 1032.2355 3451.429 65536
3100.2744 1028.3729 3438.5142 65536
3106.4487 1023.6936 3422.8677 65536
3123.8728 1022.7578 3419.739 65536
3144.1362 1022.7578 3419.739 65536
3159.6223 1021.2138 3414.5762 196608
3163.4893 1015.9579 3397.0027 196608
3192.4026 1018.7614 3406.3762 196608
3175.552 1007.0171 3367.1074 196608
3190.0913 1005.3116 3361.4048 196608
3225.3882 1010.1279 3377.509 196608
0 0 0 0
0 0 0 0
0 0 0 0
0 0 0 0
0 0 0 0
0 0 0 0
0 0 0 0
-4747.499 1620.1001 5311.7998 2170392
-4706.6792 1616.8896 5301.2739 2104598
-4678.2212 1617.9115 5304.6235 1841940
-4650.0957 1619.0626 5308.3979 1776148
-4633.1914 1624.1633 5325.1216 1841940
-4620.9238 1630.9703 5347.4395 1907219
-4574.1821 1625.6193 5329.8955 1973012
-4523.9731 1618.9536 5308.0405 1973012
-4485.2144 1616.3204 5299.4077 1907220
-4456.0273 1617.1241 5302.0425 1907220
-4421.1465 1615.8579 5297.8911 1973013
-4378.2002 1611.6047 5283.9463 2104600
-4348.8149 1612.3182 5286.2856 2170393
-4299.0908 1605.4468 5263.7563 2236186
-4262.4697 1603.4038 5257.0576 2170392
-4231.542 1603.4879 5257.3335 2170391
-4184.8999 1597.5747 5237.9458 2236184
-4130.7124 1588.6709 5208.7529 2170391
-4073.8755 1578.6066 5175.7554 2104598
-4031.5889 1574.0703 5160.8823 2038805
-3957.1458 1556.8138 5104.3042 2104598
-3946.8347 1564.7169 5130.2153 2104598
-3887.4041 1553.1178 5092.1855 2104598
-3864.6357 1556.0994 5101.9609 2038804
-3838.7917 1557.8798 5107.7988 2104598
-3812.2268 1559.3934 5112.7617 2038805
-3741.3647 1542.6667 5057.9199 1907219
-3697.7942 1537.0137 5039.3853 1775635
-3664.832 1535.7139 5035.1235 1709842
-3685.1606 1556.907 5104.6094 1709842
-3580.3027 1525.1246 5000.4048 1578256
-3521.1155 1512.4285 4958.7783 1578256
-3522.7869 1525.8793 5002.8794 1578255
-3491.4565 1525.1429 5000.4648 1446670
-3467.1992 1527.5096 5008.2246 1446670
-3432.5537 1525.3014 5000.9844 1512463
-3415.5078 1530.9434 5019.4824 1447183
-3386.0737 1531.0826 5019.9395 1578512
-3348.6812 1527.5941 5008.5015 1578513
-3324.0178 1529.9019 5016.0679 1644049
-3296.2917 1530.8287 5019.1069 1775378
-3271.7698 1533.2742 5027.125 1709842
-3236.0269 1530.4579 5017.8911 1644049
-3216.7476 1535.4478 5034.251 1578256
-3188.2893 1536.1086 5036.418 1709842
-3163.1917 1538.4164 5043.9844 1381648
-3123.3811 1533.5444 5028.0107 1381391
-3093.4041 1533.4531 5027.7114 1513234
-3060.3247 1531.8074 5022.3154 1512977
-3033.0493 1533.0627 5026.4316 1447183
-2990.9397 1526.7706 5005.8018 1315599
-2946.8384 1519.3258 4981.3926 1249806
-2912.2241 1516.6711 4972.6885 1315598
-2888.4155 1519.6471 4982.4458 1249806
-2840.8323 1510.0472 4950.9707 1315599
-2804.2769 1506.1699 4938.2583 1381392
-2765.1033 1500.7898 4920.6187 1249806
-2728.948 1496.9508 4908.0317 1315599
-2698.1685 1496.0095 4904.9458 1381392
-2670.5869 1496.8405 4907.6699 1381392
-2634.2913 1492.7515 4894.2632 1447185
-2595.3867 1487.0768 4875.6582 1447185
-2561.2981 1484.0647 4865.7822 1447185
-2523.5664 1478.8494 4848.6826 1447185
-2498.844 1481.225 4856.4717 1381392
-2455.491 1472.4839 4827.8125 1447185
-2439.501 1480.139 4852.9111 1512978
-2407.1836 1477.952 4845.7407 1381392
-2384.6318 1481.7804 4858.293 1447185
-2375.863 1494.3718 4899.5762 1512978
-2342.5415 1491.6404 4890.6206 1447185
-2304.8652 1486.0327 4872.2349 1512978
-2281.5293 1489.646 4884.0815 1512978
-2256.4434 1492.1949 4892.439 1447185
-2226.8318 1491.7783 4891.0728 1512978
-2197.8503 1491.7783 4891.0728 1315599
-2175.5894 1496.4009 4906.2285 1381392
-2114.3584 1473.9816 4832.7227 1381392
-2115.6941 1495.1624 4902.168 1381391
-2046.3535 1466.2906 4807.5068 1381392
-1982.7203 1440.7511 4723.7705 1381393
-1979.4563 1458.976 4783.5239 1512979
-1735.5771 1297.806 4255.0986 1512980
-1881.0494 1427.3204 4679.7358 1578773
-1860.3864 1432.7623 4697.5781 1578774
-1835.1161 1434.7677 4704.1528 1644565
-1801.6711 1430.3448 4689.6519 1644564
