# .PCD v0.7 - Point Cloud Data file format
VERSION 0.7
FIELDS x y z rgb
SIZE 4 4 4 4
TYPE F F F U
COUNT 1 1 1 1
WIDTH 1303
HEIGHT 1
VIEWPOINT 0 0 0 1 0 0 0
POINTS 1303
DATA ascii
0 0 0 0
-4695.8467 1089.9083 5185.2544 1536
-4568.0742 1067.2352 5077.3867 1024
-4580.9575 1077.3405 5125.4629 1024
-4526.9702 1071.7493 5098.8623 1536
-4433.4048 1056.6499 5027.0269 1024
-4472.7549 1073.2394 5105.9517 132864
-4404.2988 1064.0106 5062.0454 593672
-4337.8521 1055.1439 5019.8623 725515
-4302.4927 1053.7688 5013.3198 330501
-4359.8574 1075.2426 5115.4814 593672
-4425.4507 1099.0603 5228.7949 593418
-4401.5928 1100.8422 5237.2725 461832
0 0 0 0
0 0 0 0
0 0 0 0
0 0 0 0
-4420.5601 1145.9843 5452.0361 2107171
-4346.3691 1135.0459 5399.9966 2371113
-4278.2251 1125.5361 5354.7544 2568749
-4252.626 1127.1609 5362.4839 2635051
-4203.479 1122.5219 5340.4136 2700845
-4170.3003 1122.1089 5338.4487 2701099
-4230.3257 1146.9598 5456.6777 397061
-3991.8645 1090.6423 5188.7461 1792
-3927.8716 1081.488 5145.1948 1792
-3879.4641 1076.5154 5121.5371 1536
-3849.9597 1076.751 5122.6582 1536
-3830.0149 1079.6853 5136.6182 1536
-3839.2673 1090.9633 5190.2734 1536
-3806.6694 1090.4353 5187.7612 1792
-3782.241 1092.2578 5196.4321 1792
-3751.0295 1092.1354 5195.8496 1792
-3699.6311 1086.0847 5167.0635 1536
-3688.6379 1091.8937 5194.6997 1792
-3662.0403 1093.1423 5200.6401 1792
-3634.2737 1094.0603 5205.0073 1792
-3603.8447 1094.1855 5205.6035 1792
-3581.1316 1096.676 5217.4517 1792
-3549.4507 1096.4396 5216.3267 1792
-3518.3413 1096.3771 5216.0293 1792
-3505.646 1102.1024 5243.2681 1792
-3479.1184 1103.5428 5250.1206 1792
-3452.0393 1104.8326 5256.2568 1792
-3436.5386 1109.8853 5280.2949 1792
-3409.4648 1111.2588 5286.8296 1792
-3390.1807 1115.2203 5305.6763 1792
-3370.2056 1119.0265 5323.7842 1792
-3345.8506 1121.4365 5335.25 1792
-3324.3096 1124.8447 5351.4648 1792
-3301.145 1127.7639 5365.353 1792
-3276.8286 1130.3427 5377.6211 1536
-3251.209 1132.5179 5387.9702 1536
-3246.873 1142.2239 5434.146 1536
-3229.5513 1147.5101 5459.2959 1280
-3324.6401 1193.2488 5676.8979 1280
-3270.2903 1185.739 5641.1704 1280
-3279.8953 1201.5024 5716.1646 1024
-3323.3159 1230.1115 5852.2725 512
-3125.0032 1168.9036 5561.0757 526080
-3266.135 1234.7134 5874.166 1445891
-3284.9727 1255.2113 5971.6855 1510659
-3290.6106 1271.0569 6047.0713 1707268
-3280.2034 1280.9856 6094.3071 1707268
-3281.7573 1295.8584 6165.0645 1707011
-3268.7251 1305.2416 6209.7051 1772547
-3254.9961 1314.5568 6254.0225 1837827
-3219.5928 1315.2325 6257.2378 1903620
-3196.3076 1320.9321 6284.3535 1969413
-3157.4023 1320.2349 6281.0361 2035205
-3107.2769 1314.7731 6255.0518 2034692
-3071.1821 1315.1881 6257.0259 2034692
-3016.5869 1307.5939 6220.896 2100227
-2976.3828 1306.127 6213.9175 2034434
-2935.2812 1304.2244 6204.8662 2100227
-2892.5664 1301.5479 6192.1323 2100227
-2846.3394 1297.2018 6171.4561 2100227
-2808.8169 1296.7612 6169.3599 2231813
-2771.0066 1296.1746 6166.5688 2297606
-2731.9302 1294.9719 6160.8477 2494984
-2689.2856 1292.0225 6146.8154 2494984
-2634.1692 1282.918 6103.5005 2494984
-2604.3782 1286.0658 6118.4766 2297605
-2572.1677 1288.0911 6128.1113 2297862
-2528.0857 1284.1439 6109.333 2363142
-2483.3757 1279.7585 6088.4697 2493959
-2445.0713 1278.5936 6082.9272 2428423
-2406.0225 1276.9987 6075.3394 2428677
-2362.103 1272.731 6055.0356 2494213
-2328.6138 1274.0382 6061.2549 2559748
-2281.5195 1267.8263 6031.7012 2493956
-2241.8831 1265.6266 6021.2368 2493699
-2199.1323 1261.5695 6001.9346 2493956
-2153.2 1255.5236 5973.1714 2559492
-2124.6904 1259.6046 5992.5864 2625542
-2081.1797 1254.7799 5969.6333 2624771
-2037.8309 1249.8878 5946.3589 2690565
-1997.9329 1246.9771 5932.5112 2690308
-1956.0969 1242.7311 5912.3105 2887174
-1918.7371 1241.2256 5905.1484 2821638
-1877.4105 1237.0507 5885.2861 2821381
-1837.0613 1233.3738 5867.7935 2690052
-1801.5985 1232.899 5865.5347 2690306
-1802.8082 1257.9955 5984.9316 2756099
-1738.915 1237.759 5888.6562 2821635
-1698.7524 1233.931 5870.4448 2821892
-1663.4773 1233.5674 5868.7144 2887685
-1618.3708 1225.7422 5831.4858 2887685
-1573.9349 1218.0944 5795.1011 3019271
-1545.0187 1222.384 5815.5093 3019014
-1493.2877 1208.4072 5749.0146 3018757
-1355.7954 1122.7576 5341.5352 3084549
-1350.9139 1145.4556 5449.521 3150343
-1383.5044 1201.8162 5717.6572 2952964
-1372.8708 1222.5161 5816.1377 3084550
-1350.9661 1233.9868 5870.71 3281414
-1275.099 1195.4716 5687.4731 3412486
0 0 0 0
-1234.5525 1222.0543 5813.9409 4003077
0 0 0 0
-1203.6196 1261.8583 6003.3091 4462342
-1111.7506 1201.0399 5713.9644 6764315
-1120.1296 1248.1019 5937.8623 8474670
-1083.6837 1246.6505 5930.9575 9658681
-1048.6615 1246.7944 5931.6421 9395765
-1029.7312 1266.7441 6026.5537 9527094
-995.51654 1268.6494 6035.6177 9527094
-960.51074 1269.6511 6040.3828 9461557
-928.09363 1274.2844 6062.4258 9592887
-884.29333 1263.0323 6008.894 9658679
-852.69592 1268.9965 6037.269 9527093
-817.65143 1270.1287 6042.6553 9658678
-786.58966 1277.8344 6079.3149 9658934
-747.35925 1272.3728 6053.3315 9724471
-713.74915 1276.4113 6072.5449 9658934
-672.54492 1266.577 6025.7583 9724730
-642.36267 1277.5609 6078.0142 9658680
-606.86853 1278.6577 6083.2324 9790522
-563.95312 1263.2693 6010.0215 9724473
-528.96094 1264.7506 6017.0688 10053694
-488.13754 1251.4962 5954.0107 9724730
-452.8912 1251.589 5954.4521 9658167
-415.62192 1245.6344 5926.1235 9921338
-379.34109 1241.8169 5907.9614 9790009
-345.26425 1245.1716 5923.9214 9987388
-307.77158 1235.5724 5878.2534 9658937
-277.5838 1256.5919 5978.2539 9592887
-240.57332 1248.3573 5939.0776 9921852
-205.71832 1250.402 5948.8057 9987645
-171.5419 1258.2699 5986.2373 9856315
-134.94084 1247.819 5936.5161 9724472
-100.77968 1260.5151 5996.9185 9593142
-64.360596 1243.4186 5915.5815 9461556
-29.518135 1252.3167 5957.9146 9527350
5.816278 1259.1091 5990.2295 9461558
41.472713 1264.0443 6013.7085 9461557
77.692474 1273.653 6059.4219 9527094
113.51868 1272.7749 6055.2451 9527350
148.28397 1263.2804 6010.0747 9790523
183.10643 1257.856 5984.2676 9658680
219.21263 1261.5796 6001.9829 9724729
252.37387 1249.681 5945.375 9658934
289.43124 1257.6267 5983.1768 9461042
325.89111 1261.5254 6001.7251 9329713
360.32745 1257.5946 5983.0239 9526835
394.34714 1253.0438 5961.374 9723957
430.46075 1255.3479 5972.3354 9461042
464.25909 1251.0629 5951.9497 9526578
501.48874 1255.9766 5975.3262 9789751
538.96436 1260.8176 5998.3579 9921339
573.12585 1257.7865 5983.937 9921338
612.17651 1265.2133 6019.27 9789753
650.69415 1270.7812 6045.7598 9723959
690.33923 1277.8551 6079.4136 9723703
723.56091 1272.9269 6055.9678 10447426
756.25775 1267.5847 6030.5522 9855289
781.7547 1251.2012 5952.6074 9657910
824.24347 1262.2535 6005.1895 9592887
854.06415 1253.7942 5964.9434 9856059
899.00952 1267.3281 6029.3315 9724729
937.07941 1270.5057 6044.4492 9790523
962.82996 1257.3616 5981.9155 9461558
998.28406 1257.3727 5981.9683 9592887
1031.7195 1254.9277 5970.3364 9330229
1068.7118 1256.8278 5979.376 9527352
1096.7612 1248.4264 5939.4062 9527864
1131.826 1248.2845 5938.7314 9330229
1156.715 1237.2667 5886.314 9396277
1194.6257 1240.4149 5901.292 9724472
1227.9587 1238.7661 5893.4473 9264179
1243.1608 1219.4237 5801.4253 9132336
1290.5914 1231.8846 5860.7085 9527351
1304.6636 1212.6858 5769.3701 9132336
1331.3191 1205.8651 5736.9204 9395765
1377.6259 1216.7404 5788.6597 9329972
1426.5411 1229.3351 5848.5791 9264436
1449.9639 1219.885 5803.6201 9461815
1484.7039 1220.1737 5804.9937 9198129
1487.3127 1194.6407 5683.5205 9132593
1550.1516 1217.5455 5792.4902 9395766
1588.4452 1220.5967 5807.0063 9198642
1621.1316 1219.3011 5800.8428 9461558
1655.9592 1219.6365 5802.438 9461300
1707.5511 1232.0542 5861.5156 9329713
1747.2504 1235.5669 5878.2271 9329199
1777.9225 1232.6835 5864.5093 9329199
1794.3988 1220.257 5805.3901 9461041
1840.9839 1228.3879 5844.0732 9658164
1902.3682 1245.911 5927.4395 9789235
1896.0906 1219.2886 5800.7827 9329461
1879.048 1186.8149 5646.2891 8014375
1977.2468 1226.9911 5837.4277 3280900
2001.3864 1220.618 5807.1079 1245184
2011.9722 1206.3339 5739.1509 1310720
2033.713 1199.1018 5704.7441 1441792
2033.4812 1179.3627 5610.8345 6371611
2096.3464 1196.2643 5691.2446 5909770
2099.9778 1179.3647 5610.8447 6237962
2125.7249 1175.2186 5591.1191 6237703
2153.4119 1172.2559 5577.0234 8079906
2156.251 1156.0604 5499.9741 9330741
2243.9526 1185.1687 5638.4565 8738347
2303.6782 1198.8634 5703.6099 9132592
2338.5518 1199.416 5706.2388 9329716
2337.522 1181.8009 5622.4346 9263666
2327.9463 1160.4209 5520.7192 9066803
2306.7456 1133.9191 5394.6357 6239769
2303.1743 1116.6891 5312.6646 3345152
2274.448 1087.892 5175.6616 2097152
2287.2805 1079.4746 5135.6162 1835008
2329.5386 1084.9833 5161.8232 1900544
2337.7947 1074.7179 5112.9858 1966080
2356.8269 1069.6058 5088.665 1835008
2419.2383 1084.0612 5157.4365 3019272
2435.5583 1077.7599 5127.458 12686951
2522.4714 1102.467 5245.0029 12684637
2561.3157 1105.8197 5260.9531 12881501
2609.3501 1113.0118 5295.1699 12092246
2745.1038 1157.0049 5504.4673 6698001
2781.7112 1158.6675 5512.377 4659206
2850.0496 1173.3547 5582.252 2492673
2869.145 1167.6647 5555.1812 2031616
2874.6816 1156.6481 5502.77 2424832
2900.3589 1153.8915 5489.6553 9199679
2937.7874 1155.8193 5498.8271 11567965
3022.5391 1176.119 5595.4033 11435607
2985.0325 1148.9219 5466.0122 11237973
3081.7144 1173.4025 5582.479 11303254
3129.3557 1178.8887 5608.5796 11171666
3160.2126 1178.0028 5604.3652 10250820
3160.6182 1165.9026 5546.7979 9132598
3029.0745 1105.8782 5261.231 9001525
3177.0134 1148.073 5461.9736 8672561
3237.3672 1158.0856 5509.6084 8935990
3212.4973 1137.7158 5412.6992 8935216
3251.2683 1140.0647 5423.874 8869680
3309.1328 1148.9973 5466.3711 9132083
3349.45 1151.7229 5479.3379 9132853
3386.2603 1153.2019 5486.3745 9263926
3416.6821 1152.4979 5483.0254 8606509
3394.0493 1134.0796 5395.3999 9067060
3414.272 1130.191 5376.8999 9001011
3408.3733 1117.8076 5317.9858 8935474
3462.4407 1125.1373 5352.8569 8737837
3451.3115 1111.3406 5287.2183 9132597
3502.3044 1117.6155 5317.0713 9527353
3521.0322 1113.5741 5297.8447 9725245
3675.5784 1152.1792 5481.5093 9858372
3631.1465 1128.2809 5367.8125 9464651
3669.7722 1130.3815 5377.8057 8282694
3749.1238 1144.8823 5446.7939 8283211
3801.6958 1151.0277 5476.0308 8150599
3866.0972 1160.6204 5521.668 8017723
3857.4878 1148.3179 5463.1387 8740158
3843.4329 1134.6124 5397.9346 9396800
3882.3513 1136.6423 5407.5923 9527617
3865.2505 1122.3726 5339.7031 5449230
3916.8213 1128.1129 5367.0132 3083008
3758.4475 1073.7802 5108.5244 2097665
3847.7173 1090.5016 5188.0767 12095841
3921.1494 1102.5049 5245.1826 11174734
3984.9341 1111.6282 5288.5869 11042634
4014.2041 1111.056 5285.8647 11041353
4041.5928 1109.9761 5280.7271 11106889
4101.0303 1117.647 5317.2212 11107143
4138.2051 1119.1799 5324.5146 11238474
4138.2754 1110.7307 5284.3169 10843461
4160.3975 1108.2827 5272.6704 9659189
4172.9331 1103.3364 5249.1387 9724982
4213.1533 1105.7291 5260.522 9461555
4228.1665 1101.5199 5240.4966 9527604
4248.75 1098.8124 5227.6157 9527348
4287.5928 1100.8324 5237.2256 9461810
4316.8096 1100.3695 5235.0234 9724728
4390.6455 1111.2057 5286.5767 9987899
4429.501 1113.0979 5295.5791 10185280
4500.604 1123.0101 5342.7368 10251074
4630.5293 1147.3591 5458.5771 9987646
4599.1714 1131.6844 5384.0044 9066290
4708.1792 1150.5264 5473.6455 9198386
4566.3765 1108.2401 5272.4678 8474413
4658.9614 1123.0265 5342.8149 8277808
4503.5669 1078.2424 5129.7539 6435611
4664.0825 1109.1869 5276.9722 5449227
4612.7676 1089.6782 5184.1597 7028516
4336.2095 1017.5703 4841.105 6370841
4200.7383 979.30103 4659.0386 11109211
4269.6401 988.86517 4704.54 10713680
4531.3237 1042.6646 4960.4917 9001788
5084.7554 1162.4696 5530.4658 9069380
5164.3579 1173.1078 5581.0767 9332556
5056.5298 1141.3057 5429.7778 8806469
5563.2168 1247.7306 5936.0962 9004106
5621.9424 1252.9797 5961.0688 8873037
5696.8135 1261.7391 6002.7417 6175785
5660.1099 1245.8315 5927.061 4533017
0 0 0 0
0 0 0 0
0 0 0 0
0 0 0 0
0 0 0 0
-4613.8945 1101.0757 5094.7612 1024
-4551.3198 1093.2961 5058.7642 1024
-4465.832 1079.8728 4996.6533 1024
-4438.1504 1080.3416 4998.8223 1792
-4417.519 1082.5441 5009.0142 512
-4380.5605 1080.7485 5000.7056 256
-4356.0742 1082.0265 5006.6187 396293
-4379.77 1095.3723 5068.3711 527626
-4378.9863 1102.7378 5102.4517 725261
-4392.7256 1113.8882 5154.0454 856847
-4424.0869 1129.6948 5227.1841 856847
-4393.0688 1129.6832 5227.1304 922640
0 0 0 0
0 0 0 0
0 0 0 0
0 0 0 0
-4264.8032 1136.7731 5259.9355 1581340
-4259.4229 1143.697 5291.9731 1976611
-4256.9844 1151.5197 5328.1689 2239783
-4159.2007 1133.4753 5244.6768 2503210
-4134.8179 1135.3132 5253.1807 2437673
-4149.1431 1147.8881 5311.3652 2240548
-4150.9185 1157.1565 5354.251 265732
-3972.8452 1116.0448 5164.0239 1536
-3841.3589 1087.4838 5031.8701 1536
-3802.2717 1084.8385 5019.6304 1536
-3761.4553 1081.6543 5004.8965 1536
-3751.8921 1087.4783 5031.8442 1792
-3744.2087 1093.9446 5061.7646 1536
-3720.0918 1095.6753 5069.7729 1536
-3681.7839 1093.2203 5058.4136 1536
-3653.7749 1093.8083 5061.1343 1536
-3630.4822 1095.8297 5070.4873 1536
-3601.6975 1096.2131 5072.2617 1536
-3562.8176 1093.5048 5059.7295 1536
-3523.8416 1090.7205 5046.8462 1792
-3509.9216 1095.7104 5069.9355 1792
-3482.5249 1096.5431 5073.7886 1792
-3456.7786 1097.9146 5080.1343 1792
-3440.614 1102.3801 5100.7969 1536
-3412.9387 1103.2041 5104.6094 1792
-3395.7151 1107.4513 5124.2617 1792
-3376.448 1111.1028 5141.1572 1792
-3352.9885 1113.4286 5151.9189 1792
-3340.01 1119.3096 5179.1304 1792
-3316.5903 1121.7682 5190.5063 1792
-3288.5676 1122.7012 5194.8237 1792
-3259.6689 1123.35 5197.8257 1792
-3248.6152 1130.2195 5229.6118 1280
-3219.5488 1130.8944 5232.7349 1536
-3205.9404 1137.0649 5261.2861 1536
-3195.6008 1144.5275 5295.8154 1536
-3185.3447 1152.1681 5331.1694 1280
-3203.5388 1170.3555 5415.3237 1280
-3193.72 1178.5734 5453.3486 1024
-3196.6086 1191.6967 5514.0713 768
-3038.2498 1144.3571 5295.0273 256
-3103.7742 1181.2352 5465.6655 1183491
-3170.8372 1219.4828 5642.6396 1708552
-3119.2468 1212.4259 5609.9868 1641988
-3177.9751 1248.5588 5777.1768 1707268
-3199.5176 1270.7102 5879.6724 1772804
-3185.0923 1278.9069 5917.5996 1772804
-3184.4546 1292.8839 5982.2725 1772804
-3156.4563 1295.9424 5996.4238 1969156
-3126.7449 1298.3589 6007.6055 1772034
-3094.2314 1299.6543 6013.5996 1903620
-3063.2222 1301.619 6022.6904 1903620
-3031.8037 1303.4542 6031.1816 1837827
-2970.5845 1292.3682 5979.8857 1837314
-2947.2612 1297.7002 6004.5576 1837314
-2908.209 1296.1523 5997.3955 1902848
-2870.4771 1295.1621 5992.8135 2099971
-2835.5532 1295.4297 5994.0518 2099970
-2804.2559 1297.3821 6003.0854 2034434
-2760.2732 1293.4402 5984.8462 2099970
-2726.4661 1294.2261 5988.4829 2166020
-2674.9219 1286.502 5952.7427 2034435
-2612.6541 1273.3451 5891.8647 2100227
-2595.3511 1282.0435 5932.1123 2231813
-2562.8328 1283.3612 5938.21 2297606
-2525.8906 1282.4698 5934.0854 2231813
-2473.2773 1273.484 5892.5078 2362372
-2429.575 1268.8949 5871.2734 2362372
-2381.8848 1262.0596 5839.6455 2493702
-2352.5205 1264.8759 5852.6768 2428422
-2311.7866 1261.5719 5837.3892 2560008
-2269.3428 1257.2201 5817.2534 2560008
-2219.0662 1248.328 5776.1084 2559238
-2170.1372 1239.9271 5737.2373 2559749
-2128.3921 1235.4287 5716.4229 2625285
-2092.8005 1234.4147 5711.7305 2757128
-2059.167 1234.541 5712.3154 2625285
-2027.7698 1236.0348 5719.2271 2625285
-1989.9857 1233.62 5708.0537 2624258
-1944.7101 1226.3972 5674.6333 2756101
-1905.973 1223.1165 5659.4526 2756358
-1872.3599 1223.0651 5659.2148 2690565
-1833.469 1219.5013 5642.7256 2624772
-1797.1332 1217.5364 5633.6333 2558980
-1770.8081 1222.4076 5656.1729 2559236
-1746.5786 1228.9412 5686.4043 2559234
-1707.8038 1225.296 5669.5381 2559235
-1671.3853 1223.229 5659.9736 2559234
-1640.759 1225.4036 5670.0352 2624514
-1605.5863 1224.202 5664.4761 2690307
-1566.5571 1219.9464 5644.7847 2756357
-1530.6188 1217.9645 5635.6143 2953480
-1492.8557 1214.4097 5619.166 2822150
-1463.6075 1217.7775 5634.749 2756101
-1431.3771 1218.7632 5639.3101 2690308
-1393.0518 1214.4825 5619.5029 2756358
-1351.2236 1206.8635 5584.249 2756101
-1312.1501 1201.3842 5558.896 2821891
-1262.037 1185.2545 5484.2632 2821635
-1237.828 1193.2435 5521.2285 3019271
-1203.0475 1191.199 5511.7681 3085064
-1152.7751 1173.2727 5428.8223 3215879
-1152.0659 1206.21 5581.2256 3215622
-1108.9526 1195.385 5531.1372 3347206
-1078.0922 1197.5107 5540.9736 3477764
-1053.4779 1206.926 5584.5386 3675139
-1039.5115 1229.5464 5689.2046 4003333
-1033.6748 1263.6212 5846.8716 3805699
-1008.4814 1275.5762 5902.188 5909008
0 0 0 0
-916.24542 1245.2811 5762.0103 9395509
-899.87372 1270.3682 5878.0898 9461558
-855.17944 1255.8817 5811.0605 9593144
-825.30493 1262.8568 5843.335 9790264
-784.24133 1252.5719 5795.7456 9724728
-754.86859 1260.8723 5834.1523 9658935
-717.3233 1255.6637 5810.0513 9592885
-686.16034 1261.6652 5837.8208 9658678
-652.33807 1263.1545 5844.7119 9592885
-618.06238 1263.8837 5848.0859 9724471
-575.94434 1247.7101 5773.2495 9461301
-542.05042 1248.4353 5776.605 9527351
-504.29031 1239.7537 5736.4346 9461301
-471.36139 1242.5525 5749.3853 9658936
-433.89249 1232.8873 5704.6636 9527092
-399.93631 1232.4136 5702.4717 9592885
-363.81161 1224.5532 5666.1011 9658422
-332.90442 1234.4418 5711.856 9724215
-300.08841 1238.6893 5731.5098 9527351
-265.8479 1237.3907 5725.501 9461301
-231.28217 1233.9769 5709.7051 9592630
-195.03142 1218.8625 5639.77 9461301
-163.90286 1236.1285 5719.6606 9198129
-129.81262 1234.2368 5710.9077 9001007
-95.497818 1228.1234 5682.6201 9461301
-62.245262 1236.4514 5721.1548 9198385
-28.635571 1249.1212 5779.7788 9329715
5.5790119 1241.7922 5745.8672 8869164
39.029209 1223.103 5659.3906 9593143
72.977661 1230.0862 5691.7021 9395765
107.84419 1243.2386 5752.5601 9593143
142.83356 1251.1498 5789.165 9592630
175.64534 1240.6161 5740.4248 9329456
209.64851 1240.55 5740.1196 9132078
242.72334 1235.776 5718.0298 9132077
277.19846 1238.4275 5730.2983 9395506
310.90778 1237.4524 5725.7861 9461555
353.17578 1267.3823 5864.2744 9461299
380.06409 1241.7034 5745.4561 9723957
408.79559 1225.7734 5671.7471 9987129
449.08646 1244.2915 5757.4316 9658164
485.68182 1250.6785 5786.9844 9526579
517.82397 1245.5117 5763.0776 9723703
547.10742 1234.5338 5712.2817 9658166
591.13019 1256.1561 5812.3301 9592374
627.38123 1259.792 5829.1533 9723703
659.07068 1254.3665 5804.0493 9592373
697.1012 1260.9492 5834.5083 9723959
722.6582 1245.4135 5762.6226 9329202
762.38251 1254.5935 5805.0996 9394738
798.70355 1257.6222 5819.1133 9461557
830.71387 1253.8936 5801.8608 9592887
867.65582 1257.6093 5819.0537 9856059
898.62872 1252.7198 5796.4302 9856316
935.88849 1256.632 5814.5317 9329715
970.62372 1256.9969 5816.2207 8803628
992.9303 1241.7932 5745.8716 9395508
1037.5527 1254.5812 5805.0425 10053695
1066.2521 1247.9126 5774.1865 9527094
1099.8506 1247.2141 5770.9551 9395508
1129.402 1242.1069 5747.3232 9395762
1173.5007 1252.8295 5796.937 9396019
1197.3389 1241.927 5746.4907 9395506
1218.3098 1228.7358 5685.4541 9461302
1246.6821 1223.5182 5661.312 9395765
1281.3881 1224.6272 5666.4434 9395765
1316.0228 1225.6133 5671.0059 9395765
1347.2349 1223.442 5660.9595 9329972
1388.6301 1230.399 5693.1504 9329972
1411.7161 1221.188 5650.5298 9263923
1451.573 1226.5751 5675.4561 9198386
1480.7355 1222.886 5658.3867 9264179
1515.4441 1223.8394 5662.7979 9264436
1528.4542 1207.6075 5587.6924 9264436
1465.2321 1133.1115 5242.9927 9198641
1607.5266 1217.3416 5632.7319 9330228
1654.1388 1227.1609 5678.167 9790777
1656.8201 1204.6473 5573.9951 9461299
1674.093 1193.4159 5522.0259 9527091
1730.2048 1209.7715 5597.7046 9921336
1781.2329 1222.024 5654.3984 9592371
1828.8523 1231.5287 5698.377 9657907
1883.3702 1245.2501 5761.8667 9132594
1859.637 1207.6658 5587.9614 9133367
1849.5254 1180.0876 5460.3555 9265211
1914.4702 1200.5242 5554.917 8673589
1916.4462 1181.4509 5466.6631 8739383
1959.5094 1187.9199 5496.5962 8870969
2006.2087 1196.3459 5535.5835 8673076
2076.8396 1218.542 5638.2866 8607281
2075.8252 1198.6646 5546.312 8869939
2083.1394 1184.1409 5479.1099 8738351
2105.8213 1178.6647 5453.771 8935214
2137.0815 1178.0828 5451.0786 8013857
2212.3943 1201.4409 5559.1587 6828822
2285.7041 1223.0421 5659.1089 6039054
2293.9817 1209.7239 5597.4844 5842192
2307.4043 1199.46 5549.9927 5907986
2318.7915 1188.4413 5499.0083 4527629
2296.7104 1160.8125 5371.1675 3214082
2267.2649 1130.2675 5229.8335 2162688
2281.8835 1122.2167 5192.582 1769472
2289.9871 1111.2188 5141.6934 1638400
2314.04 1108.1472 5127.4814 1703936
2334.0745 1103.2561 5104.8496 1835008
2356.8269 1099.7582 5088.665 1900544
2357.905 1086.3628 5026.6836 2031616
2468.1082 1122.9518 5195.9834 9199922
2431.4153 1092.6271 5055.6689 12881243
2493.3513 1106.8231 5121.3545 12683089
2547.3254 1117.1855 5169.3027 13736551
2605.7283 1129.2213 5224.9927 13539945
2680.1716 1147.8438 5311.1606 11566161
2651.3533 1122.3234 5193.0757 9197874
2724.8992 1140.2223 5275.8955 9198134
2858.5693 1182.5886 5471.9272 8869425
2887.9302 1181.3358 5466.1309 6895898
2849.4761 1152.6782 5333.5298 8672050
2890.022 1156.256 5350.084 9000756
2900.5588 1147.8801 5311.3291 10382151
2921.332 1143.6918 5291.9487 11171409
2505.1716 970.35089 4489.8872 11697753
2825.1499 1082.792 5010.1606 10250048
2786.6201 1056.9183 4890.4414 9987647
2732.429 1025.6984 4745.9844 9790266
2890.8513 1074.1123 4969.9995 9132338
3073.8303 1130.5818 5231.2881 8605739
3096.6338 1127.5981 5217.4824 8671532
3150.3916 1135.8336 5255.5884 8408360
3194.1335 1140.332 5276.4033 8079652
3190.9609 1128.1569 5220.0674 7553305
3257.6211 1140.6675 5277.9551 8869165
3305.085 1146.2825 5303.936 10119488
3300.7847 1134.0077 5247.1401 9790267
3319.8022 1129.8984 5228.126 9658937
3336.321 1125.0226 5205.5649 9921852
3369.7681 1125.8918 5209.5874 9987902
3274.8518 1084.2466 5016.8911 9724984
3385.2598 1110.7183 5139.3779 10317119
3311.7996 1076.928 4983.0273 10185533
3320.8083 1070.3149 4952.4287 11369807
3361.5171 1073.9454 4969.2271 9462583
3535.9998 1119.8802 5181.771 9265725
3649.3464 1145.8284 5301.8354 8411961
3638.7524 1132.7507 5241.3242 8412992
3682.5967 1136.6979 5259.5874 8347460
3686.1013 1128.2317 5220.4136 8478277
3704.9536 1124.5647 5203.4468 8609602
3741.9028 1126.406 5211.9663 8345138
3717.8411 1110.0016 5136.062 8475952
3810.5281 1128.4373 5221.3652 8146728
3771.1497 1107.7816 5125.7896 7883554
3780.1572 1101.5558 5096.9824 7555617
3913.1492 1131.272 5234.4814 10646595
3923.6377 1125.384 5207.2373 10515265
3968.8513 1129.4703 5226.145 10317374
3988.0823 1126.1562 5210.8105 9791031
4052.2717 1135.491 5254.0034 9790519
4084.2024 1135.713 5255.0308 9922106
4094.2407 1129.8901 5228.0874 9724727
4035.9143 1105.4297 5114.9072 9790264
4087.0847 1111.1012 5141.1499 9593143
4122.9702 1112.5645 5147.9204 9329972
4196.0649 1123.973 5200.709 9395508
4263.4951 1133.709 5245.7578 9461557
4200.8154 1108.957 5131.2285 9593144
4200.4849 1100.9016 5093.9556 9658936
4278.9814 1113.4736 5152.127 9724474
4351.021 1124.1991 5201.7544 9724730
4421.042 1134.2557 5248.2876 9593145
4415.2139 1124.8481 5204.7578 9329720
4480.4204 1133.5428 5244.9888 9001275
4575.2803 1149.5682 5319.1396 4397578
4627.9243 1154.84 5343.5322 5120529
4622.6357 1145.6819 5301.1572 5515029
4447.3447 1094.7982 5065.7148 5646617
4311.3262 1054.1996 4877.8618 2228224
4173.5615 1013.7174 4690.5479 2162944
4104.4844 990.3443 4582.3984 2426112
4191.2505 1004.6335 4648.5156 3810573
4280.8511 1019.4112 4716.8931 12885865
4434.1929 1049.0774 4854.1611 8146992
4575.5923 1075.5543 4976.6714 8344629
4653.6235 1086.8917 5029.1309 8147251
4841.6245 1123.6058 5199.0098 7687731
5038.6396 1161.9344 5376.3589 6964008
5142.8315 1178.5104 5453.0571 6569253
5017.436 1142.5964 5286.8809 6306082
5252.9648 1188.8098 5500.7134 6306853
0 0 0 0
0 0 0 0
0 0 0 0
0 0 0 0
0 0 0 0
-4503.7998 1104.2704 4973.1919 1024
-4467.0518 1102.4739 4965.1006 1024
-4432.855 1101.287 4959.7559 1024
-4400.9243 1100.6514 4956.8931 265217
-4358.5386 1097.3746 4942.1362 1536
-4328.2964 1097.1318 4941.043 1024
-4304.0679 1098.4205 4946.8462 331013
-4379.3657 1125.3005 5067.9028 659468
-4355.0029 1126.7667 5074.5059 659468
-4389.7236 1143.646 5150.5239 725261
-4361.8765 1144.3469 5153.6802 659468
-4325.2241 1142.7313 5146.4043 725261
0 0 0 0
0 0 0 0
0 0 0 0
0 0 0 0
-4206.043 1151.8484 5187.4644 1383961
-4198.124 1158.1436 5215.8149 1779232
-4149.5757 1153.2404 5193.7329 1516060
-4114.8818 1152.1431 5188.791 1779487
-4063.0872 1146.2051 5162.0488 1911327
-4033.6816 1146.5409 5163.5615 1253139
-4032.6692 1155.014 5201.7212 1024
-3813.4082 1100.627 4956.7832 1536
-3753.3208 1091.6929 4916.5474 1536
-3708.4714 1087.0857 4895.7983 1536
-3703.8345 1094.2864 4928.228 1536
-3676.7397 1094.9138 4931.0537 1536
-3646.6702 1094.6584 4929.9033 1536
-3611.5537 1092.8716 4921.856 1536
-3592.5598 1095.9741 4935.8286 1536
-3561.0068 1095.2648 4932.6338 1536
-3528.156 1094.1411 4927.5737 1536
-3492.2102 1092.031 4918.0708 1536
-3454.48 1089.3228 4905.8735 1536
-3428.9255 1090.4406 4910.9077 1536
-3400.3271 1090.6013 4911.6313 1536
-3386.0356 1095.3928 4933.2109 1536
-3364.5842 1097.9315 4944.644 1536
-3336.8435 1098.4446 4946.9546 1536
-3317.6479 1101.8044 4962.0859 1536
-3296.0518 1104.42 4973.8657 1536
-3274.5728 1107.1227 4986.0371 1536
-3250.0056 1108.8207 4993.6846 1792
-3229.3049 1111.8812 5007.4678 1792
-3206.54 1114.2811 5018.2759 1792
-3181.4658 1115.916 5025.6392 1792
-3169.7107 1122.2976 5054.3794 1792
-3158.5391 1129.0098 5084.6079 1536
-3134.3252 1131.1443 5094.2207 1536
-3129.7026 1140.4592 5136.1719 1536
-3179.116 1169.8411 5268.4961 1536
-3174.3477 1179.6705 5312.7637 1280
-3152.5574 1183.3077 5329.144 1024
-3148.4531 1193.7239 5376.0547 768
-3020.7175 1156.9998 5210.6636 256
-3079.1548 1191.5616 5366.3164 1117955
-3096.1934 1210.6573 5452.3159 1445636
-3130.3611 1236.924 5570.6104 1576195
-3119.8376 1245.9033 5611.0493 1773061
-3111.9717 1256.1487 5657.1904 1772547
-3128.719 1276.6604 5749.5674 1641218
-3107.6123 1282.0077 5773.6494 1707268
-3084.9944 1286.8435 5795.4282 1575682
-3061.7385 1291.5193 5816.4854 1903363
-3030.8062 1293.0264 5823.2729 1903620
-2998.4912 1293.9716 5827.5298 1903620
-2945.7395 1286.0167 5791.7046 1772034
-2908.3601 1284.6646 5785.6147 1772034
-2868.3696 1282.113 5774.1235 1837571
-2834.533 1282.2837 5774.8926 1969156
-2803.2615 1283.6332 5780.9697 1968900
-2748.6658 1274.2036 5738.5029 1968899
-2709.1973 1271.6382 5726.9492 2100486
-2683.4814 1275.5448 5744.543 2034693
-2639.3135 1270.6681 5722.5806 2100227
-2601.9683 1268.9921 5715.0322 2231556
-2558.8083 1264.3987 5694.3452 2231813
-2522.6121 1263.1692 5688.8086 2100226
-2486.9749 1262.1903 5684.3999 2231813
-2440.7515 1255.7382 5655.3418 2231813
-2402.9463 1253.4976 5645.2515 2166020
-2361.8928 1249.4756 5627.1377 2166020
-2325.5347 1247.8577 5619.8516 2166020
-2277.1697 1239.6565 5582.9165 2297606
-2237.2295 1235.8673 5565.8516 2297606
-2223.9614 1246.9194 5615.6255 2297606
-2176.4829 1238.8348 5579.2158 2363399
-2145.2466 1239.8883 5583.9604 2494215
-2109.8967 1238.5599 5577.978 2493958
-2074.4243 1237.1165 5571.4771 2362629
-2055.8328 1245.8561 5610.8369 2428165
-2009.9955 1238.1005 5575.9087 2494215
-1983.2098 1242.0171 5593.5479 2428422
-1946.4617 1239.7216 5583.2095 2494215
-1899.896 1230.9856 5543.8662 2428422
-1867.6379 1231.3756 5545.623 2493702
-1827.0029 1226.1577 5522.1235 2427909
-1793.0321 1225.3035 5518.2759 2296323
-1757.2262 1223.1401 5508.5332 2362116
-1724.86 1223.3345 5509.4087 2493446
-1677.918 1212.9993 5462.8633 2559492
-1672.4955 1232.8632 5552.3223 2428163
-1640.1469 1233.2775 5554.188 2428163
-1608.829 1234.4999 5559.6929 2427650
-1539.8878 1206.3003 5432.6934 2558722
-1511.2347 1209.1309 5445.4414 2624772
-1477.2834 1207.7534 5439.2378 2493186
-1441.9315 1205.1438 5427.4854 2690308
-1410.2388 1205.5432 5429.2842 2624772
-1380.1486 1207.3634 5437.4814 2493186
-1338.3943 1198.8226 5399.0171 2493186
-1296.3921 1189.6362 5357.645 2690308
-1273.4092 1197.8796 5394.7705 2690562
-1247.6971 1203.9144 5421.9487 2756099
-1217.2443 1205.5726 5429.4165 2756099
-1180.9774 1201.4065 5410.6538 2821635
-1143.8446 1196.1022 5386.7656 2952965
-1115.8112 1200.2816 5405.5879 2952708
-1078.6096 1194.5546 5379.7954 2952964
-1046.701 1194.519 5379.6353 3215879
-1026.0208 1207.6976 5438.9868 3150342
-982.05719 1193.4363 5374.7593 3215621
-981.23438 1232.4026 5550.248 3281414
-948.83661 1233.0389 5553.1138 3412228
-938.07257 1262.8446 5687.3467 3674885
-868.87201 1213.2722 5464.0923 3805699
-864.75311 1254.2583 5648.6772 4593669
-845.64886 1275.9348 5746.2998 5909006
-791.92419 1245.0023 5606.9922 8343082
-757.66278 1243.2996 5599.3232 9132337
-725.64508 1245.2911 5608.293 9593142
-697.48145 1254.4055 5649.3398 9330227
-662.31396 1251.2073 5634.937 9066798
-626.91632 1247.2118 5616.9424 9263921
-589.60181 1238.7408 5578.793 9527350
-560.42676 1247.3802 5617.7012 9527351
-524.16846 1240.3495 5586.0376 9724730
-482.80624 1219.4796 5492.0479 9593143
-449.19922 1216.5967 5479.0645 9658936
-422.73065 1234.1044 5557.9116 9658167
-388.29858 1229.3578 5536.5352 9592630
-359.99564 1244.9309 5606.6704 9527094
-325.39297 1239.6699 5582.9771 9724729
-289.66711 1228.4551 5532.4697 9724473
-258.40179 1235.7085 5565.1362 9527094
-226.52385 1241.7257 5592.2354 9395765
-192.24196 1234.3695 5559.1064 9395765
-157.87538 1223.3152 5509.3218 9856059
-126.04956 1231.3168 5545.3579 9132592
-93.08638 1229.9333 5539.127 9395765
-60.864948 1242.1812 5594.2861 9593144
-27.57901 1236.0164 5566.5229 9461301
5.3754234 1229.2811 5536.1899 9329971
38.345509 1234.6238 5560.2515 9461557
71.092094 1231.158 5544.6421 9329971
103.15631 1221.8008 5502.5015 9527350
135.9825 1223.7957 5511.4858 9264435
171.56042 1244.9868 5606.9219 9790522
203.38017 1236.4541 5568.4941 9658937
235.88023 1233.8622 5556.8213 9593141
266.51086 1223.3242 5509.3628 9461556
301.53421 1233.0491 5553.1597 9461555
335.02518 1235.2107 5562.8945 9724470
369.12299 1239.022 5580.0586 9526835
402.49933 1239.9839 5584.3911 9461042
430.60208 1225.7875 5520.4561 9658421
469.22455 1241.4276 5590.8931 9592373
503.50854 1244.2837 5603.7554 9526581
540.11469 1252.1698 5639.2715 9789496
569.68018 1243.7654 5601.4214 9592373
596.91614 1231.4803 5546.0947 9789496
633.4953 1238.7474 5578.8223 9855545
672.23901 1249.3163 5626.4204 9592117
703.18256 1245.0751 5607.3198 9592374
741.05609 1252.9335 5642.7109 9329202
772.02362 1248.9413 5624.7314 9461558
797.7395 1237.1351 5571.5615 9395764
840.77716 1252.0625 5638.7886 9790522
871.45288 1248.1433 5621.1377 9790522
895.64813 1235.5728 5564.5249 9395765
934.58667 1243.5114 5600.2773 9724730
966.52393 1241.9095 5593.0635 9592887
1000.6371 1243.1171 5598.502 9658680
1017.2045 1223.1492 5508.5742 9527349
1047.5183 1220.4384 5496.3657 8474662
1082.2369 1222.8682 5507.3086 9329970
1124.0051 1232.8882 5552.4351 9198126
1154.8583 1230.7067 5542.6099 9132334
1180.7648 1223.5198 5510.2432 8737577
1210.2762 1220.3547 5495.9888 9329715
1246.2836 1223.7339 5511.2075 9395508
1273.325 1218.3615 5487.0122 9724473
1302.9276 1215.6464 5474.7842 9724473
1336.3644 1216.5535 5478.8696 9527094
1361.425 1209.9733 5449.2354 9198386
1402.6158 1217.7015 5484.04 9329715
1418.8805 1203.9298 5422.0181 9329715
1455.2019 1207.4095 5437.689 9395765
1472.0232 1194.9093 5381.3931 9329715
1516.8051 1205.1548 5427.5347 9395507
1508.4802 1173.6558 5285.6758 9067313
0 0 0 0
1618.8151 1209.285 5446.1357 9528634
1640.6498 1201.6417 5411.7134 10713417
1605.5583 1153.3969 5194.4375 10977104
1700.4038 1198.5549 5397.8115 10976336
1757.1737 1215.703 5475.0396 10580808
1729.3995 1174.7979 5290.8188 10317379
1673.2716 1116.431 5027.9585 10053692
1788.6006 1172.5038 5280.4873 9462068
1812.0452 1167.4498 5257.7266 9527349
1834.3508 1161.8452 5232.4858 9001005
1803.1393 1123.0936 5057.9644 9461556
1900.2598 1164.2346 5243.2466 9395507
1937.0786 1167.701 5258.8579 9198386
1979.1782 1174.1907 5288.085 9132849
2014.6206 1176.5901 5298.8906 9198643
2049.0549 1178.3362 5306.7544 8869679
2173.7998 1231.1788 5544.7363 9198647
2309.3315 1288.4663 5802.7363 8014889
2284.6287 1255.9833 5656.4458 7094050
2302.0525 1247.2642 5617.1782 5187348
2246.0481 1199.5765 5402.4126 2886662
2217.7686 1167.8286 5259.4326 1377539
2254.874 1170.9139 5273.3271 1114112
2251.1775 1153.0165 5192.7246 1376256
2264.9685 1144.438 5154.0903 1376256
2276.8555 1135.1383 5112.2085 1376256
2288.0916 1125.7628 5069.9849 1376256
2302.3782 1118.1115 5035.5264 1572864
2329.2012 1116.6664 5029.0181 1638400
2340.3691 1107.8472 4989.2998 1835008
2368.6687 1107.2562 4986.6387 3216387
2355.0193 1087.3121 4896.8184 12355677
2498.4241 1139.4827 5131.7739 12289366
2545.0754 1146.802 5164.7373 13209697
2577.3335 1147.5389 5168.0557 13604456
2614.522 1150.4279 5181.0664 13210471
2628.8804 1143.3208 5149.0591 9789751
2601.8953 1118.6025 5037.7378 9263668
2668.6682 1134.296 5108.415 9198134
2736.7334 1150.1807 5179.9531 9198392
2743.854 1140.3834 5135.8306 9329981
2676.1113 1100.0284 4954.0874 9527359
2458.4426 999.5899 4501.7524 10448203
2420.657 973.66187 4384.9834 11369045
2566.2815 1021.2744 4599.4111 11435350
2519.679 992.19165 4468.4341 12158300
2628.729 1024.3689 4613.3472 12355934
2628.9609 1013.9155 4566.2695 11369040
2723.5671 1039.702 4682.4014 8343334
2915.3037 1101.6732 4961.4951 8343337
2949.3848 1103.4249 4969.3843 8540716
2984.5439 1105.5414 4978.916 8277544
3113.8708 1142.1567 5143.8164 8803118
3132.7319 1137.9366 5124.811 8672042
3125.3801 1124.3673 5063.7002 8277285
3175.6082 1131.5736 5096.1548 8079908
3173.281 1120.0934 5044.4521 7685669
3148.2781 1100.8982 4958.0044 6699035
3066.0283 1062.2247 4783.835 7751980
3111.7051 1068.174 4810.6274 6634266
3196.4512 1087.3049 4896.7861 9660481
3231.9714 1089.4978 4906.6616 10120256
3244.7346 1084.0485 4882.1201 9396274
3282.1536 1086.8599 4894.7817 9330225
3376.3938 1108.2733 4991.2192 7093264
3435.1587 1117.7715 5033.9951 11369807
3433.6233 1107.6538 4988.4292 8737834
3521.9346 1126.4451 5073.0576 9002040
3539.7854 1122.5731 5055.6201 8870454
3567.1628 1121.7622 5051.9678 9067577
3595.176 1121.1628 5049.2686 9067834
3630.5017 1122.8351 5056.7998 8935992
3644.9783 1118.0845 5035.4048 8935733
3662.0542 1114.2019 5017.9189 8869939
3711.2771 1120.084 5044.4102 8738864
3727.7498 1116.0669 5026.3184 8738350
3778.7061 1122.3557 5054.6411 8672556
3804.062 1121.0017 5048.543 9067057
3876.7063 1133.4954 5104.8091 9001520
3916.5537 1136.2804 5117.3521 9330228
3922.0178 1129.1238 5085.1216 9198642
3982.4565 1137.7826 5124.1172 9659450
3970.1616 1125.6876 5069.6465 9790265
4022.7166 1132.0237 5098.1812 9658936
4057.9329 1133.4222 5104.48 9724473
4085.918 1132.7955 5101.6572 9921851
4066.8772 1119.2358 5040.5903 9658679
4088.1868 1116.8978 5030.0605 9658680
4131.1909 1120.4777 5046.1831 9592887
4144.9536 1116.1322 5026.6123 9593144
4153.1001 1110.3472 5000.5591 9658681
4204.9971 1116.2579 5027.1792 9724730
4148.9326 1093.6281 4925.2627 9593143
4217.394 1103.9089 4971.5635 9658938
4216.1089 1095.9174 4935.5732 8803890
4150.3696 1071.3976 4825.146 7553316
0 0 0 0
3981.2188 1013.765 4565.5918 2558210
4065.8076 1028.3169 4631.1274 2097664
4084.1875 1026.0405 4620.8755 1900800
4103.0522 1023.9153 4611.3047 1376256
4149.3662 1028.6229 4632.5059 1179648
4203.4082 1035.1719 4661.9995 786432
4255.0112 1041.0386 4688.4209 10913111
4374.7397 1063.3888 4789.0771 9529661
4374.9526 1056.5868 4758.4438 8476981
4609.7065 1106.153 4981.6699 8410674
4675.0454 1114.6937 5020.1343 8278833
4721.3223 1118.6102 5037.7729 8870969
4820 1134.8148 5110.7515 7752491
4792.0356 1121.1868 5049.376 8015921
4948.2764 1150.5586 5181.6553 7819055
0 0 0 0
0 0 0 0
0 0 0 0
0 0 0 0
0 0 0 0
-4398.1147 1107.1345 4856.4922 1280
-4345.5186 1101.0991 4830.0176 1024
-4307.6079 1098.7292 4819.6221 1024
-4314.1826 1107.7504 4859.1934 1536
-4295.5156 1110.3678 4870.6748 768
-4271.5337 1111.6373 4876.2441 768
-4257.4653 1115.522 4893.2837 66561
-4368.8184 1152.5474 5055.6973 1448727
-4373.3154 1161.6995 5095.8433 791054
-4284.3066 1145.9679 5026.8364 462089
-4320.0493 1163.6183 5104.2603 593418
-4270.8853 1158.4863 5081.749 527882
0 0 0 0
0 0 0 0
0 0 0 0
0 0 0 0
-4051.6868 1139.1868 4997.0908 397066
-4016.1689 1137.5135 4989.751 594445
-3981.0859 1135.9393 4982.8457 134149
-3985.427 1145.6748 5025.5508 463368
-3977.5999 1152.0326 5053.4395 133890
-3885.7935 1133.9795 4974.2485 1280
-3820.0486 1123.3138 4927.4634 1536
-3656.1223 1083.3906 4752.3384 1536
-3691.0664 1102.2347 4834.999 1536
-3641.9355 1096.0707 4807.96 1536
-3634.7024 1102.5183 4836.2427 1536
-3565.2749 1090.0529 4781.5625 1536
-3564.8406 1098.6509 4819.2783 1536
-3512.1748 1091.1605 4786.4214 1536
-3486.1423 1091.8899 4789.6211 1536
-3468.7256 1095.3522 4804.8081 1536
-3441.9829 1095.9021 4807.2207 1536
-3413.468 1095.8925 4807.1782 1536
-3389.2634 1097.2781 4813.2563 1536
-3360.9236 1097.3372 4813.5156 1536
-3337.4387 1098.9958 4820.7915 1536
-3316.2983 1101.4618 4831.6084 1536
-3287.095 1101.2695 4830.7646 1536
-3264.3188 1103.2461 4839.4351 1536
-3239.9363 1104.7097 4845.8555 1792
-3223.0847 1108.7905 4863.7559 1792
-3196.8667 1109.6936 4867.7178 1792
-3185.1038 1115.6765 4893.9614 1792
-3165.1191 1118.8628 4907.939 1792
-3135.3203 1118.6069 4906.8164 1792
-3111.0669 1120.3433 4914.4326 1536
-3092.6516 1124.2345 4931.502 1536
-3114.7803 1143.0792 5014.165 1536
-3100.5178 1148.8031 5039.2734 1280
-3097.4119 1158.8124 5083.1792 1280
-3100.3779 1171.3121 5138.0098 1024
-3082.5967 1176.1438 5159.2041 1024
-3071.927 1183.8129 5192.8447 768
-2963.6313 1153.6348 5060.4673 65792
-3032.2444 1192.408 5230.5474 1117185
-3027.4114 1202.8014 5276.1387 1379843
-3040.8494 1220.7467 5354.8564 1576452
-3058.4319 1240.7517 5442.6094 1444866
-3064.1428 1256.3158 5510.8818 1641475
-3043.0728 1261.1165 5531.9404 1707524
-3042.8728 1274.765 5591.8101 1838597
-3025.0916 1281.2675 5620.3335 1838084
-3004.7271 1286.8085 5644.6392 1772291
-2964.9333 1284.0596 5632.5815 1706241
-2931.6174 1284.0857 5632.6958 1574656
-2892.5981 1281.5853 5621.728 1705984
-2863.3154 1283.3909 5629.6479 1772034
-2798.4111 1269.0846 5566.8926 1837570
-2776.1003 1273.9835 5588.3823 1837827
-2758.0525 1280.9807 5619.0757 1838083
-2727.259 1282.157 5624.2354 1837314
-2680.0366 1275.5431 5595.2231 1903107
-2637.4956 1271.0194 5575.3799 1837314
-2602.5735 1270.0991 5571.3428 2100486
-2552.7009 1261.7654 5534.7866 2231814
-2506.1973 1254.9015 5504.6782 2297351
-2475.3381 1255.7936 5508.5913 2166020
-2448.1042 1258.5731 5520.7842 2231556
-2403.6433 1252.4517 5493.9316 2231813
-2368.6919 1251.1852 5488.3765 2297606
-2338.6619 1252.5192 5494.228 2231813
-2280.0112 1238.3461 5432.0571 2166020
-2254.4312 1241.986 5448.0239 2100227
-2212.7346 1236.7239 5424.9414 2165763
-2169.1802 1230.2529 5396.5562 2100227
-2149.0962 1237.099 5426.5869 2166020
-2121.8623 1239.9745 5439.2002 2297605
-2088.4475 1239.2712 5436.1152 2428165
-2055.4541 1238.7998 5434.0474 2296836
-2023.2174 1238.7767 5433.9458 2296836
-1992.1826 1239.5005 5437.1211 2493959
-1941.4606 1227.798 5385.7871 2428422
-1912.9531 1229.9875 5395.3921 2165250
-1880.3171 1229.5519 5393.481 2296579
-1844.7803 1227.1716 5383.0396 2428165
-1805.2145 1221.9802 5360.2676 2230531
-1768.2234 1218.377 5344.4619 2296323
-1737.7855 1219.2401 5348.248 2361859
-1706.7413 1219.702 5350.2744 2296322
-1673.4769 1218.5647 5345.2852 2099201
-1636.6561 1214.7439 5328.5249 2164992
-1604.6169 1214.3915 5326.9795 2164992
-1580.1433 1219.8657 5350.9922 2296321
-1547.311 1218.9791 5347.103 2427651
-1507.0924 1212.1146 5316.9917 2427651
-1474.7018 1211.3875 5313.8018 2427651
-1444.8391 1212.7504 5319.7803 2493445
-1413.9004 1213.2507 5321.9751 2559238
-1370.9884 1203.2655 5278.1743 2559494
-1346.0369 1208.9451 5303.0884 2559494
-1306.7579 1201.7206 5271.3979 2625287
-1275.3726 1201.5791 5270.7769 2559494
-1247.5184 1204.8409 5285.085 2558978
-1215.639 1204.283 5282.6377 2558979
-1184.1377 1204.0801 5281.7476 2624516
-1147.4796 1198.4801 5257.1836 2624516
-1115.2896 1197.3645 5252.2896 2755589
-1087.4901 1201.0339 5268.3857 2755845
-1057.2263 1202.1182 5273.1416 2821638
-1018.6398 1193.5168 5235.4116 2755846
-984.36224 1189.5823 5218.1528 2756099
-947.70142 1182.4193 5186.7319 2821635
-931.18195 1200.748 5267.1318 2953477
-900.10425 1200.9243 5267.9053 2953222
-866.1076 1197.0791 5251.0376 3150343
-825.76489 1183.8491 5193.0039 3215622
-802.13904 1194.4885 5239.6743 3281415
-770.57532 1193.6885 5236.1646 3215107
-735.11853 1186.5375 5204.7964 3346178
-710.04358 1196.251 5247.4053 3214337
-681.60553 1200.9287 5267.9243 3608322
-652.39838 1204.6354 5284.1836 5119752
-623.50262 1209.3197 5304.7314 7027228
-583.92493 1192.6831 5231.7549 7684897
-551.65594 1189.9465 5219.7505 7290135
-523.50824 1196.3025 5247.6309 8408614
-490.68832 1192.1102 5229.2417 9198386
-459.57886 1191.7885 5227.8301 9329971
-437.43338 1216.3457 5335.5513 9001007
-404.68246 1212.9419 5320.6206 9395508
-377.42764 1226.828 5381.5327 9592887
-346.34381 1229.6823 5394.0527 9658936
-314.98105 1232.0258 5404.333 9658936
-281.10388 1223.952 5368.9165 9724473
-249.17839 1223.3997 5366.4937 9527094
-218.91609 1232.046 5404.4214 9593144
-184.66467 1217.358 5339.9922 9921852
-152.66922 1214.5431 5327.644 9724729
-121.71834 1220.7366 5354.812 9658936
-90.209229 1223.7251 5367.9214 9658680
-58.307999 1221.7527 5359.269 9724729
-26.670675 1227.2048 5383.1855 9460788
5.2080078 1222.778 5363.7671 9789496
37.200912 1229.7341 5394.2803 9658167
68.897476 1224.9921 5373.479 9592373
99.21418 1206.4681 5292.2231 9658680
131.31119 1213.2914 5322.1533 9461301
164.14796 1222.9835 5364.6685 9527094
194.84456 1216.1725 5334.7915 9527094
227.2079 1220.2141 5352.52 9593142
260.41046 1227.2206 5383.2544 9527349
290.50638 1219.6549 5350.0674 9263920
322.63382 1221.2679 5357.1431 9263920
356.52167 1228.6588 5389.5635 9855543
383.32483 1212.4263 5318.3584 9724214
423.09531 1236.5586 5424.2163 9658164
455.37009 1236.923 5425.8145 9723959
488.32211 1238.9576 5434.7393 9526581
522.80017 1244.3726 5458.4927 9394738
549.60822 1231.9641 5404.0625 9921082
578.56287 1225.4688 5375.5703 9657909
614.48444 1233.6379 5411.4048 9131822
648.32471 1237.0258 5426.2651 9066029
681.21423 1238.365 5432.1401 9066029
701.32977 1217.4095 5340.2183 8671270
736.23718 1222.8317 5364.0024 7684888
765.13251 1218.2325 5343.8281 8737578
796.80737 1218.2487 5343.8989 9856059
833.57861 1225.7577 5376.8374 9855289
861.77106 1220.5632 5354.0518 9263409
898.73688 1227.7225 5385.4565 9592117
930.57513 1227.6266 5385.0356 9461044
968.78961 1235.6698 5420.3174 9263666
986.70074 1218.1312 5343.3838 9592628
1004.7579 1201.858 5272.0005 9395764
1057.7959 1227.1473 5382.9331 9461556
1094.2635 1232.2955 5405.5161 9198385
1122.0883 1227.6946 5385.334 9395764
1152.6957 1226.3085 5379.2539 9592886
1175.0634 1216.467 5336.0835 9658167
1198.5503 1208.2697 5300.1255 9066030
1230.3837 1208.6899 5301.9692 8671528
1248.5549 1196.0024 5246.3149 9855802
1306.3159 1220.9335 5355.6763 9592374
1323.96 1208.0763 5299.2773 9526838
1354.1786 1207.0229 5294.6572 9592631
1384.5875 1206.1832 5290.9731 9263666
1383.6129 1178.6461 5170.1807 9132079
1429.3541 1191.2355 5225.4043 9527350
1449.0649 1182.0569 5185.1421 9527351
1435.5863 1146.7478 5030.2573 9330488
0 0 0 0
0 0 0 0
1277.1572 960.37518 4212.7261 2818560
1320.449 973.89417 4272.0278 3081728
1349.5072 976.60425 4283.9155 2557184
1381.6637 981.41492 4305.0176 2623232
1392.4141 971.12164 4259.8657 2756096
1399.5201 958.69861 4205.3716 3414531
1468.2 988.15143 4334.5679 4862223
1493.3295 987.78473 4332.959 10319429
1367.5585 889.30206 3900.9609 11239757
1366.7976 874.03424 3833.9878 9791541
1789.1085 1125.3865 4936.5552 9527605
1837.0723 1136.9678 4987.3569 9527350
1888.2848 1150.1611 5045.2305 9133362
1930.8838 1157.7787 5078.6445 9330229
1962.5398 1158.7015 5082.6929 9132593
2008.1199 1167.6931 5122.1348 8277285
2055.0076 1177.1658 5163.6875 8803886
2086.8745 1177.8827 5166.832 8803888
2102.2834 1169.4238 5129.7266 9067317
2153.8457 1181.0302 5180.6387 9001782
2159.6545 1167.5746 5121.6152 8278317
2213.8806 1180.3053 5177.4585 8146730
2202.1145 1157.9857 5079.5527 7488803
2188.019 1135.0597 4978.9868 7291426
2218.303 1135.4596 4980.7412 6371613
2242.3271 1132.687 4968.5791 4595724
2231.219 1112.4696 4879.8945 3346437
2346.2542 1154.859 5065.8374 2294529
2319.688 1127.3597 4945.2104 1572864
2354.4482 1129.9791 4956.7007 1835008
2392.2898 1133.9946 4974.3149 10449991
2430.551 1138.1088 4992.3623 12224091
2533.1914 1171.9073 5140.6206 11894867
2514.8391 1149.594 5042.7422 10840896
2476.0105 1118.5542 4906.585 10315067
2489.1045 1111.4192 4875.2871 11236428
2426.9556 1071.2363 4699.0229 11040340
2433.7903 1062.0684 4658.8071 7882792
2546.8188 1098.9276 4820.4922 10513997
2436.3369 1039.5964 4560.2334 10909012
2383.3486 1005.8305 4412.1177 10250823
2414.5391 1007.9372 4421.3589 11500370
2380.5942 983.10034 4312.4106 12486997
2427.1331 991.67468 4350.0225 11895109
2474.4954 1000.4019 4388.3052 12486729
2545.5415 1018.423 4467.3555 13539676
2607.1157 1032.3226 4528.3267 11302986
2688.2407 1053.6016 4621.6675 8540194
2807.2568 1089.1523 4777.6123 8474919
2865.2273 1100.5454 4827.5884 8737835
2933.8552 1115.7661 4894.355 9132853
2964.8547 1116.5187 4897.6562 8934960
3034.9348 1131.8312 4964.8252 8541231
3079.5544 1137.4459 4989.4541 8344111
3085.5999 1128.8416 4951.7109 7226155
3030.2756 1098.1594 4817.1221 5385241
3040.0105 1091.4067 4787.5015 5122841
3028.0542 1077.0637 4724.585 4728854
3055.176 1076.7559 4723.2349 6570797
2992.7168 1045.1687 4584.6763 9334097
3040.1687 1052.1896 4615.4736 5582863
3069.2649 1052.7889 4618.103 8674871
3228.1033 1097.4874 4814.1748 9200699
3178.2854 1071.0856 4698.3618 8674098
3331.6338 1113.0149 4882.2861 8870708
3373.7178 1117.3716 4901.3975 9133881
3372.2949 1107.3676 4857.5142 8080682
3408.9194 1109.9208 4868.7139 8343854
3458.1885 1116.5135 4897.6338 8607027
3465.8315 1109.6691 4867.6099 8409648
3504.7927 1112.8821 4881.7041 8541233
3564.116 1122.4552 4923.6968 8475438
3594.6079 1122.8665 4925.501 8409646
3618.6245 1121.2649 4918.4756 8541229
3636.2771 1117.7325 4902.981 8344107
3648.0549 1112.4648 4879.874 9067827
3676.6428 1112.3658 4879.4395 9132850
3729.1829 1119.4585 4910.5518 9066801
3794.645 1130.2904 4958.0664 8869678
3804.5762 1124.5424 4932.8521 9001264
3846.124 1128.1556 4948.7021 8672301
3951.1855 1150.2034 5045.415 8803374
3918.8289 1132.2174 4966.519 8869167
3975.2515 1139.9584 5000.4751 8671787
3992.187 1136.345 4984.625 9000752
3963.667 1119.9412 4912.6689 8934958
3944.5046 1106.4014 4853.2759 9461559
3997.0352 1113.0211 4882.314 9724730
4030.8569 1114.3737 4888.2466 9592887
4066.6919 1116.2595 4896.519 9329716
4052.5481 1104.4971 4844.9229 9527351
4026.134 1089.5795 4779.4863 9659194
3965.0725 1065.5593 4674.1206 10974800
4022.5559 1073.5088 4708.9912 10777677
4035.8254 1069.6305 4691.979 10974800
3827.8301 1007.5639 4419.7212 11172436
3994.9299 1044.4025 4581.3154 10646092
3898.3699 1012.28 4440.4087 10515021
4100.4199 1057.6077 4639.2407 9791559
4162.8125 1066.5503 4678.4678 10383697
4073.0667 1036.6531 4547.3223 11765606
4254.6392 1075.7494 4718.8198 11633763
4319.5068 1085.0201 4759.4863 7686441
4288.5098 1070.2463 4694.6802 9330747
4302.0303 1066.7013 4679.1299 9396795
4484.3345 1104.7841 4846.1816 9265209
4555.2925 1115.1249 4891.542 9199160
4608.8877 1121.1115 4917.8022 9001526
4662.2769 1126.9729 4943.5142 8410160
4722.957 1134.5127 4976.5879 8410418
4775.2783 1139.9636 5000.498 8213041
0 0 0 0
0 0 0 0
0 0 0 0
0 0 0 0
0 0 0 0
-4309.9912 1113.1514 4759.1846 1280
-4273.6216 1111.0275 4750.104 1024
-4231.3384 1107.3279 4734.2866 1024
-4205.5571 1107.9263 4736.8452 1024
-4215.8027 1118.0875 4780.2886 768
-4151.6807 1108.5295 4739.4238 512
-4159.8091 1118.264 4781.0435 512
-4223.5186 1143.1761 4887.5527 256
-4240.0327 1155.5698 4940.541 256
-4224.1416 1159.2428 4956.2441 198659
-4165.6294 1151.1885 4921.8091 66818
-4122.7983 1147.3849 4905.5469 199172
0 0 0 0
0 0 0 0
0 0 0 0
0 0 0 0
-3942.9866 1137.4398 4863.0273 1024
-3844.1951 1117.105 4776.0879 1024
-3833.5015 1122.2594 4798.125 1024
-3786.1235 1116.6711 4774.2329 1280
-3759.3625 1117.1252 4776.1743 1280
-3723.2324 1114.7811 4766.1519 1536
