# .PCD v0.7 - Point Cloud Data file format
VERSION 0.7
FIELDS x y z rgb
SIZE 4 4 4 4
TYPE F F F U
COUNT 1 1 1 1
WIDTH 1307
HEIGHT 1
VIEWPOINT 0 0 0 1 0 0 0
POINTS 1307
DATA ascii
-2464.4785 1289.2563 4681.8511 395269
-2434.5378 1288.093 4677.6265 395525
-2408.9504 1289.2325 4681.7646 461062
-2387.657 1292.7235 4694.4419 461062
-2363.0566 1294.4854 4700.8398 329732
-2328.9375 1291.0127 4688.229 197634
-2301.6116 1291.2671 4689.1528 256
-2265.1411 1286.335 4671.2422 256
-2284.0281 1313.1061 4768.4595 256
-2290.5081 1333.3257 4841.8857 256
-2310.7266 1362.1569 4946.5845 256
-2270.5464 1355.6669 4923.0166 0
-2227.8794 1347.504 4893.3735 256
-2200.2754 1348.3566 4896.4697 0
-2164.7114 1344.2887 4881.6973 461062
-2179.9578 1372.0913 4982.6606 461062
-2088.853 1332.7997 4839.9756 263683
-2209.7205 1429.5465 5191.3057 197635
-2240.1799 1469.7109 5337.1602 1579543
-2172.5547 1445.7542 5250.1626 1645080
-2162.6658 1460.0807 5302.1885 1776922
-2131.2483 1460.0807 5302.1885 1974301
-2081.167 1447.1033 5255.0615 2500645
-2052.4407 1448.8059 5261.2446 2632231
-2035.3716 1458.9167 5297.9614 2763817
-1999.8713 1455.9264 5287.1021 2895403
-2007.3353 1484.6168 5391.2896 1053199
-1958.3441 1471.8059 5344.7681 0
-1919.0522 1465.9835 5323.624 256
-1911.5704 1484.6726 5391.4922 256
-1871.8121 1478.5023 5369.0854 0
-1844.3453 1481.9955 5381.7705 256
-1799.8055 1471.6515 5344.207 66048
-1749.0602 1455.7719 5286.541 197890
-1704.7478 1444.7651 5246.5708 263683
-1665.1321 1437.4036 5219.8379 526855
-1625.9293 1430.1268 5193.4126 658441
-1599.8948 1434.375 5208.8398 724234
-1591.7562 1455.1506 5284.2852 921613
-1559.7124 1454.4677 5281.8052 921613
-1555.2537 1480.0073 5374.5508 987406
-1481.8677 1439.651 5227.9995 1053199
-1460.7773 1449.4622 5263.6279 1184785
-1452.0355 1472.2216 5346.2773 1118992
-1381.7039 1432.1572 5200.7861 1184785
-1392.0299 1475.7753 5359.1821 1316371
-1357.1561 1472.392 5346.896 1316371
-1341.9045 1490.644 5413.1772 1316371
-1301.1748 1480.7949 5377.4111 1513237
-1279.7915 1493.021 5421.8091 1381651
-1265.4976 1514.3602 5499.3013 1315858
-1218.6843 1496.8848 5435.8398 1315858
-1150.7426 1451.8041 5272.1323 1184272
-1237.9449 1605.403 5829.9165 1053199
-1149.3386 1533.2815 5568.0127 1053199
-1027.6499 1411.4592 5125.6226 1184785
-1067.7114 1511.1438 5487.6206 1184786
-951.49768 1388.9648 5043.936 1184787
-986.33856 1486.5173 5398.1914 1118994
-950.20154 1480.0524 5374.7144 1118994
-923.58917 1488.4893 5405.3521 1118994
-877.03107 1464.2323 5317.2646 1184785
-792.86475 1373.0396 4986.104 1184785
-803.15735 1444.6978 5246.3262 1250578
-803.3075 1503.1479 5458.5845 1315858
-765.05469 1491.6281 5416.7505 1513237
-638.43292 1299.2615 4718.1841 1776409
-612.54376 1303.6627 4734.1665 1842202
-580.02917 1293.7089 4698.02 1644823
-553.12811 1295.9033 4705.9888 1447444
-529.86774 1307.313 4747.4224 1447444
-551.96008 1438.172 5222.6284 1447444
-521.61591 1439.8337 5228.6626 1447444
-446.48004 1310.2578 4758.1162 1447444
-460.02591 1441.0048 5232.915 1447444
-450.25159 1512.3223 5491.9004 1447444
-360.76358 1306.1477 4743.1909 1447444
-376.24893 1477.3019 5364.7261 1447444
-347.74582 1491.3905 5415.8882 1447444
-311.54089 1471.9547 5345.3081 1513237
-281.38452 1479.9319 5374.2769 1579030
-250.29468 1484.4091 5390.5352 1513237
-219.05161 1489.1543 5407.7671 1513237
-181.73888 1447.1927 5255.3867 1579030
-151.20744 1453.0433 5276.6328 1579030
-120.5103 1459.9368 5301.666 1513237
-88.394913 1448.4521 5259.96 1513237
-55.936497 1415.7755 5141.2969 1513237
-25.343201 1408.6028 5115.2495 1447444
4.9819598 1412.9286 5130.9585 1447444
31.870951 1272.6138 4621.4146 1513237
59.144478 1270.2467 4612.8188 1513237
86.250793 1266.92 4600.7378 1513237
122.62727 1368.6564 4970.187 1579030
153.74713 1383.6814 5024.7495 1579030
182.31108 1374.5607 4991.6279 1513237
216.65291 1405.4685 5103.8677 1381651
247.54532 1409.1682 5117.3032 1447444
290.67764 1474.1339 5353.2217 1579030
320.72894 1466.504 5325.5142 1447444
345.31583 1437.4934 5220.1641 1513237
373.67557 1427.6675 5184.4819 1579030
408.49854 1442.152 5237.0815 1644823
442.34888 1451.3999 5270.6646 1579030
406.60785 1246.1486 4525.3076 1579030
505.38107 1453.0404 5276.6221 1447444
538.52887 1458.1354 5295.124 1513237
564.39697 1444.0438 5243.9517 1513237
593.14642 1438.4103 5223.4937 1447444
539.19519 1242.7283 4512.8872 1579030
616.80988 1354.4414 4918.5664 1579030
675.19324 1415.7498 5141.2036 1579030
711.52441 1427.5217 5183.9526 1579030
753.96692 1450.0728 5265.8452 1644823
778.71887 1438.1603 5222.5859 1710616
798.07928 1417.5815 5147.8555 1776409
832.06653 1423.5424 5169.502 1776409
858.1333 1416.0104 5142.1499 1907995
886.84393 1413.2078 5131.9727 1644823
912.63147 1406.0875 5106.1157 1710616
928.75067 1385.0062 5029.5605 1644823
955.82202 1381.0605 5015.2319 1579030
985.46741 1380.9598 5014.8662 1579030
1010.7744 1374.9635 4993.0908 1710616
1047.3966 1384.2627 5026.8604 1710616
1068.3275 1372.8828 4985.5352 1776409
1094.8076 1369.0549 4971.6343 1776409
1126.4045 1371.6584 4981.0889 1842202
1153.5094 1368.7985 4970.7031 1644823
1175.422 1360.0731 4939.0171 1710616
1212.7311 1369.1541 4971.9941 1644823
1231.0002 1356.8181 4927.1973 1842202
1278.1161 1376.1123 4997.2627 1842202
1286.0903 1353.3444 4914.5825 1907995
1305.7675 1343.6267 4879.2935 1776409
1332.2618 1341.1931 4870.4561 1907995
1363.1562 1343.1984 4877.7378 1776409
1393.8575 1344.934 4884.0405 1907995
1418.0969 1340.4907 4867.9053 1842202
1438.8392 1332.9849 4840.6479 1710616
1459.4132 1325.6194 4813.9009 1644823
1480.4126 1318.9153 4789.5557 1579030
1506.0878 1316.5509 4780.9692 1710616
1523.4794 1307.1663 4746.8896 1644823
1548.5271 1304.572 4737.4688 1776409
1566.5933 1296.2931 4707.4043 1710616
1584.8733 1288.4777 4679.0229 1710616
1610.2792 1286.6246 4672.2939 1710616
1634.5208 1283.9196 4662.4707 1710616
1671.4321 1291.0912 4688.5142 1644823
1678.7317 1275.5288 4632 1644823
1718.0404 1284.397 4664.2046 1447701
1765.441 1298.938 4717.0093 1644566
1761.356 1275.7351 4632.7495 1776152
1803.5304 1286.2356 4670.8813 1710359
1811.3441 1272.2838 4620.2163 1776152
1828.5559 1265.2504 4594.6748 1710359
1851.7529 1262.504 4584.7017 1710359
1984.6505 1333.5482 4842.6938 1644566
1927.4653 1276.665 4636.1265 1644566
1931.7299 1261.5103 4581.0928 1578773
1959.1366 1261.679 4581.7056 1578773
1972.2229 1252.7467 4549.2686 1578773
1973.6519 1236.7505 4491.1792 1644566
1995.6219 1233.8805 4480.7568 1578773
2008.6204 1225.6115 4450.7285 1644566
2026.9364 1220.7593 4433.1084 1644566
2035.9097 1210.4764 4395.7671 1644566
1948.1969 1143.6938 4153.25 1578773
2046.6992 1186.5316 4308.8125 1512980
2249.4009 1287.9768 4677.2041 1578773
2104.2175 1190.1829 4322.0718 1512980
2123.1587 1186.4562 4308.5386 1447187
2036.4926 1124.5042 4083.5642 1447187
2066.5056 1127.6782 4095.0901 1316115
2089.0964 1126.775 4091.8105 1447444
2109.4995 1124.7264 4084.3711 1513237
2146.509 1131.4778 4108.8882 1579030
2121.5854 1105.7975 4015.6316 1381651
2451.1189 1263.3851 4587.9014 1447444
2477.6594 1263.0565 4586.708 1381651
2497.9221 1259.5695 4574.0449 1447444
2517.6475 1255.8893 4560.6807 1447187
2540.2937 1253.7286 4552.8345 1381394
2567.2827 1253.7344 4552.855 1512980
2596.6738 1254.9009 4557.0913 1512980
2599.9473 1243.5511 4515.8755 1447187
2640.2119 1249.9454 4539.0957 1447187
2681.6052 1256.7396 4563.7686 1447187
2703.6685 1254.4297 4555.3799 1512980
2729.259 1253.7855 4553.041 1710359
2809.9622 1278.2242 4641.7886 1644566
3070.7646 1383.3206 5023.439 1578773
3109.7917 1387.4526 5038.4443 1578773
2845.1108 1257.2932 4565.7788 1578773
2854.2385 1249.4459 4537.2817 1578773
2814.8833 1220.7196 4432.9644 1644566
2803.6614 1204.6122 4374.4712 1644566
2797.3677 1190.8981 4324.6689 1644566
2852.1914 1203.2155 4369.3989 1644566
2930.2942 1225.0435 4448.666 1644566
2874.8088 1191.1321 4325.519 1644565
2916.1145 1197.5695 4348.896 1578771
2936.6211 1195.4272 4341.1167 1644564
2953.5342 1191.8722 4328.2065 1644564
2975.0996 1190.2396 4322.2778 1578771
2997.4756 1188.9563 4317.6177 1578771
3218.9221 1265.9883 4597.3545 1578771
3078.843 1200.7343 4360.3887 1512978
3150.6375 1218.5082 4424.9336 1512978
3143.8391 1205.844 4378.9443 1512978
3190.3877 1213.6812 4407.4043 1512978
3116.4861 1175.9417 4270.356 1710357
3102.3684 1161.1868 4216.7744 1776150
3114.8718 1156.5519 4199.9434 1710357
3012.2476 1109.5825 4029.3767 1578771
3256.1067 1189.9777 4321.3267 1447185
3255.877 1180.6096 4287.3071 1578771
3085.8979 1110.3105 4032.0208 1512978
3216.7283 1148.4917 4170.6733 1578771
3360.4231 1190.6487 4323.7637 1578771
3390.5217 1192.2236 4329.4829 1578771
3346.5095 1167.9105 4241.1914 1512978
3366.0046 1165.9585 4234.1025 1578771
3178.042 1092.7051 3968.0876 1644564
3492.1707 1191.8937 4328.2847 1644564
3493.2073 1183.5553 4298.0044 1579028
3502.4631 1178.1023 4278.2021 1644051
3293.6978 1099.9203 3994.2891 1512208
3471.9739 1151.1829 4180.4458 1709587
3504.5073 1153.7384 4189.7261 1709587
3547.959 1159.8271 4211.8374 1841173
3567.4446 1158.0511 4205.3877 1972759
3557.4878 1146.8086 4164.561 1907479
3564.176 1141.0497 4143.6479 2039065
3548.9729 1128.4092 4097.7446 1841943
3610.6145 1140.2074 4140.5894 1710357
3642.9688 1142.66 4149.4961 1776150
3636.8159 1133.0826 4114.7163 1973531
3782.9585 1170.766 4251.5605 1841945
3612.0945 1110.491 4032.676 1776152
3623.8889 1106.7952 4019.2551 1710359
3655.6838 1109.2162 4028.0469 1842202
3679.6826 1109.2557 4028.1902 1973018
3600.5051 1078.3922 3916.1116 2038554
3809.9121 1133.8048 4117.3389 1906966
3811.5906 1127.087 4092.9436 1906966
3648.4053 1072.0122 3892.9426 1775380
3654.6541 1067.1014 3875.1096 1775381
3683.8276 1068.9039 3881.6553 1578002
3684.1519 1062.365 3857.9097 1578001
0 0 0 0
0 0 0 0
0 0 0 0
0 0 0 0
0 0 0 0
-4119.6851 1279.6399 4549.0444 0
-4156.3853 1299.5424 4619.7964 0
-4077.6873 1283.3892 4562.3726 0
-4132.6396 1309.3652 4654.7163 0
-4128.2363 1316.7581 4680.9971 0
-4181.6606 1342.8206 4773.6479 0
-4186.6802 1353.5885 4811.9272 0
-4170.4819 1357.5972 4826.1777 0
-4138.0425 1356.3378 4821.7007 0
-4096.7065 1352.1244 4806.7227 0
-4062.8135 1350.3259 4800.3291 0
-4037.0032 1351.2074 4803.4624 0
-3987.1494 1343.9967 4777.8291 0
-3992.146 1355.3043 4818.0269 0
-3982.5457 1361.7834 4841.0601 0
-3950.687 1360.6904 4837.1743 0
-3906.4446 1355.2853 4817.959 0
-3893.7224 1360.8163 4837.6216 0
-4103.2871 1444.6924 5135.7964 0
-3904.3672 1384.9276 4923.3359 0
-3935.3037 1406.4097 4999.7031 0
-3863.2471 1391.1304 4945.3862 0
-3805.4128 1380.778 4908.5845 0
-3748.1868 1370.4886 4872.0063 256
-3718.9124 1370.3392 4871.4751 256
-3696.0554 1372.5704 4879.4072 256
-3668.2324 1372.9783 4880.8564 256
-3672.2021 1385.3867 4924.9678 256
-3645.6956 1386.4043 4928.5854 256
-3620.0947 1387.7856 4933.4961 256
-3718.9238 1437.2786 5109.4404 256
-3576.8728 1393.7253 4954.6113 256
-3525.261 1384.9824 4923.5308 256
-3479.4915 1378.4081 4900.1592 256
-3458.0325 1381.4347 4910.9189 256
-3295.4155 1327.6436 4719.6943 256
-3406.8345 1384.2792 4921.0308 256
-3393.6475 1390.825 4944.3008 256
-3347.1167 1383.7006 4918.9736 256
-3325.4343 1386.8135 4930.04 256
-3257.9072 1370.6935 4872.7344 256
-3140.7036 1333.1978 4739.4395 256
-3064.9158 1312.765 4666.8022 256
-3037.5845 1312.9039 4667.2959 256
-3010.2056 1313.0247 4667.7251 256
-2966.083 1305.7764 4641.958 256
-2960.2268 1315.3962 4676.1562 256
-2958.012 1326.8314 4716.8076 0
-2972.5166 1346.0559 4785.1494 256
-2887.1287 1319.9803 4692.4521 131842
-2896.8203 1337.29 4753.9873 263171
-2806.6335 1308.3792 4651.2104 263684
-2770.259 1304.2295 4636.459 395013
-2733.6628 1299.8911 4621.0361 461062
-2781.4331 1335.9884 4749.3599 526855
-2689.7114 1305.1373 4639.686 658441
-2650.5144 1299.399 4619.2866 256
-2704.1956 1339.549 4762.0176 0
-2619.676 1311.3649 4661.8247 263684
-2587.9146 1309.2711 4654.3818 197633
-2552.0427 1305.0305 4639.3066 256
-2525.8027 1305.6766 4641.6035 0
-2504.2786 1308.8016 4652.7124 0
-2485.4058 1313.3971 4669.0493 256
-2455.1133 1311.9935 4664.0596 256
-2431.1218 1313.9635 4671.0625 0
-2438.3787 1333.0623 4738.958 256
-2436.9255 1347.7891 4791.3105 256
-2395.5784 1340.5386 4765.5356 256
-2356.1143 1334.1815 4742.9365 256
-2325.3767 1332.6721 4737.5708 256
-2302.2231 1335.5253 4747.7134 256
-2295.5571 1348.132 4792.5293 256
-2254.905 1340.8451 4766.625 256
-2215.8201 1334.3168 4743.4175 256
-2202.5552 1343.369 4775.5977 256
-2180.6331 1347.3079 4789.6001 256
-2178.4448 1363.7042 4847.8882 0
-2154.7656 1366.9055 4859.2686 460549
-2185.3035 1405.0527 4994.8794 329476
-2143.1145 1396.8453 4965.7026 131586
-2192.5864 1448.984 5151.0527 1447957
-2175.7627 1458.1643 5183.688 1842715
-2141.3286 1455.6366 5174.7021 2236960
-2092.9941 1443.4487 5131.375 2303266
-2059.0979 1441.0057 5122.6904 2698024
-2019.0491 1434.1196 5098.2104 2763817
-2002.8438 1444.2173 5134.1074 2763817
-2004.2267 1467.5049 5216.8931 1184785
-1967.9205 1463.4934 5202.6328 0
-1959.0338 1480.0702 5261.562 256
-1915.0177 1470.213 5226.5205 0
-1900.8977 1483.3612 5273.2617 512
-1874.2784 1487.0323 5286.312 263682
-1839.4215 1484.1813 5276.1768 329476
-1787.0704 1466.8718 5214.6431 395269
-1742.4106 1455.3779 5173.7827 526855
-1697.1475 1442.9591 5129.6348 526855
-1662.6482 1439.4061 5117.0039 790027
-1627.9297 1435.5277 5103.2163 855820
-1607.7314 1444.549 5135.2861 987406
-1575.0952 1442.5272 5128.0991 1118992
-1539.08 1437.2703 5109.4111 1184785
-1498.9398 1427.8732 5076.0049 1250578
-1453.9889 1413.4148 5024.606 1184785
-1416.7792 1406.0342 4998.3687 1184785
-1401.4468 1420.5135 5049.8418 1184785
-1368.4995 1417.3805 5038.7041 1316371
-1361.1852 1441.2485 5123.5532 1250578
-1367.1328 1480.5676 5263.3306 1250578
-1334.5016 1478.9674 5257.6421 1382164
-1297.1201 1471.9005 5232.5195 1382164
-1256.0131 1460.1564 5190.7695 1447444
-1242.4784 1480.6808 5263.7329 1315858
-1176.0374 1437.5896 5110.5459 1315858
-1197.4564 1502.4595 5341.1548 1315858
-1259.0906 1622.6793 5768.5293 1249809
-1133.4055 1501.4607 5337.604 1184785
-1064.894 1451.1965 5158.918 1184785
-1034.5795 1451.5531 5160.1855 1250578
-1012.3753 1463.6571 5203.2144 1316373
-979.63043 1460.8032 5193.0693 1250580
-959.11993 1476.5999 5249.2251 1184787
-899.95117 1431.9446 5090.4785 1184787
-876.46149 1442.9312 5129.5352 1118995
-843.68256 1438.8647 5115.0791 1118992
-850.13959 1503.9038 5346.2896 1118992
-780.36212 1433.8986 5097.4248 1118992
-748.61432 1430.9482 5086.9365 1315858
-649.42212 1293.4243 4598.0474 1447444
-656.46112 1364.6969 4851.417 1644823
-598.42401 1301.0171 4625.0391 1513237
-627.89844 1430.6125 5085.7432 1447444
-594.00952 1421.6285 5053.8057 1381651
-584.42413 1472.9437 5236.228 1447444
-554.65344 1476.2867 5248.1123 1513237
-460.83176 1299.4208 4619.3643 1447444
-469.4472 1407.3021 5002.876 1513237
-466.03174 1491.2295 5301.2329 1513237
-383.76968 1316.7571 4680.9937 1447444
-384.69794 1422.7721 5057.8711 1381651
-380.75723 1527.1722 5429.0073 1513237
-346.88818 1519.7246 5402.5312 1447444
-315.06409 1520.6322 5405.7578 1579030
-277.52667 1491.0498 5300.5942 1513237
-243.1993 1473.3644 5237.7231 1513237
-208.57913 1448.4716 5149.231 1513237
-178.83983 1454.7511 5171.5542 1579030
-154.02151 1511.9337 5374.835 1579030
-123.01366 1522.3313 5411.7979 1579030
-83.652885 1400.244 4977.7847 1513237
-54.171803 1400.6135 4979.0981 1513237
-24.736086 1404.4424 4992.71 1447444
4.4277105 1282.7592 4560.1333 1381651
30.886488 1259.8418 4478.6636 1381651
57.400639 1259.3213 4476.813 1579030
89.867752 1348.4531 4793.6714 1579030
118.70529 1353.3912 4811.2261 1579030
148.55547 1365.7263 4855.0762 1513237
179.89864 1385.5576 4925.5757 1513237
214.09219 1418.7416 5043.5425 1447444
242.57188 1410.5696 5014.4917 1447444
270.84238 1403.0973 4987.9282 1447444
323.96942 1513.1953 5379.3198 1513237
362.03964 1539.5415 5472.9795 1513237
362.11456 1413.2671 5024.0811 1513237
395.384 1425.8883 5068.9487 1644823
424.05307 1421.3083 5052.667 1710616
452.05292 1415.2371 5031.0845 1579030
484.57889 1423.2103 5059.4287 1579030
521.67377 1442.8916 5129.3945 1579030
540.59918 1412.918 5022.8403 1644823
571.84674 1416.5973 5035.9194 1644823
526.10028 1238.6384 4403.2866 1579030
632.24646 1418.2123 5041.6611 1644823
663.81885 1421.8503 5054.5942 1579030
692.47119 1419.1898 5045.1362 1579030
723.8584 1422.1226 5055.562 1579030
744.21613 1404.0144 4991.1885 1579030
770.9538 1398.8666 4972.8882 1776409
801.25623 1400.3278 4978.0825 1710616
825.98828 1392.2955 4949.5288 1644823
856.52356 1394.2609 4956.5151 1710616
876.55157 1379.5592 4904.2515 1644823
909.41028 1385.3464 4924.8247 1710616
937.11578 1383.1677 4917.0796 1644823
952.57434 1363.5891 4847.479 1776409
980.64221 1362.6785 4844.2417 1710616
1004.2664 1355.8203 4819.8613 1710616
1028.5496 1350.2064 4799.9043 1842202
1062.4143 1357.1344 4824.5327 1842202
1083.726 1348.084 4792.3589 1776409
1117.1229 1354.1451 4813.9062 1776409
1152.6307 1362.3995 4843.25 1776409
1158.0865 1335.5947 4747.9604 1776409
1183.652 1332.7031 4737.6812 1776409
1210.6948 1331.5706 4733.6548 1776409
1241.9668 1335.0353 4745.9717 1776409
1273.4985 1338.6195 4758.7134 1710616
1295.6448 1332.3969 4736.5923 1710616
1327.8826 1336.5959 4751.5195 1710616
1352.0829 1332.6982 4737.6636 1710616
1360.8018 1314.01 4671.228 1710616
1397.4795 1322.5261 4701.5024 1710616
1423.8994 1321.1915 4696.7578 1644823
1436.125 1306.9902 4646.2729 1644823
1457.5291 1301.519 4626.8232 1710616
1473.5159 1291.5017 4591.2124 1710616
1501.7986 1292.4294 4594.5103 1710616
1523.892 1288.0923 4579.0923 1710616
1556.4684 1292.613 4595.1631 1842202
1577.089 1287.2198 4575.9907 1776409
1583.9044 1270.9319 4518.0879 1776409
1607.2522 1268.2302 4508.4839 1776409
1645.058 1276.8389 4539.0869 1710616
1681.1592 1283.8689 4564.0781 1579030
1714.8837 1288.8899 4581.9272 1644566
1705.8887 1262.1471 4486.8584 1776152
1743.7218 1270.3406 4515.9858 1776152
1748.7206 1254.7274 4460.4819 1578773
1793.5702 1267.7468 4506.7651 1710359
1815.2678 1264.2599 4494.3691 1644566
1944.3733 1334.5973 4744.4146 1710359
1840.5408 1245.3223 4427.0474 1644566
1901.8317 1268.7101 4510.1895 1644566
1884.3419 1239.6234 4406.7881 1644566
1897.1832 1231.0125 4376.1768 1644566
1917.9827 1227.7279 4364.5005 1644566
1931.5964 1219.9924 4337.001 1841945
1960.38 1221.9153 4343.8369 1841945
1960.4824 1206.1429 4287.7671 1710359
1965.5323 1193.7792 4243.8145 1710359
2003.8867 1201.6998 4271.9722 1710359
2013.5842 1192.4521 4239.0972 1776152
2013.1501 1177.5065 4185.9658 1644566
2136.1487 1234.2423 4387.6587 1710359
2005.451 1144.7936 4069.6738 1644566
2013.2852 1135.6105 4037.0286 1644566
2037.2061 1135.6105 4037.0286 1447444
2363.1716 1302.0269 4628.6284 1447444
2370.9482 1291.3246 4590.5825 1250065
2110.9163 1136.6589 4040.7556 1118479
2126.0098 1131.9474 4024.0059 921100
2156.0024 1135.1847 4035.5149 986893
2182.6636 1136.6163 4040.604 1184272
2466.188 1270.3263 4515.9351 1118479
2459.6838 1253.3767 4455.6802 1447187
2463.5481 1242.0144 4415.2876 1447187
2499.001 1246.649 4431.7637 1447187
2508.853 1238.5487 4402.9678 1512980
2534.8911 1238.5237 4402.8789 1512980
2564.3018 1240.1302 4408.5898 1447187
2585.8391 1237.9351 4400.7861 1578773
2631.1096 1247.0322 4433.126 1512980
2438.8218 1144.4702 4068.5239 1447187
2633.8704 1223.9027 4350.9019 1512980
2448.6973 1126.8271 4005.804 1447187
2788.0186 1270.6572 4517.1113 1512980
2736.9717 1235.5309 4392.2393 1512980
2723.4248 1217.8351 4329.332 1512980
2756.2256 1221.0015 4340.5884 1512980
2814.0337 1235.0852 4390.6548 1381394
2799.2612 1217.3468 4327.5962 1447187
2800.176 1206.6907 4289.7144 1578773
2774.0828 1184.6923 4211.5112 1578773
2780.9375 1177.0315 4184.2773 1710357
2674.6077 1122.0239 3988.729 1710356
2864.5464 1191.179 4234.5708 1644564
2896.1624 1193.8684 4244.1318 1644564
2900.3779 1185.3138 4213.7207 1644564
2974.4541 1205.2119 4284.457 1644564
3145.9458 1263.9105 4493.1274 1644564
3043.9329 1212.6636 4310.9473 1578771
3070.4595 1213.0516 4312.3271 1512978
3046.2246 1193.5446 4242.9805 1512978
3032.2559 1178.3462 4188.9512 1644564
3060.7393 1179.7577 4193.9692 1710357
3037.6179 1161.4159 4128.7646 1776150
3052.9131 1157.938 4116.4014 2039322
2961.4214 1114.3331 3961.3887 1973529
3222.3552 1202.983 4276.5337 1907736
3235.6785 1198.5319 4260.71 1841943
3236.124 1189.4164 4228.3052 1710357
3278.5757 1195.7616 4250.8618 1776150
3312.4788 1198.9159 4262.0752 1710357
3320.5146 1192.7311 4240.0884 1644564
3297.0291 1175.4014 4178.4824 1578771
3325.8013 1176.8214 4183.5308 1644564
3350.9387 1176.9437 4183.9653 1644564
3588.8762 1251.2567 4448.1436 1710357
3437.4915 1189.739 4229.4521 1644564
3443.5383 1183.2058 4206.2266 1906709
3428.8691 1169.6995 4158.2124 1775380
3447.0271 1167.5043 4150.4087 1775380
3425.5449 1152.0092 4095.3247 1906966
3427.2241 1144.4666 4068.511 1906966
3467.0068 1149.6644 4086.9893 1841173
3417.2539 1125.306 4000.3967 1775893
3483.1858 1139.1161 4049.4902 1972760
3489.4753 1133.3654 4029.0469 1907223
3511.9514 1132.9144 4027.4441 1907736
3549.3723 1137.2582 4042.8855 1907736
3573.8608 1137.4277 4043.4885 1973531
3572.6643 1129.4749 4015.2166 1907738
3564.7876 1119.5293 3979.8606 1841945
3569.1687 1113.5388 3958.5647 1907738
3593.6116 1113.8447 3959.6523 1907738
3647.6416 1123.2577 3993.1147 2104347
3625.6414 1109.2874 3943.4512 2104347
3690.0286 1121.7576 3987.782 2104345
3579.6387 1081.2754 3843.8704 1906966
3756.0261 1127.3822 4007.7771 1906966
3636.2778 1084.582 3855.625 1972502
3648.896 1081.5504 3844.8479 2038552
3661.8745 1078.6626 3834.5818 1776407
0 0 0 0
0 0 0 0
0 0 0 0
0 0 0 0
0 0 0 0
-4110.9336 1303.8192 4539.3809 0
-4091.8752 1306.3219 4548.0942 0
-4064.9258 1306.3219 4548.0942 0
-4110.7754 1329.873 4630.0898 0
-4148.585 1351.1221 4704.0703 0
-4141.8413 1358.0502 4728.1914 0
-4119.8467 1360.0382 4735.1128 0
-4105.0361 1364.4412 4750.4424 0
-4077.1604 1364.5323 4750.7598 0
-4027.9048 1357.4198 4725.9966 0
-3998.4287 1356.92 4724.2568 0
-3962.5564 1354.2272 4714.8813 0
-3897.0525 1341.2976 4669.8657 0
-3972.5369 1377.0558 4794.3613 0
-3934.3926 1373.6565 4782.5264 0
-3931.668 1382.6642 4813.8877 0
-3868.4128 1370.361 4771.0527 0
-3789.7795 1352.3888 4708.481 0
-4046.1079 1454.5684 5064.2295 0
-3847.5935 1393.5378 4851.7456 0
-3817.698 1393.1194 4850.2886 0
-3810.0115 1400.8601 4877.2388 0
-3737.3 1384.6283 4820.7261 0
-3700.3176 1381.4857 4809.7847 256
-3526.1101 1326.6647 4618.9194 256
-3490.5012 1323.5402 4608.041 256
-3468.0071 1325.3785 4614.4419 256
-3486.3015 1342.9583 4675.6475 256
-3450.4099 1339.7795 4664.5806 256
-3377.5623 1322.0836 4602.9702 256
-3333.1494 1315.3206 4579.4238 256
-3326.7412 1323.5669 4608.1343 256
-3296.717 1322.4761 4604.3364 256
-3262.3054 1319.5923 4594.2964 256
-3225.719 1315.7729 4580.999 256
-3270.0947 1345.1936 4683.4302 256
-3362.5713 1395.0741 4857.0942 256
-3352.8562 1403.0524 4884.8711 0
-3308.1917 1396.4169 4861.769 0
-3209.2605 1366.557 4757.8091 66049
-3124.5471 1342.2761 4673.2725 263683
-3072.7263 1331.8174 4636.8594 395269
-3019.1541 1320.4039 4597.1226 65792
-2992.114 1320.4922 4597.4297 66048
-2951.3262 1314.459 4576.4243 790027
-2942.3372 1322.6079 4604.7954 592648
-2918.4646 1324.1564 4610.1865 395269
-2870.0835 1314.5089 4576.5981 329477
-2871.7466 1327.8165 4622.9302 197890
-2830.4482 1321.3251 4600.3291 131585
-2793.9758 1316.9821 4585.2085 66049
-2775.666 1321.1991 4599.8906 256
-2744.3813 1319.2626 4593.1484 0
-2724.2273 1322.6915 4605.0864 256
-2711.5581 1329.8606 4630.0464 0
-2724.4905 1349.8607 4699.6792 256
-2714.8918 1358.9956 4731.4829 256
-2695.2983 1363.2657 4746.3501 256
-2686.2373 1373.0093 4780.2734 256
-2664.7041 1376.5179 4792.4888 256
-2619.1057 1367.5366 4761.2192 256
-2578.2036 1360.8384 4737.8989 256
-2518.8176 1344.1293 4679.7246 256
-2500.9509 1349.4508 4698.252 256
-2483.6665 1355.2101 4718.3032 256
-2438.6973 1345.8221 4685.6182 256
-2409.5952 1345.0753 4683.0181 256
-2396.8684 1353.5585 4712.5532 256
-2355.1841 1345.696 4685.1792 256
-2330.592 1347.5287 4691.5596 256
-2290.2644 1340.1974 4666.0352 256
-2287.8931 1355.1693 4718.1616 256
-2232.5947 1338.7742 4661.0801 256
-2219.2339 1347.431 4691.2197 256
-2196.7061 1350.6711 4702.5005 0
-2183.8088 1359.9918 4734.9517 0
-2172.8601 1370.7847 4772.5278 0
-2172.428 1388.584 4834.498 0
-2179.8081 1411.9194 4915.7427 395012
-2127.0791 1396.425 4861.7974 131586
-2167.3572 1442.4027 5021.8735 1776922
-2118.1836 1429.3008 4976.2578 2040094
-2106.2722 1441.3273 5018.1294 2237473
-2062.7146 1431.7324 4984.7241 2565925
-2032.1727 1431.0247 4982.2598 2632231
-1999.8781 1429.0432 4975.3613 3092782
-2011.6599 1458.9694 5079.5522 1382164
-1980.262 1458.0127 5076.2212 132097
-1944.2794 1453.5986 5060.8535 66048
-1933.9392 1468.5178 5112.7959 66048
-1911.037 1474.2211 5132.6523 197890
-1879.6201 1473.4342 5129.9126 329476
-1852.0741 1475.7056 5137.8208 395269
-1801.9829 1459.7891 5082.4058 461062
-1760.2085 1450.1835 5048.9629 724234
-1719.3336 1440.9995 5016.9883 790027
-1679.9479 1432.7627 4988.3105 921613
-1637.3901 1421.4769 4949.0181 1053199
-1623.2001 1434.8555 4995.5972 1118992
-1598.5789 1439.3394 5011.208 1184785
-1541.775 1414.4673 4924.6138 1316371
-1499.1049 1401.8527 4880.6943 1513750
-1478.786 1410.0541 4909.2485 1382164
-1443.0587 1403.5977 4886.7695 1316371
-1425.3785 1414.7898 4925.7363 1250578
-1391.5286 1410.0647 4909.2852 1184785
-1380.0685 1428.3103 4972.8091 1184785
-1354.3992 1432.3252 4986.7876 1316371
-1326.8976 1434.5385 4994.4932 1316371
-1310.8408 1449.5082 5046.6118 1250578
-1273.7098 1441.3293 5018.1362 1250578
-1270.6108 1472.1904 5125.5825 1184785
-1239.6747 1471.5197 5123.2471 1184015
-1103.9182 1343.2681 4676.7261 1118479
-1148.256 1433.1963 4989.8203 1184272
-1213.1753 1554.246 5411.2671 1250065
-1090.0345 1434.3964 4993.9985 1315858
-1082.4714 1464.1927 5097.7378 1250578
-1023.2306 1423.7917 4957.0776 1250578
-1015.1994 1454.3656 5063.5234 1250578
-951.00476 1403.8917 4887.7935 1184787
-914.82953 1392.9092 4849.5566 1184787
-912.6319 1434.626 4994.7979 1184787
-900.92438 1463.6887 5095.9829 1118994
-856.45477 1439.6945 5012.4443 1184787
-779.24567 1356.9642 4724.4106 1184785
-707.54492 1278.0181 4449.5518 1184785
-754.55981 1415.693 4928.8809 1184785
-740.92065 1446.0743 5034.6567 1447444
-669.02643 1360.5371 4736.8501 1381651
-671.58502 1425.5464 4963.1865 1381651
-645.09351 1432.0226 4985.7339 1381651
-608.41266 1415.4158 4927.9155 1315858
-586.80115 1433.9594 4992.4771 1381651
-559.59009 1440.062 5013.7241 1381651
-552.29291 1500.969 5225.7778 1381651
-486.27249 1400.0393 4874.3809 1447444
-449.63187 1376.2928 4791.7051 1447444
-464.78265 1518.5604 5287.0244 1447444
-434.75259 1523.1068 5302.853 1447444
-386.32938 1458.903 5079.3208 1381651
-355.31415 1455.1426 5066.2285 1447444
-324.21481 1450.3118 5049.4097 1381651
-296.59662 1461.6543 5088.8999 1513237
-267.63135 1468.1741 5111.5991 1447444
-237.83946 1471.2448 5122.29 1579030
-214.29103 1519.4846 5290.2422 1579030
-183.53342 1524.3781 5307.2793 1579030
-151.50502 1518.5585 5287.0176 1513237
-100.90006 1274.9713 4438.9438 1513237
-80.35601 1373.3915 4781.6035 1579030
-50.564293 1334.8795 4647.5205 1513237
-21.972763 1273.828 4434.9634 1579030
4.2254839 1249.9583 4351.8584 1381651
30.20867 1258.1495 4380.3774 1315858
56.085968 1256.3979 4374.2788 1513237
85.074715 1303.4237 4538.0039 1513237
113.62544 1322.7629 4605.3354 1447444
140.65717 1320.353 4596.9448 1447444
169.74919 1334.9274 4647.687 1447444
202.29478 1368.801 4765.6216 1513237
236.45773 1403.9794 4888.0986 1513237
264.8316 1400.8582 4877.2319 1447444
321.81989 1534.8184 5343.6279 1381651
348.70016 1514.0511 5271.3252 1513237
351.94379 1402.5059 4882.9688 1579030
382.75644 1409.4254 4907.0596 1579030
411.75827 1409.1705 4906.1724 1579030
442.4313 1414.2915 4924.0015 1644823
467.28253 1401.3199 4878.8398 1513237
502.06912 1417.9189 4936.6309 1513237
523.35559 1396.6628 4862.6255 1513237
491.41522 1242.9924 4327.606 1579030
574.89264 1382.0251 4811.6631 1447444
610.2251 1397.6488 4866.0581 1513237
636.47064 1391.9894 4846.354 1513237
665.08862 1391.7828 4845.6353 1513237
692.4375 1389.0477 4836.1128 1513237
718.76263 1384.558 4820.481 1579030
748.52625 1386.7816 4828.2231 1710616
782.00836 1395.4775 4858.4985 1710616
799.81488 1376.5759 4792.6909 1776409
822.87543 1367.7036 4761.8008 1776409
855.80518 1375.2792 4788.1763 1644823
879.6994 1368.3147 4763.9282 1644823
899.28943 1355.2963 4718.6035 1579030
928.05151 1356.4691 4722.687 1579030
949.36896 1347.0105 4689.7559 1710616
968.23486 1334.7104 4646.9321 1710616
1004.1787 1345.9817 4686.1738 1776409
1027.48 1340.1564 4665.8926 1776409
1052.6797 1337.0476 4655.0688 1776409
1078.5031 1334.8695 4647.4858 1776409
1092.5067 1318.5348 4590.6147 1710616
1129.9625 1330.6104 4632.6567 1644823
1143.0076 1314.0493 4574.998 1644823
1175.8752 1320.5167 4597.5146 1644823
1177.1115 1291.973 4498.1372 1776409
1241.299 1332.2578 4638.3926 1710616
1418.5206 1489.4862 5185.7993 1644823
1289.3628 1325.1614 4613.6855 1644823
1311.9404 1320.3704 4597.0054 1776409
1331.0974 1312.4017 4569.2617 1842202
1351.0956 1305.5636 4545.4541 1710616
1354.342 1283.1221 4467.3218 1710616
1401.0403 1301.9186 4532.7637 1579030
1428.1534 1302.1509 4533.5723 1579030
1441.821 1290.3416 4492.457 1579030
1466.0902 1288.2761 4485.2661 1710616
1492.3627 1288.0133 4484.3511 1776409
1518.556 1287.6926 4483.2344 1842202
1515.2585 1262.8054 4396.5874 1710616
1548.5037 1268.6992 4417.1069 1776409
1568.9369 1264.0746 4401.0059 1776409
1605.0676 1272.0419 4428.7446 1842202
1625.9048 1267.8274 4414.0713 1644823
1648.4429 1265.0514 4404.4067 1710359
1677.3817 1267.1978 4411.8794 1776152
1686.8142 1254.7678 4368.6035 1710359
1704.3009 1248.6144 4347.1797 1578773
1744.6586 1259.1509 4383.8633 1710359
1755.1016 1248.1046 4345.4048 1710359
1772.276 1242.0956 4324.4839 1776152
1786.7593 1234.3989 4297.687 1776152
1813.4043 1235.2023 4300.4839 1776152
1838.3121 1234.8165 4299.1411 1841945
1866.1089 1236.3555 4304.4985 1776152
1873.2128 1224.3279 4262.6235 1644566
1899.668 1225.1001 4265.312 1644566
1936.8802 1232.6982 4291.7656 1841945
1909.2985 1199.3966 4175.8228 1907738
1833.8007 1137.2321 3959.3904 1644566
1953.2144 1195.9854 4163.9463 1512980
1963.9343 1187.5483 4134.5718 1644566
1987.165 1186.7909 4131.9346 1776152
2017.9592 1190.514 4144.897 1710359
2054.2346 1197.3423 4168.6704 1710359
1963.5425 1130.8828 3937.2849 1841945
2358.5977 1342.4603 4673.9141 1710616
2111.1543 1187.6754 4135.0142 1710616
2044.2937 1136.8673 3958.1208 1513237
2064.074 1134.8478 3951.0896 1447444
2345.4822 1275.1058 4439.4121 1447444
2101.8269 1129.9712 3934.1111 1315858
2124.0955 1129.417 3932.1814 1513237
2159.4836 1135.7748 3954.3167 1710616
2167.7798 1127.9001 3926.9004 1381394
2191.0483 1127.9001 3926.9004 1512980
2439.1648 1242.4304 4325.6494 1315601
2439.7559 1229.8083 4281.7046 1447187
2440.6912 1217.6178 4239.2617 1578773
2476.6365 1222.9639 4257.8745 1578773
2517.6353 1230.672 4284.7114 1578773
2515.1604 1217.1879 4237.7646 1644566
2619.3049 1255.0575 4369.6118 1710359
2654.0178 1259.2428 4384.1836 1644566
2677.571 1258.1035 4380.2168 1578773
2884.5437 1342.3416 4673.5 1644566
2978.1338 1372.7158 4779.2515 1578773
2743.9524 1252.8608 4361.9639 1512980
2750.0815 1243.9421 4330.9126 1447187
2763.9534 1238.6582 4312.5161 1447187
2719.0271 1207.3623 4203.5562 1447187
2748.4563 1209.3519 4210.4829 1512980
2746.3018 1197.5333 4169.3354 1578773
2756.6523 1191.3297 4147.7373 1644566
2785.5012 1193.1595 4154.1079 1578773
2802.415 1189.8899 4142.7241 1644563
2969.73 1249.9818 4351.9404 1644563
2873.4504 1199.0454 4174.6001 1578771
2877.9756 1190.6837 4145.4878 1578771
2950.0251 1210.1633 4213.3081 1578771
2930.0178 1191.8694 4149.6157 1512978
3072.4053 1239.3889 4315.0601 1512978
3101.9917 1240.9963 4320.6562 1578771
2933.2275 1163.8739 4052.147 1644564
2814.3354 1107.6321 3856.335 1644564
2852.3049 1113.5345 3876.885 1644564
2865.9065 1109.9055 3864.2502 1578771
3021.7043 1160.9672 4042.0269 1710357
3220.239 1227.5166 4273.7256 1776150
3201.7083 1210.9302 4215.978 1710357
3195.4712 1199.2145 4175.1885 1776150
3201.0559 1192.0811 4150.353 1710357
3206.4858 1184.9994 4125.6973 1710356
3211.2214 1177.7699 4100.5273 1644564
3228.0903 1175.066 4091.1133 1776149
3245.3533 1172.5446 4082.3347 1710356
3254.823 1167.2657 4063.9561 1644564
3264.3289 1162.0774 4045.8918 1710357
3344.1238 1181.8044 4114.5737 1710357
3356.2336 1177.4994 4099.5854 1906709
3364.6387 1171.9657 4080.3191 1841173
3384.9946 1170.644 4075.7178 1840917
3401.4067 1167.9871 4066.467 1841173
3407.2832 1161.775 4044.8391 1841173
3402.2493 1151.9554 4010.6516 1841173
3393.2815 1140.9496 3972.3335 1841686
3392.9104 1132.9659 3944.5376 1710359
3422.9861 1135.1887 3952.2764 1710358
3452.9421 1137.342 3959.7734 1644563
3568.8406 1167.583 4065.0608 1710357
3470.2537 1127.7181 3926.2668 1710358
3377.5015 1090.2675 3795.8787 1841945
3364.5042 1078.8873 3756.2571 1841945
3447.448 1098.2195 3823.5642 1907738
3480.2339 1101.4254 3834.7261 1841945
3486.1433 1096.139 3816.3208 1842202
3589.5454 1121.3776 3904.1912 2038554
3719.3865 1154.4995 4019.5088 2038552
3681.5586 1135.4866 3953.3135 2038552
3649.3938 1118.4496 3893.9973 2038552
3592.8987 1094.2169 3809.6292 2038552
3615.4722 1094.2169 3809.6292 2169881
3627.8359 1091.1462 3798.9377 2104088
0 0 0 0
0 0 0 0
0 0 0 0
0 0 0 0
0 0 0 0
-3970.9524 1285.4047 4384.8105 0
-3990.6643 1300.2932 4435.5986 0
-4074.9641 1336.5637 4559.3257 0
-4086.0928 1349.1584 4602.2891 0
-4103.1855 1363.9045 4652.5918 0
-4075.8142 1363.9706 4652.8169 0
-3962.2678 1335.0028 4554.001 0
-3928.4924 1332.6989 4546.1416 0
-3986.125 1361.5864 4644.6841 0
-3958.4905 1361.5476 4644.5518 0
-3938.9097 1364.2977 4653.9331 0
-3748.2419 1307.4105 4459.8774 0
-3844.1523 1350.3855 4606.4751 0
-3703.7812 1310.3796 4470.0059 0
-3718.7036 1325.1354 4520.3413 0
-3847.8801 1381.1145 4711.2988 0
-3648.1917 1319.0101 4499.4463 0
-3709.7107 1351.1265 4609.0024 0
-3947.7876 1448.5009 4941.1689 0
-3892.2529 1438.795 4908.0601 0
-3588.6714 1336.5607 4559.3154 0
-3693.4622 1386.0229 4728.0425 0
-3666.9773 1386.6017 4730.0171 0
-3630.4507 1383.3632 4718.9692 256
-3573.8372 1372.3608 4681.438 256
-3523.3982 1363.576 4651.4707 256
-3466.7285 1352.2223 4612.7407 256
-3438.5234 1351.8792 4611.5703 256
-3417.5127 1354.3817 4620.1069 256
-3365.5178 1344.5463 4586.5562 131841
-3278.802 1320.5665 4504.7559 329475
-3278.8257 1331.4152 4541.7627 461062
-3291.9209 1347.795 4597.6382 395269
-3240.4617 1337.7975 4563.5342 395269
-3186.8828 1326.7491 4525.8462 263683
-3208.6904 1347.1646 4595.4873 197890
-3160.0281 1338.0891 4564.5293 66049
-3119.4485 1332.3091 4544.8125 65792
-3109.6245 1339.6786 4569.9512 256
-3080.9502 1338.9852 4567.5859 0
-3056.7585 1340.2449 4571.8833 0
-3017.6865 1334.9445 4553.8022 0
-3092.2705 1380.2806 4708.4541 256
-3068.1443 1381.9801 4714.2515 256
-3040.8528 1382.2721 4715.2476 256
-3000.6401 1376.6415 4696.04 256
-2971.2129 1375.9 4693.5107 256
-2916.8701 1363.4977 4651.2036 256
-2877.5049 1357.9266 4632.1997 256
-2839.1487 1352.7291 4614.4697 256
-2807.4954 1350.6554 4607.3955 256
-2810.2444 1365.254 4657.1948 256
-2782.3713 1365.1178 4656.7305 256
-2726.949 1351.327 4609.687 256
-2713.6077 1358.3214 4633.5464 256
-2699.3701 1365.0055 4656.3472 256
-2694.1951 1376.4576 4695.4131 256
-2683.1785 1385.1332 4725.0073 256
-2619.8445 1366.6991 4662.1245 256
-2584.1062 1362.4215 4647.5327 256
-2539.8303 1353.502 4617.106 256
-2523.6348 1359.5155 4637.6196 256
-2497.428 1360.2089 4639.9849 256
-2458.9065 1354.1359 4619.2681 256
-2397.5352 1335.2008 4554.6768 256
-2377.3289 1339.0206 4567.707 256
-2384.3652 1358.4496 4633.9834 256
-2367.3701 1364.4802 4654.5557 256
-2325.4475 1356.1163 4626.0239 256
-2308.7354 1362.4298 4647.561 256
-2279.1379 1361.2003 4643.3667 256
-2253.0251 1362.0474 4646.2563 256
-2233.2957 1366.8219 4662.5435 256
-2213.293 1371.547 4678.6616 256
-2166.0715 1359.3108 4636.9209 256
-2140.2148 1360.3397 4640.4312 0
-2125.9441 1368.8553 4669.48 0
-2116.1868 1380.5403 4709.3398 0
-2130.6697 1408.5621 4804.9287 197635
-2147.2932 1438.7777 4908.001 1777178
-2129.6555 1446.5509 4934.5171 2369058
-2089.4138 1438.9733 4908.6685 2434850
-2061.5029 1439.7939 4911.4678 2829608
-2025.2593 1434.735 4894.2104 3092523
-1999.7329 1437.2316 4902.7271 1711126
-1988.3098 1450.0875 4946.5815 395269
-1963.3689 1453.3219 4957.6147 329476
-1927.4402 1448.3977 4940.8174 263683
-1917.0424 1462.8031 4989.957 329476
-1873.009 1451.5919 4951.7134 592648
-1824.2249 1436.2834 4899.4927 592648
-1786.361 1429.2169 4875.3872 658441
-1764.7802 1435.1597 4895.6592 724234
-1736.9369 1436.1234 4898.9468 855820
-1702.4619 1431.5435 4883.3232 921613
-1660.4879 1420.3903 4845.2773 987406
-1634.1669 1422.47 4852.3716 1118992
-1615.312 1431.2395 4882.2866 1184785
-1582.4242 1427.6683 4870.1045 1316371
-1536.657 1412.1288 4817.0957 1382164
-1497.6167 1402.2999 4783.5669 1382164
-1474.3951 1407.1893 4800.2456 1316371
-1434.2137 1395.766 4761.2783 1184785
-1414.5549 1404.2573 4790.2441 1118992
-1415.4696 1433.9384 4891.4932 1118992
-1373.619 1420.6316 4846.1006 1250578
-1360.1134 1436.6974 4900.9048 1184785
-1318.8457 1423.4993 4855.8828 1184785
-1310.672 1446.229 4933.4194 1184785
-1259.4412 1421.4019 4848.728 1184785
-1243.7067 1436.4117 4899.9302 1118992
-1226.4412 1450.3286 4947.4038 1053199
-1238.1064 1499.9771 5116.7661 1118479
-1282.667 1592.9714 5433.9912 1118479
-1234.9574 1573.2119 5366.5869 1118479
-1121.2137 1466.0638 5001.0806 1250065
-1098.2699 1475.0483 5031.7285 1250065
-1050.8452 1450.7373 4948.7983 1250578
-1019.1909 1447.4276 4937.5078 1250578
-977.69586 1429.5333 4876.4663 1250578
-908.70013 1369.1146 4670.3643 1250580
-918.31061 1427.0543 4868.0098 1250580
-940.5976 1509.0902 5147.853 1250580
-854.21802 1416.4374 4831.7935 1184787
-792.18811 1359.1348 4636.3208 1184787
-850.57037 1511.7242 5156.8384 1250578
-742.29901 1368.4539 4668.1104 1184785
-751.48322 1439.0073 4908.7842 1250578
-709.56775 1413.452 4821.6094 1315858
-618.85486 1284.4707 4381.6245 1315858
-591.68433 1281.8545 4372.6997 1315858
-681.18219 1543.3298 5264.6523 1315858
-553.39874 1313.9906 4482.3237 1513237
-510.92825 1274.307 4346.9541 1710616
-542.96814 1426.1125 4864.7974 1513237
-505.56201 1402.313 4783.6113 1513237
-435.31491 1279.1821 4363.584 1447444
-450.89023 1408.6167 4805.1152 1513237
-451.13086 1504.3643 5131.7319 1381651
-420.74051 1504.4259 5131.9419 1447444
-391.67117 1509.5885 5149.5527 1513237
-346.26102 1447.321 4937.1445 1579030
-318.29965 1453.2255 4957.2856 1513237
-291.51328 1466.2401 5001.6816 1513237
-278.48618 1559.2383 5318.9199 1579030
-229.7934 1450.7976 4949.0039 1513237
-213.0309 1541.7117 5259.1323 1579030
-162.8317 1380.3361 4708.6431 1513237
-136.06001 1391.8848 4748.0386 1513237
-106.72838 1376.4398 4695.3521 1448470
-71.700386 1250.7362 4266.5483 1646877
-45.685589 1230.965 4199.104 2107943
-21.004494 1242.8154 4239.5288 1910565
4.1017985 1238.402 4224.4736 1382423
29.04278 1234.5457 4211.3188 1316115
54.078014 1236.4087 4217.6738 1315858
79.387299 1241.3792 4234.6294 1315858
110.18083 1309.1239 4465.7222 1315858
138.44206 1326.3695 4524.5508 1315858
168.35204 1351.2527 4609.4331 1381651
196.62395 1357.8766 4632.0288 1315858
227.18858 1376.7719 4696.4849 1447444
257.61795 1390.813 4744.3823 1447444
304.4679 1482.0195 5055.5088 1447444
309.37091 1370.996 4676.7822 1513237
341.2027 1387.7529 4733.9438 1579030
365.44772 1373.4509 4685.1562 1644823
397.27322 1387.6464 4733.5806 1644823
428.08966 1396.6774 4764.3872 1644823
451.38126 1381.5596 4712.8169 1447444
479.79126 1382.9564 4717.582 1513237
508.41385 1384.7788 4723.7983 1579030
538.32068 1389.7262 4740.6753 1579030
565.62683 1387.802 4734.1113 1579030
591.57269 1382.8798 4717.3203 1579030
615.57458 1374.0625 4687.2427 1644823
641.33704 1369.7666 4672.5884 1644823
667.13873 1365.9067 4659.4214 1644823
693.10498 1362.677 4648.4043 1776409
722.89392 1366.9227 4662.8872 1776409
749.84167 1365.681 4658.6514 1776409
776.92493 1364.7657 4655.5293 1776409
796.07843 1350.4609 4606.7324 1710616
815.57489 1337.6672 4563.0903 1644823
844.41174 1340.5229 4572.8315 1579030
871.72516 1340.8574 4573.9727 1579030
887.86487 1324.5032 4518.1846 1644823
907.1347 1313.639 4481.1245 1579030
932.08215 1311.3809 4473.4214 1644823
968.63477 1325.1239 4520.3018 1710616
990.04852 1317.974 4495.9121 1710616
1019.2446 1321.2876 4507.2153 1710616
1034.0298 1306.2273 4455.8413 1776409
1056.9124 1301.8914 4441.0503 1644823
1084.7441 1303.7144 4447.269 1776409
1109.1519 1301.4332 4439.4873 1776409
1132.4885 1298.03 4427.8784 1842202
1152.0023 1290.4985 4402.187 1842202
1173.5858 1285.5679 4385.3672 1710616
1221.5386 1309.1105 4465.6763 1644823
1260.7139 1322.4474 4511.1714 1776409
1267.3391 1301.7954 4440.7231 1710616
1290.0825 1298.2034 4428.4697 1644823
1313.0286 1294.9543 4417.3867 1710616
1325.7222 1281.9185 4372.9185 1710616
1341.6259 1272.4271 4340.541 1776409
1377.0355 1281.4447 4371.3022 1644823
1395.9528 1275.0651 4349.5396 1710616
1416.6307 1270.4958 4333.9531 1710616
1422.7135 1253.2327 4275.0645 1579030
1473.2159 1275.0173 4349.377 1710616
1487.3357 1265.1062 4315.5679 1776409
1496.9631 1251.7737 4270.0874 1776409
1529.3499 1257.5995 4289.9609 1842202
1568.9497 1269.0693 4329.0869 1842202
1585.7012 1261.9862 4304.9248 1842202
1601.13 1254.0912 4277.9932 1907738
1627.4021 1254.8032 4280.4219 1841945
1638.0748 1243.6499 4242.3755 1907738
1658.733 1240.3004 4230.9497 1973531
1686.1876 1242.0569 4236.9414 1841945
1719.9885 1248.3679 4258.4697 1841945
1724.0056 1233.1919 4206.7007 1907738
1730.653 1220.3032 4162.7344 1776152
1754.6466 1219.8358 4161.1401 1710359
1784.8295 1223.6246 4174.0645 1710359
1810.5161 1224.2694 4176.2642 1710359
1828.2141 1219.5679 4160.2261 1710359
1845.5264 1214.7373 4143.748 1710359
1865.1766 1211.5525 4132.8838 1907738
1867.8291 1197.5521 4085.1252 1841945
1882.4541 1191.4879 4064.4387 1841945
1864.9568 1165.5021 3975.7952 1907738
1903.3158 1174.6365 4006.9546 1907738
2055.0669 1252.6637 4273.1235 1841945
2062.5957 1241.9512 4236.5806 1776152
2008.5801 1194.884 4076.0237 1841945
2009.8167 1181.4138 4030.0737 1907738
2028.7498 1178.5402 4020.271 1710616
1990.8385 1143.0945 3899.3577 1776409
2011.771 1141.8613 3895.1509 1513237
2021.642 1134.4487 3869.8652 1710616
2044.7905 1134.5697 3870.2778 1315858
2060.2988 1130.4958 3856.3806 1710616
2178.7974 1182.4026 4033.4468 1513237
2296.0769 1232.5286 4204.438 1447444
2305.0461 1224.0619 4175.5562 1512980
2147.998 1128.5502 3849.7439 1512980
2170.2844 1128.2772 3848.8127 1578773
2169.7888 1116.2894 3807.9197 1644566
2388.0762 1215.947 4147.8745 1578773
2403.0833 1211.1235 4131.4204 1578773
2432.8599 1213.7659 4140.4341 1578773
2454.3145 1212.245 4135.2461 1578773
2463.5459 1204.7765 4109.7695 1644566
2508.6448 1214.8234 4144.0415 1710359
2516.9377 1207.0245 4117.438 1578773
2550.3672 1211.3145 4132.0718 1710359
2564.635 1206.5082 4115.6768 1512980
2561.3232 1193.6003 4071.645 1710359
2592.8591 1197.0211 4083.314 1644566
2615.2805 1196.2097 4080.5459 1644566
2616.5742 1185.8381 4045.1663 1710359
2644.0742 1187.4237 4050.575 1710359
2658.5999 1183.2067 4036.1897 1644566
2682.1997 1183.0671 4035.7136 1710357
2724.5137 1191.1117 4063.1555 1710357
2740.907 1187.7823 4051.7983 1644564
2772.4551 1191.0212 4062.8472 1710357
2804.135 1194.2607 4073.8975 1710357
2828.5598 1194.3811 4074.3083 1776150
3006.6287 1258.8279 4294.1509 1644564
2952.1462 1225.6447 4180.9551 1512978
2798.0088 1151.9841 3929.6821 1710357
2890.1829 1180.1127 4025.6353 1710357
2756.3071 1116.2362 3807.738 1776150
2819.0415 1132.3728 3862.7834 1776150
2822.2791 1124.5428 3836.0737 1644564
2835.3281 1120.7161 3823.02 1578771
2927.8396 1148.1101 3916.4673 1578771
3191.157 1241.5256 4235.1289 1644564
3205.1426 1237.2374 4220.501 1710357
3126.5073 1197.5391 4085.0808 1776150
3149.6665 1197.1412 4083.7236 1841943
3167.1072 1194.5927 4075.0298 1710358
3180.0105 1190.384 4060.6733 1841945
3168.6426 1177.2214 4015.7725 1841945
3182.2568 1173.4672 4002.9661 1907738
3223.8958 1180.0262 4025.3403 1907738
3224.0232 1171.4062 3995.9358 1710359
3258.6831 1175.3674 4009.4482 1644566
3307.9661 1184.5076 4040.6274 1644565
3304.0828 1174.6154 4006.8828 1710357
3319.4248 1171.6503 3996.7683 1841943
3354.3677 1175.5967 4010.2305 1841943
3318.0393 1154.6852 3938.896 1710357
3316.7502 1146.1741 3909.8633 1776407
3474.1033 1192.2231 4066.947 1710357
3341.0054 1138.6492 3884.1936 1776150
3351.7112 1134.4825 3869.9805 1776149
3369.4556 1132.7389 3864.0325 1710357
3340.0518 1115.2755 3804.4607 1710357
3368.2461 1117.1499 3810.8547 1710358
3375.5247 1112.1084 3793.657 1776152
3347.5222 1095.5867 3737.2976 1841945
3354.4736 1090.6467 3720.4463 1841945
3398.3789 1097.7078 3744.5332 1776152
3426.8298 1099.7177 3751.3894 1841945
3458.0161 1102.5739 3761.1326 2038811
3490.5234 1105.8119 3772.1782 2038552
3611.3533 1136.8118 3877.9258 2104345
3543.4045 1108.3699 3780.9043 2038552
3571.887 1110.2594 3787.3499 2104345
3597.0059 1111.0865 3790.1711 2104345
3594.1731 1103.3228 3763.6873 1973273
0 0 0 0
0 0 0 0
0 0 0 0
0 0 0 0
0 0 0 0
-3926.9316 1296.849 4336.2021 0
-3984.1716 1324.4177 4428.3823 0
-4048.1055 1354.592 4529.2744 0
-4053.9712 1365.6083 4566.1094 0
-3953.3982 1340.6772 4482.7485 0
-3932.2654 1342.5309 4488.9463 0
-3913.699 1345.2919 4498.1782 0
-3888.4465 1345.7769 4499.7998 0
-3899.1287 1358.7911 4543.3149 0
-3737.0271 1311.3551 4384.7056 0
-3685.4109 1302.2965 4354.417 0
-3696.9172 1315.5729 4398.8086 0
-3685.3979 1320.7858 4416.2383 0
-3651.8164 1318.1097 4407.291 0
-3714.8865 1350.5327 4515.7017 0
-4097.4004 1500.4011 5016.8086 0
-3997.9729 1474.6913 4930.8438 0
-3663.3191 1361.1986 4551.3647 131584
-3698.6719 1384.5275 4629.3682 263171
-3712.8767 1400.2295 4681.8701 460549
-3501.3745 1330.4066 4448.4072 592135
-3499.2166 1339.6719 4479.3867 723720
-3473.0837 1339.8297 4479.915 592135
-3422.3054 1330.4092 4448.416 460806
-3397.6541 1331.078 4450.6523 395013
-3361.5239 1327.2253 4437.77 197635
-3367.8237 1340.1963 4481.1406 131585
-3330.7068 1335.9589 4466.9722 256
-3349.3972 1354.2175 4528.0225 256
-3331.1689 1357.7235 4539.7451 0
-3250.9478 1335.8137 4466.4868 0
-3336.8433 1382.3619 4622.1274 256
-3292.9312 1375.4597 4599.0488 256
-3272.5464 1378.3517 4608.7188 256
-3327.5701 1413.3208 4725.6426 256
-3314.1179 1419.5527 4746.48 256
-3300.1501 1425.6687 4766.9297 256
-3261.0181 1420.9253 4751.0693 256
-3228.4592 1418.9883 4744.5928 256
-3146.9102 1395.2957 4665.373 256
-3114.3225 1393.0844 4657.9795 256
-3082.0884 1390.9932 4650.9873 256
-3052.9861 1390.2904 4648.6372 256
-3023.2197 1389.2695 4645.2241 256
-2987.1414 1385.3029 4631.9609 256
-2953.9568 1382.6169 4622.98 256
-2930.665 1384.5546 4629.4585 256
-2902.3992 1384.1567 4628.1284 256
-2868.8447 1381.205 4618.2588 256
-2823.5281 1372.4789 4589.082 256
-2786.9944 1367.8939 4573.7515 256
-2724.1145 1350.1609 4514.4585 256
-2710.7178 1356.8448 4536.8071 256
-2713.0273 1371.6031 4586.1538 256
-2709.6624 1383.7623 4626.8096 256
-2664.0305 1374.3646 4595.3872 256
-2634.2522 1373.0361 4590.9453 256
-2603.3022 1371.0629 4584.3472 256
-2579.5015 1372.8529 4590.3325 256
-2494.165 1341.5818 4485.7729 256
-2478.5093 1347.521 4505.6318 256
-2464.2393 1354.3513 4528.4697 256
-2441.1472 1356.4299 4535.4199 256
-2424.7617 1362.323 4555.124 256
-2376.6802 1350.3401 4515.0576 256
-2356.6467 1354.2017 4527.9692 256
-2289.4565 1330.7426 4449.5303 256
-2260.8264 1329.4105 4445.0767 256
-2234.2603 1329.2754 4444.6245 256
-2231.001 1343.1688 4491.0796 256
-2210.2483 1346.7386 4503.0156 256
-2203.4604 1359.0085 4544.042 256
-2193.9756 1369.8982 4580.4531 256
-2176.8308 1376.218 4601.5845 256
-2159.3228 1382.4656 4622.4736 256
-2193.8547 1422.6193 4756.7334 256
-2149.8882 1412.2526 4722.0713 66049
-2119.1877 1410.4423 4716.0181 1382162
-2159.208 1456.281 4869.2866 2698022
-2132.0251 1457.4224 4873.103 3290159
-2082.9753 1443.4419 4826.3569 3158572
-2032.7599 1428.2532 4775.5713 3355952
-2029.0804 1445.7942 4834.2222 1974300
-2008.2312 1451.4282 4853.0605 723720
-1948.2349 1428.5219 4776.4697 395269
-1916.7123 1426.126 4768.4585 395269
-1885.2969 1423.7393 4760.4785 461062
-1866.1757 1430.7054 4783.771 658441
-1838.2556 1431.037 4784.8794 658441
-1793.4111 1417.9971 4741.2788 658441
-1763.1316 1416.2416 4735.4087 724234
