# .PCD v0.7 - Point Cloud Data file format
VERSION 0.7
FIELDS x y z rgb
SIZE 4 4 4 4
TYPE F F F U
COUNT 1 1 1 1
WIDTH 1314
HEIGHT 1
VIEWPOINT 0 0 0 1 0 0 0
POINTS 1314
DATA ascii
-592.93488 1886.3225 9234.5293 658440
-533.35272 1869.2759 9151.0771 790027
-477.76508 1863.9548 9125.0283 855822
-431.44806 1898.0602 9291.9912 1053201
-384.88986 1940.927 9501.8467 1185303
-333.37802 1969.2234 9640.3721 1382682
-282.12204 2011.0458 9845.1143 1645856
-216.75768 1947.8876 9535.9229 1645856
-170.69405 2074.793 10157.189 1645857
-113.35097 2128.1577 10418.438 1843235
-51.710384 2131.9858 10437.179 1909028
10.143248 2133.9119 10446.608 2040614
72.804649 2156.4541 10556.964 2040613
138.16679 2201.188 10775.959 2106662
204.62106 2229.5432 10914.773 2171428
272.53864 2256.394 11046.222 2171428
338.00723 2256.4963 11046.722 2171428
405.39645 2267.3069 11099.646 2171428
475.74249 2289.3279 11207.45 2171428
545.78088 2304.655 11282.484 2039842
615.79553 2316.5479 11340.706 1908256
671.67999 2278.1743 11152.848 1842463
744.91913 2300.2656 11260.996 1842463
822.14001 2330.009 11406.605 1842463
885.42773 2318.7458 11351.466 1974049
951.48962 2315.8247 11337.166 1908256
1017.983 2314.27 11329.555 1908256
1093.2661 2331.6541 11414.658 2105635
1161.3154 2332.4832 11418.718 1974050
1235.6575 2345.1641 11480.797 1974049
1294.7465 2329.0835 11402.074 1974049
1399.8298 2393.2324 11716.117 1908257
1483.5215 2416.4749 11829.9 1974049
1521.4199 2366.3938 11584.728 1973792
1529.6198 2276.4382 11144.349 1843492
1671.6196 2384.8137 11674.903 1909285
1536.8136 2105.3643 10306.853 1843492
1606.6458 2116.9065 10363.357 2238250
1667.5164 2116.2256 10360.024 1909285
1927.0676 2358.7839 11547.473 1711906
2032.385 2402.3945 11760.97 1711650
2172.626 2483.0269 12155.707 1973793
2259.262 2499.1865 12234.817 1908257
2395.6104 2567.6235 12569.852 1974050
2497.5767 2596.1938 12709.718 1974049
2598.6382 2622.1782 12836.926 1974049
2658.6174 2606.4094 12759.729 1908256
2751.4404 2622.8213 12840.073 1908256
2811.8555 2608.2878 12768.925 1974049
2900.5525 2620.0632 12826.572 2105378
2946.3965 2593.5166 12696.612 2039840
3087.9133 2650.4099 12975.134 1908511
3115.7017 2609.2947 12773.854 1908510
3194.6362 2611.9473 12786.839 2105889
3307.3455 2641.4517 12931.278 2040096
3393.8066 2649.1309 12968.873 1974303
3465.8467 2645.4626 12950.915 2040096
3533.9768 2639.0339 12919.442 2171169
3605.8579 2635.6189 12902.725 2236962
3655.3625 2616.3301 12808.295 2171169
3706.072 2598.6707 12721.844 2039583
3724.6394 2559.6267 12530.703 1973790
3788.9158 2552.9072 12497.808 1973790
3878.4165 2563.115 12547.78 1973790
3952.7429 2563.0994 12547.703 1907997
3986.6458 2537.356 12421.677 1907997
4108.1929 2567.3171 12568.353 1973790
4211.479 2585.0032 12654.934 1907997
3830.4866 2310.02 11308.749 1907997
4129.6548 2447.6196 11982.37 1907997
4383.7378 2554.2971 12504.612 1907997
4343.2773 2488.6582 12183.275 1842204
4496.4619 2534.3081 12406.756 1776411
4616.7153 2560.2273 12533.644 1710618
4759.4229 2597.5806 12716.507 1710618
4734.1758 2543.5322 12451.913 1579032
4960.1001 2624.019 12845.938 1776411
4988.6694 2599.2454 12724.657 1710618
5095.7764 2615.5203 12804.331 1842204
5127.769 2593.3293 12695.695 1776411
5236.7715 2610.1638 12778.108 1710618
5324.9775 2616.3008 12808.152 1710618
5456.0063 2643.0095 12938.906 1776411
5496.2451 2625.6069 12853.711 1776412
5548.8477 2614.5054 12799.363 1776412
5644.9976 2623.9456 12845.577 1842205
5741.8608 2633.4614 12892.162 1842204
5855.2461 2650.2056 12974.135 1776411
5991.96 2676.938 13105.003 1579032
5910.8149 2606.9021 12762.141 1579032
6021.6274 2622.2273 12837.165 1579032
6036.9087 2596.0879 12709.199 1447446
6099.7241 2590.782 12683.225 1447446
6174.7178 2590.7151 12682.896 1513239
6271.8242 2599.8162 12727.451 1447446
6237.7563 2554.9722 12507.916 1381651
6311.8711 2554.9722 12507.916 1513237
6428.1758 2571.8518 12590.552 1579030
6566.9897 2597.2473 12714.875 1710616
6600.7261 2580.9795 12635.235 1644823
6632.2197 2564.2092 12553.137 1842202
6717.9937 2568.5645 12574.459 1973788
6769.022 2559.6853 12530.99 1842202
6778.8652 2535.594 12413.051 1907995
6794.4839 2514.157 12308.105 1973788
6886.0854 2520.9924 12341.568 2039581
6962.166 2522.0615 12346.803 2039581
7009.4072 2512.7703 12301.316 2171167
7024.3198 2492.2002 12200.615 2105374
7128.0366 2503.2351 12254.638 1973788
7274.9771 2529.0742 12381.133 1973788
7391.6992 2543.9971 12454.188 1973788
7374.0728 2512.8433 12301.674 1907995
7647.6938 2580.5754 12633.259 1907995
7820.0361 2613.1514 12792.734 1973788
7829.25 2591.1138 12684.849 1907995
7894.8711 2587.9858 12669.536 1907995
7989.8691 2594.4561 12701.212 1907995
7956.7661 2559.5974 12530.56 1513238
8732.0801 2783.0366 13624.41 1644824
8930.5205 2820.209 13806.389 2105629
8961.0918 2804.1753 13727.896 2829352
8635.3965 2677.9473 13109.944 3092523
8316.9541 2556.1995 12513.926 4013625
8428.0664 2567.4592 12569.048 3026730
8094.3081 2444.1873 11965.567 3092522
8431.1846 2523.8049 12355.337 3618866
8488.7324 2519.157 12332.582 3355696
8598.7471 2530.0256 12385.79 3816502
8714.9912 2542.5276 12446.994 4013881
8742.5742 2529.1709 12381.605 3421487
8219.7559 2358.134 11544.291 4211003
8138.0952 2315.4375 11335.271 4276539
8614.1367 2430.8176 11900.116 4474174
8492.8877 2377.1438 11637.355 5132103
8735.1279 2425.2551 11872.885 5724496
9416.5381 2593.5566 12696.808 5460811
9369.4541 2560.1343 12533.188 3947574
9053.542 2454.3596 12015.366 921355
7620.979 2049.8806 10035.231 256
7559.3726 2017.5677 9877.043 256
8525.0068 2257.8115 11053.161 256
8325.1016 2188.0574 10711.679 256
7924.8062 2067.0896 10119.479 256
7439.0337 1925.8103 9427.8428 256
7407.2275 1903.2836 9317.5625 256
7512.5728 1916.0704 9380.1611 0
7232.3267 1831.0474 8963.9287 1644812
6899.5747 1734.0675 8489.1621 262912
6905.7876 1723.0668 8435.3076 1316099
7035.687 1742.8638 8532.2236 512
7029.4468 1728.8944 8463.8369 263936
6973.6235 1703.0146 8337.1416 1778444
6898.1616 1672.7365 8188.9146 726530
6594.4111 1587.9104 7773.647 397056
6468.77 1546.8518 7572.6436 1317891
6325.356 1502.1379 7353.7461 791042
6191.2969 1460.2426 7148.6465 1647366
6305.3013 1477.0258 7230.8091 133888
6417.2729 1493.1094 7309.5464 857088
6290.8774 1453.8882 7117.5386 1383944
6265.5854 1438.3999 7041.7153 7760699
6241.1445 1423.3107 6967.8452 4598551
5908.7695 1338.6558 6553.416 1247232
6410.0884 1442.7501 7063.0117 919296
6088.75 1361.5354 6665.4238 985088
6081.0342 1351.0464 6614.0742 788480
6136.5 1354.639 6631.6621 196864
6233.9121 1367.3867 6694.0688 262400
6260.395 1364.5135 6680.0034 66048
6230.9507 1349.5632 6606.8135 512
6277.3193 1351.1174 6614.4219 768
6314.0537 1350.5914 6611.8472 512
0 0 0 0
0 0 0 0
0 0 0 0
-7693.8442 1762.6788 8385.9697 1024
-8341.7295 1923.5341 9151.2402 1024
0 0 0 0
0 0 0 0
-8413.7812 1978.7363 9413.8662 1024
-8370.0723 1981.5945 9427.4639 1024
-8320.8398 1983.1746 9434.9805 1024
-8230.0039 1974.7926 9395.1045 1024
-8197.1084 1980.2949 9421.2812 1024
-8227.501 2001.2665 9521.0537 1024
-8222.2861 2013.8066 9580.7139 1024
-8193.915 2020.8104 9614.0342 1024
-8121.3101 2016.9268 9595.5576 1024
-7969.6621 1993.2195 9482.7705 1024
-7906.6885 1991.5109 9474.6406 1024
-7841.5107 1989.2183 9463.7344 1024
-7755.6582 1981.6102 9427.5391 1024
-7729.4492 1989.2419 9463.8467 1024
-7744.6436 2007.7183 9551.748 1024
-7687.8813 2007.6752 9551.543 1024
-7629.5234 2007.2118 9549.3389 1024
-7589.6758 2011.6479 9570.4434 1024
-7567.6553 2020.9111 9614.5137 1024
-7509.1201 2020.4899 9612.5098 1024
-7337.832 1989.4919 9465.0361 1024
-7177.0923 1960.8982 9329.001 1024
-7180.3462 1977.0143 9405.6738 1280
-7203.2573 1998.8372 9509.4961 1280
-7270.7876 2033.4832 9674.3252 1280
-7177.3872 2023.3132 9625.9414 1280
-7074.0488 2010.1564 9563.3477 1024
-7031.269 2014.1344 9582.2725 1024
-6970.0283 2012.8458 9576.1426 1024
-6907.9434 2011.2904 9568.7422 1024
-6729.4956 1975.5488 9398.7021 1024
-6727.395 1991.4127 9474.1738 1024
-6691.6377 1997.4963 9503.1172 1024
-6648.9702 2001.6033 9522.6562 1024
-6649.4087 2018.8682 9604.7939 1024
-6527.1934 1998.87 9509.6523 1024
-6451.3076 1992.8347 9480.9395 1024
-6454.2412 2011.2551 9568.5752 1024
-6382.1499 2006.4156 9545.5508 1024
-6326.1201 2006.5842 9546.3535 1024
-6288.9302 2012.7854 9575.8555 1024
-6241.3242 2015.7357 9589.8916 1024
-6190.7876 2017.7849 9599.6406 1024
-6173.8237 2030.9164 9662.1133 1024
-6136.1528 2037.4181 9693.0449 1024
-6123.5298 2052.4377 9764.502 1024
-6073.4668 2055.0754 9777.0508 1024
-5983.9209 2044.2756 9725.6699 1024
-5966.5205 2058.1523 9791.6885 1024
-5886.7568 2050.5779 9755.6543 1024
-5773.4702 2031.0604 9662.7988 1024
-5706.7935 2027.7131 9646.874 1024
-5754.3594 2065.301 9825.6982 1024
-5695.2554 2064.9807 9824.1758 1024
-5611.6382 2055.6743 9779.9004 1024
-5576.8516 2064.2483 9820.6904 1024
-5477.6147 2048.8953 9747.6484 1024
-5442.9941 2057.6421 9789.2617 1024
-5313.8018 2030.441 9659.8525 1024
-5508.2153 2127.6462 10122.308 1024
-5762.3027 2250.2954 10705.812 1024
-5734.5503 2264.3857 10772.848 1024
-5341.8809 2133.0776 10148.146 1024
-5292.6069 2137.4626 10169.009 768
-4795.5444 1959.0231 9320.0801 768
-4905.2886 2027.1995 9644.4307 768
-5093.7451 2129.8962 10133.012 768
-4865.2212 2058.6072 9793.8525 768
-4704.6982 2014.717 9585.0449 768
-4716.9927 2044.6652 9727.5234 768
-4518.8452 1983.0062 9434.1797 768
-4494.6211 1997.0811 9501.1416 768
-4442.6387 1999.0229 9510.3799 768
-4343.647 1979.5906 9417.9307 768
-4227.6431 1951.798 9285.707 1024
-4139.1572 1936.1448 9211.2363 1024
-4036.5503 1913.3795 9102.9307 1024
-3938.7617 1892.3125 9002.7041 1024
-3878.6711 1889.0271 8987.0732 1024
-3806.5535 1879.7111 8942.752 1024
-3706.1492 1855.9666 8829.7871 1024
-3678.0183 1868.2534 8888.2422 1024
-3603.8945 1857.1958 8835.6357 1024
-3567.3726 1865.4751 8875.0244 1024
-3500.6458 1857.9712 8839.3242 1024
-3427.0623 1846.5446 8784.9619 1024
-3362.6953 1839.8081 8752.9131 1024
-3316.3484 1842.8741 8767.5 1024
-3244.2256 1831.4862 8713.3223 1024
-3193.2 1831.8331 8714.9717 1024
-3128.6472 1824.3033 8679.1494 768
-3072.0447 1821.2355 8664.5537 512
-3006.2454 1812.5181 8623.0811 66816
-2948.3486 1808.3464 8603.2344 1024
-2846.4514 1776.5659 8452.0381 768
-2807.3989 1783.5731 8485.374 1024
-2745.9707 1776.3607 8451.0615 1024
-2691.4912 1773.4594 8437.2578 1024
-2633.7544 1768.261 8412.5264 1024
-2575.9094 1762.7881 8386.4893 1024
-2539.4861 1772.0476 8430.542 1024
-2482.0579 1766.7278 8405.2324 1024
-2413.7983 1753.3226 8341.457 1024
-2352.2534 1744.3361 8298.7031 1024
-2276.575 1724.261 8203.1963 1024
-2219.6143 1717.7961 8172.4395 1024
-2151.9993 1702.6136 8100.208 768
-2101.2449 1700.382 8089.5913 768
-2043.5103 1692.2662 8050.98 768
-1997.4888 1693.6938 8057.7725 768
-1983.6565 1723.1534 8197.9268 768
-1966.3203 1750.9719 8330.2734 768
-1906.4205 1741.345 8284.4736 768
-1967.5778 1844.7064 8776.2168 768
-1916.0787 1845.1914 8778.5244 768
-1828.2983 1809.7893 8610.0986 768
-1743.366 1775.2548 8445.7998 768
-1697.1633 1779.283 8464.9639 768
-1669.8468 1803.9591 8582.3613 768
-1641.7301 1829.2941 8702.8926 768
-1564.7972 1800.115 8564.0723 768
-1520.5247 1807.8109 8600.6865 768
-1477.1573 1817.1544 8645.1377 768
-1417.6509 1806.6019 8594.9346 768
-1370.1798 1811.1721 8616.6768 768
-1295.8798 1779.2594 8464.8516 768
-1230.6552 1757.7393 8362.4697 768
-1185.189 1763.8184 8391.3906 768
-1119.999 1739.7914 8277.082 768
-1073.7828 1744.387 8298.9453 768
-1033.1028 1758.8486 8367.7471 768
-989.12885 1768.8781 8415.4629 768
-938.30975 1767.0812 8406.9141 768
-907.72803 1805.3319 8588.8926 768
-874.59631 1842.7538 8766.9277 512
-831.66382 1862.9479 8863.001 256
-788.30035 1884.8337 8967.123 329728
-735.52521 1885.7533 8971.498 197888
-686.18933 1896.3207 9021.7725 1053198
-625.7171 1875.2976 8921.7549 1447956
-577.59003 1890.8079 8995.5449 1382164
-526.57867 1899.0696 9034.8506 1316373
-472.64365 1897.464 9027.2119 1645341
-420.15924 1902.0156 9048.8662 1448475
-373.34091 1937.3007 9216.7354 1514268
-321.89218 1956.533 9308.2334 1645854
-252.24347 1850.2207 8802.4512 1777442
-218.48453 2020.3602 9611.8926 1843235
-162.35219 2030.6412 9660.8047 1974821
-105.52715 2038.7385 9699.3271 1974821
-48.531372 2058.9597 9795.5303 2106664
9.5511456 2067.6338 9836.7979 2172199
68.310989 2082.0464 9905.3662 2172199
127.55185 2091.0232 9948.0732 2172198
179.07608 2007.8066 9552.168 2237221
243.79796 2076.9961 9881.3379 2171428
280.49945 1926.9006 9167.2568 2105635
353.68857 2035.4952 9683.8975 2171428
426.19382 2110.3862 10040.192 2171428
512.05469 2224.9626 10585.291 2105635
575.80768 2228.9529 10604.275 2039843
637.36218 2224.4856 10583.021 2039842
695.5094 2209.9915 10514.065 1974049
764.51825 2229.5562 10607.146 1974049
821.13422 2212.7527 10527.202 1974050
874.14331 2189.2886 10415.571 1908256
952.96649 2229.3069 10605.959 1842463
1015.3633 2228.3242 10601.284 1842463
1089.21 2251.1201 10709.735 1842463
1155.2615 2256.1821 10733.818 1908256
1235.6202 2287.1995 10881.384 1842463
1300.1683 2287.3252 10881.982 1842463
1372.6257 2300.6963 10945.596 1908256
1373.739 2198.6741 10460.224 1842465
1486.9077 2277.0632 10833.161 1843235
1550.0746 2275.5601 10826.01 1909028
1570.0261 2213.2561 10529.597 1777442
1532.4966 2077.781 9885.0723 1843235
1607.0957 2098.7092 9984.6396 1843235
1790.8628 2255.6523 10731.299 1777699
1728.0981 2101.9648 10000.128 1843235
1979.7557 2328.2346 11076.609 1908513
2030.8978 2311.7395 10998.134 1974050
2126.3083 2345.0935 11156.815 2039842
2226.4324 2381.4778 11329.914 2105635
2275.981 2363.218 11243.043 2039842
2353.3394 2374.0513 11294.582 1974050
2435.0659 2388.5703 11363.657 1908256
2505.5339 2391.5615 11377.888 1974049
2608.7676 2424.8516 11536.266 2039585
2650.3596 2400.6086 11420.93 1974305
2712.0579 2395.3313 11395.823 1842717
2818.5278 2428.8926 11555.491 1908510
2928.5137 2463.8198 11721.658 1974303
2999.5647 2465.1311 11727.896 1974303
3077.9111 2472.2429 11761.73 2105889
3090.865 2427.678 11549.712 2105889
3160.5544 2428.6406 11554.292 2302755
3249.4744 2444.0261 11627.489 2368548
3228.2314 2377.6362 11311.639 2368548
3420.0332 2467.6665 11739.958 2236962
3412.1125 2412.873 11479.278 2171169
3568.9932 2474.4829 11772.388 2236962
3630.9817 2469.2007 11747.258 2236962
3647.4761 2433.7615 11578.655 2236962
3702.9246 2425.1431 11537.652 1973790
3670.3596 2360.2393 11228.872 1973790
3751.1873 2369.2664 11271.818 1973790
3748.4797 2326.1394 11066.641 1973790
4073.4722 2484.3547 11819.354 2039583
3957.8701 2373.0513 11289.825 2105376
4106.6812 2421.3489 11519.602 2105376
4282.0386 2483.4634 11815.112 1973790
4168.8267 2378.9097 11317.696 2039583
4304.9434 2417.6914 11502.201 1842204
4560.5918 2521.3481 11995.35 1710618
4290.0244 2335.3665 11110.539 1644825
4652.1284 2494.2095 11866.237 1776411
4771.5205 2520.1318 11989.562 1776411
4965.1768 2583.9412 12293.137 1842204
5031.5596 2580.6284 12277.377 1842204
5126.7041 2591.9517 12331.246 1842204
5116.0151 2550.2009 12132.617 1907997
5261.4419 2586.3489 12304.592 1842204
5199.0005 2520.7244 11992.382 1776411
5346.0249 2557.0591 12165.245 1842204
5383.8501 2540.8906 12088.323 1907997
5408.5225 2519.021 11984.278 1907997
5145.4497 2365.4375 11253.603 1907997
5450.8193 2473.7617 11768.957 1842204
5712.5303 2559.7859 12178.218 1842204
5845.3447 2586.626 12305.909 1842204
5674.4258 2480.0552 11798.897 1842204
5936.9307 2563.2046 12194.481 1776410
5964.7539 2544.2512 12104.312 1776409
5981.8916 2521.2446 11994.857 1907995
5942.167 2475.0933 11775.292 1842202
5963.8867 2455.3101 11681.172 1907995
5904.3906 2402.928 11431.964 1842202
5960.5186 2398.2561 11409.737 1776409
6146.0386 2445.1672 11632.917 1250065
6242.5278 2456.0098 11684.501 789514
6306.731 2454.0513 11675.185 1644823
6502.0259 2502.5925 11906.12 1644823
6524.4019 2484.2502 11818.855 1776409
6545.127 2465.6753 11730.485 1907995
6519.2378 2430.1152 11561.309 1907995
6667.4746 2459.5271 11701.234 1973788
6665.8716 2433.6284 11578.022 1973788
6746.6064 2438.012 11598.877 2039581
6845.8262 2448.9197 11650.771 2039581
6874.1021 2434.4846 11582.095 2171167
6870.0078 2408.9841 11460.776 2039581
6955.9067 2415.2302 11490.492 2039581
7164.4521 2463.5278 11720.27 2039581
7139.9487 2431.5327 11568.052 1973788
7199.5098 2428.5022 11553.634 2039581
7324.1558 2447.2761 11642.95 2171167
7348.3994 2432.4646 11572.484 2236960
7544.7681 2474.3767 11771.882 2236960
7628.2622 2478.8418 11793.125 2236960
7634.3867 2458.3127 11695.457 2434339
7585.5371 2420.6099 11516.086 2368546
7447.293 2355.3074 11205.408 2302753
7445.7432 2334.0085 11104.078 2302753
7469.0518 2320.8064 11041.27 2697511
7821.813 2409.3137 11462.344 3223855
8130.9448 2482.9736 11812.782 3158062
8210.9102 2485.9919 11827.142 4013369
8254.2109 2477.9526 11788.895 4671556
8159.5195 2428.97 11555.858 4408384
8231.8916 2430.1208 11561.335 4408383
8194.625 2399.1541 11414.009 4539969
8250.2266 2395.6602 11397.388 4539969
8440.9775 2431.1489 11566.226 4605763
8463.0371 2417.8711 11503.056 4539970
8868.0723 2513.3467 11957.282 4474175
9155.3789 2574.207 12246.826 4013625
9328.2021 2602.1741 12379.88 4671554
9414.4951 2605.7549 12396.916 5658705
9179.2793 2520.9814 11993.605 6053207
8659.1602 2359.8667 11227.1 4737604
8459.4326 2287.8584 10884.52 2236958
7924.8062 2127.0515 10119.479 855308
7586.5366 2020.9674 9614.7812 197378
7618.5264 2014.3621 9583.3564 65792
7554.4536 1982.6433 9432.4531 0
7311.751 1904.8536 9062.3682 1775886
6987.6455 1807.1462 8597.5234 788993
6850.8169 1758.9358 8368.1621 789760
7015.9731 1788.3954 8508.3164 512
7056.5898 1785.9155 8496.5186 768
7117.5635 1788.5865 8509.2256 264192
6705.063 1673.0764 7959.6846 1844235
6526.1411 1617.0564 7693.1685 1120772
6400.8252 1575.0039 7493.104 792064
6242.6074 1525.491 7257.5449 660224
6417.1099 1557.4052 7409.377 2040585
6461.5356 1557.5309 7409.9756 132352
6235.1489 1492.8174 7102.0996 1024
6332.4517 1505.9493 7164.5752 462080
6300.7427 1488.4301 7081.2271 8354895
6325.022 1484.281 7061.4883 5126429
5994.6655 1397.512 6648.6831 1574912
6018.8472 1393.9882 6631.9189 1051136
6051.4297 1392.4434 6624.5688 919552
5979.0215 1366.9153 6503.1191 196864
6098.5972 1385.3246 6590.7012 591872
6128.6689 1383.2975 6581.0576 328960
6181.3291 1386.3622 6595.6382 512
6175.2056 1376.2871 6547.7056 768
6205.8179 1374.4742 6539.0806 768
6221.1323 1369.3167 6514.5435 768
0 0 0 0
0 0 0 0
0 0 0 0
-7563.5684 1781.6813 8243.9746 1024
0 0 0 0
0 0 0 0
-8066.4468 1937.683 8965.8066 1024
-8081.3618 1954.1357 9041.9346 1024
-8085.8438 1968.2684 9107.3281 1024
-8073.998 1978.5901 9155.0869 1024
-8008.1216 1975.7211 9141.8115 1024
-7874.5874 1956.0071 9050.5938 1280
-7684.7881 1921.951 8893.0137 1024
-7708.2559 1941.1306 8981.7588 1024
-7693.5679 1950.9015 9026.9697 1024
-7666.8799 1957.7451 9058.6357 1024
-7608.3726 1956.5026 9052.8867 1280
-7540.0244 1952.6942 9035.2646 1280
-7520.2617 1961.5037 9076.0264 1280
-7541.7798 1981.2849 9167.5557 1280
-7517.0776 1989.1226 9203.8213 1280
-7429.1021 1980.2092 9162.5791 1280
-7382.6743 1982.3209 9172.3496 1280
-7361.5811 1991.3169 9213.9746 1024
-7244.4966 1974.2875 9135.1787 1024
-7166.1636 1967.6418 9104.4287 1024
-7063.9321 1954.2837 9042.6191 1024
-6994.2891 1949.8062 9021.9014 1024
-7093.4766 1992.6871 9220.3154 512
-7038.1284 1992.485 9219.3799 1024
-7012.4253 2000.7379 9257.5664 1024
-6994.3579 2011.3164 9306.5146 1024
-6953.9922 2015.6001 9326.335 768
-6878.6069 2009.7211 9299.1318 1024
-6870.3545 2023.519 9362.9766 1024
-6727.1504 1997.4714 9242.4521 1024
-6610.3682 1978.9058 9156.5479 1024
-6506.5435 1963.944 9087.3184 1024
-6591.4507 2006.1749 9282.7236 1024
-6601.9146 2026.2683 9375.6973 1024
-6639.751 2055.1753 9509.4521 1024
-6551.3022 2045.1542 9463.084 1024
-6344.5547 1997.7109 9243.5605 1024
-6281.8647 1995.196 9231.9238 1024
-6194.7456 1984.8099 9183.8662 1024
-6126.5464 1980.3551 9163.2539 1024
-6102.8647 1990.3395 9209.4521 1024
-6067.9077 1996.7935 9239.3154 1024
-6067.9858 2014.9993 9323.5547 1024
-6080.4478 2037.6897 9428.5449 1024
-6083.8105 2057.7231 9521.2412 1024
-6028.3081 2058.0354 9522.6865 1024
-5997.583 2066.8923 9563.668 1024
-5934.7324 2064.7417 9553.7168 1024
-6330.0688 2223.4915 10288.265 1280
-5799.7891 2057.0364 9518.0645 1280
-5699.7363 2041.4014 9445.7197 1280
-6123.6646 2214.9851 10248.904 1280
-5972.915 2182.0977 10096.731 1280
-5637.5698 2080.4236 9626.2783 1280
-5460.9111 2035.8295 9419.9375 1280
-6039.1973 2274.6646 10525.046 1280
-6115.1221 2327.2947 10768.57 1024
-5937.292 2283.4429 10565.663 1024
-6195.6323 2408.1919 11142.887 1024
-5999.7031 2357.1558 10906.739 1024
-5897.9805 2342.4226 10838.568 1024
-6307.4976 2532.6431 11718.732 1024
-5723.1948 2323.6091 10751.516 1024
-5602.3813 2300.1628 10643.028 1024
-5401.0938 2242.7666 10377.451 768
-5337.5205 2241.8916 10373.403 768
-4934.8281 2096.8987 9702.5098 768
-4640.6055 1995.1212 9231.5781 768
-4591.4131 1997.5181 9242.668 768
-4503.9395 1983.1166 9176.0312 768
-4478.1602 1995.8601 9234.9961 768
-4402.4043 1986.369 9191.0811 768
-4319.1758 1973.2264 9130.2695 768
-4200.9487 1943.5586 8992.9932 768
-4132.9893 1936.6831 8961.1797 768
-4092.0383 1942.4495 8987.8613 1024
-3816.6201 1835.6011 8493.4658 1024
-3764.542 1834.7478 8489.5176 1024
-3746.228 1850.5499 8562.6357 1024
-3716.209 1860.9246 8610.6396 1024
-3633.384 1844.7771 8535.9238 1024
-3569.374 1837.8615 8503.9248 1024
-3513.5027 1834.9984 8490.6768 67072
-3466.1313 1836.5557 8497.8828 66816
-3434.1951 1846.4579 8543.7012 1024
-3335.978 1820.4865 8423.5293 1024
-3290.3696 1822.871 8434.5625 1024
-3240.8499 1823.1289 8435.7559 1024
-3181.5366 1817.7992 8411.0947 1024
-3091.1689 1794.2744 8302.2441 1024
-3041.2729 1793.8604 8300.3281 1024
-2981.3149 1787.4001 8270.4365 512
-2917.5388 1778.3969 8228.7773 768
-2868.5264 1778.2395 8228.0498 768
-2813.7317 1774.4304 8210.4248 768
-2733.3843 1754.0892 8116.3047 768
-2686.3447 1754.7771 8119.4873 1024
-2588.4802 1721.6844 7966.3652 1024
-2531.6404 1715.1564 7936.1587 1024
-2464.9148 1701.5566 7873.2324 1024
-2423.2852 1705.0908 7889.5845 1024
-2391.9644 1716.16 7940.8027 1024
-2341.0659 1713.3451 7927.7783 1024
-2298.6956 1716.7842 7943.6914 1024
-2238.1157 1706.4834 7896.0283 1024
-2189.7715 1705.2706 7890.417 1024
-2119.7114 1686.7252 7804.606 1536
-2062.9412 1678.1633 7764.9897 330752
-2032.4044 1691.0381 7824.5625 527872
-1962.1454 1670.6924 7730.4204 330496
-1927.939 1680.8049 7777.2124 198912
-1892.307 1690.1393 7820.4033 132864
-1865.6987 1708.2047 7903.9932 1536
-1818.1844 1707.5659 7901.0376 1024
-1777.3253 1713.3091 7927.6118 198912
-1770.2281 1752.7936 8110.3091 528640
-1686.7422 1716.7344 7943.4609 461824
-1675.3179 1754.0533 8116.1382 462080
-1644.788 1772.9836 8203.7305 1580803
-1521.9603 1690.5455 7822.2827 1514758
-1600.9066 1834.0925 8486.4854 265216
-1540.8263 1822.5074 8432.8809 199680
-1505.8583 1840.8445 8517.7275 67840
-1407.2771 1779.9923 8236.1602 199424
-1393.6337 1826.0608 8449.3223 2048
-1351.5908 1836.9647 8499.7754 1536
-1320.3003 1863.892 8624.3701 67072
-1268.7598 1863.2491 8621.3955 1024
-1165.5481 1783.4869 8252.3301 768
-1112.6346 1777.0741 8222.6572 768
-1061.6979 1773.3756 8205.5439 768
-1010.6218 1769.0782 8185.6597 768
-975.73224 1794.1104 8301.4854 512
-957.47119 1853.9989 8578.5938 512
-903.31573 1847.2019 8547.1436 512
-852.729 1847.3287 8547.7305 0
-799.78448 1842.0413 8523.2646 395268
-731.27008 1797.7635 8318.3887 789769
-692.07776 1824.3815 8441.5518 1513748
-658.60266 1871.3918 8659.0723 1513750
-608.28448 1874.4436 8673.1934 1447957
-556.89001 1874.4358 8673.1572 1513752
-512.09772 1898.9078 8786.3916 1645338
-462.90765 1910.7662 8841.2607 1711388
-408.09528 1899.4821 8789.0479 1909024
-353.76843 1887.4871 8733.5459 1974819
-299.65952 1872.7434 8665.3262 1909026
-254.48494 1919.2834 8880.6709 1909028
-202.93611 1929.4829 8927.8643 2040614
-145.07343 1865.6768 8632.6279 2040614
-97.353859 1933.8552 8948.0947 2172200
-42.727131 1863.8134 8624.0068 2237991
8.9204721 1985.5439 9187.2627 2237991
63.282967 1983.1708 9176.2822 2172198
119.07626 2007.1082 9287.042 2040612
162.983 1878.8845 8693.7412 2171428
214.44254 1878.4081 8691.5371 2237221
267.03812 1886.1403 8727.3145 2434600
338.88428 2005.2749 9278.5596 2500393
392.33093 1997.4725 9242.457 2368807
452.55612 2021.8654 9355.3252 2368807
508.72058 2024.7725 9368.7764 2368807
565.31085 2028.6356 9386.6514 2434600
635.26544 2075.4692 9603.3535 2368807
699.86804 2098.5542 9710.1699 2303014
755.48169 2093.2258 9685.5156 2237221
813.30292 2094.335 9690.6475 2171428
871.37531 2095.9019 9697.8975 2105635
923.3869 2083.5989 9640.9697 2039842
978.10602 2078.4827 9617.2979 1974049
1036.8241 2081.96 9633.3877 1908256
1104.0782 2101.3208 9722.9707 1908256
1161.5933 2101.1445 9722.1553 1974049
1218.7985 2100.4507 9718.9453 1908256
1275.2484 2098.5767 9710.2744 1908002
1328.7418 2092.2095 9680.8125 1711649
1391.573 2100.4636 9719.0049 1777443
1477.9803 2142.2339 9912.2793 1843235
1540.3196 2147.2593 9935.5322 1843235
1617.173 2171.4033 10047.249 1843233
1674.3629 2168.3677 10033.202 1843233
1798.1407 2248.8174 10405.449 1843233
1827.8346 2210.1689 10226.62 1974049
1852.2372 2167.8083 10030.614 2171428
1895.0875 2149.001 9943.5908 2040099
1994.5455 2193.5845 10149.883 2105635
2049.49 2188.0356 10124.207 2040099
2151.1707 2231.2788 10324.297 1974049
2214.6963 2233.6489 10335.264 1974050
2274.4585 2232.1982 10328.551 1974049
2363.3525 2258.6646 10451.013 2039585
2445.0247 2277.054 10536.102 2040096
2438.0742 2214.0479 10244.568 2040096
2502.4229 2217.2778 10259.514 1908510
2614.7073 2261.821 10465.618 1908510
2679.9722 2264.5688 10478.332 2040096
2731.761 2256.063 10438.975 2040096
2779.4058 2244.5867 10385.874 1974560
2851.0811 2252.5942 10422.925 2171169
2891.1956 2235.8552 10345.472 2171169
2960.3428 2241.7969 10372.965 2171169
3011.9912 2234.5149 10339.271 2368548
3117.4561 2266.6523 10487.973 2302755
3112.0447 2218.4929 10265.136 2302755
3170.2534 2216.6638 10256.672 2302755
3228.3894 2214.8533 10248.295 2302755
3309.0164 2228.2549 10310.305 2236962
3359.0593 2220.949 10276.5 2302755
3418.4033 2219.9436 10271.848 2236962
3497.3027 2231.4502 10325.091 2039583
3584.0562 2247.4866 10399.292 2039583
3656.1064 2253.9167 10429.044 2039583
3684.6394 2233.7517 10335.738 2171169
3816.0745 2275.6082 10529.412 2236962
3884.3896 2279.084 10545.495 2105376
3943.0081 2276.8506 10535.161 2105376
3905.3367 2219.9517 10271.886 2039583
3930.2329 2199.8193 10178.731 2039583
4192.2402 2311.0049 10693.195 1973790
4179.1426 2269.4839 10501.074 1973790
4338.4097 2321.4104 10741.343 1973790
4487.5254 2366.4822 10949.894 1973790
4578.5347 2380.0637 11012.736 1907997
4681.1821 2399.2285 11101.412 1907997
4793.7656 2422.8838 11210.867 1907997
4929.1108 2457.2395 11369.835 1973790
5002.7729 2460.3337 11384.151 1973790
5003.4233 2427.9165 11234.154 1973790
5107.1211 2445.6978 11316.429 1907997
5006.0649 2366.2361 10948.755 1973790
5023.6113 2344.1511 10846.565 1907997
5104.3096 2351.72 10881.587 1973790
5222.9053 2376.3428 10995.519 1842203
5301.3682 2382.324 11023.194 1644825
5401.8081 2397.9155 11095.338 1710618
5485.3188 2405.7073 11131.391 1842203
5526.189 2394.8352 11081.085 1842203
5588.5688 2393.4304 11074.585 1907995
5601.6152 2371.1753 10971.608 2105374
5640.8169 2360.3755 10921.638 2105374
5529.6284 2287.6042 10584.919 2039581
5721.7217 2340.5256 10829.79 2171166
5815.5039 2352.5042 10885.216 2039581
5837.6108 2335.5437 10806.738 1842202
5932.6562 2347.8159 10863.523 1842202
5999.9399 2348.9565 10868.801 1776409
6085.4326 2357.126 10906.601 1776409
6173.6792 2366.1787 10948.489 1842202
6236.2495 2365.3049 10944.446 1973788
6325.2803 2374.3818 10986.445 2105374
6405.6475 2380.0547 11012.694 2105374
6520.6904 2398.3672 11097.428 2039581
6448.7539 2348.2283 10865.431 1973788
6525.0425 2352.521 10885.294 1973788
6670.6001 2381.4592 11019.193 1842202
6767.4966 2392.6328 11070.894 1907995
6832.291 2392.3506 11069.589 1842202
6951.7217 2411.0232 11155.988 1776409
7039.4683 2418.4587 11190.393 1842202
7053.0337 2400.5081 11107.333 1973788
7163.458 2415.5503 11176.936 1973788
7224.4873 2413.8135 11168.898 1907995
7182.1494 2377.8853 11002.655 2039581
7020.041 2303.3057 10657.57 2039581
6804.8423 2212.7922 10238.759 2105374
6933.6992 2234.7695 10340.449 2236960
7067.04 2257.7947 10446.987 2302753
7198.605 2279.8574 10549.074 2368289
7323.0874 2299.3167 10639.112 2368289
7512.0454 2338.5146 10820.485 2170910
7625.9258 2353.8755 10891.561 1907737
8079.873 2473.0649 11443.06 1907735
8285.3369 2514.8486 11636.396 1644565
7969.6738 2399.0706 11100.682 3157802
8134.9429 2428.7751 11238.128 4671299
8099.1602 2398.459 11097.852 5263692
8287.6182 2434.5017 11264.625 4474176
8399.7217 2447.7188 11325.781 4211004
8656.0605 2502.4238 11578.906 3947832
8876.1797 2545.8801 11779.98 3158317
9105.5088 2591.2793 11990.046 2960936
8935.8975 2523.322 11675.604 3355695
8673.6533 2430.4526 11245.89 4803138
8514.665 2367.7124 10955.585 4934721
8138.6953 2246.0408 10392.602 5856079
8081.8535 2213.6052 10242.52 6185042
7820.376 2126.0217 9837.2637 6053457
7736.4727 2087.6514 9659.7217 3881260
7524.1289 2015.4403 9325.5957 1250063
7083.543 1883.5902 8715.5146 328707
6897.5698 1820.8628 8425.2705 196608
7070.9219 1853.2122 8574.9531 65792
6992.5176 1819.588 8419.3721 263168
7072.2314 1827.2942 8455.0293 461313
6597.9863 1692.7693 7832.5723 2764055
6420.4224 1635.7079 7568.5444 2632981
6499.9263 1644.4762 7609.1162 987904
6454.0474 1621.6204 7503.3613 724480
6390.8945 1594.7668 7379.1074 2303758
6351.5054 1574.168 7283.7944 1513986
6234.9673 1534.8553 7101.8926 462080
6291.9883 1538.5083 7118.7949 263936
6397.2798 1553.8369 7189.7222 8948059
6384.7671 1540.5388 7128.1899 5917996
5882.894 1410.1168 6524.7178 1378048
5974.3857 1422.6974 6582.9287 1116928
6124.0088 1448.8679 6704.022 919552
6022.5991 1415.6925 6550.5171 657920
6064.4648 1416.4052 6553.8145 526080
6109.2529 1417.787 6560.2085 131840
6174.3071 1423.8247 6588.145 1184769
6068.9902 1390.7451 6435.0835 132352
6110.3198 1391.4738 6438.4546 66560
6092.3501 1378.7729 6379.6875 198144
0 0 0 0
0 0 0 0
0 0 0 0
0 0 0 0
0 0 0 0
-7666.0015 1879.5994 8464.9629 1024
-7786.3628 1921.6836 8654.4941 1280
-7774.4409 1931.4623 8698.5322 1280
-7743.585 1936.6356 8721.832 1280
-7596.2783 1912.5593 8613.4014 1280
-7541.0669 1911.5015 8608.6367 1280
-7510.8589 1916.8102 8632.5459 1280
-7521.7515 1932.7524 8704.3438 1280
-7455.6602 1928.9973 8687.4316 1280
-7396.0376 1926.8749 8677.873 1280
-7372.6992 1934.2423 8711.0527 1280
-7371.8804 1947.663 8771.4941 1280
-7368.4756 1960.5865 8829.6963 1280
-7316.7969 1960.7582 8830.4697 1280
-7241.4731 1954.5502 8802.5117 1280
-7205.8403 1959.043 8822.7451 1280
-7043.8076 1928.9863 8687.3818 1280
-6999.9873 1931.0984 8696.8936 1280
-7046.7305 1958.411 8819.8984 1024
-6878.3052 1925.8857 8673.418 1024
-6849.688 1932.3109 8702.3545 1024
-6852.9233 1947.8875 8772.5049 1024
-6898.7275 1975.8942 8898.6367 1024
-6890.937 1988.8641 8957.0479 768
-6814.9946 1982.2128 8927.0928 1024
-6787.0068 1989.5145 8959.9766 1024
-6718.4634 1984.9492 8939.416 1024
-6691.8892 1992.8096 8974.8164 1024
-6613.7524 1985.318 8941.0771 1024
-6532.5288 1976.771 8902.585 1024
-6448.833 1967.3311 8860.0713 1024
-6353.6318 1954.197 8800.9209 1024
-6289.9731 1950.6278 8784.8467 1024
-6246.1689 1953.2074 8796.4639 1024
-6225.0083 1962.9707 8840.4346 1024
-6269.3525 1993.7313 8978.9678 1024
-6243.0229 2002.351 9017.7871 1024
-6188.708 2002.0658 9016.5029 1024
-6129.6191 2000.2181 9008.1816 1024
-6007.147 1977.4728 8905.7461 1024
-5969.7173 1982.5675 8928.6904 1024
-6009.7163 2013.6975 9068.8877 1024
-6064.1084 2050.2556 9233.5303 1024
-6128.2246 2090.7971 9416.1123 1024
-6059.874 2086.4739 9396.6426 768
-6574.3018 2284.5874 10288.867 1024
-6567.501 2303.5859 10374.429 1024
-6584.5508 2331.3884 10499.64 1024
-6566.9058 2347.3193 10571.387 1280
-6617.0825 2388.0339 10754.748 1280
-6506.3862 2370.9182 10677.666 1280
-6408.6543 2358.2366 10620.554 1280
-6634.375 2465.5071 11103.657 1280
-6348.0034 2382.7136 10730.788 1280
-6043.5728 2291.3977 10319.537 1280
-6248.2646 2393.2197 10778.104 1280
-6122.6006 2369.3047 10670.399 1280
-5964.3276 2332.1401 10503.025 1024
-5624.3394 2222.3892 10008.751 1024
-5185.5708 2070.8511 9326.2842 1024
-5089.7046 2054.4614 9252.4717 1024
-5040.2686 2056.6602 9262.373 1024
-4986.3828 2057.0715 9264.2266 1024
-4920.2866 2052.3987 9243.1826 1024
-4891.4302 2063.3298 9292.4111 1024
-4857.8281 2072.4849 9333.6416 1024
-4874.3765 2103.4927 9473.2891 1024
-4644.4331 2027.6127 9131.5557 1024
-5101.125 2253.2405 10147.692 1024
-4464.4248 1995.5227 8987.0352 1024
-4317.4248 1953.1133 8796.04 1024
-4223.2964 1933.8771 8709.4082 768
-4086.8486 1894.5471 8532.2822 768
-4054.6387 1903.1589 8571.0664 1024
-3939.3105 1872.4806 8432.9033 1024
-3855.5698 1856.2213 8359.6777 1024
-3806.749 1856.5695 8361.2451 1024
-3706.3945 1831.4618 8248.1709 1024
-3690.6655 1848.0588 8322.917 1024
-3613.0232 1833.6829 8258.1738 1024
-3550.7659 1826.8276 8227.2998 1024
-3460.2412 1805.0358 8129.1587 1024
-3419.3877 1808.9056 8146.5869 1024
-3368.6846 1807.601 8140.7114 1024
-3297.3665 1795.036 8084.123 1024
-3228.8298 1783.637 8032.7871 1024
-3201.3235 1794.9017 8083.5186 1024
-3104.5796 1767.099 7958.3066 1024
-3042.3875 1758.4087 7919.1689 1024
-2966.2915 1741.2843 7842.0474 1024
-2916.9492 1739.5698 7834.3257 1024
-2875.6108 1742.65 7848.1982 1024
-2792.6519 1720.1946 7747.0679 1024
-2728.5037 1708.7692 7695.6123 1024
-2714.0862 1728.6294 7785.0552 1024
-2630.374 1704.2788 7675.3896 1024
-2588.3604 1706.5642 7685.6821 1024
-2549.3054 1710.9171 7705.2856 1024
-2518.5486 1721.0994 7751.1421 1024
-2422.3755 1686.126 7593.6362 1024
-2308.0657 1636.9655 7372.2373 1024
-2305.0649 1666.3759 7504.6899 1024
-2262.2361 1667.5845 7510.1328 1024
-2200.5498 1654.6619 7451.9351 1024
-2160.4958 1657.8092 7466.1094 1024
-2112.0906 1654.546 7451.4131 132864
-2020.1323 1616.2971 7279.1553 593408
-1961.0226 1603.2344 7220.3262 594176
-1917.1147 1602.2947 7216.0938 792064
-1881.1222 1608.0785 7242.1411 1121280
-1827.8077 1598.9786 7201.1597 1384704
-1781.3809 1595.6133 7186.0034 1647872
-1717.2756 1575.8606 7097.0449 2042880
-1663.3419 1564.6843 7046.7119 1056000
-1604.8641 1548.5481 6974.0405 1845504
-1527.551 1512.9041 6813.5142 1582592
-1454.1041 1479.2578 6661.9849 1517056
-1459.0736 1525.7328 6871.2896 1056000
-1424.6084 1532.4558 6901.5674 1056000
-1390.1956 1539.6343 6933.8965 1253120
-1357.2279 1548.8993 6975.6221 1449984
-1338.7454 1575.7963 7096.7554 1187584
-1302.2135 1582.5035 7126.9619 1055744
-1249.4706 1569.2997 7067.4976 923904
-1201.2102 1561.0054 7030.1431 529152
-1249.8689 1682.5885 7577.7051 726784
-1227.9204 1714.639 7722.0474 1383936
-1142.1892 1656.6584 7460.9258 1383680
-1125.8752 1698.7469 7650.4756 1317888
-1094.4105 1720.5483 7748.6606 593408
-1049.9667 1722.9604 7759.5244 66304
-1003.1534 1721.5277 7753.0713 512
-964.00275 1733.7383 7808.063 512
-921.47357 1740.7975 7839.8545 512
-872.76038 1736.3036 7819.6157 0
-837.82861 1760.2601 7927.5073 1118732
-797.60052 1775.2742 7995.1245 1711382
-762.01129 1803.1615 8120.7178 1382162
-717.38818 1811.9902 8160.4785 1382162
-676.70923 1832.7775 8254.0957 1645335
-640.84991 1870.8737 8425.666 1776923
-586.81744 1857.8707 8367.1064 2040350
-547.76239 1894.2626 8531 2105887
-494.93857 1885.5985 8491.9805 2040096
-446.19601 1892.2815 8522.0781 2105888
-391.48447 1872.1256 8431.3047 1974046
-340.59433 1867.0209 8408.3145 1974049
-289.77927 1860.6484 8379.6162 1842720
-239.58797 1856.4744 8360.8174 1974563
-190.33992 1859.338 8373.7139 1909026
-139.68518 1845.6348 8312 1909027
-89.724686 1831.1738 8246.874 2171686
-40.936672 1834.6707 8262.6221 2237478
7.9144363 1809.9165 8151.1392 2171684
56.310085 1813.0356 8165.187 2105892
106.0106 1835.8693 8268.0195 2040098
155.39716 1840.5503 8289.1016 2303014
205.29324 1847.5686 8320.709 2434600
255.8828 1856.9009 8362.7383 2434600
307.7291 1870.8456 8425.5391 2434600
358.88422 1877.2819 8454.5254 2303014
411.82693 1890.3466 8513.3643 2237221
458.41806 1874.5867 8442.3877 2368806
512.38037 1889.1051 8507.7725 2434599
567.8327 1906.0237 8583.9678 2434600
615.49426 1896.1597 8539.5439 2500393
664.30322 1891.0604 8516.5791 2500136
720.94489 1907.4044 8590.1855 2434343
771.854 1907.426 8590.2832 2368550
819.46869 1899.8076 8555.9727 2302758
866.45111 1891.6965 8519.4434 2237221
922.7099 1903.6162 8573.125 2171428
971.79584 1900.2659 8558.0371 2303014
1025.4336 1905.7073 8582.543 2171428
1057.9849 1873.2981 8436.585 2171428
1122.1687 1897.2961 8544.6621 2236966
1150.9836 1862.0042 8385.7207 2106407
1227.1582 1903.0779 8570.7012 2040614
1273.6293 1896.6541 8541.7705 2106406
1335.0699 1912.1614 8611.6094 2106150
1399.349 1930.4429 8693.9414 2040356
1452.2593 1932.2992 8702.3018 1974819
1508.8608 1938.7712 8731.4492 2040612
1568.1663 1948.1732 8773.792 2171171
1620.7003 1948.8296 8776.748 2105635
1677.9626 1954.9539 8804.3291 2237221
1767.7485 1997.4586 8995.7539 2303014
1813.2954 1988.9507 8957.4375 2303014
1873.9672 1997.0449 8993.8906 2171428
1949.5607 2020.1533 9097.9619 2105635
1996.3217 2012.9458 9065.502 2040099
2046.7585 2009.7253 9050.998 2171171
2084.8379 1994.8453 8983.9844 2105889
2120.2188 1978.1882 8908.9678 2105889
2161.2207 1967.4578 8860.6416 2171682
2224.3862 1976.9343 8903.3203 1974303
2280.1211 1979.5208 8914.9688 1974303
2333.5417 1980.0265 8917.2461 2171682
2391.668 1984.4137 8937.0049 2171682
2449.7905 1988.6083 8955.8955 2302755
2510.1067 1994.3678 8981.834 2236962
2564.4414 1995.2344 8985.7363 2236962
2602.4924 1983.6539 8933.583 2368548
2648.3896 1978.3964 8909.9053 2368548
2706.033 1981.9476 8925.8984 2368548
2763.8472 1985.4855 8941.8311 2302755
2827.96 1993.3297 8977.1592 2302755
2894.0034 2002.2202 9017.1982 2302755
2968.4314 2016.484 9081.4365 2302755
3007.7729 2006.8296 9037.957 2434341
3129.2527 2051.3584 9238.4961 2368548
3141.6165 2024.0552 9115.5342 2302755
3277.3052 2075.7871 9348.5137 2236962
3335.5508 2077.5635 9356.5137 2171169
3414.2468 2091.8108 9420.6787 2171169
3517.395 2120.3403 9549.1641 2236962
3596.0869 2133.4573 9608.2373 2236962
3654.551 2134.3516 9612.2646 2171169
3723.2312 2141.0935 9642.6279 2171169
3803.5244 2154.2087 9701.6943 2039583
3854.3096 2150.47 9684.8555 1907997
3875.6926 2130.6768 9595.7148 1907997
3963.8516 2147.6353 9672.0898 1907997
4018.4204 2146.1709 9665.4941 1907997
4088.4111 2152.8684 9695.6572 1907997
4127.292 2143.2253 9652.2285 2039583
4333.001 2219.2927 9994.8057 2039583
4600.5581 2324.5591 10468.884 2105376
4627.2129 2306.9214 10389.45 1973790
4683.2661 2304.2112 10377.245 2039583
4615.0732 2241.2332 10093.617 2039583
4621.3857 2215.5862 9978.1133 2039583
4737.0859 2242.3672 10098.724 2105376
4773.5781 2231.4534 10049.572 2236962
4819.8394 2225.3191 10021.946 2236962
4865.8403 2219.2153 9994.457 2236962
4966.0869 2237.7012 10077.71 2236962
5145.5049 2290.9983 10317.738 2171168
5168.2065 2274.0864 10241.574 2105375
5262.6836 2288.7825 10307.76 2105375
5298.4019 2277.8801 10258.66 2105376
5368.46 2281.8208 10276.407 2171168
5475.6094 2301.2615 10363.961 2236962
5340.4038 2219.5452 9995.9434 2171167
5512.5957 2265.979 10205.062 2171167
5462.9756 2221.217 10003.473 2039581
5504.7451 2214.176 9971.7627 1842202
5491.6372 2185.4458 9842.3721 1842202
5646.1816 2223.3367 10013.018 1842202
5721.2539 2229.4705 10040.643 1907995
5635.2119 2173.3413 9787.8584 1907995
5841.3135 2229.8789 10042.482 2039581
5976.0703 2258.3159 10170.551 1973788
6033.3003 2257.1807 10165.438 1973788
5910.0537 2189.2151 9859.3486 2039581
6115.4209 2243.1147 10102.091 2039581
6286.7661 2283.6111 10284.47 2039581
6500.7734 2338.678 10532.469 1973788
6447.2471 2297.3662 10346.417 1973788
6516.3584 2300.1208 10358.823 1973788
6560.1675 2293.9768 10331.153 1973788
6608.3384 2289.457 10310.798 2039581
6655.2783 2284.5979 10288.914 2039581
6418.7505 2183.4023 9833.1699 2039581
6480.3599 2184.5295 9838.2461 2039581
6564.3872 2193.1262 9876.9629 2105374
6624.3628 2193.6067 9879.127 2236959
6846.4683 2247.2964 10120.924 2236960
6756.7495 2198.5889 9901.5645 2302753
6703.0181 2162.3289 9738.2637 2171167
6875.4644 2199.0281 9903.542 2039324
6970.4971 2210.5562 9955.459 1841945
6945.8848 2184.2656 9837.0576 2434082
7117.998 2219.7622 9996.9199 2434082
7337.4072 2269.3 10220.019 2631205
7566.104 2320.8762 10452.297 3684147
7898.1943 2403.073 10822.479 3617840
8120.8945 2450.9312 11038.013 1906710
8407.1016 2517.0378 11335.73 1841944
8522.0225 2531.2217 11399.608 4079161
8420.9404 2481.5288 11175.812 4539968
8524.873 2492.5549 11225.47 4342588
8482.6182 2460.9983 11083.352 4474174
8199.6816 2360.6357 10631.358 4013624
8229.2529 2351.0867 10588.353 3289643
7955.022 2255.543 10158.062 3619375
7727.1089 2174.4683 9792.9346 4474679
7549.5054 2108.6541 9496.5342 10264715
7145.1729 1980.9548 8921.4277 12895918
7770.0386 2138.3743 9630.3818 13356724
7747.0693 2116.5093 9531.9102 13684150
0 0 0 0
0 0 0 0
6874.4756 1837.9171 8277.2432 1118479
7096.166 1883.7476 8483.6445 196608
6801.8013 1792.9045 8074.5239 1841158
6516.8774 1705.8019 7682.2485 2960405
6301.3325 1637.9418 7376.6338 2171400
6240.3398 1610.9132 7254.9077 3224342
6238.1494 1599.3306 7202.7441 3026706
6244.2251 1590.0099 7160.7676 1580288
6141.6978 1553.3474 6995.6543 725248
6080.9634 1527.6758 6880.04 527105
6370.272 1589.6991 7159.3687 9474146
6438.2612 1596.0372 7187.9131 6837559
6023.9468 1483.5154 6681.1592 1180416
5980.4028 1463.176 6589.5591 919552
6076.0396 1476.9318 6651.5093 1446912
6035.9849 1457.7397 6565.0762 2565649
6023.5278 1445.4158 6509.5742 262912
6061.6919 1445.3186 6509.1362 512
6116.3608 1449.1332 6526.3154 396032
6062.4727 1427.3411 6428.1724 66560
5927.0854 1386.7529 6245.3799 265216
5953 1384.1738 6233.7646 198656
0 0 0 0
0 0 0 0
0 0 0 0
0 0 0 0
0 0 0 0
-7500.6279 1888.1284 8282.3545 1280
-7409.2827 1877.4177 8235.3721 1280
-7393.8525 1885.9288 8272.7061 1280
-7342.4038 1885.3051 8269.9697 1280
-7319.8628 1892.1454 8299.9746 1280
-7309.2793 1902.1901 8344.0361 1280
-7249.8252 1899.5665 8332.5283 1280
-7250.3838 1912.739 8390.3105 1280
-7256.2935 1927.5154 8455.127 1280
-7180.2686 1920.5808 8424.708 1280
-7129.0181 1920.2225 8423.1367 1280
-7103.9365 1926.9574 8452.6797 1280
-7007.9219 1914.4106 8397.6426 1280
-6923.8667 1904.9746 8356.251 1280
-6849.1523 1897.9915 8325.6191 1280
-6705.2476 1871.5939 8209.8252 1280
-6672.2466 1875.993 8229.1221 1280
-6580.0962 1863.7036 8175.2144 1280
-6707.8101 1913.9668 8395.6953 1280
-6770.5244 1946.2959 8537.5088 1280
-6650.8188 1926.2773 8449.6963 1280
-6690.4272 1952.4474 8564.4922 1280
-6609.9092 1943.6932 8526.0918 1280
-6609.7959 1958.6299 8591.6123 1024
-6577.8032 1964.2786 8616.3906 1024
-6578.8843 1979.9698 8685.2207 1024
-6461.4751 1959.9662 8597.4736 1024
-6415.5161 1961.4904 8604.1592 1280
-6380.2363 1966.3297 8625.3877 1280
-6358.71 1975.5204 8665.7031 1280
-6272.105 1964.4777 8617.2637 1024
-6194.5366 1956.1071 8580.5459 1024
-6140.3936 1955.0564 8575.9375 1024
-6048.4844 1941.8634 8518.0654 1024
-6027.4775 1951.4032 8559.9121 1024
-5997.1997 1958.0779 8589.1904 1024
-5859.6865 1929.5548 8464.0732 1024
-5856.062 1945.0084 8531.8613 1024
-5699.7192 1909.5668 8376.3945 1024
-5829.6841 1970.2656 8642.6533 1024
-5851.145 1995.0444 8751.3457 1024
-6256.7856 2152.4302 9441.7246 1280
-6348.396 2203.6497 9666.4014 1280
-6348.5747 2223.7751 9754.6836 1792
-6412.2896 2266.7307 9943.1094 1536
-6396.9717 2282.2859 10011.343 1536
-6421.3623 2312.4319 10143.579 1280
-6489.9858 2359.2268 10348.848 1280
-6569.6978 2410.9839 10575.882 1024
-6539.5 2423.0139 10628.652 1024
-6425.4023 2403.8896 10544.763 1024
-6410.1533 2421.7341 10623.038 1024
-6219.4526 2372.9897 10409.22 1024
-6048.3179 2330.8096 10224.193 1024
-5901.4438 2297.2192 10076.849 1024
-5571.4854 2190.9456 9610.6748 1280
-5483.0767 2178.446 9555.8447 1280
-5430.561 2180.0945 9563.0762 1280
-4956.6782 2010.8369 8820.6201 1280
-4871.3315 1997.2733 8761.123 1280
-4695.7603 1946.0269 8536.3281 1280
-4724.9907 1979.4624 8682.9951 1280
-4883.5615 2068.4163 9073.1943 1280
-4978.7158 2132.1914 9352.9473 1280
-4978.3804 2156.0476 9457.5938 1280
-4913.9165 2152.3577 9441.4072 1280
-4820.8481 2135.9097 9369.2578 1280
-4479.4868 2007.7888 8807.25 1280
-4275.0215 1938.7301 8504.3213 1280
-4184.6841 1920.3984 8423.9082 1280
-4064.2988 1887.6685 8280.3369 1280
-3949.7739 1856.8937 8145.3423 1024
-3886.0396 1849.531 8113.0449 1280
-3824.9861 1843.2756 8085.6055 1024
-3777.5105 1843.4878 8086.5366 1024
-3687.6404 1822.7504 7995.5713 1024
-3658.8145 1832.0392 8036.3169 1024
-3594.9993 1823.8223 8000.2729 1024
-3480.7764 1789.4711 7849.5903 1024
-3446.334 1795.76 7877.1768 1024
-3428.1521 1810.811 7943.1987 1024
-3302.7344 1768.8485 7759.1279 1024
-3262.699 1772.0751 7773.2812 1024
-3220.9761 1774.4642 7783.7617 1024
-3111.21 1738.8926 7627.7256 1024
-3067.0852 1739.5011 7630.394 1024
-3025.3801 1741.5204 7639.252 1024
-2995.6445 1750.5957 7679.0615 1024
-2894.1472 1717.3682 7533.3076 1024
-2778.3184 1674.4622 7345.0986 1024
-2729.4238 1671.1731 7330.6709 1024
-2763.7627 1719.564 7542.9395 1024
-2662.4651 1683.7678 7385.9185 1024
-2678.8447 1722.4392 7555.5518 1024
-2614.0945 1709.3739 7498.2407 1024
-2538.6135 1688.7185 7407.6343 1024
-2526.8352 1710.4578 7502.9941 1024
-2432.9619 1676.4087 7353.6367 1024
-2412.3135 1692.4928 7424.1904 1024
-2383.9302 1703.6469 7473.1182 1024
-2320.6692 1689.8264 7412.4946 1024
-2260.1584 1677.5142 7358.4863 1024
-2173.3657 1644.8269 7215.1021 1024
-2150.231 1659.9718 7281.5356 1024
-2101.1785 1655.3185 7261.124 132864
-1915.4757 1540.5667 6757.7603 527872
-1886.3538 1549.5374 6797.1104 593920
-1894.9138 1590.5283 6976.9189 988928
-1859.3577 1595.4923 6998.6938 1252352
-1733.8759 1521.7582 6675.2563 1581568
-1678.2402 1507.3141 6611.8965 1713408
-1652.2567 1519.4481 6665.123 1976576
-1610.4175 1517.2383 6655.4292 2043392
-1549.3883 1496.3838 6563.9502 1385216
-1507.924 1493.8374 6552.7808 1977600
-1462.6455 1487.2783 6524.0088 2108928
-1425.5201 1488.8783 6531.0273 2042880
-1367.7164 1468.3677 6441.0562 1779456
-1343.6385 1483.9265 6509.3062 1778944
-1327.4122 1509.3328 6620.7515 1318400
-1283.5543 1503.9109 6596.9683 1055232
-1282.8475 1550.296 6800.4385 1581312
-1242.5522 1550.296 6800.4385 1581312
-1211.4944 1562.2075 6852.689 1186560
-1171.5054 1563.0294 6856.2944 857088
-1137.0406 1571.5455 6893.6504 791040
-1113.4819 1596.3315 7002.3755 1185792
-1071.5964 1595.7455 6999.8047 1646336
-1033.0654 1600.3086 7019.8208 395008
-1015.4434 1639.0031 7189.5562 987136
-993.28821 1673.4495 7340.6562 1908234
-985.52216 1736.403 7616.8047 592386
-946.39331 1747.4889 7665.4331 2170907
-916.117 1776.8624 7794.2812 3948338
-872.10071 1781.2903 7813.7051 3816755
-823.45038 1776.2194 7791.4604 4079930
-777.58441 1776.9084 7794.4839 4672324
-744.23724 1808.0985 7931.3003 4606275
-692.21075 1795.054 7874.0791 4211517
-662.22845 1841.4202 8077.4673 4671811
-605.08594 1813.6049 7955.4541 4737350
-564.34369 1834.3986 8046.666 4211006
-527.70551 1873.6011 8218.6299 4540230
-474.5997 1856.3629 8143.0137 4540229
-430.50861 1874.4738 8222.458 4277314
-370.66226 1819.8533 7982.8623 4079936
-326.19003 1835.7772 8052.7134 4408901
-276.31836 1821.5632 7990.3638 4474949
-227.99573 1813.7947 7956.2866 4606280
-179.80075 1803.2563 7910.0596 4672073
-132.7063 1800.2153 7896.7197 4606280
-85.497757 1791.4713 7858.3638 4606280
-38.879951 1788.9935 7847.4951 4803658
7.5918818 1782.4832 7818.937 4803658
53.861431 1780.4735 7810.1221 4540742
100.47276 1786.3984 7836.1113 4409157
147.30019 1791.2053 7857.1978 4934987
193.61359 1788.9541 7847.3223 4408643
241.98787 1802.9293 7908.6255 4277313
292.19839 1823.8315 8000.3135 4342850
338.64508 1818.6844 7977.7354 4145472
387.10504 1824.2861 8002.3081 4145472
438.81021 1842.2899 8081.2822 4277058
481.90091 1824.1428 8001.6792 4145729
530.28241 1827.4797 8016.3169 4145729
580.30835 1835.4695 8051.3638 3685435
623.78973 1823.1178 7997.1826 4079936
667.48315 1813.0862 7953.1792 4343107
712.35425 1807.3656 7928.0854 4080192
759.70081 1808.2451 7931.9434 3948093
801.89282 1797.4681 7884.6694 3882300
850.28326 1801.0066 7900.1909 3685178
901.13239 1809.1119 7935.7451 3553592
955.60553 1823.3281 7998.105 3553592
1005.1792 1827.2941 8015.502 3290677
1046.498 1816.573 7968.4736 3224629
