# .PCD v0.7 - Point Cloud Data file format
VERSION 0.7
FIELDS x y z rgb
SIZE 4 4 4 4
TYPE F F F U
COUNT 1 1 1 1
WIDTH 1275
HEIGHT 1
VIEWPOINT 0 0 0 1 0 0 0
POINTS 1275
DATA ascii
2883.2817 1576.5557 5851.061 1249806
2940.1194 1588.5327 5895.5117 1249806
2982.8877 1592.7163 5911.0381 1249804
3023.7576 1595.8008 5922.4858 1184012
3073.8008 1603.6003 5951.4316 920841
3322.3081 1713.587 6359.625 789509
3169.9829 1616.6832 5999.9863 854787
3133.2483 1580.226 5864.6826 1973523
3186.1785 1589.2939 5898.3369 3881777
3260.821 1608.8784 5971.02 4342069
3344.9731 1632.6837 6059.3687 4078897
3384.6697 1634.515 6066.1655 3355429
3222.4866 1539.8412 5714.8032 1250060
3214.0745 1519.8507 5640.6123 263168
3191.9768 1493.8667 5544.1782 0
3202.616 1483.577 5505.9902 65792
3192.4661 1463.9617 5433.1919 131584
3203.5234 1454.366 5397.5796 197376
3192.2505 1434.9226 5325.4189 131584
3205.0393 1426.5695 5294.4185 131840
3198.0645 1409.6667 5231.6875 131840
3212.3486 1402.3696 5204.6055 256
3210.7595 1388.3474 5152.5649 131840
3248.199 1391.3063 5163.5464 197632
3279.1394 1391.4526 5164.0894 131840
3263.5913 1372.0515 5092.0864 131840
3300.6401 1374.9159 5102.7168 131840
3310.7693 1366.6165 5071.915 131840
3355.7246 1372.7124 5094.5391 66048
3387.7634 1373.4631 5097.3252 197120
3395.3467 1364.3733 5063.5903 197120
3382.1003 1347.1461 4999.6553 262912
3415.2742 1348.5475 5004.8555 328704
3459.7969 1354.3672 5026.4546 262912
3484.6731 1352.4625 5019.3857 197120
3493.0071 1344.2241 4988.8105 197632
3494.2197 1333.4064 4948.6626 256
3538.7927 1339.1775 4970.0811 256
3534.6436 1326.5676 4923.2822 0
3571.7988 1329.5391 4934.3101 0
3585.9033 1323.9518 4913.5737 0
3599.938 1318.4288 4893.0767 197632
3593.9456 1305.718 4845.9033 263424
3619.8423 1304.7026 4842.1348 197632
3640.7512 1301.9196 4831.8062 262912
3669.105 1301.8214 4831.4419 262912
3666.803 1290.9321 4791.0283 197120
3678.2292 1285.0063 4769.0356 197120
3704.8374 1284.4341 4766.9121 197120
3736.3711 1285.5654 4771.1108 262912
3736.5652 1275.9777 4735.5278 197120
3760.5212 1274.5868 4730.3657 197120
3811.7854 1282.4037 4759.3765 262912
3810.5664 1272.5785 4722.9126 197120
3792.9622 1257.4642 4666.8193 197120
3819.845 1257.2109 4665.8789 262912
3805.4939 1243.4877 4614.9478 262912
3807.2549 1235.1871 4584.1426 262912
3825.4353 1232.2936 4573.4033 328704
3823.9009 1223.1348 4539.4121 262912
3776.3203 1199.478 4451.6152 262912
3838.1431 1210.6584 4493.1089 197120
3860.0374 1209.177 4487.6108 262912
3845.3933 1196.3483 4440 328705
3891.4617 1202.4539 4462.6597 262912
3866.2542 1186.6018 4403.8276 197120
3896.459 1187.8547 4408.478 262912
3906.2629 1182.9133 4390.1387 262912
3949.8069 1188.1869 4409.7104 328704
3979.0422 1189.1151 4413.1558 262912
4417.7661 1311.6057 4867.7539 328704
4099.8955 1209.3363 4488.2021 262912
4035.1936 1182.5804 4388.9033 328704
3940.6714 1147.4839 4258.6494 263424
3626.6292 1049.3185 3894.3291 256
4063.9697 1168.423 4336.3608 197632
4114.1064 1175.4061 4362.2773 197632
4187.7363 1188.972 4412.6245 197632
4180.5039 1179.5541 4377.6714 262914
0 0 0 0
0 0 0 0
0 0 0 0
0 0 0 0
-5156.6846 1557.8158 5657.1074 4342576
-5112.7974 1554.6636 5645.6602 4013612
-4715.1763 1443.2007 5240.8896 4013612
-4768.7832 1469.2852 5335.6138 4013355
-4700.9175 1458.0419 5294.7847 4078889
-4849.3311 1514.1794 5498.6445 4407854
-4962.7578 1560.0782 5665.3232 4539440
-4945.8242 1565.3435 5684.4434 4736560
-4999.8901 1593.306 5785.9878 4999732
-4968.7329 1594.3094 5789.6318 5065526
-4967.0542 1604.8513 5827.9136 5328698
-4955.439 1612.3077 5854.9912 5460282
-4970.8833 1628.7357 5914.6479 5263162
-4923.2275 1624.575 5899.5386 5591868
-4912.812 1632.7308 5929.1567 5591869
-4911.7803 1644.1458 5970.6089 4735790
-4832.8003 1629.4448 5917.2236 3682333
-4757.6133 1615.8174 5867.7358 2498575
-4758.3125 1627.9519 5911.8018 1840654
-4582.9644 1579.5891 5736.1753 2235148
-4549.605 1579.8076 5736.9692 2695954
-4525.0605 1583.1136 5748.9746 2761237
-4429.5571 1561.4559 5670.3262 2629651
-4376.6714 1554.6053 5645.4487 2630164
-4441.8149 1589.8961 5773.605 2761752
-4371.063 1576.7155 5725.7397 2499094
-4335.5112 1576.1248 5723.5947 2630680
-4296.5522 1574.2766 5716.8833 2630680
-4238.1592 1565.2214 5684.0005 2696472
-4176.3369 1554.7449 5645.9551 2696474
-4139.3931 1553.4353 5641.1997 2630681
-4120.9873 1559.1182 5661.8364 2762267
-4073.7107 1553.8817 5642.8208 2762267
-4047.5923 1556.6962 5653.041 2696474
-3993.9717 1548.892 5624.7007 2630681
-3936.9875 1539.6409 5591.106 2630681
-3918.9485 1545.5923 5612.7183 2630681
-3884.3618 1545.0637 5610.7988 2564888
-3849.7966 1544.5347 5608.8774 2499351
-3827.0725 1548.7881 5624.3237 2761497
-3760.8594 1535.3622 5575.5684 2498838
-3750.647 1544.7631 5609.707 2366996
-3711.1963 1542.1823 5600.335 2301716
-3706.6084 1554.1726 5643.877 2367252
-3685.0435 1559.1981 5662.127 2301718
-3661.1079 1563.3035 5677.0356 2499096
-3598.3457 1550.7524 5631.457 2564890
-3570.5615 1553.1818 5640.2788 2564890
-3518.6787 1545.075 5610.8394 2564634
-3490.4619 1547.3047 5618.9365 2761498
-3414.5256 1528.2196 5549.6304 2892827
-3393.1924 1533.4395 5568.5859 2827034
-3362.3525 1534.4236 5572.1597 2564376
-3379.2942 1557.4486 5655.7739 2630170
-3311.1099 1541.3092 5597.1646 2301717
-3246.8208 1526.6747 5544.02 2433047
-3197.5974 1518.8972 5515.7769 2432790
-3160.4719 1516.7653 5508.0347 2366741
-3101.9297 1504.2034 5462.417 2432278
-3107.8943 1522.9873 5530.6299 2498070
-3037.2554 1504.2329 5462.5244 2564120
-3003.95 1503.7635 5460.8198 2564120
-2991.5229 1513.8494 5497.4458 2498327
-2970.51 1519.7645 5518.9263 2498584
-2943.4487 1522.6824 5529.5225 2498584
-2924.2983 1529.8046 5555.3862 2432790
-2848.675 1507.2095 5473.3335 2235412
-2844.5129 1522.3389 5528.2749 2103569
-2824.4988 1529.2383 5553.3296 2103569
-2788.5947 1527.5957 5547.3647 2169362
-2758.6206 1529.2013 5553.1953 2038546
-2747.4875 1541.4158 5597.5513 2038546
-2701.79 1534.3003 5571.7124 2104339
-2684.2197 1543.1794 5603.9561 2104339
-2641.616 1537.7089 5584.0898 2169876
-2628.6162 1549.5505 5627.0923 2169878
-2572.7451 1536.0997 5578.2466 1972499
-2533.2566 1532.2075 5564.1123 2038292
-2502.1592 1533.3547 5568.2783 1972499
-2504.8083 1555.4894 5648.6592 2169878
-2462.0039 1549.6145 5627.3247 2104085
-2415.5991 1541.2812 5597.063 2367257
-2358.7886 1525.9839 5541.5117 2301464
-2334.4065 1531.5299 5561.6519 2367001
-2306.8904 1535.1495 5574.7959 2367257
-2256.667 1523.5436 5532.6499 2301977
-2240.2424 1534.7506 5573.3477 2301720
-2192.2427 1524.3376 5535.5337 2235927
-2159.5046 1524.3817 5535.6934 2170391
-2132.8467 1528.785 5551.6836 2236183
-2088.2412 1520.2604 5520.7271 2236184
-2054.7834 1519.7092 5518.7256 2236184
-2041.5192 1534.3168 5571.772 2170391
-1992.551 1522.13 5527.5166 2104598
-1954.5551 1518.0577 5512.728 2170134
-1919.2985 1516.0107 5505.2949 2170391
-1896.9503 1524.2654 5535.271 2170391
-1869.2572 1528.4401 5550.4312 2236183
-1820.645 1515.353 5502.9062 2170390
-1793.8153 1520.2493 5520.6865 1973012
-1761.4447 1520.5442 5521.7578 2104598
-1716.437 1509.735 5482.5049 2038807
-1689.6058 1514.8049 5500.916 2038805
-1648.2845 1506.8276 5471.9468 2038805
-1629.9592 1519.9745 5519.689 1907220
-1595.2605 1518.0785 5512.8037 2038805
-1561.0824 1516.6091 5507.4678 2038805
-1511.1628 1499.4573 5445.1821 1973013
-1488.5275 1509.2207 5480.6372 1841427
-1461.5531 1514.9222 5501.3418 1775635
-1422.078 1507.631 5474.8643 1973014
-1376.998 1493.9186 5425.0688 1973015
-1348.0239 1497.4418 5437.8628 1906966
-1334.2747 1518.4641 5514.2041 1906965
-1320.4456 1540.4486 5594.0391 1775636
-1263.6086 1512.0999 5491.0928 1906966
-1228.4902 1508.9291 5479.5781 2038808
-1195.6431 1508.4517 5477.8447 1907221
-1160.0165 1504.3431 5462.9243 1907221
-1125.7063 1501.7549 5453.5254 1973014
-1082.7012 1487.0712 5400.2026 1841428
-1054.054 1491.8141 5417.4263 2038551
-1023.2024 1493.6373 5424.0469 1972759
-984.98218 1484.4731 5390.7681 1841429
-962.53131 1499.2574 5444.4561 1841173
-929.1698 1497.4833 5438.0132 2038551
-913.69666 1525.4465 5539.5605 2105115
-885.98151 1534.2939 5571.689 2039322
-837.8689 1507.1359 5473.0664 1776150
-800.79626 1498.4489 5441.52 1907736
-763.12421 1487.8643 5403.0825 2105115
-730.6236 1486.8767 5399.4966 2039322
-719.89575 1532.1375 5563.8579 2039322
-682.24683 1521.6971 5525.9448 1973529
-660.58252 1547.6541 5620.2056 2105115
-625.8172 1544.0437 5607.0947 2105115
-597.68469 1557.3107 5655.2729 2105115
-562.18134 1551.8079 5635.2896 2170394
-523.62225 1536.6423 5580.2173 2105115
-490.21362 1535.5659 5576.3081 2039322
-461.25406 1549.2777 5626.1016 2236701
-419.78702 1519.8427 5519.21 2236700
-397.26569 1559.822 5664.3921 2105114
-360.44238 1545.8429 5613.6279 2170907
-332.4884 1570.9265 5704.7183 2170906
-298.0697 1567.687 5692.9541 2236443
-268.36212 1591.5604 5779.6489 2236700
-229.03764 1557.0411 5654.2939 2302493
-196.61455 1565.6481 5685.5498 2368286
-161.1662 1548.7432 5624.1602 2368286
-127.73585 1547.4718 5619.5435 2434079
-93.19577 1527.1196 5545.6362 2434079
-60.169014 1522.9021 5530.3203 2170907
-27.745829 1542.1434 5600.1938 2236700
5.418529 1536.7437 5580.585 2434080
38.642979 1543.0223 5603.3857 2368287
71.134094 1527.748 5547.918 2171165
104.75591 1538.7379 5587.8271 2039579
137.43607 1533.939 5570.3999 1973529
171.05685 1539.4641 5590.4644 2039322
204.0731 1538.6385 5587.4663 2039322
240.44052 1559.7831 5664.2515 2105115
269.49194 1534.1008 5570.9878 2236701
299.89044 1520.8553 5522.8877 2170908
334.37991 1528.9215 5552.1797 2236700
368.45932 1533.8359 5570.0259 2170908
399.68344 1527.0332 5545.3223 2170908
431.35229 1522.8342 5530.0737 2302494
469.40884 1540.1869 5593.0889 2368287
498.52988 1527.8658 5548.3457 2434080
530.96655 1526.6023 5543.7573 2434080
567.7995 1537.3893 5582.9292 2763045
603.10529 1543.0812 5603.5996 2236701
626.62421 1519.5955 5518.3125 2170908
662.3396 1526.5494 5543.5654 2302493
694.70044 1525.4801 5539.6821 2170908
734.77094 1540.6729 5594.8535 2105115
768.06244 1540.9531 5595.8716 2368287
799.54297 1537.7273 5584.1567 2302493
829.94238 1532.7614 5566.1235 2105115
873.14545 1550.9172 5632.0552 2170908
902.85852 1544.657 5609.3218 2039835
926.32812 1528.5391 5550.7905 2105628
958.15857 1526.8494 5544.6548 2039835
1006.0728 1550.0522 5628.9141 2171421
1036.3677 1545.491 5612.3501 2040091
1073.8589 1551.6111 5634.5752 2171421
1097.3221 1537.7047 5584.0747 2171421
1137.0455 1546.731 5616.8535 2171167
1174.3826 1552.0901 5636.3145 2237214
1201.2433 1543.6899 5605.8101 2171421
1233.8103 1542.8776 5602.8599 2171421
1268.8822 1545.158 5611.1411 2236701
1306.6766 1550.5526 5630.7314 2236701
1339.3657 1549.7712 5627.894 2236701
1373.2742 1550.4045 5630.1938 2236700
1402.9926 1546.3895 5615.6133 2236701
1436.0503 1546.1558 5614.7646 2170908
1476.9829 1554.2194 5644.0469 2105115
1513.1984 1557.072 5654.4062 2105115
1543.5186 1553.8662 5642.7642 2039322
1577.4347 1554.3395 5644.4834 2039322
1607.9955 1551.5559 5634.3745 2105115
1641.9139 1552.0592 5636.2026 2105115
1685.1293 1561.1554 5669.2349 2105115
1714.3433 1557.1785 5654.7925 2039322
1732.2506 1543.2805 5604.3232 2039322
1788.8219 1563.7036 5678.4888 2236701
1828.9691 1569.2808 5698.7412 2236701
1853.7036 1561.6709 5671.1064 2236700
1890.4379 1564.2614 5680.5142 1973529
1927.6493 1567.149 5691.0005 1841943
1989.016 1589.238 5771.2148 1841943
2013.5083 1581.615 5743.5327 1578771
2061.8403 1592.6605 5783.6436 1710357
2100.0869 1595.6818 5794.6147 1776150
2127.5784 1590.5652 5776.0347 1841943
2166.8989 1594.3141 5789.6484 1776150
2180.5168 1579.3298 5735.2339 1841943
2242.3137 1599.1655 5807.2661 1776150
2267.7222 1592.8429 5784.3057 1776150
2320.0942 1605.3654 5829.7803 1841943
2360.0613 1609.0627 5843.2075 1973529
2394.1748 1608.7202 5841.9634 2039322
2448.8928 1622.035 5890.3149 2039322
2470.4685 1613.332 5858.7104 2235930
2509.4646 1616.0889 5868.7217 2170908
2530.6433 1607.4528 5837.3604 2039322
2571.0105 1611.0737 5850.5098 1973529
2575.9507 1592.6941 5783.7651 2039322
2542.9604 1551.6528 5634.7266 2039322
2614.8171 1574.8212 5718.8613 2039322
2648.6768 1574.8053 5718.8032 2105115
2673.0439 1569.217 5698.5103 2170908
2695.6943 1562.7732 5675.1094 2105115
2717.5386 1556.0262 5650.6084 1907736
2751.2041 1556.1301 5650.9854 1644564
2798.6858 1563.952 5679.3901 1644564
2829.4548 1562.3597 5673.6079 1512978
2862.3625 1561.9718 5672.1992 1381392
2925.7263 1578.0198 5730.4766 1249806
2972.9678 1585.1034 5756.2007 1184013
3044.2683 1604.7087 5827.396 920841
3069.7419 1599.9888 5810.2554 1052169
3088.106 1591.7087 5780.187 986119
3034.8645 1547.1075 5618.2207 920327
3232.1313 1629.7922 5918.4849 1183239
3369.363 1680.7543 6103.5498 2170390
3420.4485 1688.1177 6130.2896 3487274
3410.0806 1665.3152 6047.4844 3553066
3391.0208 1638.7869 5951.1479 3289895
3274.1594 1566.026 5686.9219 3026467
3281.1277 1553.3718 5640.9688 1974040
3279.4106 1536.9023 5581.1611 658183
3302.5071 1532.2745 5564.3555 0
3287.9453 1510.4386 5485.0601 0
3319.2058 1509.8744 5483.0107 65536
3283.054 1478.9529 5370.7217 65536
3264.5073 1456.4799 5289.1123 131328
3272.1523 1446.0087 5251.0864 131328
3265.7451 1429.5834 5191.4395 65792
3274.3704 1419.9836 5156.5786 66048
3293.6467 1415.1378 5138.9814 66048
3308.2634 1408.3971 5114.5024 66048
3303.5037 1393.6045 5060.7842 131840
3327.7886 1391.2206 5052.1274 66048
3368.2148 1395.5671 5067.9116 197120
3405.2805 1398.4568 5078.4053 197120
3378.3367 1375.239 4994.0913 262912
3404.4905 1373.8517 4989.0532 262912
3449.3645 1379.9773 5011.2983 262912
3467.3054 1375.3156 4994.3691 262912
3480.1113 1368.7129 4970.3921 197376
3522.9734 1373.943 4989.3848 65536
3546.1333 1371.4661 4980.3901 65536
3546.5969 1360.325 4939.9316 0
3565.3533 1356.3248 4925.4058 0
3596.4709 1357.0542 4928.0542 256
3608.5833 1350.6581 4904.8271 131840
3610.0662 1340.4176 4867.6396 197632
3615.3374 1331.7349 4836.1089 263425
3640.3352 1330.3979 4831.2539 328704
3674.0378 1332.2384 4837.9375 197120
3666.6047 1319.2496 4790.7695 262912
3677.4038 1312.97 4767.9653 262912
3703.79 1312.3088 4765.5645 262912
3725.9824 1310.1831 4757.8452 197120
3742.3052 1306.0408 4742.8022 131328
3750.5754 1299.171 4717.855 197120
3791.7222 1303.7065 4734.3257 197120
3811.9634 1301.0403 4724.6436 197120
3830.3884 1297.7979 4712.8687 262912
3818.7559 1284.4918 4664.5488 262912
3796.4414 1267.8099 4603.9697 262912
3806.0005 1261.9342 4582.6323 262912
3828.022 1260.2445 4576.4961 262912
3830.011 1252.0299 4546.6655 262912
3820.8167 1240.2999 4504.0688 328704
3833.0061 1235.6259 4487.0952 262912
3900.748 1248.8011 4534.9404 328704
3844.6008 1222.4052 4439.085 262912
3899.5334 1231.446 4471.9165 328704
3903.8779 1224.4973 4446.6826 262912
3889.5896 1211.8365 4400.7061 262912
3915.8535 1211.8948 4400.9175 262912
3935.6963 1209.9781 4393.957 328704
3862.9585 1179.8109 4284.4072 262912
3961.4084 1201.98 4364.9121 262912
3984.9529 1201.2808 4362.373 262912
3979.8408 1192.0076 4328.6982 394240
3652.8704 1087.0703 3947.6252 329217
3929.7466 1162.0258 4219.8213 256
4005.9292 1177.0636 4274.4302 197632
4024.7712 1175.1699 4267.5532 263424
3926.8118 1139.4084 4137.688 263681
4031.0461 1162.3959 4221.165 263171
0 0 0 0
0 0 0 0
0 0 0 0
0 0 0 0
-5127.6865 1582.3877 5625.2954 4277041
-5093.1802 1582.0232 5623.999 4210990
-5012.5845 1567.2432 5571.457 4474417
-4974.5015 1565.6473 5565.7842 5065784
-4963.7275 1572.6829 5590.7949 5263162
-4913.3843 1567.1919 5571.2749 4999989
-4935.3672 1584.8518 5634.0547 5197369
-4939.9341 1597.1216 5677.6733 5262905
-4999.6396 1627.5088 5785.6978 4999476
-5024.0166 1646.736 5854.0488 4011555
-5003.5674 1651.4353 5870.7549 1512457
-4961.7417 1649.0957 5862.438 1512456
-4782.417 1600.7015 5690.3994 2235403
-4625.5483 1559.1896 5542.8271 2563853
-4589.8555 1558.2225 5539.3887 2827283
-4582.9688 1567.0908 5570.9155 3090456
-4510.7305 1553.58 5522.8848 2695698
-4480.3066 1554.3784 5525.7236 2761494
-4376.9092 1529.6851 5437.9404 2892823
-4376.1899 1540.7766 5477.3701 2893336
-4371.1475 1550.5002 5511.937 2893080
-4317.1211 1542.8646 5484.793 2959129
-4312.7744 1553.0022 5520.8311 2959129
-4286.5894 1555.3708 5529.252 2893337
-4248.1597 1553.2991 5521.8862 2762266
-4225.1392 1556.8728 5534.5908 2828059
-4187.6411 1555.1261 5528.3813 2696473
-4132.9795 1546.9279 5499.2373 2696473
-4117.6631 1553.4427 5522.397 2630679
-4036.0391 1534.8462 5456.2876 2630681
-3994.8608 1531.4545 5444.2305 2630681
-3978.4014 1537.5607 5465.9375 2630681
-3924.3745 1529.1292 5435.9639 2696473
-3867.157 1519.3044 5401.0376 2630681
-3860.1196 1529.1947 5436.1968 2499095
-3809.9746 1522.0306 5410.729 2433302
-3791.4475 1527.483 5430.1118 2499095
-3743.3232 1521.0026 5407.0742 2301717
-3709.1873 1520.1433 5404.0195 2301717
-3656.1523 1511.4561 5373.1372 2433046
-3641.9021 1518.7906 5399.2114 2433304
-3619.178 1522.6902 5413.0737 2499098
-3583.0593 1520.9735 5406.9712 2499353
-3563.1777 1526.1805 5425.4819 2630681
-3532.9873 1527.0269 5428.4902 2696474
-3505.468 1529.0536 5435.6953 2696474
-3484.4131 1533.964 5453.1514 2762266
-3435.6704 1526.6628 5427.1963 2762266
-3400.2175 1525.1851 5421.9429 2893852
-3369.6204 1525.8778 5424.4058 2959389
-3342.0166 1527.9525 5431.7812 2762267
-3282.0381 1515.1223 5386.1704 2630424
-3249.3081 1514.7423 5384.8198 2498583
-3244.0845 1527.3049 5429.479 2563863
-3154.3967 1499.9556 5332.2534 2432534
-3151.5586 1513.7684 5381.3574 2432277
-3085.7771 1497.3215 5322.8896 2498327
-3045.1931 1492.8879 5307.1284 2498327
-3068.9531 1520.2351 5404.3462 2498327
-3033.8389 1518.6877 5398.8452 2498327
-2954.657 1494.8126 5313.9707 2301462
-2944.5439 1505.7429 5352.8271 2301461
-2862.6807 1479.8208 5260.6758 2235412
-2939.8457 1536.4403 5461.9546 2104339
-2854.3821 1508.3804 5362.2031 2038546
-2800.8022 1496.7271 5320.7764 1972753
-2762.8481 1493.2537 5308.4287 1841167
-2736.9353 1496.2834 5319.1992 1841167
-2715.2888 1501.7432 5338.6084 1841167
-2691.6643 1506.2249 5354.5405 2038546
-2663.2168 1508.0824 5361.144 2104339
-2630.1316 1507.327 5358.4585 2104339
-2598.0339 1507.1259 5357.7437 2170131
-2582.0244 1516.3682 5390.5991 2170132
-2539.5679 1510.1154 5368.3711 2104339
-2512.4373 1512.9331 5378.3877 2104083
-2473.3135 1508.5084 5362.6582 2038292
-2440.2297 1507.7003 5359.7856 2038292
-2413.5974 1510.9095 5371.1943 1972499
-2387.9304 1514.817 5385.085 1709327
-2355.1052 1514.2275 5382.9897 2038292
-2300.2905 1499.2899 5329.8872 2038548
-2277.6345 1505.1886 5350.8564 2038805
-2247.8149 1506.4528 5355.3506 2038807
-2210.9114 1502.9375 5342.8545 2038807
-2175.9485 1500.6588 5334.7534 2038806
-2138.3303 1496.4545 5319.8076 2170392
-2141.3557 1520.9933 5407.0415 2170392
-2072.2075 1494.2344 5311.915 2235928
-2055.8203 1505.282 5351.1885 2170393
-2014.4532 1498.0986 5325.6523 2170394
-1987.6099 1501.6595 5338.311 2170393
-1936.9086 1487.0193 5286.2656 2235929
-1910.9904 1491.2371 5301.2598 2170393
-1882.3364 1493.4253 5309.0391 2236186
-1854.5016 1496.3489 5319.4321 2301979
-1817.0233 1491.458 5302.0454 2301979
-1785.446 1491.3241 5301.5688 2236186
-1760.1128 1496.4939 5319.9473 2170393
-1732.783 1500.1239 5332.8521 2170393
-1693.3303 1493.1987 5308.2334 2170393
-1661.47 1492.8333 5306.9341 2104600
-1634.4113 1496.851 5321.2168 2038807
-1604.5734 1498.4315 5326.8354 2104600
-1569.4796 1495.0686 5314.8809 1973014
-1531.7469 1489.0028 5293.3174 1841428
-1495.8494 1484.5048 5277.3267 1907221
-1461.595 1481.4801 5266.5742 1841428
-1428.3909 1479.4111 5259.2192 1907221
-1395.379 1477.4536 5252.2603 1907221
-1374.3486 1488.3822 5291.1108 1906966
-1361.3723 1508.7471 5363.5068 1906966
-1334.9226 1514.7966 5385.0127 1841173
-1301.1418 1512.62 5377.2749 1906966
-1264.2401 1506.6145 5355.9258 1972759
-1228.1342 1501.2729 5336.9365 1972759
-1201.3763 1507.3778 5358.6392 1906965
-1163.6854 1499.7241 5331.4307 1841428
-1129.2262 1495.9242 5317.9224 1841428
-1109.735 1512.3041 5376.1519 1907221
-1061.5682 1489.4192 5294.7974 1907221
-1041.8124 1506.2163 5354.5098 2038807
-1017.7512 1517.6482 5395.1499 1972759
-977.46869 1504.8483 5349.647 2038552
-941.82562 1498.5725 5327.3369 2301724
-901.66486 1484.4236 5277.0386 2301467
-876.90186 1495.5188 5316.481 2368287
-835.3692 1477.775 5253.4028 2499872
-800.1579 1470.2728 5226.7334 2631459
-776.12708 1483.5378 5273.8892 2302494
-743.88885 1481.5695 5266.8921 2039322
-722.64728 1502.2893 5340.5498 2039322
-681.02753 1480.6033 5263.457 2039322
-663.112 1510.8436 5370.96 2105115
-633.98822 1517.3085 5393.9424 2105115
-605.19702 1525.2983 5422.3457 2170908
-570.92316 1519.5911 5402.0566 2236701
-539.41125 1520.9935 5407.0425 2105372
-502.71713 1507.0383 5357.4321 2105114
-473.34537 1514.6321 5384.4277 1973528
-437.62729 1501.5485 5337.9165 2039321
-414.5687 1533.2466 5450.6011 1973528
-383.26437 1537.2281 5464.7554 1973528
-351.98657 1542.0607 5481.9346 1973528
-318.88208 1539.0594 5471.2656 1973528
-287.19073 1542.9714 5485.1724 2105114
-252.75055 1531.2283 5443.4263 2302493
-222.86678 1547.6917 5501.9526 2236699
-189.29338 1539.7841 5473.8418 2236700
-157.33278 1544.4382 5490.3867 2302493
-124.63747 1542.4264 5483.2349 2302493
-89.522736 1498.4978 5327.0713 2302493
-58.244835 1505.9218 5353.4629 2170907
-26.750324 1518.8051 5399.2622 2170908
5.1943007 1504.8491 5349.6499 2302494
36.802845 1501.1667 5336.5591 2434079
68.163704 1495.454 5316.2505 2105113
101.40762 1521.6071 5409.2236 2170908
132.89438 1515.1649 5386.3218 2105115
166.67114 1532.2704 5447.1309 2039322
196.55037 1513.8074 5381.4956 2105115
229.91826 1523.6174 5416.3701 2039322
262.3522 1525.5933 5423.394 2039322
290.61011 1505.5039 5351.9775 2039322
319.62161 1492.8876 5307.127 2105115
352.56689 1499.2594 5329.7788 2105115
385.08847 1502.9301 5342.8276 2170908
413.02789 1489.5182 5295.1494 2170908
448.68033 1503.8521 5346.1055 2236701
479.95697 1502.5961 5341.6401 2236701
513.60406 1508.4575 5362.4775 2236701
536.87219 1484.929 5278.835 2105115
556.17993 1453.64 5167.6045 2170908
602.20154 1491.7931 5303.2363 2236701
642.24365 1512.084 5375.3691 2236701
688.12067 1543.5455 5487.2134 2236701
710.72278 1522.3152 5411.7407 2170908
742.06226 1520.8247 5406.4419 2236701
775.59705 1523.7706 5416.9146 2236701
797.82294 1505.1473 5350.71 2236701
838.28729 1521.0406 5407.21 2105115
868.96753 1518.6644 5398.7622 1974042
909.92004 1533.772 5452.4688 2105628
933.30304 1519.2437 5400.8218 2039835
965.5144 1519.5731 5401.9927 1974042
1005.8682 1532.285 5447.1831 2040091
1040.7664 1536.1542 5460.9375 2171420
1068.6361 1529.7291 5438.0967 2039835
1108.234 1539.9772 5474.5278 2236704
1132.2874 1528.6564 5434.2832 2237213
1176.1409 1543.954 5488.665 2237214
1205.3671 1539.743 5473.6958 2237214
1236.7155 1538.3929 5468.896 2236701
1267.0961 1535.9385 5460.1709 2170907
1287.4235 1521.7235 5409.6372 2170908
1318.0188 1520.0409 5403.6558 2236700
1350.8436 1520.9484 5406.8818 2170908
1367.9945 1504.575 5348.6753 2170908
1412.2462 1518.0748 5396.6665 2105115
1456.5131 1530.9926 5442.5884 2170908
1497.4893 1539.9668 5474.4912 2170908
1514.2482 1524.1843 5418.3853 2039322
1560.5127 1538.1396 5467.9956 2039322
1594.368 1539.5449 5472.9912 2039322
1631.2606 1543.7686 5488.0063 2039322
1650.3118 1531.2723 5443.583 2105115
1690.0837 1538.1133 5467.9019 2105115
1729.2616 1544.1659 5489.4189 2039322
1749.4193 1533.3245 5450.8779 2105115
1815.1738 1562.1162 5553.231 2039322
1855.5847 1568.4604 5575.7847 2104858
1864.5505 1548.4685 5504.7144 2105115
1920.209 1567.2744 5571.5684 2039322
1938.6318 1555.5667 5529.9478 1710357
1991.5762 1571.4878 5586.5464 1710357
2021.038 1568.6621 5576.501 1776150
2067.4822 1578.8962 5612.8828 1644564
2084.2612 1566.5105 5568.8521 1578771
2123.9192 1571.4381 5586.3701 1578771
2153.5603 1568.9172 5577.4082 1710357
2201.8306 1579.8389 5616.2344 1776150
2234.7886 1579.6124 5615.4292 1907736
2276.7878 1585.6895 5637.0327 1776150
2287.3906 1570.0406 5581.4023 1776150
2316.7947 1567.5588 5572.5796 1907736
2361.1865 1575.1453 5599.5483 2104345
2403.7212 1581.2996 5621.4263 2039322
2408.5869 1562.8435 5555.8164 2105115
2491.5342 1594.8663 5669.6558 2039322
2512.1167 1586.6479 5640.4395 2105115
2571.1807 1602.6306 5697.2573 2236444
2593.3201 1595.4822 5671.8452 2039322
2624.4062 1593.9506 5666.4004 1841943
2663.3416 1597.1646 5677.8262 1841943
2714.8472 1607.7427 5715.4307 1841943
2727.3367 1595.2393 5670.9814 1776150
2730.5596 1577.6862 5608.5811 1710357
2756.2581 1573.385 5593.291 1710357
2790.9839 1574.2783 5596.4663 1578771
2806.511 1564.4484 5561.5215 1512978
2855.5579 1573.3147 5593.041 1381392
2930.6726 1596.1757 5674.3101 1184013
2962.9805 1595.4675 5671.793 1184013
2974.6692 1583.7975 5630.3062 986120
3059.6599 1610.9812 5726.9429 920583
3122.356 1625.9587 5780.187 986119
3231.1843 1664.3738 5916.751 788740
3238.4878 1650.2305 5866.4717 657154
3288.8059 1658.0736 5894.354 262912
3366.6143 1679.4655 5970.4009 460290
3362.5117 1659.9755 5901.1152 1118472
3384.3691 1653.5707 5878.3462 2960931
3411.6562 1649.922 5865.3755 3684400
3381.1841 1618.6954 5754.3672 3289898
3421.2302 1621.5153 5764.3911 3158312
3499.8435 1642.3778 5838.5562 2960934
3422.2676 1590.2539 5653.2588 2303005
3376.6963 1553.8683 5523.9102 1381649
3397.5261 1548.4441 5504.6274 592391
3423.9163 1545.6332 5494.6348 131328
3449.0586 1542.317 5482.8462 0
3462.384 1533.828 5452.668 65536
3347.6111 1469.2734 5223.1802 65536
3348.4426 1456.1757 5176.6187 65536
3355.3335 1445.9269 5140.1846 65536
3369.2656 1438.8695 5115.0962 197120
3392.9246 1436.0551 5105.0908 197120
3399.0144 1425.9196 5069.0601 131328
3421.6665 1422.8491 5058.1445 262912
3436.1775 1416.4757 5035.4878 197376
3457.5767 1413.0273 5023.229 262912
3478.9573 1409.6302 5011.1523 197120
3491.8511 1402.881 4987.1592 328704
3523.1357 1403.5718 4989.6147 65536
3544.9468 1400.5081 4978.7236 65536
3553.4441 1392.2787 4949.4688 65792
3580.5046 1391.3977 4946.3369 0
3606.5771 1390.1501 4941.9019 256
3617.6892 1383.2026 4917.2041 131840
3620.1355 1373.0795 4881.2168 263424
3622.4067 1363.0509 4845.5654 263424
3630.1921 1355.2384 4817.7925 197376
3669.6311 1359.2728 4832.1348 262912
3686.2607 1354.8613 4816.4521 328704
3700.7966 1349.7539 4798.2954 262912
3716.1768 1345.03 4781.5024 328704
3727.7119 1338.9965 4760.0537 262912
3718.8943 1325.7976 4713.1323 262912
3747.3728 1325.9928 4713.8262 262912
3785.001 1329.3986 4725.9336 197120
3794.0735 1322.7985 4702.4707 328704
3804.9871 1316.9318 4681.6147 262912
3818.541 1312.0573 4664.2861 262912
3812.3193 1300.5067 4623.2246 262912
3829.447 1297.0294 4610.8628 262912
3818.8164 1284.2662 4565.4907 262912
3808.3167 1271.7263 4520.9121 262912
3784.6089 1254.9817 4461.3857 262912
3806.5498 1253.5017 4456.1245 328704
3797.7139 1241.9769 4415.1548 262912
3804.7114 1235.7524 4393.0273 197120
3814.8828 1230.6366 4374.8403 328704
3809.9602 1220.7534 4339.7065 262912
3842.3289 1222.8711 4347.2349 262912
3905.9702 1234.8475 4389.8101 262912
3904.7334 1226.29 4359.3887 262912
3919.3164 1222.7808 4346.9136 197120
3649.8396 1131.2726 4021.6074 262912
4077.9968 1255.7816 4464.2295 328704
4023.0806 1230.8864 4375.7285 328705
3647.5525 1108.845 3941.8782 329216
3634.0884 1097.7225 3902.3391 256
4096.145 1229.4697 4370.6924 65792
4060.6135 1211.1475 4305.5576 197632
3654.9158 1083.3347 3851.1909 197632
4094.4548 1206.0858 4287.564 328964
0 0 0 0
0 0 0 0
0 0 0 0
0 0 0 0
-5285.5103 1665.4498 5798.4351 5921605
-5214.0938 1653.6964 5757.5142 6118726
-5194.2339 1658.2473 5773.3589 6052678
-5160.5884 1658.4286 5773.9897 5460541
-5086.1196 1645.4055 5728.6489 4604718
-4973.6592 1619.8345 5639.6201 2762517
-5042.8662 1653.4833 5756.7725 2367759
-5024.2397 1658.5952 5774.5698 2630417
-4951.8594 1645.9103 5730.4058 2761747
-4959.6875 1659.894 5779.0918 2761749
-4851.4673 1634.9636 5692.2939 2630165
-4751.0752 1612.3407 5613.5298 2564372
-4592.2632 1569.4333 5464.1436 2827544
-4459.7666 1534.974 5344.1699 2893336
-4399.8408 1525.1781 5310.0645 3090715
-4381.353 1529.7086 5325.8379 3090971
-4304.1006 1513.6389 5269.8896 3090971
-4271.7017 1513.2235 5268.4434 3024922
-4223.5176 1507.1689 5247.3638 3155481
-4178.6631 1502.2218 5230.1396 3090715
-4178.6274 1513.4332 5269.1733 3024922
-4144.084 1512.2212 5264.9536 2959129
-4114.7261 1512.8971 5267.3071 2827544
-4089.2292 1515.0143 5274.6782 2695703
-4068.4697 1518.9325 5288.3198 2564887
-4090.5481 1539.0289 5358.2876 2564888
-4037.0149 1530.769 5329.5303 2499352
-3940.0581 1505.7837 5242.541 2433559
-3913.2144 1507.4094 5248.2012 2433302
-3898.397 1513.7311 5270.2104 2367511
-3851.5339 1507.6111 5248.9033 2367511
-3824.4546 1509.1984 5254.4297 2433304
-3795.9404 1510.2408 5258.0591 2433303
-3763.0388 1509.5408 5255.6216 2499097
-3715.7224 1502.998 5232.8423 2499096
-3703.8582 1510.8063 5260.0278 2367511
-3670.4414 1509.8813 5256.8071 2433304
-3644.0435 1511.8522 5263.6689 2433303
-3619.2876 1514.5443 5273.042 2499097
-3556.0486 1501.0394 5226.0234 2499097
-3530.4182 1503.3116 5233.9341 2564889
-3520.478 1512.3643 5265.4521 2564888
-3488.3418 1511.9584 5264.0386 2630682
-3413.3979 1492.8237 5197.4194 2630682
-3404.2803 1502.3911 5230.7295 2630682
-3381.2673 1505.946 5243.106 2630682
-3361.1526 1510.8691 5260.2466 2696475
-3314.8181 1503.9884 5236.2905 2564890
-3257.2051 1491.812 5193.897 2695963
-3253.6687 1504.4067 5237.7471 2695705
-3225.7971 1505.8839 5242.8901 2564121
-3191.4788 1504.351 5237.5527 2498327
-3138.8975 1494.095 5201.8452 2432534
-3096.8708 1488.7092 5183.0942 2366484
-3077.7881 1494.3555 5202.7524 2366741
-3022.0896 1482.1581 5160.2861 2498327
-3016.9041 1494.7384 5204.0854 2432791
-2866.2859 1434.7791 4995.3311 2432791
-2913.1067 1473.4319 5129.9048 2301205
-2885.6091 1474.9137 5135.064 2169875
-2867.345 1481.1969 5156.9395 2038546
-2815.2271 1469.9391 5117.7441 1972753
-2785.9321 1470.4827 5119.6367 1906960
-2751.3633 1468.2239 5111.7725 1906960
-2744.7686 1481.0089 5156.2847 1973010
-2701.4453 1474.0409 5132.0249 2104083
-2681.1672 1479.6317 5151.4902 2104086
-2629.3767 1467.7609 5110.1606 1906706
-2604.2043 1470.645 5120.2021 1906706
-2598.2019 1484.5505 5168.6157 1972499
-2580.9526 1492.285 5195.5439 1775377
-2552.9333 1493.9037 5201.1797 1906705
-2516.5876 1490.6302 5189.7827 1906707
-2490.6885 1493.5399 5199.9131 1840913
-2460.6165 1493.989 5201.4766 1775120
-2416.9211 1486.073 5173.916 1840913
-2381.9429 1483.3822 5164.5479 1840913
-2353.8975 1484.9951 5170.1631 1840913
-2327.4275 1487.6573 5179.4321 1709327
-2320.9729 1503.3555 5234.0869 1709327
-2279.3821 1496.412 5209.9121 1775634
-2225.6318 1481.1854 5156.8994 1775634
-2216.3228 1495.5227 5206.8164 1775635
-2170.8438 1485.5137 5171.9688 1841429
-2141.8896 1486.688 5176.0571 1907220
-2116.0593 1490.0964 5187.9238 1841426
-2082.5371 1488.1085 5181.0029 1709841
-2056.1936 1491.2678 5192.0024 2038806
-2016.2897 1484.5388 5168.5747 2038807
-1985.62 1484.5061 5168.4609 2104599
-1944.0093 1476.1643 5139.418 2104599
-1914.0959 1476.5808 5140.8682 2104600
-1875.4506 1470.1655 5118.5327 2104600
-1853.6069 1476.9268 5142.0728 2170393
-1822.6837 1476.5588 5140.7915 2104600
-1796.7206 1480.2646 5153.6938 2038807
-1763.5817 1478.0846 5146.1035 2170393
-1742.3149 1485.953 5173.4985 2236186
-1724.4937 1497.0945 5212.2886 2038807
-1677.7228 1483.0519 5163.3979 1973014
-1647.571 1483.451 5164.7876 2104600
-1614.7875 1481.451 5157.8242 1907221
-1584.835 1482.0211 5159.8091 1841428
-1546.8052 1474.9117 5135.0571 1907221
-1516.2009 1474.7396 5134.458 1973271
-1501.7937 1490.6372 5189.8066 1973271
-1455.0139 1474.3956 5133.2603 2038808
-1427.9612 1477.8771 5145.3813 1907479
-1391.6312 1471.6993 5123.873 1841942
-1370.5187 1481.6982 5158.6851 2038296
-1337.0291 1478.4668 5147.4341 1972759
-1320.8724 1494.6984 5203.9463 1841173
-1284.8633 1488.704 5183.0762 1841173
-1255.197 1489.9449 5187.397 1972759
-1235.9851 1503.9694 5236.2241 1907222
-1201.0499 1499.0911 5219.2397 1907222
-1169.6326 1498.4618 5217.0488 1972759
-1136.0153 1494.9032 5204.6592 1972759
-1098.673 1486.1074 5174.0361 1972759
-1080.7224 1503.7898 5235.5991 1972760
-1047.6257 1500.8191 5225.2563 2038552
-1018.5273 1503.5699 5234.8335 2038807
-984.91589 1499.6218 5221.0879 2038807
-951.91058 1496.3706 5209.7686 2038807
-925.26691 1503.2369 5233.6738 2104600
-886.3078 1489.8772 5187.1606 2235931
-861.88251 1500.8667 5225.4219 2170908
-820.7229 1482.4484 5161.2964 2236701
-780.01959 1463.4602 5095.1875 2170908
-753.40851 1470.4473 5119.5137 2105115
-715.97479 1456.0116 5069.2544 1973529
-699.30737 1484.3915 5168.062 1973529
-661.45477 1468.3424 5112.1851 1907736
-628.06738 1461.1407 5087.1118 2039322
-616.79858 1507.2638 5247.6943 2105115
-588.59161 1514.6951 5273.5669 2302493
-557.60168 1515.3965 5276.0088 2039322
-525.82666 1513.9208 5270.8711 2038552
-483.86218 1481.0695 5156.4956 1973528
-458.80939 1499.0443 5219.0771 2105114
-427.1402 1496.4376 5210.0015 2039321
-389.76404 1471.8734 5124.4785 1973528
-367.55148 1505.2589 5240.7139 1907735
-340.03745 1521.0913 5295.8359 1776149
-308.17139 1518.6958 5287.4956 1907735
-275.55859 1511.6616 5263.0054 2039064
-243.39368 1505.6024 5241.9097 1973528
-206.54953 1464.5913 5099.1255 2039322
-181.46928 1507.234 5247.5903 2105116
-148.53407 1488.7802 5183.3413 1973530
-116.08305 1466.8234 5106.8965 2236701
-87.236618 1490.9901 5191.0356 2236701
-56.560192 1493.1693 5198.6226 2170907
-25.749628 1492.7843 5197.2822 2236701
5.0785804 1502.3163 5230.4688 2302493
36.026619 1500.4591 5224.0029 2170908
66.189957 1482.7402 5162.3125 2170908
98.690269 1512.0267 5264.2769 2105115
130.21469 1515.8855 5277.7114 1907736
161.41737 1515.2296 5275.4277 2039322
192.39934 1513.0508 5267.8418 2039322
222.60458 1506.2247 5244.0762 1973529
252.83682 1501.231 5226.6899 1973529
280.97366 1486.2434 5174.5093 2039322
310.41479 1480.4254 5154.2534 2105115
339.39191 1473.635 5130.6118 1973529
372.4072 1484.0531 5166.8838 1973529
403.3613 1485.2987 5171.2202 2170907
436.11029 1492.5111 5196.3311 2105115
466.22748 1490.3594 5188.8394 2170908
499.49347 1497.9164 5215.1504 2039322
522.1142 1474.5292 5133.7251 2105115
557.46008 1487.6764 5179.4985 2170908
559.36041 1414.8539 4925.9595 2170908
613.19141 1474.0944 5132.2114 2105115
647.51276 1483.0518 5163.3975 2039322
676.19543 1478.8691 5148.835 2105115
715.5755 1497.4331 5213.4673 2105115
749.76086 1504.0399 5236.4697 2170908
778.51483 1499.6591 5221.2173 2170908
806.84204 1494.8224 5204.3779 2105115
839.89264 1498.7708 5218.1245 2039322
868.55603 1494.8877 5204.6055 1973529
899.39215 1494.8823 5204.5869 1907736
930.53839 1495.3756 5206.3042 1973786
967.06451 1504.2052 5237.0454 2039578
1004.8976 1514.4557 5272.7334 1908249
1038.4042 1517.7642 5284.252 2105371
1075.0013 1525.2639 5310.3633 2039581
1101.8846 1518.9465 5288.3687 2040091
1122.5865 1504.6934 5238.7446 2040091
1152.6969 1503.4785 5234.5151 2171420
1190.8988 1512.6049 5266.2896 2236701
1221.9865 1512.4597 5265.7842 2170908
1241.493 1498.3448 5216.6416 2236701
1270.0916 1495.6219 5207.1621 2170908
1306.7983 1502.3501 5230.5864 2170908
1332.9366 1496.8979 5211.604 2236701
1364.7401 1497.9106 5215.1299 2170908
1398.3741 1500.843 5225.3394 2105115
1429.0461 1500.5382 5224.2783 2039322
1458.5927 1499.0896 5219.2349 1973529
1504.734 1514.4028 5272.5493 2105115
1528.9766 1507.5016 5248.522 2105115
1556.6282 1504.1699 5236.9224 2105115
1583.908 1500.6161 5224.5493 2039322
1631.5162 1516.0886 5278.4185 2105115
1660.3168 1513.8311 5270.5586 2039322
1697.2894 1518.9702 5288.4512 1973529
1751.3833 1538.9678 5358.0747 1973529
1775.1803 1532.1047 5334.1807 1973529
1826.1492 1548.5228 5391.3418 1907736
1855.8262 1546.6321 5384.7588 1841943
1886.7874 1545.8572 5382.061 1710357
1901.9996 1532.4196 5335.2764 1644564
1916.4777 1518.8392 5287.9951 1644564
1983.9269 1547.0011 5386.0435 1710357
1977.6953 1517.7271 5284.123 1578771
1992.9092 1505.5665 5241.7852 1578771
2042.4442 1519.3099 5289.6338 1710357
2106.6665 1543.3978 5373.4985 1710357
2119.1731 1529.4447 5324.9189 1578771
2192.2092 1558.9451 5427.6274 1710357
2223.8757 1558.5984 5426.4209 1710357
2258.3198 1560.1807 5431.9297 1776150
2305.3149 1570.2677 5467.0488 1775636
2337.7468 1570.2928 5467.1362 1644564
2373.6514 1572.618 5475.2319 1710357
2414.145 1577.88 5493.5518 1841943
2442.9409 1575.458 5485.1191 1907736
2485.2173 1581.6791 5506.7783 2039322
2517.272 1581.3176 5505.5205 2039322
2533.3274 1571.0437 5469.7505 2039322
2551.9473 1562.5995 5440.3511 1973529
2625.5896 1587.637 5527.5215 1907736
2673.198 1596.509 5558.4106 1841943
2720.1814 1604.7968 5587.2646 1776150
2719.9395 1585.3588 5519.5898 1710357
2739.3967 1577.7284 5493.0234 1578771
2783.9204 1584.5444 5516.7544 1644564
2820.4851 1586.725 5524.3462 1644564
2824.637 1570.8298 5469.0059 1578771
2863.2302 1574.2316 5480.8491 1447185
2884.9751 1568.3975 5460.5376 1315856
2982.3679 1603.3624 5582.271 1249549
3011.2375 1601.1251 5574.4819 1052426
3059.8552 1609.323 5603.0234 854792
3127.415 1627.2003 5665.2651 920328
3137.7554 1615.2428 5623.6338 394499
3210.3997 1635.272 5693.3677 394497
3298.0615 1662.4546 5788.0068 460290
3368.1487 1680.3102 5850.1729 526081
3415.5823 1686.6154 5872.125 591876
3419.0723 1671.313 5818.8486 986891
3441.2959 1665.3822 5798.1997 2368798
3481.4707 1668.1699 5807.9058 3421743
3556.7537 1687.5608 5875.417 3421483
3557.6729 1671.6349 5819.9688 3158825
3561.7842 1657.4996 5770.7559 3158314
3538.6277 1631.0651 5678.7212 2763812
3539.7629 1616.2197 5627.0356 2499872
3490.207 1578.7225 5496.4849 1973785
3475.5232 1557.5463 5422.7578 1118218
3468.1274 1539.9944 5361.6489 526085
3483.1143 1532.6096 5335.938 131329
3478.8962 1516.9834 5281.5337 0
3486.4578 1506.7264 5245.8232 65536
3507.4641 1502.4098 5230.7944 65536
3506.3027 1488.7566 5183.2593 131072
3464.6365 1458.2917 5077.1929 262656
3464.8472 1445.8258 5033.7915 131584
3492.4507 1444.9059 5030.5884 131584
3505.8628 1438.1798 5007.1709 197632
3524.6006 1433.7332 4991.6895 256
3542.6968 1429.1014 4975.564 0
3547.915 1419.3942 4941.7671 256
3588.9995 1424.0775 4958.0723 0
3600.2654 1416.9489 4933.2534 256
3603.9485 1406.9749 4898.5278 66048
3603.2981 1395.4819 4858.5142 131840
3617.2307 1389.7739 4838.6411 197632
3634.5825 1385.4592 4823.6191 263168
3655.7236 1382.6451 4813.8213 262912
3653.9573 1371.2777 4774.2446 262912
3694.2571 1375.7505 4789.8169 197120
3727.0684 1377.3875 4795.5161 197120
3738.7991 1371.2681 4774.2109 197120
3742.855 1362.4469 4743.499 262912
3781.0117 1366.0778 4756.1406 262912
3786.0527 1357.7787 4727.2466 262912
3808.5549 1355.8177 4720.4189 197120
3798.1946 1342.2717 4673.2573 197120
3814.5459 1338.2935 4659.4062 197120
3835.5039 1335.9768 4651.3408 262912
3815.0217 1319.3618 4593.4941 262912
3804.4971 1306.4016 4548.3716 262912
3801.4846 1296.1851 4512.8018 197120
3799.1519 1286.3413 4478.5298 197120
3822.6677 1285.3254 4474.9927 262912
3808.9771 1271.8995 4428.249 262912
3836.1936 1272.2236 4429.3774 262912
4210.7168 1386.9406 4828.7764 262912
3836.5469 1255.166 4369.9897 262912
3860.6255 1254.5762 4367.936 262912
3863.2947 1247.0831 4341.8481 262912
3888.4133 1246.8879 4341.1685 262912
3920.6028 1248.9478 4348.3403 262912
3665.3894 1160.0234 4038.7412 262912
4527.5029 1423.5709 4956.3086 262912
3957.6587 1236.3765 4304.5718 328448
3833.5681 1189.9414 4142.9038 263681
3633.7668 1120.7463 3901.9939 256
4051.4763 1241.678 4323.0298 65792
3637.9629 1107.9413 3857.4116 197376
3652.2534 1105.3488 3848.3855 131840
3670.6292 1104.0172 3843.7495 263170
0 0 0 0
0 0 0 0
0 0 0 0
0 0 0 0
-5443.3374 1750.5646 5971.5776 2039317
-5318.4102 1721.5793 5872.7021 2696474
-5157.9097 1680.6213 5732.9849 3749412
-5070.8936 1663.2224 5673.6338 3617571
-4966.9902 1640.0156 5594.4697 2696471
-4934.3169 1640.1741 5595.0103 2301714
-4911.3037 1643.567 5606.5845 1840908
-4864.1113 1638.8597 5590.5273 1775115
-4758.9292 1614.4156 5507.1426 1972752
-4647.2036 1587.3986 5414.9814 2104594
-4556.7559 1567.3246 5346.5044 2564631
-4399.7896 1523.9302 5198.4756 2630681
-4354.1455 1518.7534 5180.8169 2630425
-4320.6846 1517.7832 5177.5068 2695959
-4256.1255 1505.7965 5136.6177 2761752
-4195.8257 1495.1548 5100.3164 2695959
-4185.3887 1502.256 5124.54 2695959
-4105.7998 1484.459 5063.8306 2695959
-4050.5642 1475.2698 5032.4839 2695446
-3961.8413 1453.6573 4958.7588 2630165
-4031.8589 1490.4011 5084.1006 2630166
-4030.364 1501.0643 5120.4751 2564373
-3972.5818 1490.7666 5085.3472 2498580
-3957.2112 1496.3486 5104.3887 2564118
-3930.7263 1497.7815 5109.2769 2433302
-3893.564 1495.1367 5100.2544 2433302
-3873.8279 1499.1943 5114.0962 2499095
-3831.1707 1494.3755 5097.6582 2367509
-3802.1284 1494.8329 5099.2183 2367510
-3755.1304 1488.1816 5076.5293 2301718
-3741.4919 1494.7504 5098.9365 2367511
-3728.269 1501.5934 5122.2798 2433304
-3664.9216 1488.1949 5076.5747 2499097
-3628.2146 1485.4821 5067.3203 2564890
-3537.4248 1460.3961 4981.7466 2630682
-3546.4307 1476.4346 5036.4575 2630682
-3517.4277 1476.7872 5037.6602 2630683
-3479.0703 1473.1849 5025.3721 2630682
-3446.0742 1471.8104 5020.6831 2762267
-3417.6323 1472.3737 5022.6045 2762267
-3390.5801 1473.5508 5026.6201 2696474
-3349.9443 1468.7931 5010.3906 2630681
-3368.6382 1490.1964 5083.4019 2630681
-3321.1213 1482.4314 5056.9141 2564889
-3303.5317 1488.0055 5075.9282 2564890
-3269.231 1486.0853 5069.3784 2499097
-3241.2964 1487.0504 5072.6704 2564889
-3233.6343 1497.4211 5108.0474 2564889
-3201.5833 1496.5874 5105.2031 2499097
-3173.4795 1497.6003 5108.6587 2235925
-3120.8821 1486.9628 5072.3716 2301718
-3097.6335 1490.2377 5083.543 2367511
-3042.0522 1477.8693 5041.3516 2301461
-2994.6616 1469.274 5012.0312 2433304
-2961.6353 1467.6249 5006.4053 2367511
-2922.426 1462.8474 4990.1084 2170132
-2876.7629 1454.7086 4962.3452 2170132
-2882.4844 1472.6542 5023.5615 1972753
-2839.8953 1466.0348 5000.9814 2038546
-2801.7605 1461.5996 4985.8516 2038546
-2760.8184 1455.5898 4965.3511 1906960
-2713.8118 1446.2185 4933.3833 1906960
-2732.6987 1472.141 5021.811 1841166
-2694.9099 1467.7661 5006.8872 1775121
-2652.7139 1460.8667 4983.3521 1643535
-2623.739 1461.1749 4984.4033 1709327
-2611.4688 1470.899 5017.5742 1906706
-2579.8167 1469.8047 5013.8413 1906706
-2547.313 1468.194 5008.3467 1840913
-2517.3669 1468.0366 5007.8101 1840913
-2491.4326 1470.2432 5015.3369 1840913
-2464.261 1471.7638 5020.5244 1906706
-2424.3799 1465.6383 4999.6289 1840913
-2401.0403 1469.4851 5012.751 1643534
-2374.1929 1471.2543 5018.7861 1643534
-2330.9216 1462.7617 4989.8159 1643534
-2309.1372 1467.7081 5006.6895 1643533
-2271.1912 1462.3772 4988.5044 1577740
-2250.9678 1468.4674 5009.2798 1511948
-2214.1587 1463.756 4993.2075 1577740
-2198.1558 1472.8577 5024.2559 1511948
-2153.5747 1462.7977 4989.939 1709841
-2128.6494 1465.9948 5000.8447 1841427
-2096.2034 1464.0294 4994.1406 1841428
-2064.9399 1462.8457 4990.1025 1841428
-2038.6672 1465.2142 4998.1821 2104343
-2009.5828 1465.6019 4999.5049 2039064
-1978.3383 1464.4026 4995.4136 1907221
-1947.5421 1463.5035 4992.3467 2104600
-1915.6305 1461.7257 4986.2817 2038807
-1883.6498 1459.8386 4979.8447 2038807
-1844.2794 1452.0731 4953.355 2038807
-1823.2684 1458.7455 4976.1157 2104600
-1794.7155 1459.5038 4978.7026 2104600
-1762.3621 1457.1451 4970.6567 2170136
-1734.0938 1458.1415 4974.0557 2038807
-1702.9674 1456.7275 4969.2319 2104600
-1686.526 1468.0461 5007.8428 1973014
-1647.5835 1459.8335 4979.8271 1973014
-1626.4176 1467.3594 5005.4995 2038807
-1580.1522 1452.0992 4953.4438 1972757
-1557.7875 1458.6409 4975.7593 1972757
-1522.8528 1453.4381 4958.0112 2104600
-1500.4154 1460.1929 4981.0532 2038807
-1468.1125 1457.425 4971.6118 2104857
-1440.3254 1459.1187 4977.3887 2104857
-1414.4117 1462.8203 4990.0161 1906966
-1379.9655 1457.6674 4972.438 1775380
-1353.0446 1460.4119 4981.8003 1841173
-1320.2511 1456.7988 4969.4756 1775380
-1302.8859 1470.4335 5015.9863 1841173
-1279.6747 1477.9528 5041.6362 1775380
-1250.0176 1478.209 5042.5103 1775380
-1209.0111 1464.7277 4996.5225 1775380
-1189.8711 1477.7262 5040.8633 1841173
-1154.3875 1470.574 5016.4653 1841173
-1129.1356 1476.4224 5036.4155 1906966
-1099.5609 1476.7822 5037.6436 1906966
-1072.4316 1480.5386 5050.457 1972759
-1040.9751 1478.3649 5043.042 2104088
-1016.858 1486.7941 5071.7959 2104088
-985.06128 1484.1659 5062.8306 1907479
-955.87598 1485.4309 5067.146 1973270
-927.14044 1487.4996 5074.2026 1907478
-894.18152 1482.7037 5057.8428 1973272
-867.68274 1488.6587 5078.1567 2104089
-837.07697 1487.7422 5075.0303 1841943
-809.30365 1491.9792 5089.4839 1776150
-775.81665 1485.6031 5067.7334 1710357
-738.75391 1471.5906 5019.9336 1776150
-702.40961 1457.8937 4973.21 1907736
-673.02765 1458.0806 4973.8477 1907736
-647.96198 1468.064 5007.9033 1973529
-619.64673 1471.2899 5018.9077 1907736
-592.83008 1478.5786 5043.771 2039322
-568.39642 1492.9001 5092.6255 2039322
-540.19202 1498.3687 5111.2793 1973529
-512.41901 1505.7542 5136.4731 2038553
-472.34293 1475.6367 5033.7358 1710357
-440.36432 1468.4617 5009.2598 789512
-409.3392 1463.6586 4992.8755 2039321
-383.55154 1478.2936 5042.7988 1907735
-354.23703 1480.6598 5050.8706 1973528
-323.44922 1476.7362 5037.4863 2039321
-295.46924 1486.1375 5069.5562 2039321
-265.85144 1488.4968 5077.6045 2170650
-236.52733 1493.3123 5094.0312 2105114
-203.38954 1471.9369 5021.1147 1841942
-173.69237 1472.4027 5022.7036 1710356
-143.67647 1469.8005 5013.8271 1907735
-114.37193 1475.016 5031.6182 1973528
-84.77668 1478.8381 5044.6562 1973528
-54.349014 1464.3945 4995.3862 1973528
-24.797638 1467.252 5005.1333 1907736
4.8666153 1469.3131 5012.1646 2039322
34.932617 1484.9099 5065.3687 2105115
64.197861 1467.7828 5006.9443 2105115
95.310883 1490.3762 5084.0156 2170908
125.07081 1486.0405 5069.2256 1841943
155.43341 1489.1581 5079.8604 1907736
183.97119 1476.6176 5037.0815 1973529
214.12036 1478.7061 5044.2061 2105115
242.40665 1468.994 5011.0757 2039322
272.83792 1472.9817 5024.6787 2039322
302.47562 1472.3219 5022.4282 1841943
328.88641 1457.4801 4971.7993 2039322
359.01447 1460.1976 4981.0693 2105115
390.66422 1468.2213 5008.4399 2039322
420.73389 1469.5928 5013.1182 1973529
451.36099 1472.6021 5023.3838 1973529
485.93265 1487.3121 5073.5635 2039322
513.15808 1479.1335 5045.6641 2039322
519.52863 1415.0522 4827.0684 2039322
562.35211 1451.7657 4952.3062 2039322
574.12573 1408.6545 4805.2441 1973529
630.84259 1474.6783 5030.4663 2039322
665.49127 1485.4845 5067.3286 1841943
692.52142 1479.0862 5045.5024 1973529
720.52112 1475.2023 5032.2539 2039322
759.6366 1493.4813 5094.6079 2105115
784.23132 1482.9058 5058.5322 1907736
811.88818 1478.6858 5044.1367 1842456
845.23334 1484.7578 5064.8501 2039835
875.021 1484.3785 5063.5562 1907993
905.70032 1485.4868 5067.3364 1907992
932.15198 1479.8124 5047.98 2039066
955.49121 1469.7035 5013.4961 1907993
1007.8066 1503.4303 5128.5459 1908249
1030.0465 1491.63 5088.2925 1907995
1057.5977 1487.9733 5075.8184 1974042
1078.8873 1475.953 5034.8145 1974042
1116.9227 1486.8717 5072.061 2039835
1146.7681 1486.6012 5071.1382 2105115
1177.8842 1487.95 5075.7388 2170908
1206.036 1485.58 5067.6543 2170908
1240.1846 1490.5326 5084.5488 2170908
1259.6127 1477.9777 5041.7212 2039322
1289.0968 1477.5306 5040.1963 2039322
1314.325 1472.3361 5022.4766 2039322
1351.3026 1480.2423 5049.4463 2105115
1370.7107 1468.9767 5011.0166 2039322
1408.4075 1477.3732 5039.6592 1973529
1447.2161 1486.563 5071.0078 1973529
1464.7288 1473.949 5027.9785 2039322
1502.5652 1481.882 5055.0396 1973529
1534.7917 1484.0802 5062.5386 1907736
1565.8616 1485.097 5066.0073 1841943
1610.9541 1499.1251 5113.8599 1907736
1648.1893 1505.4583 5135.4639 1907736
1685.3468 1511.4919 5156.0464 1841943
1718.7561 1514.0093 5164.6333 1973529
1756.2577 1519.9802 5185.0015 1973529
1779.7935 1513.8666 5164.1465 1841943
1840.0229 1538.6433 5248.6655 1776150
1861.3749 1530.6271 5221.3203 1776150
1848.6821 1495.3353 5100.9321 1907736
1862.9904 1482.6677 5057.7202 1776150
1905.7478 1492.6844 5091.8892 1710357
1933.4641 1490.7913 5085.4316 1578771
1983.2413 1505.7053 5136.3066 1710357
2046.8676 1530.524 5220.9688 1907736
2051.1697 1510.9052 5154.0444 1841943
2087.9314 1515.4209 5169.4487 1907736
2137.6079 1529.0442 5215.9209 1776150
2175.1589 1533.7295 5231.9033 1710357
2198.6191 1528.4869 5214.02 1775637
2223.9707 1524.6864 5201.0552 1710357
2258.2126 1527.0015 5208.9526 1710357
2307.8677 1539.5359 5251.7104 1776150
2358.2446 1552.2119 5294.9512 1841943
2394.0193 1555.0699 5304.7007 1776150
2448.7251 1569.9915 5355.6016 1776150
