# .PCD v0.7 - Point Cloud Data file format
VERSION 0.7
FIELDS x y z rgb
SIZE 4 4 4 4
TYPE F F F U
COUNT 1 1 1 1
WIDTH 1281
HEIGHT 1
VIEWPOINT 0 0 0 1 0 0 0
POINTS 1281
DATA ascii
149.12018 1276.9678 2746.2495 1513237
164.46446 1269.8002 2730.8347 1513237
180.77623 1270.7174 2732.8074 1513750
197.0584 1271.2926 2734.0444 1448470
212.6554 1267.6963 2726.3101 1844771
228.89914 1268.1908 2727.3735 1912360
245.29759 1269.4208 2730.0188 1715495
261.81793 1271.0902 2733.6091 1846823
277.83688 1270.2727 2731.8511 1188124
291.75845 1260.484 2710.7996 1318940
308.74561 1264.27 2718.9419 1385503
324.60291 1263.2834 2716.8198 1648934
341.14767 1264.9391 2720.3806 1518375
356.01682 1260.5126 2710.8608 1583911
372.78131 1262.8894 2715.9724 1188637
387.90237 1259.7321 2709.1824 991002
405.97684 1266.0363 2722.74 990488
423.04483 1268.8394 2728.7686 1056794
439.46881 1269.5759 2730.3525 1123615
457.33249 1274.2715 2740.4509 1584166
475.99033 1280.782 2754.4524 1781031
489.26981 1272.8688 2737.4341 1714725
502.12384 1264.392 2719.2039 1976357
516.27344 1259.603 2708.905 1580056
535.06659 1266.0907 2722.8574 1513494
546.67328 1255.6917 2700.4932 1513237
564.91632 1260.6938 2711.251 1184272
579.33661 1257.1245 2703.5745 1381651
595.85962 1258.1871 2705.8599 1381651
610.53021 1255.3851 2699.8337 1447444
626.74164 1255.8135 2700.7551 1513237
644.63159 1259.5001 2708.6836 1579030
658.07452 1254.5302 2697.9951 1512980
673.72437 1253.9032 2696.6467 1512980
680.21655 1236.6562 2659.5557 1512980
703.93427 1250.798 2689.9688 1578773
720.7373 1252.2991 2693.197 1578773
733.41858 1246.7285 2681.217 1578773
750.84937 1249.2966 2686.74 1644566
766.16565 1248.313 2684.6245 1578773
782.03271 1248.2485 2684.4858 1578773
797.46759 1247.5105 2682.8987 1578773
813.61414 1247.8928 2683.7209 1644566
828.85779 1246.9022 2681.5906 1710359
846.30457 1249.2009 2686.5342 1710359
861.83142 1248.6331 2685.3127 1710359
875.3255 1245.1941 2677.917 1512980
888.43414 1241.3391 2669.6265 1578773
902.55396 1239.007 2664.6108 1578773
920.8609 1242.4043 2671.9172 1512980
933.76562 1238.5214 2663.5667 1512980
941.47223 1227.9875 2640.9126 1644566
960.91309 1232.8533 2651.3767 1644566
973.97253 1229.5066 2644.1794 1578773
991.85437 1232.2572 2650.095 1578773
1011.8459 1237.5023 2661.375 1644566
1029.6654 1239.9707 2666.6836 1512980
1042.7185 1236.7115 2659.6743 1447187
1054.157 1231.6626 2648.8162 1841945
1067.3135 1228.7397 2642.5303 1710359
1081.2839 1226.8252 2638.4126 1578773
1101.8745 1232.3691 2650.3354 1512980
1113.3342 1227.6886 2640.2695 1578773
1128.8361 1227.5331 2639.9353 1512980
1144.4176 1227.4677 2639.7944 1512980
1162.5328 1230.0847 2645.4229 1512980
1175.5408 1227.3 2639.4341 1512980
1193.3779 1229.5642 2644.3032 1512980
1205.7542 1226.2159 2637.1025 1512980
1224.515 1229.3633 2643.8713 1381394
1237.3082 1226.5156 2637.7471 1447187
1254.0211 1227.5759 2640.0273 1381394
1267.9619 1225.9298 2636.4873 1447187
1278.4454 1221.022 2625.9324 1381394
1292.0521 1219.1792 2621.9692 1315601
1309.5264 1220.9861 2625.8552 1447187
1319.6642 1215.9906 2615.1118 1578773
1341.3109 1221.5928 2627.1599 1447187
1349.2258 1214.7035 2612.344 1578773
1362.0344 1212.3265 2607.2319 1578773
1370.1625 1205.8834 2593.3755 1512980
1385.7267 1206.0553 2593.7451 1447187
1396.7089 1202.2792 2585.624 1447187
1419.8682 1208.9532 2599.9773 1512980
1447.7041 1219.4232 2622.4941 1578773
1457.8971 1214.9678 2612.9121 1644566
1462.9856 1206.3967 2594.4792 1512980
1480.9464 1208.5082 2599.02 1644566
1495.0239 1207.4398 2596.7227 1578773
1507.6981 1205.2716 2592.0596 1512980
1524.0813 1206.082 2593.8025 1578773
1534.8589 1202.4846 2586.0659 1512980
1543.4186 1197.2379 2574.7825 1512980
1548.42 1189.3607 2557.8418 1512980
1570.7449 1194.8137 2569.5688 1512980
1580.0526 1190.3553 2559.9807 1644566
1613.5085 1204.0011 2589.3271 1644566
1626.4045 1202.1925 2585.4377 1644566
1644.9448 1204.5508 2590.5095 1776152
1663.1664 1206.6343 2594.99 1841945
1663.5006 1195.8212 2571.7354 1710359
1683.9536 1199.5354 2579.7234 1841945
1698.0679 1198.7085 2577.9448 1907738
1724.4883 1206.5059 2594.7141 1776152
1726.7285 1197.3977 2575.126 1644566
1726.8517 1186.9939 2552.7517 1776152
1746.5217 1190.0903 2559.4106 1710359
1766.4598 1193.3143 2566.3442 1578773
1785.0963 1195.6116 2571.2847 1578773
1788.1353 1187.5115 2553.8647 1776152
1805.3436 1188.8784 2556.8044 1578773
1813.4375 1184.2704 2546.8943 1512980
1794.2863 1162.0928 2499.199 1512980
1846.3916 1186.0507 2550.7229 1578773
1856.8478 1183.0828 2544.3403 1578773
1863.4637 1177.7358 2532.8411 1447187
1873.1052 1174.3712 2525.605 1381394
1894.2089 1178.1892 2533.8162 1315601
1924.2427 1187.458 2553.7498 1381394
1939.0597 1187.2653 2553.335 1447187
1952.5945 1186.2963 2551.2512 1447187
1975.5369 1191.014 2561.3972 1512980
1994.4424 1193.2445 2566.1941 1512980
2009.6162 1193.2255 2566.1533 1447187
2023.1664 1192.25 2564.0554 1447187
2041.9121 1194.3281 2568.5244 1381394
2054.8542 1193.0059 2565.6809 1315601
2083.5229 1200.7665 2582.3708 1315601
2099.2019 1200.9824 2582.8352 1184015
2117.2119 1202.5192 2586.1401 1184015
2120.4058 1195.6792 2571.4302 1118222
2146.5176 1201.7676 2584.5239 1118222
2159.3948 1200.413 2581.6106 1118222
2181.7915 1204.3319 2590.0386 1118222
2191.6213 1201.3077 2583.5349 1118222
2207.4478 1201.5896 2584.1411 1052429
2216.5569 1198.2366 2576.9299 986636
2223.947 1194.0061 2567.832 920843
2241.2925 1195.142 2570.2749 855050
2257.6094 1195.7177 2571.5129 986636
2281.1521 1200.087 2580.9097 986636
2294.4563 1199.0479 2578.6748 855050
2297.1638 1192.5212 2564.6387 855050
2313.6433 1193.183 2566.0618 789257
2321.6926 1189.5167 2558.177 723464
2331.3271 1186.705 2552.1301 789257
2314.4316 1170.5122 2517.3059 855050
2356.3777 1184.0948 2546.5168 591878
2414.7222 1205.6926 2592.9651 460292
2419.3691 1200.3751 2581.5293 460292
2432.2751 1199.1965 2578.9946 525313
2427.4907 1189.3651 2557.8511 459520
2442.6116 1189.3479 2557.814 262400
0 0 0 0
0 0 0 0
0 0 0 0
0 0 0 0
0 0 0 0
0 0 0 0
0 0 0 0
0 0 0 0
-2643.364 1402.0448 2977.3003 1644051
-2628.3884 1403.4684 2980.3232 1512465
-2612.2561 1404.2894 2982.0667 1578514
-2591.8145 1402.7893 2978.8811 1512978
-2580.9001 1406.4604 2986.677 1579027
-2549.6917 1399.0468 2970.9336 1710357
-2527.2039 1396.3483 2965.2034 1710357
-2503.1306 1392.73 2957.5198 1776152
-2484.3904 1392.0487 2956.073 1644566
-2456.2283 1386.0411 2943.3157 1644567
-2447.4514 1390.9647 2953.7712 1907738
-2427.4287 1389.5221 2950.7075 2170908
-2413.5239 1391.5859 2955.0903 1776150
-2390.1775 1388.196 2947.8918 1710357
-2374.3396 1389.1497 2949.9167 1710357
-2354.887 1387.9866 2947.4468 1776150
-2337.176 1387.8403 2947.1365 1710357
-2314.6755 1384.8264 2940.7363 1710357
-2297.0005 1384.6757 2940.4163 1710357
-2287.5317 1389.5074 2950.6765 1710357
-2266.7874 1387.5117 2946.4387 1776150
-2238.3484 1380.7386 2932.0557 1644564
-2221.4885 1381.0579 2932.7336 1644566
-2195.5554 1375.6973 2921.3501 1512980
-2182.6072 1378.4521 2927.2002 1512980
-2176.9043 1385.8635 2942.9387 1578773
-2190.6133 1405.8527 2985.3862 1644566
-2174.9089 1407.1372 2988.114 1447187
-2108.4832 1375.3572 2920.6279 1644566
-2088.0159 1373.2778 2916.2124 1644566
-2069.0129 1372.135 2913.7856 1644566
-2057.731 1376.1366 2922.283 1578773
-2041.9276 1377.1566 2924.4492 1644566
-2022.8387 1375.9592 2921.9065 1579030
-1999.2207 1371.6337 2912.7209 1513237
-1978.2468 1369.0629 2907.2617 1513494
-1959.521 1368.0164 2905.0393 1381394
-1960.3706 1380.7385 2932.0554 1447187
-1945.8684 1382.7791 2936.3884 1381394
-1902.317 1364.0272 2896.5681 1381394
-1884.9384 1363.8713 2896.2373 1447187
-1874.3988 1368.7065 2906.5051 1644309
-1859.5038 1370.4218 2910.1472 1578773
-1841.6831 1369.9927 2909.2361 1512723
-1827.2573 1372.1046 2913.7209 1447187
-1808.9941 1371.3479 2912.114 1447187
-1790.4723 1370.3787 2910.0557 1381394
-1773.9182 1370.9111 2911.1865 1512723
-1757.0464 1371.2063 2911.8132 1447187
-1741.5039 1372.5548 2914.677 1447187
-1722.7704 1371.3904 2912.2043 1513237
-1704.2841 1370.4011 2910.1035 1579030
-1689.0721 1372.0515 2913.6082 1579030
-1668.8174 1369.5972 2908.3962 1644823
-1648.9692 1367.4288 2903.7917 1644823
-1633.8846 1369.2067 2907.5671 1644823
-1617.0103 1369.5066 2908.2039 1710616
-1593.0929 1363.7838 2896.0513 1447444
-1581.2095 1368.3503 2905.7485 1447444
-1573.0747 1376.2969 2922.6235 1513237
-1559.475 1379.5861 2929.6082 1579030
-1539.134 1376.9186 2923.9436 1513237
-1520.2913 1375.5458 2921.0283 1644823
-1501.0868 1373.8104 2917.3433 1644823
-1487.9707 1377.6716 2925.5427 1579030
-1465.7786 1373.1216 2915.8804 1579030
-1447.465 1372.1396 2913.7952 1579030
-1430.0541 1372 2913.4988 1447444
-1412.5773 1371.793 2913.0591 1315858
-1395.9774 1372.443 2914.4395 1513237
-1373.3949 1367.1538 2903.2078 1315858
-1359.6843 1370.6742 2910.6833 1381651
-1336.5754 1364.6891 2897.9736 1447444
-1317.6163 1362.8401 2894.0474 1447444
-1300.8055 1363.194 2894.7988 1513237
-1276.0231 1355.0917 2877.5933 1513237
-1262.7673 1359.1765 2886.2676 1644823
-1236.9796 1349.6996 2866.1431 1579030
-1222.4069 1352.3662 2871.8057 1842202
-1204.6542 1351.5404 2870.052 1710616
-1177.7814 1340.3123 2846.2085 1644823
-1166.8555 1347.1689 2860.769 1644823
-1150.0312 1347.3177 2861.085 1644823
-1132.9523 1347.168 2860.7668 1907995
-1111.8629 1342.1726 2850.1592 1842202
-1085.1381 1330.1155 2824.5552 1644823
-1057.5077 1316.5533 2795.7554 1710616
-1046.8403 1324.0135 2811.5977 1710359
-1038.6823 1334.9403 2834.801 1776409
-1024.2137 1337.9825 2841.2612 1579030
-1012.0011 1344.1227 2854.3003 1710616
-1005.4002 1358.0516 2883.8789 1644823
-968.50238 1330.8311 2826.0747 1776409
-952.64392 1332.0715 2828.709 1776409
-930.57257 1324.5134 2812.6592 1644823
-912.20648 1322.0497 2807.4272 1710616
-894.69501 1320.7561 2804.6802 1776409
-878.35504 1321.1755 2805.571 1710616
-863.33386 1323.6332 2810.7898 1644823
-850.65619 1329.8511 2823.9939 1842202
-828.24884 1320.8027 2804.7793 1842202
-813.08527 1323.1719 2809.8103 1776409
-793.66846 1318.5741 2800.0466 1776409
-775.76514 1316.3479 2795.3193 1644823
-750.3092 1300.9296 2762.5776 1579030
-737.43243 1307.1202 2775.7239 1579030
-725.22278 1314.8029 2792.0383 1513237
-708.58807 1314.6346 2791.6809 1513237
-685.50861 1302.2155 2765.3083 1579030
-666.67029 1297.442 2755.1719 1513237
-653.00122 1302.7417 2766.4258 1513237
-638.33722 1306.2781 2773.9355 1579030
-619.71063 1301.6783 2764.1677 1644823
-603.93402 1302.9774 2766.9265 1644566
-583.78778 1294.6588 2749.2615 1710359
-567.052 1293.6427 2747.104 1578773
-551.03705 1294.2599 2748.4146 1644566
-534.20734 1292.9426 2745.6172 1644566
-519.2395 1296.1906 2752.5144 1644566
-510.97644 1316.9291 2796.5535 1578773
-486.4693 1295.7892 2751.6621 1513237
-465.96848 1284.2246 2727.104 1578773
-450.98337 1287.5767 2734.2222 1644566
-433.83771 1284.7802 2728.2837 1578773
-412.59283 1269.1578 2695.1091 1512980
-402.91672 1289.2963 2737.874 1578773
-386.39471 1288.2994 2735.7571 1776152
-370.23883 1288.4893 2736.1604 1710359
-352.81122 1284.0682 2726.772 1710359
-338.32144 1290.428 2740.2773 1644566
-322.6217 1292.5817 2744.8506 1710359
-304.93451 1286.5785 2732.1025 1644566
-289.55194 1290.1708 2739.731 1710359
-273.3616 1290.3768 2740.1687 1776152
-257.53787 1292.4487 2744.5684 1644566
-240.29193 1287.1818 2733.3838 1644566
-223.70111 1284.9163 2728.5728 1710359
-206.99411 1281.5785 2721.4849 1644566
-190.4913 1279.0476 2716.1104 1710359
-174.64413 1280.8582 2719.9553 1644566
-158.33875 1279.3346 2716.72 1644566
-141.43938 1272.124 2701.408 1710359
-125.47339 1272.5392 2702.2896 1907481
-109.48352 1272.7982 2702.8396 1776152
-93.734688 1276.4283 2710.5483 1907738
-77.564354 1274.6331 2706.7361 1907738
-61.686886 1277.9691 2713.8203 1710359
-45.387527 1271.8354 2700.7954 1841945
-29.49555 1276.6539 2711.0273 1710359
-13.414624 1275.0381 2707.5962 1776152
2.6284101 1274.7666 2707.0198 1710359
18.64909 1273.4352 2704.1924 1776152
34.752934 1276.3887 2710.4644 1776152
50.743172 1274.6216 2706.7117 1710616
66.77317 1274.4622 2706.373 1579030
82.747574 1273.5088 2704.3486 1710616
98.689774 1272.4496 2702.0994 1710616
114.15447 1266.3888 2689.229 1579030
130.67642 1272.105 2701.3674 1513237
146.54543 1270.9109 2698.8318 1513237
162.43474 1270.1106 2697.1323 1382164
177.9995 1267.1432 2690.8311 1581343
193.04158 1261.2489 2678.3142 1780518
209.3942 1264.1621 2684.5005 1387813
224.95276 1262.2083 2680.3516 1585191
241.65135 1266.4872 2689.438 1781803
257.71753 1267.1273 2690.7974 1188894
274.41687 1270.6245 2698.2236 1187354
288.74902 1263.3793 2682.8381 1055768
305.06613 1265.1219 2686.5388 1384476
319.70673 1260.0841 2675.8406 1648932
335.79446 1260.9563 2677.6929 1583911
350.50629 1256.8164 2668.9016 1584424
367.23383 1259.9496 2675.5549 1518116
383.41226 1261.0175 2677.8228 1253917
399.71054 1262.379 2680.7141 1252377
416.56665 1265.3308 2686.9824 1251607
430.55603 1259.6781 2674.9788 1317143
445.47137 1257.0398 2669.376 1448984
461.36432 1257.2466 2669.8149 1383705
477.69308 1258.5876 2672.6631 1646363
496.1759 1265.3359 2686.9932 1908252
510.5889 1261.6085 2679.0779 1710872
527.29047 1263.5902 2683.2861 1644567
538.95654 1253.7421 2662.3733 1512981
554.76569 1253.8179 2662.5342 1513237
572.25641 1257.5848 2670.5334 1513237
587.28064 1255.8748 2666.9019 1513237
602.50256 1254.6658 2664.3347 1447444
617.68585 1253.4401 2661.7319 1447444
632.78961 1252.1182 2658.9248 1512980
643.75897 1242.8783 2639.3037 1578773
663.09387 1249.8447 2654.0972 1578773
676.57703 1245.7142 2645.3257 1578773
694.55157 1249.8528 2654.1143 1578773
709.75238 1248.9276 2652.1494 1578773
725.16211 1248.402 2651.0332 1644566
741.25433 1249.0486 2652.4065 1249808
756.78516 1248.7422 2651.7556 1249808
771.68665 1247.4308 2648.9709 1447187
785.02313 1243.6923 2641.032 1578773
799.78522 1242.3145 2638.1062 1644566
814.52893 1240.9613 2635.2327 1710359
828.85834 1239.0398 2631.1523 1644566
845.27203 1240.2474 2633.7168 1841945
861.66754 1241.385 2636.1326 1578773
874.88324 1237.9827 2628.9075 1447187
888.95135 1235.8845 2624.4519 1249808
901.83234 1232.2365 2616.7051 1447187
912.28723 1225.4526 2602.2996 1447187
930.6535 1229.345 2610.5649 1578773
948.62622 1232.5988 2617.4744 1512980
964.72406 1233.3507 2619.0713 1512980
981.51367 1234.9493 2622.4661 1644566
992.78583 1229.6642 2611.2429 1644566
1017.2073 1240.5781 2634.4189 1447187
1028.9609 1235.946 2624.5825 1447187
1035.1262 1224.8394 2600.9971 1578773
1049.8577 1224.0459 2599.312 1578773
1068.5687 1227.8483 2607.3867 1578773
1084.9513 1228.9048 2609.6301 1447187
1100.7847 1229.3181 2610.5081 1512980
1112.4315 1225.1096 2601.571 1512980
1128.5303 1225.8521 2603.1477 1578773
1149.1478 1231.4166 2614.9644 1512980
1161.4595 1228.0511 2607.8174 1512980
1173.7891 1224.7926 2600.8979 1578773
1190.7961 1226.436 2604.3877 1512980
1201.1333 1221.2559 2593.3872 1644566
1219.1787 1223.9449 2599.0977 1447187
1233.319 1222.6953 2596.4441 1381394
1246.0078 1220.0553 2590.8379 1381394
1261.2677 1219.9664 2590.6492 1315601
1275.0011 1218.421 2587.3674 1381394
1288.0312 1216.2482 2582.7534 1381394
1302.6783 1215.6353 2581.4519 1447187
1313.5375 1211.5428 2572.7615 1447187
1321.698 1205.0837 2559.0452 1578773
1333.8928 1202.4078 2553.3628 1578773
1350.4049 1203.64 2555.9792 1512980
1353.8616 1193.3374 2534.1013 1512980
1373.6489 1197.4972 2542.9348 1447187
1390.8378 1199.326 2546.8186 1447187
1412.1641 1204.6453 2558.114 1447187
1436.5405 1212.4255 2574.636 1578773
1452.1503 1212.7212 2575.2637 1578773
1454.8398 1202.333 2553.2039 1578773
1477.5166 1208.5067 2566.314 1578773
1485.9402 1203.0153 2554.6528 1512980
1498.2905 1200.7817 2549.9097 1381394
1516.7832 1203.4662 2555.6104 1447187
1525.9523 1198.7732 2545.6445 1512980
1540.6805 1198.4965 2545.0569 1578773
1557.7856 1200.0562 2548.3689 1644566
1569.1211 1197.1838 2542.2695 1907738
1582.4446 1195.8685 2539.4763 1841945
1604.9841 1201.4771 2551.3862 1776152
1619.5289 1201.052 2550.4836 1710359
1615.3274 1186.861 2520.3484 1841945
1619.3451 1178.9137 2503.4719 1644566
1635.1584 1179.6201 2504.9722 1644566
1679.4124 1200.6465 2549.6226 1710359
1687.2844 1195.5199 2538.7361 1644566
1707.6561 1199.2622 2546.6829 1710359
1714.504 1193.5245 2534.4985 1644566
1726.2729 1191.2825 2529.7375 1710359
1738.8304 1189.6183 2526.2039 1578773
1759.0787 1193.1995 2533.8086 1578773
1771.3916 1191.3829 2529.9509 1578773
1771.369 1181.3701 2508.6882 1512980
1787.8136 1182.4148 2510.9067 1512980
1800.1354 1180.738 2507.3459 1578773
1810.4023 1177.752 2501.0051 1644566
1826.5475 1178.6074 2502.8215 1644566
1844.7501 1180.7659 2507.4053 1512980
1864.2202 1183.6947 2513.6248 1315601
1880.5897 1184.624 2515.5981 1381394
1893.3853 1183.3051 2512.7974 1315601
1907.6964 1182.9467 2512.0361 1184015
1922.6797 1183.0072 2512.1648 1249808
1941.0833 1185.1553 2516.7261 1512980
1956.0712 1185.2008 2516.823 1578773
1986.6675 1194.6315 2536.8494 1578773
1973.6946 1177.918 2501.3577 1512980
1989.0221 1178.2178 2501.9941 1512980
2012.937 1183.5623 2513.3433 1447187
2046.4108 1194.4072 2536.3733 1381394
2063.9136 1195.8406 2539.417 1184271
2084.3745 1198.9547 2546.03 1052686
2089.7454 1193.4064 2534.2478 1052686
2100.4351 1190.9531 2529.0383 1118222
2113.4111 1189.8219 2526.636 1118222
2124.1006 1187.4281 2521.5527 1052429
2103.0664 1167.4575 2479.1443 986636
2159.6709 1190.5637 2528.2114 1052429
2175.7395 1191.1593 2529.4761 1118222
2187.2043 1189.2437 2525.4082 1052429
2216.7397 1197.1125 2542.1182 920843
2227.0432 1194.5596 2536.6968 920843
2255.3201 1201.6169 2551.6833 920843
2267.3635 1199.9889 2548.2261 855050
2274.8325 1195.9772 2539.707 1052429
2296.4214 1199.3931 2546.9609 1052429
2286.1331 1186.2239 2518.9956 855050
2287.5823 1179.2765 2504.2424 986636
2308.3145 1182.295 2510.6523 855050
2290.7451 1165.783 2475.5884 789257
2327.4895 1176.9459 2499.2935 789257
2358.2834 1184.9778 2516.3494 789257
2372.1484 1184.4558 2515.241 657670
2420.4243 1201.0151 2550.4053 460290
2402.1682 1184.5604 2515.4631 394498
0 0 0 0
0 0 0 0
0 0 0 0
0 0 0 0
0 0 0 0
0 0 0 0
0 0 0 0
0 0 0 0
-2610.1597 1401.8533 2939.9011 1578771
-2589.8643 1400.2985 2936.6406 1710357
-2571.7708 1399.9216 2935.8501 1907736
-2559.6392 1402.8068 2941.9009 1973530
-2529.7812 1395.95 2927.521 1841945
-2511.5815 1395.4761 2926.5271 1973274
-2504.2522 1401.0773 2938.2739 1841943
-2476.0369 1394.9899 2925.5076 1973529
-2451.8462 1391.1001 2917.3501 1907736
-2431.8164 1389.5323 2914.0625 1644564
-2415.1384 1389.8716 2914.7737 1644564
-2405.1113 1394.0704 2923.5793 1578771
-2381.959 1390.6674 2916.4424 1644564
-2367.0847 1392.0826 2919.4106 1578771
-2341.0972 1386.9352 2908.6157 1710357
-2319.5925 1384.3867 2903.2712 1644563
-2297.4663 1381.4265 2897.0632 1578771
-2265.8779 1372.6895 2878.7402 1512978
-2256.2146 1377.203 2888.2058 1644565
-2231.4507 1372.4977 2878.3381 1578773
-2218.9839 1375.3417 2884.3022 1644567
-2207.9971 1379.1543 2892.2979 1644566
-2174.1204 1368.6172 2870.2 1776152
-2156.9143 1368.491 2869.9353 1644566
-2143.063 1370.5081 2874.1655 1710359
-2118.1924 1365.4542 2863.5667 1644566
-2107.0635 1369.2484 2871.5239 1644566
-2079.2686 1362.1863 2856.7134 1710359
-2068.3713 1366.1689 2865.0657 1578773
-2053.136 1367.3289 2867.498 1578773
-2021.3545 1357.3965 2846.6685 1578773
-2008.6965 1360.2472 2852.647 1512980
-1993.3652 1361.3207 2854.8982 1512980
-1975.307 1360.5342 2853.2488 1447187
-1957.2542 1359.7379 2851.5789 1447187
-1949.1276 1365.8838 2864.4675 1447444
-1936.6241 1369.0435 2871.094 1447444
-1915.1067 1365.8306 2864.356 1447444
-1894.0187 1362.869 2858.1453 1513237
-1872.6614 1359.6587 2851.4126 1512980
-1854.4471 1358.6927 2849.387 1513237
-1836.1703 1357.6627 2847.2268 1447187
-1827.5059 1363.7869 2860.0701 1447444
-1812.1958 1365.0199 2862.6558 1447444
-1798.5421 1367.5358 2867.9321 1512980
-1779.833 1366.2189 2865.1704 1447187
-1761.9305 1365.502 2863.6667 1447187
-1745.317 1365.7797 2864.2493 1315858
-1726.3219 1364.1807 2860.896 1513237
-1705.4102 1361.0206 2854.2688 1579030
-1693.3712 1364.9491 2862.5076 1447444
-1669.7418 1359.5201 2851.1221 1513237
-1658.5139 1364.1807 2860.896 1447444
-1642.1058 1364.6327 2861.8438 1513237
-1628.5764 1367.5112 2867.8806 1776409
-1611.5293 1367.4655 2867.7847 1644823
-1592.662 1365.858 2864.4136 1710616
-1575.0873 1365.3362 2863.3193 1315858
-1558.9194 1366.0359 2864.7866 1315858
-1549.2959 1372.5487 2878.4451 1381651
-1528.4709 1369.1725 2871.3645 1447444
-1510.7727 1368.5527 2870.0647 1513237
-1492.9041 1367.7626 2868.4077 1710616
-1473.824 1365.8315 2864.3582 1447444
-1457.9316 1366.8444 2866.4819 1447444
-1443.0253 1368.816 2870.6172 1315858
-1422.4353 1365.3793 2863.4097 1381651
-1410.312 1370.0847 2873.2776 1579030
-1392.4917 1369.303 2871.6382 1381651
-1370.947 1364.7942 2862.1826 1447444
-1352.5732 1363.3687 2859.1931 1381651
-1329.6168 1357.2291 2846.3176 1447444
-1312.3468 1356.8112 2845.4409 1315858
-1292.5702 1353.7568 2839.0354 1315858
-1274.6405 1352.5818 2836.5713 1644823
-1258.4352 1353.2297 2837.9302 1644823
-1239.0852 1350.4679 2832.1382 1710616
-1217.5547 1345.2209 2821.1345 1710616
-1196.0084 1339.8103 2809.7876 1710616
-1178.278 1338.5818 2807.2112 1776409
-1162.7532 1339.86 2809.8916 1776409
-1147.8346 1341.8837 2814.1357 1644823
-1129.2084 1339.5687 2809.281 1710616
-1109.3981 1335.7589 2801.2913 1644823
-1086.2694 1327.7775 2784.5527 1776152
-1063.2695 1319.7095 2767.6328 1710873
-1043.9606 1316.0413 2759.9404 1776409
-1035.1974 1325.7625 2780.3271 1842202
-1014.6602 1320.4755 2769.2395 1907995
-999.9057 1322.6638 2773.8286 1776409
-986.8775 1327.2469 2783.4404 1644823
-967.71851 1323.6006 2775.7932 1644823
-950.7666 1322.899 2774.322 1644823
-933.75525 1322.0886 2772.6223 1776409
-915.22394 1319.0585 2766.2678 1644823
-897.62018 1317.2791 2762.5361 1710616
-883.33496 1320.3942 2769.0688 1710616
-868.61237 1322.9609 2774.4517 1776409
-852.32318 1323.1946 2774.9419 1842202
-832.08167 1317.1809 2762.3303 1710616
-815.50433 1316.8428 2761.6211 1776409
-796.44501 1312.4009 2752.3059 1776409
-783.7204 1318.4301 2764.9497 1513237
-761.53735 1308.4653 2744.0522 1644823
-744.5578 1307.2013 2741.4014 1644823
-728.9563 1308.3542 2743.8193 1579030
-711.20325 1305.6101 2738.0645 1644823
-696.66504 1308.7772 2744.7065 1579030
-673.50348 1295.5085 2716.8801 1579030
-656.72229 1294.1636 2714.0593 1513237
-641.84576 1296.5985 2719.1658 1513237
-626.98328 1299.1879 2724.5962 1513237
-609.84985 1297.0844 2720.1846 1513237
-591.96954 1293.2345 2712.1111 1447444
-573.6062 1288.0856 2701.3127 1513237
-557.3598 1287.531 2700.1499 1513237
-539.28638 1282.5984 2689.8054 1381651
-525.67151 1288.2924 2701.7466 1315858
-510.62589 1290.7274 2706.853 1381651
-494.28275 1289.9342 2705.1897 1381651
-474.36246 1279.4396 2683.1809 1381908
-459.32617 1281.8469 2688.2295 1578773
-443.85577 1283.1722 2691.0088 1710359
-428.46631 1284.8391 2694.5044 1644566
-409.28128 1274.8126 2673.4775 1578773
-394.8208 1279.2871 2682.8611 1710359
-379.19574 1280.2054 2684.7869 1776152
-360.53836 1270.5182 2664.4714 1841945
-346.89206 1278.4114 2681.0244 1841945
-332.83502 1285.4757 2695.8396 1710359
-316.47223 1283.8982 2692.5312 1710616
-299.92429 1281.3621 2687.2126 1776409
-284.31055 1282.7565 2690.137 1776152
-267.61948 1279.1671 2682.6096 1841945
-253.01398 1285.7228 2696.3577 1710359
-235.3257 1276.4407 2676.8916 1710359
-218.83635 1272.7899 2669.2354 1644823
-203.78807 1277.6049 2679.333 1710359
-187.48941 1274.7319 2673.3081 1644309
-171.52084 1273.7802 2671.3123 1578773
-155.5802 1272.8635 2669.3899 1578773
-139.38521 1269.4231 2662.1746 1776152
-121.70025 1249.803 2621.0283 1841945
-107.63554 1267.0597 2657.2183 1973531
-92.172905 1270.9543 2665.386 1907738
-76.49408 1272.8622 2669.387 1841945
-60.745804 1274.3079 2672.4189 1710359
-44.727768 1269.1187 2661.5364 1710359
-29.005709 1271.2491 2666.0044 1710359
-13.227609 1273.0824 2669.8489 1710359
2.5778339 1265.969 2654.9309 1776152
18.303585 1265.5692 2654.0925 1644566
34.076546 1267.2948 2657.7114 1644566
49.905533 1269.3545 2662.0308 1513237
65.631592 1268.4355 2660.1038 1644823
81.381355 1268.2421 2659.698 1644823
96.915787 1265.3 2653.5281 1644823
112.92137 1268.4719 2660.1799 1579030
128.56175 1267.2667 2657.6526 1447444
144.53299 1269.2302 2661.7703 1447444
159.69366 1264.3894 2651.6184 1579543
175.25641 1263.3143 2649.3638 1712156
189.86824 1256.1249 2634.2864 1778977
206.13028 1260.1157 2642.6558 1582368
222.17958 1262.3344 2647.3086 1450783
237.98116 1262.9459 2648.5911 1253147
252.30223 1256.1108 2634.2568 1317657
268.59323 1259.3081 2640.9622 1383193
284.38632 1259.9476 2642.3032 1383193
300.57028 1262.1617 2646.9465 1186840
315.99683 1261.1333 2644.7898 1319196
329.46863 1252.7694 2627.2495 1649189
345.68777 1255.1355 2632.2114 1452838
361.34576 1255.3477 2632.6562 1715753
378.3327 1259.9681 2642.3462 1714724
392.25586 1254.4233 2630.718 1318939
409.37363 1259.1284 2640.5852 1054742
423.61807 1254.9747 2631.8743 1251093
440.38913 1258.3354 2638.9221 1317141
456.32657 1259.1653 2640.6626 1447957
471.06207 1256.7335 2635.5627 1447957
487.09933 1257.8195 2637.8401 1447957
502.20395 1256.5042 2635.0818 1513750
516.92493 1254.3375 2630.5381 1447957
532.82745 1255.0806 2632.0964 1447957
546.09644 1249.7548 2620.9272 1644823
561.13562 1248.6625 2618.6365 1513237
577.52246 1250.5471 2622.5889 1513237
593.0246 1250.4675 2622.4221 1447444
608.37964 1250.0896 2621.6296 1512980
623.26697 1248.7937 2618.9116 1578773
637.38104 1246.0488 2613.1553 1579030
649.42725 1239.4875 2599.3953 1644823
666.0697 1241.7993 2604.2434 1578773
682.27454 1243.209 2607.1997 1578773
697.87122 1243.4727 2607.7527 1644566
713.38379 1243.5784 2607.9744 1512980
729.67584 1245.0094 2610.9756 1644566
741.82837 1239.4647 2599.3474 1776152
756.94672 1239.0001 2598.373 1578773
772.86554 1239.8381 2600.1306 1644566
787.17303 1238.1091 2596.5046 1710359
801.94312 1237.1599 2594.5139 1644566
817.30682 1237.1451 2594.4829 1776152
831.16663 1234.8964 2589.7668 1512980
846.44989 1234.8057 2589.5767 1710359
857.61652 1228.8198 2577.0234 1776152
871.6087 1227.021 2573.2512 1644566
887.76263 1228.2751 2575.8811 1578773
901.92206 1226.7738 2572.7327 1512980
916.31549 1225.6356 2570.3457 1447187
931.60785 1225.717 2570.5166 1512980
947.66779 1226.7899 2572.7664 1644566
961.73413 1225.2886 2569.6179 1644566
978.80646 1227.6041 2574.4741 1644566
995.07104 1228.8513 2577.0894 1578773
1009.7305 1228.1084 2575.5315 1644566
1027.5806 1231.2103 2582.0366 1644566
1036.7885 1224.0184 2566.9543 1578773
1047.5784 1218.8754 2556.1685 1447187
1067.501 1224.3535 2567.657 1512980
1080.4961 1221.844 2562.394 1512980
1091.4049 1217.0773 2552.3977 1512980
1105.7 1216.1656 2550.4856 1447187
1130.3315 1226.4943 2572.1465 1512980
1143.1619 1223.9133 2566.7339 1512980
1156.819 1222.2738 2563.2954 1512980
1170.4863 1220.6873 2559.9683 1578773
1188.5259 1223.6428 2566.1665 1512980
1199.244 1219.0812 2556.6001 1447187
1211.2178 1215.8938 2549.9155 1512980
1219.5968 1209.2208 2535.9214 1512980
1236.2278 1210.7924 2539.217 1447187
1254.23 1213.6531 2545.2166 1512980
1266.4122 1210.881 2539.4031 1381394
1282.323 1211.6973 2541.1147 1381394
1297.7682 1212.0597 2541.875 1447187
1306.6521 1206.3561 2529.9136 1512980
1316.1171 1201.3124 2519.3362 1578773
1330.6693 1200.9731 2518.6248 1578773
1345.0731 1200.509 2517.6514 1578773
1355.901 1196.8983 2510.0793 1578773
1367.2603 1193.8303 2503.645 1578773
1383.3625 1194.9248 2505.9404 1710359
1395.9358 1192.9802 2501.8623 1578773
1423.1536 1203.4602 2523.8403 1578773
1440.7664 1205.6846 2528.5054 1578773
1449.9807 1200.9072 2518.4866 1776152
1461.9955 1198.5232 2513.4868 1644566
1478.2571 1199.6334 2515.8152 1447187
1491.0988 1197.974 2512.335 1578773
1505.1003 1197.27 2510.8586 1644566
1519.9338 1197.2351 2510.7854 1644566
1532.7513 1195.6282 2507.4155 1710359
1541.1776 1190.6598 2496.9958 1644566
1557.6705 1191.9584 2499.7195 1776152
1562.1305 1184.1116 2483.2634 1776152
1578.8837 1185.6426 2486.4741 1776152
1605.272 1194.3138 2504.6592 1841945
1608.5522 1185.7915 2486.7864 1973531
1618.1064 1182.0068 2478.8494 1710359
1628.9077 1179.1931 2472.9485 1381394
1653.53 1186.3453 2487.948 1710359
1667.3193 1185.668 2486.5273 1776152
1694.1241 1194.1769 2504.3718 1710359
1705.0891 1191.4694 2498.6938 1512980
1712.5199 1186.3604 2487.9795 1381394
1732.3044 1189.8236 2495.2424 1512980
1751.8024 1193.0331 2501.9731 1578773
1755.59 1185.5792 2486.3413 1644566
1763.5752 1181.0605 2476.865 1841945
1771.4591 1176.5491 2467.4038 1710359
1784.7854 1175.6967 2465.616 1710359
1802.9697 1178.0322 2470.5142 1710359
1818.1177 1178.3622 2471.2061 1578773
1829.762 1176.4343 2467.1631 1512980
1849.1678 1179.4877 2473.5664 1381394
1872.7323 1185.1245 2485.3879 1250065
1882.3694 1181.9287 2478.6858 1315601
1902.4846 1185.3107 2485.7781 1446930
1912.0988 1182.1483 2479.146 1447187
1928.4755 1183.1831 2481.3162 1512980
1954.6136 1190.1461 2495.9187 1315601
1952.0858 1179.6809 2473.9717 1249551
1978.9192 1186.9832 2489.2854 1249808
2007.3116 1195.1055 2506.3193 1447187
1983.5337 1172.2758 2458.4419 1381394
2034.998 1193.9231 2503.8396 1184272
2044.4204 1190.7698 2497.2266 1118479
2068.1726 1195.948 2508.0864 1052686
2058.7598 1182.0115 2478.8591 1118479
2095.7388 1194.7188 2505.5083 1118479
2157.2087 1221.1106 2560.856 1052686
2115.3342 1189.0433 2493.606 1052686
2131.7949 1189.9838 2495.5784 789514
2142.4521 1187.6942 2490.7769 921100
2159.1816 1188.7793 2493.0522 986636
2179.2502 1191.6754 2499.126 1052686
2188.8608 1188.8524 2493.2056 986893
2203.4482 1188.7521 2492.9951 1052429
2233.8994 1197.1545 2510.6165 920843
2226.6777 1185.3905 2485.9456 920843
2251.6592 1190.8119 2497.3149 986636
2285.5054 1200.8202 2518.304 920843
2245.0024 1171.8884 2457.6296 1052429
2274.3916 1179.5781 2473.7561 920843
2281.0327 1175.4469 2465.0923 789257
2302.4668 1178.9427 2472.4236 789257
2325.8362 1183.379 2481.7273 986636
2339.5962 1182.9011 2480.7251 986636
2361.0095 1186.2745 2487.7996 723462
2378.3586 1187.5768 2490.5305 723462
0 0 0 0
0 0 0 0
0 0 0 0
0 0 0 0
0 0 0 0
0 0 0 0
0 0 0 0
0 0 0 0
-2573.886 1399.5494 2899.0449 1710357
-2546.3013 1393.8529 2887.2449 1973529
-2531.7805 1395.2787 2890.1982 1842200
-2506.3779 1390.6862 2880.6853 1841943
-2506.519 1400.3009 2900.6013 1776150
-2481.6868 1396.0005 2891.6934 1907481
-2452.4387 1389.139 2877.4805 1973274
-2437.8425 1390.5386 2880.3796 1710358
-2446.2019 1405.1443 2910.634 1447185
-2396.0088 1386.085 2871.1543 1381393
-2380.0696 1386.7103 2872.4497 1315599
-2366.3081 1388.6228 2876.4114 1381392
-2345.8503 1386.605 2872.2314 1447187
-2327.5457 1385.8396 2870.646 1710102
-2308.1523 1384.4099 2867.6846 1578773
-2274.8325 1374.5441 2847.2483 1578773
-2253.4692 1371.8094 2841.5837 1447187
-2241.3076 1374.6774 2847.5244 1447187
-2211.6816 1366.7959 2831.1987 1644566
-2207.3457 1374.5425 2847.2449 1579030
-2181.74 1369.0614 2835.8916 1644566
-2167.1157 1370.4398 2838.7468 1644823
-2140.2927 1364.0652 2825.542 1644566
-2118.7195 1360.9619 2819.1143 1644566
-2101.9048 1360.8906 2818.9663 1644566
-2081.6301 1358.5598 2814.1384 1776152
-2062.5322 1356.9657 2810.8362 1710359
-2052.6997 1361.4911 2820.2102 1644566
-2027.65 1355.9148 2808.6594 1644566
-2015.599 1359.0106 2815.072 1513237
-1992.4211 1354.5931 2805.9216 1513237
-1979.8113 1357.3467 2811.6255 1447444
-1969.7722 1361.9244 2821.1079 1579030
-1952.7792 1361.7316 2820.7083 1513237
-1930.6915 1357.9518 2812.8789 1381651
-1912.0876 1356.578 2810.0332 1513237
-1892.6721 1354.5991 2805.9341 1447444
-1874.8312 1353.7219 2804.1172 1381651
-1860.9955 1355.7472 2808.3123 1315858
-1851.434 1360.9507 2819.0908 1315858
-1825.1583 1353.851 2804.3843 1381651
-1811.0675 1355.7421 2808.3015 1447444
-1798.7686 1359.0221 2815.0959 1447187
-1785.1309 1361.3425 2819.9026 1315601
-1771.4388 1363.665 2824.7134 1315858
-1754.1542 1363.2399 2823.8328 1316115
-1723.108 1352.0089 2800.5686 1381651
-1712.6709 1356.8871 2810.6733 1447444
-1692.8829 1354.3801 2805.4805 1644823
-1680.059 1357.4501 2811.8396 1579030
-1669.0522 1362.0647 2821.3982 1579030
-1650.7312 1360.743 2818.6606 1644823
-1634.8121 1361.3949 2820.011 1644823
-1615.95 1359.5839 2816.2595 1644823
-1595.8301 1356.6659 2810.2151 1579030
-1574.3859 1352.5486 2801.6865 1644823
-1562.0775 1356.2758 2809.407 1381651
-1551.8441 1361.9042 2821.0659 986893
-1532.6731 1359.7262 2816.5544 1118479
-1521.3127 1364.5059 2826.4551 1381651
-1499.2196 1359.6581 2816.4133 1710616
-1487.8514 1364.5374 2826.5203 1710616
-1470.2046 1363.7039 2824.7937 1447444
-1453.3423 1363.5873 2824.5522 1381651
-1431.8259 1359.0505 2815.1548 1513237
-1417.229 1361.052 2819.3005 1381651
-1396.4459 1357.0892 2811.0923 1579030
-1380.5006 1357.7891 2812.5417 1644823
-1364.2227 1358.1748 2813.3408 1447444
-1345.7612 1356.3695 2809.6013 1513237
-1326.2788 1353.4769 2803.6096 1381651
-1305.9769 1349.6641 2795.7117 1447444
-1285.646 1345.723 2787.5481 1513237
-1273.3403 1350.1888 2796.7986 1513237
-1256.8073 1350.2308 2796.8855 1579030
-1235.3877 1344.9541 2785.9553 1644823
-1219.418 1345.5479 2787.1853 1710616
-1196.3118 1338.1754 2771.9138 1710616
-1183.7858 1342.597 2781.0728 1776409
-1163.1846 1337.8558 2771.2517 1776409
-1142.7889 1333.2186 2761.6462 1776409
-1124.9023 1331.4163 2757.9128 1842202
-1109.3911 1332.4138 2759.979 1776666
-1088.7201 1327.1514 2749.0784 1776409
-1068.6687 1322.4957 2739.4348 1776409
-1049.4751 1318.7745 2731.7266 1842202
-1030.1843 1314.8126 2723.5198 1907995
-1014.768 1315.7483 2725.458 1776409
-1004.1954 1323.0962 2740.6785 1776409
-988.54907 1323.8909 2742.3245 1842202
-973.42554 1325.4237 2745.4998 1710616
-952.06146 1318.3672 2730.8828 1644823
-938.08948 1321.4799 2737.3303 1644823
-921.66113 1321.1808 2736.7109 1776409
-904.01312 1319.0914 2732.3831 1776409
-887.3363 1318.3689 2730.8862 1842202
-871.40436 1318.7467 2731.6689 1907995
-856.71375 1321.0529 2736.446 2039581
-838.10651 1317.2921 2728.656 1907995
-821.76434 1317.0137 2728.0791 1776409
-803.13483 1312.9846 2719.7334 1907995
-789.58392 1317.2631 2728.5957 1776409
-770.84564 1312.8856 2719.5281 1644823
-747.81866 1300.8606 2694.6194 1644823
-733.15692 1303.1802 2699.4243 1644823
-717.28345 1303.4014 2699.8823 1644823
-698.24072 1297.7422 2688.1599 1579030
-682.16443 1297.4611 2687.5774 1381651
-664.52484 1294.1219 2680.6609 1447444
-647.65387 1292.1528 2676.582 1447444
-631.54681 1291.6471 2675.5344 1513237
-616.44977 1293.2344 2678.8223 1513237
-596.6037 1284.6792 2661.1011 1644823
-581.30255 1285.712 2663.2405 1513237
-564.41412 1283.1937 2658.0242 1513237
-550.38141 1287.2097 2666.3428 1447444
-533.65619 1284.9799 2661.7239 1578773
-516.22369 1280.8591 2653.1882 1513237
-497.66162 1273.5891 2638.1289 1447444
-484.0625 1278.9602 2649.2546 1381651
-468.3779 1278.9966 2649.3298 1579030
-451.70883 1276.2538 2643.6487 1644566
-435.37589 1274.2979 2639.5969 1710359
-419.37164 1273.194 2637.3105 1578773
-404.28989 1274.9138 2640.873 1578773
-388.72504 1275.1874 2641.4397 1578773
-372.09616 1271.847 2634.5203 1710359
-357.18234 1274.3328 2639.6694 1841945
-342.85245 1279.2252 2649.8037 1776152
-326.49042 1276.641 2644.4507 1907738
-312.9592 1285.4233 2662.6426 1578773
-294.50897 1273.8616 2638.6934 1644566
-278.82285 1273.6295 2638.2126 1644566
-263.99744 1277.5352 2646.3027 1578773
-248.01707 1275.9918 2643.106 1644566
-232.16545 1274.9475 2640.9429 1644566
-215.35089 1268.0822 2626.7217 1644566
-199.87885 1268.6681 2627.9355 1578773
-184.26294 1268.3632 2627.3037 1644566
-168.90242 1269.9219 2630.5325 1644566
-153.46452 1271.1564 2633.0898 1578773
-136.59538 1259.4739 2608.8904 1644566
-121.41024 1262.3182 2614.7825 1776152
-105.96047 1262.8412 2615.8655 1907738
-90.595818 1264.7314 2619.781 1907738
-74.657242 1257.7345 2605.2876 1710359
-59.437366 1262.3539 2614.8562 1710359
-43.964508 1262.9633 2616.1184 1710359
-28.478287 1263.6436 2617.5276 1710359
-12.965414 1263.354 2616.9277 1578773
2.5421736 1263.9702 2618.2041 1776152
18.027731 1261.9854 2614.0928 1776152
33.521389 1262.14 2614.4131 1710359
48.859856 1258.2006 2606.2529 1644823
64.411598 1260.3264 2610.6565 1776409
79.631996 1256.4012 2602.5256 1644823
95.509453 1262.4344 2615.0229 1644823
110.70659 1259.0463 2608.0046 1513237
126.35082 1260.95 2611.948 1513237
141.91095 1261.6904 2613.4817 1644823
157.43571 1262.0017 2614.1265 1513237
171.98688 1255.152 2599.938 1513750
188.36536 1261.6677 2613.4348 1514006
203.43999 1259.1239 2608.1655 1448213
218.04761 1254.2528 2598.0754 1448214
233.62842 1255.2532 2600.1477 1514266
249.75755 1258.8936 2607.6882 1514266
264.15613 1253.895 2597.3342 1514266
279.86862 1255.3403 2600.3281 1382937
295.54816 1256.4948 2602.7195 1251864
310.90277 1256.2219 2602.1543 1252890
325.54572 1253.2352 2595.9675 1254173
340.66479 1252.2679 2593.9641 1715240
356.54993 1254.079 2597.7153 1584424
369.20139 1244.8369 2578.5713 1714983
387.83636 1255.7024 2601.0781 1648162
402.02063 1251.8779 2593.156 1318426
418.44714 1255.0603 2599.748 1185556
434.40863 1256.6715 2603.0854 1317141
449.09818 1254.6188 2598.8335 1513750
465.18637 1256.48 2602.6887 1382164
477.77966 1249.0846 2587.3701 1382164
494.46475 1252.5143 2594.4741 1316371
507.44833 1246.6434 2582.3132 1382164
522.31439 1245.6055 2580.1633 1447957
537.72052 1245.8782 2580.728 1644566
553.52588 1247.0349 2583.1243 1513237
569.41876 1248.3215 2585.7893 1513237
584.72253 1248.283 2585.7095 1513237
599.75586 1247.6837 2584.468 1578773
614.06671 1245.6488 2580.2529 1578773
626.22113 1239.4447 2567.4016 1710359
641.6767 1239.9136 2568.3728 1710359
656.53064 1239.2251 2566.947 1776409
675.15741 1245.528 2580.0027 1710616
687.26727 1239.7957 2568.1287 1579030
701.79669 1238.5818 2565.6143 1512980
717.30493 1239.1104 2566.7092 1644566
731.01764 1236.5796 2561.4668 1644566
746.17786 1236.5505 2561.4067 1644566
760.23315 1234.7281 2557.6318 1578773
774.86725 1233.8987 2555.9136 1512980
790.49493 1234.653 2557.4761 1512980
804.63391 1233.0972 2554.2534 1512980
819.14771 1232.163 2552.3181 1644566
833.01971 1230.3145 2548.4893 1644566
846.31085 1227.6893 2543.0515 1710359
859.69098 1225.2827 2538.0664 1776152
873.5567 1223.6392 2534.6619 1644566
887.06244 1221.5554 2530.3457 1776152
904.74792 1225.2012 2537.8975 1578773
921.21283 1227.1018 2541.8345 1578773
927.86169 1216.0762 2518.9958 1249808
946.11536 1220.3683 2527.8867 1249808
960.00763 1218.9888 2525.0291 1315601
976.19751 1220.5242 2528.2095 1512980
993.88269 1223.8546 2535.1082 1578773
1003.8978 1217.7815 2522.5283 1710359
1024.4576 1224.4902 2536.4248 1710359
1037.0199 1221.5841 2530.405 1644566
1052.1013 1221.686 2530.6162 1644566
1059.1359 1212.5725 2511.7383 1578773
1075.9573 1214.7609 2516.2712 1578773
1089.6182 1213.37 2513.3901 1644566
1109.196 1218.5168 2524.0515 1512980
1122.8678 1217.1248 2521.1677 1512980
1139.3944 1218.823 2524.6855 1578773
1154.9519 1219.4542 2525.9932 1447187
1169.8593 1219.3914 2525.863 1447187
1184.084 1218.6277 2524.2812 1447187
1197.8466 1217.4133 2521.7656 1447187
1214.8483 1219.4805 2526.0476 1381394
1226.6565 1216.3474 2519.5579 1381394
1234.7952 1209.6948 2505.7773 1578773
1246.9646 1207.1022 2500.407 1447187
1261.5249 1206.8575 2499.9004 1447187
1277.7874 1208.2281 2502.7395 1315601
1293.0444 1208.6274 2503.5667 1249808
1301.2345 1202.4873 2490.8477 1249808
1313.9608 1200.6296 2486.9998 1381394
1323.7693 1196.1765 2477.7756 1447187
1338.5129 1196.2319 2477.8901 1512980
1350.953 1194.2496 2473.7839 1381394
1367.8159 1196.1776 2477.7778 1315601
1381.6018 1195.4025 2476.1721 1381394
1393.8844 1193.3566 2471.9341 1381394
1406.4392 1191.5837 2468.262 1512980
1430.799 1199.7461 2485.1697 1447187
1442.7462 1197.4402 2480.3931 1381394
1455.4949 1195.8392 2477.0767 1710359
1470.764 1196.3202 2478.0732 1644566
1484.1726 1195.2935 2475.9463 1512980
1494.6246 1191.929 2468.9771 1447187
1506.0208 1189.3754 2463.6873 1512980
1523.304 1191.4752 2468.0371 1644566
1529.723 1185.1185 2454.8699 1776152
1552.8462 1191.7009 2468.5046 1776152
1555.4259 1182.5417 2449.5322 1776152
1564.8104 1178.6777 2441.5283 1973531
1591.0405 1187.4569 2459.7136 1841945
1634.5204 1208.8341 2503.9946 1841945
1650.6407 1209.7745 2505.9426 1776152
1621.6464 1177.9279 2439.9751 1841945
1635.4751 1177.475 2439.0369 1710359
1641.3881 1171.381 2426.4136 1776152
1671.0601 1182.2012 2448.8267 1578773
1692.3452 1186.9529 2458.6694 1447187
1711.1381 1189.8901 2464.7539 1512980
1722.6595 1187.7644 2460.3506 1578773
1733.4718 1185.1893 2455.0164 1710359
1741.8278 1180.9918 2446.3215 1776152
1753.1793 1178.8776 2441.9424 1776152
1775.1096 1183.8535 2452.2493 1644566
1775.8989 1174.7635 2433.4204 1710359
1795.4412 1178.1254 2440.384 1776152
1809.3982 1177.7979 2439.7056 1644566
1811.3434 1169.7185 2422.97 1776152
1843.8206 1181.3279 2447.0178 1644566
1859.9723 1182.3782 2449.1934 1578773
1872.6877 1181.2449 2446.8457 1512980
1890.6655 1183.4224 2451.3564 1512980
1898.9557 1179.5496 2443.334 1512980
1914.4086 1180.1505 2444.5791 1513237
1934.7294 1183.7211 2451.9751 1447444
1951.1305 1184.8579 2454.3301 1381651
1968.9097 1186.8087 2458.3708 1447444
2008.9276 1202.0372 2489.9155 1315857
2010.7764 1194.3719 2474.0374 1118479
2024.3853 1193.7523 2472.7539 1118479
2029.5695 1188.2094 2461.2722 1184272
2045.9247 1189.2389 2463.4048 1118479
2043.8684 1179.6277 2443.4958 1118479
2071.783 1187.3276 2459.4458 1052686
2079.7268 1183.5549 2451.6311 1184272
2093.4395 1183.0947 2450.6777 1118479
2120.9165 1190.3661 2465.7397 1052686
2132.5762 1188.7214 2462.3328 921100
2147.0833 1188.6753 2462.2373 986636
2150.5598 1182.5642 2449.5789 986636
2161.4241 1180.5704 2445.4487 986636
2169.6963 1177.1968 2438.4604 1052429
2191.1736 1180.985 2446.3074 1052429
2196.0884 1175.8551 2435.6814 986636
2208.3594 1174.7054 2433.3 855050
2219.8625 1173.1648 2430.1086 789257
2236.8496 1174.5236 2432.9233 789257
2247.2107 1172.408 2428.541 723464
2260.5095 1171.8423 2427.3694 723464
2284.5962 1176.8408 2437.7231 789257
2307.0652 1180.9484 2446.2317 920843
2317.4851 1178.8755 2441.938 855048
2323.1162 1174.4073 2432.6826 723462
0 0 0 0
0 0 0 0
0 0 0 0
0 0 0 0
0 0 0 0
0 0 0 0
0 0 0 0
0 0 0 0
-2515.9146 1384.8186 2833.75 1841942
-2501.3203 1386.036 2836.241 1841943
-2485.519 1386.5963 2837.3877 1710358
-2473.8469 1389.4838 2843.2959 1710358
-2464.0691 1393.4818 2851.4773 1710359
-2433.6228 1385.7661 2835.6887 1578773
-2416.332 1385.4862 2835.116 1644566
-2385.6643 1377.4785 2818.7297 1381394
-2373.4758 1380.103 2824.1003 1447187
-2356.0615 1379.7047 2823.2852 1512981
-2343.5171 1382.1727 2828.3354 1578773
-2323.2705 1380.1011 2824.0962 1578773
-2293.5967 1372.3585 2808.2527 1710359
-2278.4023 1373.2297 2810.0356 1447187
-2265.4094 1375.4506 2814.5801 1184015
-2249.5076 1375.925 2815.5508 1512980
-2232.5083 1375.7303 2815.1523 1578773
-2209.5005 1371.8021 2807.1143 1578773
-2172.5847 1359.1139 2781.1504 1710359
-2158.1455 1360.4 2783.782 1579030
-2149.7664 1365.5552 2794.3311 1644566
-2129.2976 1363.0514 2789.2078 1644566
-2105.6252 1358.4418 2779.7751 1644309
-2088.8347 1358.2341 2779.3501 1513237
-2065.21 1353.5441 2769.7529 1644566
-2046.5063 1352.03 2766.6548 1710359
-2026.5348 1349.6471 2761.7786 1578773
-2014.3748 1352.4702 2767.5554 1578773
-1994.5961 1350.1824 2762.8738 1579030
-1976.2362 1348.8251 2760.0964 1513237
-1956.3585 1346.4005 2755.135 1381651
-1961.7966 1361.5044 2786.042 1381651
-1892.0337 1324.2317 2709.771 1381651
-1911.1549 1349.0632 2760.5837 1447444
-1905.8573 1356.9377 2776.6973 1447444
-1889.5054 1357.0104 2776.8459 1447444
-1854.7917 1343.7814 2749.7754 1381651
-1848.6279 1351.1853 2764.926 1381651
-1834.5543 1352.8885 2768.4114 1250065
-1811.8284 1348.1843 2758.7852 1447444
-1801.0127 1352.3375 2767.2839 1447444
-1786.9437 1354.1019 2770.8943 1447444
-1769.1777 1353.0714 2768.7856 1644823
-1757.1371 1356.4415 2775.6819 1315858
-1743.4434 1358.5869 2780.072 1250065
-1718.5299 1351.9473 2766.4851 1447444
-1696.8892 1347.7786 2757.9548 1447444
-1684.1967 1350.7056 2763.9443 1513237
-1663.5122 1347.2174 2756.8066 1513237
-1652.8451 1351.8531 2766.2927 1513237
-1639.1552 1354.0848 2770.8594 1579030
-1621.261 1352.8534 2768.3396 1579030
-1604.9119 1352.8994 2768.4336 1710616
-1589.4808 1353.728 2770.1294 1710616
-1569.6003 1350.745 2764.0251 1644823
-1555.1938 1352.4595 2767.5334 1710616
-1534.8521 1348.994 2760.4419 1447444
-1520.5842 1350.8496 2764.2393 1579030
-1506.978 1353.34 2769.3352 1710616
-1487.9825 1350.9921 2764.5305 1710616
-1476.0757 1355.0995 2772.9355 1710616
-1459.1268 1354.6184 2771.9512 1842202
-1444.462 1356.271 2775.333 1579030
-1429.762 1357.9283 2778.7244 1579030
-1409.3776 1354.1625 2771.0183 1513237
-1392.8928 1354.0991 2770.8884 1579030
-1373.4275 1351.1017 2764.7551 1579030
-1358.6891 1352.7384 2768.1042 1513237
-1339.5277 1349.9579 2762.4143 1447444
-1316.6707 1343.3376 2748.8674 1644823
-1303.6642 1346.7278 2755.8047 1250065
-1288.637 1348.09 2758.592 1513237
-1272.6635 1348.4843 2759.3989 1513237
-1252.954 1344.8789 2752.0215 1644823
-1232.0786 1339.9105 2741.8545 1644823
-1211.7712 1335.4354 2732.6973 1644823
-1191.7499 1331.1584 2723.9451 1644823
-1177.3708 1333.153 2728.0266 1644823
-1159.2531 1330.9105 2723.438 1579030
-1141.8678 1329.4578 2720.4651 1579030
-1127.0271 1330.9684 2723.5564 1579030
-1107.7902 1327.2557 2715.959 1644823
-1092.3586 1328.0601 2717.605 1710616
-1076.7462 1328.6653 2718.8435 1710616
-1054.7708 1321.318 2703.8086 1776409
-1036.6617 1318.6622 2698.3743 1776409
-1019.5552 1317.2183 2695.4194 1842202
-1003.401 1316.9785 2694.9287 1710616
-987.7392 1317.3875 2695.7656 1644823
-969.42975 1314.2207 2689.2856 1776409
-952.91113 1313.4165 2687.6399 1710616
-936.8606 1313.241 2687.2808 1710616
-924.70605 1318.615 2698.2776 1644823
-906.95502 1316.0573 2693.0437 1842202
-891.80328 1317.2474 2695.479 1842202
-874.73651 1315.6005 2692.1089 1842202
-856.7373 1312.464 2685.6909 1907995
-840.39722 1311.7986 2684.3291 1973788
-824.67719 1312.0941 2684.9338 1907995
-810.06433 1314.1974 2689.2378 1907995
-792.44293 1311.4061 2683.5261 1907995
-777.745 1313.4379 2687.6836 1644823
-759.56189 1309.5458 2679.7192 1644823
-742.3017 1307.1125 2674.7402 1513237
-726.19086 1306.6412 2673.7756 1513237
-708.25769 1302.797 2665.9092 1513237
-690.97406 1299.9993 2660.1841 1513237
-672.19635 1294.1942 2648.3054 1513237
-654.66705 1290.5729 2640.895 1513237
-638.04675 1288.61 2636.8784 1513237
-621.0882 1285.8481 2631.2268 1579030
-604.54431 1283.8247 2627.0864 1644823
-589.32385 1284.5791 2628.6301 1579030
-572.43579 1281.6406 2622.6172 1579030
-556.10394 1279.8185 2618.8884 1710616
-540.65625 1279.9847 2619.2288 1579030
-525.60352 1281.1239 2621.5596 1512980
-510.58575 1282.4199 2624.2117 1447444
-493.89337 1279.4592 2618.1533 1447444
-477.88812 1278.1444 2615.4626 1513237
-461.15396 1274.7264 2608.4685 1579030
-444.77795 1272.0957 2603.0852 1644823
-429.05573 1271.2131 2601.2793 1579030
-411.82953 1265.6426 2589.8804 1513237
-397.5007 1268.8899 2596.5254 1447444
-380.52933 1263.6235 2585.7488 1578773
-365.81372 1265.7203 2590.0393 1776152
-351.61151 1269.8549 2598.4998 1644566
-337.90628 1276.2451 2611.5762 1710359
-322.86469 1277.959 2615.0835 1710359
-307.01285 1276.4772 2612.0513 1512980
-289.94135 1269.4978 2597.769 1578773
-274.6662 1270.0419 2598.8826 1644566
-259.2836 1270.1244 2599.0513 1710359
-243.63548 1268.8342 2596.4114 1512980
-228.27917 1268.9926 2596.7354 1710359
-211.86801 1262.8861 2584.2397 1776152
-196.31573 1261.3464 2581.0891 1578773
-181.15382 1262.2668 2582.9724 1512980
-166.44182 1266.7811 2592.2102 1578773
-150.95882 1265.7489 2590.0979 1578773
-134.41058 1254.5404 2567.1621 1710359
-118.78616 1250.1943 2558.2686 1644566
-103.93717 1253.9314 2565.9158 1710359
-89.102592 1259.1531 2576.6008 1841945
-73.989838 1261.7903 2581.9973 1776152
-58.48465 1257.3655 2572.9429 1841945
-43.256142 1257.866 2573.967 1776152
-27.914463 1253.8282 2565.7046 1710359
-12.752161 1257.8259 2573.885 1644566
2.4936159 1255.0449 2568.1943 1644566
17.746138 1257.5209 2573.2607 1841945
33.077118 1260.6986 2579.7634 1776152
48.122288 1254.4174 2566.9102 1776409
63.26144 1253.0145 2564.0396 1776409
78.32299 1250.9156 2559.7446 1644823
93.834816 1255.5226 2569.1719 1644823
109.07457 1255.7113 2569.5579 1579030
124.16412 1254.3362 2566.7439 1513237
139.22932 1253.0421 2564.0959 1513237
