# .PCD v0.7 - Point Cloud Data file format
VERSION 0.7
FIELDS x y z rgb
SIZE 4 4 4 4
TYPE F F F U
COUNT 1 1 1 1
WIDTH 1284
HEIGHT 1
VIEWPOINT 0 0 0 1 0 0 0
POINTS 1284
DATA ascii
1703.2826 1169.8901 2453.4387 2763047
1700.2513 1157.9252 2428.3467 2368288
1736.4226 1172.6351 2459.1956 2236702
1735.6273 1162.3439 2437.6133 2105117
1768.25 1174.4176 2462.9338 1973531
1761.2374 1160.1848 2433.0854 2170910
1783.7921 1165.5018 2444.2361 2170910
1809.5836 1172.8311 2459.6064 2039324
1805.5791 1160.8861 2434.5559 2697254
1823.5277 1163.1331 2439.2683 2697254
1837.4032 1162.7672 2438.501 2368289
1866.7605 1172.1281 2458.1321 2368289
1875.6473 1168.5902 2450.7126 2170910
1959.821 1211.6523 2541.0205 2302496
1921.9185 1179.1602 2472.8796 2368288
1931.8007 1176.2554 2466.7878 2368289
1953.3909 1180.4696 2475.6257 2499875
1971.0074 1182.2375 2479.3333 2236703
1979.7927 1178.7214 2471.9595 2368288
2006.6854 1185.9584 2487.1365 2236960
2022.0786 1186.3433 2487.9436 2039322
2034.3955 1184.9308 2484.9814 2170908
2031.1288 1174.5271 2463.1633 2499360
2066.5488 1186.4834 2488.2373 2630946
2081.5508 1186.6305 2488.5461 2630946
2100.3137 1188.9047 2493.3152 2433569
2113.3179 1187.9099 2491.229 2302750
2125.1526 1186.276 2487.8027 2105115
2133.6162 1182.796 2480.5044 2104859
2121.3472 1167.9487 2449.3674 2039066
2136.0527 1168.0537 2449.5876 2104602
2148.8064 1167.0973 2447.5818 2235930
2211.9368 1193.3315 2502.5991 2631201
2212.1152 1185.4802 2486.1338 2696737
2228.6772 1186.455 2488.1777 2763045
2225.4292 1176.9399 2468.2234 3092267
2240.4241 1177.134 2468.6306 3026217
2241.4292 1170.0232 2453.718 2828581
2275.8672 1180.3434 2475.3608 2565666
2290.6589 1180.4075 2475.4954 2630948
2309.4988 1182.5433 2479.9746 2630691
2330.6357 1185.821 2486.8486 2762277
2348.0796 1187.1904 2489.7202 2762277
2364.5032 1188.0299 2491.481 2762277
2373.0059 1184.9041 2484.9253 2564641
0 0 0 0
0 0 0 0
0 0 0 0
0 0 0 0
0 0 0 0
0 0 0 0
0 0 0 0
0 0 0 0
0 0 0 0
-2108.9678 1154.4552 2391.3535 3486767
-2091.4209 1152.594 2387.498 3355181
-2067.0583 1146.9258 2375.7568 3420974
-2065.0801 1153.6851 2389.7581 3618353
-2055.917 1156.4962 2395.5811 3684147
-2050.2095 1161.3036 2405.5393 3618354
-2038.8113 1162.9324 2408.9131 3552561
-2019.5763 1160.0826 2403.01 3486768
-1999.8265 1156.8945 2396.4062 3486768
-1990.9977 1160.0237 2402.8882 3355182
-1965.1157 1153.1907 2388.7341 3289388
-1965.9764 1162.0659 2407.1182 3223596
-1951.8914 1162.1719 2407.3379 3157802
-1919.7017 1151.4204 2385.0671 3552560
-1907.8022 1152.7699 2387.8623 3552560
-1903.9021 1159.0088 2400.7859 3552560
-1880.0714 1153.1178 2388.583 3552560
-1870.8467 1156.1636 2394.8921 3420974
-1853.8607 1154.423 2391.2866 3420976
-1825.301 1145.3929 2372.5815 3618354
-1809.4373 1144.2512 2370.2168 3486767
-1796.1481 1144.7325 2371.2139 3355181
-1783.4205 1145.5823 2372.9739 3486767
-1770.6423 1146.4127 2374.6941 3289645
-1789.5695 1167.9487 2419.304 3421230
-1758.0549 1156.6464 2395.8921 3487281
-1743.9335 1156.6962 2395.9954 3552561
-1726.3502 1154.4319 2391.3052 3486767
-1710.7906 1153.4946 2389.3635 3355182
-1701.0935 1156.5273 2395.6458 3289389
-1674.1421 1147.7817 2377.53 3749685
-1670.5118 1155.0122 2392.5073 3289649
-1660.719 1158.0692 2398.8394 3026731
-1644.9269 1156.9592 2396.5403 3026730
-1630.8719 1157.0625 2396.7542 2895144
-1615.4008 1156.1539 2394.8723 2829351
-1599.661 1155.0354 2392.5552 3026986
-1570.5178 1144.1323 2369.9705 2566178
-1567.7723 1152.437 2387.1729 2763301
-1558.157 1155.7968 2394.1323 2763302
-1538.48 1151.6864 2385.6182 2829353
-1532.173 1157.6013 2397.8704 2763304
-1510.8928 1152.2084 2386.6992 2697511
-1509.2433 1161.8252 2406.6199 2631718
-1490.7097 1158.5042 2399.7405 2500132
-1479.0468 1160.5101 2403.8955 2368546
-1465.8511 1161.3407 2405.616 2434339
-1448.9886 1159.254 2401.2937 2434339
-1428.4963 1154.1931 2390.8105 2829097
-1415.7605 1155.3606 2393.2288 2697511
-1407.198 1159.9919 2402.8223 2894890
-1386.0957 1154.2754 2390.981 2829097
-1365.3889 1148.7737 2379.5845 2960683
-1350.9323 1148.4703 2378.9563 2500132
-1337.6282 1149.151 2380.3662 2565925
-1320.7191 1146.7161 2375.3225 2763304
-1302.7212 1143.2729 2368.1904 2894890
-1289.8201 1144.2767 2370.2695 3158062
-1269.0015 1138.201 2357.6843 3223855
-1269.8082 1151.6025 2385.4443 3092269
-1250.256 1146.634 2375.1526 2500132
-1235.6643 1146.1536 2374.1572 2302753
-1222.2524 1146.769 2375.4321 1907995
-1205.5149 1144.2422 2370.198 1842202
-1196.505 1149.0771 2380.2131 1907995
-1188.1974 1154.71 2391.8811 1710616
-1174.7399 1155.4135 2393.3381 2105374
-1158.9768 1153.8389 2390.0767 2039581
-1148.0043 1157.0536 2396.7358 1973788
-1139.603 1162.973 2408.9973 2171167
-1124.1423 1161.7468 2406.4573 1973788
-1108.7283 1160.5381 2403.9536 1315858
-1099.3467 1165.6943 2414.6343 1052686
-1080.5774 1160.901 2404.7053 1447444
-1049.9451 1143.0645 2367.7585 1513237
-1054.6478 1163.7347 2410.5752 1579030
-1041.6028 1165.1204 2413.4453 2171167
-1020.3829 1157.2728 2397.1897 1250065
-1003.2161 1153.8654 2390.1316 1710616
-994.18683 1159.854 2402.5366 1907995
-979.16718 1158.9264 2400.6152 1579030
-968.21979 1162.8625 2408.7686 1447444
-953.28821 1162.0597 2407.1055 1447444
-936.5498 1158.9963 2400.76 1381651
-921.3728 1157.8007 2398.2832 1447444
-911.57422 1163.432 2409.948 2171167
-905.58832 1174.1859 2432.2239 2171167
-883.63257 1164.2465 2411.635 1513237
-867.83673 1162.2296 2407.4575 1118478
-852.9314 1161.3579 2405.6519 1118479
-837.21191 1159.3293 2401.4497 1250065
-823.15033 1159.5659 2401.9397 1513237
-808.16266 1158.4833 2399.6973 1447444
-793.40369 1157.6956 2398.0657 1513237
-777.85413 1155.7046 2393.9414 1579030
-760.12988 1150.3486 2382.8469 921100
-752.83905 1160.8781 2404.658 789514
-738.06879 1160.0582 2402.9595 1184271
-719.21008 1152.6534 2387.6213 1447444
-711.81793 1163.6975 2410.498 1184272
-698.83276 1165.863 2414.9836 1381651
-681.48914 1160.6957 2404.28 1447444
-671.66193 1168.3831 2420.2036 1907995
-656.87366 1167.5874 2418.5557 1973788
-644.4939 1171.1328 2425.8997 1776409
-625.57007 1162.6774 2408.385 1710616
-611.26099 1162.6044 2408.2336 1644823
-596.98889 1162.5997 2408.2241 1776152
-581.70068 1160.5676 2404.0146 1842202
-567.57947 1160.8204 2404.5383 1973788
-550.26416 1154.3853 2391.2085 2105374
-532.35052 1146.3215 2374.5051 1644823
-519.39569 1148.7878 2379.614 1973788
-502.2811 1141.9346 2365.418 2565925
-487.41974 1139.9575 2361.3228 2039581
-474.16364 1141.729 2364.9922 1776152
-465.30225 1154.5126 2391.4722 1578773
-447.65247 1145.6084 2373.0278 1644566
-433.01413 1144.0833 2369.8689 2105117
-423.77036 1157.187 2397.012 2368289
-406.51852 1148.5735 2379.1699 2499875
-391.84476 1146.8871 2375.6765 2236703
-377.4339 1145.8729 2373.5759 1841945
-365.39978 1152.2753 2386.8379 1644566
-350.0817 1148.4204 2378.8528 1644566
-336.71521 1150.9128 2384.0156 1578773
-322.27078 1149.7777 2381.6643 1578773
-309.12918 1153.3994 2389.1665 1907738
-294.5661 1151.8108 2385.8757 1776152
-281.0101 1154.1982 2390.821 1512723
-267.01526 1154.9409 2392.3596 1644566
-253.12741 1156.2559 2395.0833 1578773
-238.30556 1153.207 2388.7678 1578773
-223.14166 1148.0135 2378.01 1907738
-210.37941 1155.3086 2393.1211 2170910
-196.35524 1156.2273 2395.0242 2105117
-181.57402 1152.4841 2387.2705 2302753
-168.39432 1159.1323 2401.0417 2697511
-153.70129 1155.6295 2393.7859 2631718
-139.44342 1155.0187 2392.5208 2631718
-125.32417 1155.548 2393.6169 2763304
-114.5032 1190.5049 2466.0273 2894890
-96.696381 1152.4314 2387.1611 3026476
-82.568893 1152.6743 2387.6643 2960683
-68.352081 1151.5128 2385.2585 2829097
-54.202518 1151.1742 2384.5569 2894890
-40.067001 1151 2384.1963 2697511
-25.951933 1151.5437 2385.3225 2763304
-11.848631 1154.5343 2391.5173 2500132
2.330142 1158.548 2399.8313 2565925
16.57004 1159.9434 2402.7217 2500132
31.364788 1180.9402 2446.2148 2697768
45.929504 1182.7406 2449.9441 2763047
60.33419 1180.5448 2445.3958 2631461
74.915146 1181.9806 2448.3699 2697254
89.07576 1177.3945 2438.8701 2631461
103.47906 1176.8489 2437.7397 2565668
117.62606 1173.879 2431.5881 2434082
130.86075 1163.4462 2409.9773 2828840
146.58699 1175.0386 2433.99 2894633
160.36597 1170.3431 2424.2639 2828840
174.82159 1170.9519 2425.5249 2631461
187.7251 1161.8618 2406.6956 2236703
203.6071 1171.1882 2426.0144 2499875
216.33217 1162.3228 2407.6504 2499875
231.13565 1165.0305 2413.2593 2631461
249.28644 1183.3115 2451.127 2170910
258.11575 1157.7688 2398.217 2631461
273.03909 1160.7997 2404.4954 2499875
288.07452 1163.983 2411.0894 2499875
301.01694 1158.8081 2400.3701 2697254
315.37729 1159.3124 2401.4146 2697254
331.54895 1166.1439 2415.5657 2499875
343.33609 1157.6268 2397.9231 2631461
357.96634 1158.9919 2400.7507 2828840
371.54425 1156.9756 2396.5742 2434082
386.56525 1159.436 2401.6707 2302496
401.89389 1162.6117 2408.2488 2302496
418.17618 1168.2338 2419.8945 2631461
430.8988 1163.8683 2410.8518 2565668
445.12186 1163.7057 2410.5149 2828840
461.65649 1169.4087 2422.3281 2828840
476.05496 1169.5195 2422.5579 2828840
491.39206 1171.8625 2427.4114 2763047
503.47113 1166.5237 2416.3521 2828840
517.87323 1166.7133 2416.7449 2697511
531.96509 1166.2128 2415.7083 2631718
546.32361 1166.3077 2415.9048 2565925
558.68927 1162.2521 2407.5039 2368546
572.11322 1160.545 2403.968 2039581
586.44586 1160.7196 2404.3296 2171167
604.75787 1168.5752 2420.6018 2565925
616.20612 1163.1112 2409.2834 2565925
634.28418 1170.1252 2423.8125 2302753
645.86359 1165.1055 2413.4146 2171167
657.27765 1160.0115 2402.8625 2302753
668.00586 1153.9485 2390.304 2236960
690.98712 1168.8644 2421.2009 2105374
699.09454 1158.5251 2399.7839 2039581
716.78497 1164.162 2411.4602 2236960
727.23914 1158.0557 2398.8115 2368546
741.66589 1158.3881 2399.5 2368546
760.58691 1165.5955 2414.4294 2368546
769.88678 1158.0646 2398.8298 2302753
786.97241 1162.3057 2407.615 2368546
794.77924 1152.9355 2388.2056 2171167
813.62299 1159.6239 2402.0601 2236959
827.53381 1159.1724 2401.1245 2171167
840.87872 1157.9568 2398.6067 2171167
851.10156 1152.5538 2387.4148 2039581
865.82715 1153.3253 2389.0129 1907995
884.25897 1158.9294 2400.6213 1710616
892.61066 1151.354 2384.9297 1710616
907.52869 1152.3525 2386.998 1644566
920.15332 1150.453 2383.0632 2170910
948.14276 1167.5309 2418.4387 2039324
950.84485 1153.4254 2389.2202 1578773
964.64813 1153.0026 2388.3445 1644566
979.40167 1153.7112 2389.8123 2236703
991.7511 1151.6082 2385.4561 2302496
997.86884 1142.4297 2366.4436 2434082
1011.5485 1142.0431 2365.6428 2499875
1022.444 1138.5667 2358.4417 2499874
1038.3058 1140.6396 2362.7356 2499872
1050.3258 1138.4933 2358.2896 2236701
1065.9266 1140.2338 2361.895 2039322
1077.8281 1138.0231 2357.3157 1447185
1097.0415 1143.4906 2368.6411 2105117
1112.0951 1144.5387 2370.8123 2565668
1129.4498 1147.8994 2377.7737 2763047
1145.1571 1149.5236 2381.1379 2434082
1170.1995 1160.3649 2403.5947 2368289
1175.9557 1152.0514 2386.374 1973531
1184.33 1146.4696 2374.812 1841945
1201.6281 1149.5563 2381.2056 1710360
1218.2983 1151.9775 2386.2212 2170910
1220.3394 1140.6691 2362.7966 2236702
1240.3816 1146.2523 2374.3618 1907737
1253.2954 1145.1967 2372.1753 2894632
1267.1735 1145.0359 2371.842 1973531
1281.0768 1144.9012 2371.563 1907738
1299.2324 1148.5283 2379.0764 1973531
1313.5544 1148.7252 2379.4841 1776152
1323.1917 1144.8643 2371.4866 2039324
1347.5302 1153.671 2389.729 2105117
1359.1562 1151.524 2385.2817 2105117
1375.5234 1153.3969 2389.1611 2170909
1388.1947 1152.1638 2386.6072 1973531
1418.9053 1165.7771 2414.8057 2105117
1471.3333 1196.7832 2479.0322 1973531
1433.7196 1154.6606 2391.7788 2302496
1450.095 1156.4176 2395.4182 2434082
1478.2302 1167.4277 2418.2249 2368289
1471.8887 1151.26 2384.7349 2236703
1490.5172 1154.7448 2391.9531 2236703
1513.8396 1161.7661 2406.4973 2302495
1527.4313 1161.2583 2405.4456 2170910
1540.3723 1160.27 2403.3982 2302493
1554.5526 1160.2246 2403.3042 2630945
1582.594 1170.4313 2424.4463 4078647
1600.1285 1172.7537 2429.2571 3684148
1607.9628 1167.9884 2419.3862 2499875
1632.3514 1175.2262 2434.3787 2697254
1642.5852 1172.2351 2428.1831 2894633
1653.2167 1169.5778 2422.6785 2697254
1665.9563 1168.4446 2420.3311 2565668
1679.0983 1167.6104 2418.6033 2368289
1703.8475 1174.7936 2433.4827 2565668
1716.9354 1173.8833 2431.5969 2368289
1731.9315 1174.2819 2432.4226 2434082
1743.2961 1172.2321 2428.1765 2302496
1760.193 1173.9053 2431.6426 2236703
1749.3492 1157.2008 2397.0408 1776152
1783.4156 1170.2345 2424.0388 2170910
1788.0101 1163.8755 2410.8667 2105117
1790.8738 1156.4998 2395.5884 2236446
1813.6263 1161.9827 2406.9458 2565668
1850.3071 1176.2341 2436.4666 2499875
1845.1633 1163.8831 2410.8823 2631461
1886.2372 1180.6506 2445.615 2368289
1895.9174 1177.6622 2439.4248 2368289
1884.8352 1161.9199 2406.8159 2763047
1900.3851 1162.7084 2408.449 2828840
1920.2147 1166.0839 2415.4412 1907738
1931.8778 1164.4868 2412.1331 1841945
1946.6165 1164.7535 2412.6855 2105117
1972.2307 1171.4764 2426.6113 2433824
2012.7362 1186.8829 2458.5247 2170395
2028.8397 1187.7821 2460.3872 2367517
2051.0256 1192.204 2469.5466 2631459
2064.105 1191.3073 2467.6892 2631459
2172.7393 1245.1851 2579.2925 2565666
2051.7766 1167.6487 2418.6826 2499873
2115.5569 1195.5942 2476.5693 2434080
2087.032 1171.3485 2426.3464 2499873
2130.7385 1187.697 2460.2109 2565666
2112.5774 1169.5721 2422.6667 2302750
2130.7012 1171.6444 2426.9592 2301724
2142.3865 1170.1722 2423.9097 1973015
2150.0247 1166.5237 2416.3521 1775636
2182.4575 1176.2872 2436.5764 2368287
2180.563 1167.5424 2418.4622 2960424
2201.2493 1170.9232 2425.4656 3420975
2217.823 1172.0869 2427.876 3355183
2220.7905 1166.0913 2415.4565 2828581
2244.3076 1170.8934 2425.4038 2894375
2257.3701 1170.2147 2423.998 2696483
2284.7954 1176.9435 2437.9358 2827811
2300.9331 1177.8094 2439.7297 2959656
2313.9385 1177.0714 2438.2009 2959656
2323.6697 1174.6871 2433.2622 2696741
0 0 0 0
0 0 0 0
0 0 0 0
0 0 0 0
0 0 0 0
0 0 0 0
0 0 0 0
0 0 0 0
0 0 0 0
0 0 0 0
-2057.8367 1148.0054 2349.1597 3684146
-2056.1553 1154.8792 2363.2256 3684146
-2043.7333 1155.7733 2365.0552 3684147
-2029.6619 1155.7406 2364.9883 3749940
-2017.05 1156.5443 2366.6328 3749940
-2004.2991 1157.2789 2368.136 3684147
-1990.6172 1157.4825 2368.5527 3552817
-1975.1196 1156.6259 2366.7998 3355695
-1953.4207 1152.0995 2357.5374 3355695
-1947.8888 1157.1116 2367.7937 3289645
-1923.9611 1151.1893 2355.675 3749939
-1910.0848 1151.2389 2355.7764 3618353
-1888.6512 1146.7007 2346.4897 3552560
-1876.9165 1148.0275 2349.2048 3684146
-1877.0326 1156.6768 2366.9041 3684147
-1862.5834 1156.4133 2366.3647 3684147
-1838.5897 1150.1752 2353.5996 3487281
-1830.3989 1153.8029 2361.0232 3487025
-1812.0143 1151.0115 2355.311 3552560
-1800.1476 1152.349 2358.0479 3420975
-1773.626 1144.2529 2341.481 3289389
-1768.4137 1149.8851 2353.0063 3092010
-1736.8872 1138.3606 2329.4236 3223596
-1729.2223 1142.4155 2337.7212 2960424
-1721.6511 1146.5985 2346.2808 2960424
-1716.5863 1152.5322 2358.4229 3289390
-1694.6539 1147.1455 2347.4001 3092010
-1677.6699 1145.0469 2343.1057 3157804
-1677.0242 1154.1577 2361.749 3289392
-1651.2755 1146.0001 2345.0562 3223598
-1648.0334 1153.4563 2360.3137 3487027
-1626.2045 1147.9198 2348.9846 2631718
-1615.8035 1150.4244 2354.1096 2434340
-1610.5686 1156.6826 2366.916 2828841
-1590.7715 1152.5007 2358.3586 3026476
-1577.0245 1152.6669 2358.6985 2697511
-1554.6978 1146.5089 2346.0974 2500132
-1541.0283 1146.6816 2346.4509 2500132
-1536.7202 1153.8867 2361.1946 2565926
-1525.302 1155.8363 2365.1841 2631718
-1512.5831 1156.8273 2367.2119 2697511
-1498.2887 1156.6206 2366.7891 2763304
-1481.2773 1154.2928 2362.0256 2697511
-1466.4115 1153.6085 2360.6252 2763304
-1454.3871 1155.1678 2363.8162 3092269
-1439.2396 1154.2528 2361.9438 2960683
-1423.3662 1152.7319 2358.8315 2697511
-1408.5028 1152.007 2357.3481 2697511
-1397.0948 1154.1219 2361.676 2631718
-1378.6339 1150.3945 2354.0486 2631718
-1368.1865 1153.3459 2360.0881 2631718
-1349.2252 1149.1073 2351.4146 2500132
-1336.606 1150.238 2353.7283 2500132
-1322.0238 1149.6854 2352.5977 2763304
-1309.9539 1151.3291 2355.9609 2829097
-1290.1735 1146.1584 2345.3804 2894890
-1272.1282 1142.4333 2337.7576 3750199
-1263.9993 1147.6296 2348.3909 3421234
-1252.1016 1149.4817 2352.1807 3289648
-1241.4583 1152.54 2358.439 2039581
-1223.6221 1148.9143 2351.0198 1973788
-1204.4381 1143.9252 2340.8103 1710616
-1194.6411 1147.8387 2348.8188 1644823
-1182.1285 1149.2048 2351.614 1776409
-1177.6102 1158.4677 2370.5686 2368546
-1157.8129 1152.7421 2358.8523 2039581
-1140.9301 1149.8137 2352.8601 1710616
-1127.3394 1150.1718 2353.5928 855307
-1114.2753 1151.0829 2355.457 460550
-1108.0022 1159.1213 2371.9062 1579030
-1089.6193 1154.535 2362.5212 1644823
-1070.0651 1148.572 2350.3193 1579030
-1058.0659 1150.6682 2354.6086 855307
-1044.853 1151.4828 2356.2754 1315858
-1033.3849 1154.2682 2361.9753 1447444
-1018.8969 1153.7107 2360.8345 1381651
-1013.3809 1163.4382 2380.74 1381651
-996.82404 1160.5857 2374.9028 1513237
-983.14087 1161.0452 2375.843 1315858
-967.48041 1159.149 2371.9629 1118479
-952.01251 1157.4312 2368.4475 1250065
-937.97845 1157.4312 2368.4475 1381651
-925.55579 1159.4496 2372.5779 1973788
-912.79126 1161.0956 2375.946 1973788
-898.30792 1160.5724 2374.8755 1842202
-881.9389 1157.5576 2368.7065 1776409
-865.96899 1154.9778 2363.4272 1118479
-851.30621 1154.085 2361.6003 986893
-839.82153 1157.5427 2368.676 1184272
-824.78375 1156.1377 2365.8008 1250065
-814.6701 1161.7057 2377.1946 1447444
-797.0553 1156.5848 2366.7158 1315858
-784.98853 1159.4755 2372.6309 1579030
-768.47217 1155.7793 2365.0674 1710616
-754.43317 1155.7408 2364.9888 986893
-743.914 1161.1954 2376.1504 1052686
-729.83441 1161.1954 2376.1504 1447444
-715.51331 1160.8037 2375.3489 1447444
-700.69806 1159.5784 2372.8416 1447444
-686.58441 1159.4879 2372.6565 1447444
-669.28375 1153.899 2361.2197 1381651
-656.84473 1156.6321 2366.8125 1710616
-645.61896 1161.6677 2377.1167 1710616
-631.25098 1161.1478 2376.053 1579030
-616.69208 1160.245 2374.2056 1644823
-602.91931 1160.8137 2375.3691 1776409
-586.77954 1156.7433 2367.04 1841945
-573.2688 1157.7833 2369.1682 1776409
-558.07495 1155.3909 2364.2725 2171167
-549.80975 1167.5892 2389.2339 2105374
-526.92456 1148.5642 2350.3032 1710616
-514.16675 1151.1808 2355.6575 1644823
-498.41019 1147.0421 2347.1885 1776409
-486.91766 1152.7606 2358.8904 1842202
-469.30472 1143.8993 2340.7573 1644823
-455.4819 1144.0177 2340.9995 1710359
-441.61057 1144.0177 2340.9995 1710359
-429.05963 1147.5491 2348.2261 1644566
-412.64053 1140.6251 2334.0574 1973531
-399.67667 1143.1028 2339.1277 1841945
-386.63593 1145.531 2344.0964 1578773
-373.63577 1148.2649 2349.6907 1512980
-362.2251 1156.2842 2366.1006 1512980
-346.26489 1149.8417 2352.9172 1512980
-336.92456 1165.7634 2385.4978 1579030
-322.26749 1163.8781 2381.6399 1710616
-309.31458 1168.2565 2390.5994 2105374
-290.87936 1151.3552 2356.0144 1841945
-277.64886 1154.3896 2362.2239 1907995
-263.12036 1152.0631 2357.4629 1776409
-249.78775 1155.0052 2363.4836 1710359
-235.2811 1152.5459 2358.4509 1841945
-220.80347 1149.927 2353.0918 2039324
-208.033 1156.4452 2366.4299 2105117
-196.98662 1174.1823 2402.7253 2368289
-183.15103 1176.7621 2408.0044 2302753
-165.63661 1154.144 2361.7212 2434339
-151.56683 1153.5684 2360.5432 2500132
-137.49142 1152.8285 2359.0291 2697511
-125.24339 1168.9772 2392.0742 2697511
-111.27599 1171.1515 2396.5237 2697511
-97.137733 1171.9009 2398.0569 2697511
-81.986916 1158.5979 2370.8352 2434339
-67.427391 1149.8772 2352.99 2500132
-53.548553 1151.244 2355.7869 2302753
-40.244316 1170.2837 2394.7476 2434339
-25.871729 1162.0752 2377.9507 2500132
-11.688025 1152.8635 2359.1008 2500132
2.3333383 1174.3766 2403.123 2500132
16.625324 1178.098 2410.7383 2500132
30.815804 1174.5111 2403.3982 2894890
44.996235 1172.9297 2400.1621 2960426
59.262794 1173.8137 2401.9712 2960426
73.618568 1175.7803 2405.9954 2960426
87.957787 1176.8872 2408.2603 2828840
101.71719 1171.01 2396.2339 2960426
115.98988 1171.7581 2397.7646 2697254
128.2298 1154.0481 2361.5249 2170910
142.53651 1156.5938 2366.7341 2368289
158.34204 1169.756 2393.668 2763047
172.58586 1170.1653 2394.5056 2565668
185.00101 1159.0555 2371.7717 2565668
199.14601 1159.5874 2372.8599 2368289
213.88258 1163.2662 2380.3879 2434082
228.92313 1168.041 2390.1584 2368289
242.06743 1163.1478 2380.1455 2434082
255.13441 1158.4423 2370.5166 2631461
270.07993 1162.3123 2378.4358 2565668
284.01736 1161.6753 2377.1323 2499875
299.31799 1166.4105 2386.822 2499875
311.74579 1160.0287 2373.7629 2828840
324.67535 1155.9843 2365.4868 2434082
339.22269 1157.7961 2369.1946 2828840
353.58411 1158.8546 2371.3606 2763047
368.10681 1160.3408 2374.4016 2894633
382.42783 1161.1051 2375.9656 2631461
395.95407 1159.4878 2372.656 2499875
409.94617 1159.2988 2372.2693 2499875
424.23914 1159.9448 2373.5913 2565668
438.2684 1159.8516 2373.4006 2763047
454.55695 1165.5574 2385.0764 2828840
469.57123 1167.7501 2389.5635 2894633
483.08887 1166.2017 2386.3945 2960426
496.84396 1165.2981 2384.5457 2960426
510.30276 1163.7688 2381.4163 2894890
524.2243 1163.3488 2380.5566 2763304
539.34583 1165.5437 2385.0483 2631718
550.90039 1160.1152 2373.9399 2500132
563.14172 1156.3672 2366.2705 2565925
581.42999 1164.9167 2383.7654 2500132
597.91534 1169.5341 2393.2139 2236960
609.62549 1164.8136 2383.5542 2500132
619.51904 1156.9143 2367.3899 2171167
634.59088 1158.8209 2371.2915 2171167
651.96655 1164.7609 2383.4463 2171167
664.30304 1161.6371 2377.0542 2105374
676.39905 1158.2312 2370.0847 2039581
690.68964 1158.6454 2370.9321 2039581
703.76147 1157.0393 2367.6458 2236960
721.15637 1162.4646 2378.7473 2236960
736.42065 1164.3132 2382.5303 2105374
750.88037 1164.8441 2383.6167 2105374
760.12817 1157.4196 2368.4238 2039580
772.23529 1154.5388 2362.5291 2236960
788.75671 1158.2429 2370.1089 2236960
804.65289 1160.9154 2375.5774 2236960
818.15808 1160.1057 2373.9207 2236960
830.63666 1157.8923 2369.3914 2171167
846.28125 1160.0924 2373.8933 2171166
860.82391 1160.7347 2375.2078 1973788
873.12976 1158.3889 2370.4075 2039581
880.73334 1149.9775 2353.1953 2105374
894.67706 1149.9775 2353.1953 1842202
910.81458 1152.7544 2358.8774 1973531
926.66345 1155.0872 2363.6511 1973531
935.57306 1148.8296 2350.8462 1973531
942.05194 1139.8146 2332.3989 2170653
969.27332 1155.7944 2365.0984 2170910
983.30585 1155.816 2365.1426 1907738
989.73712 1147.0277 2347.1592 2368289
994.03436 1136.0441 2324.6833 2499875
1011.6763 1140.4036 2333.604 2434082
1034.8478 1150.7943 2354.8667 2368289
1044.3866 1145.9503 2344.9543 2368289
1061.1171 1149.0209 2351.2375 2170910
1064.5156 1137.7627 2328.2 1644566
1083.6249 1143.3693 2339.6729 1841945
1103.8975 1150.0464 2353.3362 2170910
1127.1099 1159.5813 2372.8474 2434082
1139.8938 1158.2845 2370.1938 2499875
1158.1018 1162.4639 2378.7461 2565668
1162.3629 1152.7117 2358.7903 2434081
1171.8246 1148.2872 2349.7363 1776151
1184.9777 1147.5415 2348.2104 1907738
1198.2816 1146.9575 2347.0154 1710359
1210.1361 1145.0155 2343.0415 1776152
1223.1866 1144.2363 2341.447 1776152
1230.8839 1138.5229 2329.7559 2039324
1248.4852 1141.9958 2336.8623 1973531
1263.2681 1142.8425 2338.595 1841945
1278.4287 1144.009 2340.9819 1841945
1293.2086 1144.8135 2342.6279 1644566
1308.5493 1146.0918 2345.2439 1907738
1319.4358 1143.4833 2339.906 2039324
1335.2166 1145.1263 2343.2683 2170910
1353.3256 1148.7119 2350.6055 2302496
1369.3635 1150.4844 2354.2324 2631461
1382.8022 1150.0592 2353.3625 2697254
1394.718 1148.3888 2349.9443 2368289
1406.4244 1146.5806 2346.2441 2499875
1438.2229 1161.0275 2375.8066 2565668
1454.4062 1162.7109 2379.2515 2631461
1460.9449 1156.7256 2367.0039 2631461
1467.0707 1150.5304 2354.3267 2630948
1502.441 1167.1705 2388.3772 2368289
1499.3496 1153.8999 2361.2217 2236446
1513.7727 1154.2292 2361.8955 2368289
1544.8702 1167.1501 2388.3354 2434337
1561.4091 1168.9371 2391.9922 2499872
1583.6499 1174.9222 2404.2395 5986387
1586.7178 1166.703 2387.4207 4078390
1589.3225 1158.2915 2370.208 2894630
1611.2804 1164.0082 2381.9062 3289135
1631.254 1168.2047 2390.4934 3026219
1639.9969 1164.3553 2382.6167 2763047
1658.4955 1167.4391 2388.9268 2434082
1671.1879 1166.4178 2386.8372 2368289
1694.7664 1172.9482 2400.2002 2302496
1705.0042 1170.2136 2394.6042 2434082
1701.0717 1157.8788 2369.3635 2499875
1702.0237 1149.0433 2351.2837 1973530
1725.5557 1155.4716 2364.4377 2039324
1731.2266 1149.9324 2353.1028 2039324
1748.0646 1151.8398 2357.0061 1710359
1768.6266 1156.1515 2365.8291 1710359
1807.3705 1172.1874 2398.6433 1907738
1816.7902 1169.1029 2392.3315 2105117
1834.4368 1171.3193 2396.8669 2105117
1833.8422 1161.9438 2377.6819 2104860
1839.9152 1156.9037 2367.3682 1907738
1856.7196 1158.6365 2370.9141 1841945
1883.7837 1166.6974 2387.4092 2105117
1892.9512 1163.6368 2381.1462 2499875
1912.0621 1166.6887 2387.3914 1841945
1914.6335 1159.678 2373.0452 1579030
1935.0443 1163.4958 2380.8577 1512724
1942.9657 1159.8031 2373.3013 1776152
1958.6866 1160.7858 2375.3123 2170910
1973.4509 1161.1917 2376.1426 2499875
1987.5901 1161.2263 2376.2136 1973531
2006.3265 1163.9277 2381.7415 1841945
2027.0304 1167.7247 2389.5112 2565668
2050.4058 1172.9973 2400.3005 2434082
2117.5251 1203.0499 2461.7971 2565667
2105.9058 1188.2629 2431.5386 2302494
2094.8118 1173.9712 2402.2935 2302493
2132.5625 1187.061 2429.0791 2630432
2134.7126 1180.2919 2415.2273 2433823
2154.0828 1183.0703 2420.9128 2631203
2164.1797 1180.7527 2416.1704 2499359
2147.4973 1163.951 2381.7893 2368287
2151.9819 1158.7665 2371.1799 2631459
2158.1692 1154.5599 2362.5723 2960424
2191.6511 1164.9155 2383.7629 2697252
2208.9795 1166.6075 2387.2251 2631459
2224.0793 1167.1084 2388.25 3026217
2227.7271 1161.6313 2377.0425 2960424
2256.4951 1169.2396 2392.6113 2697252
2275.6433 1171.7993 2397.8491 2894631
2271.1218 1162.2146 2378.2361 3420975
0 0 0 0
0 0 0 0
0 0 0 0
0 0 0 0
0 0 0 0
0 0 0 0
0 0 0 0
0 0 0 0
0 0 0 0
0 0 0 0
-2048.4482 1156.6239 2338.4419 3815732
-2031.4957 1154.8638 2334.8833 3815732
-2017.0919 1154.5383 2334.2251 3749940
-2004.2708 1155.1204 2335.4021 3815733
-1993.6184 1156.9692 2339.1401 3881526
-1978.728 1156.3673 2337.9231 3815733
-1963.0411 1155.2881 2335.7412 3684147
-1952.4906 1157.2379 2339.6831 3749683
-1922.9454 1147.877 2320.7573 4210490
-1908.0891 1147.2126 2319.4143 4210490
-1902.9125 1152.4008 2329.9036 3815732
-1883.1832 1148.7871 2322.5977 3749939
-1857.8519 1141.6779 2308.2241 2960166
-1843.481 1141.2483 2307.3557 3355181
-1837.7933 1146.2281 2317.4238 3486768
-1828.4713 1148.9993 2323.0264 3289389
-1816.2622 1149.9843 2325.0178 3486768
-1795.615 1145.6008 2316.1555 3486768
-1788.1392 1149.618 2324.2773 3486768
-1759.6998 1140.1151 2305.0647 2894631
-1746.8108 1140.6174 2306.0803 2894631
-1739.4233 1144.7485 2314.4324 2960424
-1718.1976 1139.7655 2304.3579 3092010
-1703.8374 1139.2936 2303.4036 2894631
-1686.8306 1137.0298 2298.8269 3157804
-1688.6887 1147.5491 2320.0945 3223596
-1667.2971 1142.3118 2309.5059 3289390
-1656.6886 1144.437 2313.8025 3223598
-1644.7783 1145.6907 2316.3372 3289390
-1629.5135 1144.6093 2314.1509 3025963
-1613.3982 1142.9069 2310.709 2697511
-1602.8693 1145.1667 2315.2778 3026476
-1587.2977 1143.8318 2312.5789 3289647
-1578.6212 1147.4854 2319.9658 2960683
-1569.7953 1151.0938 2327.261 2697511
-1556.1178 1151.1769 2327.4292 2500132
-1539.5398 1149.0967 2323.2234 2302753
-1521.7188 1146.0427 2317.0491 2236960
-1499.6326 1139.6918 2304.2087 2631718
-1495.9894 1147.3693 2319.731 2829097
-1485.3052 1149.7388 2324.5215 2763304
-1469.5074 1148.1575 2321.3245 2960683
-1457.6241 1149.6334 2324.3086 2960683
-1443.166 1149.0875 2323.2048 2960683
-1429.5044 1149.1713 2323.3743 2565925
-1418.1925 1151.1642 2327.4033 2434339
-1404.8999 1151.5725 2328.229 2500132
-1393.0144 1153.1538 2331.426 2171167
-1376.7747 1151.1261 2327.3264 1842202
-1364.7344 1152.6041 2330.3147 2236960
-1336.08 1139.9373 2304.7051 2500132
-1322.6014 1140.0905 2305.0149 2105374
-1317.5199 1147.5608 2320.1182 2697511
-1298.5485 1142.9628 2310.822 3158062
-1290.3062 1147.8112 2320.6245 2763304
-1279.9366 1150.8514 2326.771 2960683
-1265.6986 1150.4414 2325.9421 3026476
-1251.9392 1150.4623 2325.9844 3026476
-1229.2081 1142.1475 2309.1736 2500132
-1217.4755 1143.9797 2312.8782 2171167
-1205.6473 1145.7632 2316.4839 1842202
-1192.3052 1146.1323 2317.23 1644823
-1176.1903 1143.8136 2312.5422 1907995
-1166.288 1147.5529 2320.1021 2302753
-1154.9308 1149.9329 2324.9141 2236960
-1139.5405 1148.3064 2321.6255 2302753
-1121.574 1144.0122 2312.9436 1973788
-1114.0361 1150.3805 2325.8191 921101
-1101.0088 1151.1689 2327.4131 1315858
-1087.9901 1151.9866 2329.0662 1315858
-1073.6542 1151.4126 2327.9055 1184272
-1055.5565 1146.7368 2318.4524 1052686
-1042.5139 1147.502 2319.9993 1052686
-1033.8937 1153.2205 2331.5608 1052686
-1019.6774 1152.7673 2330.6448 986893
-1006.7326 1153.7588 2332.6492 1381651
-994.24713 1155.3116 2335.7888 1513237
-980.49841 1155.4199 2336.0076 1513237
-963.57916 1151.7415 2328.5706 1315858
-955.2912 1158.4229 2342.0789 1052686
-939.09875 1155.5746 2336.3203 1447444
-928.48645 1159.6102 2344.4795 1513237
-914.04169 1158.9094 2343.0625 1842202
-899.96722 1158.6636 2342.5657 1710616
-888.34045 1161.611 2348.5244 1644823
-874.33856 1161.4967 2348.2935 1118479
-857.51855 1157.5747 2340.364 986893
-843.46814 1157.3237 2339.8567 1118479
-827.83453 1154.8558 2334.8672 1184272
-813.48608 1154.1274 2333.3945 1184272
-800.84387 1155.8365 2336.8499 1513237
-789.08759 1158.9067 2343.0571 1250065
-776.07123 1160.2031 2345.6782 1381651
-765.68195 1165.5459 2356.48 1381651
-743.90643 1153.4326 2331.9897 855307
-734.01471 1159.6355 2344.5308 1184272
-718.45544 1156.9512 2339.1035 1381651
-705.6875 1158.7445 2342.7292 1579030
-692.20392 1159.4113 2344.0771 1710616
-677.07831 1157.2986 2339.8059 1776409
-661.90411 1155.0128 2335.1846 1710616
-650.91919 1160.0958 2345.4612 1842202
-633.04395 1152.8523 2330.8164 1250065
-620.45026 1155.1187 2335.3984 1579030
-606.50464 1154.9141 2334.9849 1644823
-593.50757 1156.5483 2338.2891 2105374
-577.76978 1152.7922 2330.6951 1973531
-563.7251 1152.3132 2329.7266 1776409
-548.43793 1149.2064 2323.4453 1907995
-536.26984 1152.644 2330.3953 1907995
-520.70135 1148.7611 2322.5449 1710616
-510.5993 1157.0549 2339.3132 1644823
-497.79984 1159.5283 2344.314 1381651
-480.07803 1150.3491 2325.7556 1184272
-463.31177 1142.9847 2310.8662 1249551
-449.12421 1141.7268 2308.3232 1447187
-435.25427 1141.223 2307.3044 1776152
-421.16031 1140.0801 2304.9937 1512980
-408.18008 1141.9763 2308.8274 1776152
-394.89432 1143.1195 2311.1389 1776152
-381.08786 1142.7836 2310.4597 1512980
-367.94495 1144.4865 2313.9026 1644566
-354.97302 1146.8737 2318.729 1249808
-342.41299 1150.8375 2326.7429 1381394
-332.85577 1165.6497 2356.6899 1512980
-319.35172 1167.3322 2360.0916 1512980
-302.5451 1156.5441 2338.2803 1644566
-290.27991 1162.9141 2351.1592 1841945
-273.76932 1152.0612 2329.2168 1907738
-260.10373 1152.6636 2330.4348 1710359
-246.32736 1152.8152 2330.7415 1710359
-232.60818 1153.2684 2331.6577 1973531
-218.48874 1151.6691 2328.4241 2105374
-204.90215 1152.8519 2330.8157 2105117
-192.54593 1161.6285 2348.5603 2105117
-178.64607 1161.7347 2348.7747 2171167
-166.23814 1172.3804 2370.2981 2434339
-151.43262 1166.5217 2358.4529 2500132
-138.14015 1172.312 2370.1597 2500132
-121.92574 1151.8099 2328.709 2631718
-108.01162 1150.5787 2326.2197 2829097
-94.070457 1148.657 2322.3345 2565925
-81.652367 1167.8611 2361.1609 2368803
-66.716286 1151.5457 2328.1748 2171167
-53.522144 1164.6283 2354.625 2039581
-39.937248 1175.4358 2376.4753 2302753
-25.291298 1149.7783 2324.6016 2171167
-11.741885 1172.2191 2369.9719 2236960
2.2559571 1149.1976 2323.4275 2368546
16.423738 1177.9247 2381.5073 2697511
29.923012 1154.3118 2333.7671 3026476
44.167645 1165.2905 2355.9639 3157805
58.154251 1165.8234 2357.041 3092012
72.147224 1166.2527 2357.9089 2960426
86.421753 1170.3556 2366.2043 2960426
100.55083 1171.6183 2368.7571 2960426
114.24075 1168.0813 2361.6062 3026219
127.0211 1157.0311 2339.2651 2631461
140.33977 1152.5763 2330.2585 2236703
154.22314 1153.1421 2331.4023 1710359
167.53123 1149.6669 2324.3762 2499875
184.04697 1167.0597 2359.5408 2697254
205.06737 1208.5444 2443.4138 2631718
218.98882 1205.4795 2437.2173 2368289
226.23459 1168.3195 2362.0876 2697254
241.07321 1172.4158 2370.3696 2894633
253.40427 1164.5375 2354.4414 2763047
266.354 1160.1763 2345.6238 2368289
278.76953 1154.0359 2333.2095 1249808
291.91879 1151.37 2327.8196 2170910
306.39371 1153.9371 2333.0098 2039324
326.32397 1175.9415 2377.498 2236703
333.99112 1153.7622 2332.6562 1973531
348.60699 1156.396 2337.981 2499875
361.72363 1154.0452 2333.2283 2631461
379.73285 1166.9021 2359.2222 2565925
390.13733 1156.3068 2337.8005 2500132
404.5278 1157.8468 2340.9143 2499875
418.32422 1157.6407 2340.4978 2763047
434.42023 1163.6075 2352.5613 2894633
449.3176 1166.0925 2357.5854 2828840
462.04227 1162.9589 2351.2498 2894633
476.17392 1163.4465 2352.2356 2763047
490.43155 1164.2054 2353.77 2960426
504.82916 1165.2455 2355.8728 2960683
518.5271 1164.6581 2354.6851 2894890
531.94653 1163.4922 2352.3279 2697511
543.78375 1159.0134 2343.2729 2039581
560.70544 1165.3251 2356.0337 2631718
575.69775 1167.4175 2360.2642 2631718
589.65027 1167.3522 2360.1321 2631718
601.63135 1163.4774 2352.2981 2302753
615.33331 1163.0306 2351.395 2368546
629.74902 1163.9229 2353.1987 2434339
641.91522 1160.709 2346.7009 2434339
655.38287 1159.9347 2345.1355 1973788
666.98615 1155.9613 2337.1023 2302752
685.04315 1163.1072 2351.5496 2105374
695.23175 1156.875 2338.9495 2105374
712.44434 1162.3459 2350.0105 2236960
723.55927 1157.8496 2340.9199 2565925
739.61267 1161.2764 2347.8481 2500132
749.72516 1155.421 2336.0098 2236960
766.67981 1160.1313 2345.533 2500132
776.51282 1154.0895 2333.3176 2368546
791.84631 1156.291 2337.7688 2368546
800.92841 1149.4452 2323.928 2368546
820.65063 1157.8428 2340.906 2105374
828.82971 1149.9458 2324.9402 2039581
841.55811 1148.5159 2322.0491 2171167
863.84412 1159.9658 2345.1985 2171167
868.73914 1148.0703 2321.1484 1973788
883.1062 1148.8683 2322.7615 1842202
897.5675 1149.7625 2324.5693 2039324
907.60699 1145.0509 2315.0437 2105117
920.9613 1144.5994 2314.1309 1841945
935.62158 1145.7605 2316.4783 1907738
944.98663 1140.4972 2305.8372 3157805
961.77979 1144.2211 2313.366 2697254
966.99878 1134.2642 2293.2354 2499875
993.3783 1149.0599 2323.1492 2499875
1000.8812 1141.9149 2308.7034 2368289
1020.7604 1148.8922 2322.8101 2302496
1032.4298 1146.5665 2318.1079 2302496
1044.2299 1144.4451 2313.8188 2236959
1056.4386 1142.8207 2310.5347 2170910
1074.5989 1147.5938 2320.1848 2236703
1084.5165 1143.5548 2312.019 2105116
1095.9973 1141.2443 2307.3477 2170910
1112.3475 1143.9989 2312.9167 1578773
1136.3867 1154.4977 2334.1431 2105117
1146.3838 1150.6499 2326.3635 2170910
1165.0341 1155.4756 2336.1201 2828840
1158.1091 1135.1205 2294.9666 2039324
1181.3375 1144.4496 2313.8279 1841945
1194.584 1144.0052 2312.9297 1841945
1204.2103 1140.1437 2305.1223 2039324
1219.4414 1141.6156 2308.0981 1776152
1233.6694 1142.1262 2309.1306 1710359
1257.7598 1151.656 2328.3977 1776152
1258.649 1139.9658 2304.7627 2039324
1279.438 1146.3562 2317.6826 2631461
1288.027 1141.7959 2308.4629 2763047
1300.1947 1140.4707 2305.7837 2368289
1312.3964 1139.2024 2303.2195 2236702
1329.1814 1141.8979 2308.6692 2302496
1340.1975 1139.6328 2304.0896 2434082
1357.5162 1142.7189 2310.3289 2565668
1374.7993 1145.7136 2316.3835 2565668
1388.5765 1145.7562 2316.4697 2565668
1412.08 1153.745 2332.6211 2828840
1415.8281 1145.5941 2316.1418 3157805
1426.7695 1143.3641 2311.6333 2236703
1462.2772 1160.676 2346.6343 2170910
1459.5905 1147.6306 2320.2593 2302239
1479.3667 1152.3258 2329.752 2368288
1487.0314 1147.5873 2320.1719 1447187
1499.2699 1146.4332 2317.8384 2302496
1525.8705 1156.1824 2337.5491 2236703
1524.7037 1144.9055 2314.7498 2631461
1550.3112 1153.7554 2332.6421 2960426
1559.6505 1150.4489 2325.9573 3223341
1589.7469 1162.3773 2350.074 3026219
1601.5061 1160.8074 2346.8999 2960426
1615.8785 1161.1423 2347.5771 2828840
1629.6757 1161.0616 2347.4141 2828840
1657.8083 1171.1094 2367.7283 2697254
1667.8724 1168.3314 2362.1118 2499875
1679.9065 1166.9683 2359.3557 2565668
1688.2836 1163.1082 2351.5515 2565668
1700.425 1161.8834 2349.0754 2368289
1709.5229 1158.6158 2342.469 2105117
1727.6681 1161.4832 2348.2661 2170910
1737.1146 1158.5034 2342.2417 2039324
1744.9832 1154.5269 2334.2021 131585
1746.2272 1146.2645 2317.4973 1512466
1768.8547 1152.0581 2329.2107 1578773
1808.9976 1169.0814 2363.6282 2039324
1828.7919 1172.7938 2371.1338 2170910
1825.2213 1161.58 2348.4619 2105117
1841.2704 1162.9275 2351.1863 1907738
1853.9498 1162.1426 2349.5994 1841945
1853.761 1153.3629 2331.8489 2105117
1893.5291 1169.3895 2364.251 2236703
1885.6099 1155.9467 2337.0725 2105117
1901.5138 1157.1978 2339.6021 2105117
1918.1643 1158.8818 2343.0068 1907739
1940.845 1164.1586 2353.6753 1907225
1949.5597 1161.043 2347.3762 1512210
1966.0454 1162.5665 2350.4565 1578259
1982.1802 1163.8625 2353.0769 1776152
2009.6248 1171.7349 2368.9929 1776152
2021.1315 1170.2698 2366.0308 1841945
2055.1626 1181.7769 2389.2957 2105117
2101.4895 1200.1486 2426.4392 2302752
2077.5266 1178.4014 2382.4712 2039323
2087.4822 1176.0566 2377.7307 2170653
2133.7837 1194.0831 2414.1763 2368287
2140.3792 1189.7976 2405.5117 2368287
2150.9797 1187.7804 2401.4336 2302752
2130.1106 1168.5261 2362.5056 2302495
2143.7878 1168.351 2362.1514 2763045
2135.0813 1156.058 2337.2976 2960426
2147.8 1155.4498 2336.0681 2960424
2172.1614 1161.0725 2347.436 2631459
2191.1135 1163.7509 2352.8508 2631459
2202.7122 1162.5143 2350.3508 2631459
2211.25 1159.6881 2344.637 2565666
2207.8196 1150.6595 2326.3833 2565666
2239.2031 1159.7747 2344.812 3223596
0 0 0 0
0 0 0 0
0 0 0 0
0 0 0 0
0 0 0 0
0 0 0 0
0 0 0 0
0 0 0 0
0 0 0 0
0 0 0 0
-2020.9978 1154.795 2307.1055 3815732
-2006.5659 1154.3571 2306.2305 3881525
-1993.319 1154.5994 2306.7146 3881526
-1970.8123 1149.4445 2296.4158 3947319
-1957.9271 1149.8685 2297.2629 4013111
-1949.0542 1152.6714 2302.8625 3881525
-1935.7861 1152.896 2303.3115 4013366
-1915.2189 1148.746 2295.0203 4079158
-1903.5983 1149.9409 2297.4077 4013365
-1890.7502 1150.4065 2298.3379 3815986
-1874.8948 1149.0358 2295.5991 3749939
-1853.6093 1144.2925 2286.123 3618353
-1839.1525 1143.7263 2284.9917 3486767
-1826.0153 1143.9783 2285.4951 3289388
-1820.6627 1149.1477 2295.8228 3355182
-1806.824 1148.998 2295.5239 3355182
-1789.5635 1146.6539 2290.8406 3486768
-1769.5166 1142.4746 2282.4912 3289389
-1750.7057 1139.0354 2275.6201 3223596
-1739.006 1140.2053 2277.9573 2894631
-1717.9133 1135.1866 2267.9309 2960424
-1707.5183 1137.2136 2271.9805 3355182
-1684.473 1130.7806 2259.1282 4078905
-1678.4304 1135.75 2269.0562 3289389
-1678.7974 1145.1715 2287.8792 3157805
-1647.7971 1133.1758 2263.9133 2960426
-1640.7583 1137.5963 2272.7449 2763047
-1626.8925 1137.3175 2272.188 2434082
-1607.6737 1133.2605 2264.0828 2565667
-1594.6917 1133.5688 2264.6987 2565668
-1585.1073 1136.3179 2270.1909 2960683
-1579.8496 1142.2423 2282.0271 3355441
-1564.1299 1140.6396 2278.825 3355441
-1552.8468 1142.2725 2282.0872 3026476
-1540.1141 1142.8584 2283.2578 2763304
-1538.5378 1151.8069 2301.1355 2565925
-1515.3979 1144.6276 2286.7925 2434339
-1500.3705 1143.5017 2284.543 2565925
-1489.725 1145.7253 2288.9856 2631718
-1476.9283 1146.3202 2290.1741 2763304
-1458.3572 1142.4028 2282.3477 2697511
-1444.8334 1142.4028 2282.3477 3026476
-1428.1704 1139.8972 2277.342 2631718
-1418.318 1142.8318 2283.2046 2565925
-1408.3444 1145.724 2288.9829 2434339
-1388.5208 1140.5814 2278.7087 2171167
-1380.3966 1145.0426 2287.6216 1710616
-1355.262 1135.3422 2268.2415 2236960
-1352.834 1144.6597 2286.8567 1907995
-1341.5146 1146.5667 2290.6665 2171167
-1326.4624 1145.2896 2288.115 2565925
-1316.7242 1148.6218 2294.7722 2565925
-1296.7203 1142.975 2283.4907 2697511
-1284.3419 1144.0012 2285.541 2434339
-1271.8909 1144.984 2287.5044 2500132
-1263.7726 1149.9304 2297.3867 2171167
-1245.7145 1145.8416 2289.2178 1973788
-1233.4109 1147.0143 2291.5605 1973788
-1218.569 1145.8262 2289.187 2105374
-1201.4379 1142.4346 2282.4111 1907995
-1189.6819 1144.1351 2285.8086 1710616
-1178.1285 1146.0719 2289.678 2960683
-1161.5166 1143.0756 2283.6917 2829097
-1149.743 1144.8263 2287.1895 2829097
-1134.3024 1142.9238 2283.3884 1907995
-1123.4872 1145.6923 2288.9194 1118479
-1109.8895 1145.6562 2288.8474 1052686
-1099.4301 1148.8987 2295.3254 1644823
-1078.7214 1141.3779 2280.3 1381651
-1072.587 1149.2827 2296.0928 1513237
-1055.0356 1145.0001 2287.5366 789514
-1043.4811 1147.1991 2291.9297 1907995
-1033.6948 1151.4255 2300.3735 921100
-1018.3578 1149.4993 2296.5254 1315858
-1005.3966 1150.2391 2298.0034 1118479
-992.41382 1150.9741 2299.4719 1381651
-979.21527 1151.4761 2300.4746 1776409
-968.20837 1154.6056 2306.7271 1447444
-955.79596 1156.1248 2309.762 1513237
-943.14471 1157.3948 2312.2993 1381651
-924.15692 1150.8118 2299.1475 1579030
-913.55664 1154.6327 2306.781 1644823
-903.94897 1159.8431 2317.1909 1710616
-888.60693 1157.7432 2312.9954 1447444
-873.8869 1156.4006 2310.3132 1184271
-856.95349 1152.0398 2301.6008 1513237
-844.87207 1154.1661 2305.8489 1052686
-829.67548 1152.0367 2301.5947 1315858
-814.69958 1150.1477 2297.8208 1447444
-802.08698 1151.5876 2300.6975 1513237
-787.76202 1150.5764 2298.6772 1710616
-772.39899 1147.9866 2293.5032 855307
-764.25745 1156.2294 2309.9709 921100
-750.10156 1155.5078 2308.5295 921100
-740.38208 1161.7206 2320.9417 1052686
-726.00134 1160.7163 2318.9351 1315858
-709.62042 1156.4135 2310.3389 1381651
-695.11249 1155.054 2307.6226 1513237
-681.2074 1154.6615 2306.8386 1579030
-672.03278 1162.4354 2322.3699 1710616
-653.97742 1154.8519 2307.2192 1842202
-639.54987 1153.4878 2304.4939 1250065
-623.83179 1149.6858 2296.8979 1250065
-612.00818 1153.0516 2303.6223 1579030
-598.63409 1153.5831 2304.6841 1644823
-584.50281 1152.6461 2302.8123 1513237
-569.8772 1150.6664 2298.8569 1841945
-559.04095 1156.4281 2310.3682 1776409
-541.67987 1148.6433 2294.8152 1842202
-528.83478 1150.2804 2298.0857 2368546
-512.27155 1143.7026 2284.9446 1842202
-502.85361 1153.1536 2303.8262 1381651
-489.52628 1153.9167 2305.3508 1381651
-474.77951 1151.2819 2300.0867 1381651
-457.83698 1143.0094 2283.5596 1512980
-444.01852 1142.2699 2282.082 1315858
-429.22031 1138.8843 2275.3181 1052686
-416.31821 1140.4734 2278.4929 1447444
-403.30893 1141.8655 2281.2742 1776409
-390.31207 1143.3906 2284.321 1776409
-375.29346 1138.8899 2275.3293 2039324
-363.36838 1143.7914 2285.1218 1447187
-350.63028 1146.4142 2290.3618 1447187
-337.95654 1149.467 2296.4607 1249808
-323.8161 1147.5781 2292.6873 1447187
-309.42291 1144.5889 2286.7151 1841945
-297.85443 1152.2532 2302.0273 1447187
-284.22437 1152.2953 2302.1113 1644566
-270.49545 1151.9207 2301.3628 1578773
-256.58173 1150.6774 2298.8789 2039324
-242.83298 1150.076 2297.6777 1907481
-228.42775 1146.1096 2289.7532 2039324
-215.15263 1147.6702 2292.8711 2105117
-201.79694 1148.9825 2295.4929 2434082
-188.17059 1148.8323 2295.1926 2302496
-176.67563 1162.6849 2322.8682 2368546
-163.63232 1167.8279 2333.1431 2302753
-149.75638 1167.4293 2332.3467 2368546
-135.20604 1161.1578 2319.8174 2368546
-120.13486 1148.4877 2294.5042 2565925
-106.15915 1144.3929 2286.3235 2763304
-92.561012 1143.7657 2285.0706 2631718
-80.670631 1167.6421 2332.772 2565925
-67.002563 1170.3414 2338.1648 2500132
-52.08429 1146.9181 2291.3687 2368546
-39.235096 1168.604 2334.6936 2434339
-25.369823 1167.1652 2331.8191 2236960
-11.56149 1168.0371 2333.561 2500132
2.2634568 1166.8311 2331.1516 2565925
15.80887 1147.4089 2292.3491 2434339
29.330801 1145.0215 2287.5793 2434339
42.795212 1142.6074 2282.7563 2368289
56.963531 1155.6332 2308.78 2763047
70.571815 1154.4528 2306.4216 2631461
84.579758 1159.1326 2315.771 2697254
98.949402 1166.7708 2331.031 2697254
110.92878 1147.8051 2293.1406 2828840
124.98479 1152.1213 2301.7637 2894633
139.77931 1161.726 2320.9524 2763047
151.50403 1146.3818 2290.2971 2499875
165.62016 1150.1681 2297.8616 2170910
179.97124 1154.8867 2307.2886 2105117
192.81848 1149.9702 2297.4661 1973531
206.23508 1148.8739 2295.2759 2302496
221.48984 1157.5194 2312.5483 2499875
235.18015 1157.4581 2312.4258 2368289
246.92276 1148.3455 2294.2202 2434082
261.20718 1151.3881 2300.2988 2236703
275.91812 1155.9156 2309.3442 2565668
288.93539 1153.2554 2304.0293 2697254
301.34024 1148.5007 2294.5305 2105117
315.79901 1151.6472 2300.8164 1973788
330.06155 1153.847 2305.2114 2105117
343.88892 1154.4113 2306.3386 2170910
357.04984 1152.7806 2303.0808 2434082
376.10327 1169.5942 2336.6721 2565668
384.38229 1152.8978 2303.3149 2763047
398.55298 1154.4115 2306.3394 2763047
412.59024 1155.4514 2308.4167 2828840
425.81696 1154.2272 2305.9709 2894633
443.07324 1163.6624 2324.821 2828840
454.00104 1156.4088 2310.3296 2039324
469.08035 1159.845 2317.1943 2763047
482.60098 1159.3413 2316.1882 2960426
496.48944 1159.7246 2316.9539 2697511
509.87085 1158.9348 2315.376 2829097
524.61212 1161.1963 2319.8943 2894890
537.6972 1159.7701 2317.0449 2894890
551.27411 1159.4493 2316.4041 2960683
568.50977 1166.6523 2330.7944 3026476
582.36261 1166.7363 2330.9624 2697511
595.13513 1164.7025 2326.8989 2565925
605.91553 1158.9501 2315.4065 2302753
620.52252 1160.6095 2318.7219 2434339
633.07678 1158.4409 2314.3894 2500132
647.82941 1160.3016 2318.1069 2434339
658.03601 1154.1121 2305.741 2039581
671.69836 1154.1121 2305.741 1973788
685.20068 1153.8423 2305.2021 2368546
700.6958 1156.8734 2311.2578 1973788
711.80615 1152.6877 2302.8953 2960683
722.03229 1147.2545 2292.0405 2697511
738.95947 1152.4728 2302.4658 2434339
747.16528 1144.1466 2285.8315 2302753
767.81116 1154.8275 2307.1704 2302753
778.39178 1150.2609 2298.0469 2565925
795.05408 1154.6838 2306.8833 2368546
807.26318 1152.5992 2302.7185 2368546
817.01343 1147.1315 2291.7947 2302752
836.185 1154.8541 2307.2234 2039581
843.7132 1146.5065 2290.5461 2105374
857.39893 1146.6582 2290.8491 1907995
872.11475 1148.1611 2293.8518 1710616
885.36981 1147.7242 2292.979 1907738
894.28339 1141.7578 2281.0588 2302495
909.50342 1143.9008 2285.3403 2236703
924.883 1146.1785 2289.8909 2499875
934.74237 1141.6483 2280.8403 1973531
941.09644 1133.0271 2263.6165 1907738
954.13373 1132.5813 2262.7258 2105117
968.19257 1133.3438 2264.249 2434082
989.12366 1142.0199 2281.5825 2565668
990.53241 1128.2258 2254.0242 2303010
1019.6401 1145.9283 2289.3911 2434339
1032.662 1145.3256 2288.1868 2500132
1040.774 1139.363 2276.2747 2631718
1070.6165 1157.0378 2311.5862 3289391
1079.5437 1151.9481 2301.4177 2434082
1089.3514 1147.9131 2293.3564 2368289
1097.2845 1142.0267 2281.5962 2170910
1121.0598 1152.5708 2302.6616 2039324
1129.291 1147.0725 2291.677 2170910
1135.9922 1140.1694 2277.8855 2105117
1146.4008 1137.1056 2271.7646 1841945
1164.3658 1141.5211 2280.5862 1973531
1178.6178 1142.2369 2282.0161 1973531
1191.9401 1142.0458 2281.6343 2105117
1199.6675 1136.5581 2270.6709 2105117
1216.7828 1139.9879 2277.5229 2565668
1226.9941 1136.9449 2271.4436 2631461
1242.0731 1138.4296 2274.4097 2631461
1254.7274 1137.6837 2272.9197 2499875
1311.1416 1176.2104 2349.8901 2960426
1290.3843 1145.425 2288.3855 2960426
1301.495 1143.2739 2284.0879 2697254
1320.0385 1147.6289 2292.7886 2565668
1340.7946 1153.7994 2305.1162 2631461
1357.0557 1156.0161 2309.5449 2697254
1355.0575 1142.7897 2283.1206 2697254
1368.8071 1142.9745 2283.4897 2631461
1401.7158 1158.9971 2315.5005 2631461
1417.0338 1160.3054 2318.1143 2763047
1424.8916 1155.5386 2308.5908 2828840
1428.7748 1147.6697 2292.8701 2434338
1460.9232 1162.4396 2322.3779 2433568
1464.1974 1154.1731 2305.8628 2302496
1467.0474 1145.7284 2288.9915 2434082
1494.2509 1156.2833 2310.0789 2434082
1504.6758 1153.7811 2305.0798 2302496
1529.4899 1162.2583 2322.0159 2434082
1535.0583 1156.09 2309.6924 2894633
1549.2358 1156.4569 2310.4255 2960426
1562.119 1155.8596 2309.2324 2697254
1584.2214 1162.0354 2321.5706 2697254
1595.0745 1159.9241 2317.3525 2763047
1603.4768 1156.082 2309.6768 2631461
1632.9209 1167.3473 2332.1831 2697254
1635.417 1159.3207 2316.147 2828840
1655.4581 1163.7615 2325.019 2499875
