# .PCD v0.7 - Point Cloud Data file format
VERSION 0.7
FIELDS x y z rgb
SIZE 4 4 4 4
TYPE F F F U
COUNT 1 1 1 1
WIDTH 1283
HEIGHT 1
VIEWPOINT 0 0 0 1 0 0 0
POINTS 1283
DATA ascii
1372.3647 1041.2479 5766.5527 1907221
1429.2924 1058.0958 5859.8584 1907222
1468.7595 1061.5254 5878.8516 1841430
1495.1232 1055.545 5845.7314 1776150
1524.4041 1051.8483 5825.2588 1841942
1548.2472 1044.6465 5785.374 1776150
1586.7457 1047.4307 5800.7935 1841943
1610.8326 1040.7853 5763.9907 1776150
1647.5939 1042.4349 5773.126 1710357
1678.3646 1040.3043 5761.3271 1644564
1716.2972 1042.6093 5774.0923 1644564
1746.4945 1040.2172 5760.8438 1578771
1793.2747 1047.604 5801.7534 1644564
1818.9958 1042.6421 5774.2739 1841943
1850.0731 1040.8768 5764.4976 1906709
1877.4548 1037.134 5743.7695 1709587
1908.9105 1035.7351 5736.022 1775380
1937.5789 1032.8992 5720.3164 1841173
1970.5834 1032.4325 5717.7319 1972502
2007.907 1034.2062 5727.5547 1841943
2041.5836 1034.0739 5726.8218 1841943
2098.0393 1045.2948 5788.9648 1776150
2129.6562 1043.9785 5781.6753 1710357
2159.0608 1041.6367 5768.7056 1644564
2190.6399 1040.4005 5761.8599 1644564
2209.9128 1033.4474 5723.3525 1644564
2250.9512 1036.7291 5741.5273 1710357
2280.1284 1034.5315 5729.3564 1710357
2313.4529 1034.2524 5727.811 1710357
2337.9441 1030.0895 5704.7559 1776150
2370.6592 1029.6171 5702.1396 1776150
2422.5037 1037.3492 5744.9614 1776150
2444.2175 1032.1437 5716.1323 1841943
2497.6235 1040.2804 5761.1948 1776150
2544.1316 1045.3634 5789.3447 1776150
2637.0015 1069.1075 5920.8423 1644564
2581.7432 1032.9617 5720.6621 1644564
2596.5935 1025.4396 5679.0044 1644564
2621.4006 1021.9919 5659.9106 1512978
2644.811 1018.0938 5638.3223 1578771
2679.5542 1018.6007 5641.1299 1644564
2699.8389 1013.6668 5613.8052 1644564
2727.2275 1011.4877 5601.7373 1644564
2773.6941 1016.3516 5628.6743 1644564
2830.0518 1024.6813 5674.8047 1578771
2859.7683 1023.2826 5667.0586 1578771
2886.8328 1020.9785 5654.2979 1578771
2909.1863 1017.0801 5632.7085 1512978
2933.7932 1014.0491 5615.9224 1447185
2977.7422 1017.6966 5636.1226 1381392
2973.3669 1004.9306 5565.4233 1381392
2997.7292 1002.0508 5549.4746 1381392
3030.0129 1001.8528 5548.3779 1447185
3057.0925 999.95673 5537.877 1578771
3089.0354 999.67468 5536.3154 1578771
3108.4275 995.37976 5512.5293 1447185
3157.5203 1000.5858 5541.3613 1447185
3170.3801 994.32111 5506.6665 1512978
3252.0496 1009.5449 5590.9775 1578771
3259.8701 1001.7675 5547.9053 1644564
3262.8132 992.66162 5497.4761 1578771
3321.5913 1000.5548 5541.1895 1710357
3328.0452 992.68622 5497.6123 1710357
3309.2793 977.52063 5413.6235 1644564
3335.6812 975.86011 5404.4272 1710357
3407.1941 987.30298 5467.7993 1776150
3436.4355 986.39661 5462.7798 1710357
3635.2864 1033.7378 5724.9604 1776150
3594.1172 1012.5818 5607.7964 1973529
3467.3206 967.91046 5360.4014 2039322
3916.3401 1083.3314 5999.6162 1907736
3799.1445 1041.4594 5767.7231 1973272
3811.8127 1035.6158 5735.3618 2170394
3807.0327 1025.1772 5677.5513 2236186
3599.6589 960.84375 5321.2651 2301722
3985.8899 1054.7006 5841.0547 2236186
3911.5435 1026.1178 5682.7603 2236186
3971.0764 1032.8438 5720.0098 2236443
3981.1985 1026.7135 5686.0591 2433822
4013.1274 1026.2626 5683.562 2433822
3972.5906 1007.442 5579.3311 2170650
3992.7585 1004.1996 5561.3745 1973013
4004.9819 999.02856 5532.7368 1841428
4025.3105 995.94696 5515.6704 1841428
4084.897 1002.5499 5552.2383 1643794
4022.7317 979.40479 5424.0581 1446415
4076.9373 984.7345 5453.5747 1249035
4140.8892 992.31598 5495.562 1315083
4117.6118 979.03882 5422.0312 1380877
4148.0234 978.63397 5419.7891 1578255
4203.4531 984.09235 5450.0186 1709842
4180.5942 971.27875 5379.0552 1709842
4228.5415 974.98511 5399.5815 1709327
4227.8428 967.50348 5358.147 1577741
4245.7334 964.35565 5340.7144 1446155
4273.4087 963.46051 5335.7568 1314569
4305.6885 963.60901 5336.5791 1314569
4358.6694 968.35443 5362.8599 1380106
4382.9258 966.69568 5353.6733 1380362
4380.6133 959.2428 5312.3984 1380362
4417.3716 960.39075 5318.7563 1248776
4454.4121 961.58344 5325.3613 1249033
4471.6489 958.51434 5308.3643 1249290
4498.8135 957.6012 5303.3071 1315081
4531.9458 957.96228 5305.3071 1380875
4566.2622 958.56683 5308.6553 1380877
4592.1919 957.41473 5302.2744 1315084
4624.4629 957.59137 5303.2529 1446670
4669.2559 960.34094 5318.4805 1644049
4689.582 958.05542 5305.8228 1578255
4771.5068 968.3006 5362.562 1512463
4800.9478 967.83002 5359.9556 1512462
4812.5264 963.78839 5337.5728 1578256
4834.1724 961.80255 5326.5752 1644049
4856.4429 959.96588 5316.4033 1841428
4890.394 960.44696 5319.0674 1906709
4916.7007 959.43011 5313.436 1512206
4926.1299 955.15375 5289.7529 1380620
4952.3555 954.1676 5284.2915 1380877
4991.5229 955.67163 5292.6211 1315084
5020.8154 955.27808 5290.4414 1381133
5056.6797 956.13208 5295.1709 1315083
0 0 0 0
0 0 0 0
0 0 0 0
0 0 0 0
-5085.7139 1040.4866 5579.2495 512
-5111.543 1052.6133 5644.2749 512
-4979.2227 1032.1178 5534.3755 512
-5004.6069 1044.2571 5599.4683 256
-4961.5215 1042.1761 5588.3101 256
-4941.5483 1044.9548 5603.2095 256
-4910.542 1045.4221 5605.7153 256
-4918.2168 1054.1868 5652.7129 256
-4917.8657 1061.3397 5691.0674 256
-4854.2695 1054.8479 5656.2573 256
-4861.5713 1063.7793 5704.1489 256
-4808.4873 1059.53 5681.3638 256
-4809.8716 1067.3073 5723.0664 256
-4775.96 1067.3073 5723.0664 256
-4718.666 1062.0444 5694.8467 256
-4698.6621 1065.1593 5711.5488 256
-4663.6782 1064.8988 5710.1523 256
-4701.7764 1081.444 5798.8701 256
-4637.3198 1074.4707 5761.478 256
-4621.2021 1078.6774 5784.0347 256
-4675.292 1099.4569 5895.4585 256
-4565.5874 1081.7411 5800.4629 256
-4599.2549 1097.9836 5887.5581 256
-4533.4702 1090.5509 5847.7026 256
-4478.4648 1085.6166 5821.2437 256
-3791.8945 926.3208 4967.0757 256
-3755.7781 924.67511 4958.251 256
-3734.665 926.72644 4969.2505 256
-3733.8506 933.88727 5007.6479 256
-3699.5764 932.72699 5001.4263 65536
-3683.9773 936.29443 5020.5557 65536
-3916.8213 1003.5765 5381.3325 65536
-3916.2368 1011.6626 5424.6914 65792
-3888.4893 1012.8076 5430.8311 65536
-3860.7102 1013.9634 5437.0288 196608
-3806.4773 1008.1324 5405.7622 196608
-3802.6838 1015.6747 5446.2046 262144
-3807.2212 1025.5901 5499.3726 393216
-3709.1726 1007.8035 5403.998 393216
-3653.0298 1001.1923 5368.5479 393216
-3637.2236 1005.6173 5392.2754 393216
-3614.853 1008.2897 5406.605 327680
-3584.345 1008.7198 5408.9116 196608
-3612.4788 1025.8097 5500.5503 1512200
-3590.1301 1028.7452 5516.291 4669741
-3696.8818 1069.068 5732.5078 6446918
-3653.553 1066.3357 5717.8569 6118210
-3721.4814 1096.3281 5878.6812 5920318
-3817.3838 1135.2061 6087.1504 5854783
-3749.7715 1125.7363 6036.3721 5656895
-3663.6533 1110.4747 5954.5376 4802100
-3737.1174 1143.7573 6133.0034 2960155
-3595.6677 1111.2725 5958.8145 2499606
-3408.385 1063.8376 5704.4619 1578762
-3303.5222 1041.4353 5584.3374 1315849
-3118.2104 992.96173 5324.4146 1645330
-3006.0315 967.02368 5185.3306 256
-3005.281 976.76587 5237.5698 0
-2939.9399 965.49939 5177.1572 65536
-2938.7485 975.28479 5229.6279 0
-2854.8301 957.53137 5134.4312 1512721
-2818.5452 955.54431 5123.7764 65536
-2824.7598 968.07898 5190.9893 1447437
-2893.9741 1002.7181 5376.7295 3552296
-3191.5303 1118.1261 5995.5649 3420708
-3237.5872 1147.0298 6150.5513 1578507
-3300.3032 1182.5608 6341.0742 788997
-3370.6458 1221.6744 6550.8076 657155
-3384.7139 1241.0653 6654.7847 1709837
-3339.657 1238.9789 6643.5962 2433301
-3330.6338 1250.3699 6704.6768 1775115
-3286.1262 1248.5538 6694.939 1709321
-3206.4763 1233.178 6612.4912 1775113
-3141.9456 1223.3085 6559.5693 1906443
-3125.6748 1232.2169 6607.3379 1774856
-3049.5078 1217.4392 6528.0972 1709064
-2969.7058 1200.812 6438.9399 1774602
-2949.9661 1208.3545 6479.3838 1840395
-2926.6775 1214.6232 6512.9971 1972237
-2904.0266 1221.3274 6548.9463 1841165
-2850.7451 1215.1567 6515.8584 1775371
-2813.8384 1215.8923 6519.8027 1840910
-2770.6592 1213.9003 6509.1211 1840910
-2754.0754 1223.6687 6561.5005 1971726
-2687.7678 1211.3075 6495.2183 2037776
-2644.3909 1209.0717 6483.229 2103569
-2592.4177 1202.7816 6449.501 2103569
-2532.7231 1192.6671 6395.2656 2169362
-2493.9353 1192.2401 6392.9756 2235155
-2424.3267 1176.8385 6310.3901 2169362
-2395.2529 1180.9395 6332.3804 2038290
-2377.9312 1191.0574 6386.6338 1906960
-2341.0115 1191.5275 6389.1543 1972753
-2298.0955 1188.911 6375.1245 1972753
-2248.7458 1182.8229 6342.479 1972753
-2208.5769 1181.4388 6335.0576 1973010
-2171.186 1181.5188 6335.4863 2038290
-2115.0581 1171.2257 6280.2935 1906703
-2059.2864 1160.765 6224.2012 1906960
-2033.8516 1167.3344 6259.4272 1906706
-1988.3107 1162.3937 6232.9351 1840913
-1967.4453 1171.9647 6284.2559 1775120
-1931.4695 1172.7302 6288.3608 1775120
-1879.0063 1163.3184 6237.8931 1775120
-1867.0728 1179.1246 6322.6489 1446155
-1802.9777 1161.962 6230.6201 1643533
-1744.0421 1147.4763 6152.9458 1906706
-1731.0959 1163.2765 6237.6685 1906706
-1684.4757 1156.6438 6202.103 1972499
-1682.4476 1181.0172 6332.7969 1972499
-1624.4274 1166.3018 6253.8901 1841169
-1582.2877 1162.5673 6233.8652 1775377
-1540.8689 1159.1963 6215.79 1840913
-1498.6719 1155.0608 6193.6143 1906706
-1461.4878 1154.6779 6191.5615 1840913
-1421.1145 1151.6909 6175.5449 1840913
-1378.3617 1146.5667 6148.0674 1710096
-1336.3214 1141.7728 6122.3628 1644047
-1294.2905 1136.72 6095.2681 1644048
-1268.8607 1146.3754 6147.042 1644049
-1221.7775 1136.4602 6093.875 1512463
-1179.3314 1130.3859 6061.3037 1512463
-1150.3046 1137.1962 6097.8218 1578256
-1106.637 1129.5049 6056.5796 1512463
-1072.4412 1131.2897 6066.1499 1512463
-1028.2853 1122.327 6018.0913 1578256
-989.45966 1118.7474 5998.8965 1512463
-949.81207 1113.9368 5973.1016 1380877
-930.51599 1133.546 6078.249 1380877
-896.22571 1135.733 6089.9761 1249291
-854.58289 1128.3951 6050.6294 1446669
-816.96759 1125.9656 6037.6016 1446670
-782.19812 1127.415 6045.374 1578256
-746.51947 1127.6306 6046.5298 1644049
-701.78571 1113.5002 5970.7607 1578256
-666.2088 1113.1698 5968.9888 1578256
-631.823 1114.9042 5978.2886 1578256
-595.57361 1113.3606 5970.0122 1446670
-568.98602 1130.8247 6063.6567 1380877
-527.64319 1119.3409 6002.0791 1380877
-496.10818 1128.5076 6051.2319 1380877
-457.74805 1122.3676 6018.3081 1775635
-420.25287 1117.4899 5992.1538 1841428
-384.90323 1117.9438 5994.5879 1775635
-348.24667 1114.3081 5975.0928 1775635
-312.23694 1112.1537 5963.54 1709842
-275.81705 1107.8016 5940.2041 1578256
-240.65984 1107.9899 5941.2134 1512463
-205.98143 1110.8247 5956.4141 1578256
-170.36237 1108.7102 5945.0757 1644049
-134.82468 1106.1609 5931.4058 1775635
-99.474716 1103.897 5919.2661 1775635
-64.098801 1098.7224 5891.5195 1775635
-29.124269 1096.2789 5878.417 1775635
5.6930785 1093.4683 5863.3457 1775635
40.510601 1095.4922 5874.1982 1841428
75.202026 1093.8114 5865.1855 1775635
110.66413 1100.8596 5902.9795 1775635
145.67981 1101.1481 5904.5259 1775635
180.62462 1100.8928 5903.1572 1841428
214.58499 1095.6937 5875.2788 1775636
247.70438 1088.2513 5835.3721 1775892
283.4039 1092.5791 5858.5786 1841429
316.97897 1088.6661 5837.5962 1709843
350.66055 1085.8528 5822.5107 1775635
386.14322 1088.6211 5837.3545 1775635
418.74335 1083.4758 5809.7651 1907221
452.09708 1080.9142 5796.0288 1907221
485.29019 1078.3573 5782.3184 1841428
522.44617 1084.3625 5814.52 1841428
554.88794 1080.4457 5793.5171 1775635
587.73065 1077.7205 5778.9038 1841685
619.23944 1072.984 5753.5063 1775635
652.62555 1071.8248 5747.291 1775634
684.06189 1067.7374 5725.3735 1775635
712.34918 1059.3534 5680.4165 1775635
745.60071 1058.775 5677.3154 1841428
776.57697 1055.1553 5657.9058 1841428
815.32062 1061.9521 5694.3516 1841428
848.47083 1061.2128 5690.3872 1907221
883.83801 1063.1969 5701.0259 1907222
913.54877 1058.481 5675.7388 1776149
941.3056 1051.9165 5640.5391 1710357
974.50024 1051.6707 5639.2207 1710356
1005.3763 1049.0219 5625.0176 1776150
1034.8311 1045.1077 5604.0293 1907735
1067.5182 1044.5997 5601.3057 1973528
1100.4697 1044.3735 5600.0923 1841942
1136.3119 1046.8234 5613.229 2038807
1170.0032 1047.2089 5615.2959 2104600
1213.6774 1056.2611 5663.8354 2104600
1246.5103 1055.6449 5660.5312 1973271
1285.2167 1059.9048 5683.3735 2038552
1314.8274 1056.6376 5665.8545 2038552
1345.8251 1054.62 5655.0356 1906966
1379.1453 1054.4761 5654.2642 1841173
1414.5083 1055.864 5661.7061 1841430
1451.1766 1058.1393 5673.9062 1841943
1485.2943 1058.4938 5675.8076 1776150
1519.0103 1058.5527 5676.1235 1841943
1545.9697 1054.0028 5651.7256 1907736
1579.1324 1053.785 5650.5586 1841943
1611.7139 1053.1967 5647.4038 1710357
1639.5854 1049.6171 5628.2095 1710357
1672.5104 1049.3507 5626.7812 1644564
1701.8647 1046.8986 5613.6318 1512978
1737.1794 1048.1365 5620.2695 1644564
1754.6531 1038.7657 5570.0225 1776150
1797.6561 1044.5754 5601.1753 1972502
1820.5237 1038.6866 5569.5981 1841173
1868.4902 1047.0724 5614.5645 1841173
1881.5646 1035.9539 5554.9448 1841173
1923.1296 1040.6344 5580.0425 1906709
1965.472 1045.5703 5606.5093 1776150
1999.5933 1046.0414 5609.0352 1776150
2041.2581 1050.3787 5632.2925 1776150
2076.2893 1051.2179 5636.793 1841943
2072.7678 1032.8204 5538.1431 1776150
2144.5005 1051.9098 5640.5029 1578771
2175.5574 1050.7673 5634.377 1578771
2199.4604 1046.2565 5610.189 1578771
2230.0076 1044.9934 5603.4165 1644564
2257.8831 1042.5338 5590.2271 1644564
2278.9314 1037.0385 5560.7607 1644564
2309.623 1036.0256 5555.3296 1710357
2368.5781 1047.5411 5617.0776 1710357
2394.6846 1044.4109 5600.293 1776150
2416.3462 1039.4543 5573.7148 1776150
2436.9172 1034.1683 5545.3711 1841943
2486.0142 1040.968 5581.8315 1776150
2512.0647 1038.0654 5566.2676 1776150
2540.3704 1036.158 5556.0391 1841943
2566.4026 1033.3838 5541.1636 1644564
2588.6099 1029.1591 5518.5098 1578771
2621.0835 1029.0704 5518.0347 1776150
2643.3887 1025.0409 5496.4277 1710357
2677.0303 1025.4519 5498.6318 1710357
2720.3274 1029.5072 5520.377 1841943
2736.7244 1023.4067 5487.665 1841943
2761.2336 1020.4474 5471.7974 1776150
2780.2197 1015.5395 5445.48 1710357
2839.5215 1025.3014 5497.8247 1644564
2819.9326 1006.679 5397.9683 1710357
2880.1106 1016.6305 5451.3301 1776150
2898.2183 1011.676 5424.7632 1644564
2875.77 992.82861 5323.7007 1776150
2949.6956 1007.3013 5401.3057 1710357
2961.7209 1000.5516 5365.1128 1776150
2992.1189 1000.0862 5362.6172 1710357
3052.7017 1009.6135 5413.7041 1776150
3040.6501 995.17035 5336.2573 1776149
3122.032 1011.2894 5422.6899 1644564
3133.6733 1004.7198 5387.4629 1644564
3146.1853 998.55896 5354.4277 1710357
3210.1377 1008.6848 5408.7241 1644564
3225.0461 1003.3521 5380.1294 1710357
3227.9707 994.43207 5332.2988 1644564
3228.2368 984.87402 5281.0469 1578771
3261.7576 985.5473 5284.6572 1578771
3295.1284 986.16302 5287.9585 1578771
3345.481 991.80151 5318.1929 1513235
3394.0566 996.81281 5345.0645 1710358
3425.5964 996.77441 5344.8584 1907736
3794.6594 1094.0491 5866.46 1973272
3399.6484 971.26489 5208.0728 2038806
3516.9707 995.74469 5339.3369 2104600
3775.1907 1059.3241 5680.2593 2104600
3784.9019 1052.6639 5644.5464 1973014
3577.6143 986.29706 5288.6772 2170393
3632.585 992.75574 5323.3101 2170393
3657.176 990.87231 5313.2104 2235673
3822.9351 1026.9424 5506.624 2498844
3815.0833 1016.1602 5448.8081 2433051
3869.5139 1022.0089 5480.1699 2301465
3895.0549 1020.1935 5470.4355 2235672
3874.8213 1006.5177 5397.1035 2170391
3997.8389 1029.9719 5522.8687 2038805
3940.6294 1006.9901 5399.6362 2170135
3967.252 1005.6282 5392.334 2104599
4012.1931 1008.8944 5409.8481 1841428
3995.5432 996.74414 5344.6963 1578256
4020.0247 994.96521 5335.1572 1512463
4059.9336 997.0025 5346.0815 1578256
4062.8601 989.99664 5308.5151 1578256
4039.8596 976.82941 5237.9102 1578256
4086.9783 980.68829 5258.6025 1578256
4147.7583 987.74207 5296.4258 1446155
4163.1514 983.96283 5276.1611 1380362
4217.8594 989.46265 5305.6519 1248776
4239.7222 987.23303 5293.6963 1380362
4254.8481 983.47888 5273.5659 1511947
4319.4658 991.13593 5314.624 1511948
4346.4868 990.11755 5309.1636 1380875
4359.8911 986.0343 5287.2686 1380875
4389.1162 985.56177 5284.7349 1380875
4443.665 990.74213 5312.5127 1380874
4491.9897 994.47174 5332.5112 1315082
4512.4146 992.01544 5319.3403 1315083
4543.2759 991.87189 5318.5703 1380620
4582.6592 993.57788 5327.7183 1315084
4627.6855 996.47571 5343.2568 1315084
4663.4956 997.36304 5348.0146 657155
4672.3149 992.50507 5321.9653 722949
4732.9653 998.64832 5354.9067 722948
4771.5068 1000.0759 5362.562 854790
4793.4976 998.0387 5351.6382 591363
4820.8613 997.13971 5346.8174 328449
4842.5117 995.07825 5335.7637 65536
4861.5649 992.51337 5322.0103 65536
4876.2905 989.1037 5303.7271 196608
4900.916 987.73303 5296.3774 196608
4923.0986 985.89062 5286.498 196608
4932.228 981.47388 5262.8149 196608
4959.7783 980.75525 5258.9614 196608
4996.9546 981.93726 5265.2993 196608
5031.5625 982.60297 5268.8691 196608
0 0 0 0
0 0 0 0
0 0 0 0
0 0 0 0
-5014.6196 1058.5385 5501.2559 512
-5034.2886 1069.6436 5558.9692 0
-4896.9521 1047.3159 5442.9321 256
-4908.8564 1056.8223 5492.3364 256
-4865.9355 1054.5732 5480.6489 256
-4864.5137 1061.3486 5515.8604 256
-4828.7817 1060.679 5512.3804 256
-4864.7656 1075.8606 5591.2793 256
-4854.8716 1081.0347 5618.1689 256
-4790.7759 1074.1277 5582.2739 256
-4800.979 1083.899 5633.0557 256
-4747.4111 1079.3088 5609.2002 256
-4755.0532 1088.6681 5657.8408 256
-4719.3643 1088.1692 5655.2476 256
-4662.8882 1082.8357 5627.5298 256
-4644.541 1086.3436 5645.7607 256
-4607.0044 1085.3817 5640.7612 256
-4614.3364 1095.0538 5691.0273 256
-4568.8862 1092.2499 5676.4556 256
-4547.9209 1095.3013 5692.3135 256
-4543.8838 1102.5057 5729.7549 256
-4493.8174 1098.5662 5709.2808 256
-4522.2456 1113.9012 5788.978 256
-4447.0098 1103.7415 5736.1777 256
-4405.6528 1101.8987 5726.6006 256
-3757.6118 947.11176 4922.168 256
-3740.0493 950.05927 4937.4863 256
-3698.366 946.87769 4920.9517 256
-3685.4043 951.05743 4942.6738 256
-3901.1484 1014.7969 5273.9302 256
-3870.2112 1014.879 5274.3564 65792
-3875.4482 1024.5255 5324.4897 65792
-3831.4292 1021.2021 5307.2178 196608
-3824.9026 1027.8992 5342.0229 262657
-3795.2168 1028.4325 5344.7944 196864
-3716.4656 1015.567 5277.9321 262144
-3716.9956 1024.3315 5323.4814 262144
-3630.1516 1008.9615 5243.603 196608
-3613.4673 1012.9944 5264.5625 65536
-3630.8938 1026.7435 5336.0171 1446664
-3900.1577 1112.5743 5782.082 3814949
-3829.6125 1102.1321 5727.8135 5393463
-3887.499 1128.7952 5866.3818 6051905
-3867.0874 1132.9993 5888.231 6117954
-3789.2681 1120.3071 5822.2695 6249540
-3783.1387 1128.7717 5866.2603 5657917
-3858.636 1161.9742 6038.8145 4209962
-3693.1548 1122.5516 5833.9341 3683621
-3605.4746 1106.2555 5749.2432 2828571
-3668.6838 1136.3871 5905.8374 2499607
-3537.6384 1106.3485 5749.7261 1578506
-3432.05 1083.7643 5632.3555 1512458
-3409.2217 1087.1271 5649.832 1973780
-3350.1562 1078.8866 5607.0063 1579022
-3319.0203 1079.5658 5610.5361 1315853
-3100.3616 1018.6467 5293.9375 1973784
-2987.0991 991.46484 5152.6724 65536
-3097.5498 1038.7423 5398.375 65536
-2941.6658 996.76105 5180.1968 65536
-2962.7554 1014.4927 5272.3491 328705
-2885.469 998.55804 5189.5356 2630944
-2821.1108 986.80212 5128.4399 131072
-2832.9668 1001.7397 5206.0713 1973265
-3173.364 1134.4575 5895.8096 1315083
-3252.1597 1175.5681 6109.4624 2104336
-3306.8862 1208.806 6282.2007 2894109
-3374.1787 1247.4464 6483.0161 3288866
-3354.7253 1254.537 6519.8667 1577994
-3335.8218 1262.001 6558.6567 1314821
-3238.3552 1239.5687 6442.0757 1446664
-3240.8376 1255.3159 6523.9141 1708809
-3078.7725 1206.9375 6272.4902 1708809
-3030.5408 1202.5469 6249.6719 1774602
-3000.9751 1205.5461 6265.2593 1708552
-2957.1235 1202.8098 6251.0386 1708809
-2915.77 1201.0331 6241.8047 1578249
-2869.1484 1197.0127 6220.9106 1446407
-2835.6501 1198.4341 6228.2974 1512200
-2780.0806 1190.4419 6186.7622 1577993
-2755.3579 1195.6215 6213.6802 1643785
-2700.7585 1187.8014 6173.0391 1643786
-2659.6201 1185.7681 6162.4717 1577995
-2636.0566 1191.6226 6192.8984 1709837
-2588.7795 1186.7717 6167.688 1643788
-2544.7275 1183.2816 6149.5498 1840653
-2509.79 1183.9896 6153.2295 1775117
-2451.4158 1173.4994 6098.7114 1906447
-2408.8691 1170.3854 6082.5273 1972240
-2350.8267 1159.5334 6026.1299 2038290
-2327.2351 1165.6017 6057.6665 2170131
-2286.3594 1163.0675 6044.4961 2104339
-2255.2729 1165.5116 6057.1987 2235925
-2222.1553 1166.9683 6064.769 2235925
-2184.8584 1166.2419 6060.9941 1973009
-2141.1543 1162.0142 6039.022 1906960
-2113.5664 1166.5377 6062.5312 1841423
-2064.3799 1159.0906 6023.8281 1972753
-2027.2843 1158.2894 6019.665 2038546
-1994.2087 1159.7977 6027.5034 1906960
-1950.4692 1155.046 6002.8086 1840911
-1917.6685 1156.7158 6011.4863 1840656
-1878.4779 1154.5215 6000.083 1643534
-1843.7877 1155.062 6002.8921 1906706
-1809.1462 1155.6549 6005.9727 1972499
-1780.9283 1160.4572 6030.9302 1972499
-1728.6548 1149.4603 5973.7798 1906706
-1695.6534 1151.0865 5982.2314 1906706
-1657.1071 1148.9377 5971.064 1972499
-1618.8264 1146.8834 5960.3872 1906706
-1589.2162 1151.0171 5981.8706 1840913
-1555.385 1152.2126 5988.0835 1906706
-1516.7638 1149.8328 5975.7153 1906706
-1478.6644 1147.7441 5964.8604 1906449
-1444.8406 1148.953 5971.1436 1840913
-1407.2046 1147.1151 5961.5918 1644047
-1368.5182 1144.3044 5946.9839 1644047
-1326.1594 1138.1931 5915.2236 1644047
-1287.7626 1135.2428 5899.8906 1446670
-1247.6055 1130.5326 5875.4116 1380877
-1215.0074 1132.5985 5886.1479 1446670
-1179.3248 1131.826 5882.1338 1512463
-1141.7379 1129.1234 5868.0879 1512462
-1106.837 1128.9906 5867.3979 1644049
-1069.5596 1126.3464 5853.6562 1644049
-1032.8019 1124.0909 5841.9341 1644049
-995.7843 1121.3861 5827.8774 1709842
-960.55127 1120.5691 5823.6309 1578256
-921.52716 1115.1034 5795.2261 1512463
-884.98615 1112.3358 5780.8423 1709842
-852.96527 1115.2552 5796.0151 1709842
-819.4433 1116.3749 5801.834 1644049
-781.28448 1110.9988 5773.894 1709842
-752.8125 1119.5359 5818.2617 1644049
-715.90125 1115.7397 5798.5332 1512463
-677.70398 1109.4556 5765.874 1380877
-646.51471 1114.5861 5792.5371 1380877
-611.48157 1113.2932 5785.8184 1512463
-573.59766 1106.3485 5749.7261 1446670
-540.90454 1109.1708 5764.3936 1380877
-508.78641 1113.632 5787.5786 1578256
-471.19052 1105.8818 5747.3013 1775635
-436.98935 1105.5122 5745.3799 1841428
-405.83881 1113.4498 5786.6318 1841428
-370.43347 1110.1018 5769.2319 1907221
-336.5759 1111.1827 5774.8496 1775635
-301.31314 1107.3444 5754.9014 1644049
-266.37476 1103.8705 5736.8477 1644049
-230.946 1097.0508 5701.4058 1644049
-198.00133 1101.7161 5725.6514 1578256
-163.70439 1099.2306 5712.7344 1709842
-129.74139 1098.2761 5707.7739 1644049
-95.85733 1097.5525 5704.0132 1578256
-62.150581 1099.1764 5712.4526 1644049
-28.228516 1096.322 5697.6187 1644049
5.5041995 1090.7803 5668.8174 1578256
39.099728 1090.9338 5669.6157 1578256
72.367325 1086.0243 5644.1006 1512463
105.79898 1085.9021 5643.4658 1512463
139.74828 1089.8756 5664.1162 1446670
173.72174 1092.462 5677.5576 1446670
206.74698 1089.2137 5660.6763 1446670
240.2549 1089.0603 5659.8789 1512462
272.14084 1082.4927 5625.7466 1512463
307.05814 1088.1003 5654.8901 1446670
340.30643 1087.2722 5650.5859 1446670
373.12698 1085.3483 5640.5874 1446670
404.70242 1080.4165 5614.957 1644049
436.15836 1075.9393 5591.689 1709842
468.70172 1074.5875 5584.6636 1709842
503.09845 1077.3829 5599.1914 1577999
535.68323 1076.1923 5593.0034 1380621
569.48547 1077.4437 5599.5073 1446671
600.69885 1073.9291 5581.2412 1578256
631.91095 1070.7789 5564.8701 1578256
662.8559 1067.511 5547.8867 1709842
700.10352 1074.2227 5582.7671 1775635
727.98828 1066.6106 5543.207 1644049
758.97614 1064.0061 5529.6714 1578256
790.95544 1062.9496 5524.1807 1709842
819.16956 1057.118 5493.874 1841428
854.39856 1060.4388 5511.1323 1841428
887.13531 1060.5356 5511.6357 1776149
918.04193 1058.5156 5501.1372 1776150
943.06305 1050.0806 5457.3003 1512978
978.87622 1053.8234 5476.7515 1907735
1010.8179 1053.2916 5473.9878 1841942
1036.7325 1046.7079 5439.772 1907735
1073.2325 1050.8862 5461.4873 1907735
1108.5188 1053.6663 5475.9351 1973014
1132.2922 1045.6562 5434.3066 2038807
1171.0531 1051.5472 5464.9224 2104600
1208.1974 1055.7084 5486.5483 2104600
1234.1296 1050.1116 5457.4614 2499872
1267.1831 1050.705 5460.5454 1907479
1296.4119 1048.1766 5447.4058 1907479
1333.5839 1052.0374 5467.4697 1906966
1364.5848 1050.9623 5461.8823 1775637
1393.1787 1048.126 5447.1421 1578771
1422.8442 1046.2062 5437.165 1776150
1454.1095 1045.5216 5433.6069 1710357
1487.6134 1046.4415 5438.3877 1776150
1522.0433 1047.9597 5446.2783 1710357
1561.4287 1052.7562 5471.2056 1776150
1587.9111 1048.8351 5450.8271 1776150
1624.4923 1051.6075 5465.2358 1710357
1647.8992 1045.91 5435.6255 1710357
1670.1233 1039.6946 5403.3237 1776150
1702.5217 1039.9277 5404.5352 1776150
1726.8156 1035.293 5380.4487 1906709
1758.7429 1035.3202 5380.5898 1775380
1788.6672 1034.1882 5374.707 1841173
1827.7576 1038.3027 5396.0903 1709587
1852.5215 1034.2772 5375.1699 1840917
1898.2455 1041.8923 5414.7456 1710357
1933.0415 1043.3558 5422.3516 1710357
1961.9719 1041.6573 5413.5244 1776150
1990.4281 1039.7656 5403.6934 1578771
2021.8773 1039.4728 5402.1709 1578771
2048.0359 1036.5115 5386.7808 1447185
2076.126 1034.6033 5376.8643 1512978
2099.8386 1030.6045 5356.0825 1447185
2125.9558 1027.8873 5341.9614 1447185
2159.9238 1028.9902 5347.6929 1512978
2192.7397 1029.5201 5350.4473 1578771
2225.6758 1030.0906 5353.4116 1644564
2263.7773 1033.0021 5368.543 1644564
2286.1335 1028.7477 5346.4321 1710357
2316.5369 1028.1809 5343.4873 1710357
2347.4377 1027.8475 5341.7544 1776150
2370.5588 1024.162 5322.6001 1644564
2398.8945 1022.7964 5315.5034 1710357
2413.8862 1015.8506 5279.4058 1578771
2442.6157 1014.7899 5273.8931 1644564
2479.8582 1017.248 5286.6685 1578771
2519.3901 1020.5722 5303.9443 1578771
2550.6147 1020.4909 5303.5215 1644564
2573.4111 1017.0806 5285.7979 1512978
2611.2009 1019.6065 5298.9258 1644564
2630.5288 1014.9493 5274.7222 1776150
2650.9578 1010.8215 5253.2695 1776150
2686.1694 1012.3607 5261.2686 1776150
2714.5505 1011.3197 5255.8584 1841943
2736.9055 1008.0828 5239.0361 1776150
2757.9966 1004.4581 5220.1987 1710357
2796.207 1007.0796 5233.8228 1710357
2800.8596 997.68994 5185.0244 1841943
2814.8662 991.79993 5154.4136 2105115
2854.8257 995.08252 5171.4736 2368285
2856.3333 985.03485 5119.2559 2368286
2997.9604 1023.0123 5316.625 2302493
2934.2695 990.86639 5149.562 2368543
2885.0464 964.21753 5011.0674 2433822
3005.2988 994.17548 5166.7593 2368029
3017.1169 988.0199 5134.769 2368029
3055.0227 990.44507 5147.3726 2368286
3063.45 983.35962 5110.5493 2170650
3053.3643 970.52856 5043.8657 2104600
3065.1069 964.81714 5014.1836 2038807
3121.2778 973.0661 5057.0537 2038807
3050.6885 942.01617 4895.686 2170393
3107.4968 950.51941 4939.8779 2104600
3283.6624 995.0321 5171.2119 2038806
3333.3743 1000.7576 5200.9668 2038805
3363.0061 1000.4047 5199.1333 1973013
3344.3625 985.82806 5123.3779 1907477
3384.8115 988.77582 5138.6978 1972758
3717.4573 1076.267 5593.3916 1907221
3444.6985 988.48584 5137.1904 1841171
3467.1558 986.21515 5125.3896 1907221
3467.4229 977.72693 5081.2759 1907221
3515.2112 982.66925 5106.9614 1907221
3561.8645 987.21265 5130.5737 2038807
3604.145 990.47742 5147.541 1973014
3614.9878 985.1203 5119.6997 1973014
3665.0068 990.43927 5147.3428 1973014
3705.0496 992.99695 5160.6348 1973014
3716.78 987.98663 5134.5962 2038807
3745.8752 987.63623 5132.7749 1973014
3833.22 1002.5258 5210.1562 1907221
3832.1509 994.23859 5167.0879 1973014
3860.3059 993.60492 5163.7944 1907221
4012.228 1024.587 5324.8096 1907221
3913.8948 991.67773 5153.7788 1775635
3920.4231 985.6413 5122.4072 1775635
3972.8835 991.1568 5151.0718 1709842
3957.7268 979.84784 5092.2983 1578256
3988.0156 979.87598 5092.4448 1446155
4067.575 991.91888 5155.0322 1314569
4160.0093 1006.8987 5232.8823 1446155
4190.5405 1006.7844 5232.2886 1511947
4230.6406 1008.9537 5243.5625 1380362
4241.353 1004.1341 5218.5151 1248779
4291.4468 1008.6402 5241.9331 1117705
4317.248 1007.413 5235.5552 393985
4363.4912 1010.9393 5253.8813 131072
4384.2861 1008.5614 5241.5239 328448
4440.7041 1014.3541 5271.6289 131072
4462.9795 1012.3215 5261.0654 131072
4504.6929 1014.6956 5273.4033 131072
4542.0112 1016.0537 5280.4614 196608
4581.9302 1017.9711 5290.4263 131072
4569.7261 1008.3608 5240.4814 196608
4692.3711 1028.4354 5344.8101 196608
4651.0454 1012.5441 5262.2222 196608
4757.9683 1028.9235 5347.3462 196608
4782.084 1027.2975 5338.8955 196608
4739.2041 1011.3952 5256.251 196608
4461.0049 945.8089 4915.397 196608
4687.8799 987.4632 5131.8755 262144
4564.6841 955.31622 4964.8066 262144
4599.0459 956.34406 4970.1489 262144
4605.6104 951.61542 4945.5737 196608
4648.3525 954.37433 4959.9121 196608
4626.1069 943.8396 4905.1626 196608
4674.4966 947.75769 4925.5249 196608
4690.6021 945.12213 4911.8276 196608
0 0 0 0
0 0 0 0
0 0 0 0
0 0 0 0
-4942.3677 1075.4143 5421.9927 512
-4930.7969 1079.9164 5444.6914 512
-4834.543 1065.809 5373.5649 512
-4821.6538 1070.0145 5394.7686 256
-4736.4917 1058.1306 5334.8525 256
-4781.542 1075.3718 5421.7788 256
-4731.9385 1071.4147 5401.8271 256
-4799.5439 1094.1229 5516.3174 256
-4811.7427 1104.4252 5568.2593 256
-4730.5542 1093.2871 5512.103 256
-4719.5308 1098.3226 5537.4912 256
-4657.2236 1091.4104 5502.6411 256
-4679.043 1104.2546 5567.3989 256
-4651.8721 1105.6375 5574.3711 256
-4597.4404 1100.5145 5548.542 256
-4592.2383 1107.1869 5582.1831 256
-4548.5503 1104.6101 5569.1914 256
-4538.8921 1110.3199 5597.979 256
-4499.5449 1108.7979 5590.3052 256
-4468.6064 1109.3406 5593.041 256
-4443.4507 1111.3378 5603.1108 256
-4415.9468 1112.7733 5610.3481 256
-4408.5479 1119.3351 5643.4316 256
-4362.77 1116.1787 5627.5176 256
-4294.3828 1107.1443 5581.9683 256
-3975.5872 1032.9104 5207.6982 256
-3949.1406 1034.0656 5213.5215 256
-3914.7932 1033.1537 5208.9243 256
-3903.2102 1038.2827 5234.7842 256
-3874.6223 1038.9344 5238.0698 256
-3843.7798 1038.9872 5238.3359 65792
-3839.4646 1046.2695 5275.0518 65792
-3592.9653 987.13373 4976.9023 394497
0 0 0 0
-3997.0701 1116.4855 5629.064 197120
-3667.8665 1033.1517 5208.9146 985862
-3989.9272 1133.4061 5714.3745 3814947
-3935.3647 1127.4749 5684.4702 6052162
-3924.3254 1134.0183 5717.4604 5920574
-3785.7449 1103.4988 5563.5884 5526071
-3805.2095 1118.9161 5641.3188 5591610
-3800.3145 1127.3802 5683.9932 5459769
-3586.4944 1073.463 5412.1548 4406569
-3816.7637 1152.6913 5811.6055 3551775
-3761.6216 1146.3809 5779.79 3354143
-3735.3269 1148.8269 5792.1221 2367250
-3578.7021 1110.8625 5600.7148 2762009
-3489.4727 1093.3036 5512.186 2301458
-3424.4219 1083.0596 5460.5386 1906957
-3402.5156 1086.3961 5477.3604 3157281
-3356.2571 1081.9465 5454.9268 1973264
-3319.9614 1080.6533 5448.4062 1775628
-3309.7554 1087.9102 5484.9941 2104851
-3352.0742 1112.7472 5610.2168 2433815
-3266.1838 1095.0955 5521.2202 2500123
-3076.7234 1042.0098 5253.5747 2829091
0 0 0 0
-2990.7073 1033.7977 5212.1714 65536
-2946.5732 1029.1698 5188.8384 131072
-2922.687 1031.5909 5201.0454 196864
-2910.4106 1038.2053 5234.3936 197378
-2901.7185 1046.2544 5274.9751 2565402
-2908.1733 1059.9998 5344.2764 4013103
-3101.6689 1142.9728 5762.6069 2696987
-3206.0386 1194.5841 6022.8198 657668
-3198.5151 1205.1964 6076.3242 657409
-3212.6694 1224.3115 6172.6982 920322
-3135.2725 1208.5758 6093.3628 1117701
-3110.6196 1213.0419 6115.8799 1314822
-3066.49 1209.9286 6100.1831 1380616
-3018.1436 1205.0575 6075.6235 1577994
-2972.283 1201.073 6055.5352 1446408
-2917.7654 1193.4502 6017.103 1314823
-2858.2339 1183.5629 5967.2529 1577995
-2841.7126 1191.4608 6007.0723 1446410
-2813.6282 1194.6494 6023.1489 1512202
-2748.7122 1182.0806 5959.7798 1512202
-2706.6528 1179.1421 5944.9644 1577995
-2658.7944 1173.5663 5916.853 1709581
-2623.4785 1173.4518 5916.2754 1709581
-2583.033 1171.0085 5903.957 1643788
-2541.6948 1168.088 5889.2324 1643534
-2495.7688 1162.9485 5863.3198 1709071
-2482.5618 1173.1251 5914.6279 1577996
-2452.0803 1175.3131 5925.6597 1643533
-2397.0054 1165.6056 5876.7168 1314824
-2365.2815 1167.1343 5884.4238 1643790
-2338.0078 1170.9375 5903.5986 1709581
-2278.4211 1158.4272 5840.5249 1840911
-2215.9824 1144.0586 5768.0815 1840912
-2170.9019 1138.3419 5739.2593 1972497
-2151.8262 1146.2961 5779.3628 1841168
-2138.7349 1157.7471 5837.0957 1775120
-2105.373 1158.4211 5840.4946 1577742
-2060.9683 1152.9404 5812.8613 1774864
-2029.7725 1154.7881 5822.1772 1841168
-1983.8138 1148.1556 5788.7378 1906961
-1947.9658 1147.2443 5784.1426 1840913
-1891.9707 1134.2222 5718.4888 1840913
-1871.3134 1142.2963 5759.1963 1775120
-1846.9773 1148.3831 5789.8843 1840913
-1818.1296 1151.8419 5807.3237 1840913
-1778.3639 1148.3839 5789.8892 1840913
-1746.3669 1149.9053 5797.5591 1840913
-1708.4382 1147.5034 5785.4497 1906706
-1675.7413 1148.5892 5790.9243 1972499
-1635.8417 1144.6805 5771.2173 1972499
-1597.5685 1141.767 5756.5278 1972499
-1562.6703 1141.1913 5753.625 1906706
-1531.9891 1143.7382 5766.4658 1972499
-1491.983 1139.2806 5743.9922 1906706
-1448.4188 1131.8347 5706.4512 854278
-1385.4998 1108.5466 5589.0386 1577741
-1383.1478 1133.765 5716.1836 1709327
-1354.3369 1138.0166 5737.6191 1578254
-1316.7966 1134.9631 5722.2246 1578254
-1281.7513 1133.9557 5717.145 1578254
-1243.4437 1129.929 5696.8433 1446670
-1205.2611 1125.7943 5675.9976 1512463
-1174.9719 1129.0068 5692.1943 1512463
-1137.6937 1125.4952 5674.4893 1512462
-1099.1301 1120.4595 5649.1001 1512463
-1056.9982 1111.3555 5603.1997 1512463
-1027.3002 1115.1582 5622.3726 1644049
-994.79681 1116.0686 5626.9624 1709842
-960.02716 1114.4115 5618.6074 1709842
-930.0528 1118.4015 5638.7241 1644049
-893.05548 1113.9291 5616.1758 1644049
-849.73315 1100.9158 5550.5654 1709842
-827.68835 1115.5316 5624.2549 1644049
-791.88263 1112.0493 5606.6978 1644049
-754.64838 1106.1681 5577.0459 1644049
-715.12 1096.2314 5526.9478 1644049
-686.78265 1103.3193 5562.6836 1644049
-654.20502 1103.9664 5565.9463 1578256
-624.6955 1110.1346 5597.0449 1644049
-591.57959 1110.2263 5597.5068 1709842
-557.68341 1108.7775 5590.2021 1578256
-513.9588 1086.371 5477.2339 1644049
-486.07324 1096.6802 5529.2104 1775635
-458.43735 1109.0835 5591.7451 1775635
-424.01266 1105.7161 5574.7671 1841428
-391.14719 1106.1892 5577.1523 1775635
-357.29626 1103.7053 5564.6294 1841428
-325.35025 1107.1991 5582.2446 1709842
-291.15518 1102.9637 5560.8906 1709842
-257.34583 1099.295 5542.394 1644049
-223.86095 1096.1418 5526.4961 1578256
-191.20541 1096.6647 5529.1323 1775635
-157.69659 1091.4978 5503.0825 1775635
-124.88736 1089.7417 5494.2285 1709842
-92.181511 1087.9674 5485.2827 1775635
-59.529079 1085.2341 5471.502 1841428
-27.087429 1084.4014 5467.3032 1841428
5.319653 1086.672 5478.7515 1841428
37.729355 1085.116 5470.9067 1709842
70.181145 1085.6493 5473.5952 1709842
102.33254 1082.6672 5458.5605 1709842
134.50667 1081.3003 5451.6689 1512463
166.75645 1080.9532 5449.9189 1512463
199.92624 1085.7151 5473.9268 1380877
232.48912 1086.3115 5476.9341 1315084
264.0127 1082.5006 5457.7202 1380877
294.11188 1074.3185 5416.4678 1315084
327.79807 1079.5597 5442.8926 1380877
359.3027 1077.3207 5431.6045 1380877
390.61414 1074.9183 5419.4922 1644049
421.06787 1070.7 5398.2241 1709842
450.74045 1065.2312 5370.6519 1644049
482.82312 1065.8037 5373.5386 1512463
517.99329 1072.6993 5408.3047 1512462
548.13843 1068.9916 5389.6108 1380877
583.37836 1075.0809 5420.312 1183498
610.5874 1066.5073 5377.0859 1117705
637.63354 1058.5138 5336.7842 1183498
673.71942 1065.5729 5372.375 1183498
704.40179 1063.8345 5363.6099 1315084
731.1026 1056.4924 5326.5933 1249291
763.53375 1057.6962 5332.6621 1380877
799.08899 1062.96 5359.2007 1446670
829.01074 1060.614 5347.373 1315084
857.80902 1057.0564 5329.436 1117448
891.0896 1059.0787 5339.6323 854533
919.96295 1055.9039 5323.6255 722947
948.17255 1052.2029 5304.9663 1051912
980.0108 1052.6371 5307.1548 1446670
1007.4708 1048.4878 5286.2354 1578770
1043.405 1053.142 5309.7007 1907735
1064.8613 1043.3384 5260.2729 1973014
1100.9438 1048.0154 5283.854 2038807
1128.8638 1044.8784 5268.0381 2038807
1161.1406 1045.8347 5272.8594 2104600
1191.8834 1045.3953 5270.6436 2170393
1228.8136 1050.2666 5295.2036 2038551
1261.7246 1051.5458 5301.6528 1841173
1289.4161 1048.5184 5286.3896 1775380
1316.8691 1045.4453 5270.8955 1775380
1348.3745 1045.6571 5271.9639 1644564
1380.4712 1046.3075 5275.2432 1710357
1411.5651 1046.186 5274.6304 1776150
1428.8282 1036.041 5223.4814 1776150
1478.1093 1049.0502 5289.0708 1973529
1507.3134 1047.5658 5281.5869 1973529
1541.4629 1049.5089 5291.3838 1907736
1574.3508 1050.5328 5296.5459 1907736
1605.7946 1050.5718 5296.7422 1841943
1620.8688 1040.105 5243.9712 1841943
1653.8605 1041.3134 5250.0635 1710357
1673.3344 1034.1229 5213.811 1775380
1710.4578 1037.903 5232.8691 1643794
1730.5841 1031.4182 5200.1748 1775380
1769.9476 1036.425 5225.418 1775380
1809.5319 1041.3868 5250.4341 1709587
1835.7659 1038.6276 5236.5225 1578771
1862.7174 1036.3593 5225.0859 1512978
1900.1378 1039.8944 5242.9097 1512978
1926.4382 1037.3282 5229.9712 1512978
1965.4692 1041.5897 5251.4565 1512978
1988.0236 1037.1226 5228.9346 1512978
2000.3228 1027.5249 5180.5454 1447185
2035.5175 1029.8004 5192.0181 1447185
2058.8469 1026.0947 5173.335 1381392
2073.6704 1018.3207 5134.1401 1512978
2112.2485 1022.2681 5154.042 1578771
2118.6875 1010.7704 5096.0728 1512978
2154.1357 1013.2407 5108.5278 1512978
2208.9094 1024.6067 5165.8325 1578771
2242.1047 1025.7897 5171.7969 1776151
2289.1785 1033.2047 5209.1816 1776150
2307.2874 1027.5232 5180.5371 1710357
2324.1758 1021.4546 5149.9404 1710357
2357.1023 1022.5005 5155.2139 1578771
2378.7356 1018.6835 5135.9688 1512978
2409.812 1018.9557 5137.3413 1578771
2435.0393 1016.7786 5126.3652 1447185
2461.365 1015.1083 5117.9438 1644564
2461.5479 1002.8281 5056.0298 1447185
2505.9741 1008.6512 5085.3887 1381392
2520.7742 1002.553 5054.6431 1644564
2547.314 1001.2124 5047.8838 1710357
2581.0945 1002.7157 5055.4629 1710357
2629.8901 1009.9507 5091.9404 1776150
2633.9717 1000.0451 5041.9985 2039322
2679.8237 1006.0427 5072.2373 2170908
2677.3406 993.96289 5011.3335 2236701
2706.4792 993.75891 5010.3052 2170908
2733.8652 992.92285 5006.0898 2302494
2760.3499 991.78082 5000.332 2368286
2770.3569 984.8056 4965.1646 2302493
2887.6672 1015.7204 5121.0298 2170907
2846.7603 990.91882 4995.9858 1973785
2899.1895 998.78247 5035.6323 2104857
2803.7222 956.05402 4820.2056 2104343
2903.0752 979.95001 4940.6836 2170136
2927.801 978.42963 4933.0181 2236186
2954.2314 977.50323 4928.3477 2170393
2964.6738 971.35657 4897.3574 2170393
2998.6326 972.95947 4905.439 2236443
3007.0869 966.33557 4872.043 2170393
3019.7104 961.16486 4845.9731 2170393
3050.6194 961.85675 4849.4614 2104600
3115.248 973.06836 4905.9878 2170136
3139.8411 971.68292 4899.0029 2038807
3187.0046 977.24371 4927.0391 1841428
3232.5979 982.2265 4952.1611 1841428
3272.5464 985.41974 4968.2607 1841428
3290.8018 982.08215 4951.4336 1841428
3305.1855 977.65851 4929.1304 1907221
3336.4971 978.27539 4932.2407 1907221
3334.5791 969.22339 4886.6025 1841428
3389.9492 976.83514 4924.979 1907221
3390.9514 968.784 4884.3872 1907221
3417.6401 968.14581 4881.1694 1907221
3489.1873 980.1189 4941.5352 1907221
3545.5798 987.67139 4979.6133 1841428
3579.6658 988.93665 4985.9922 1775635
3626.9768 993.80481 5010.5366 1841428
3638.1948 988.78473 4985.2261 1775635
3638.3242 980.85608 4945.252 1775635
3666.874 980.65472 4944.2363 1775635
3711.176 984.6358 4964.3086 1775635
3744.5354 985.67395 4969.5425 1775635
3839.0347 1002.6642 5055.2036 1578256
3822.5925 990.6405 4994.5825 1578256
3828.8135 984.62952 4964.2769 1446670
3828.3179 976.99615 4925.791 1380877
3874.0027 981.17456 4946.8574 1380362
3940.6301 990.5545 4994.1489 1380362
4011.6614 1000.8933 5046.2749 1577740
4079.5012 1010.2888 5093.645 1511948
4113.9863 1011.3467 5098.9785 1511948
4151.1147 1013.0342 5107.4868 1512205
4195.4644 1016.4467 5124.6919 1446668
4211.2705 1012.9448 5107.0356 1446670
4290.145 1024.5543 5165.5684 1315083
4328.8423 1026.4725 5175.2393 1380876
4391.6021 1034.0293 5213.3394 1249034
4436.0225 1037.1926 5229.2876 1117704
4497.0161 1044.1602 5264.4165 986118
4512.418 1040.5186 5246.0566 657156
4490.8506 1028.4607 5185.2632 394243
4508.749 1025.5432 5170.5542 262913
4480.1865 1012.1687 5103.1226 131072
4495.7197 1008.8689 5086.4858 131072
4515.3418 1006.5244 5074.6655 196608
4560.644 1009.8975 5091.6719 196608
4554.6938 1001.9516 5051.6108 196608
4627.5996 1011.3432 5098.9609 196608
4656.6479 1011.0903 5097.6855 262144
4703.563 1014.6949 5115.8594 196608
4705.4507 1008.6019 5085.1396 196608
4748.1895 1011.287 5098.6777 196608
4742.0205 1003.5875 5059.8584 196608
4701.6948 988.80139 4985.3101 196608
4709.3613 984.22992 4962.2622 196608
4717.6289 979.84003 4940.1294 196608
0 0 0 0
0 0 0 0
0 0 0 0
0 0 0 0
-4863.7842 1089.9319 5335.7832 512
-4832.168 1089.9319 5335.7832 512
-4765.7754 1082.0363 5297.1299 256
-4750.5845 1085.738 5315.252 256
-4700.9678 1081.5686 5294.8408 256
-4710.1211 1090.9556 5340.7949 256
-4673.1826 1089.7216 5334.7534 256
-4700.1226 1103.4678 5402.0483 256
-4764.0195 1126.1385 5513.0332 256
-4651.6543 1107.1689 5420.1675 256
-4595.1997 1101.3358 5391.6113 256
-4582.6714 1106.0227 5414.5562 256
-4612.7935 1121.1418 5488.5718 256
-4571.0776 1118.8914 5477.5547 256
-4526.5093 1115.9054 5462.937 256
-4518.2808 1121.8999 5492.2832 256
-4487.502 1122.3412 5494.4438 256
-4473.7124 1127.0693 5517.5903 256
-4414.1763 1120.2572 5484.2417 256
-4371.2676 1117.5951 5471.209 256
-4335.5054 1116.734 5466.9932 256
-4314.9321 1119.8018 5482.0117 256
-4311.6035 1127.4252 5519.332 256
-4243.8706 1118.1958 5474.1494 256
-4194.1167 1113.5978 5451.6396 65536
-3919.1924 1048.6783 5133.8257 65536
-3900.5649 1051.8584 5149.3936 65536
-3872.0581 1052.4034 5152.062 65536
-3858.6655 1057.0978 5175.043 65536
-3830.1289 1057.6853 5177.9194 65536
-3790.4058 1055.1682 5165.5967 65792
-3812.7227 1070.0215 5238.311 986375
-3864.7803 1093.5336 5353.415 3683622
-3875.3374 1105.5951 5412.4624 4802097
-3887.0627 1118.194 5474.1406 5328438
-3759.8679 1090.7056 5339.5703 5328436
-3731.178 1091.5681 5343.7935 5460022
-3707.9851 1094.0677 5356.0303 5460024
-3791.2537 1128.2938 5523.5845 4933683
-3722.3999 1117.4493 5470.4956 3880998
-3713.9551 1124.7083 5506.0317 3025434
-3701.4109 1130.8435 5536.0669 2630677
-3645.1797 1123.6219 5500.7134 2565141
-3504.988 1090.1558 5336.8789 2630934
-3428.1045 1075.9502 5267.3359 1841163
-3379.7317 1070.5143 5240.7241 2499351
-3389.0845 1083.4316 5303.9609 3288611
-3315.8413 1069.939 5237.9072 2104594
-3326.6125 1083.5568 5304.5732 2104849
-3307.7559 1087.6918 5324.8164 3223330
-3297.9062 1094.8969 5360.0894 3157537
-3327.387 1115.4265 5460.5928 3091744
-3354.5024 1135.5587 5559.1499 3025949
-3313.7668 1132.8937 5546.103 3157534
-3237.8142 1118.0149 5473.2637 4078382
-3076.9719 1073.226 5253.999 2697504
-2957.6833 1042.1633 5101.9312 65792
-3175.562 1130.4894 5534.3335 0
-2979.4722 1071.7499 5246.7729 131072
-2896.1133 1052.7495 5153.7563 460293
-2910.3037 1069.1819 5234.2012 2039062
-3027.3496 1124.162 5503.3574 855045
-3018.0264 1132.9033 5546.1504 723203
-3029.5718 1149.7568 5628.6572 657667
-3060.4602 1174.4081 5749.3384 920582
-3041.9282 1180.4366 5778.8511 1249030
-3075.6169 1207.0978 5909.3706 1051908
-3043.8 1208.3676 5915.5869 1380873
-2970.5513 1193.027 5840.4873 1314823
-2916.9336 1185.3021 5802.6699 1314823
-2878.2605 1183.5381 5794.0342 1117444
-2816.9529 1172.3118 5739.0757 1512202
-2791.7244 1176.0094 5757.1777 1446409
-2731.6501 1164.9384 5702.9785 1314823
-2685.1482 1159.4503 5676.1123 1380615
-2692.7007 1177.4598 5764.2783 1446409
-2620.46 1160.5922 5681.7021 1577995
-2579.2668 1157.2152 5665.1699 1512202
-2540.6482 1154.9196 5653.9316 1577994
-2501.1252 1152.146 5640.3535 1643788
-2457.6812 1147.4666 5617.4448 1643788
-2414.5879 1142.8245 5594.7197 1577996
-2374.0591 1139.2839 5577.3867 1577995
-2341.752 1139.6447 5579.1528 1512203
-2327.9749 1149.1627 5625.7485 1577483
-2259.3884 1131.5084 5539.3223 327680
-2234.0356 1135.3047 5557.9062 1511690
-2180.8567 1124.8618 5506.7832 1841168
-2148.3582 1124.9308 5507.1206 1841167
-2138.3369 1136.9528 5565.9746 1840911
-2097.1951 1132.5455 5544.3989 1643534
-2060.6079 1130.4967 5534.3691 1511948
-2032.8645 1133.312 5548.1514 1380362
-2000.2102 1133.4371 5548.7637 1511948
-1952.3201 1124.7886 5506.4243 1577741
-1941.8676 1137.7815 5570.0317 1709326
-1889.608 1126.3044 5513.8462 1840911
-1878.5306 1139.4025 5577.9673 1906703
-1847.8385 1140.8593 5585.0991 2038290
-1810.6251 1138.2694 5572.4209 1972498
-1772.9446 1135.2843 5557.8071 1972753
-1742.231 1136.7321 5564.894 1906961
-1711.0364 1137.9155 5570.688 1906706
-1683.3668 1141.536 5588.4121 1775120
-1649.3715 1140.926 5585.4263 1775120
-1609.9053 1136.4294 5563.4126 1775120
-1575.0825 1135.0907 5556.8594 1775120
-1534.9413 1129.7806 5530.8633 1709327
-1501.0057 1128.9059 5526.5811 1840913
-1461.7722 1123.9188 5502.1665 1840913
-1429.1697 1123.9188 5502.1665 1511948
-1392.601 1120.7268 5486.5405 1709327
-1366.2861 1125.8318 5511.5317 1643534
-1343.1532 1133.8727 5550.8965 1643534
-1300.7643 1125.6537 5510.6597 1578255
-1261.4789 1119.7662 5481.8379 1644049
-1228.3517 1119.1785 5478.9604 1512463
-1192.5089 1116.0175 5463.4854 1380877
-1156.9508 1112.9539 5448.4873 1380876
-1123.6045 1111.903 5443.3428 1446670
-1090.2455 1110.7772 5437.8315 1578256
-1061.0248 1113.9275 5453.2539 1512463
-1022.7001 1107.4175 5421.3843 1512463
-988.33484 1104.9117 5409.1172 1512463
-954.45093 1102.7939 5398.75 1644049
-919.84784 1099.6699 5383.4561 1644049
-888.85748 1100.7954 5388.9653 1709842
-844.12781 1084.3553 5308.4829 1775635
-818.48907 1092.116 5346.4751 1644049
-786.21191 1091.287 5342.417 1315084
-752.30054 1088.0251 5326.4487 1644049
-725.55438 1095.2939 5362.0337 1644049
-694.9646 1097.1609 5371.1729 1644049
-662.89825 1096.7638 5369.229 1644049
-629.93567 1094.769 5359.4634 1644049
-600.10217 1098.2894 5376.6973 1644049
-568.23645 1098.2765 5376.6343 1644049
-535.01379 1095.4838 5362.9624 1709842
-507.60352 1104.9911 5409.5059 1709842
-476.09198 1106.2505 5415.6709 1709842
-444.44687 1107.359 5421.0981 1709842
-410.84567 1103.3868 5401.6523 1709842
-377.66629 1099.9722 5384.9355 1775635
-344.04684 1094.5271 5358.2793 1709842
-310.53333 1088.3463 5328.021 1578256
-278.12823 1085.0908 5312.0835 1644049
-245.53651 1080.1835 5288.0596 1644049
-215.38625 1086.1521 5317.2793 1775635
-183.41321 1083.3994 5303.8032 1841428
-151.87547 1082.6112 5299.9448 1775635
-120.9996 1087.36 5323.1924 1841428
-89.227501 1084.5637 5309.5034 1841428
-57.735481 1083.9802 5306.647 1841942
-26.177111 1079.2654 5283.5654 1841685
5.126214 1078.4406 5279.5273 2038807
36.312092 1075.5544 5265.3979 1973014
67.361053 1073.1545 5253.6494 1907221
98.195328 1069.9325 5237.876 1841428
129.84663 1075.0225 5262.7939 1775635
160.72354 1072.9713 5252.752 1644049
193.06244 1079.7622 5285.9976 1578256
223.19849 1074.0569 5258.0669 1183498
253.93697 1072.2932 5249.4326 1512463
284.57132 1070.5227 5240.7651 1578256
314.6358 1067.1678 5224.3408 1644049
345.4863 1066.8409 5222.7412 1644049
376.60898 1067.3392 5225.1807 1775635
405.42981 1061.734 5197.7397 1775635
437.2002 1064.0989 5209.3174 1841428
466.42035 1060.3544 5190.9854 1841428
497.79669 1061.6716 5197.4346 1709842
531.68805 1067.8868 5227.8608 1775635
563.25171 1069 5233.3105 1644048
590.47888 1062.196 5200.002 1578256
621.65027 1062.8103 5203.0088 1512462
651.85797 1061.7968 5198.0474 1512463
676.36761 1052.0121 5150.146 1644049
708.41864 1054.2955 5161.3247 1709842
737.72821 1052.479 5152.4316 1644049
768.73816 1053.1361 5155.6489 1775635
798.63055 1052.2705 5151.4111 1709842
828.29608 1051.1809 5146.0767 1775635
855.01617 1046.5632 5123.4712 1775635
886.83423 1048.2883 5131.9165 1644049
917.4715 1048.5497 5133.1958 1446670
955.66895 1057.1572 5175.334 1446670
973.1814 1043.0592 5106.3169 1709585
999.48199 1038.9467 5086.1841 1907221
1033.7577 1043.1222 5106.625 2236186
1065.9064 1044.975 5115.6953 2104600
1098.6111 1047.2552 5126.8589 1973014
1133.8727 1051.7847 5149.0327 2104600
1169.4556 1056.3669 5171.4653 2038807
1195.7548 1052.5433 5152.7466 2170393
1218.5233 1045.8798 5120.125 2170393
1246.9619 1044.2885 5112.3345 1973014
1284.4729 1050.1901 5141.2266 1841430
