# .PCD v0.7 - Point Cloud Data file format
VERSION 0.7
FIELDS x y z rgb
SIZE 4 4 4 4
TYPE F F F U
COUNT 1 1 1 1
WIDTH 1304
HEIGHT 1
VIEWPOINT 0 0 0 1 0 0 0
POINTS 1304
DATA ascii
5170.2241 1447.0023 8888.7344 330240
5053.8989 1400.1824 8601.126 1024
5109.1206 1401.3499 8608.2979 1118976
4940.0371 1341.5791 8241.1348 7696706
4769.0317 1282.4617 7877.9844 5852966
5029.3813 1339.3635 8227.5244 1708800
5164.2202 1362.0692 8367.002 1774848
5101.3784 1332.7003 8186.5933 131328
4940.9634 1278.6345 7854.4746 131328
4877.9048 1250.5367 7681.8735 66048
4820.0811 1224.2881 7520.6323 66048
4739.0654 1192.6838 7326.4912 66048
4670.7295 1164.8153 7155.2983 66048
4631.2969 1144.5914 7031.0664 66048
4556.0352 1115.9523 6855.1401 66048
4344.6362 1054.7686 6479.2969 722944
4351.25 1047.1211 6432.3193 1182977
4335.937 1034.3755 6354.0254 985344
4520.6011 1069.1451 6567.6099 458752
4525.5786 1061.1869 6518.7241 655360
4566.312 1061.6771 6521.7349 589824
4381.7046 1010.2062 6205.5562 589824
4320.1631 987.729 6067.4819 2297344
4181.1318 948.05225 5823.7534 4203269
4151.1426 933.54736 5734.6523 7492640
4151.5938 926.0683 5688.7095 7690267
4199.2441 929.15332 5707.6602 7689752
4257.6025 934.53955 5740.7466 7952413
4258.8574 927.40546 5696.9229 7754776
4266.1235 921.68225 5661.7661 7557653
4269.6152 915.23926 5622.188 7294225
4201.6831 893.70416 5489.9004 7162384
4205.3535 887.61285 5452.4824 7228176
4149.5845 869.16437 5339.1562 7162385
4123.666 857.20026 5265.6621 7030800
4122.1436 850.44891 5224.1895 7162128
4045.2095 828.35583 5088.4751 6899473
4018.0845 816.71393 5016.9604 8017696
3997.1604 806.4942 4954.1816 7227923
3964.0955 793.99158 4877.3804 6767887
3923.844 780.24097 4792.9121 6767630
3959.0635 781.58722 4801.1821 6635790
3883.752 761.24933 4676.249 5912837
3893.4578 757.74561 4654.7261 5978887
3821.0872 738.42981 4536.0718 5518339
3808.4956 730.85559 4489.5444 6899473
3761.6235 716.85352 4403.5317 8280353
3803.0549 719.75647 4421.3643 8411422
3830.5952 720.00867 4422.9136 8674335
3874.2354 723.26306 4442.9048 8410906
3873.9739 718.33313 4412.6206 7883791
3884.7861 715.50879 4395.2715 8409620
3769.2695 689.60956 4236.1758 8146191
3748.2395 681.22546 4184.6733 8738584
3753.0642 677.61969 4162.5234 7423243
3756.1687 673.75232 4138.7671 8344341
3683.0027 656.34314 4031.825 7818766
3726.0842 659.74121 4052.6987 8345366
3721.9192 654.78375 4022.2458 9002785
3694.7744 645.8725 3967.5049 9463594
3726.4961 647.29895 3976.2676 8279321
3683.7678 635.85669 3905.9795 8410652
3717.7869 637.72211 3917.4385 7818515
3727.3271 635.39142 3903.1213 7489293
0 0 0 0
0 0 0 0
-10943.96 1999.6077 11851.915 1024
-11065.999 2034.9642 12061.478 1024
-11038.599 2043.1208 12109.823 1024
-11045.046 2057.6902 12196.177 1024
-10948.646 2053.1646 12169.354 1024
-10922.845 2061.9058 12221.164 1024
-10887.485 2068.9475 12262.901 1024
-10812.209 2068.4475 12259.938 1024
-10800.28 2080.1416 12329.25 1024
-10700.454 2074.9502 12298.48 1024
-10650.714 2079.4668 12325.251 1024
-10528.676 2069.8328 12268.148 1024
-10551.285 2088.6987 12379.969 1024
-10492.314 2091.5664 12396.966 1024
-10495.779 2107.0083 12488.492 1024
-10421.796 2107.0117 12488.512 768
-10342.484 2105.9297 12482.1 768
-10327.962 2118.1199 12554.353 768
-10248.168 2117.0037 12547.735 768
-10194.165 2121.2375 12572.831 768
-10173.664 2132.5564 12639.919 1024
-10129.345 2139.0134 12678.189 1024
-10130.478 2155.2366 12774.348 1024
-10145.855 2174.7578 12890.052 1024
-10126.24 2187.0171 12962.715 1024
-10129.023 2204.3386 13065.381 1024
-10055.204 2205.1279 13070.059 1024
-9952.4385 2199.5317 13036.891 1024
-9804.6104 2183.8115 12943.714 1024
-9770.7891 2193.4365 13000.763 1024
-9706.2822 2196.2712 13017.564 1024
-9733.6094 2220.0974 13158.785 1024
-9724.4541 2235.9204 13252.568 1024
-9536.7588 2210.615 13102.581 1024
-9539.2588 2229.3435 13213.587 1024
-9297.9229 2190.925 12985.877 1024
-9396.834 2232.7092 13233.537 1024
-9329.8359 2235.4448 13249.75 1024
-9081.8975 2194.5049 13007.095 1024
-9073.041 2211.1294 13105.63 1024
-9057.3232 2226.354 13195.869 1024
-8900.9785 2206.9761 13081.013 1024
-9013.1387 2254.4177 13362.205 768
-8865.5469 2237.1538 13259.879 768
-9127.9678 2323.9692 13774.446 768
-8876.4287 2280.3174 13515.717 768
-9162.1699 2375.1528 14077.816 768
-8463.0195 2214.0667 13123.04 768
-8323.0693 2197.6455 13025.71 768
-8306.0254 2213.6733 13120.709 768
-8271.1465 2225.2058 13189.063 768
-8046.9263 2185.5337 12953.921 1024
-8026.4424 2200.9644 13045.381 1024
-7997.8989 2214.4639 13125.395 1024
-7948.7446 2222.4658 13172.823 1024
-7811.8789 2205.8591 13074.393 1024
-7609.0947 2170.1196 12862.561 1024
-7631.4219 2198.5085 13030.825 1024
-7647.2212 2225.5779 13191.269 1024
-7607.6958 2236.9392 13258.607 1024
-7548.1855 2242.5996 13292.157 1024
-7487.7471 2248.1006 13324.764 1024
-7412.4438 2249.209 13331.332 1024
-7258.8828 2226.3386 13195.776 1024
-7215.2817 2237.0625 13259.34 1024
-7150.4526 2241.3689 13284.863 768
-7122.2402 2257.3765 13379.743 768
-7043.981 2257.7039 13381.684 768
-6980.375 2262.7886 13411.821 768
-6890.4888 2259.3733 13391.578 768
-6843.4448 2270.0901 13455.097 768
-6693.8501 2246.6404 13316.107 768
-6682.3472 2269.5315 13451.787 768
-6681.2979 2296.5686 13612.039 768
-6551.2168 2279.3726 13510.115 768
-6312.4053 2223.4521 13178.669 768
-6326.5815 2256.3584 13373.707 768
-7102.5879 2565.2505 15204.548 768
-7507.167 2746.2068 16277.099 768
-7977.417 2956.2097 17521.811 768
-8121.2983 3049.2126 18073.051 768
-8179.1235 3111.959 18444.957 768
-8142.272 3139.8948 18610.535 768
-6197.0137 2422.5569 14358.787 768
-5642.9756 2236.679 13257.065 768
-5524.6826 2220.7053 13162.388 768
-5460.0166 2226.1387 13194.592 768
-5274.0049 2181.5364 12930.229 768
-5119.2417 2148.7358 12735.815 768
-5018.4507 2137.9463 12671.865 768
-4847.3794 2096.4338 12425.815 768
-4712.2495 2069.4246 12265.729 512
-4540.417 2025.1986 12003.596 1024
-4519.5049 2047.9523 12138.46 1024
-4386.2476 2019.7111 11971.071 1024
-4306.5576 2015.6129 11946.78 1024
-4194.876 1996.1541 11831.446 1024
-4150.7017 2008.7034 11905.827 1024
-4076.1963 2006.7546 11894.276 1024
-4082.3396 2045.1399 12121.791 1024
-3972.4744 2025.7424 12006.819 1024
-3894.448 2022.1694 11985.642 1024
-3818.332 2019.4741 11969.666 1024
-3727.3501 2008.6654 11905.602 1024
-3657.8762 2009.254 11909.091 1024
-3536.3472 1980.7096 11739.904 1024
-3455.2761 1974.1349 11700.936 1024
-3372.022 1966.0182 11652.827 1024
-3283.4438 1954.3933 11583.925 1024
-3202.043 1946.635 11537.94 1024
-3123.5022 1940.3152 11500.481 1024
-3004.8433 1908.236 11310.345 1024
-2952.3867 1917.6946 11366.406 768
-2877.2246 1912.5022 11335.631 768
-2779.6011 1891.7744 11212.775 768
-2711.8684 1890.8732 11207.434 768
-2625.5259 1876.6254 11122.984 768
-2539.5356 1861.9017 11035.716 1024
-2440.2688 1836.4086 10884.615 1024
-2294.6086 1773.6708 10512.761 329984
-2190.739 1740.636 10316.959 528384
-2129.6543 1740.6747 10317.188 594688
-2072.3801 1743.9224 10336.438 726016
-1990.6416 1726.1539 10231.122 726272
-1925.6205 1722.2207 10207.81 660736
-1900.9454 1755.2871 10403.798 989696
-1822.2245 1738.9928 10307.22 792320
-1765.9523 1743.7344 10335.324 1318656
-1739.579 1779.4003 10546.72 1252864
-1692.4153 1795.6654 10643.125 660736
-1629.3533 1795.6685 10643.144 660736
-1579.5486 1810.8705 10733.248 528640
-1531.7137 1829.7014 10844.86 659712
-1475.8091 1840.1196 10906.61 132096
-1427.3914 1861.2544 11031.879 768
-1376.5027 1881.0415 11149.159 768
-1321.4481 1896.8436 11242.82 512
-1279.4213 1934.0168 11463.15 66048
-1224.8694 1955.3633 11589.674 658439
-1163.9506 1968.4783 11667.407 1579029
-1125.7544 2024.1044 11997.11 1579543
-1100.5126 2112.0913 12518.619 1645338
-1037.4209 2134.9053 12653.841 1908510
-977.85144 2169.0874 12856.441 2040096
-919.39465 2211.7219 13109.142 2105889
-867.22272 2278.7395 13506.363 2105890
-767.72546 2222.3879 13172.361 2171684
-703.31464 2266.3435 13432.891 2303013
-623.8103 2266.6741 13434.85 2500392
-554.79083 2310.7717 13696.222 2368806
-479.44516 2339.1174 13864.23 2171684
-401.08511 2361.438 13996.526 2303013
-316.21606 2347.0828 13911.442 2434856
-232.60504 2335.2349 13841.218 2500394
-151.18428 2344.4463 13895.815 2500393
-68.89875 2346.2427 13906.463 2434599
13.527424 2350.5508 13931.998 2434856
96.834351 2369.0029 14041.366 2434599
175.71442 2312.1492 13704.387 2237477
258.29617 2324.5486 13777.879 2105889
341.90399 2338.0085 13857.658 2105889
428.52536 2362.8721 14005.027 2040096
512.20367 2366.0725 14023.997 2105633
600.33856 2386.093 14142.661 2040352
689.48633 2404.7412 14253.19 2105889
778.02661 2417.4319 14328.411 2105889
873.14172 2446.0444 14498 2105889
962.08813 2453.7979 14543.955 2040096
1065.9812 2495.2637 14789.729 2040097
1153.6163 2495.2637 14789.729 1908510
1257.0337 2526.9905 14977.777 1974303
1350.0752 2535.05 15025.547 2040096
1449.724 2553.7512 15136.392 2237476
1553.9138 2577.8064 15278.969 1908510
1637.0065 2566.1416 15209.83 1776667
1739.8318 2585.0125 15321.681 1710875
1800.3542 2542.2759 15068.375 1579545
1919.527 2582.4844 15306.696 1381909
1992.7372 2560.0181 15173.535 1381910
2083.6003 2561.1904 15180.484 1513496
2175.5854 2563.5879 15194.694 1315860
2256.4189 2553.1768 15132.985 1381653
2305.1494 2508.6245 14868.92 1513239
2412.3779 2528.6707 14987.735 1644825
2436.4712 2463.2444 14599.946 1447446
2539.1589 2479.0383 14693.56 1447446
2537.5459 2395.3301 14197.41 1579033
2560.5837 2339.5166 13866.597 1579289
2590.7561 2293.4897 13593.789 1250580
2637.197 2264.2058 13420.221 1316373
2723.3774 2269.7568 13453.122 1382166
2786.5598 2256.3694 13373.773 1514009
2864.8906 2255.6499 13369.508 1579802
2880.3884 2206.8289 13080.141 1513752
2986.0049 2227.8022 13204.452 1316630
3103.2683 2256.1721 13372.604 1645595
3122.9434 2213.946 13122.325 1777180
3192.5967 2208.3423 13089.111 1908510
3324.1265 2244.7893 13305.137 1974303
3397.1941 2240.9827 13282.574 1908510
3579.0461 2307.4839 13676.735 1842717
3633.1799 2290.5208 13576.193 1908508
3655.0276 2254.3792 13361.978 1908508
3769.6238 2275.7634 13488.724 1908509
3871.8538 2288.9487 13566.875 2105630
4083.2495 2364.8213 14016.581 2039581
4118.4893 2337.6821 13855.723 1842202
4179.2583 2325.8105 13785.359 1842202
4235.5039 2311.925 13703.059 1710873
4270.4082 2287.1323 13556.109 1710616
4383.7803 2304.5046 13659.076 1447445
4420.4331 2281.6479 13523.602 1644821
4550.793 2307.1113 13674.526 592391
4621.4131 2301.9277 13643.803 789257
4768.8735 2334.5383 13837.09 526342
4784.5757 2302.6365 13648.004 328965
4847.4424 2294.116 13597.502 1184015
5018.9561 2336.4524 13848.435 2434336
5112.3799 2341.6584 13879.292 3421487
5151.4951 2322.2185 13764.068 3553074
5158.3926 2289.0872 13567.695 3552817
5459.52 2385.5364 14139.362 3224109
5269.9219 2267.8889 13442.051 3289646
5284.5732 2240.3335 13278.728 3289903
5445.6475 2274.7505 13482.721 3223854
5363.603 2208.0854 13087.588 2961195
5459.8926 2215.6904 13132.664 3421486
5392.3745 2157.5408 12788.004 3947830
5341.0078 2107.3752 12490.667 4539968
5277.7983 2053.9724 12174.142 4539968
5384.2056 2067.1299 12252.128 4868932
5527.0684 2093.7468 12409.891 5329482
5606.4277 2095.9248 12422.8 5066053
5596.5542 2065.1196 12240.213 7105633
6006.5518 2188.052 12968.849 3552299
6074.1035 2184.7092 12949.035 394756
6034.2847 2143.3132 12703.675 6382160
6039.1099 2118.5986 12557.189 13355700
6069.0762 2103.1982 12465.909 13158316
5910.9648 2023.7748 11995.157 13684657
5962.8354 2017.2772 11956.646 13684915
5859.458 1959.0273 11611.392 13882037
5840.5156 1930.0319 11439.531 13684657
5634.7383 1840.6692 10909.868 8485984
5440.1357 1756.9426 10413.61 2432008
5375.623 1716.6368 10174.713 3683601
5304.4585 1675.124 9928.6621 3552274
5286.9468 1651.28 9787.335 2499840
5313.9165 1641.6951 9730.5244 3092493
5314.8823 1624.3687 9627.8291 8746044
5249.4761 1587.3407 9408.3594 1315328
5214.585 1560.2209 9247.6182 1447936
5056.3911 1497.1565 8873.8271 1185024
5145.0098 1507.7173 8936.4219 658944
5054.8521 1466.2069 8690.3848 856576
4950.978 1421.5953 8425.9668 461568
4841.647 1376.3234 8157.6343 131584
4705.3945 1324.3693 7849.6963 7105599
4692.4497 1307.7983 7751.4785 6972217
4914.4683 1356.3987 8039.5386 1840385
4990.2036 1364.0793 8085.0625 1644291
4993.8579 1352.0978 8014.0464 920832
4896.5591 1313.2661 7783.8862 131584
4841.3125 1286.3325 7624.2476 768
4744.585 1248.9772 7402.8379 768
4733.1694 1234.5583 7317.376 512
4673.5737 1207.9485 7159.6562 768
4631.085 1186.199 7030.7446 768
4535.1045 1151.2584 6823.647 66048
4508.0156 1134.269 6722.9492 512
4504.3232 1123.4127 6658.6025 262400
4439.9033 1097.7306 6506.3813 2104068
4359.7896 1068.6438 6333.9805 5128222
4410.9956 1071.967 6353.6772 3483147
4394.6787 1058.9634 6276.603 917504
4482.2407 1070.999 6347.9399 786432
4517.8452 1070.5228 6345.1172 589824
4469.1221 1050.2377 6224.8853 524288
4311.7905 1004.9705 5956.5815 4011289
4384.4219 1013.6021 6007.7417 4077330
4448.644 1020.1661 6046.6475 2695424
4479.7109 1019.0828 6040.2266 3417344
4496.5942 1014.8157 6014.9351 3613953
4434.3604 992.90045 5885.0405 5521933
4466.7856 992.35718 5881.8203 5981203
4593.7285 1012.6579 6002.1455 7691818
4608.813 1008.1777 5975.5908 7755305
4394.021 953.86377 5653.6655 7163165
4326.0381 932.00037 5524.0786 6702352
4232.0859 904.91241 5363.5249 7031318
4173.8052 885.79877 5250.2358 7360791
4021.1274 847.08246 5020.7598 7688987
4007.5569 838.02374 4967.0674 7557660
3975.6011 825.28052 4891.5366 7097109
3967.5996 817.6582 4846.3589 7228696
3963.4966 810.94336 4806.5586 7294487
3933.3567 799.03491 4735.9761 6504458
3949.1201 796.55408 4721.272 6438664
3954.7705 792.0827 4694.7695 7627839
3810.3228 757.82129 4491.6982 7759425
3788.5898 748.27222 4435.0996 6243354
3850.043 755.17139 4475.9917 8282165
3828.2886 745.76691 4420.2505 7359256
3848.3616 744.58307 4413.2334 8148252
3848.7004 739.6228 4383.8335 9266472
3851.7229 735.24121 4357.8633 8870944
3822.3352 724.77258 4295.8145 8739614
3813.2229 718.2616 4257.2231 8344856
3798.241 710.73785 4212.6289 8345110
3790.9561 704.74316 4177.0977 8279062
3765.2288 695.42004 4121.8384 8279318
3743.8013 687.00623 4071.9688 8410394
3706.2576 675.76166 4005.3206 8805408
3694.7153 669.37079 3967.4412 8278809
3711.9189 668.23572 3960.7136 7752212
3683.8547 659.01685 3906.072 5515267
3720.2664 661.37524 3920.0508 6239234
3687.8359 651.54193 3861.7676 6897158
0 0 0 0
0 0 0 0
0 0 0 0
-10550.696 2008.3445 11499.819 1024
-10599.892 2030.8247 11628.542 1024
-10647.979 2053.3857 11757.727 1024
-10476.379 2033.5997 11644.431 1024
-10372.843 2026.8508 11605.787 1024
-10320.278 2030.0381 11624.038 1024
-10276.513 2035.011 11652.513 1024
-10163.37 2026.2197 11602.174 1024
-10141.17 2035.5629 11655.672 1024
-10050.854 2031.2678 11631.079 1024
-10034.085 2041.88 11691.845 1024
-10050.639 2059.468 11792.554 1024
-10080.634 2080.0757 11910.554 1024
-10033.562 2084.9595 11938.519 1024
-9981.4268 2088.853 11960.813 1024
-9973.3809 2102.0952 12036.638 1024
-9917.9111 2105.4604 12055.907 1024
-9833.749 2102.7393 12040.326 1024
-9818.0254 2114.7192 12108.924 1024
-9822.0391 2131.1584 12203.055 1024
-9849.0674 2152.8718 12327.387 1024
-9885.0156 2176.8745 12464.825 1024
-9839.9922 2183.2725 12501.46 1024
-9757.0547 2181.2913 12490.116 1024
-9617.9922 2166.6367 12406.204 1024
-9627.6055 2185.5063 12514.252 1024
-9459.4766 2164.0078 12391.15 1024
-9405.1523 2168.4109 12416.363 1024
-9307.1729 2162.7393 12383.887 1024
-9278.1143 2173.1201 12443.328 1024
-9291.3984 2193.6643 12560.964 1024
-9042.6885 2152.1848 12323.452 1024
-8943.8242 2145.9839 12287.946 1024
-8876.71 2147.3623 12295.838 1024
-8841.6426 2156.5798 12348.618 1024
-8804.8477 2165.5261 12399.845 1024
-8829.2061 2189.7903 12538.782 1024
-8806.1211 2202.5996 12612.128 1024
-8884.1904 2241.1455 12832.843 1024
-8816.9473 2243.3838 12845.659 1024
-8827.6143 2265.657 12973.196 1024
-8660.0059 2242.1641 12838.676 1024
-8576.1904 2240.1423 12827.099 1024
-8597.7148 2265.8455 12974.274 1024
-8369.2139 2225.5261 12743.406 1024
-8295.6006 2226.0349 12746.319 768
-8130.2153 2201.7009 12606.982 768
-7921.8418 2165.1663 12397.784 768
-8013.1562 2210.6235 12658.074 768
-7941.8867 2211.6638 12664.03 1024
-7751.625 2179.2708 12478.546 1024
-7594.1235 2155.5522 12342.733 1024
-7536.0781 2159.8772 12367.499 1024
-7453.6953 2157.2432 12352.416 1024
-7459.0205 2180.1934 12483.829 1024
-7496.1094 2212.98 12671.567 1024
-7292.1738 2174.5564 12451.552 1024
-7279.8965 2193.0842 12557.643 1024
-7290.9453 2219.0945 12706.578 1024
-7214.0688 2218.6069 12703.787 1024
-7171.8618 2228.884 12762.633 1280
-7108.5547 2232.7524 12784.784 1280
-7006.9858 2224.5574 12737.858 1280
-6974.146 2238.2407 12816.21 1024
-6919.5366 2245.1624 12855.843 1024
-7010.8418 2300.1094 13170.472 1024
-6877.8232 2281.8691 13066.027 1024
-6618.7593 2220.9194 12717.027 1024
-6565.3315 2228.3611 12759.639 768
-6550.1284 2249.1013 12878.398 1024
-6364.7617 2211.2134 12661.451 1024
-6251.8691 2197.9004 12585.22 1024
-6301.6958 2242.1619 12838.663 1024
-6181.4619 2226.2578 12747.596 1024
-7004.4185 2553.8533 14623.413 1024
-7290.8037 2691.5676 15411.969 1024
-7659.8325 2863.6724 16397.443 1024
-7828.9404 2964.4976 16974.771 1024
-5619.5596 2155.5901 12342.95 1024
-5518.543 2144.7546 12280.907 1024
-5495.4614 2164.3237 12392.959 1024
-5485.481 2189.6521 12537.991 1024
-5329.5278 2156.6082 12348.78 768
-5256.3799 2156.6179 12348.836 768
-5154.7729 2144.7866 12281.09 768
-5147.1646 2172.2871 12438.559 1024
-4933.3174 2112.2822 12094.969 1024
-4896.792 2127.5508 12182.397 1024
-4712.5283 2078.127 11899.395 1024
-4618.5435 2067.6169 11839.215 1024
-4495.625 2043.6305 11701.867 1024
-4333.6196 2000.8456 11456.881 1024
-4223.4946 1981.0338 11343.438 1024
-4177.1904 1991.0002 11400.506 1024
-4146.2559 2008.7406 11502.088 1024
-4091.1431 2015.1647 11538.872 1024
-4011.4324 2009.485 11506.35 1024
-3920.592 1997.9369 11440.226 1280
-3831.5664 1986.9238 11377.164 1280
-3751.6414 1980.3199 11339.351 1024
-3681.5149 1978.7417 11330.313 1024
-3597.6013 1969.557 11277.722 1024
-3591.626 2003.5002 11472.082 1024
-3452.4463 1963.0155 11240.265 1024
-3333.1121 1932.4435 11065.209 1024
-3258.7427 1927.2368 11035.396 1024
-3165.0984 1910.1844 10937.754 1024
-3110.1992 1916.2911 10972.721 1024
-3041.1821 1913.7745 10958.311 1024
-2955.7305 1900.5803 10882.76 1024
-2757.4875 1812.6534 10379.289 1024
-2704.5513 1818.4122 10412.264 1024
-2621.9392 1804.0215 10329.862 1024
-2605.386 1835.4811 10510 1024
-2536.0571 1830.3906 10480.853 1024
-2458.0103 1818.5946 10413.308 1024
-2414.2546 1832.2153 10491.3 1024
-2272.6145 1770.3062 10136.808 1024
-2202.1418 1761.9785 10089.123 132864
-2093.7886 1722.0314 9860.3848 528384
-2005.7151 1696.9485 9716.7598 989696
-1932.8436 1683.6249 9640.4688 1647616
-1829.5226 1642.1586 9403.0322 1976832
-1799.6884 1666.1204 9540.2373 2042624
-1745.287 1668.1547 9551.8857 2306304
-1705.0715 1684.3385 9644.5557 1845504
-1640.9606 1677.2216 9603.8037 1713408
-1606.903 1701.4144 9742.332 1450240
-1560.4219 1713.7657 9813.0557 1384192
-1507.0612 1719.2249 9844.3154 1252352
-1506.9216 1788.2821 10239.738 1186304
-1458.3209 1803.2113 10325.224 1580545
-1428.814 1844.0914 10559.304 1053696
-1404.2115 1895.3358 10852.729 1316609
-1367.4615 1934.3157 11075.929 1052684
-1308.0148 1943.5021 11128.53 3553070
-1223.2474 1914.0439 10959.853 4737600
-1176.1915 1943.5989 11129.085 5066824
-1122.521 1965.0856 11252.118 5329484
-1081.9728 2013.7081 11530.531 5527120
-1033.8292 2053.7961 11760.077 5527122
-986.62305 2101.6763 12034.239 5790294
-957.18762 2197.8201 12584.761 5790550
-879.45966 2189.9561 12539.73 6119258
-815.79272 2218.885 12705.378 6250845
-729.4306 2185.6914 12515.312 6711396
-614.44482 2049.5093 11735.53 6974568
-540.59009 2033.2721 11642.556 6908775
-460.02905 1983.3712 11356.821 7369069
-387.15823 1955.2058 11195.547 7435376
-312.21951 1902.7903 10895.414 7304046
-247.41501 1900.9095 10884.645 6974825
-182.74966 1899.1486 10874.562 7172204
-118.61196 1903.9391 10901.992 7369582
-53.843304 1897.9478 10867.686 7566706
10.65132 1915.7943 10969.876 7369327
76.322098 1932.7578 11067.009 7172203
144.76312 1971.7749 11290.422 7632498
213.41783 1988.1185 11384.005 7829878
285.88306 2023.5841 11587.082 7764084
354.16394 2021.4309 11574.753 7500912
427.1196 2042.3296 11694.419 7435118
502.60968 2067.8208 11840.383 7435119
581.7641 2100.2959 12026.336 7303532
662.77777 2131.6638 12205.948 7237739
727.54584 2109.7495 12080.467 7698034
812.32043 2144.5798 12279.906 7698291
870.29199 2108.739 12074.68 7566703
915.45007 2049.6548 11736.362 7237994
985.87756 2051.4956 11746.904 7237994
1056.4551 2053.3857 11757.727 7369581
1197.9337 2184.3235 12507.479 7500910
1283.1417 2203.3777 12616.584 7303787
1308.812 2123.7256 12160.494 7368812
1418.6564 2181.843 12493.275 7368813
1492.6227 2181.7534 12492.763 7566191
1571.5559 2188.5894 12531.905 7369069
1640.8138 2181.9421 12493.843 7434605
1716.2919 2183.7832 12504.385 7303276
1761.9778 2149.1338 12305.981 7369068
1815.2161 2126.0837 12173.997 7369324
1874.9946 2112.1636 12094.289 7369324
1917.4911 2080.5166 11913.078 7435118
1953.4799 2044.3069 11705.741 7566704
1989.049 2010.1562 11510.193 7566448
2041.6871 1994.9481 11423.111 7500912
2081.6863 1968.7626 11273.173 7435118
2151.271 1971.3163 11287.795 7369325
2194.8469 1950.6013 11169.181 7566448
2270.2759 1958.5789 11214.86 7632497
2305.3618 1932.2882 11064.32 7632497
2380.2686 1939.9054 11107.936 7632497
2435.6021 1931.5896 11060.319 7632497
2474.5591 1911.0624 10942.78 7632497
2594.896 1952.827 11181.926 7566448
2623.5044 1925.1995 11023.729 7369068
2736.7014 1959.4794 11220.017 7237739
2848.6431 1991.2556 11401.969 7171689
2863.9141 1955.5507 11197.521 7303531
2987.7468 1993.9126 11417.183 7566703
3082.813 2011.8032 11519.624 7698032
3136.5295 2002.5189 11466.462 7698032
3212.2598 2007.3851 11494.326 7632495
3264.8252 1997.8735 11439.863 7500652
3409.4338 2043.9283 11703.573 7369066
3469.2422 2038.3231 11671.478 7434859
3573.6167 2058.6099 11787.64 7500652
3622.6572 2046.854 11720.326 7434602
3745.3044 2076.3472 11889.204 7237480
3753.9692 2042.7278 11696.698 7368808
3803.075 2031.9341 11634.894 7368809
3909.9036 2051.8162 11748.739 7237223
3900.9075 2011.2843 11516.652 7237480
4100.7378 2077.9646 11898.466 7171686
3973.6265 1979.52 11334.771 7236964
4033.8694 1976.13 11315.358 7105378
4091.199 1971.4469 11288.543 7236961
4133.8511 1959.9554 11222.743 7236704
4190.1265 1955.1848 11195.426 7302754
4248.0166 1951.3047 11173.209 7434597
4273.8467 1933.043 11068.642 7697768
4329.1909 1928.4806 11042.518 7697769
4389.9766 1926.4419 11030.844 7631974
4463.3633 1929.9116 11050.711 7368547
4538.979 1934.2311 11075.444 7434597
4600.8193 1932.6406 11066.338 7500390
4641.1865 1922.2015 11006.563 7696998
4711.397 1924.2402 11018.237 7763049
4777.2725 1924.4771 11019.594 7960428
4802.5542 1908.5753 10928.54 8289393
4876.1572 1912.0443 10948.403 8420978
4938.5796 1911.0961 10942.973 8683635
4983.8682 1903.6274 10900.208 8814965
5237.5581 1974.9323 11308.501 7894370
5461.0718 2033.2008 11642.147 11776925
5697.897 2094.9099 11995.494 8681567
5672.5078 2059.8794 11794.909 9209197
5986.9517 2147.6045 12297.225 13289133
5846.1284 2071.8728 11863.584 13619381
5843.2441 2046.2456 11716.842 13684915
5703.8555 1973.9792 11303.043 13421998
5743.543 1964.645 11249.596 13552813
5804.4136 1962.688 11238.39 13749679
5699.8604 1905.4738 10910.78 13618091
5303.0298 1752.9301 10037.312 12828317
4761.9209 1556.6073 8913.1631 4932916
5297.7344 1712.7614 9807.3047 2103559
5309.1548 1697.8297 9721.8057 5325857
5283.0078 1671.3336 9570.0889 9666120
5118.2051 1602.001 9173.0889 854784
5142.7178 1592.7589 9120.168 1842688
5075.8438 1555.6996 8907.9658 2040323
4923.6782 1493.5311 8551.9883 1711874
4908.8242 1473.8566 8439.3311 1382912
4931.1313 1465.6238 8392.1904 198400
4902.4961 1442.5657 8260.1592 856064
4706.5918 1371.2308 7851.6938 6973244
4616.958 1331.9503 7626.7734 7827521
4871.2158 1391.6793 7968.7827 2169094
4921.4106 1392.5215 7973.605 1972227
4893.9263 1371.5773 7853.6777 1118208
4938.748 1371.1013 7850.9526 1184768
4839.4912 1331.0082 7621.3784 512
4839.9028 1318.8148 7551.5596 856576
4782.5029 1291.2363 7393.644 132352
4703.2041 1258.2997 7205.0483 768
4667.1431 1237.4193 7085.4868 768
4582.5361 1204.1548 6895.0142 512
4572.2041 1190.8231 6818.6763 66048
4481.2144 1156.9017 6624.4414 131584
4541.1958 1162.2068 6654.8188 1380614
4390.8618 1114.0588 6379.1226 6837794
4431.8311 1114.8563 6383.689 5192977
4313.0298 1075.7892 6159.9897 393216
4393.874 1086.757 6222.7915 589824
4466.4824 1095.5221 6272.981 458752
4519.6353 1099.4099 6295.2427 458752
4463.2227 1076.8004 6165.7798 3485714
4447.3467 1064.2584 6093.9644 2564610
4729.7383 1122.7195 6428.7139 3683344
4820.1138 1135.031 6499.2095 2038528
5169.0132 1207.5415 6914.4058 2696964
4862.0288 1126.8943 6452.6187 3750419
4761.1016 1094.892 6269.3726 3422223
4608.2939 1051.5466 6021.1768 4212517
4750.7329 1075.7208 6159.5981 13290412
4891.0908 1099.0587 6293.2319 13422001
4968.7251 1108.0558 6344.749 13487022
4473.5664 990.14062 5669.5645 14341046
4278.4937 939.90662 5381.9238 13155227
4196.8052 915.14014 5240.1104 10982769
3942.6133 853.39819 4886.5747 9665103
4009.3486 861.51624 4933.0591 7427368
4056.1155 865.2572 4954.4795 6439953
3961.9863 839.10425 4804.7271 6637073
3953.9961 831.43744 4760.8267 7162902
3961.0735 827.02527 4735.5625 7031572
3924.4556 813.61627 4658.7822 6833683
3804.6238 783.26318 4484.98 6767889
3858.1504 788.77325 4516.5308 7622685
3855.0518 782.71039 4481.8149 7096085
3846.0408 775.53833 4440.7476 7359254
3855.8174 772.2265 4421.7837 7161106
3875.3467 770.89935 4414.1846 6897676
3910.1792 772.61377 4424.0015 7226380
3933.7751 772.09991 4421.0591 7423502
3913.0581 762.95288 4368.6831 7357707
3865.6023 748.74695 4287.3394 7621133
3855.0388 741.82562 4247.708 8147733
3807.7522 727.97339 4168.3896 8805662
3806.6165 723.06604 4140.29 8410905
3775.386 712.54156 4080.0269 8476699
3811.7031 714.81842 4093.0642 8213528
3758.0715 700.30493 4009.9595 8015638
3737.4253 692.08179 3962.8738 7818003
3725.9517 685.64941 3926.0417 7752724
3719.8538 680.27985 3895.2957 7686931
0 0 0 0
0 0 0 0
0 0 0 0
-10351.486 2037.2789 11282.688 1024
-10409.439 2062.0022 11419.608 1024
-10275.008 2048.6899 11345.884 1024
-10174.166 2041.9437 11308.523 1024
-10051.59 2030.7173 11246.35 1024
-10040.291 2041.9723 11308.681 1024
-10019.781 2051.4927 11361.406 1024
-10058.764 2073.4048 11482.758 1024
-9924.6924 2059.7012 11406.865 1024
-9671.084 2020.8315 11191.602 1024
-9731.4121 2047.4769 11339.167 1024
-9729.8564 2061.3823 11416.176 1024
-9570.4092 2041.7968 11307.709 1024
-9561.1709 2054.2073 11376.44 1024
-9534.0557 2062.9263 11424.726 1024
-9533.3311 2077.5208 11505.553 1024
-9512.4033 2087.8909 11562.984 1024
-9515.0986 2103.6345 11650.174 1024
-9523.6367 2120.9094 11745.844 1024
-9480.9404 2126.9446 11779.268 1024
-9481.251 2142.7891 11867.017 1024
-9412.9902 2143.2573 11869.609 1024
-9295.8896 2132.5283 11810.191 1280
-9297.1426 2148.9937 11901.378 1280
-9303.5859 2166.9194 12000.653 1024
-9261.5879 2173.752 12038.492 1024
-9152.7314 2164.8765 11989.339 1024
-9067.1758 2161.4167 11970.178 1024
-8945.0791 2149.123 11902.094 1024
-8990.2773 2177.1475 12057.296 1024
-9004.8594 2198.147 12173.595 1024
-8880.9404 2185.4036 12103.021 1024
-8658.2764 2147.9558 11895.631 1024
-8462.9111 2116.7217 11722.652 1024
-8371.9854 2111.3086 11692.674 1024
-8390.8281 2133.7185 11816.783 1024
-8394.6553 2152.6548 11921.654 1024
-8356.1846 2160.9746 11967.729 1024
-8278.7803 2159.2812 11958.353 1024
-8207.208 2159.0935 11957.312 1024
-8190.7412 2173.5254 12037.238 1280
-8037.5361 2151.6069 11915.85 1280
-7879.3159 2127.9451 11784.809 1280
-7608.4824 2073.175 11481.485 1280
-7486.3262 2058.2944 11399.074 1280
-7656.7031 2124.304 11764.644 1280
-7807.627 2186.0798 12106.766 1280
-7992.2974 2258.5378 12508.047 1280
-7859.4971 2241.7991 12415.345 1280
-7844.959 2258.7949 12509.47 1280
-8750.2188 2543.478 14086.079 1280
-8549.3301 2509.0173 13895.231 1280
-8469.5186 2509.7651 13899.372 1280
-7388.0356 2210.7883 12243.604 1280
-7464.4619 2255.8093 12492.936 1280
-7082.5059 2161.8188 11972.405 1280
-7103.7993 2190.2568 12129.897 1280
-6974.4019 2172.3398 12030.672 1280
-6993.2124 2200.6924 12187.692 1280
-6853.189 2179.1321 12068.287 1280
-6727.5679 2161.7441 11971.992 1280
-6919.5137 2247.1162 12444.792 1280
-7046.166 2312.8953 12809.083 1280
-7408.877 2458.4358 13615.104 1280
-6573.4087 2205.2207 12212.771 1024
-6283.3862 2131.3896 11803.884 1024
-6297.959 2160.3806 11964.44 1024
-7327.0332 2541.9968 14077.876 1024
-6568.0122 2304.908 12764.849 1024
-7065.3311 2508.3171 13891.354 1024
-6515.4604 2340.3689 12961.236 1024
-7348.3711 2671.0374 14792.517 1024
-7032.8989 2587.2278 14328.369 1024
-7567.1216 2817.771 15605.146 1024
-7637.2598 2879.0693 15944.622 1024
-7445.6831 2842.0071 15739.367 1024
-6105.645 2360.0779 13070.387 1024
-6191.9019 2424.1692 13425.332 1024
-6400.229 2538.3418 14057.634 1024
-6336.3066 2546.1272 14100.749 1024
-5683.6489 2314.387 12817.346 1024
-5182.8931 2139.0623 11846.376 1024
-5100.3931 2133.9138 11817.863 768
-4991.7056 2117.5132 11727.035 768
-4944.6924 2127.1814 11780.579 768
-4782.4961 2086.866 11557.307 1024
-4616.1021 2043.5205 11317.255 1024
-4506.5835 2024.447 11211.624 1024
-4358.4185 1987.1821 11005.247 1024
-4241.8911 1963.4294 10873.701 1024
-4195.312 1971.8199 10920.169 1280
-4155.3872 1983.6498 10985.685 1280
-4090.4055 1983.7045 10985.987 1280
-3969.2966 1956.101 10833.116 1280
-3905.9551 1956.5264 10835.472 1280
-3789.8162 1930.0771 10688.993 1280
-3717.5776 1925.4667 10663.459 1280
-3681.415 1939.7046 10742.311 1280
-3624.1997 1943.156 10761.425 1280
-3505.0161 1912.9111 10593.925 1280
-3485.1453 1936.7526 10725.962 1280
-3325.3706 1882.2889 10424.336 1280
-3189.1992 1839.3768 10186.684 1024
-3074.5876 1807.4835 10010.056 1024
-3078.4463 1845.3517 10219.773 1024
-3000.1133 1834.4817 10159.574 1024
-2906.5037 1813.6342 10044.118 1024
-2843.8486 1811.6342 10033.041 1024
-2781.2283 1809.5714 10021.617 1024
-2641.8535 1756.3894 9727.0898 1024
-2670.1223 1814.7761 10050.442 1280
-2608.6306 1813.4285 10042.979 1024
-2509.1633 1785.0022 9885.5508 1024
-2450.9746 1785.2842 9887.1123 1024
-2392.3359 1785.244 9886.8906 1024
-2323.0752 1777.0767 9841.6582 1024
-2223.6711 1744.8362 9663.1064 1024
-2135.8049 1720.1841 9526.5801 1024
-2024.6425 1674.9213 9275.9092 1280
-1961.2957 1667.7924 9236.4297 67328
-1920.5497 1680.0247 9304.1729 396544
-1844.7677 1661.4261 9201.1719 791808
-1795.5007 1666.3018 9228.1738 989184
-1741.944 1667.3777 9234.1318 1515520
-1659.3352 1639.8126 9081.4746 1515264
-1631.3466 1666.187 9227.5381 1515264
-1585.3215 1675.3301 9278.1738 1581056
-1567.03 1715.491 9500.5898 1843200
-1523.342 1729.8065 9579.8711 1316352
-1494.3755 1762.594 9761.4512 986880
-1450.1743 1779.3292 9854.1328 1315331
-1426.3425 1823.5098 10098.81 2500117
-1398.9121 1866.7576 10338.321 6315847
-1412.8661 1971.7203 10919.617 7960676
-1225.064 1791.6852 9922.5615 7763557
-1172.541 1801.3208 9975.9248 7500900
-1122.656 1816.2472 10058.59 7435109
-1068.3915 1825.3651 10109.085 7303267
-1029.0952 1862.6584 10315.62 7237477
-924.86298 1779.7061 9856.2197 6777182
-864.81903 1776.3335 9837.543 7040354
-805.71576 1774.5454 9827.6396 7171940
-756.84735 1796.7766 9950.7588 7369065
-693.86554 1786.4279 9893.4463 7500905
-628.46198 1767.3584 9787.8379 7566442
-553.88824 1716.0017 9503.418 7632748
-506.18478 1745.6887 9667.8281 7632490
-449.95718 1749.8037 9690.6172 7632491
-390.48914 1740.6779 9640.0771 7435112
-327.7608 1711.4008 9477.9375 7500649
-279.04013 1758.2809 9737.5654 7632493
-221.16452 1756.8778 9729.7949 7435372
-166.39539 1787.8634 9901.3965 7237992
-108.60267 1802.4192 9982.0078 7237992
-49.489185 1803.6554 9988.8545 7172199
9.851531 1832.0608 10146.167 7237735
70.454277 1844.6975 10216.15 7171686
128.93608 1815.7856 10056.033 7434858
189.5444 1825.632 10110.563 7632237
252.51787 1848.0583 10234.763 7566445
314.54382 1856.2073 10279.893 7369064
375.90726 1858.4366 10292.239 7237478
432.2998 1838.8986 10184.035 7106662
494.04419 1844.124 10212.975 7040613
553.33252 1840.0416 10190.365 7040613
615.62512 1845.77 10222.09 7172199
669.32098 1827.0063 10118.174 7238248
727.76947 1823.2336 10097.281 7237992
795.87238 1842.3838 10203.337 7303785
866.18481 1863.5837 10320.745 7369065
935.59937 1880.1829 10412.673 7303016
992.80286 1871.7073 10365.733 7040099
1054.3696 1871.9661 10367.166 7105893
1139.2771 1911.3544 10585.304 7171686
1212.8771 1928.6516 10681.098 7171686
1299.6294 1964.1105 10877.473 7237222
1372.812 1976.6793 10947.081 7368807
1448.7684 1991.9279 11031.529 7434601
1525.8518 2007.3424 11116.896 7434858
1600.036 2017.825 11174.95 7500394
1668.7025 2020.7922 11191.384 7500651
1735.3948 2021.2335 11193.827 7500651
1814.5656 2035.6411 11273.618 7632237
1892.3408 2047.5156 11339.381 7632236
1962.1456 2050.2476 11354.51 7632237
2029.5461 2050.3691 11355.184 7829615
2087.9709 2041.7064 11307.208 7764077
2142.1436 2029.5533 11239.903 7829870
2197.2783 2019.0172 11181.554 7698540
2250.0977 2007.033 11115.183 7764077
2307.9548 2000.0959 11076.765 7829614
2356.9167 1986.047 10998.96 7829613
2434.55 1996.2639 11055.543 7698029
2520.1292 2012.2899 11144.297 7566443
2579.9617 2007.4642 11117.571 7631980
2610.7644 1980.8534 10970.197 7566187
2637.5002 1952.5244 10813.309 7500651
2654.4204 1918.4451 10624.573 7500393
2714.9727 1916.7489 10615.18 7303270
2762.8792 1906.4039 10557.888 7237221
2826.0603 1906.8232 10560.21 7303014
2827.1436 1866.2328 10335.415 7434857
2890.491 1867.5936 10342.951 7500650
2978.5286 1884.5192 10436.688 7566443
3054.218 1893.1024 10484.223 7434857
3104.0154 1885.6147 10442.755 7434601
3179.1277 1893.4974 10486.41 7500393
3259.9282 1904.4009 10546.795 7434855
3409.8789 1954.5308 10824.42 6710876
3465.3589 1949.6589 10797.439 7237220
3487.126 1926.3403 10668.298 7500392
3601.9458 1954.3408 10823.367 7566185
3603.3052 1920.8768 10638.041 7566185
3631.4556 1902.6003 10536.823 7631209
3702.8306 1907.205 10562.324 7894892
3812.6941 1931.1515 10694.942 8026478
3923.4343 1954.7517 10825.643 7960684
3976.2908 1949.2172 10794.992 7697512
3964.0232 1912.439 10591.311 7698026
4006.6914 1902.8979 10538.471 7895148
4096.8354 1915.8514 10610.209 7895148
4162.1357 1916.9707 10616.408 7960941
4192.9873 1902.4266 10535.861 8290161
4261.7456 1905.2566 10551.533 8289905
4296.6851 1893.1036 10484.229 8158062
4415.644 1917.7882 10620.936 8026220
4510.2388 1931.3461 10696.021 7960427
4510.1855 1904.5603 10547.678 7894634
4596.856 1914.6278 10603.433 7960427
4619.6411 1898.1738 10512.309 8157806
4622.4644 1874.0647 10378.789 8420978
4730.8594 1892.8279 10482.702 8552306
4813.3237 1900.8647 10527.211 8486513
4864.8442 1896.6318 10503.769 7630685
4936.5029 1900.2578 10523.85 6511944
5405.9277 2054.9993 11380.826 11643026
5481.4375 2058.0308 11397.614 7428157
5749.5581 2132.4246 11809.617 4139024
5558.5288 2036.7855 11279.956 11512988
5797.8271 2099.2283 11625.771 13816506
5730.3403 2050.4309 11355.526 13684921
5647.4395 1997.3147 11061.362 13618096
5649.0767 1974.9728 10937.63 13092262
5674.4097 1961.3278 10862.062 12828320
5571.3608 1904.1121 10545.195 13749424
5665.6045 1914.8459 10604.641 13881266
5463.0308 1826.1271 10113.306 13617836
5047.2168 1668.8271 9242.1602 13155228
5318.4766 1739.6418 9634.3398 6968881
5278.2031 1708.1338 9459.8447 1315328
5232.9775 1675.7023 9280.2354 3419916
5048.7456 1599.8959 8860.4102 2828553
5042.4751 1581.4633 8758.3281 2566921
4972.8101 1543.7263 8549.3369 1711617
4801.8306 1475.6165 8172.1362 659200
4913.4731 1494.8499 8278.6533 1119744
4810.5439 1449.0684 8025.1099 6185276
4718.0913 1407.3079 7793.8354 7827516
4819.2646 1423.5518 7883.7964 2234883
4898.0996 1432.9486 7935.8369 1775876
4823.3345 1397.6581 7740.3936 987649
4838.4482 1388.8312 7691.5093 1514502
4918.9419 1398.7607 7746.5005 724737
4856.0557 1368.1116 7576.7622 198912
4893.9834 1366.1667 7565.9907 1383685
4661.478 1289.4503 7141.1265 726272
4739.2075 1299.1586 7194.8921 528897
4709.4604 1279.4941 7085.9878 264704
4573.7285 1231.6371 6820.9497 724992
4516.9175 1205.6842 6677.2202 131840
4411.5483 1167.3335 6464.8291 657924
4384.9629 1150.3103 6370.5527 7232558
4418.6938 1149.2654 6364.7661 5324821
4313.375 1112.3787 6160.4824 327680
4364.7925 1116.1926 6181.605 655360
4407.3389 1117.6934 6189.916 393216
4454.3086 1120.2817 6204.2515 458752
4521.4604 1127.8623 6246.2334 459264
4597.9917 1137.6403 6300.3848 656896
4806.8198 1179.7302 6533.4839 4801060
5190.4526 1263.7069 6998.5566 1445888
5242.9263 1266.3649 7013.2769 2498048
4798.5781 1149.9235 6368.4106 1906176
4761.1929 1132.0621 6269.4922 2828040
4643.7344 1095.5858 6067.4824 4670247
4850.1021 1135.4829 6288.4365 10527111
4912.7954 1141.3914 6321.1582 11843742
4737.9575 1092.4423 6050.0732 12567470
4708.5474 1077.5083 5967.3672 12763825
4533.9604 1029.8221 5703.2759 11645344
4357.2715 982.3678 5440.4678 12632495
4312.3345 965.09625 5344.8159 11908001
4192.3911 931.41284 5158.2729 11315606
4182.8853 922.57483 5109.3271 11775898
4174.6191 914.13531 5062.5879 11972762
4082.8821 887.6687 4916.0127 10195574
4123.5186 890.15271 4929.7695 9273183
3996.7229 856.71216 4744.5718 7627579
3887.5645 827.49286 4582.7524 6967588
3872.2681 818.51959 4533.0571 8019758
3868.8362 812.16064 4497.8403 9005364
3935.5681 820.51685 4544.1182 7426331
3917.8813 811.27893 4492.9575 7491609
3951.9119 812.80249 4501.3955 7623453
4007.3027 818.66962 4533.8877 8017439
4039.3728 819.72577 4539.7373 7622682
3940.1055 794.29156 4398.8794 7227665
3943.2988 789.71112 4373.5127 7490580
3927.2346 781.35907 4327.2578 7227152
3938.512 778.51984 4311.5337 7095565
3864.9131 759.04803 4203.6968 6898186
3856.5198 752.54956 4167.7075 6963981
3834.5361 743.49872 4117.583 6898187
3777.2817 727.76678 4030.4573 7227152
3770.8086 721.9549 3998.2708 7161101
3730.2217 709.72522 3930.541 7226897
3761.0991 711.15979 3938.4861 7621396
0 0 0 0
0 0 0 0
0 0 0 0
-10099.213 2052.854 11007.721 1024
-10096.256 2065.5933 11076.031 1024
-10157.143 2091.647 11215.734 1024
-9984.0439 2069.5417 11097.203 1024
-10006.179 2087.8809 11195.54 1280
-9874.0576 2074.0632 11121.447 1280
-9813.9756 2075.2932 11128.043 1280
-9694.8721 2063.9749 11067.352 1280
-9496.501 2035.5116 10914.728 1280
-9549.4697 2060.9001 11050.866 1280
-9530.1572 2070.9329 11104.662 1280
-9473.7051 2072.978 11115.629 1024
-9464.0303 2085.3594 11182.02 1024
-9345.3154 2073.719 11119.603 1024
-9236.9111 2064.218 11068.656 1024
-9212.9824 2073.594 11118.932 1024
-9155.916 2075.5928 11129.649 1024
-9107.3711 2079.5667 11150.957 1024
-9138.2812 2101.8735 11270.571 1280
-9034.5547 2093.3137 11224.672 1280
-9068.835 2116.8401 11350.824 1024
-9031.6631 2123.9153 11388.763 1280
-8924.2432 2114.4531 11338.024 1280
-8867.6338 2116.9771 11351.559 1280
-8859.2168 2131.1328 11427.463 1280
-8832.0479 2140.9607 11480.163 1280
-8702.1074 2125.8354 11399.059 1280
-8695.8809 2140.9316 11480.007 1280
-8712.7656 2162.001 11592.983 1280
-8583.0537 2146.7395 11511.149 1280
-8371.1201 2110.5039 11316.848 1280
-8313.291 2112.8489 11329.423 1280
-8051.0059 2062.8464 11061.301 1280
-8068.9902 2084.4236 11177.001 1280
-8188.2437 2132.7346 11436.053 1280
-8056.9028 2116.0366 11346.516 1280
-7978.625 2113.1116 11330.831 1280
-8003.4404 2137.6724 11462.529 1280
-7955.3403 2143.0112 11491.158 1280
-7841.3262 2130.5332 11424.249 1280
-7708.3394 2112.6382 11328.293 1280
-7560.062 2090.2014 11207.982 1280
-7634.6904 2129.5413 11418.931 1280
-7367.3916 2073.3589 11117.671 1280
-7352.042 2087.7068 11194.606 1280
-7532.5786 2158.4465 11573.925 1280
-7468.1108 2159.6357 11580.301 1280
-7752.4067 2262.6382 12132.615 1280
-7857.4668 2314.7671 12412.139 1280
-7733.2979 2299.7129 12331.417 1280
-7607.0454 2283.7463 12245.802 1280
-8116.1196 2460.0435 13191.134 1280
-7421.0771 2271.2456 12178.77 1280
-6789.2412 2098.2742 11251.271 1280
-6808.5947 2125.1235 11395.24 1280
-6893.8174 2173.2761 11653.442 1280
-6944.1343 2211.2874 11857.266 1280
-6965.9775 2240.9165 12016.141 1280
-6964.8872 2263.7031 12138.327 1280
-6776.6099 2225.4922 11933.433 1280
-7790.0952 2585.3052 13862.806 1280
-8017.1187 2689.0017 14418.843 1280
-7370.1021 2498.6147 13397.959 1280
-7155.8936 2452.4102 13150.203 1280
-7745.6968 2683.7664 14390.771 1280
-7933.1743 2779.3215 14903.152 1024
-7991.9814 2831.4421 15182.631 1024
-8093.5342 2900.0657 15550.602 1024
-5889.4727 2134.6111 11446.115 1024
-7159.6611 2625.2168 14076.818 1280
-7146.1802 2651.1602 14215.931 1280
-6315.2832 2370.8521 12712.875 1280
-5800.9775 2204.064 11818.532 1280
-5534.436 2128.4878 11413.28 1024
-5452.6021 2122.9568 11383.622 1024
-5359.9429 2113.0198 11330.338 1024
-5424.4185 2165.5625 11612.081 1024
-5605.1641 2266.4697 12153.161 1024
-6026.9082 2468.7205 13237.661 1280
-6079.2241 2522.9861 13528.642 1280
-5943.8574 2499.769 13404.148 1280
-5110.0112 2178.1899 11679.792 1280
-4846.8486 2094.3799 11230.389 1280
-4779.874 2094.1914 11229.378 1280
-4639.4692 2061.3716 11053.394 1280
-4525.2329 2039.4056 10935.608 1280
-4331.3716 1980.3951 10619.185 1280
-4239.5557 1966.9899 10547.304 1280
-4125.3389 1942.6349 10416.709 1280
-4059.1018 1940.4769 10405.138 1280
-4008.4167 1945.8019 10433.69 1280
-3957.7727 1951.314 10463.247 1536
-3861.8867 1934.3405 10372.233 1536
-3776.9629 1922.3977 10308.193 1536
-3726.2107 1927.7408 10336.845 1536
-3638.855 1914.0095 10263.215 1536
-3498.4011 1871.4076 10034.776 1536
-3501.2964 1905.34 10216.728 1536
-3409.5876 1888.079 10124.172 1280
-3371.3069 1900.3159 10189.788 1280
-3277.4419 1881.0963 10086.729 1280
-3192.4978 1866.3779 10007.808 1280
-3131.7874 1865.5378 10003.303 1024
-3059.3491 1857.5447 9960.4424 1024
-2880.4587 1783.3313 9562.498 1280
-2892.8303 1826.9281 9796.2715 1024
-2882.4167 1857.6263 9960.8799 1024
-2711.334 1783.8971 9565.5322 1024
-2606.6367 1751.6298 9392.5098 1024
-2557.031 1755.783 9414.7803 1024
-2486.3589 1745.3339 9358.75 1024
-2539.0005 1822.9442 9774.9092 1024
-2445.5076 1796.8076 9634.7607 1024
-2408.9858 1812.2811 9717.7314 1024
-2299.3726 1772.1791 9502.6982 1024
-2244.3459 1773.1909 9508.124 1024
-2149.5911 1742.0585 9341.1865 1024
-2108.9783 1754.3175 9406.9219 1024
-2071.4468 1769.8749 9490.3428 1024
-1892.2711 1661.9005 8911.3682 1280
-1823.8748 1647.8131 8835.8281 198656
-1799.9894 1674.2952 8977.8301 264704
-1741.739 1669.4519 8951.8594 725248
-1671.9495 1652.8965 8863.0869 2041600
-1607.2761 1640.4893 8796.5576 1778176
-1600.1467 1687.9519 9051.0596 1316608
-1579.4637 1723.9133 9243.8906 1710336
-1519.9462 1718.5498 9215.1299 1578240
-1502.0326 1761.5797 9445.8623 1052170
-1468.2769 1788.6414 9590.9717 7762264
-1474.2096 1868.1772 10017.455 8092260
-1559.7845 2059.5469 11043.608 7631969
-1307.5192 1802.0563 9662.9043 7434849
-1241.6594 1789.6559 9596.4121 7237472
-1196.7031 1807.6406 9692.8486 7369057
-1135.7178 1802.0059 9662.6348 7303266
-1077.9901 1801.2162 9658.3994 7171681
-1006.6741 1776.3602 9525.1182 7171681
-948.10138 1772.3733 9503.7402 7171940
-896.18903 1781.1204 9550.6426 7303526
-828.91571 1758.46 9429.1338 7434858
-788.3996 1793.3887 9616.4277 7105636
-721.45331 1768.955 9485.4102 6842720
-662.60382 1761.9227 9447.7021 7369064
-588.19232 1708.3931 9160.668 7566698
-534.66083 1710.79 9173.5215 7632491
-497.31256 1771.3727 9498.374 7698284
-438.01929 1759.2767 9433.5137 7698284
-384.59875 1770.6799 9494.6602 7698284
-323.96204 1747.0751 9368.0869 7566698
-278.44608 1812.1139 9716.835 7566699
-221.30898 1815.7159 9736.1504 7566441
-162.10117 1798.8792 9645.8682 7369319
-105.02613 1800.2609 9653.2773 7500905
-48.308426 1818.3978 9750.5303 7632234
9.657486 1854.9109 9946.3193 7632491
67.835648 1834.4189 9836.4385 7698284
128.01854 1862.026 9984.4717 7698283
187.03569 1860.5852 9976.7451 7698284
247.27406 1869.067 10022.227 7566444
307.65784 1875.1501 10054.846 7500651
368.24191 1880.2823 10082.364 7434858
428.7327 1883.5717 10100.003 7369322
492.77765 1899.7572 10186.792 7369321
547.48718 1880.3479 10082.716 7303528
609.4458 1887.2051 10119.485 7369578
660.94769 1863.3541 9991.5938 7303785
724.04236 1873.4207 10045.571 7303785
791.42682 1892.2139 10146.344 7501164
836.59766 1858.993 9968.208 7435114
909.90875 1888.5603 10126.752 7500651
967.8526 1884.5465 10105.23 7566444
1026.798 1882.8373 10096.064 7434858
1115.8676 1933.5137 10367.8 7303271
1163.1085 1910.2052 10242.815 7302758
1232.5232 1923.819 10315.815 7237222
1280.0648 1903.6182 10207.495 7237222
1337.8301 1899.7584 10186.798 7303015
1429.5475 1942.3632 10415.252 7368808
1533.0664 1996.8134 10707.222 7237222
1565.5841 1958.1317 10499.806 7368808
1615.8601 1943.7695 10422.793 7369321
1702.4614 1972.5525 10577.132 7566444
1778.5261 1987.5171 10657.374 7698030
1820.1895 1964.3297 10533.04 7698030
1894.5061 1976.7506 10599.643 7829617
1968.5521 1988.1011 10660.506 7961200
2026.2444 1982.7433 10631.776 7895663
2091.5706 1984.9532 10643.626 7764077
2139.8804 1971.3574 10570.724 7829100
2178.4966 1949.8588 10455.444 7763563
2252.5222 1960.3658 10511.784 7631978
2307.3049 1954.011 10477.709 7631978
2372.1941 1956.324 10490.111 7434599
2417.1636 1942.5105 10416.042 7631978
2503.5574 1961.8461 10519.722 7763563
2551.2546 1950.6554 10459.716 7763564
2572.3088 1920.1077 10295.914 7763564
2631.74 1918.9584 10289.751 7500392
2680.241 1910.0717 10242.1 7368806
2688.2153 1873.3367 10045.121 7368806
2743.0569 1870.1461 10028.013 7566184
2753.4214 1837.4104 9852.4785 7566185
2814.8254 1839.3865 9863.0752 7566185
2882.8933 1845.5483 9896.1162 7500391
2951.6218 1851.8789 9930.0615 7434599
3024.0103 1860.2135 9974.7529 7303013
3087.6843 1862.9707 9989.5371 7368806
3208.3687 1899.3744 10184.739 7368806
3201.8152 1860.4993 9976.2852 7565415
3305.1042 1885.7034 10111.433 7631208
3407.9858 1909.7816 10240.544 7697001
3425.7576 1886.1573 10113.867 7697001
3507.3254 1897.8667 10176.654 7763048
3587.144 1908.2495 10232.329 7763048
3702.5935 1936.9268 10386.101 7763048
3791.946 1951.2373 10462.836 7763048
3811.4397 1929.7183 10347.448 7763047
3871.9385 1929.3127 10345.273 7894634
3921.2612 1923.4377 10313.771 7828841
3990.6907 1927.4545 10335.309 7960427
4053.0403 1927.9818 10338.137 8092012
4079.27 1911.5675 10250.121 8223599
4181.8086 1930.8691 10353.619 8223599
4164.9443 1895.2777 10162.771 8289391
4200.5386 1884.2319 10103.543 8289391
4290.249 1897.4303 10174.314 8486514
4341.2227 1893.3685 10152.535 8617843
4428.1533 1904.8855 10214.291 8617586
4426.0547 1878.3101 10071.789 8552050
4483.3853 1877.3267 10066.516 8486000
4555.0566 1882.2949 10093.156 8223342
4601.3945 1876.8015 10063.7 8419948
4675.0825 1882.4618 10094.051 8683120
4758.6416 1891.903 10144.677 8748654
4828.7051 1895.8104 10165.629 8419687
5208.1147 2019.5784 10829.291 8945774
5711.5781 2187.8528 11731.605 9668213
5606.8813 2121.9229 11378.078 8023388
0 0 0 0
5686.2139 2101.4097 11268.083 10061679
5588.9072 2041.4777 10946.719 13420978
5584.0894 2016.3165 10811.802 13816246
5559.585 1984.699 10642.263 13289130
5534.5376 1953.5986 10475.498 12696479
5545.1812 1935.6467 10379.237 12828070
5510.0645 1902.2905 10200.376 13947587
5436.6689 1856.5861 9955.3018 13488322
5324.5288 1798.7738 9645.3037 13815484
5387.3945 1800.6835 9655.543 13486253
5274.0127 1744.2631 9353.0088 10262649
5052.7583 1653.7107 8867.4521 2236432
5169.3076 1674.4435 8978.625 3749142
4950.0708 1587.094 8510.2432 3157518
4820.2437 1529.8835 8203.4727 1052672
4879.2046 1533.1365 8220.915 1249536
4909.1694 1527.3041 8189.6406 5527087
4755.2212 1464.928 7855.1704 7958335
4846.4067 1478.547 7928.1978 2038017
5013.835 1514.9413 8123.3496 3551258
4786.1748 1432.4021 7680.7612 526592
4797.1768 1422.1711 7625.9019 198144
4948.4082 1453.3158 7792.9043 2632726
4828.5781 1405.0116 7533.8896 856578
4643.4033 1338.7528 7178.5996 1449478
4596.9819 1313.3379 7042.3213 1449734
4650.4141 1316.6515 7060.0894 396800
4628.6191 1298.7972 6964.3516 132864
4563.499 1269.2087 6805.6938 724480
4542.3682 1252.2659 6714.8433 131840
4442.5 1214.099 6510.1865 1118977
4296.8687 1164.1902 6242.5674 7167793
4432.9004 1190.7954 6385.229 5259545
4428.0312 1179.421 6324.2378 459008
4355.9722 1150.4915 6169.1128 655616
4386.752 1148.9789 6161.0024 458752
4428.9546 1150.4585 6168.9365 327936
