# .PCD v0.7 - Point Cloud Data file format
VERSION 0.7
FIELDS x y z rgb
SIZE 4 4 4 4
TYPE F F F U
COUNT 1 1 1 1
WIDTH 1286
HEIGHT 1
VIEWPOINT 0 0 0 1 0 0 0
POINTS 1286
DATA ascii
165.27817 997.8233 2118.9189 2368543
178.8542 1003.5497 2131.0793 2631459
191.59061 1004.1204 2132.2913 2631459
204.46646 1005.3062 2134.8093 2499873
217.25006 1005.9267 2136.127 2499873
229.86026 1005.7201 2135.6882 2499873
242.78304 1006.8314 2138.0481 2565666
254.20862 1001.9315 2127.6428 2565666
265.97421 998.77124 2120.9321 2302494
279.56726 1002.449 2128.7419 2499873
292.41815 1003.263 2130.4705 2763045
305.57892 1005.0287 2134.2202 3026217
317.06955 1001.3795 2126.4707 2828838
330.11404 1002.7291 2129.3367 2894631
342.12512 1000.9557 2125.571 2894633
354.27802 999.70856 2122.9226 2697254
365.64929 996.41711 2115.9329 2631461
380.09265 1001.4379 2126.5947 2631461
391.8465 999.27759 2122.0073 2697253
403.57706 997.19427 2117.5833 2828839
414.83487 994.10352 2111.02 2631461
426.8653 992.99103 2108.6575 2763046
439.48547 993.27472 2109.26 2631459
451.80423 992.88037 2108.4226 2631459
463.48962 991.15283 2104.7542 2565666
473.95435 986.97388 2095.8799 2763045
488.55386 991.39874 2105.2764 3157803
501.94235 993.20709 2109.1165 3157803
513.97504 992.31006 2107.2114 3157803
527.3678 994.01886 2110.8403 3026217
540.30994 994.81909 2112.5396 2499359
551.74823 992.87683 2108.415 2499873
564.45288 993.24884 2109.2051 3223596
576.03198 991.66718 2105.8462 3157803
586.36578 988.05414 2098.1738 2894631
600.48883 990.84363 2104.0974 2894631
613.09064 991.06042 2104.5579 3223596
627.80682 994.61847 2112.1135 2763045
637.97272 990.96936 2104.3645 3223595
652.10266 993.49957 2109.7375 3419948
664.55737 993.43036 2109.5903 3222826
674.93396 990.31439 2102.9736 3025447
687.99933 991.18518 2104.8228 2828068
697.79828 987.40283 2096.7908 3091754
711.82861 989.63568 2101.5322 2960424
721.58142 985.94702 2093.6992 2763045
736.55463 989.39551 2101.0222 4078905
747.87177 987.89978 2097.8462 3157803
762.96802 991.3634 2105.2012 3092010
775.479 991.41052 2105.3013 3486768
785.73798 988.62262 2099.3811 3486768
801.44122 992.66486 2107.9648 3420975
813.0249 991.55884 2105.6162 3552561
826.98236 993.33765 2109.3936 3486255
840.27808 994.28027 2111.3953 3551791
847.77673 988.43652 2098.9858 3683377
860.40967 988.66132 2099.4631 3551791
871.12793 986.71082 2095.3213 3683377
882.92279 986.01764 2093.8494 3354412
896.43042 987.2298 2096.4233 3091240
909.25037 987.66193 2097.3411 3157033
920.46466 986.36182 2094.5801 2828067
936.01013 989.67578 2101.6174 2959654
945.03857 986.10254 2094.0295 3091241
959.08392 987.78888 2097.6106 2762276
968.02496 984.24237 2090.0793 2893863
983.83478 987.68091 2097.3813 3354414
999.22083 990.61365 2103.6091 3091242
1007.4672 986.48315 2094.8379 3025449
1020.5678 987.1485 2096.2507 3091242
1041.8347 995.60181 2114.2017 3025447
1057.2146 998.29517 2119.9211 2762275
1066.7654 995.48572 2113.9551 3157034
1071.1473 987.97394 2098.0037 2959657
1086.7557 990.87067 2104.1548 3025449
1100.0568 991.62158 2105.7495 3025449
1112.6034 991.68329 2105.8804 3486000
1124.7661 991.40521 2105.29 3288620
1136.7412 990.9696 2104.365 3222829
1156.7119 997.43823 2118.1013 3354413
1171.0199 998.93744 2121.2849 3288620
1176.0765 992.59662 2107.8201 3222826
1222.1732 1020.6625 2167.4192 3354414
1202.6351 993.90179 2110.5916 3222571
1216.2223 994.78595 2112.4692 3222828
1232.3392 997.70032 2118.658 3222827
1243.7361 996.77301 2116.6887 3222828
1260.0818 999.79077 2123.0972 3091241
1272.3463 999.54285 2122.5706 2828069
1278.7504 994.74078 2112.3733 2564895
1289.5173 993.39294 2109.511 2696482
1301.2241 992.78796 2108.2263 2828070
1318.7125 996.56378 2116.2444 3091242
1333.415 998.18286 2119.6826 3091242
1347.6187 999.40173 2122.271 2828070
1361.0651 1000.0418 2123.6301 3025449
1373.8204 1000.1671 2123.8962 3091242
1388.6476 1001.7846 2127.3311 2893863
1400.5667 1001.294 2126.2893 2959655
1406.6399 996.67017 2116.4702 3091240
1424.3131 1000.2745 2124.1243 3091240
1433.1417 997.65857 2118.5693 3091240
1438.314 992.56506 2107.7529 3157033
1454.7218 995.24591 2113.4458 3025447
1478.2935 1002.7402 2129.3604 3156776
1486.5303 999.79401 2123.104 3025448
1502.2091 1001.8606 2127.4924 3222570
1514.8616 1001.8912 2127.5574 3157032
1525.8965 1000.8602 2125.3682 3025446
1542.5021 1003.4702 2130.9104 3091240
1555.3561 1003.6169 2131.2222 3025447
1566.8506 1002.8912 2129.6812 3288619
1568.7026 996.05457 2115.1631 3157033
1585.0474 998.45551 2120.2617 3420205
1594.5706 996.5556 2116.2271 3551791
1604.4526 994.90778 2112.7278 3288619
1611.1127 991.30286 2105.0725 3485998
1624.7534 992.01562 2106.5862 3222826
1639.4236 993.34125 2109.4014 2893604
1645.4866 989.47113 2101.1829 3025190
1657.9786 989.49597 2101.2356 2959654
1672.9636 990.99719 2104.4236 3156776
1700.3984 999.79645 2123.1091 3156776
1711.5068 998.93744 2121.2849 3091497
1726.4452 1000.3099 2124.1995 3157033
1742.1378 1002.0965 2127.9934 3091242
1751.1016 1000.0146 2123.5723 3222826
1758.6785 997.17609 2117.5447 3288618
1778.5132 1001.2789 2126.2571 3157034
1794.8445 1003.3653 2130.6877 3222826
1796.4005 997.22058 2117.6392 3091240
1822.2753 1004.5673 2133.2402 2893861
1842.4192 1008.6754 2141.9639 3025190
1840.3092 1000.6271 2124.873 3025447
1843.7198 995.66956 2114.3455 3157033
1853.7639 994.33704 2111.5159 3091240
1865.1431 993.7337 2110.2346 3157033
1883.4001 996.77856 2116.7004 3025190
1878.7377 987.73315 2097.4922 3156776
1939.0374 1012.7357 2150.5862 2564639
1939.847 1006.5437 2137.4373 3748914
1922.0457 990.83789 2104.0852 3551533
1951.7274 999.65479 2122.8083 3551276
1969.0419 1002.065 2127.9265 4078134
1996.7347 1009.6926 2144.124 3881012
2003.619 1006.7679 2137.9133 3881011
2028.1167 1012.6746 2150.4565 3486252
2115.1978 1049.5615 2228.7874 3617583
2134.0789 1052.3599 2234.7297 3617326
0 0 0 0
0 0 0 0
0 0 0 0
0 0 0 0
0 0 0 0
0 0 0 0
0 0 0 0
0 0 0 0
0 0 0 0
0 0 0 0
-1863.024 1014.1213 2126.7678 1974301
-1846.6753 1012.0679 2122.4614 2171680
-1830.3785 1010.015 2118.1562 2434852
-1826.9152 1015.0641 2128.7451 2368803
-1818.9027 1017.6385 2134.1438 2302496
-1806.4507 1017.7476 2134.3726 1973789
-1793.1906 1017.3997 2133.6431 1907995
-1772.0121 1012.5223 2123.4146 2039581
-1764.7255 1015.5698 2129.8057 2170911
-1752.1763 1015.6108 2129.8916 2105374
-1744.3927 1018.4347 2135.8137 2105629
-1737.5157 1021.8331 2142.9407 2171422
-1724.8179 1021.8331 2142.9407 2039581
-1712.4783 1022.0469 2143.3889 2039325
-1694.7443 1019.0203 2137.0417 2039581
-1669.5024 1011.3998 2121.0603 2039581
-1656.1334 1010.9109 2120.0352 2039580
-1646.3936 1012.6468 2123.6755 2500132
-1632.9976 1012.1433 2122.6196 2368546
-1608.3575 1004.6087 2106.8184 2171167
-1591.8965 1002.105 2101.5679 2105374
-1579.0581 1001.8602 2101.0544 2236960
-1571.9092 1005.2501 2108.1636 2500132
-1560.7769 1006.1264 2110.0012 2302753
-1544.8851 1003.924 2105.3826 2434339
-1532.3949 1003.9141 2105.3618 2039581
-1519.0509 1003.3404 2104.1584 2302753
-1505.5945 1002.682 2102.7778 2171166
-1490.1031 1000.6462 2098.5085 2039581
-1475.2518 999.00964 2095.0764 2302753
-1464.2244 999.9566 2097.0623 2565925
-1455.1791 1002.2851 2101.9456 2500132
-1440.092 1000.4567 2098.1108 2500132
-1431.3407 1003.0359 2103.52 2171167
-1418.1853 1002.5473 2102.4954 2105374
-1409.8408 1005.4811 2108.6479 2565925
-1395.2053 1003.9406 2105.4172 2565925
-1387.8971 1007.6923 2113.2852 2631718
-1375.0094 1007.4244 2112.7234 2302753
-1369.5438 1012.6395 2123.6602 2302753
-1353.075 1009.74 2117.5796 2302753
-1339.3019 1008.8168 2115.6436 2434339
-1329.926 1011.2198 2120.6829 2565925
-1326.0189 1017.8664 2134.6218 2368546
-1308.3372 1013.9656 2126.4412 2434339
-1293.7867 1012.4392 2123.2402 2039581
-1282.9198 1013.7938 2126.0811 2039581
-1262.3218 1007.4093 2112.6917 1973788
-1253.3171 1010.2416 2118.6316 1710616
-1243.0031 1012.0652 2122.4558 1710616
-1239.7444 1019.7293 2138.5286 2105374
-1216.6954 1011.1054 2120.4431 2302753
-1199.5337 1007.2451 2112.3474 2171166
-1192.8936 1012.2316 2122.8047 2236960
-1185.8035 1016.9384 2132.6758 2171167
-1174.2548 1017.8818 2134.6541 2171167
-1155.0436 1012.1312 2122.5942 1973788
-1140.3964 1010.2972 2118.7483 2236960
-1127.759 1010.223 2118.5925 2171167
-1109.8688 1005.3888 2108.4543 1842202
-1101.1927 1008.8861 2115.7888 1907995
-1084.2123 1004.7681 2107.1528 1973788
-1075.6804 1008.475 2114.9268 2171167
-1066.004 1011.1836 2120.6069 1842202
-1063.676 1021.0103 2141.2151 2236960
-1044.1176 1014.3355 2127.217 2171166
-1034.5543 1017.3261 2133.4888 1973788
-1016.4741 1011.9122 2122.135 1907995
-1008.2123 1016.2593 2131.2515 2236960
-1001.1739 1021.9655 2143.2183 2500132
-980.04254 1013.2479 2124.936 2236960
-966.44061 1012.1891 2122.7158 2039581
-956.76282 1015.2667 2129.1699 1973788
-941.56189 1012.4872 2123.3408 1644823
-933.9613 1017.9161 2134.7261 1907995
-920.20636 1016.6942 2132.1636 2039581
-900.89508 1009.2141 2116.4766 2631718
-886.59772 1007.2188 2112.292 2960683
-878.80707 1012.664 2123.7117 2697511
-864.21234 1010.3132 2118.7815 2565925
-851.00079 1009.5338 2117.1472 2631718
-839.80298 1011.1559 2120.5488 2697511
-822.49915 1005.3636 2108.4016 2829097
-813.1759 1009.298 2116.6526 3026476
-802.76807 1011.9883 2122.2947 2960683
-791.24359 1013.3343 2125.1174 2894890
-773.21033 1006.2534 2110.2676 2697511
-759.86914 1005.1461 2107.9456 2565925
-748.43982 1006.5734 2110.9385 2434339
-743.95642 1017.5491 2133.9565 2368546
-725.34344 1009.2447 2116.5408 2500132
-713.25903 1009.8915 2117.8975 2434339
-700.02173 1008.9001 2115.8184 2434339
-685.68188 1006.2546 2110.27 2565925
-672.47162 1005.1991 2108.0566 2565925
-661.97968 1008.244 2114.4421 2236960
-647.93286 1005.8875 2109.5002 2368546
-637.08002 1008.4944 2114.9673 2368546
-624.03253 1007.662 2113.2217 2499875
-611.61432 1007.8326 2113.5793 2368289
-599.57056 1008.6401 2115.2729 2236703
-585.89661 1006.6812 2111.1648 2368289
-573.75574 1007.3284 2112.5222 2368289
-560.74152 1006.437 2110.6526 2236703
-545.62286 1001.6417 2100.5959 2697254
-533.46027 1002.1756 2101.7158 2697254
-522.63165 1005.3012 2108.2708 2565668
-510.93359 1006.8665 2111.5532 2302496
-496.62207 1003.2308 2103.9287 2236703
-484.06467 1003.0426 2103.5342 1907738
-470.90607 1001.5659 2100.4373 2499875
-458.71942 1002.1324 2101.6252 2434339
-446.18106 1001.9407 2101.2231 2565925
-434.16449 1002.9433 2103.3257 2500132
-420.74319 1000.6641 2098.5461 2368546
-408.57291 1001.3124 2099.9055 1973788
-396.13013 1001.3124 2099.9055 2302753
-383.99661 1002.1194 2101.5979 2236960
-371.68985 1002.5133 2102.4241 2368546
-358.19864 999.62915 2096.3755 2368289
-345.14294 997.79681 2092.5327 2565668
-332.39185 996.74127 2090.3191 2565668
-319.94797 996.56091 2089.9409 2697254
-307.31458 995.75189 2088.2444 2565668
-294.94086 995.75189 2088.2444 2565668
-282.1868 994.41156 2085.4333 2697254
-269.7915 994.27045 2085.1375 2434082
-260.25946 1005.1744 2108.0046 2236703
-247.08447 1002.3985 2102.1833 2170910
-232.06227 991.43616 2079.1936 2170910
-221.42564 999.03149 2095.1221 2170909
-208.79523 997.99921 2092.9573 2499875
-196.85001 1000.3184 2097.821 2434082
-184.4171 1000.305 2097.793 2170910
-171.97064 1000.2108 2097.5952 2236701
-159.74622 1001.494 2100.2864 2105115
-147.04765 999.7702 2096.6714 3420975
-134.05818 995.56799 2087.8586 2434080
-121.76972 996.24658 2089.2817 2170908
-109.40203 996.35718 2089.5137 2434082
-96.898117 995.09692 2086.8708 2302496
-84.734276 997.47144 2091.8506 2105117
-72.158051 994.97333 2086.6116 2894633
-59.696198 993.34528 2083.1973 2763045
-47.562038 997.74261 2092.4192 2631459
-35.241352 999.94836 2097.0449 2499873
-22.816761 1000.0028 2097.1592 2368286
-10.389707 999.95038 2097.0493 2434080
2.0379889 1000.8522 2098.9404 2368286
14.444869 998.76514 2094.5635 2368287
26.810955 997.09003 2091.0505 2565666
39.191681 996.84613 2090.5391 2302494
51.488319 995.09424 2086.8652 2368286
64.043266 998.04633 2093.0562 2368287
76.451988 998.13159 2093.2349 2302494
88.609108 995.36658 2087.4363 2565666
101.09735 996.54291 2089.9033 2565666
113.50572 996.76123 2090.3611 2631459
126.10603 998.4563 2093.9158 2631459
138.71109 999.8819 2096.9055 2499873
151.33557 1001.2016 2099.6731 2434080
163.7377 1000.9614 2099.1694 2499873
176.54402 1003.0516 2103.553 2565666
189.28595 1004.5245 2106.6418 2631459
201.64952 1003.9313 2105.3979 2828838
214.40137 1005.2279 2108.1169 2697252
226.71484 1004.4395 2106.4634 2631459
238.53357 1001.6557 2100.6255 3026217
251.24452 1002.7089 2102.8342 3157803
264.3093 1005.008 2107.6558 2763045
275.70923 1001.0549 2099.3655 2433823
287.34311 998.25574 2093.4954 2565923
300.52258 1000.8357 2098.9058 2763045
312.14438 998.22919 2093.4395 2762789
324.94608 999.45093 2096.0017 2828838
337.78674 1000.6982 2098.6174 2828583
349.76318 999.38751 2095.8687 2894633
362.13632 999.26129 2095.604 2894633
375.5267 1001.8574 2101.0483 2894633
387.20944 999.8772 2096.8958 2894633
398.40683 996.80597 2090.4548 3092011
410.32867 995.67773 2088.0889 2960425
423.5372 997.64636 2092.2173 2894631
435.64514 996.98425 2090.8289 2894631
446.53619 993.65094 2083.8384 2960424
459.33344 994.62469 2085.8804 3157803
472.96085 997.29779 2091.4863 2828838
482.08038 990.57178 2077.3809 2960424
494.67859 991.15063 2078.5947 3092010
507.23376 991.61719 2079.5732 3618354
519.14191 990.82678 2077.9155 3157802
529.96082 988.04218 2072.0759 2959910
542.28198 988.12097 2072.2412 2960424
555.11456 989.10767 2074.3103 2828838
568.60864 991.20459 2078.708 2828838
581.66895 992.47266 2081.3672 2697252
593.32922 991.34875 2079.0103 2960424
606.55957 992.84045 2082.1387 3026217
619.21594 993.35199 2083.2114 2828838
631.12463 992.6676 2081.7761 2829095
639.13757 985.99933 2067.7917 2828068
653.84052 989.70856 2075.5706 2696482
665.90118 989.35516 2074.8293 3025447
674.39142 983.80579 2063.1917 2959654
691.73346 991.13727 2078.5669 2894374
704.02399 991.10101 2078.4907 3157803
713.95435 987.80054 2071.5691 3026217
724.13702 984.95477 2065.6011 2763045
736.43567 985.03375 2065.7668 3289389
752.95203 990.65955 2077.5649 3026217
765.16028 990.52734 2077.2876 3092010
774.23383 986.40552 2068.6436 3486768
788.547 988.9837 2074.0503 3552304
797.4776 984.83551 2065.3511 3485998
811.36328 986.83954 2069.5537 3683377
822.52722 985.52277 2066.7922 3551791
833.70538 984.26141 2064.147 3814963
846.01605 984.35419 2064.3416 3749170
860.04425 986.41431 2068.6619 3814963
871.56299 985.57861 2066.9094 3420205
881.7951 983.33148 2062.1968 3683377
889.24622 978.08685 2051.198 2893861
904.28473 981.21649 2057.7615 2893862
921.41003 986.49725 2068.8359 3025447
934.45215 987.32495 2070.5718 3025448
944.12665 984.61926 2064.8975 3091242
962.00208 990.42609 2077.0752 2828070
968.17072 984.18561 2063.988 2959656
980.35638 984.14117 2063.8948 3025449
995.32593 986.85797 2069.5923 3091242
1009.8256 989.04852 2074.1863 2959656
1019.2067 986.23322 2068.2822 3222828
1030.5404 985.35199 2066.4341 3157035
1043.5308 986.05682 2067.9124 3222828
1054.4631 984.82324 2065.3252 3354156
1071.7278 989.46411 2075.0579 3222826
1088.3005 993.36823 2083.2454 3157035
1098.1315 991.1001 2078.4888 3025449
1107.5602 988.52325 2073.0847 3157035
1125.1545 993.21088 2082.9155 3025447
1132.0819 988.48309 2073.0005 3156776
1150.2452 993.56207 2083.6519 3157033
1158.9996 990.49225 2077.2141 3157033
1168.9131 988.46698 2072.9668 3091240
1191.8004 997.341 2091.5769 3222826
1200.7303 994.47235 2085.561 3288619
1214.9822 996.02521 2088.8174 3288619
1224.9491 994.06927 2084.7156 3485999
1241.1688 997.17603 2091.231 3157034
1249.6936 994.10016 2084.7805 3288621
1263.0513 994.89148 2086.4399 3157036
1267.9507 989.0694 2074.2302 3025448
1288.6039 995.53003 2087.7791 2893861
1296.17 991.85345 2080.0686 3025447
1311.0463 993.78705 2084.1238 3683377
1324.6206 994.70697 2086.053 3288619
1336.0566 994.0191 2084.6104 3157032
1348.4088 994.0191 2084.6104 3157033
1366.1613 997.96393 2092.8833 3222828
1381.7682 1000.2846 2097.7502 3157033
1387.6201 995.56506 2087.8525 3420205
1397.9054 994.08154 2084.7415 3025447
1406.7253 991.59125 2079.5188 3025447
1422.9744 994.33533 2085.2737 2959654
1438.1499 996.28857 2089.3699 3025447
1449.4797 995.56708 2087.8567 3091240
1468.292 999.95343 2097.0557 3025447
1473.4358 995.03577 2086.7424 3157033
1486.2133 995.31213 2087.322 3091241
1505.6959 1000.0372 2097.2314 3091241
1506.1246 992.13379 2080.6565 3157034
1529.2543 999.19086 2095.4563 3288619
1544.274 1000.8782 2098.9949 3288621
1555.0111 999.78485 2096.7021 3288621
1567.318 999.71027 2096.5457 3485744
1570.0151 993.5556 2083.6384 3222828
1581.7882 993.19556 2082.8833 3485999
1600.8285 997.36896 2091.6355 3420205
1604.1647 991.7691 2079.8918 3420205
1601.8269 982.7735 2061.0266 2959654
1625.3398 989.65436 2075.4568 3025447
1634.7271 987.89526 2071.7678 3157033
1649.2426 989.23846 2074.5847 3288619
1663.9983 990.70502 2077.6602 3288619
1692.2291 1000.1136 2097.3916 3157033
1698.8524 996.70819 2090.2498 3222826
1716.145 999.56616 2096.2434 3222826
1733.4332 1002.3807 2102.146 3091240
1746.8434 1002.9285 2103.2947 3025447
1761.6436 1004.2609 2106.0889 3157033
1773.9978 1004.19 2105.9404 3222826
1788.91 1005.558 2108.8093 3157034
1801.4041 1005.5573 2108.8076 3091242
1807.1484 1001.8146 2100.9587 3091242
1820.7629 1002.4563 2102.3044 3157035
1834.0786 1002.9258 2103.2891 3157291
1831.4384 994.72272 2086.0859 3091241
1844.2185 994.94891 2086.5603 3156776
1849.8145 991.32208 2078.9543 3222569
1858.7181 989.50403 2075.1416 3419948
1853.9768 980.49371 2056.2456 3354412
1871.33 983.20959 2061.9412 3419948
1885.337 984.14355 2063.8999 3288619
1922.8417 997.25214 2091.3906 3288618
1914.4906 986.56281 2068.9734 3288361
1954.8915 1000.972 2099.1919 3353897
1940.6666 987.40588 2070.7415 3551533
1977.6672 999.90967 2096.9639 3419947
1968.2656 988.94293 2073.9648 3223337
2009.2611 1003.2768 2104.0251 3815218
0 0 0 0
0 0 0 0
0 0 0 0
0 0 0 0
0 0 0 0
0 0 0 0
0 0 0 0
0 0 0 0
0 0 0 0
0 0 0 0
-1837.135 1012.4556 2097.2136 2236960
-1829.3866 1015.0516 2102.5908 2171167
-1811.8048 1012.1895 2096.6624 2302753
-1803.7169 1014.6283 2101.7141 2237216
-1787.3965 1012.4379 2097.177 1842715
-1774.395 1012.11 2096.4978 1776922
-1760.4418 1011.2309 2094.6768 2040094
-1755.1589 1015.3549 2103.2192 2040094
-1742.7185 1015.3677 2103.2458 2236960
-1724.939 1012.2476 2096.7827 1907995
-1709.1603 1010.2648 2092.6755 1842202
-1702.2673 1013.5438 2099.4675 1776409
-1679.5256 1007.3651 2086.6689 1644823
-1670.531 1009.4011 2090.8865 1644823
-1657.4415 1008.9749 2090.0037 1710616
-1648.2743 1010.9479 2094.0906 1842202
-1631.8496 1008.4659 2088.9492 2171167
-1619.7554 1008.6424 2089.3149 2171167
-1606.8945 1008.3407 2088.6899 1710616
-1589.8932 1005.416 2082.6316 1907995
-1579.0112 1006.3456 2084.5571 2236960
-1557.7699 1000.6353 2072.729 2434339
-1544.2035 999.80365 2071.0061 2434339
-1540.7734 1005.5739 2082.9587 2302753
-1521.5698 1001.0598 2073.6082 2302753
-1509.4027 1001.1393 2073.7729 2105374
-1496.23 1000.5477 2072.5474 2039581
-1480.12 997.9657 2067.199 2434339
-1462.7004 994.45044 2059.9175 2105374
-1458.2894 999.79456 2070.9873 2171167
-1441.8511 996.91345 2065.0193 2434339
-1431.666 998.34369 2067.9819 2500132
-1417.4877 996.98993 2065.1777 2500132
-1405.1289 996.90356 2064.9988 2368546
-1397.0221 999.85876 2071.1204 2302753
-1388.7183 1002.7241 2077.0557 2697511
-1378.5936 1004.3143 2080.3496 2631718
-1363.9628 1002.6207 2076.8416 2565925
-1362.2841 1010.5038 2093.1707 2302753
-1348.0042 1009.0987 2090.26 2631718
-1343.2714 1014.8807 2102.2368 2763304
-1325.2805 1010.6602 2093.4946 2829097
-1317.4785 1014.2035 2100.8342 2697511
-1306.9413 1015.6887 2103.9106 2368546
-1288.0895 1010.6785 2093.5325 2105374
-1269.0946 1005.4577 2082.718 2105374
-1257.2354 1005.843 2083.5161 2631718
-1263.8903 1021.1951 2115.3167 1973788
-1252.9893 1022.5278 2118.0771 2171166
-1236.1594 1019.0001 2110.77 2236960
-1207.9962 1005.9626 2083.7639 2236960
-1208.8993 1017.1107 2106.8562 2105374
-1196.807 1017.4437 2107.5459 1973788
-1181.5382 1015.0547 2102.5974 1973788
-1168.1024 1014.2065 2100.8403 2236960
-1144.6597 1004.5576 2080.8535 2236960
-1131.4023 1003.7349 2079.1494 2171167
-1115.2924 1000.3353 2072.1074 2039581
-1108.3422 1005.1672 2082.1162 1973788
-1099.5649 1008.4323 2088.8796 1644823
-1086.3054 1007.6142 2087.1851 1776409
-1075.2764 1008.8698 2089.7859 2236960
-1058.3361 1004.544 2080.8254 2171167
-1043.019 1001.6752 2074.8828 2171167
-1044.3939 1014.9593 2102.3997 2631718
-1031.715 1014.7414 2101.9485 2434339
-1022.7346 1018.2006 2109.114 2171167
-1005.8881 1013.8173 2100.0342 2302753
-990.97778 1011.2999 2094.8196 2434339
-985.23242 1018.1902 2109.0923 2171167
-968.70343 1013.97 2100.3506 2368546
-956.60498 1014.3378 2101.1125 2302753
-944.27087 1014.4623 2101.3704 1644823
-927.66608 1009.9407 2092.0042 1776409
-916.06134 1010.8137 2093.8125 2500132
-902.0484 1009.017 2090.0908 2236960
-892.06281 1011.7379 2095.7268 2631461
-870.28558 1000.9733 2073.429 2829097
-865.1311 1009.293 2090.6626 2829097
-851.13348 1007.3879 2086.7163 2368546
-831.6344 998.81909 2068.9668 2829097
-825.81757 1006.6728 2085.2349 2894890
-811.70642 1004.5005 2080.7354 2960683
-802.13873 1007.9707 2087.9236 2434339
-791.76392 1010.5193 2093.2029 2631718
-775.66992 1005.7337 2083.2898 2565925
-766.5495 1009.9814 2092.0886 2500132
-752.54907 1007.8334 2087.6392 2500132
-741.48743 1009.615 2091.3296 2434339
-730.85138 1012.0466 2096.3662 2236960
-718.34155 1011.9225 2096.1094 2631718
-705.92126 1011.9225 2096.1094 2697511
-691.6084 1009.1611 2090.3892 2500132
-679.10266 1008.9837 2090.0217 2434339
-667.3269 1009.9045 2091.9292 2302753
-653.07574 1007.043 2086.002 2368546
-637.75848 1002.3956 2076.3752 2434339
-628.74402 1007.6667 2087.2937 2368546
-615.5882 1006.3788 2084.626 2302496
-602.91382 1005.8414 2083.5127 2368288
-591.29907 1007.0862 2086.0913 2170910
-577.64331 1004.8337 2081.4255 2170910
-566.08594 1006.2129 2084.2825 2368289
-552.73425 1004.3931 2080.5129 2434082
-539.46625 1002.6458 2076.8936 2302496
-528.02429 1004.29 2080.2993 2302496
-515.15594 1003.235 2078.114 2368289
-502.61044 1002.7725 2077.1558 2368289
-489.6308 1001.3988 2074.3103 2302496
-477.24597 1001.2021 2073.9031 2565668
-464.79453 1000.8518 2073.1772 2500132
-453.40442 1002.8297 2077.2744 2434339
-441.02444 1002.6677 2076.9387 2500132
-427.44672 999.69507 2070.7812 2565925
-414.96167 999.1778 2069.7097 2631718
-401.83759 997.04346 2065.2886 2302753
-392.07132 1003.368 2078.3894 2236960
-379.03925 1001.4742 2074.4666 1907995
-366.28711 1000.2179 2071.8643 1907995
-353.39954 998.49176 2068.2886 2170910
-341.23209 998.74921 2068.822 2565925
-328.70807 997.94336 2067.1528 2368546
-315.82016 995.92767 2062.9775 2434082
-305.41199 1001.8843 2075.3162 2368289
-291.1001 994.99762 2061.0508 2236703
-279.00314 995.41003 2061.9053 2236703
-265.95609 992.31525 2055.4946 2170910
-254.79138 996.28387 2063.7153 2236703
-242.569 996.30829 2063.7659 1907738
-230.53296 997.14142 2065.4915 2105117
-218.41 997.6709 2066.5884 2105117
-206.30408 998.34564 2067.9861 2302494
-193.78076 996.95837 2065.1123 2302494
-182.18393 1000.4717 2072.3899 2434079
-169.62929 998.85291 2069.0369 2565662
-157.20433 997.80511 2066.8665 4078898
-144.40848 994.02722 2059.0408 4276277
-132.76367 998.20636 2067.6975 2697247
-119.68135 991.32831 2053.4502 2236700
-107.81846 994.13702 2059.2683 2368286
-95.709114 995.10034 2061.2637 2368288
-83.729851 997.89575 2067.0542 2565666
-71.431297 997.19177 2065.5959 2565666
-59.012363 994.16858 2059.3337 2302494
-46.917484 996.45172 2064.063 2236701
-34.75481 998.3974 2068.0933 2236701
-22.491264 997.98633 2067.2417 2236701
-10.24668 998.4397 2068.1809 2105115
2.0088651 998.80902 2068.9458 2368287
14.251861 997.66522 2066.5767 2434080
26.44445 995.68066 2062.4658 2170907
38.679432 996.0423 2063.2148 2105115
50.857021 995.1073 2061.2781 2105115
63.111996 995.75531 2062.6204 2302494
75.158112 993.43243 2057.8088 2236701
87.436447 994.39905 2059.811 2434080
99.746658 995.44702 2061.9817 2434080
112.06372 996.32703 2063.8047 2499873
124.37657 997.00031 2065.1992 2763045
136.04047 992.81677 2056.5334 2697252
149.02847 998.19 2067.6636 2565666
161.57397 1000.0082 2071.4299 2565666
173.95116 1000.6014 2072.6587 2434080
185.60046 997.20557 2065.6245 2631459
198.91693 1002.6332 2076.8674 2697252
210.84998 1000.8615 2073.1975 2960424
223.42673 1002.1724 2075.9128 2894631
235.51672 1001.2769 2074.0579 2960681
246.62198 996.49133 2064.145 2960681
259.66669 999.62433 2070.6348 2895401
272.01123 999.90076 2071.2073 2699306
284.42596 1000.4003 2072.2419 2833202
296.63034 1000.1491 2071.7217 2769464
307.86322 996.77246 2064.7273 2442808
320.92383 999.34534 2070.0569 2508088
331.02328 992.84753 2056.5972 3032122
343.93497 994.94629 2060.9446 2765614
356.63361 996.30591 2063.761 2894889
368.52231 995.38782 2061.8591 3092012
379.62485 992.47327 2055.822 3223597
391.96869 992.88446 2056.6736 3026216
405.25674 995.59033 2062.2786 3026217
416.84946 994.09473 2059.1807 2960423
428.68805 993.25397 2057.439 3092010
438.86002 988.7049 2048.0161 3552561
449.46484 985.34973 2041.0662 3289389
463.74442 990.01526 2050.7305 3618354
476.09686 990.43347 2051.5967 3420975
485.82001 985.49731 2041.3718 3092010
498.25613 986.17059 2042.7665 3223597
511.27222 987.93268 2046.4164 2697253
524.685 990.36182 2051.4482 2828325
537.77576 992.08685 2055.0215 2894631
549.00531 990.37799 2051.4817 3092010
561.42877 990.85028 2052.46 2763045
575.28754 993.78204 2058.533 2697252
588.35046 995.24561 2061.5647 2894631
599.32782 993.19366 2057.3142 3026217
610.17511 991.01233 2052.7957 2697252
620.96631 988.82678 2048.2686 2829094
632.24634 987.48865 2045.4967 3091240
638.69257 978.79303 2027.4844 3091240
653.03949 982.30273 2034.7545 3025447
666.39148 984.21576 2038.7172 3025447
680.33417 986.91748 2044.3136 3025703
691.55859 985.65045 2041.6891 3157803
705.96033 988.87769 2048.374 2960424
718.88062 989.95581 2050.6072 3289389
728.8573 987.01172 2044.5089 3420975
742.61469 989.20007 2049.0417 3289389
753.54944 987.61865 2045.766 3157803
765.42383 987.29932 2045.1045 3486768
777.42554 987.15155 2044.7985 3420718
789.4798 987.07397 2044.6377 3946549
800.35291 985.54437 2041.4692 3683377
812.44318 985.53687 2041.4539 3288619
823.32465 984.08459 2038.4456 3157033
839.85883 989.33319 2049.3176 3091240
850.98309 988.15027 2046.8671 3157033
860.92139 985.6427 2041.673 2762275
872.31659 984.84949 2040.03 3288362
875.3139 974.72632 2019.0608 3091240
895.14465 983.36884 2036.9628 2828068
908.64526 984.91968 2040.1753 3025449
919.43811 983.53326 2037.3035 2893863
930.41986 982.38232 2034.9194 3222828
943.80664 983.76764 2037.7891 3091242
957.67841 985.61713 2041.6201 2762277
969.7088 985.54907 2041.479 3091242
986.31097 990.07172 2050.8474 3025449
991.14819 982.81842 2035.8228 3222828
1006.0338 985.5835 2041.5504 3157035
1018.8062 986.23743 2042.9049 3157035
1032.3241 987.58899 2045.7046 3222828
1043.5222 986.71576 2043.8958 3222828
1054.4613 985.62048 2041.627 3222828
1075.3036 993.70172 2058.3665 3222828
1088.116 994.26422 2059.5317 3222572
1093.3239 987.94287 2046.4376 3157035
1105.4498 987.94287 2046.4376 3091242
1117.1509 987.56726 2045.6595 3091242
1134.317 991.979 2054.7981 3222828
1151.4976 996.30951 2063.7683 3157035
1163.0389 995.72113 2062.5496 3025449
1166.9146 988.65021 2047.9028 3157035
1180.9678 990.25903 2051.2354 3354414
1197.1461 993.59875 2058.1533 3354156
1204.4243 989.55884 2049.7849 3354411
1215.2695 988.50098 2047.5936 3025447
1234.1455 993.93158 2058.8428 3091240
1249.057 996.09436 2063.3228 3091240
1259.6674 994.81842 2060.6797 3288619
1268.2292 991.96472 2054.7686 3551791
1273.2891 986.45215 2043.3497 3419948
1294.8308 993.69214 2058.3467 3354412
1309.0647 995.24109 2061.5552 3420205
1315.3934 990.80688 2052.3701 3222826
1331.9227 994.06702 2059.1233 3354155
1339.1448 990.3847 2051.4956 3420206
1355.593 993.53052 2058.012 3485997
1363.8124 990.64307 2052.0308 3420205
1377.6368 991.84204 2054.5144 3420205
1388.043 990.58057 2051.9014 3354412
1399.4559 990.05322 2050.8091 3485998
1406.272 986.31085 2043.057 3025447
1430.0345 994.41663 2059.8474 3025447
1436.5005 990.45929 2051.6501 3288619
1459.1591 997.6394 2066.5232 3222826
1470.9821 997.35321 2065.9304 3288619
1476.7382 992.99243 2056.8972 3288362
1496.2109 997.85077 2066.9609 3222826
1502.7405 994.06836 2059.126 3091240
1521.2733 998.22296 2067.7319 3157034
1534.3049 998.73035 2068.783 3288621
1545.7573 998.2099 2067.7048 3222828
1557.2627 997.73163 2066.7141 3222828
1573.6472 1000.3623 2072.1633 3288621
1583.8824 999.07343 2069.4937 3551793
1595.6592 998.76941 2068.8638 3354158
1591.4583 988.54529 2047.6854 3025449
1614.91 995.52264 2062.1384 2959654
1625.6318 994.60663 2060.241 3288619
1637.4573 994.37439 2059.76 3157033
1654.361 997.20673 2065.627 3222826
1660.8129 993.74365 2058.4534 3157803
1682.9108 999.62451 2070.635 3289133
1686.9904 994.79523 2060.6316 3551790
1702.8984 996.96008 2065.116 3222570
1723.2992 1001.7057 2074.946 3025449
1736.6672 1002.3252 2076.2292 2959656
1739.9136 997.13507 2065.4785 2828069
1761.2249 1002.2982 2076.1733 3157033
1771.311 1001.0458 2073.5791 3288619
1781.5986 999.92377 2071.2549 3222826
1793.6296 999.78882 2070.9756 3354412
1800.4911 996.79376 2064.7715 3288620
1806.2654 993.24127 2057.4128 3157035
1809.4819 988.33948 2047.2592 3025449
1824.0736 989.67462 2050.0249 3091242
1831.25 986.99554 2044.4752 3157035
1833.2052 981.55603 2033.2078 3222828
1852.3081 985.30902 2040.9818 3157035
1864.0272 985.11115 2040.5719 3091241
1882.5569 988.49176 2047.5746 3223082
1887.5007 984.74121 2039.8057 3157289
1893.6053 981.6402 2033.3821 3288361
1913.1132 985.48242 2041.3411 3288105
1932.6666 989.30005 2049.2488 3288104
1946.7369 990.28064 2051.28 3156518
1951.3834 986.48505 2043.4177 3222824
0 0 0 0
0 0 0 0
0 0 0 0
0 0 0 0
0 0 0 0
0 0 0 0
0 0 0 0
0 0 0 0
0 0 0 0
0 0 0 0
0 0 0 0
-1805.04 1013.8356 2074.6084 1776922
-1791.2046 1012.9631 2072.8232 1711129
-1773.8502 1010.075 2066.9131 1645336
-1762.438 1010.5537 2067.8928 1711129
-1749.9475 1010.4168 2067.6125 1842715
-1734.1284 1008.3422 2063.3674 2105887
-1722.72 1008.8211 2064.3474 2105887
-1706.0759 1006.219 2059.0227 2170911
-1688.96 1003.2992 2053.0479 1776409
-1678.7644 1004.4776 2055.4592 1842202
-1666.8379 1004.6301 2055.7712 1579030
-1655.0176 1004.8492 2056.2197 1513237
-1644.7368 1006.0133 2058.6018 1447444
-1627.4573 1002.882 2052.1941 1710616
-1619.2936 1005.3631 2057.2712 1842202
-1609.2615 1006.7133 2060.0339 2039581
-1593.4436 1004.4368 2055.3757 1710616
-1587.7056 1008.5281 2063.7478 1710616
-1575.4771 1008.5281 2063.7478 2105374
-1561.932 1007.6786 2062.0095 2434339
-1542.9467 1003.2785 2053.0056 2368546
-1535.3197 1006.2526 2059.0916 2368546
-1521.2681 1005.03 2056.5896 2368546
-1496.8447 996.88019 2039.9127 2171167
-1488.2435 999.22083 2044.7023 1644823
-1481.5942 1002.9211 2052.2742 1315858
-1466.9089 1001.1979 2048.748 1315858
-1454.5348 1001.0365 2048.4177 2039581
-1438.1696 998.1026 2042.4141 2236960
-1421.0308 994.57733 2035.2004 2171167
-1412.6925 997.20404 2040.5754 2697511
-1400.6725 997.25482 2040.6792 2302753
-1390.6306 998.72711 2043.6919 2565925
-1378.6954 998.85345 2043.9506 2434339
-1368.2556 1000.0751 2046.4504 2039581
-1354.3153 998.73724 2043.7128 2565925
-1346.8563 1002.198 2050.7944 2631718
-1338.8948 1005.3443 2057.2327 2960683
-1334.5057 1011.2556 2069.3291 2631718
-1321.377 1010.5924 2067.9719 2894890
-1310.4209 1011.594 2070.0215 2829097
-1301.0708 1013.866 2074.6707 2171166
-1293.632 1017.6849 2082.4854 2236960
-1272.3667 1010.5955 2067.9783 2171167
-1254.6475 1006.2123 2059.0088 2302753
-1243.8473 1007.3463 2061.3293 2368546
-1238.2723 1012.7765 2072.4412 2039581
-1223.7073 1010.8888 2068.5784 1973788
-1205.171 1005.6492 2057.8567 2039581
-1192.5103 1005.2555 2057.051 2039581
-1180.3253 1005.2589 2057.0579 2105374
-1164.7003 1002.3018 2051.0068 2105374
-1154.6472 1004.128 2054.7439 2302753
-1145.2006 1006.526 2059.6509 2171167
-1126.1884 1000.4781 2047.2751 2302753
-1115.0503 1001.3698 2049.0996 2302753
-1103.7339 1002.1191 2050.6331 2171166
-1094.5214 1004.8165 2056.1528 2236960
-1081.2234 1003.7819 2054.0356 1907995
-1075.1445 1009.5021 2065.741 2500132
-1057.9614 1004.8076 2056.1345 1579030
-1046.3457 1005.3531 2057.2507 2105374
-1031.9221 1003.1818 2052.8076 2302753
-1022.6476 1006.0239 2058.6235 2434339
-1013.1622 1008.7249 2064.1504 2236960
-996.50531 1004.2645 2055.0232 2302753
-986.5614 1006.5426 2059.6848 2500132
-979.12781 1011.4711 2069.77 2171167
-968.60095 1013.2887 2073.4893 2039581
-956.37262 1013.35 2073.6147 2236960
-942.2298 1011.358 2069.5386 2236960
-925.14471 1006.1136 2058.8071 2236960
-918.47815 1012.2111 2071.2842 1973788
-905.55341 1011.4833 2069.7949 2829097
-892.9292 1011.0758 2068.9612 2565925
-877.21027 1007.104 2060.8337 3947321
-862.56042 1004.2648 2055.0239 2829097
-853.76862 1008.2625 2063.2041 2631718
-842.47821 1009.3826 2065.4963 2763304
-831.24365 1010.6036 2067.9949 2697511
-818.99011 1010.6038 2067.9954 2565925
-803.50928 1006.5611 2059.7227 2500132
-794.07397 1010.0839 2066.9314 2302753
-780.66479 1008.5829 2063.8599 2829097
-771.04633 1012.0095 2070.8718 2894890
-755.0896 1007.0934 2060.812 2500132
-745.13538 1010.153 2067.0728 2631718
-726.50543 1001.3569 2049.0735 2434339
-721.59308 1011.4906 2069.8098 2368546
-706.31671 1007.1956 2061.021 2434339
-696.31482 1010.4032 2067.5847 2500132
-677.12616 1000.1562 2046.6163 2368546
-670.1626 1007.922 2062.5076 2368546
-658.11194 1008.1833 2063.0422 2302753
-645.29114 1007.2523 2061.137 2368546
-633.96832 1008.6687 2064.0354 2105374
-621.22253 1007.8323 2062.324 2171167
-608.79272 1007.4852 2061.6138 2302496
-593.6936 1002.616 2051.6499 2236703
-582.79248 1004.781 2056.0801 2105117
-571.05219 1005.5609 2057.6758 2236703
-558.51581 1004.9422 2056.4099 2368289
-547.01349 1006.198 2058.9797 2302753
-532.02045 1000.9437 2048.2278 2565925
-520.88702 1002.8751 2052.1799 2631718
-508.35135 1002.1345 2050.6646 2763304
-495.45682 1000.6328 2047.5918 2368546
-483.01498 999.9931 2046.2826 2368546
-472.19202 1002.7582 2051.9409 2565668
-459.82962 1002.3139 2051.0317 2368289
-446.84787 1000.4589 2047.2357 2434339
-435.27902 1001.7519 2049.8816 2565925
-423.38113 1002.3402 2051.0854 2631718
-411.27643 1002.4592 2051.3289 2368546
-398.18707 1000.1122 2046.5264 2368546
-386.5224 1001.3085 2048.9744 2434339
-374.38141 1001.3085 2048.9744 2434339
-361.87772 1000.3059 2046.9229 2499875
-348.42194 996.5108 2039.1567 2499875
-338.69043 1003.4773 2053.4124 2170910
-325.07312 999.02106 2044.2936 2236703
-312.29517 996.89935 2039.9519 2302496
-300.34946 997.37024 2040.9155 2434082
-288.22745 997.27075 2040.7119 2368289
-275.75888 995.91095 2037.9293 2105117
-263.98596 997.05389 2040.2682 2170910
-251.73372 996.40942 2038.9493 2236703
-240.47328 999.82355 2045.9357 2236703
-227.94496 998.04883 2042.3041 2368289
-215.35956 995.81116 2037.7251 2368289
-203.28523 995.81116 2037.7251 2631458
-190.54839 992.36096 2030.665 2565665
-179.02802 995.20789 2036.4906 2631459
-167.13251 996.23016 2038.5825 2499615
-155.63895 999.99445 2046.2854 3092006
-143.18439 997.69849 2041.5872 2697247
-130.64125 994.30469 2034.6425 2499871
-118.96519 997.49097 2041.1625 2302493
-106.51788 994.19989 2034.428 2368287
-94.364662 993.16412 2032.3086 2368287
-82.501266 995.32184 2036.7239 2039322
-70.544884 996.90491 2039.9633 1907735
-58.167366 991.96075 2029.8461 2039322
-46.310574 995.63409 2037.3629 2170907
-34.239017 995.65265 2037.4008 2236701
-22.227808 998.40204 2043.0267 2302494
-10.108866 997.10101 2040.3646 2302494
1.98164 997.36572 2040.9062 2499873
14.067997 996.88159 2039.9156 2302494
26.042999 992.60077 2031.1556 2039322
38.184647 995.37 2036.8223 2105115
50.132046 992.96167 2031.8942 1907738
62.156166 992.71143 2031.3822 2039322
74.212639 992.97528 2031.922 1907736
86.025047 990.35559 2026.5614 1973529
98.339584 993.45044 2032.8944 2236701
110.18636 991.66003 2029.2306 2631459
122.62812 995.0498 2036.1671 2697252
134.81972 995.98438 2038.0795 2499873
147.22711 998.22815 2042.671 2631459
159.37903 998.53052 2043.2898 2434080
170.79921 994.52948 2035.1025 2697252
183.80887 999.70117 2045.6852 2499873
196.42336 1002.2165 2050.8323 2697252
208.16153 1000.228 2046.7633 2960424
220.31516 1000.3449 2047.0024 3026473
231.67897 997.05035 2040.261 3224365
243.96628 997.86005 2041.9177 2896171
257.18387 1002.2183 2050.8362 3095092
269.08252 1001.2756 2048.907 3163708
279.11801 993.78046 2033.5697 2837310
290.60886 991.87299 2029.6664 2443578
304.4205 997.72339 2041.6382 2574394
316.67252 998.21039 2042.6346 2769976
327.34445 993.8642 2033.7411 2768694
339.82501 995.12286 2036.3167 2700847
351.38034 993.67871 2033.3616 2567722
361.91852 989.54919 2024.9114 2895146
374.18463 990.25775 2026.3612 2960426
386.59973 991.30414 2028.5024 2960424
397.54236 988.62573 2023.0216 3026217
409.89905 989.51752 2024.8466 3026217
422.07205 989.92798 2025.6864 3223596
431.67435 984.45306 2014.4832 3486768
444.69681 986.86279 2019.4141 3223596
455.95441 985.33228 2016.2822 3223596
466.54135 982.46759 2010.4202 3157803
478.12094 981.78375 2009.021 2960424
492.12732 985.99554 2017.6394 3026217
505.13705 988.05792 2021.8597 2828838
515.90546 985.74231 2017.1213 2828581
527.79486 985.625 2016.8812 2828838
538.61469 983.55963 2012.6549 2697252
554.50836 990.64844 2027.1606 2960424
567.12152 991.70013 2029.3126 3026217
578.33691 990.3147 2026.4777 3157803
589.53748 988.96063 2023.7069 3355182
604.21198 993.37207 2032.734 3749940
614.75989 990.95923 2027.7968 3420975
623.63428 985.99292 2017.6342 3157289
634.76758 984.71783 2015.0249 3157033
648.41296 987.31476 2020.339 3091240
661.41663 988.85822 2023.4974 3025447
673.40668 988.85822 2023.4974 3025704
685.01385 988.30585 2022.3672 3026217
696.05927 986.97589 2019.6456 3026217
707.49005 986.22821 2018.1155 3223596
719.68097 986.5473 2018.7686 3223596
729.33258 983.43195 2012.3936 3223596
743.823 986.83649 2019.3602 3157803
754.3291 984.93091 2015.4609 3420975
768.01221 987.16827 2020.0393 3289389
783.79376 991.99298 2029.912 3222826
791.87366 987.07153 2019.8412 3617584
798.88446 980.98395 2007.3843 3485998
812.00562 982.46808 2010.4211 2762275
824.22845 982.83801 2011.1782 3091240
835.7475 982.3703 2010.2211 3222826
848.51678 983.36444 2012.2555 3485998
858.07202 980.65796 2006.7172 3222826
867.41156 977.78229 2000.8328 2959654
876.45856 974.65881 1994.4412 3946549
890.06995 976.62683 1998.4683 3025447
903.63947 978.49768 2002.2966 3025447
918.55652 981.76044 2008.9731 3551791
931.3689 982.71887 2010.9344 3289134
943.28448 982.71887 2010.9344 3091755
957.19818 984.77454 2015.1409 3157035
967.98877 983.60602 2012.7499 3091242
983.13513 986.83826 2019.3638 3288621
995.12201 986.85931 2019.4071 3025449
1005.5149 985.31812 2016.2532 3025449
1018.9927 986.80035 2019.2864 3288621
1024.5588 980.67542 2006.7531 3354414
1049.3802 992.91028 2031.7891 2959656
1055.0143 986.91858 2019.5283 2959656
1074.8812 994.22626 2034.4819 3288364
1080.1071 987.97943 2021.6991 3222828
1092.033 987.93109 2021.6001 3091243
1117.0354 999.58533 2045.4482 3157035
1115.4022 987.41022 2020.5343 3157035
1145.4108 1003.207 2052.8594 3222828
1138.5859 986.75049 2019.1842 2959656
1151.3519 987.43793 2020.5909 2828070
1168.3422 991.69672 2029.3058 2959656
1173.5487 985.96857 2017.5842 2893863
1197.3922 995.85602 2037.817 3222828
1208.7882 995.29712 2036.6732 3354414
1210.6334 986.96295 2019.6191 3157547
1236.1868 997.93066 2042.0623 2960681
1247.0876 996.97205 2040.1006 3026217
1255.209 993.83105 2033.6732 3289133
1263.9574 991.24152 2028.3744 3683377
1274.3649 989.98969 2025.8127 3750197
1284.6827 988.69226 2023.1577 3355182
1304.6796 994.79883 2035.6536 3355438
1315.7941 994.08289 2034.1886 3355182
1327.3917 993.7417 2033.4905 3223339
1327.3842 984.79675 2015.1864 4341307
1334.9835 981.60455 2008.6541 3354412
1351.3334 984.84601 2015.2872 3485998
1363.9601 985.34113 2016.3004 3354155
1376.392 985.68817 2017.0104 3222826
1391.9081 988.21875 2022.1888 3091240
1409.2708 992.0061 2029.9388 3222826
1421.9756 992.47839 2030.9053 3222826
1438.4738 995.56799 2037.2277 3354412
1450.3168 995.41138 2036.907 3288619
1463.9559 996.4798 2039.0933 3354157
1475.7153 996.26172 2038.6471 3354414
1486.7413 995.55597 2037.203 3222828
1501.9146 997.61646 2041.4192 3354414
1517.6725 1000.0292 2046.3566 3222828
1531.594 1001.2032 2048.759 3091242
1540.5416 999.13306 2044.5227 3091242
1552.196 998.83691 2043.9167 3091242
1550.1688 989.80933 2025.4437 3617586
1560.9551 989.03931 2023.8679 3222828
1592.0698 1001.0633 2048.4724 3222827
1601.1115 999.13104 2044.5186 3157033
1603.757 993.26648 2032.5179 3025447
1619.5819 995.591 2037.2747 3354414
1633.2023 996.53601 2039.2084 3354415
1645.1128 996.43146 2038.9944 3222828
1659.5978 997.8764 2041.9512 3222828
1666.1212 994.54803 2035.1404 3091754
1677.9602 994.41748 2034.8733 2960424
1692.4369 995.84106 2037.7864 3092009
1711.276 999.79303 2045.8732 2960680
1725.9741 1001.2871 2048.9307 3091498
1727.1201 994.95337 2035.9698 3157035
1745.9857 998.84448 2043.9323 3025449
1756.2469 997.79346 2041.7815 3091242
1766.4302 996.71283 2039.5702 3222828
1772.762 993.48859 2032.9724 3288621
1789.2739 995.97424 2038.0588 3222828
1787.6438 988.39594 2022.5515 3157035
1799.9169 988.55444 2022.8757 3157035
1800.3046 982.22644 2009.9268 3091242
1811.0045 981.57074 2008.5851 3222828
1817.9498 978.90192 2003.1238 3157035
1832.2408 980.19751 2005.7749 3091241
1842.1112 979.12671 2003.5837 3091240
1849.684 976.85596 1998.9373 3222826
1866.0043 979.20483 2003.7437 3091240
1882.9957 981.87384 2009.2052 3091240
1894.5145 981.67358 2008.7954 3222826
1905.2513 981.073 2007.5665 3157033
1923.6316 984.39142 2014.3569 3354412
0 0 0 0
0 0 0 0
0 0 0 0
0 0 0 0
0 0 0 0
0 0 0 0
0 0 0 0
0 0 0 0
0 0 0 0
0 0 0 0
0 0 0 0
-1778.845 1011.237 2044.5012 1645336
-1764.2128 1009.7959 2041.5875 1645336
-1757.3617 1012.8195 2047.7004 1974557
-1736.8979 1007.985 2037.9264 2105887
-1717.75 1003.852 2029.5703 1974557
-1710.0116 1006.3753 2034.6719 2106143
-1691.8457 1002.7542 2027.3506 1776922
-1677.6818 1001.47 2024.7544 1578774
-1663.2789 1000.0239 2021.8307 1447444
-1651.1738 999.94824 2021.6779 1513237
-1639.2538 999.98438 2021.7509 1579030
-1628.3481 1000.6443 2023.0851 1381651
-1617.3539 1001.2593 2024.3285 1315858
-1605.1652 1001.1384 2024.084 1907995
-1594.0729 1001.7047 2025.2289 1776409
-1584.0106 1002.9318 2027.7098 1710616
-1563.8025 997.70477 2017.1418 1513237
-1558.3914 1001.9102 2025.6443 1644823
-1544.9308 1000.9656 2023.7346 1907995
-1534.7675 1002.1593 2026.1479 2039581
-1520.3805 1000.5921 2022.9795 2039580
-1512.4982 1003.3149 2028.4845 2565925
-1500.6847 1003.4528 2028.7632 2302753
-1487.2781 1002.519 2026.8751 2236960
-1480.0637 1005.7778 2033.464 1907995
-1457.3762 998.48926 2018.7279 2171167
-1441.8674 996.03888 2013.7739 2039581
-1431.8572 997.37787 2016.481 2039581
-1419.5214 997.10577 2015.9308 1907995
-1406.7018 996.48633 2014.6785 2171167
-1392.9985 995.22498 2012.1284 2171167
-1385.9305 998.72339 2019.2014 2500132
-1373.9197 998.68976 2019.1333 2500132
-1360.375 997.53082 2016.7902 2434339
-1350.382 998.9787 2019.7175 2368546
-1343.7362 1002.9509 2027.7484 2105374
-1328.8287 1000.7726 2023.3445 2368546
-1320.8594 1003.8276 2029.5209 2368546
-1317.9407 1010.8124 2043.6427 2500132
-1307.0619 1011.7649 2045.5685 2434339
-1299.577 1015.3872 2052.8918 2171167
-1287.7098 1015.6214 2053.3655 2105374
-1264.8446 1007.1032 2036.1434 2105373
-1255.7349 1009.4788 2040.9465 2105374
-1251.2004 1015.6147 2053.3518 2236960
-1241.9557 1018.0098 2058.1943 2105374
-1214.0977 1005.0444 2031.981 1842202
-1200.2512 1003.5342 2028.9277 1842202
-1186.2844 1001.8919 2025.6073 1710616
-1183.9031 1010.1007 2042.2039 2236960
-1163.0322 1002.5408 2026.9194 2039581
-1148.1974 1000.0807 2021.9457 1973788
-1126.0151 991.10162 2003.7917 1907995
-1123.364 999.30536 2020.3779 2236960
-1110.7664 998.74237 2019.2396 2171167
-1100.4524 1000.2429 2022.2734 2302753
-1087.6843 999.5213 2020.8145 2302753
-1075.9023 999.69977 2021.1754 2368546
-1067.1552 1002.7339 2027.3097 2171167
-1054.891 1002.4949 2026.8265 2236960
-1047.6527 1007.0816 2036.0999 2302753
-1034.0736 1005.6089 2033.1223 2368546
-1022.8973 1006.4656 2034.8545 2500132
-1013.2559 1008.8712 2039.7179 2500132
-1001.8235 1009.5298 2041.0497 2302753
-987.23431 1006.9849 2035.9042 2434339
-975.20721 1007.0225 2035.9802 2434339
-968.02496 1012.1267 2046.2999 2434339
-959.27698 1015.7025 2053.5293 2565925
-945.61334 1014.0984 2050.2864 2697511
-933.36566 1013.991 2050.0691 2500132
-913.44702 1005.4373 2032.7753 2368546
-901.72095 1005.793 2033.4946 2368546
-892.50836 1009 2039.9783 2763304
-881.74237 1010.5146 2043.0406 2763304
-868.69507 1009.4207 2040.829 3026219
-860.1861 1013.6438 2049.3672 2829097
-843.80505 1008.5786 2039.1262 2763304
-831.59778 1008.4276 2038.8209 2697511
-812.96924 1000.3704 2022.5311 2631718
-801.10309 1000.5179 2022.8296 2434339
-791.16101 1003.1095 2028.0691 2631718
-784.98871 1010.6345 2043.2828 2894890
-768.58948 1005.0222 2031.9362 2763304
-755.19727 1003.226 2028.3044 2829097
-747.01917 1008.4102 2038.7859 2763304
-736.04883 1009.9336 2041.866 2565925
-722.53485 1007.9595 2037.8748 2434339
-712.77771 1011.2482 2044.5238 2302753
-698.61603 1008.2938 2038.5507 2039581
-686.51837 1008.2667 2038.4958 2500132
-672.6192 1005.5455 2032.994 1973788
-663.13611 1009.4473 2040.8826 1710616
-649.53015 1007.1015 2036.1401 2434339
-636.20941 1005.1176 2032.129 2500132
-624.27893 1005.2958 2032.4893 2171167
-608.37354 998.95422 2019.668 2171167
-597.31097 1000.4697 2022.7321 2368289
-588.31573 1005.5808 2033.0656 2368289
-576.41364 1005.8332 2033.5758 1973531
-563.14575 1003.6622 2029.1865 2302496
-551.31818 1004.0195 2029.9089 2499875
-540.13135 1005.5856 2033.0751 2565925
-527.26331 1004.0216 2029.9132 2631718
-514.61481 1002.8126 2027.469 2565925
-501.88049 1001.3745 2024.5614 2763304
-490.13519 1001.8878 2025.599 2500132
-477.83151 1001.2566 2024.323 2368546
-465.78421 1001.144 2024.0952 2566182
-453.8103 1001.1873 2024.183 2696997
-441.33636 1000.1001 2021.9847 2500132
-429.37131 1000.1375 2022.0602 2829097
-419.16336 1004.3871 2030.6522 2697511
-405.90326 1001.3584 2024.5288 2565925
-393.77765 1001.0294 2023.8635 2368546
-381.12259 999.29138 2020.3497 2500132
-369.50424 1000.2471 2022.2819 2631718
-357.14072 999.18195 2020.1285 2631461
-344.9563 998.56152 2018.8741 2499875
-331.30453 993.49628 2008.6332 2039324
-319.57425 994.03021 2009.7128 2368289
-308.2995 996.07739 2013.8517 2368288
-296.02936 994.94379 2011.5599 2499875
-284.33694 995.73834 2013.1663 2105117
-272.48395 996.0155 2013.7266 2368289
-260.48218 995.74939 2013.1885 2302496
-249.10213 997.94836 2017.6344 2302496
-237.06241 997.59302 2016.916 2368289
-224.24039 993.73328 2009.1123 2631461
-212.2681 993.41736 2008.4738 2368289
-200.76627 995.39655 2012.4752 2236701
-188.4157 993.15186 2007.9369 2039322
-176.25096 991.65015 2004.9008 2302493
-164.80212 994.25043 2010.1581 2236957
-153.51701 998.32056 2018.387 2960680
-141.03873 994.66357 2010.9933 2565666
-129.12732 994.69855 2011.0641 2565666
-117.17329 994.37885 2010.4177 2499873
-105.09329 992.79688 2007.2192 2434079
-93.429062 995.23999 2012.1587 2368287
-81.519897 995.4071 2012.4966 2434080
-69.31797 991.44409 2004.4843 2368286
-57.709999 996.09406 2013.8855 3092010
-45.596062 992.15869 2005.929 2499873
-33.821423 995.43439 2012.5518 2236700
-21.959536 998.31165 2018.3689 2302494
-9.9634619 994.67505 2011.0165 2368287
1.9509965 993.849 2009.3463 1973529
13.84073 992.66913 2006.9608 1907736
25.774857 994.29236 2010.2428 1907736
37.694813 994.5155 2010.694 1381392
49.465912 991.64746 2004.8953 1643794
61.418236 992.81958 2007.2651 1577744
73.190598 991.17432 2003.9388 1644308
85.275986 993.63568 2008.9152 2170908
97.413704 996.02936 2013.7545 2499873
108.59972 989.23126 2000.0104 2565666
121.2365 995.68585 2013.0602 2763045
133.21123 996.03381 2013.7637 2763046
145.5571 998.87152 2019.5009 2631460
157.70929 1000.05 2021.8834 2302494
169.61171 999.59009 2020.9535 2499875
180.87225 995.65717 2013.0022 2631461
193.72946 1000.4567 2022.7057 2631717
205.40668 998.95819 2019.676 2764073
216.50911 994.98315 2011.6394 2766384
