# .PCD v0.7 - Point Cloud Data file format
VERSION 0.7
FIELDS x y z rgb
SIZE 4 4 4 4
TYPE F F F U
COUNT 1 1 1 1
WIDTH 1315
HEIGHT 1
VIEWPOINT 0 0 0 1 0 0 0
POINTS 1315
DATA ascii
2884.228 1111.7217 3952.105 2368546
2943.0454 1125.2566 4000.2209 2697511
2993.6902 1135.4753 4036.5479 2763048
3013.5132 1133.9343 4031.0698 2960683
3012.9001 1124.7885 3998.5566 2829353
3064.9736 1135.3008 4035.9275 3158316
3148.0374 1157.0406 4113.2114 3158061
3138.8093 1144.786 4069.6467 3158318
3157.9768 1142.9955 4063.2817 3618866
3152.4392 1132.3583 4025.4666 3421231
3195.9727 1139.3745 4050.4092 4078905
3166.3992 1120.4175 3983.0183 4144697
3174.7603 1115.0648 3963.9897 4276283
3183.1746 1109.8094 3945.3071 4276283
3218.793 1114.046 3960.3679 4276283
3201.8066 1100.1462 3910.9551 5196615
2983.1721 1017.6575 3617.7124 5262663
3144.4846 1065.0334 3786.1311 5065283
3146.9646 1058.3228 3762.2749 5262405
0 0 0 0
0 0 0 0
0 0 0 0
0 0 0 0
2715.0425 881.83319 3134.865 5987155
0 0 0 0
2718.6621 871.08942 3096.6714 6184278
0 0 0 0
0 0 0 0
2802.177 880.02979 3128.4541 6512986
2857.1772 891.40582 3168.895 6512472
2884.3389 894.0047 3178.1338 6775644
2911.6094 896.60333 3187.3718 6841692
2940.8599 899.77429 3198.6445 6775900
2926.7373 889.7193 3162.8997 6973533
3035.5049 916.91284 3259.571 7236449
3098.6365 930.06476 3306.3252 7236193
3341.3679 996.62006 3542.9255 7236450
3343.0967 990.90997 3522.6267 7039069
3422.0068 1008.0057 3583.4009 6907225
0 0 0 0
0 0 0 0
0 0 0 0
0 0 0 0
0 0 0 0
0 0 0 0
-4338.9663 1385.2052 4822.7344 768
-4170.5337 1340.2605 4666.2549 768
-4134.9644 1337.6984 4657.3345 768
-4024.929 1310.8495 4563.8574 768
-4015.9512 1316.7726 4584.4795 768
-4221.8154 1393.7 4852.3096 768
-3855.2925 1281.4308 4461.4331 768
-3848.272 1287.9286 4484.0562 1024
-3800.8237 1280.8925 4459.5591 768
-3771.3655 1279.8632 4455.9751 1024
-3758.811 1284.5959 4472.4531 1024
-3758.804 1293.7147 4504.2012 768
-3726.187 1291.6599 4497.0469 768
-3679.6082 1284.7008 4472.8184 768
-3626.7261 1275.4242 4440.5205 768
-3592.4424 1272.6002 4430.6885 768
-3593.0125 1282.1722 4464.0146 768
-3583.4089 1288.2289 4485.1016 768
-3515.8232 1273.3759 4433.3892 768
-3509.7012 1280.7279 4458.9863 768
-3530.5635 1298.113 4519.5142 768
-3541.3562 1312.0333 4567.979 768
-3523.9707 1315.6478 4580.5635 768
-3499.2256 1316.5496 4583.7026 768
-3443.0249 1305.538 4545.3647 768
-3384.8545 1293.5999 4503.8013 768
-3371.6516 1298.7941 4521.8853 1024
-3337.9897 1296.1272 4512.6006 1024
-3299.5098 1291.5315 4496.6001 1024
-3279.4995 1294.1493 4505.7139 768
-3242.5981 1290.09 4491.5811 768
-3224.3633 1293.4514 4503.2842 768
-3200.9834 1294.7878 4507.937 768
-3178.6335 1296.5669 4514.1309 768
-3181.5918 1308.7869 4556.6763 768
-3140.6763 1303.0135 4536.5757 768
-3108.4109 1300.7605 4528.7314 768
-3067.0151 1294.614 4507.332 768
-3058.3127 1302.281 4534.0254 768
-2997.2693 1287.5988 4482.9077 768
-2990.071 1295.9921 4512.1299 768
-2974.8228 1301.0161 4529.6216 768
-2969.4546 1310.4922 4562.6133 768
-2953.8647 1315.5897 4580.3608 768
-2899.8923 1303.5286 4538.3687 768
-2880.7 1307.0217 4550.5308 768
-2878.0657 1318.1648 4589.3262 768
-2841.3372 1313.7561 4573.9771 768
-2818.5669 1315.7786 4581.0186 768
-2792.3557 1316.2184 4582.5498 768
-2760.394 1313.9297 4574.5815 768
-2738.3735 1316.3744 4583.0933 768
-2706.8389 1314.2489 4575.6929 768
-2679.1584 1313.9705 4574.7236 768
-2644.9856 1310.4697 4562.5352 768
-2623.1428 1313.0687 4571.584 768
-2596.6428 1313.3663 4572.6201 1024
-2566.9893 1312.0585 4568.0664 1024
-2528.7644 1306.2949 4548 1024
-2496.4934 1303.5159 4538.3247 768
-2472.4463 1305.0172 4543.5518 768
-2432.6538 1298.1492 4519.6401 768
-2412.8372 1301.9069 4532.7227 768
-2396.2781 1307.5266 4552.2886 1024
-2365.1389 1305.228 4544.2856 1024
-2339.1746 1305.7653 4546.1562 1024
-2309.3521 1304.1361 4540.4844 1024
-2286.2432 1306.3048 4548.0347 1024
-2257.9277 1305.5146 4545.2837 1024
-2234.865 1307.7792 4553.168 768
-2204.2012 1305.5969 4545.5698 768
-2177.3604 1305.6528 4545.7646 768
-2154.7083 1308.2535 4554.8193 768
-2127.4612 1308.0951 4554.2676 768
-2091.0532 1302.2273 4533.8384 768
-2060.6931 1300.0222 4526.1611 768
-2040.6064 1304.3257 4541.144 768
-2017.6807 1306.9052 4550.1245 768
-1991.4119 1307.3597 4551.7075 768
-1963.3722 1306.6483 4549.2305 768
-1923.8579 1298.1743 4519.7275 768
-1909.0348 1306.3573 4548.2173 512
-1840.9303 1277.7919 4448.7637 512
-1813.8036 1277.2524 4446.8857 512
-1778.4451 1270.8149 4424.4731 256
-1759.7679 1276.2832 4443.5112 256
-1735.7799 1278.0072 4449.5137 65792
-1703.693 1273.7294 4434.6201 658182
-1682.2367 1277.3899 4447.3643 723976
-1654.011 1275.9448 4442.3335 723975
-1625.4369 1274.1799 4436.1885 658438
-1602.6654 1276.9803 4445.9385 723721
-1569.4147 1271.3851 4426.458 657928
-1550.6819 1277.5607 4447.959 789514
-1521.9067 1275.5332 4440.8999 921100
-1492.9 1273.2368 4432.9048 1052686
-1450.5798 1259.3002 4384.3833 1184272
-1385.8134 1225.0135 4265.0107 1184272
-1359.6854 1224.2428 4262.3271 1118479
-1331.6456 1221.6887 4253.4351 1118478
-1317.9144 1232.4166 4290.7856 987406
-1304.0341 1243.4243 4329.1099 1053199
-1275.4539 1240.5759 4319.1929 1250578
-1267.6313 1258.2144 4380.603 1184785
-1222.8822 1239.1719 4314.3042 1447957
-1192.7258 1234.4188 4297.7563 1645336
-1177.7507 1245.5133 4336.3828 1776922
-1145.6218 1238.5573 4312.1646 1776924
-1115.7104 1233.7358 4295.3784 1776924
-1099.6084 1244.3162 4332.2148 1842717
-1069.0021 1238.5968 4312.3022 1842717
-1051.9192 1248.6499 4347.3032 1908510
-1033.0867 1257.0789 4376.6494 1908510
-999.49487 1247.52 4343.3696 1974303
-973.23853 1246.8536 4341.0493 1974303
-964.06903 1268.636 4416.8867 1908510
-961.56146 1300.6451 4528.3301 1776924
-891.35779 1240.2952 4318.2153 1842717
-869.70648 1245.9336 4337.8462 1711131
-850.72766 1255.8608 4372.4087 1579545
-825.58868 1257.0322 4376.4868 1513752
-791.61151 1244.386 4332.458 1513752
-767.91895 1247.6012 4343.6519 1513752
-732.34583 1231.0682 4286.0908 1513752
-720.14423 1254.0461 4366.0908 1513752
-688.13745 1242.963 4327.5034 1645338
-668.99066 1255.1495 4369.9321 1579545
-641.59955 1252.2268 4359.7563 1645338
-601.03577 1222.2708 4255.4614 1645338
-586.94073 1245.8754 4337.6436 1711131
-561.2262 1245.8481 4337.5488 1579545
-538.28711 1252.2751 4359.9248 1579545
-513.29718 1254.3385 4367.1089 1513752
-484.99811 1248.1052 4345.4067 1645338
-458.11594 1245.0237 4334.6782 1711131
-428.75345 1234.4348 4297.812 1776411
-405.88321 1242.3811 4325.4775 1710618
-380.60074 1243.5172 4329.4331 1579032
-354.8331 1243.1178 4328.0425 1579032
-330.24924 1247.1263 4341.999 1513239
-301.75598 1235.8021 4302.5723 1447446
-275.64413 1233.0404 4292.957 1513239
-248.4897 1224.5791 4263.498 1447446
-225.74007 1238.3666 4311.501 1315860
-198.32904 1226.8383 4271.3638 1447446
-173.35538 1229.22 4279.6558 1513239
-149.66772 1243.0991 4327.9775 1381653
-124.41949 1247.0759 4341.8232 1381653
-98.902855 1249.7347 4351.0801 1447446
-72.948524 1246.7875 4340.8188 1513239
-47.46246 1252.9923 4362.4219 1513239
-21.501509 1246.5079 4339.8457 1644825
4.2173448 1247.5507 4343.4761 1644825
29.86788 1243.9562 4330.9614 1579032
55.388172 1240.7664 4319.856 1381653
80.624084 1235.236 4300.6011 1316373
106.48082 1239.5892 4315.7578 1382166
132.38631 1242.7141 4326.6372 1382166
158.77362 1248.6141 4347.1787 1382166
183.94704 1244.6533 4333.3887 1513752
209.79602 1245.6742 4336.9429 1447959
236.60913 1251.5719 4357.4766 1447959
261.18228 1245.6266 4336.7769 1447959
288.16357 1251.2023 4356.1895 1513752
313.04556 1247.4955 4343.2837 1513752
341.92719 1259.0798 4383.6157 1513752
366.93835 1255.7821 4372.1348 1447959
392.03049 1253.1785 4363.0698 1447959
414.97183 1244.447 4332.6704 1579291
443.06927 1251.2946 4356.5107 1513498
466.94617 1246.1249 4338.5117 1447703
493.78946 1248.9979 4348.5146 1316373
515.3573 1238.9039 4313.3716 1382166
542.04248 1241.4846 4322.3564 1447959
565.7453 1237.3098 4307.8213 1710617
591.91931 1238.6666 4312.5454 1710618
612.80524 1229.3032 4279.9458 1776411
635.94995 1225.0353 4265.0864 1776411
661.04248 1224.7021 4263.9263 1842204
685.83569 1223.8593 4260.9922 1776411
716.04919 1232.4054 4290.7461 1776411
733.95184 1219.9036 4247.2197 1710618
758.82104 1219.4257 4245.5562 1776411
779.51105 1212.4781 4221.3677 1710618
810.51605 1221.5082 4252.8066 1579032
829.49408 1212.4146 4221.146 1513239
857.74243 1217.0065 4237.1333 1579032
881.32166 1214.9009 4229.8022 1644825
901.66095 1208.5688 4207.7568 1579032
924.22693 1205.4821 4197.0098 1710618
947.91962 1203.988 4191.8081 1710619
977.2525 1209.5511 4211.1768 1579030
990.25226 1195.125 4160.9507 1579030
1008.9199 1188.0741 4136.4023 1710616
1029.5187 1183.5776 4120.7476 1710616
1056.2987 1186.2314 4129.9868 1710616
1073.8551 1178.6411 4103.5605 1710616
1101.0449 1181.7264 4114.3022 1644823
1128.9949 1185.4761 4127.3569 1579030
1142.063 1173.7717 4086.6072 1579030
1169.4465 1176.9608 4097.7104 1579030
1190.3732 1173.6541 4086.1973 1579030
1215.8796 1174.9045 4090.551 1644824
1222.8853 1158.5782 4033.7092 1776409
1229.53 1142.5425 3977.8794 1776409
1276.1549 1163.5627 4051.0637 1842202
1355.6351 1213.2104 4223.917 1776409
1303.7563 1145.631 3988.6321 1710616
1319.6753 1138.972 3965.4485 1842202
1343.4469 1139.2051 3966.2595 1842202
1367.4923 1139.6582 3967.8374 1644822
1395.16 1143.0638 3979.6943 1710616
1413.8002 1139.0828 3965.834 1776409
1437.6978 1139.3986 3966.9333 1776409
1454.8488 1134.4434 3949.6814 1907995
1481.9492 1137.2805 3959.5593 1973788
1511.4827 1141.8672 3975.5283 1973788
1537.5817 1143.7584 3982.1128 2039581
1559.2697 1142.3608 3977.2468 2039581
1578.6158 1139.3149 3966.6421 2171167
1604.1758 1140.777 3971.7324 2105374
1628.6337 1141.4243 3973.9863 2105374
1654.9344 1143.3265 3980.6089 1973788
1679.1356 1143.7451 3982.0664 1973788
1695.4794 1138.8741 3965.1074 2039581
1711.1638 1133.6993 3947.0913 1907995
1737.3063 1135.4998 3953.3591 1907995
1759.0614 1134.4226 3949.6091 1907995
1779.4091 1132.478 3942.8389 1907995
1801.6296 1131.7605 3940.3406 1842202
1824.4769 1131.4498 3939.2593 1776409
1848.7303 1132.0082 3941.2029 1776409
1867.0732 1128.9786 3930.6553 1842202
1893.3219 1130.7451 3936.8054 1776409
1914.6515 1129.5667 3932.7024 1776409
1933.8112 1127.1517 3924.2947 1710616
1954.5803 1125.7212 3919.3142 1776409
1968.5063 1120.4293 3900.8899 1907997
1992.998 1121.2041 3903.5876 1776411
2012.1681 1119.0016 3895.9194 1842204
2039.3721 1121.2665 3903.8047 1776411
2045.3282 1111.9291 3871.2957 1842204
2063.4297 1109.3284 3862.2407 1907995
2083.4011 1107.7791 3856.8469 1973788
2095.9304 1102.3491 3837.9419 1842202
2124.4849 1105.3737 3848.4722 1907995
2136.4131 1099.7753 3828.9807 1907995
2147.3193 1093.7738 3808.0859 1907995
2182.1792 1099.9717 3829.6646 1907995
2198.325 1096.7057 3818.2937 1973788
2219.0703 1095.7776 3815.0623 2039581
2235.7622 1092.8867 3804.9976 1973788
2256.144 1091.8394 3801.3511 1907995
2278.6509 1091.8309 3801.3215 1842202
2296.3213 1089.5278 3793.3032 1776409
2318.9956 1089.6206 3793.6265 1842202
2333.748 1086.0251 3781.1082 1776409
2361.1111 1088.3105 3789.0652 1907995
2321.6538 1060.0436 3690.6509 1973788
2336.5181 1056.8752 3679.6201 1907995
2341.9814 1049.5527 3654.1257 2039581
2476.7754 1099.7924 3829.0403 1907995
2496.0276 1098.2803 3823.7759 1907995
2537.6423 1106.5468 3852.5562 2039581
2441.3853 1055.0823 3673.3774 2302496
2455.9778 1052.0095 3662.6792 2500131
2484.8198 1055.0408 3673.2329 2368546
2534.2454 1066.683 3713.7668 1974045
2582.5464 1077.6556 3751.9692 2171424
2616.3789 1082.4551 3768.679 2763304
2639.2817 1082.6898 3769.4961 3026217
2755.3013 1120.7983 3902.1748 3092267
2757.9294 1112.5314 3873.3923 3553074
2876.2908 1150.7013 4006.2852 3618867
2891.6677 1147.3835 3994.7339 3750196
2962.9644 1166.1277 4059.9937 4013368
3047.6292 1189.7888 4142.3721 4341819
3061.0835 1185.4934 4127.4175 4473919
3103.0735 1192.2301 4150.8716 4736832
3129.2893 1192.8477 4153.022 4934212
3248.4963 1228.6262 4277.5884 4934212
3194.3467 1198.7925 4173.7192 5131849
3186.7383 1186.7493 4131.7896 5395020
3197.4224 1181.6497 4114.0352 5460557
3131.4736 1148.5212 3998.6948 5658449
3156.0667 1148.8484 3999.834 5789522
3156.0623 1140.2838 3970.0154 5855315
3113.1108 1116.4441 3887.0149 5789776
3128.1013 1113.5813 3877.0479 5658190
3139.2773 1109.4122 3862.533 5921362
3021.7776 1060.1591 3691.0527 6052178
2752.7112 958.82013 3338.231 6183506
2687.5798 929.45477 3235.9927 6381142
2717.1003 933.00745 3248.3613 6446936
2751.6194 938.21448 3266.4902 6710108
2710.8252 917.84869 3195.5847 6775902
2750.7666 924.91174 3220.1755 6578521
2748.4878 917.77936 3195.3433 6710106
2744.7107 910.24762 3169.1206 6841692
2748.907 905.44452 3152.3982 6907485
2774.6216 907.74615 3160.4116 6775899
2774.6777 901.67883 3139.2876 6907484
2798.4521 903.34875 3145.1016 6841692
2824.5159 905.73059 3153.3943 6841691
2860.072 911.10492 3172.1057 6841691
2879.719 911.37433 3173.0435 6907484
2897.052 910.91254 3171.4358 6841692
2924.5828 913.64258 3180.9407 6907228
2971.6897 922.414 3211.4792 6973021
2993.2283 923.18793 3214.1738 6907228
3006.228 921.33514 3207.7231 6906972
3037.9731 925.21454 3221.2295 7038814
3046.1021 921.89807 3209.6829 7104863
3054.6624 918.7525 3198.7314 6907740
0 0 0 0
0 0 0 0
0 0 0 0
0 0 0 0
0 0 0 0
0 0 0 0
-4205.647 1370.3419 4674.5508 1024
-3996.3816 1310.7891 4471.4023 1024
-4104.6807 1355.2958 4623.2251 1024
-3837.022 1275.4316 4350.79 1024
-4059.1423 1358.3915 4633.7852 768
-3868.2322 1303.3193 4445.9214 1024
-3968.7554 1346.3577 4592.7354 768
-3782.1616 1291.9164 4407.0234 768
-3748.1016 1289.1831 4397.6997 768
-3720.5173 1288.6545 4395.8965 768
-3708.3726 1293.5038 4412.4385 768
-3693.7046 1297.5358 4426.1924 768
-3568.7668 1262.6123 4307.0605 768
-3523.6855 1255.6421 4283.2837 1024
-3492.0039 1253.3804 4275.5684 1024
-3442.5894 1244.6742 4245.8696 1024
-3418.8689 1245.198 4247.6562 768
-3467.2061 1272.1685 4339.6587 768
-3442.1572 1272.4143 4340.4976 768
-3433.8401 1278.8955 4362.6064 768
-3428.6736 1286.6575 4389.084 768
-3391.7361 1282.5243 4374.9849 768
-3385.2937 1289.9475 4400.3071 768
-3380.0378 1297.9415 4427.5767 768
-3337.2683 1291.5426 4405.7485 768
-3315.0537 1293.0604 4410.9263 768
-3302.6973 1298.4781 4429.4072 768
-3266.9817 1294.7253 4416.6055 768
-3238.3508 1293.7423 4413.252 768
-3226.3123 1299.4259 4432.6401 768
-3195.1931 1297.455 4425.9165 768
-3192.0269 1306.8958 4458.1216 768
-3121.7068 1288.7705 4396.292 768
-3098.4771 1289.9445 4400.2969 768
-3083.4141 1294.5673 4416.0664 768
-3034.6567 1285.0016 4383.4355 768
-3030.335 1294.249 4414.9805 768
-2988.8486 1287.6465 4392.4575 768
-2977.3979 1293.9813 4414.0674 768
-2937.897 1288.1298 4394.1064 768
-2922.406 1292.7949 4410.0205 768
-2918.7375 1302.8215 4444.2236 768
-2902.7488 1307.4812 4460.1187 768
-2874.0752 1306.4604 4456.6367 768
-2849.687 1307.3868 4459.7969 768
-2826.3479 1308.8163 4464.6729 768
-2794.4617 1306.2773 4456.0122 768
-2765.6399 1305.1362 4452.1196 1024
-2746.5044 1308.5883 4463.895 1024
-2719.7268 1308.431 4463.3584 1024
-2682.5876 1303.2366 4445.6392 768
-2651.5535 1300.9346 4437.7866 768
-2628.6611 1302.621 4443.5396 768
-2617.968 1310.448 4470.2393 768
-2601.5825 1315.5568 4487.666 768
-2567.1096 1311.5299 4473.9297 768
-2540.2856 1311.3678 4473.377 768
-2510.7344 1309.7794 4467.9585 768
-2472.083 1303.3594 4446.0581 768
-2442.897 1301.8452 4440.8931 768
-2416.6746 1301.8947 4441.0615 768
-2388.1479 1300.6901 4436.9526 768
-2359.6182 1299.4572 4432.7466 768
-2336.0835 1300.9779 4437.9346 768
-2309.0576 1300.5673 4436.5337 768
-2280.1465 1299.0729 4431.436 768
-2254.9692 1299.6957 4433.5605 768
-2232.7734 1302.0721 4441.667 768
-2216.479 1307.9877 4461.8462 768
-2194.4758 1310.6365 4470.8818 768
-2163.9805 1308.2161 4462.6255 768
-2133.2351 1305.5829 4453.6431 768
-2099.7532 1301.1879 4438.6504 768
-2077.2676 1303.5819 4446.8174 768
-2051.6558 1304.0507 4448.4165 768
-2026.7899 1305.012 4451.6953 768
-2003.0621 1306.741 4457.5933 768
-1969.0269 1301.7019 4440.4043 512
-1942.3192 1301.4363 4439.498 512
-1871.8967 1271.4703 4337.2773 512
-1848.1687 1272.8285 4341.9102 512
-1827.0626 1276.0563 4352.9209 512
-1789.1071 1267.4399 4323.5288 65792
-1757.7694 1263.3296 4309.5073 65792
-1725.1917 1258.1936 4291.9873 0
-1711.8898 1267.1725 4322.6162 987146
-1702.2207 1279.1538 4363.4873 921354
-1664.3466 1269.983 4332.2036 658182
-1643.1458 1273.4467 4344.019 592389
-1636.6761 1288.619 4395.7754 592135
-1600.9968 1280.9124 4369.4858 723721
-1558.3245 1267.2651 4322.9326 789514
-1519.3251 1256.199 4285.1831 855307
-1497.2424 1258.9812 4294.6738 921100
-1444.3574 1235.5111 4214.6123 1184272
-1425.8977 1241.1809 4233.9531 1118479
-1383.0699 1225.4625 4180.334 1184272
-1360.6545 1227.587 4187.5811 1315858
-1333.0752 1225.0449 4178.9097 1315858
-1324.4412 1240.1462 4230.4233 1250322
-1302.5814 1243.2072 4240.8652 1250578
-1262.097 1228.2633 4189.8882 1250578
-1244.3093 1235.2511 4213.7251 1382164
-1230.0322 1246.0814 4250.6699 1447957
-1199.1976 1240.2405 4230.7451 1513750
-1170.8473 1236.7743 4218.9214 1645336
-1143.8523 1234.6198 4211.5713 1711129
-1113.7483 1228.9385 4192.1914 1711132
-1096.1011 1237.0566 4219.8843 1645338
-1062.9404 1227.6368 4187.751 1842717
-1046.5961 1237.6527 4221.9175 1842717
-1018.0281 1233.3502 4207.2407 1908510
-1002.6614 1245.2264 4247.7534 1974303
-978.34784 1246.317 4251.4736 1974303
-925.38086 1209.999 4127.5845 1974303
-926.48773 1244.3337 4244.708 1974303
-905.00281 1249.3956 4261.9756 1776924
-858.71338 1219.5216 4160.0684 1645338
-840.38654 1228.7672 4191.6069 1513752
-828.19678 1247.8223 4256.6084 1513752
-793.24341 1232.7 4205.0225 1513752
-775.23456 1243.7825 4242.8276 1579545
-741.83801 1230.0924 4196.1279 1513752
-723.08118 1240.5698 4231.8687 1711131
-696.50793 1237.9081 4222.7886 1711131
-675.28314 1244.9078 4246.6665 1711131
-647.61639 1240.1138 4230.313 1842717
-612.2298 1219.5559 4160.1851 1776924
-596.74097 1238.5719 4225.0532 1711131
-575.53931 1246.877 4253.3838 1645338
-541.55139 1226.9734 4185.4878 1579545
-523.88855 1243.9215 4243.3018 1579545
-492.92282 1229.3998 4193.7646 1579545
-466.51331 1225.3029 4179.7896 1842717
-462.00415 1281.4934 4371.4683 1776924
-412.8476 1213.1614 4138.3721 1710618
-392.73358 1226.9308 4185.3428 1710618
-367.99954 1227.1503 4186.0913 1710618
-343.53885 1228.3788 4190.2822 1710618
-318.33603 1226.9384 4185.3687 1710618
-293.76984 1227.9156 4188.7021 1644825
-268.69928 1226.7705 4184.7959 1579032
-244.31723 1228.8555 4191.9082 1579032
-222.57625 1246.1998 4251.0737 1513239
-197.73611 1248.4044 4258.5942 1381653
-173.4509 1255.27 4282.0142 1447446
-147.39682 1249.4934 4262.3091 1579032
-122.29253 1251.0444 4267.5996 1644825
-97.409599 1256.2584 4285.3862 1513239
-71.413864 1245.7382 4249.499 1513239
-46.295536 1247.3994 4255.166 1513239
-21.113985 1249.2939 4261.6284 1579032
4.0832858 1232.8129 4205.4077 1513239
29.047077 1234.7283 4211.9419 1579032
53.876976 1231.8123 4201.9941 1447446
78.85955 1233.1267 4206.4785 1382422
104.82233 1245.4564 4248.5376 1513752
129.06665 1236.5466 4218.1445 1382166
154.47133 1239.8413 4229.3833 1382166
179.38574 1238.8303 4225.9346 1513752
203.07137 1230.6206 4197.9292 1382166
230.75516 1245.7877 4249.668 1513752
254.19376 1237.3064 4220.7363 1579545
280.41293 1242.667 4239.0225 1579545
305.4671 1242.4077 4238.1382 1579545
331.04974 1244.174 4244.1631 1513752
356.71164 1245.9677 4250.2817 1513753
381.81158 1245.6913 4249.3394 1513498
406.29297 1243.5562 4242.0557 1513498
430.68109 1241.4008 4234.7031 1447960
457.40683 1245.8496 4249.8794 1250580
482.72159 1246.1918 4251.0464 1184787
504.358 1237.475 4221.311 1250580
526.93817 1231.788 4201.9116 1316373
552.73254 1233.7888 4208.7368 1579032
574.17023 1226.3119 4183.2314 1710618
599.98138 1228.4081 4190.3818 1710618
624.53162 1227.8585 4188.5073 1710618
648.95984 1227.1205 4185.9897 1842204
671.95142 1223.8201 4174.7314 1842204
693.76044 1218.6769 4157.1865 1776411
719.71802 1220.9238 4164.8516 1776411
742.15057 1217.2402 4152.2861 1842204
764.87622 1214.2584 4142.1143 1907997
793.40875 1220.3939 4163.0439 1776411
803.22375 1198.2368 4087.4609 1644825
823.81226 1192.9783 4069.5227 1776411
791.05017 1112.9578 3796.5544 1776411
872.89026 1194.1423 4073.4934 1710618
867.34351 1154.6266 3938.6963 1644825
898.66693 1164.9779 3974.0073 1644825
913.96228 1154.5533 3938.4463 1644823
934.80505 1151.4812 3927.9666 1842202
958.15216 1151.5681 3928.2632 1842202
976.68451 1146.0013 3909.2739 1710616
996.21918 1141.8414 3895.0835 1644823
1018.4404 1140.8796 3891.8025 1776409
1044.2051 1143.8418 3901.907 1644823
1065.1453 1141.5054 3893.937 1513237
1087.3667 1140.6118 3890.8889 1513237
1110.359 1140.5474 3890.6692 1513237
1136.2024 1143.3546 3900.2451 1513237
1161.1719 1145.1879 3906.499 1579031
1178.9296 1139.9762 3888.7205 1776409
1205.6725 1143.4861 3900.6934 1776409
1230.6532 1145.2239 3906.6218 1776409
1259.6212 1150.5397 3924.7549 1842202
1279.6282 1147.626 3914.8157 1907995
1302.2115 1147.0856 3912.9722 1842202
1325.3019 1147.0028 3912.6902 1710616
1347.8785 1146.486 3910.927 1710616
1365.9557 1142.2242 3896.3889 1644822
1388.7708 1142 3895.624 1644823
1409.8436 1140.3739 3890.0771 1644823
1433.2931 1140.6917 3891.1611 1842202
1450.9298 1136.4464 3876.6799 1907995
1479.479 1140.7476 3891.3518 1973788
1509.3184 1145.8962 3908.915 2039581
1531.9087 1145.4689 3907.4573 2039581
1561.6572 1150.3269 3924.0293 2171167
1581.4246 1147.7981 3915.4028 2171167
1599.311 1143.9972 3902.4373 2171167
1625.8513 1146.4064 3910.6555 2105374
1648.616 1146.123 3909.6887 2039581
1664.666 1141.2441 3893.0461 2039581
1686.2197 1140.2203 3889.5535 2039581
1705.9778 1138.0262 3882.0688 2039581
1728.1793 1137.4988 3880.2695 1973788
1756.9738 1141.2678 3893.1265 2039581
1769.6976 1134.6355 3870.5022 2039581
1789.9777 1132.9554 3864.7712 1907995
1813.5121 1133.3518 3866.1233 1907995
1827.2777 1127.7094 3846.8755 1842202
1852.1926 1129.002 3851.2849 1907995
1882.2075 1133.334 3866.0625 1907995
1892.5758 1125.8743 3840.6155 1842202
1915.5095 1125.9779 3840.9695 1776410
1931.1862 1121.8635 3826.9341 1776411
1946.9299 1117.8831 3813.356 1907997
1970.5901 1118.4873 3815.4172 1842204
1988.9861 1116.1238 3807.3547 1776411
2007.2472 1113.7385 3799.2178 1776411
2025.6003 1111.4567 3791.4338 2039581
2051.5171 1113.3295 3797.8223 1907995
2074.7708 1113.7321 3799.1956 1973788
2095.2634 1112.6598 3795.5381 1973788
2119.3779 1113.5133 3798.4497 1973788
2135.5007 1110.194 3787.1267 1907995
2152.1396 1107.2095 3776.9456 1907995
2168.7842 1104.2892 3766.9839 1973788
2204.5413 1111.0608 3790.0835 2236960
2220.1423 1107.6399 3778.4143 2236960
2226.3645 1099.655 3751.1758 2302753
2257.0879 1103.8099 3765.3491 2500132
2269.4177 1098.9763 3748.8608 2697511
2274.8884 1090.9471 3721.4714 2434596
2297.8806 1091.3942 3722.9961 2500133
2304.8936 1084.3153 3698.8484 2960683
2342.4219 1091.5902 3723.665 3026733
2328.6362 1075.0399 3667.2078 2960426
2339.7756 1070.1959 3650.6841 3158317
2347.5266 1063.9052 3629.2246 3421232
2352.5447 1056.5011 3603.968 3552817
2355.3638 1048.2518 3575.8276 3683890
2345.0349 1034.3502 3528.406 3881525
2363.2256 1033.1626 3524.3547 3815733
2416.2644 1047.0974 3571.8896 4408125
2435.2026 1046.1407 3568.6265 4671297
2464.2634 1049.5117 3580.1257 4736834
2536.6877 1071.136 3653.8906 4671041
2506.2383 1049.3224 3579.4795 5000007
2577.9106 1070.2729 3650.9468 5263177
2495.6182 1027.4851 3504.9875 5329225
2543.8831 1038.7123 3543.2861 5263432
2518.5002 1019.9303 3479.2166 4934467
2340.2556 940.05072 3206.7288 5592396
2365.7395 942.63373 3215.54 5592396
0 0 0 0
0 0 0 0
0 0 0 0
2463.697 951.02722 3244.1724 6447191
0 0 0 0
2526.1768 960.16217 3275.3335 6381910
2533.9697 955.78119 3260.3892 6183762
2532.781 948.10443 3234.2019 6315348
2559.6746 950.97614 3243.998 6512470
2595.644 957.15186 3265.0647 6578263
2625.2407 960.9035 3277.8625 6841692
2648.0234 962.12439 3282.0271 6973277
2669.8655 962.98804 3284.9734 6841692
2684.6504 961.31232 3279.2571 6446934
2719.8406 966.91492 3298.3687 6775899
2682.0276 946.66956 3229.3074 6841692
2686.6638 941.58826 3211.9739 6775899
2710.583 943.289 3217.7754 6907485
2703.2705 934.1731 3186.6787 7039071
2734.323 938.34955 3200.9258 6973280
2745.5254 935.70343 3191.8992 6973278
2742.4465 928.25952 3166.5063 6973278
2761.3557 928.30872 3166.6741 6973278
2766.051 923.61102 3150.6494 6841691
2778.7527 921.63196 3143.8982 6973278
2799.239 922.24396 3145.9858 7039071
2819.9656 922.92639 3148.314 6973278
2842.0161 924.03033 3152.0798 6775899
2862.0784 924.47772 3153.606 6907228
2887.8257 926.74365 3161.3354 6973021
2906.9983 926.88416 3161.8147 6973021
2941.9751 932.02966 3179.3672 7236192
2970.5901 935.10699 3189.8645 6973021
2978.689 931.72803 3178.3381 6973021
2989.3696 929.19397 3169.6941 7038814
2987.3232 922.76038 3147.7476 7104607
3013.7104 925.13501 3155.8479 7170399
0 0 0 0
0 0 0 0
0 0 0 0
0 0 0 0
0 0 0 0
0 0 0 0
-4067.322 1352.0583 4520.8032 1024
-4060.9551 1358.8918 4543.6514 1024
-3896.5085 1312.5659 4388.7544 1024
-3985.8296 1351.6754 4519.5225 1024
-3812.0515 1301.4883 4351.7144 1024
-3787.1934 1301.807 4352.7803 1024
-3767.4644 1303.9054 4359.7964 1024
-3721.134 1296.7626 4335.9136 1024
-3678.3801 1290.7754 4315.8945 768
-3688.1082 1303.2496 4357.604 768
-3629.7917 1291.6858 4318.9385 768
-3596.0474 1288.7639 4309.1689 1024
-3516.6685 1269.3286 4244.1841 1024
-3487.1584 1267.743 4238.8823 1024
-3494.207 1279.5216 4278.2656 1024
-3402.366 1254.9958 4196.2603 1024
-3400.9224 1263.6985 4225.3589 768
-3419.2827 1279.9434 4279.6763 768
-3372.1587 1271.7351 4252.2305 768
-3362.7734 1277.7428 4272.3184 768
-3339.25 1278.4288 4274.6118 768
-3329.3521 1284.3816 4294.5161 768
-3318.5127 1290.0601 4313.5029 768
-3315.7739 1299.0004 4343.396 1024
-3261.7961 1287.85 4306.1128 1024
-3246.4324 1291.8896 4319.6201 1024
-3214.3547 1289.2897 4310.9268 1024
-3195.3362 1291.9281 4319.7485 1024
-3181.637 1296.7771 4335.9619 1024
-3153.9102 1295.941 4333.1665 1024
-3123.1436 1293.832 4326.1147 1024
-3090.3325 1290.8341 4316.0908 1024
-3060.3088 1288.9602 4309.8252 1024
-3037.1433 1289.9677 4313.1938 1024
-3030.5203 1298.0779 4340.3115 1024
-3012.3694 1301.3469 4351.2422 1024
-2958.1023 1288.9355 4309.7427 768
-2933.5911 1289.3864 4311.25 768
-2904.4749 1287.8033 4305.957 768
-2867.8179 1282.8191 4289.2915 768
-2861.6711 1291.5155 4318.3691 768
-2849.9382 1297.825 4339.4658 768
-2834.9231 1302.741 4355.9033 768
-2800.8516 1298.9099 4343.0938 768
-2765.6187 1294.4641 4328.2285 768
-2750.2378 1299.3141 4344.4448 768
-2719.3313 1296.8513 4336.2104 1024
-2701.7888 1300.7759 4349.3325 1024
-2677.2058 1301.3535 4351.2642 1024
-2657.7856 1304.4766 4361.7065 1024
-2629.0291 1303.0334 4356.8809 768
-2612.2515 1307.5576 4372.0083 768
-2586.2561 1307.5126 4371.8574 768
-2551.458 1302.9709 4356.6719 768
-2535.8872 1308.256 4374.3433 768
-2497.8638 1301.9471 4353.249 768
-2487.0554 1309.84 4379.6396 768
-2445.4663 1301.5171 4351.811 768
-2412.9583 1297.9015 4339.7217 768
-2383.0791 1295.6373 4332.1514 768
-2364.0837 1299.3055 4344.4165 768
-2335.063 1297.484 4338.3257 768
-2302.9443 1293.8813 4326.2798 768
-2266.1399 1287.5353 4305.0605 768
-2257.0935 1296.9954 4336.6919 768
-2231.2964 1296.937 4336.4966 768
-2211.6724 1300.5071 4348.4336 768
-2194.9319 1305.877 4366.3887 768
-2166.5847 1304.3871 4361.4072 768
-2136.6497 1301.8938 4353.0703 768
-2110.6465 1301.7645 4352.6382 768
-2080.9019 1299.2959 4344.3843 768
-2059.251 1301.8827 4353.0332 768
-2035.423 1303.141 4357.2407 768
-2007.3293 1301.6656 4352.3076 768
-1984.7 1303.7412 4359.2476 768
-1954.6407 1300.9268 4349.8369 768
-1905.1899 1284.9583 4296.4438 768
-1902.9772 1300.8484 4349.5752 512
-1837.7607 1273.5153 4258.1826 512
-1804.0616 1267.5657 4238.2896 512
-1777.8853 1266.8083 4235.7573 512
-1757.3605 1270.114 4246.8101 131840
-1721.9846 1262.6265 4221.7744 789766
-1713.094 1274.6241 4261.8906 789768
-1689.8541 1276.1449 4266.9751 855561
-1647.4207 1262.9967 4223.0127 723975
-1612.0165 1254.9153 4195.9912 658182
-1590.4055 1257.4865 4204.5884 789768
-1558.2434 1251.6643 4185.1211 1250065
-1528.9408 1247.988 4172.8286 1513237
-1485.937 1232.8234 4122.1235 1447444
-1461.5118 1232.8234 4122.1235 1381651
-1443.1429 1238.0189 4139.4956 1118479
-1424.9983 1243.5897 4158.1226 1184272
-1396.9664 1240.5764 4148.0469 1184272
-1370.2943 1238.6841 4141.7197 1184271
-1339.3837 1232.8217 4122.1177 1315858
-1324.918 1242.1589 4153.3384 1250065
-1293.2365 1235.4037 4130.7515 1250321
-1270.4299 1237.0299 4136.1885 1316371
-1206.7511 1198.139 4006.1516 1382164
-1210.9698 1226.4534 4100.8247 1513750
-1187.9333 1227.7582 4105.1875 1579543
-1171.4519 1236.0341 4132.8589 1579543
-1189.5068 1281.8817 4286.1572 1579543
-1126.7786 1240.7738 4148.707 1711129
-1084.8024 1221.1936 4083.2375 1711132
-1068.3905 1230.155 4113.2017 1776924
-1044.1749 1230.3396 4113.8188 1842717
-1026.0458 1237.8763 4139.0186 1776924
-1001.5552 1237.9192 4139.1621 1776924
-963.27228 1220.4891 4080.8823 1776924
-912.39038 1185.7872 3964.8513 1711131
-894.30603 1193.0028 3988.9775 1513752
-868.59473 1190.1595 3979.4709 1447959
-856.56299 1206.4247 4033.8557 1513752
-836.6745 1212.24 4053.3003 1513752
-819.16956 1221.9547 4085.7827 1579545
-799.17981 1228.4417 4107.4727 1579545
-783.03912 1241.4384 4150.9292 1579545
-758.61761 1241.7239 4151.8838 1711131
-733.70648 1241.2003 4150.1328 1711131
-702.09705 1228.9159 4109.0581 1645338
-675.50598 1224.8484 4095.458 1776924
-657.73682 1237.0698 4136.3223 1776924
-632.53253 1235.7123 4131.7832 1645338
-607.24731 1234.0809 4126.3286 1645338
-577.69965 1223.2867 4090.2366 1645338
-549.52045 1214.572 4061.0977 1711131
-527.67523 1219.6997 4078.2429 1776924
-474.32938 1149.0129 3841.8911 1842717
-484.8627 1233.7404 4125.1895 1842717
-456.95193 1224.4492 4094.1233 1776924
-436.65237 1235.6547 4131.5903 1776924
-399.28604 1197.0266 4002.4319 1710618
-387.31006 1234.4447 4127.5444 1710618
-361.78433 1230.8101 4115.3916 1710618
-339.358 1237.9564 4139.2866 1776411
-313.46951 1232.6025 4121.3853 1842204
-289.9816 1236.5809 4134.6875 1710618
-264.32352 1231.1853 4116.6465 1710618
-240.28267 1232.9913 4122.6851 1513239
-216.28748 1235.4667 4130.9619 1513239
-191.39485 1232.7936 4122.0239 1447446
-167.86063 1239.3678 4144.0059 1447446
-143.00699 1236.7843 4135.3672 1579032
-118.47678 1236.5076 4134.4424 1579032
-96.148758 1265.0619 4229.9175 1579032
-69.676361 1239.9967 4146.1084 1579032
-46.226734 1270.7218 4248.8423 1644825
-20.502962 1237.6613 4138.2998 1644825
4.0776482 1255.995 4199.6011 1644825
28.971571 1256.4114 4200.9932 1710618
53.181271 1240.4829 4147.7344 1579032
76.98671 1228.1743 4106.5786 1579545
102.17221 1238.5065 4141.126 1645338
125.64615 1228.1077 4106.356 1382166
149.68874 1225.7393 4098.437 1447959
176.95186 1246.7227 4168.5977 1447959
200.28772 1238.2849 4140.3853 1447959
225.21446 1240.4513 4147.6284 1513752
250.12444 1242.1079 4153.168 1645338
275.54153 1245.7607 4165.3813 1645338
299.09552 1241.0818 4149.7368 1645338
320.7258 1229.738 4111.8071 1579545
344.65332 1228.1821 4106.605 1579545
370.96506 1234.7675 4128.624 1579545
394.35172 1231.4043 4117.3784 1513752
414.83316 1219.8894 4078.8767 1579545
409.5647 1138.0892 3805.3662 1513752
453.11218 1193.3965 3990.2937 1513752
475.36682 1189.9185 3978.6646 1382166
496.62241 1184.3864 3960.1675 1382166
519.30292 1182.5985 3954.1895 1447446
562.37689 1225.4019 4097.3086 1513239
577.2464 1205.749 4031.5967 1579032
587.58813 1178.5764 3940.741 1710618
611.22772 1179.1342 3942.606 1842204
632.16272 1174.6254 3927.5303 1842204
655.15161 1174.1178 3925.8328 2039583
720.66162 1247.2354 4170.312 2039583
700.9884 1172.9673 3921.9861 1973790
722.21625 1169.7095 3911.093 2105376
741.27924 1163.257 3889.5183 1973790
764.44952 1163.4447 3890.146 1907997
788.02924 1164.2264 3892.7595 1907997
807.09747 1158.4878 3873.5718 1842204
831.77991 1160.9022 3881.645 1842204
850.90027 1155.6328 3864.0259 1842204
874.19525 1156.1606 3865.7905 1710618
893.78125 1151.8815 3851.4827 1579030
914.8905 1149.7296 3844.2874 1644823
937.51166 1149.5361 3843.6406 1710616
962.12476 1151.7363 3850.9971 1710616
980.4696 1146.5049 3833.5049 1644823
1005.0867 1148.6786 3840.7734 1644823
1026.6792 1147.3759 3836.4175 1513237
1050.5342 1148.6034 3840.522 1513237
1071.218 1146.3853 3833.1052 1513237
1095.8827 1148.4308 3839.9446 1579030
1115.9202 1145.6427 3830.6223 1579030
1139.0287 1146.0557 3832.0032 1579030
1157.2207 1141.6025 3817.1135 1579030
1178.3992 1140.2097 3812.4563 1513237
1212.0581 1150.7181 3847.593 1579030
1232.869 1148.866 3841.3999 1710616
1263.8218 1156.3604 3866.4585 1710616
1285.396 1155.1597 3862.4438 1776409
1310.922 1157.4902 3870.2363 1842202
1329.8184 1153.9875 3858.5247 1973788
1351.2954 1152.8051 3854.5706 1776409
1371.9712 1150.9895 3848.5 1776409
1394.4182 1150.6951 3847.5154 1776409
1417.3058 1150.7676 3847.7581 1907995
1447.297 1156.5144 3866.9734 1973788
1470.2025 1156.5082 3866.9526 2039581
1493.3712 1156.7061 3867.6143 2039581
1512.228 1153.6086 3857.2576 1973788
1536.4679 1154.6488 3860.7354 2105374
1558.9058 1154.324 3859.6494 2171167
1577.2896 1151.0502 3848.7029 2171167
1566.1736 1126.6487 3767.1128 2171167
1592.168 1129.2535 3775.8228 2105374
1647.4703 1152.285 3852.8318 2236960
1656.0638 1142.464 3819.9939 2105374
1677.806 1141.8563 3817.9622 2171167
1696.1414 1138.9772 3808.3352 2171167
1711.6865 1134.3246 3792.7786 2171167
1735.6116 1135.2739 3795.9526 2039581
1752.0437 1131.3604 3782.8672 2039581
1762.3987 1123.6711 3757.1572 2039581
1780.1904 1120.8562 3747.7449 2105374
1793.5964 1115.3832 3729.4451 1907995
1832.6982 1125.8282 3764.3699 1973788
1855.1747 1125.9321 3764.7173 2039581
1885.385 1130.6715 3780.564 2105374
1894.6101 1122.8625 3754.4534 2039583
1929.6078 1130.3318 3779.4282 1973791
1940.0619 1123.4175 3756.3088 2105376
1955.2462 1119.368 3742.7693 2302755
1980.1132 1120.8904 3747.8596 2171168
1993.7604 1116.0985 3731.8372 2171167
2026.8633 1122.1833 3752.1824 2565925
2065.8105 1131.3368 3782.7883 2829097
2084.5771 1129.3605 3776.1802 2829097
2117.6379 1135.088 3795.3311 2894890
2136.8662 1133.3586 3789.5486 2894890
2157.1875 1132.2389 3785.8047 2829353
2182.6006 1133.7871 3790.9817 3289902
2233.0273 1148.1655 3839.0576 3421489
2287.9104 1164.522 3893.7478 3487282
2304.2183 1161.1134 3882.3506 3947832
2292.0959 1143.5876 3823.7507 3816246
2351.8167 1161.8986 3884.9763 4145211
2329.2925 1139.6158 3810.4707 4276540
2355.2112 1141.2344 3815.8826 4671298
2309.7996 1108.5872 3706.7219 4868419
2300.2544 1093.6068 3656.6328 5197640
2294.199 1080.5498 3612.9749 5395017
2304.8391 1075.525 3596.1736 5066053
2302.5024 1064.5922 3559.6182 5066052
2328.4038 1066.7957 3566.9856 5000003
2284.417 1037.2271 3468.1189 5066053
2289.0232 1030.0524 3444.1292 5394761
2291.3655 1021.9948 3417.1875 5525832
2337.5808 1033.4751 3455.5737 6183761
2326.7053 1019.7349 3409.6311 5920589
2330.9468 1012.7993 3386.4412 5789004
2325.1528 1001.6591 3349.1921 5789004
2321.3279 991.54834 3315.3855 6447188
2332.6785 988.0351 3303.6384 6183762
2331.574 979.34869 3274.5942 6315091
2326.1152 968.992 3239.9651 6512471
2364.4722 976.90765 3266.4321 6578520
2342.8108 960.09894 3210.2297 6578777
2401.6733 976.29443 3264.3818 6644569
2408.4924 971.24414 3247.4954 6381398
2414.0381 965.76434 3229.1731 6447704
2416.5305 959.15912 3207.0874 6513496
2437.9651 960.11664 3210.2888 6841692
2455.4351 959.51001 3208.2607 6841692
2475.2729 959.83087 3209.3337 6907484
2506.552 964.54962 3225.1116 6973278
2514.2507 960.19171 3210.54 7039071
2536.6973 961.48901 3214.8777 6907484
2552.2192 960.16187 3210.4404 6907484
2578.187 962.75525 3219.1116 6841691
2595.2083 961.99414 3216.5667 7039071
2620.1904 964.17358 3223.854 7170657
2617.9619 956.38092 3197.7981 7236450
2625.9951 952.4223 3184.5618 7039071
2630.8145 947.36255 3167.644 6973278
2658.1594 950.42865 3177.896 6907485
2664.9104 946.14008 3163.5564 6907484
2681.8413 945.50049 3161.4177 6973278
2710.2214 948.87817 3172.7114 7170657
2721.0164 946.09497 3163.4055 7039071
2736.1736 944.8562 3159.2634 7170657
2747.7627 942.41052 3151.0859 7104864
2759.0806 939.90546 3142.71 7104864
2760.5647 934.10651 3123.3203 7170657
2778.5344 933.9259 3122.7163 7170657
2798.6392 934.46063 3124.5044 7104863
2815.1228 933.78711 3122.2524 6973278
2829.3945 932.39349 3117.5928 7104864
2854.939 934.70874 3125.3342 7039071
2870.825 933.85229 3122.4705 7104607
2896.7832 936.26227 3130.5286 7301986
2911.4592 935.01825 3126.3689 7236193
2912.9773 929.591 3108.2222 7236193
2930.1123 929.18427 3106.8623 7236193
2929.7986 923.28406 3087.1338 7170400
2939.2097 920.5025 3077.8335 7367779
0 0 0 0
0 0 0 0
0 0 0 0
0 0 0 0
0 0 0 0
0 0 0 0
-3851.1536 1305.5637 4280.5337 1024
-3775.8784 1288.5314 4224.6899 1024
-4019.5095 1380.8257 4527.2939 1024
-3918.8962 1355.3073 4443.627 1024
-3710.8042 1292.0217 4236.1338 1024
-3686.999 1292.4758 4237.6226 1024
-3655.7061 1290.2935 4230.4673 1024
-3610.9109 1283.2823 4207.48 768
-3582.0964 1281.8926 4202.9233 768
-3575.2017 1288.3827 4224.2021 768
-3553.4099 1289.5579 4228.0552 768
-3526.2202 1288.7767 4225.4946 1024
-3517.2244 1294.6818 4244.855 1024
-3481.1301 1290.6251 4231.5547 768
-3480.0254 1299.576 4260.9019 768
-3408.5688 1282.1937 4203.9106 768
-3402.9885 1289.5183 4227.9258 768
-3384.6008 1292.0626 4236.2676 768
-3361.4304 1292.8052 4238.7026 768
-3321.1047 1286.9115 4219.3789 768
-3300.0786 1288.4637 4224.4683 768
-3279.1951 1290.0957 4229.8188 768
-3271.1702 1296.8505 4251.9658 1024
-3261.5925 1303.09 4272.4229 1024
-3211.0898 1292.9484 4239.1719 1024
-3164.9011 1284.3976 4211.1367 1024
-3154.9863 1290.5488 4231.3047 1024
-3122.363 1287.4354 4221.0967 1024
-3088.8171 1283.8882 4209.4663 1024
-3077.2329 1289.4858 4227.8193 1024
-3055.2483 1290.7817 4232.0679 1024
-3042.2981 1295.9471 4249.0039 1024
-3016.8984 1295.8516 4248.6904 1024
-3007.9556 1302.8827 4271.7432 1024
-2967.1394 1296.11 4249.5376 1024
-2935.8533 1293.4199 4240.7178 1024
-2908.8999 1292.6086 4238.0581 1024
-2891.8552 1296.225 4249.9146 512
-2852.051 1289.6134 4228.2373 768
-2833.2671 1292.4736 4237.6152 768
-2807.3635 1292.1082 4236.417 768
-2785.9414 1293.8174 4242.021 768
-2762.5828 1294.6501 4244.7515 768
-2728.4062 1290.382 4230.7573 768
-2709.1042 1293.1348 4239.7827 1024
-2671.3574 1287.0522 4219.8403 1024
-2651.0005 1289.3125 4227.251 1024
-2642.8369 1297.6025 4254.4316 1024
-2626.1194 1301.8121 4268.2334 1024
-2596.7847 1299.7881 4261.5972 1024
-2576.3035 1302.1993 4269.5029 1024
-2520.8296 1286.7959 4219 768
-2516.97 1297.6949 4254.7344 768
-2483.7119 1293.5042 4240.9941 768
-2471.811 1300.4641 4263.8135 768
-2442.3704 1298.2444 4256.5356 768
-2423.1821 1301.4849 4267.1606 768
-2397.5129 1301.2761 4266.4761 1024
-2376.8379 1303.8026 4274.7593 1024
-2353.2805 1304.7852 4277.981 1024
-2324.2349 1302.7131 4271.1875 768
-2304.3772 1305.8019 4281.3145 768
-2270.7449 1301.0669 4265.79 768
-2238.3037 1296.9156 4252.1792 768
-2213.4639 1297.1243 4252.8633 768
-2177.3325 1290.6445 4231.6182 768
-2145.4077 1286.5364 4218.1489 768
-2137.2756 1296.7673 4251.6929 768
-2113.312 1297.522 4254.1675 768
-2077.3044 1290.8109 4232.1641 768
-2057.7708 1294.298 4243.5967 768
-2031.0328 1293.2836 4240.271 768
-2012.4462 1297.4993 4254.0928 768
-1996.4714 1303.5273 4273.8569 768
-1963.8588 1298.7075 4258.0542 768
-1936.7974 1297.4811 4254.0332 512
-1928.9738 1309.2799 4292.7178 512
-1806.0665 1242.2378 4072.908 512
-1789.3718 1247.4238 4089.9109 65536
-1742.2642 1231.2592 4036.9124 65792
-1755.615 1257.9655 4124.4736 65792
-1731.7634 1258.3923 4125.8735 658180
-1715.4562 1264.3922 4145.5449 1052940
-1684.3947 1259.5336 4129.6152 1184526
-1665.2186 1263.5502 4142.7847 1316112
-1623.4858 1250.3152 4099.3911 1118733
-1614.6332 1262.3854 4138.9653 855563
-1571.8314 1247.8754 4091.3916 855307
-1547.6683 1247.9399 4091.6033 986893
-1506.429 1234.0182 4045.9583 1118479
-1480.2305 1232.1664 4039.887 1250065
-1450.2419 1227.0471 4023.1021 1118479
-1437.1868 1236.3234 4053.5161 1118479
-1410.391 1233.8938 4045.5503 1184272
-1383.5563 1231.3455 4037.1953 1250065
-1363.8392 1235.1537 4049.6812 1184272
-1338.3394 1233.7673 4045.1357 1315858
-1314.975 1234.335 4046.9968 1381651
-1297.0804 1240.1534 4066.0737 1447444
-1240.4166 1208.4227 3962.0391 1513238
-1216.5536 1208.0392 3960.7812 1447957
-1194.8191 1209.7955 3966.5398 1382164
-1186.9513 1225.9448 4019.4883 1316371
-1139.875 1201.4296 3939.1101 592648
-1123.4935 1208.9181 3963.6628 1447957
-1115.936 1226.424 4021.0593 1645336
-1073.6964 1205.7462 3953.2634 1974301
-1046.8698 1201.8406 3940.458 1908510
-1043.2609 1225.0197 4016.4548 1711131
-1025.8433 1232.6879 4041.5964 1645338
-1002.2999 1233.1858 4043.229 1645338
-978.83752 1233.8102 4045.2761 1645338
-957.17334 1236.7894 4055.0444 1645338
-924.09497 1224.7937 4015.7144 1513752
-899.07092 1223.1213 4010.231 1447959
-874.78479 1222.3893 4007.8308 1382166
-844.01886 1212.309 3974.7808 1382166
-805.22198 1189.7837 3900.9272 1711131
-799.20789 1215.7979 3986.2195 1579545
-778.05933 1219.672 3998.9214 1711131
-755.65643 1221.7615 4005.7722 1711131
-737.25671 1230.6687 4034.9763 1711131
-715.33459 1234.0963 4046.2141 1776924
-692.50275 1236.1376 4052.907 1776924
-666.6745 1232.7848 4041.9143 1842717
-645.13074 1237.4 4057.0464 1776924
-614.65845 1224.5841 4015.0271 1842717
-593.87201 1230.8107 4035.4417 1776924
-568.19812 1227.0049 4022.9641 1776924
-545.1759 1228.8429 4028.9902 1908510
-530.39038 1250.2655 4099.228 1974303
-505.51425 1248.8163 4094.4768 1974303
-479.44025 1244.1129 4079.0557 1974303
-459.40842 1255.4213 4116.1323 1776924
-431.54547 1245.3979 4083.269 1711131
-405.6911 1240.3248 4066.6355 1710618
-380.96521 1238.2788 4059.9277 1710618
-390.40787 1354.5034 4440.9917 1776411
-340.47906 1266.6538 4152.9604 1776411
-307.72171 1233.9745 4045.8152 1842204
-261.74872 1138.3005 3732.1304 1842204
-261.18256 1240.6581 4067.7285 1579032
-236.47453 1237.4916 4057.3464 1579032
-221.11777 1288.0824 4223.2178 1644825
-207.17125 1360.8489 4461.7964 1710618
-166.94173 1257.0038 4121.3208 1644825
-127.61092 1125.4983 3690.1555 1776411
-107.17628 1140.7292 3740.093 1842204
-85.00869 1140.6482 3739.8274 1644825
-66.837967 1213.0496 3977.209 1644825
-45.832733 1284.8525 4212.6284 1842204
-20.629353 1269.9631 4163.8105 1776411
3.9903939 1253.4708 4109.7373 1776411
28.633265 1266.3419 4151.9375 1710618
53.33321 1268.6742 4159.5845 1776411
75.558243 1229.2675 4030.3823 1711388
96.47747 1192.6465 3910.3135 1645338
115.0897 1147.2129 3761.3511 1776924
137.20934 1145.8108 3756.7542 1711131
162.70972 1169.0916 3833.0842 1579545
187.79332 1184.041 3882.0986 1513752
210.65608 1183.2533 3879.5161 1645338
233.85652 1184.3308 3883.0488 1645338
257.50433 1187.278 3892.7114 1645338
280.87949 1188.5867 3897.0027 1645338
304.35141 1190.075 3901.8823 1579545
328.41574 1193.5061 3913.1316 1645339
351.8631 1194.3901 3916.0303 1711131
374.11655 1191.363 3906.1052 1711131
397.36108 1191.6608 3907.0815 1711131
418.90488 1187.1061 3892.1482 1579545
441.49612 1185.8402 3887.998 1645338
465.37158 1187.9783 3895.0078 1645338
486.27603 1182.6884 3877.6636 1579545
507.78168 1179.2719 3866.4622 1645082
531.79645 1181.7261 3874.5088 1644825
555.21643 1182.7101 3877.7351 1644825
577.7113 1181.7236 3874.501 1776411
599.66589 1179.7496 3868.0286 1710618
622.8576 1180.2651 3869.719 1973790
643.19659 1175.5304 3854.1953 1973790
663.44391 1170.9586 3839.2056 2039583
687.62946 1173.4102 3847.2437 1907997
705.35468 1165.0341 3819.781 1842204
728.88708 1166.4723 3824.4963 1776411
750.58734 1164.9801 3819.6038 1710618
769.1593 1158.8619 3799.5444 1776411
790.07751 1156.5262 3791.8865 1644825
812.64978 1156.674 3792.3708 1579032
837.48712 1159.9509 3803.115 1447446
859.39355 1159.1034 3800.3359 1513239
881.9137 1159.1053 3800.3428 1644823
903.57349 1158.0048 3796.7341 1644823
925.50183 1157.2935 3794.4019 1644823
946.13776 1155.0382 3787.0076 1644823
967.57513 1153.8431 3783.0894 1644823
989.38715 1153.1388 3780.78 1710616
1011.3408 1152.6271 3779.1023 1447444
1033.1558 1151.9828 3776.99 1513237
1055.2009 1151.6173 3775.7915 1710616
1082.0895 1156.443 3791.6133 1579030
1100.5848 1152.285 3777.9807 1710616
1125.834 1155.2228 3787.6128 1644823
1144.3965 1151.3187 3774.8125 1579030
1166.0985 1150.6622 3772.6602 1579030
1193.3914 1155.4435 3788.3364 1579030
1212.6605 1152.4232 3778.4338 1710616
1243.4072 1160.2219 3804.0034 1710616
1271.2161 1165.0507 3819.8352 1776409
1281.8008 1154.2007 3784.2617 1907995
1294.1888 1145.3197 3755.144 1907995
1328.1534 1155.5111 3788.5581 1907995
1352.7372 1157.3376 3794.5466 1907995
1373.5957 1155.9696 3790.0613 1907995
1386.6396 1148.1747 3764.5044 1907995
1409.8818 1148.9375 3767.0054 1973788
1429.8922 1147.0839 3760.928 2039581
1459.9202 1153.2001 3780.981 2039581
1494.6079 1162.7566 3812.3137 2105374
1520.1115 1164.9899 3819.636 1973788
1538.8994 1162.0863 3810.1162 2039581
1559.5031 1160.6182 3805.3027 2105373
1570.1583 1151.8934 3776.697 2171167
1576.7225 1140.455 3739.1936 2236960
1620.0892 1155.584 3788.7974 2236960
1634.7615 1150.1119 3770.856 2236960
1646.8292 1142.98 3747.4724 2302753
1655.5074 1133.7163 3717.0999 2302753
1661.2013 1122.6793 3680.9128 2434339
1706.3859 1138.271 3732.033 2302753
1673.8112 1102.257 3613.9543 2368546
1695.2253 1102.257 3613.9543 2500132
1700.8123 1092.0942 3580.634 2631719
1707.1478 1082.6567 3549.6917 2631718
1750.7666 1096.8059 3596.0823 2829096
1779.106 1101.1576 3610.3503 2829097
1799.5873 1100.6002 3608.5227 3158062
1835.264 1109.2401 3636.8501 3421234
1864.3527 1113.7437 3651.616 3355697
1892.7101 1117.7122 3664.6274 3816248
1924.0273 1123.3187 3683.0095 3815990
1962.3447 1132.8406 3714.2285 3881528
2011.7266 1148.4678 3765.4653 4407869
2041.5203 1152.6923 3779.3159 4408125
2094.3933 1169.7147 3835.1274 4671297
2144.5364 1184.8634 3884.7952 4737089
2157.6035 1179.4235 3866.959 5132104
2210.8821 1195.8477 3920.8093 5066311
2236.5774 1197.1661 3925.1318 5132104
2290.293 1213.3013 3978.0339 5262922
2271.1372 1190.8966 3904.5764 5395019
2289.9258 1188.64 3897.1775 5592397
2306.9666 1185.5302 3886.9812 5395018
2347.6235 1194.498 3916.384 5592395
2360.3777 1189.2319 3899.1179 5921359
2330.1033 1162.599 3811.7971 6117712
2055.2876 1015.6355 3329.95 5986383
2120.9778 1038.1306 3403.7043 6183762
2130.6194 1033.0266 3386.9702 6315604
2143.6584 1029.6499 3375.8989 6513238
2148.5488 1022.4578 3352.3181 6250068
2149.1953 1013.3964 3322.6086 6447448
2158.6428 1008.6117 3306.9211 5789774
2186.5583 1012.4645 3319.5532 6184019
2265.8816 1039.8403 3409.3101 5262659
2241.0632 1019.3627 3342.1702 6052176
2267.1895 1022.2133 3351.5164 6775899
2256.5063 1008.5621 3306.7588 6907485
2265.6355 1003.9252 3291.5557 6907485
2294.3147 1007.9562 3304.7722 6775899
2286.1702 995.87823 3265.1721 6841945
2287.5466 988.1156 3239.7209 6776153
2314.4841 991.43146 3250.5925 6710360
2340.073 994.11963 3259.4062 6644313
2329.7373 981.62714 3218.4473 6841691
2342.6416 979.05011 3209.998 6841690
2362.7993 979.52148 3211.5435 6775899
2380.511 978.97955 3209.7666 6644312
2389.1584 974.74799 3195.8926 6973022
2401.365 972.02362 3186.9602 6841436
2421.3567 972.46851 3188.4189 6775899
2439.7832 972.28278 3187.8098 6907485
2455.4507 971.00879 3183.6331 6907485
2475.2634 971.38098 3184.8533 7039071
2494.7334 971.61401 3185.6174 7039071
2511.9485 970.97205 3183.5125 7038814
2545.6321 976.65784 3202.1545 7170143
2558.3225 974.26489 3194.3088 7104607
2565.9351 969.98761 3180.2849 7039071
2574.3464 966.07239 3167.448 7038814
2577.3281 960.19086 3148.1646 7104607
2594.3074 959.57147 3146.1335 7038814
2606.533 957.21509 3138.408 7170400
2629.5483 958.82635 3143.6907 7367779
2638.9067 955.47028 3132.687 7170400
2661.811 957.03131 3137.8054 7104607
2664.4268 951.32684 3119.1021 7236193
2690.1829 953.90613 3127.5588 7302243
2708.7148 953.90613 3127.5588 7302243
2719.2698 951.11591 3118.4106 7367779
2727.3982 947.52051 3106.6223 7236193
2736.1382 944.18433 3095.6841 7170400
2756.4834 944.87054 3097.9338 7104607
2770.9434 943.5437 3093.5837 7104607
2788.5283 943.29144 3092.7566 7104607
2804.9253 942.64325 3090.6313 7170143
2817.865 940.84906 3084.7488 7170657
2834.9111 940.44037 3083.4087 7170400
2861.5103 943.18561 3092.4094 7301986
2867.7617 939.23169 3079.446 7236193
