# .PCD v0.7 - Point Cloud Data file format
VERSION 0.7
FIELDS x y z rgb
SIZE 4 4 4 4
TYPE F F F U
COUNT 1 1 1 1
WIDTH 1287
HEIGHT 1
VIEWPOINT 0 0 0 1 0 0 0
POINTS 1287
DATA ascii
493.16562 976.33795 1973.9429 2302496
504.20529 975.06799 1971.3752 2302496
514.69702 972.81976 1966.8298 2170910
526.71698 973.49573 1968.1965 2105117
535.90674 969.02478 1959.1572 2368289
552.65771 978.12567 1977.5573 2368289
559.3443 969.40594 1959.928 2236703
572.74481 972.44031 1966.0627 2631461
584.17316 972.07196 1965.318 2434082
592.09467 965.99664 1953.035 2434082
604.67383 967.60742 1956.2916 2434082
618.35547 970.88879 1962.9258 2368289
630.14569 971.13397 1963.4216 2434082
643.26636 973.38348 1967.9696 2697254
654.42334 972.63428 1966.455 2499875
666.59125 973.38763 1967.978 2368289
677.12946 971.77625 1964.7201 2105117
686.18054 968.12109 1957.3301 1973531
700.6059 972.04388 1965.2612 2631461
707.95502 966.18115 1953.4081 2697254
718.28809 964.51379 1950.0371 2763047
728.16327 962.29419 1945.5494 2499875
743.41748 967.14166 1955.3499 2434082
754.23059 966.15125 1953.3475 2499875
765.914 966.28882 1953.6257 2697254
777.7793 966.64838 1954.3525 2631461
784.98468 961.29077 1943.5208 2631461
798.77386 964.03412 1949.0673 2302496
811.28064 965.17358 1951.3708 2368289
823.42322 965.85388 1952.7463 2434082
844.84534 977.24896 1975.7848 2368289
843.63666 962.513 1945.9918 2105117
853.46722 960.59943 1942.1229 2236703
867.14264 963.00665 1946.9897 2302496
881.27405 965.85028 1952.739 2236703
886.08069 958.53314 1937.9453 2368289
895.98108 956.84283 1934.528 2368289
906.72168 956.0813 1932.9883 2170910
917.86639 955.75952 1932.3378 2434082
927.72827 954.1264 1929.0359 2697254
954.62323 969.83752 1960.8003 2302496
976.48926 980.12311 1981.5956 2434082
983.35693 975.289 1971.8221 2434082
998.87079 979.04291 1979.4117 2368289
983.1665 952.46655 1925.6801 2368289
1086.702 1040.691 2104.0508 2434339
1006.431 952.88641 1926.5291 2368546
1029.428 963.729 1948.4502 2302753
1054.0665 975.85052 1972.9574 2302753
1072.1434 981.69812 1984.78 2434339
1078.9863 977.24408 1975.7749 2368546
1116.3916 1000.2692 2022.3265 2302753
1074.7938 952.77136 1926.2963 2039581
1088.108 954.43793 1929.6659 2236960
1101.9238 956.50543 1933.8459 2434339
1117.7046 960.21857 1941.3529 2368546
1120.8234 953.08881 1926.9381 2105374
1137.1195 957.19513 1935.2401 2236959
1143.0649 952.59357 1925.9369 2500132
1168.3706 964.05774 1949.1149 2302496
1161.9141 949.34589 1919.3708 2039324
1175.7097 951.30621 1923.3341 2170910
1193.6003 956.51038 1933.8558 2302496
1220.9071 969.08942 1959.288 2499875
1233.2848 969.69354 1960.5093 2565668
1242.3424 967.70001 1956.4788 2631461
1240.3201 957.19269 1935.2354 2434082
1280.0841 978.83032 1978.9819 2368289
1272.4232 964.14032 1949.2819 2434082
1291.3713 969.69537 1960.5131 2499875
1292.9764 962.24451 1945.449 2434082
1289.6848 951.31342 1923.3488 2368289
1319.2926 964.62891 1950.2698 2302496
1327.5387 962.22974 1945.4192 2434082
1343.4108 965.35168 1951.7311 2499875
1359.8224 968.80481 1958.7125 2631461
1345.2012 950.27728 1921.2539 2631461
1356.4255 950.16528 1921.0275 2763047
1367.8275 950.17871 1921.0544 2499875
1387.174 955.66486 1932.1465 2434082
1397.6 954.96594 1930.7334 2434082
1431.4302 970.14056 1961.4131 2565668
1429.47 961.0094 1942.9518 2565668
1436.3818 957.94098 1936.7482 2434082
1444.6034 955.78772 1932.3948 2302496
1456.8325 956.29901 1933.4285 2499875
1539.6959 1002.8065 2027.4567 2499875
1482.3551 957.98572 1936.8386 2368289
1490.2384 955.68134 1932.1798 2368289
1519.1077 966.76776 1954.5941 2368289
1520.0784 960.06586 1941.0443 2302496
1584.3761 993.16119 2007.9557 2499875
1564.1921 973.20056 1967.5997 2434082
1548.5134 956.31769 1933.4662 2170910
1558.2628 955.27112 1931.3503 2104604
1568.9471 954.80878 1930.4155 2236190
1596.0271 964.25873 1949.5214 2302496
1608.5332 964.8313 1950.6788 2368289
1622.067 966.00757 1953.0571 2302496
1618.3374 956.95892 1934.7627 2105117
1611.6989 946.32971 1913.2727 2499875
1644.4528 958.8172 1938.5198 2434082
1634.4304 946.3631 1913.3402 2631461
1670.8199 960.76898 1942.4657 2565668
1674.3939 956.23676 1933.3026 2302496
1676.941 951.18378 1923.0865 2302496
1717.8613 967.81787 1956.717 2302496
1677.6127 938.80597 1898.0614 2236703
1684.1439 936.18475 1892.7618 2170910
1697.1204 937.15717 1894.7279 2236702
1703.7809 934.65222 1889.6633 2170910
1710.4872 932.20471 1884.7151 2236703
1741.7266 943.07281 1906.688 2368289
1761.7552 947.76965 1916.184 2434082
1763.587 942.67975 1905.8932 2368289
1767.2526 938.62842 1897.7024 2434082
1787.4152 943.33514 1907.2183 2368289
1796.4801 942.16235 1904.8473 2302496
1774.5222 924.83594 1869.817 2236702
1785.6016 924.83594 1869.817 2565668
0 0 0 0
0 0 0 0
0 0 0 0
0 0 0 0
0 0 0 0
0 0 0 0
0 0 0 0
0 0 0 0
0 0 0 0
0 0 0 0
-1873.6191 1070.5831 2138.8628 1250319
-1861.087 1070.6646 2139.0254 1316112
-1838.8212 1065.109 2127.9263 1447442
-1812.1393 1056.901 2111.5281 1447442
-1801.2369 1057.8462 2113.4163 1513236
-1789.7501 1058.4589 2114.6404 1315858
-1772.8907 1055.8805 2109.489 1381652
-1750.6416 1050.0327 2097.8062 1644823
-1733.603 1047.2489 2092.2446 1513493
-1724.8961 1049.4943 2096.7305 1579543
-1703.3306 1043.892 2085.5378 1645336
-1697.5341 1047.9424 2093.6299 1711129
-1682.6493 1046.4005 2090.5496 1908508
-1673.3114 1048.311 2094.3665 1711129
-1663.2308 1049.7811 2097.3037 1645336
-1651.8068 1050.4193 2098.5786 1711129
-1638.1088 1049.61 2096.9617 1645336
-1621.3115 1046.7872 2091.3223 1579543
-1585.5415 1031.5771 2060.9348 1514007
-1586.1191 1039.9628 2077.688 1842459
-1565.3929 1034.4021 2066.5786 1908508
-1547.1957 1030.4381 2058.6592 1908508
-1520.0089 1020.3765 2038.5575 1711129
-1528.2367 1034.1178 2066.0105 1974301
-1517.208 1034.9453 2067.6638 2171680
-1499.1105 1030.9253 2059.6323 2040094
-1501.8615 1041.2942 2080.3479 2105887
-1480.6293 1035.0687 2067.9104 2303266
-1469.0846 1035.5681 2068.9082 2171680
-1455.8035 1034.8417 2067.4568 1842715
-1443.1017 1034.5182 2066.8105 2237473
-1432.472 1035.6874 2069.1462 1908508
-1417.4646 1033.6841 2065.144 1974301
-1403.1575 1032.1611 2062.1016 2040094
-1387.1584 1029.3561 2056.4973 2105118
-1372.8663 1027.7791 2053.3467 2039581
-1357.4133 1025.2969 2048.3877 2236960
-1345.9088 1025.7793 2049.3516 2829097
-1333.5288 1025.5972 2048.9878 2697511
-1312.7482 1018.8917 2035.5911 2434339
-1303.459 1021.0634 2039.9301 2434339
-1292.9117 1022.2812 2042.3628 2434339
-1281.3394 1022.7037 2043.207 2434339
-1263.1423 1017.7965 2033.4031 2500132
-1249.1478 1016.2137 2030.2408 2500132
-1239.6771 1018.3159 2034.4408 2302753
-1228.1952 1018.7911 2035.3903 2368546
-1221.9535 1023.6656 2045.1288 2368546
-1210.0372 1023.8366 2045.4703 2368546
-1198.8474 1024.6318 2047.0591 2302753
-1187.8683 1025.6252 2049.0437 2302753
-1174.3839 1024.4537 2046.7031 2302753
-1161.1836 1023.5081 2044.8138 2171167
-1149.8298 1024.1874 2046.171 2302753
-1138.8331 1025.2025 2048.1992 2236959
-1124.9814 1023.6417 2045.0811 2171167
-1114.5687 1025.2102 2048.2146 2302753
-1102.7863 1025.5394 2048.8723 2631718
-1088.8306 1023.8325 2045.4623 2434339
-1072.7902 1020.1048 2038.0148 2565925
-1057.4261 1016.9428 2031.6975 2565925
-1042.9536 1014.575 2026.9672 2565925
-1036.411 1019.9562 2037.7179 2368546
-1020.2294 1015.8665 2029.5472 2434339
-1008.1191 1015.7814 2029.3773 2368546
-995.80621 1015.4878 2028.7906 2960683
-986.5199 1018.311 2034.431 2631718
-976.08179 1020.0004 2037.8062 2829097
-964.44019 1020.4589 2038.722 2697511
-955.04236 1023.3331 2044.4642 2631718
-941.34198 1021.6116 2041.0251 2763304
-927.95056 1020.1852 2038.1754 2763304
-916.00812 1020.3351 2038.4747 2500132
-909.12805 1026.2032 2050.1985 2302753
-891.4411 1019.8666 2037.5389 2434339
-877.41992 1017.6074 2033.0254 2763304
-873.57379 1027.2504 2052.2905 2500132
-853.599 1017.9319 2033.6736 2434339
-844.89282 1021.977 2041.755 2368546
-831.6712 1020.5984 2039.0009 2368546
-819.38666 1020.346 2038.4966 2434339
-801.11383 1012.5175 2022.8566 2171166
-794.24048 1019.0779 2035.963 2039581
-778.9248 1014.8412 2027.4989 1973788
-765.34821 1012.7731 2023.3671 1973788
-751.21252 1009.8877 2017.6024 2039581
-741.60193 1013.0903 2024.001 2039581
-728.84808 1012.0339 2021.8904 2039581
-716.16998 1011.0491 2019.9229 2039581
-704.23773 1011.1016 2020.0278 1907995
-690.19733 1008.077 2013.985 2039581
-679.89282 1010.4984 2018.8225 2105374
-666.18951 1007.8645 2013.5604 2039581
-655.37646 1009.5868 2017.0013 2105373
-642.33954 1007.8838 2013.599 2039581
-631.34692 1009.3846 2016.5974 2105374
-619.99988 1010.3658 2018.5579 1973788
-607.64459 1009.7104 2017.2482 2039581
-596.74127 1011.4896 2020.8027 1973788
-582.57825 1007.7032 2013.2383 1973788
-570.54645 1007.5222 2012.8765 2171167
-557.67841 1005.825 2009.4858 2105374
-546.64917 1007.4428 2012.7179 2236960
-533.49579 1005.1306 2008.0986 2236960
-521.54211 1005.0248 2007.8873 2434339
-509.66489 1005.0649 2007.9674 2565925
-497.15536 1003.8301 2005.5005 2565925
-485.11868 1003.5131 2004.8671 2631718
-471.22089 999.23352 1996.3171 2500132
-458.30573 996.87103 1991.5972 2565925
-448.46051 1001.2375 2000.3207 1973788
-434.95895 997.45636 1992.7666 2039581
-423.18515 997.5368 1992.9274 2105374
-411.40378 997.60345 1993.0605 2236960
-398.58273 995.07867 1988.0164 2171167
-386.85672 995.21692 1988.2926 2236960
-375.45483 996.22406 1990.3047 2171167
-363.2507 995.09882 1988.0565 2500132
-350.80286 993.20801 1984.2791 2368546
-339.8385 995.53198 1988.922 2368546
-328.28638 996.23914 1990.3348 2500132
-317.44775 999.24493 1996.3398 2565925
-304.21057 994.64105 1987.1421 2631718
-292.30905 994.20953 1986.2799 2565925
-281.05426 996.03363 1989.9242 2565925
-269.72711 997.74976 1993.3528 2368546
-258.42133 999.70587 1997.2607 2565925
-247.52219 1003.4982 2004.8374 2368546
-235.19566 1001.5945 2001.0339 2105374
-224.02568 1004.6752 2007.1887 2236960
-211.35054 1000.9728 1999.7919 2236960
-199.9381 1003.166 2004.1737 2500132
-188.15031 1003.634 2005.1088 2500132
-175.63734 1000.0363 1997.9208 2302753
-163.62685 998.98602 1995.8226 2171167
-152.55791 1003.9686 2005.777 2302753
-139.83031 997.9552 1993.7633 2236960
-127.96026 997.51709 1992.8879 2236960
-116.20798 998.00134 1993.8553 2434339
-104.28269 996.94122 1991.7374 2368546
-92.17337 993.62653 1985.1152 2236960
-80.857094 999.14178 1996.1338 2500132
-69.07106 999.74774 1997.3444 2368546
-56.762505 991.47723 1980.8213 2302753
-45.000988 990.94092 1979.7498 2171167
-33.459438 996.578 1991.0117 2368546
-21.617393 994.5307 1986.9216 2565925
-9.7850714 988.56873 1975.0104 2171167
1.9123007 985.80719 1969.4933 2368546
13.614635 988.15118 1974.1763 2302753
25.360933 990.04498 1977.9597 2302753
36.933537 986.10413 1970.0865 2236960
48.688244 987.75049 1973.3756 2105374
60.624336 991.72638 1981.319 2171167
71.827019 984.36115 1966.6042 1776409
83.43589 983.84174 1965.5667 2500132
95.364685 986.75989 1971.3967 2368546
108.09431 996.42328 1990.7026 2302753
120.30611 999.88141 1997.6116 2171167
130.41614 986.81665 1971.51 2368546
142.49591 989.5791 1977.0291 1907995
154.7364 992.95325 1983.77 2039581
167.01128 996.05591 1989.9688 1842202
178.18753 992.62927 1983.1229 1907995
195.83351 1023.4379 2044.6737 1842202
204.46861 1006.3088 2010.4524 2039581
215.97394 1004.4141 2006.6671 2039581
223.89389 986.91296 1971.7025 2171167
234.59164 982.78491 1963.4552 2105374
249.32724 995.16351 1988.1859 2039581
260.38504 992.4079 1982.6807 1907995
271.07086 988.53381 1974.9407 2039581
286.68954 1002.2249 2002.2932 1644823
294.272 987.85071 1973.5759 1579030
308.59482 996.3374 1990.531 1907995
316.33261 983.72137 1965.3262 2302753
328.44955 985.1358 1968.152 2105374
343.06866 993.70087 1985.2637 1907995
351.63696 984.75287 1967.3868 2105374
363.47708 985.24762 1968.3755 2105374
375.20316 985.41217 1968.7041 2697511
384.19879 978.612 1955.1185 2500132
397.35211 982.49017 1962.8665 1184272
406.19919 975.80298 1949.5065 1776152
421.3703 984.25763 1966.3975 1973531
429.49588 976.2428 1950.385 2039324
443.89597 982.53613 1962.9583 1776152
448.15854 966.64233 1931.2048 1776152
463.70044 975.26294 1948.4275 2104860
469.50766 963.48779 1924.9026 2170910
485.97598 973.63025 1945.1656 2499875
498.35498 975.29993 1948.5013 2170910
508.59061 972.79419 1943.4952 2302496
519.95673 972.51385 1942.9352 2368289
532.65424 974.68201 1947.2668 2302496
559.46381 1002.0336 2001.9114 2302496
555.53113 974.33148 1946.5667 2434082
567.15259 974.48145 1946.8662 2565668
576.09326 970.11121 1938.135 2368289
590.42944 974.81976 1947.5421 2697254
598.37592 969.00055 1935.9163 2565668
610.75464 970.44263 1938.7974 2434082
622.72339 971.1922 1940.2948 2302496
634.75714 972.01416 1941.937 2565668
646.33362 972.11896 1942.1464 2565668
656.67627 970.39691 1938.7059 2499875
666.10022 967.39984 1932.7183 2499875
681.5661 973.13062 1944.1675 2302496
691.98956 971.59106 1941.0916 2499875
702.97852 970.88287 1939.6768 2302496
710.83185 965.93646 1929.7947 2302496
725.38458 970.10626 1938.1252 2499875
733.28052 965.38232 1928.6875 2368289
747.25049 968.67712 1935.2701 2499875
756.1922 965.4527 1928.8282 2302496
775.46051 975.31219 1948.526 2302496
779.83563 966.42584 1930.7723 2631461
790.13574 965.03296 1927.9895 2236703
801.3764 964.81201 1927.5482 2302496
812.05786 963.93359 1925.7932 2302496
824.93134 965.64545 1929.2133 2302496
837.91028 967.43225 1932.7831 2170910
855.78168 974.74335 1947.3895 2105117
869.52197 977.21735 1952.332 2039324
863.15271 957.32269 1912.5856 2499875
880.4494 963.85144 1925.6292 2631461
886.66809 958.24097 1914.4202 1973531
903.61243 964.21729 1926.3599 2302496
916.48059 965.74908 1929.4203 2434082
917.6535 955.07111 1908.0873 2499875
975.50555 1002.9252 2003.6926 2565668
973.07446 988.39624 1974.6659 2434082
989.31726 992.95508 1983.7737 2499875
961.07526 953.28265 1904.5143 2434082
973.37366 954.27618 1906.4993 2434082
983.58582 953.2251 1904.3992 2302496
996.27472 954.5708 1907.0878 2302753
1045.6056 990.60095 1979.0704 2171167
1032.6781 967.50262 1932.9236 2171167
1030.1936 954.58759 1907.1212 2039581
1041.8749 954.93671 1907.8187 2236960
1067.2418 967.68726 1933.2924 2302753
1062.9259 953.53888 1905.0261 2434339
1074.2383 953.56042 1905.0692 2500132
1092.4075 959.60492 1917.1451 2434339
1146.3481 996.62421 1991.104 2565925
1107.7434 953.25085 1904.4507 2171167
1127.5437 960.50488 1918.9432 2039581
1146.6451 967.02478 1931.969 2171167
1158.0718 967.00732 1931.934 2368289
1169.6893 967.14795 1932.215 2368288
1180.1595 966.34631 1930.6135 2236703
1199.0847 972.41681 1942.7415 2565668
1199.0289 963.12531 1924.1783 2368289
1192.6475 948.97559 1895.9093 2499875
1208.2377 952.40942 1902.7697 2434082
1274.5222 995.37079 1988.6 2763047
1305.2576 1010.0363 2017.8994 2565668
1276.184 978.57434 1955.0431 2499875
1283.1112 975.03528 1947.9727 2434082
1289.8143 971.39069 1940.6913 2302496
1341.5972 1001.461 2000.7673 2302496
1286.9625 952.26306 1902.4772 2368289
1302.3254 955.26306 1908.4708 2368289
1313.5237 955.18286 1908.3105 2565668
1324.3335 954.8241 1907.5939 2565668
1333.5256 953.31482 1904.5785 2697254
1343.3107 952.25128 1902.4537 2631461
1354.7961 952.4007 1902.7523 2434082
1365.0197 951.66803 1901.2885 2434082
1376.2856 951.66803 1901.2885 2434082
1385.0604 949.95947 1897.875 2697254
1401.1669 953.26636 1904.4818 2894633
1422.1228 959.79352 1917.522 2565668
1439.0054 963.48975 1924.9065 2499875
1445.0723 959.94318 1917.8209 2631461
1452.4453 957.31287 1912.5659 2763047
1460.9917 955.49054 1908.9253 2960426
1469.1949 953.47357 1904.8958 2828840
1525.8721 982.70593 1963.2975 2499875
1495.2814 955.7182 1909.3801 2499875
1523.4734 966.42505 1930.7706 2565668
1513.3695 952.86005 1903.6698 2499875
1546.2769 966.37653 1930.6737 2368289
1536.8126 953.40784 1904.7644 2302496
1553.1669 956.52887 1910.9996 2302496
1554.4087 950.36499 1898.6852 2236703
1568.2307 951.92584 1901.8036 2368289
1613.5931 972.47321 1942.854 2236703
1584.3268 948.07111 1894.1023 2697254
1643.158 976.3595 1950.6184 2434082
1631.98 962.94415 1923.8164 2302496
1675.988 982.05133 1961.9896 2368289
1687.5918 982.03857 1961.9642 2236703
1630.3281 942.22516 1882.423 2894633
1634.6479 938.30212 1874.5854 2499875
1645.2668 938.02356 1874.0288 2302496
1654.2574 936.82654 1871.6373 2236703
1660.3477 934.01385 1866.0179 2105117
1698.3253 949.05762 1896.0732 2039324
1678.5599 931.8479 1861.6908 2105117
1712.8494 944.67529 1887.318 2105117
1699.558 931.26453 1860.5254 2105117
1708.3293 930.03796 1858.075 2236703
1716.8218 928.67633 1855.3545 2105117
1725.7584 927.57062 1853.1454 2170910
1759.6526 939.80847 1877.5948 2499875
1820.9374 966.42957 1930.7798 2434082
1750.6525 923.32605 1844.6655 2368289
1761.5476 923.30762 1844.6287 2368289
0 0 0 0
0 0 0 0
0 0 0 0
0 0 0 0
0 0 0 0
0 0 0 0
0 0 0 0
0 0 0 0
0 0 0 0
0 0 0 0
-1843.2629 1065.7059 2104.2092 1579030
-1829.7852 1065.1183 2103.0488 1513237
-1808.1984 1059.77 2092.4888 1513237
-1793.374 1058.3386 2089.6626 1644823
-1773.5121 1053.8939 2080.8865 1776409
-1758.4403 1052.2532 2077.647 1842202
-1749.6312 1054.3634 2081.8137 1579030
-1728.3137 1048.9122 2071.0505 1644823
-1719.5195 1051.038 2075.2476 1579543
-1704.0485 1049.0836 2071.3889 1776922
-1689.561 1047.7109 2068.6785 1711129
-1678.2621 1048.3099 2069.8611 1711129
-1659.6057 1044.288 2061.9199 1645336
-1645.375 1043.0118 2059.4004 1645336
-1632.819 1042.7864 2058.9551 1645336
-1622.9468 1044.2843 2061.9126 1711129
-1603.6573 1039.6993 2052.8599 1842715
-1590.5474 1039.0814 2051.6399 1908508
-1559.6268 1026.729 2027.2501 1842715
-1556.5233 1032.6393 2038.9198 2040094
-1546.7606 1034.1896 2041.981 1842715
-1529.6416 1030.807 2035.3021 1776922
-1522.9056 1034.4232 2042.4424 1908508
-1508.6672 1032.9608 2039.5547 1908508
-1494.2007 1031.3171 2036.3094 1842715
-1479.1177 1029.2178 2032.1643 1974301
-1477.5903 1036.5939 2046.728 2171680
-1457.606 1031.0364 2035.755 2434852
-1448.3583 1033.0442 2039.7195 2566438
-1436.3632 1033.1097 2039.8486 2566438
-1419.7008 1029.7908 2033.2957 2434852
-1407.9064 1029.9764 2033.6621 2566438
-1396.271 1030.2826 2034.2666 2698024
-1383.9812 1030.1069 2033.9198 2829610
-1369.186 1028.0471 2029.8528 2631462
-1356.937 1027.8794 2029.5217 2894890
-1341.899 1025.5771 2024.9761 2763304
-1326.1848 1022.712 2019.3187 2631718
-1314.1604 1022.666 2019.2279 2368546
-1300.3881 1021.2465 2016.425 2500132
-1288.0806 1020.9616 2015.8625 2434339
-1275.3722 1020.3506 2014.6562 2368546
-1261.9994 1019.1917 2012.3679 2368546
-1247.1686 1016.8218 2007.6886 2565925
-1236.5012 1017.8334 2009.6862 2500132
-1223.8109 1017.1834 2008.4027 2434339
-1212.5618 1017.7302 2009.4823 2368546
-1201.5623 1018.4994 2011.0011 2236960
-1189.7039 1018.5486 2011.0984 2302753
-1179.0167 1019.6119 2013.1978 2500132
-1169.2156 1021.4708 2016.868 2368546
-1167.9481 1030.9006 2035.4869 2368546
-1142.9794 1019.3887 2012.757 2171167
-1137.2067 1024.9348 2023.7076 2302753
-1124.0066 1023.8337 2021.5336 2302753
-1089.401 1003.001 1980.4 2368546
-1100.0043 1023.7913 2021.4498 2500132
-1085.5743 1021.4841 2016.8942 2565925
-1075.1117 1022.9001 2019.6902 2894890
-1056.9757 1016.9651 2007.9717 3223855
-1041.671 1013.65 2001.426 3026476
-1030.8126 1014.6353 2003.3715 2697511
-1019.5792 1015.2699 2004.6244 2631718
-1009.7213 1017.3054 2008.6434 2631718
-998.82068 1018.3263 2010.6593 2960683
-984.65668 1016.0046 2006.0752 2829097
-975.71356 1019.0792 2012.1458 2697511
-961.95721 1017.1404 2008.3176 2697511
-945.17145 1011.9097 1997.9899 2631718
-940.59528 1019.7839 2013.5374 2697511
-931.29462 1022.6724 2019.2405 2565925
-919.52808 1022.893 2019.676 2565925
-907.44135 1022.7584 2019.4104 2565925
-897.87158 1025.495 2024.8137 2434339
-884.9455 1024.4204 2022.692 2434339
-873.61975 1025.1945 2024.2202 2368546
-865.28748 1029.5518 2032.8236 2302753
-847.38556 1022.4849 2018.8704 2039581
-835.94037 1023.1182 2020.1206 2039581
-821.20837 1019.6885 2013.349 2171167
-806.32153 1015.9629 2005.9928 2171166
-794.76135 1016.3799 2006.8162 2236960
-778.50305 1010.7103 1995.6216 2171167
-769.79388 1014.8177 2003.7316 2171167
-754.50848 1010.2485 1994.71 2039581
-740.98694 1007.9332 1990.1384 2105374
-731.97437 1011.7756 1997.7251 2171166
-719.69751 1011.1581 1996.5059 2039581
-707.14282 1010.123 1994.4622 2039581
-697.43518 1013.1888 2000.5155 1842202
-681.40381 1007.0151 1988.3256 2039581
-668.37769 1005.1436 1984.6302 2105373
-656.77399 1005.3824 1985.1019 2171167
-645.20795 1005.6886 1985.7065 2105374
-634.37268 1007.1665 1988.6245 2039581
-625.26923 1011.5019 1997.1847 1907995
-611.5448 1008.3849 1991.0303 1907995
-599.30884 1007.6481 1989.5753 1907995
-588.33105 1009.0393 1992.3224 2039581
-578.18823 1011.949 1998.0675 1907995
-563.93994 1007.6447 1989.5688 2105374
-552.67761 1008.6058 1991.4666 2236960
-538.14557 1003.5118 1981.4083 2236960
-528.91742 1008.3015 1990.8654 2434339
-513.51892 1001.2784 1976.9987 2631718
-501.28702 1000.2461 1974.9604 2697511
-487.11847 995.2077 1965.0121 2631718
-477.12573 998.6629 1971.8344 2302753
-464.9259 997.55591 1969.6486 2368546
-451.98788 994.76727 1964.1425 2302753
-440.92825 996.07452 1966.7238 2302753
-427.84567 992.75879 1960.177 2368546
-415.95309 992.0965 1958.8691 1973788
-404.99301 993.68384 1962.0034 2105374
-393.98096 995.23395 1965.064 2171167
-381.79266 993.81653 1962.2654 2171167
-371.0253 996.12512 1966.8235 2039581
-359.59796 996.75391 1968.0652 1907995
-346.9931 994.05164 1962.7296 2039581
-335.74615 995.18695 1964.9712 2500132
-323.77002 994.16473 1962.9529 2302753
-311.98169 993.66455 1961.9653 2368546
-301.95392 998.9502 1972.4016 2565925
-289.38339 995.9104 1966.3997 2763304
-277.93704 996.64679 1967.8536 2631718
-266.14349 996.14813 1966.8691 2500132
-254.22603 995.11871 1964.8365 2368546
-242.48152 994.70013 1964.01 2434339
-230.95009 995.15729 1964.9127 2565925
-219.4304 995.71643 1966.0167 2171167
-208.30853 998.24451 1971.0084 2434339
-197.41498 1002.2322 1978.882 2434339
-185.70004 1002.2902 1978.9963 2500132
-173.12775 997.41656 1969.3735 2105374
-162.18927 1001.9315 1978.288 2039581
-149.24734 993.8092 1962.2509 2105374
-138.37134 999.23334 1972.9607 2039581
-126.29015 996.15222 1966.8772 2105374
-113.95243 990.21552 1955.1553 2171167
-102.5387 991.87317 1958.4282 2302753
-90.947701 992.02008 1958.7183 2171167
-79.273972 991.1756 1957.0509 1842201
-67.727013 991.8985 1958.4783 2368546
-56.024685 990.17426 1955.0737 2500132
-44.384743 988.94098 1952.6388 1973788
-32.769955 987.59631 1949.9838 2236960
-21.197309 986.7489 1948.3104 2763304
-9.6210232 983.50159 1941.8988 2236960
1.8908604 986.29376 1947.4117 2368546
13.464106 988.79419 1952.3489 2302753
25.040339 989.10162 1952.9559 2302753
36.445801 984.60132 1944.0701 1973788
47.853119 982.3006 1939.5275 2039581
59.484928 984.60675 1944.0809 1973788
71.812416 995.81158 1966.2046 1907995
82.750168 987.30707 1949.4126 2236960
95.192116 996.6344 1967.8292 2236960
107.54221 1003.0695 1980.535 2236960
118.52168 996.71191 1967.9822 2171167
129.13374 988.6803 1952.124 2500132
140.18312 985.0423 1944.9408 2500132
152.3672 989.32458 1953.3961 2236960
166.36026 1003.9186 1982.2118 2368546
174.81522 985.37158 1945.5911 2434339
186.1312 984.24829 1943.373 2171167
198.27164 987.36163 1949.5203 2105374
210.80197 991.96667 1958.6129 1907995
221.02251 985.78925 1946.4158 2302753
232.01947 983.51581 1941.9269 1973788
242.71301 980.23175 1935.4426 1973788
255.69356 986.06378 1946.9576 2039581
267.23004 986.06378 1946.9576 1973788
279.61337 989.05914 1952.8719 1710616
290.55344 986.91412 1948.6367 1710616
301.60962 985.31256 1945.4745 1842202
312.08871 982.01294 1938.9594 2171167
324.52768 984.89551 1944.6511 2236960
335.93265 984.55011 1943.969 2565925
347.38623 984.36542 1943.6042 2171167
358.8233 984.14716 1943.1735 2039581
370.47818 984.52124 1943.912 2368546
381.388 982.95264 1940.8149 2631718
392.88809 982.95264 1940.8149 2500132
402.52835 978.43182 1931.8887 2170910
412.83276 975.7309 1926.5557 2236703
427.0336 982.1366 1939.2036 2039581
436.62604 977.88544 1930.8098 2302496
448.29465 978.38251 1931.7913 2302495
455.84576 970.09241 1915.4227 2170910
470.78329 977.54236 1930.1324 2434082
489.73926 992.78503 1960.2286 2434082
487.67508 965.69714 1906.7444 2105117
501.62213 970.82361 1916.8665 2368289
517.81647 979.97607 1934.9377 2302496
527.89722 977.4126 1929.8761 2434082
532.89032 965.73761 1906.8242 2631461
546.8681 970.492 1916.2117 2828840
557.25586 968.81158 1912.8938 2434082
564.61334 962.03485 1899.5133 2565668
580.28552 969.41357 1914.0824 2697254
591.82959 969.74518 1914.7371 2697254
602.96661 969.40985 1914.0751 2697254
613.07886 967.46979 1910.2443 2631461
627.86273 972.83844 1920.8446 2499875
636.77716 969.0835 1913.4307 2565668
642.52991 960.73236 1896.9417 2631461
657.01526 965.5014 1906.3579 2499875
661.38495 955.49506 1886.6007 2499875
679.0083 964.65057 1904.678 2368289
691.44995 966.26562 1907.8668 2499875
702.17297 965.4657 1906.2872 2434082
712.51233 964.17169 1903.7324 2302496
751.13953 1000.6006 1975.6604 2302496
741.18829 972.19287 1919.5699 2499875
746.03497 963.76019 1902.9199 2236703
756.39203 962.59137 1900.6121 2302496
770.66199 966.36328 1908.0597 2434082
781.88019 966.2547 1907.8452 2565668
792.16156 965.00806 1905.3838 2368289
802.71472 964.1228 1903.636 2236703
814.97522 965.28442 1905.9294 2368289
821.4491 959.65405 1894.8124 2302496
844.56183 973.35175 1921.8582 2236446
856.00519 973.41486 1921.9829 2170653
856.34174 961.01208 1897.4938 2368289
860.88196 953.58698 1882.8333 2368289
877.10101 959.12299 1893.7638 2631461
886.08606 956.70837 1888.9963 2499875
975.19855 1039.7887 2053.0361 2499875
945.50525 995.70782 1965.9996 2434082
951.64728 989.9787 1954.6876 2302496
946.87952 973.17456 1921.5083 2302496
938.8736 953.4812 1882.6243 2236703
949.97223 953.42432 1882.512 2434082
960.20282 952.50775 1880.7021 2368289
1044.6918 1024.4303 2022.7114 2434082
981.25677 951.31158 1878.3403 2302753
993.44226 952.32343 1880.3383 2171167
1054.4652 999.60968 1973.7037 2171167
1015.1881 951.81927 1879.3429 2171166
1056.8875 980.164 1935.3087 2368546
1063.983 976.15295 1927.389 2236960
1084.5354 984.44208 1943.7556 2302753
1075.0422 965.57074 1906.4949 2368546
1087.4552 966.56299 1908.4539 2500132
1101.5641 969.02655 1913.3182 2500132
1106.2057 963.19653 1901.807 2434339
1111.1393 957.7359 1891.025 2368546
1127.4557 962.09753 1899.6371 2171167
1125.0684 950.57013 1876.8765 2170910
1136.1896 950.57013 1876.8765 2170910
1146.8929 950.224 1876.193 2170910
1162.7838 954.14105 1883.9271 2236703
1171.022 951.76392 1879.2335 2434082
1182.9796 952.42603 1880.5409 2368289
1207.2637 962.90723 1901.2357 2302496
1205.7729 952.82697 1881.3325 2368289
1217.0361 952.91736 1881.511 2302496
1227.8685 952.672 1881.0266 2368289
1239.4628 953.01685 1881.7074 2434082
1276.0688 972.41541 1920.0094 2368289
1273.313 961.74091 1898.9329 2236703
1273.7242 953.62457 1882.9073 2039324
1288.8036 956.53571 1888.6554 2236703
1305.1097 960.29944 1896.0868 2434082
1305.71 952.54108 1880.7681 2368289
1316.3157 952.15149 1879.9988 2434082
1327.4106 952.11938 1879.9353 2499875
1341.1869 953.995 1883.6388 2565668
1355.5979 956.28741 1888.1652 2565668
1364.7021 954.82947 1885.2864 2499875
1420.8052 986.01135 1946.8542 2631461
1435.3009 988.04889 1950.8772 2763047
1397.5363 954.36566 1884.3706 2763047
1407.1724 953.32941 1882.3247 2565668
1420.4197 954.73682 1885.1034 2565668
1433.4177 955.95587 1887.5105 2565668
1458.8719 965.39899 1906.1556 2565668
1446.9207 950.13428 1876.0159 2631461
1461.7162 952.53192 1880.75 2565668
1474.3937 953.52356 1882.7079 2499875
1520.2352 975.78717 1926.6669 2434082
1521.3206 969.20551 1913.6715 2499875
1577.5464 997.59033 1969.7166 2499875
1535.3378 963.76849 1902.9364 2565668
1549.5929 965.62518 1906.6023 2368289
1528.7916 945.76776 1867.3944 2302496
1583.3669 972.49133 1920.1594 2236703
1591.1162 970.27887 1915.7908 2170910
1558.7488 943.80713 1863.5231 2302496
1639.9591 985.99451 1946.8209 2368289
1581.2366 944.04803 1863.9988 2499875
1588.988 942.09546 1860.1434 2565668
1617.3989 952.33417 1880.3594 2565668
1608.8439 940.81573 1857.6167 2434082
1670.8831 970.45532 1916.1393 2434082
1682.235 970.45428 1916.1372 2368289
1632.0088 935.16772 1846.4648 2170910
1638.3258 932.53583 1841.2682 2039324
1647.5989 931.61005 1839.4403 1776152
1676.2281 941.56927 1859.1045 2039324
1700.5905 949.01733 1873.8104 2039324
1704.7777 945.18292 1866.2395 2039324
1706.3901 939.97961 1855.9657 1973531
1694.3799 927.38684 1831.1016 2039324
1729.1481 940.39478 1856.7854 1973531
1712.3107 925.34985 1827.0797 2170910
1737.0389 932.81549 1841.8204 2368289
1801.4343 961.35669 1898.1743 2302496
1740.0432 922.83289 1822.11 2434082
0 0 0 0
0 0 0 0
0 0 0 0
0 0 0 0
0 0 0 0
0 0 0 0
0 0 0 0
0 0 0 0
0 0 0 0
0 0 0 0
-1809.2079 1058.2545 2065.333 1644823
-1805.0829 1063.0322 2074.6575 1513237
-1786.3071 1059.1885 2067.1558 1710616
-1773.0768 1058.6023 2066.012 1644823
-1759.531 1057.8185 2064.4822 1513237
-1740.9485 1053.9745 2056.98 1513237
-1726.1771 1052.3997 2053.9065 1447444
-1716.4349 1053.8905 2056.8162 1579030
-1701.8683 1052.4192 2053.9446 1513750
-1686.9127 1050.6846 2050.5593 1513750
-1671.469 1048.6184 2046.5267 1645336
-1654.3351 1045.454 2040.351 1776922
-1634.8918 1040.7728 2031.2151 1776922
-1604.9526 1029.2909 2008.8065 1908508
-1598.2012 1032.6194 2015.3025 1974301
-1600.1803 1041.6814 2032.9883 1842715
-1571.351 1030.6731 2011.5042 1513750
-1559.1394 1030.4797 2011.1267 1842715
-1547.0588 1030.3707 2010.9138 2105374
-1534.0009 1029.6039 2009.4172 2171680
-1518.1406 1026.9294 2004.1978 2040094
-1514.8704 1032.7964 2015.6479 2040094
-1503.048 1032.8796 2015.8104 2105887
-1484.6299 1028.3954 2007.0587 2040094
-1472.244 1028.051 2006.3867 1974557
-1464.1057 1030.6912 2011.5392 2171680
-1447.655 1027.4749 2005.2622 2303266
-1434.6323 1026.6586 2003.6691 2171936
-1422.6771 1026.5989 2003.5526 2632231
-1413.0621 1028.2411 2006.7577 2763817
-1397.2386 1025.3552 2001.1255 3026989
-1385.38 1025.3544 2001.1238 2895404
-1370.903 1023.3988 1997.3071 3092781
-1352.5732 1018.5081 1987.7623 3026987
-1349.9258 1025.4442 2001.299 2829097
-1340.8926 1027.6093 2005.5245 2763304
-1325.1029 1024.5891 1999.6301 2763304
-1314.8002 1025.795 2001.9839 2565925
-1302.7572 1025.6531 2001.7068 2500132
-1286.807 1022.4041 1995.3658 2434339
-1271.9335 1019.9581 1990.5922 2236960
-1253.3757 1014.4844 1979.9094 2302753
-1246.7269 1018.6373 1988.0146 2236960
-1231.4178 1015.7263 1982.3331 2171167
-1225.5018 1020.5815 1991.8088 2434339
-1201.0228 1009.9219 1971.0051 2500132
-1192.103 1012.2648 1975.5776 2434339
-1178.553 1010.6835 1972.4916 2434339
-1169.1903 1012.6974 1976.4219 2302753
-1160.6614 1015.4815 1981.8555 2434339
-1144.5681 1011.6367 1974.3518 2894890
-1138.7139 1016.8558 1984.5377 2829097
-1133.694 1022.9369 1996.4056 3026476
-1120.7012 1021.8762 1994.3354 2500132
-1106.9344 1020.0795 1990.8292 2763304
-1094.8556 1019.8165 1990.3159 2697511
-1086.4968 1023.0506 1996.6276 2894890
-1070.1995 1018.7985 1988.3292 2829097
-1058.7266 1019.0958 1988.9093 2829097
-1048.0153 1020.1411 1990.9492 3026476
-1035.1021 1019.0422 1988.8048 2697511
-1019.173 1014.9151 1980.75 2631718
-1009.6982 1017.1938 1985.1971 2631718
-995.75067 1014.9671 1980.8516 2631718
-986.52429 1017.557 1985.9061 2763304
-973.12018 1015.8484 1982.5715 2434339
-961.60638 1016.0953 1983.0535 2697511
-949.00018 1015.1799 1981.2668 2763304
-939.65057 1017.7688 1986.3195 2763304
-930.22974 1020.3452 1991.3477 2763304
-918.38287 1020.2927 1991.2451 2631718
-908.56866 1022.5262 1995.6044 2565925
-896.70093 1022.4773 1995.5087 2500132
-884.02026 1021.4877 1993.5774 2105373
-874.67139 1024.3733 1999.209 1973788
-862.0174 1023.4141 1997.337 1907995
-849.11151 1022.125 1994.8212 1907995
-838.36023 1023.4298 1997.3677 1842202
-821.09393 1016.7048 1984.243 1907995
-810.38239 1018.0187 1986.8071 2039581
-796.53729 1015.3768 1981.6512 2105374
-785.34845 1016.0927 1983.0482 2105374
-772.39398 1014.511 1979.9615 2236960
-761.88727 1016.1454 1983.151 1973788
-748.41235 1013.8101 1978.5935 2171166
-735.95782 1012.8047 1976.6313 2236960
-723.99127 1012.4491 1975.9374 2302753
-711.04114 1010.6839 1972.4923 2302753
-700.01849 1011.6452 1974.3684 2105374
-686.59363 1009.1086 1969.4177 1710616
-674.64569 1008.6924 1968.6056 2105374
-663.216 1009.0502 1969.3037 2236960
-648.98883 1005.088 1961.5712 2105374
-640.74982 1010.4246 1971.9862 2171167
-628.36951 1009.3074 1969.8059 2105374
-617.11328 1009.9877 1971.1335 2236960
-605.16162 1009.5342 1970.2484 2171167
-593.27441 1009.1724 1969.5422 2105374
-581.56262 1009.1003 1969.4017 2105374
-569.59741 1008.5768 1968.38 2039581
-558.00342 1008.7023 1968.6249 2105374
-546.14929 1008.353 1967.9431 2236960
-533.87268 1007.1913 1965.676 2763304
-519.95392 1002.8106 1957.1265 2960683
-508.34003 1002.7768 1957.0604 2894890
-494.0473 997.33368 1946.4374 2565925
-483.66895 999.72119 1951.0969 2302753
-471.59326 998.63135 1948.9701 2039581
-459.12665 996.63818 1945.0801 2171167
-447.28116 995.92548 1943.6891 2171167
-434.89551 993.94049 1939.8152 2039581
-421.26138 988.91705 1930.0111 1776409
-409.66971 988.5415 1929.2783 1907995
-399.58432 991.88361 1935.8008 1579030
-387.82217 991.13806 1934.3457 1381651
-375.72934 989.47614 1931.1023 1907995
-364.88379 991.09778 1934.2671 2236960
-354.06049 992.88684 1937.7588 2105374
-341.94031 991.03723 1934.149 2171167
-332.742 997.82135 1947.3892 2105374
-321.8204 999.73956 1951.1329 2105374
-309.59119 997.58716 1946.9321 2105374
-297.64499 996.21533 1944.2549 2500132
-285.41644 993.75018 1939.4438 2631718
-273.11301 990.80627 1933.6984 2368546
-262.3277 993.35339 1938.6693 2368546
-251.90335 997.56323 1946.8854 2236960
-240.72078 999.03027 1949.7485 2171166
-228.92381 997.96686 1947.6732 2236960
-217.24734 997.34387 1946.4573 2105374
-205.51425 996.37634 1944.5691 2171167
-194.36946 998.31561 1948.3539 2171167
-183.26961 1000.7451 1953.0953 2368546
-171.20961 997.90588 1947.5542 2302753
-160.37781 1002.3322 1956.1929 2368546
-148.85658 1002.8038 1957.1133 2302753
-137.20175 1002.379 1956.2841 2302753
-124.23325 991.39258 1934.8425 2171167
-112.62511 990.13171 1932.3818 2302753
-101.29626 991.31879 1934.6985 2302753
-89.803452 990.99927 1934.075 2302753
-78.059036 987.40363 1927.0576 2368546
-66.985046 992.50958 1937.0225 2368546
-55.428394 991.09674 1934.2651 2302753
-43.82375 987.86548 1927.9589 2105374
-32.356689 986.55048 1925.3925 2039581
-20.857756 982.30194 1917.101 2039581
-9.5256624 985.146 1922.6514 2500132
1.8723707 988.0755 1928.3689 2434339
13.396351 995.32861 1942.5242 2171167
24.843575 992.81049 1937.6097 2302753
36.305458 992.28479 1936.5837 2171167
47.629089 989.1405 1930.4473 2171167
59.44294 995.4231 1942.7087 2039581
70.862648 994.13776 1940.2001 1907995
82.189102 992.08557 1936.1949 2171167
93.948921 995.12646 1942.1298 2368546
105.62496 996.71307 1945.2262 2500132
116.40705 990.3819 1932.87 2302753
129.47563 1002.8956 1957.2922 2565925
140.20866 996.74835 1945.295 2500132
152.01176 998.56439 1948.8394 2434339
162.21608 990.36304 1932.8333 2500132
173.33041 988.4328 1929.066 2500132
184.67152 987.95459 1928.1328 2500132
196.5471 990.22485 1932.5636 2434339
206.31038 982.18903 1916.8805 2500132
218.33943 985.21576 1922.7876 2434339
232.99622 999.2113 1950.1019 2302753
240.67209 983.36102 1919.1678 2171167
252.20146 983.97559 1920.3673 2039581
266.87973 996.29242 1944.4053 2105374
275.46841 985.79742 1923.9227 2236960
285.92935 982.57025 1917.6246 2236960
301.59247 996.78345 1945.3636 1710616
309.43024 985.03906 1922.4427 1907995
320.72235 984.73462 1921.8486 2434338
332.522 985.95605 1924.2324 2368546
343.92386 985.95605 1924.2324 2368545
355.77112 987.19208 1926.6447 2039581
366.72186 985.94073 1924.2025 2105374
377.63037 984.65491 1921.693 2039581
388.85138 984.23523 1920.874 2302753
402.37463 989.50104 1931.1509 2302753
411.81885 984.72192 1921.8239 2236703
423.83731 986.18994 1924.6888 2434082
433.24475 981.66479 1915.8574 2302496
444.29047 980.98798 1914.5365 2105117
453.52829 976.45258 1905.6851 2105117
465.99011 978.91016 1910.4812 2105117
479.09668 982.57343 1917.6306 2236702
486.91797 975.47858 1903.7842 2499875
498.70813 976.4762 1905.7311 2434082
506.10629 969.02039 1891.1799 2434082
522.76575 979.23578 1911.1167 2565668
527.20477 966.61206 1886.4799 2499875
537.17194 964.43781 1882.2365 2368289
550.4126 968.1098 1889.4028 2302496
559.18024 963.92462 1881.235 2434082
573.48523 969.2619 1891.6514 2697254
581.62006 964.16614 1881.7063 2763047
595.02014 967.82623 1888.8494 2499875
606.15222 967.73022 1888.6621 2565668
619.79456 971.57275 1896.1614 2499875
630.297 970.44403 1893.9585 2302496
636.61212 963.02063 1879.4707 2631461
646.56677 961.26324 1876.041 2565668
657.09558 960.40466 1874.3652 2434082
667.86554 959.92114 1873.4216 2434082
681.91327 964.08759 1881.553 2499875
692.11475 962.76953 1878.9806 2434082
701.73505 960.69769 1874.937 2631461
715.57965 964.38336 1882.1302 2697254
724.46942 961.38086 1876.2704 2434082
737.85126 964.34003 1882.0457 2368289
750.89642 966.77771 1886.8031 2236960
762.57562 967.41089 1888.0388 2434339
772.62061 965.9826 1885.2513 2499875
783.65771 965.81769 1884.9294 2631461
791.90076 962.26233 1877.9907 2105117
804.05719 963.49493 1880.3962 2105117
815.35852 963.68304 1880.7634 1907738
825.13873 962.09253 1877.6594 2565668
835.72357 961.47021 1876.4447 2434082
879.53613 998.58942 1948.8882 2302496
857.23871 960.66071 1874.865 2302496
861.49146 953.07532 1860.0609 2499875
878.07977 959.15594 1871.9282 2434082
909.09491 980.64728 1913.8716 2368289
899.10358 957.92004 1869.5161 2434082
983.20337 1034.7721 2019.5039 2368289
919.90515 956.51251 1866.7692 2565668
929.72363 955.23547 1864.2769 2434082
939.36981 953.81354 1861.5018 2368289
966.77936 970.25183 1893.5834 2368289
980.93317 973.16211 1899.2633 2236703
971.34497 952.71967 1859.3669 2236960
1006.3096 975.94427 1904.693 2368546
992.78027 952.14453 1858.2445 2302753
1004.2819 952.61005 1859.153 2236960
1016.0229 953.2901 1860.4802 2171167
1027.6647 953.86346 1861.5991 2105374
1036.0253 951.41138 1856.8135 2171167
1049.6416 953.78662 1861.4492 2368546
1055.3043 948.96039 1852.03 2565925
1078.1473 959.52344 1872.6454 2631718
1126.176 992.0575 1936.1403 2500132
1132.9854 987.99121 1928.2042 2434339
1114.0081 961.74408 1876.9792 2368546
1113.0509 951.41913 1856.8287 2236960
1120.827 948.68829 1851.499 2236703
1134.5331 950.98096 1855.9735 2302495
1145.5305 950.98096 1855.9735 2302496
1160.3177 954.09735 1862.0555 2302496
1171.3215 954.07306 1862.0083 2434082
1183.8248 955.25934 1864.3235 2499875
1197.3539 957.24384 1868.1964 2434082
1210.0786 958.55481 1870.755 2302496
1217.14 955.39648 1864.5911 2236703
1228.4481 955.59839 1864.9852 2170910
1238.6108 954.91382 1863.649 2170910
1261.8646 964.24469 1881.8596 2170910
1303.749 987.5238 1927.2921 2170910
1281.9047 962.54657 1878.5455 2105117
1288.6945 959.31482 1872.2383 2368289
1289.6162 951.80737 1857.5863 2697254
1301.5586 952.49194 1858.9224 2960426
1309.6517 950.3717 1854.7845 2631461
1327.7793 955.50787 1864.8083 2434082
1331.2759 950.11731 1854.288 2434082
1386.5623 981.47418 1915.4854 2499875
1365.3602 958.61932 1870.881 2499875
1364.506 950.30389 1854.6521 2499875
1380.9148 954.04791 1861.9591 2631461
1390.2079 952.85541 1859.6318 2828840
1400.2061 952.16119 1858.277 2565668
1418.0808 956.79218 1867.3151 2434082
1425.3405 954.24481 1862.3435 2565668
1433.0184 952.01453 1857.9907 2565668
1443.7755 951.84821 1857.6661 2565668
1468.5078 960.82831 1875.192 2565668
1486.5066 965.3009 1883.9209 2499875
1494.484 963.24774 1879.9138 2499875
1505.4949 963.16553 1879.7534 2565668
1506.3419 956.62988 1866.9983 2565668
1505.046 948.83856 1851.7924 2499875
1508.5084 944.13812 1842.6188 2434082
1524.4972 947.28876 1848.7677 1907738
1538.4589 949.14386 1852.3883 2039324
1583.111 969.77301 1892.6488 2302496
1658.0951 1008.5617 1968.3505 2368289
1613.5742 974.62549 1902.1193 2499875
1650.0156 989.72351 1931.5852 2499875
1612.8 960.73645 1875.0128 2499875
1584.2748 937.28735 1829.2485 2697254
1647.702 968.18805 1889.5557 2697254
1604.443 936.40613 1827.5287 2697254
1618.9132 938.51715 1831.6486 2368289
1620.3984 933.12244 1821.1201 2302496
1632.3751 933.80078 1822.444 2302496
1648.9784 937.09949 1828.8818 2105117
1648.8763 930.92352 1816.8287 2105117
1693.9711 950.17944 1854.4093 2302496
1695.6848 945.0108 1844.3219 2302496
1681.0743 930.8692 1816.7225 2302496
1682.6163 925.79456 1806.8187 2434082
1692.3544 925.26526 1805.7858 2499875
1705.1771 926.41858 1808.0366 2499875
1769.0353 955.11176 1864.0354 2236703
1732.5143 929.58997 1814.226 2104860
0 0 0 0
0 0 0 0
0 0 0 0
0 0 0 0
0 0 0 0
0 0 0 0
0 0 0 0
0 0 0 0
0 0 0 0
0 0 0 0
0 0 0 0
-1783.6746 1062.5721 2050.052 1579030
-1765.3129 1058.8446 2042.8606 1513237
-1756.4253 1060.7877 2046.6094 1447444
-1739.8282 1058.0692 2041.3646 1579030
-1728.2159 1058.3655 2041.936 1644823
-1712.0841 1055.8784 2037.1377 1710616
-1699.3875 1055.4897 2036.3879 1710616
-1681.3656 1051.7644 2029.2006 1776922
-1667.8269 1050.8099 2027.3589 1776922
-1647.2318 1045.3635 2016.8511 1645336
-1636.8844 1046.3884 2018.8285 1842715
-1614.7236 1039.821 2006.1577 1908508
-1608.5199 1043.5082 2013.2715 1908508
-1581.9136 1033.9155 1994.7642 1645336
-1582.02 1041.7692 2009.9163 1711129
-1572.1985 1043.1544 2012.5891 1579543
-1551.1733 1037.0707 2000.8513 1974301
-1532.3604 1032.3834 1991.8082 2302753
-1517.0005 1029.968 1987.1481 2303266
-1511.3541 1034.1615 1995.2385 2303266
-1507.7214 1039.8097 2006.1359 2369059
-1486.6931 1033.4552 1993.8761 2171680
-1467.796 1028.4926 1984.3013 2171680
-1456.376 1028.731 1984.7615 2237473
-1442.6898 1027.3597 1982.1158 2303266
-1431.3004 1027.6149 1982.6082 2106143
-1418.386 1026.7704 1980.9788 2434852
-1408.2764 1027.9591 1983.2722 2763817
-1394.8329 1026.7137 1980.8695 2829610
-1381.7115 1025.6864 1978.8875 3092783
-1363.916 1021.142 1970.1199 3158575
-1350.2205 1019.6152 1967.1742 3026989
-1342.7292 1022.7879 1973.2953 2895659
-1334.2061 1025.2234 1977.994 2894890
-1323.943 1026.3531 1980.1738 3355440
-1310.4847 1025.0039 1977.5707 2631718
-1301.3018 1027.0045 1981.4304 2368546
-1288.6829 1026.3052 1980.0813 2565925
-1272.9646 1023.102 1973.9012 2236960
-1262.5126 1024.1112 1975.8484 2171167
-1248.5092 1022.2316 1972.2219 1973788
-1237.595 1022.8696 1973.4529 2105374
-1223.4065 1020.7879 1969.4366 2434339
-1212.7019 1021.6009 1971.0051 2697511
-1193.2566 1014.9948 1958.2599 2894890
-1182.8733 1016.0428 1960.2819 2829097
-1168.2373 1013.4227 1955.2267 2697511
-1157.6447 1014.2925 1956.9048 2829097
-1146.6777 1014.8488 1957.978 2565925
-1136.226 1015.8771 1959.9619 2697511
-1135.6761 1025.8711 1979.2437 2763304
-1111.3781 1014.3977 1957.1078 2763304
-1116.0625 1029.4148 1986.0807 2368546
-1098.3251 1023.8505 1975.3453 2565925
-1088.2225 1025.36 1978.2577 2697511
-1081.6334 1030.2491 1987.6903 2500132
-1058.7258 1019.5314 1967.0123 2829097
-1056.5101 1028.7228 1984.7455 3026476
-1039.006 1023.0671 1973.834 2763304
-1020.2997 1016.0856 1960.3641 2631718
-1010.9973 1018.416 1964.8605 2565925
-1000.3515 1019.4318 1966.8202 2434339
-988.57391 1019.3046 1966.5748 2565925
-977.78912 1020.2102 1968.322 2697511
-965.99304 1020.0698 1968.0511 2565925
-956.62183 1022.5178 1972.7743 2697511
-942.80225 1020.2129 1968.3271 2763304
-931.93066 1021.0801 1970.0004 2697511
-922.20422 1023.24 1974.1675 2500132
-912.41327 1025.3828 1978.3016 2368546
-897.26483 1021.4824 1970.7765 2368546
-886.33002 1022.3391 1972.4293 2500132
-880.32092 1028.9763 1985.2347 2434339
-865.38373 1025.2162 1977.9803 2039581
-853.62177 1025.1663 1977.8839 2105374
-842.0603 1025.3591 1978.2559 1973788
-827.68591 1022.0836 1971.9365 2171167
-811.9223 1016.9744 1962.0791 2105374
-800.10651 1016.7333 1961.6139 2236960
-778.45001 1003.7958 1936.6532 2302753
-779.79156 1020.5703 1969.0167 2302753
-754.12579 1001.9711 1933.1328 2368546
-755.17566 1018.8414 1965.6812 2171167
-743.57843 1018.9102 1965.8138 2302753
-728.49158 1014.1233 1956.5784 2236960
-716.21545 1013.1578 1954.7156 2039581
-701.62756 1008.8364 1946.3782 2105374
-693.21216 1013.394 1955.1714 2039581
-681.64178 1013.4161 1955.214 2171167
-667.85474 1010.0862 1948.7897 2236960
-655.6402 1009.0595 1946.8086 2236960
-644.35992 1009.4595 1947.5803 2434339
-632.73083 1009.3176 1947.3066 2500132
-622.85645 1012.0217 1952.5237 2302753
-611.74854 1012.7858 1953.9979 2105374
-601.2467 1014.6022 1957.5024 2105374
-588.64203 1012.8718 1954.1637 2105374
-576.54639 1011.9653 1952.4148 2105374
-564.98633 1011.9811 1952.4453 2236960
-553.02753 1011.2683 1951.0701 2039581
-542.08197 1012.4174 1953.2872 2697511
-530.26257 1011.9492 1952.3837 2960683
-514.87793 1004.5045 1938.0204 3026476
-503.94388 1005.6008 1940.1357 2894890
-490.04889 1000.7022 1930.6846 2631718
-479.09756 1001.7241 1932.6561 2302753
-464.93723 995.92224 1921.4625 2368546
-453.69269 996.23157 1922.0593 1907995
-442.04825 995.65613 1920.9491 1973788
-430.80753 995.9837 1921.5812 1907995
-418.60138 994.0365 1917.8243 1842202
-408.22351 996.44324 1922.4677 1842202
-396.09561 994.59381 1918.8995 1710616
-383.9454 992.57751 1915.0094 1644823
-372.94345 993.49725 1916.7839 2171167
-362.04953 994.77161 1919.2426 2105374
-351.60596 997.40601 1924.3252 2302753
-340.08731 997.06519 1923.6677 2105373
-330.15869 1001.524 1932.2703 2236959
-319.83145 1005.0506 1939.0742 2105374
-307.00821 1000.7042 1930.6885 2171167
-295.64142 1000.9525 1931.1675 2302753
-282.95227 996.56329 1922.6993 2302753
-271.70013 997.07935 1923.6949 2105374
-260.71777 998.67395 1926.7715 2302753
-249.79633 1000.6587 1930.6007 2171167
-237.97475 999.05511 1927.5068 2039581
-226.48322 998.74524 1926.9089 2105374
-214.76463 997.34784 1924.213 2105374
-203.63562 998.6853 1926.7935 2368546
-192.83345 1001.8799 1932.9569 2236960
-181.51859 1002.6459 1934.4347 2368546
-169.79852 1001.1262 1931.5028 2434339
-159.02649 1005.3804 1939.7103 2500132
-147.11613 1002.5401 1934.2305 2368546
-135.25085 999.55292 1928.4673 2434339
-123.67009 998.31122 1926.0717 2302753
-112.26897 998.41473 1926.2714 2434339
-100.66497 996.53302 1922.6409 2171167
-89.078323 994.36499 1918.458 2368546
-77.97197 997.70813 1924.9081 2500132
-66.618744 998.49695 1926.4299 2368546
-55.103672 996.68469 1922.9335 2368546
-43.507309 992.07379 1914.0376 2236960
-32.2164 993.63226 1917.0444 2105374
-20.766249 989.30219 1908.6902 2237216
-9.4541636 989.05847 1908.2201 2434339
1.8537384 989.55579 1909.1794 2697511
13.204815 992.44336 1914.7507 2302753
24.414755 986.95673 1904.165 2434339
35.860924 991.4696 1912.8718 2302753
46.983517 987.01709 1904.2816 2105374
58.596916 992.60321 1915.059 2171167
72.141243 1023.7792 1975.2078 1973788
81.012329 989.18951 1908.4728 2039581
92.72628 993.53412 1916.8551 2105374
104.1403 994.06757 1917.8843 2171167
115.7802 996.43994 1922.4614 2171167
126.28391 989.48492 1909.0428 2565925
137.59346 989.46844 1909.0111 2565925
149.3213 992.23407 1914.3468 2565925
162.34592 1002.6177 1934.3802 2500132
171.84113 991.27222 1912.4911 2500132
182.03976 985.13739 1900.6549 2500132
195.73712 997.5481 1924.5994 2565925
204.42065 984.44678 1899.3226 2631718
224.01425 1022.5117 1972.7625 2565925
230.42792 999.62488 1928.6062 2500132
239.13826 988.39337 1906.9369 2105373
249.72169 985.56787 1901.4855 2105374
260.73328 984.60303 1899.624 1776409
272.62207 986.89362 1904.0433 2171167
283.85275 986.71454 1903.6978 2039581
296.55423 991.46631 1912.8656 1842202
308.51541 993.48431 1916.759 1776409
319.01108 990.80743 1911.5944 2105374
330.33804 990.80743 1911.5944 2105374
341.86472 991.38654 1912.7117 2171167
352.52881 989.50732 1909.0861 2039581
365.58453 994.24945 1918.2351 1907995
375.85272 991.35291 1912.6467 2236960
386.9588 990.77142 1911.5248 2368546
393.45703 978.7605 1888.3519 2302496
407.81686 986.42957 1903.1479 2236703
418.1561 984.22253 1898.8899 2170910
429.68921 984.86755 1900.1344 2236703
441.56848 986.25281 1902.807 2170910
451.78598 983.94995 1898.364 2105117
462.53198 982.88202 1896.3036 2039324
472.80118 980.87549 1892.4324 2105117
484.77112 982.40863 1895.3903 2236702
495.80206 982.01239 1894.6259 2368289
501.14645 970.62012 1872.6464 2302496
512.18475 970.51044 1872.4348 2302496
524.80054 973.33118 1877.877 2302496
535.33911 972.26208 1875.8143 2105117
