# .PCD v0.7 - Point Cloud Data file format
VERSION 0.7
FIELDS x y z rgb
SIZE 4 4 4 4
TYPE F F F U
COUNT 1 1 1 1
WIDTH 1314
HEIGHT 1
VIEWPOINT 0 0 0 1 0 0 0
POINTS 1314
DATA ascii
6429.583 2177.6372 13882.222 328965
6423.2627 2148.0159 13693.388 2368545
6694.7915 2210.8901 14094.205 2500132
6913.0718 2254.8474 14374.429 2236960
6733.3062 2169.4834 13830.241 1710616
6893.8833 2194.5125 13989.799 1973788
7036.019 2213.1462 14108.587 1513237
7346.9551 2283.8145 14559.091 1381651
7345.2529 2256.7861 14386.787 986893
7396.2544 2246.385 14320.48 1052686
7453.3643 2238.0537 14267.37 789514
7432.1216 2206.6462 14067.15 1315858
7501.77 2202.6223 14041.498 1315859
7659.5303 2224.2734 14179.523 1316115
7795.728 2239.2612 14275.068 1381651
7908.4878 2247.2673 14326.105 1447444
7961.0068 2238.1672 14268.093 1513491
7981.3301 2220.3018 14154.203 1776406
8154.9302 2245.0039 14311.678 2040092
8140.1582 2217.874 14138.727 2697765
8176.8911 2205.1868 14057.847 2960937
8233.5186 2198.0664 14012.455 2631971
8306.0869 2195.3018 13994.83 2171421
8242.6309 2156.9954 13750.632 1710870
8389.6719 2173.9844 13858.936 1381906
8405.6299 2157.0063 13750.701 855305
8255.5742 2098.1616 13375.573 395012
8822.9189 2221.0308 14158.85 0
8669.3145 2161.8064 13781.302 0
8730.6191 2156.7781 13749.246 0
8640.3955 2114.7556 13481.357 0
8608.0898 2087.5491 13307.918 0
8816.5742 2118.7002 13506.504 256
8713.9277 2075.1958 13229.167 0
8775.2383 2071.1653 13203.473 0
9085.1973 2125.374 13549.048 0
9057.4355 2100.3196 13389.329 0
8617.4717 1980.9449 12628.327 0
7996.5391 1822.3835 11617.515 0
7462.2373 1686.1034 10748.741 0
9137.1289 2047.0756 13049.903 0
7281.2603 1617.5985 10312.03 0
7058.9692 1555.1641 9914.0166 0
7315.7964 1598.4434 10189.918 0
7422.3037 1608.4396 10253.643 256
7223.728 1552.6976 9898.293 256
7089.0903 1511.4858 9635.5723 256
7267.6221 1537.1708 9799.3115 256
7224.7905 1515.9994 9664.3457 256
7140.2119 1486.4701 9476.0986 256
7647.3071 1579.6167 10069.899 256
7469.6753 1530.9799 9759.8447 256
7518.7285 1529.1946 9748.4639 256
7916.1123 1597.7416 10185.443 256
8303.8701 1663.323 10603.52 256
8114.2041 1613.1261 10283.519 256
8288.8047 1635.5549 10426.5 65536
8374.1348 1640.1672 10455.903 131072
8062.2534 1567.4849 9992.5605 920324
7475.1562 1442.7443 9197.3516 854274
7177.9863 1375.3618 8767.7949 131072
7204.1055 1370.4474 8736.4658 196608
7132.6333 1347.1707 8588.0791 0
7399.564 1387.6864 8846.3633 65536
7369.644 1372.3538 8748.6191 256
7382.4888 1365.1431 8702.6514 256
7380.6431 1355.3348 8640.125 256
7218.9307 1316.5068 8392.6006 256
7364.438 1333.8542 8503.1885 256
7303.2974 1313.7919 8375.293 256
7254.0151 1296.1191 8262.6309 256
7144.2329 1267.9459 8083.0298 256
6732.2827 1186.877 7566.2231 256
6608.3027 1157.3126 7377.7534 256
6573.7783 1143.7004 7290.9771 256
6619.7373 1144.177 7294.0146 256
6486.2407 1113.8309 7100.5615 256
6560.8618 1119.384 7135.9619 256
6437.8311 1091.3595 6957.3081 196608
6552.8535 1103.7902 7036.5527 788224
6427.6372 1075.8529 6858.4551 1182977
6481.1079 1077.9871 6872.0605 459008
6330.1016 1046.2969 6670.0386 393216
6309.7202 1036.4569 6607.3096 393216
0 0 0 0
0 0 0 0
0 0 0 0
-9171.5244 1627.349 9996.5791 1053201
-9143.9971 1633.0116 10031.363 1118994
-9113.582 1638.2288 10063.412 1053201
-9104.3398 1647.3461 10119.418 921615
-9079.8701 1653.8105 10159.129 921615
-9037.3369 1657.0493 10179.023 921615
-8983.7305 1658.2877 10186.631 987408
-8954.0488 1663.9886 10221.651 987408
-8899.1172 1665.0432 10228.129 921615
-8838.2041 1664.9852 10227.773 921615
-8717.7764 1653.6373 10158.065 987408
-8584.5771 1639.6925 10072.403 987408
-8471.1074 1629.3469 10008.853 855822
-7239.186 1402.2142 8613.6074 132099
-8470.4658 1652.3601 10150.219 197892
-8241.3564 1619.1639 9946.2988 513
-6671.6406 1320.2058 8109.8413 132099
-7089.1704 1413.0054 8679.8965 197892
-6953.5049 1396.0934 8576.0078 197892
-6990.7827 1413.9108 8685.458 197892
-6674.207 1359.8934 8353.6367 131843
-6951.1406 1426.9021 8765.2617 197892
-6620.3438 1369.2281 8410.9785 197892
-6610.1528 1377.4902 8461.7314 197892
-6607.0396 1387.365 8522.3906 197892
-6748.7783 1428.0424 8772.2656 197892
-6600.3604 1407.4775 8645.9395 263685
-6628.2114 1424.473 8750.3398 197892
-6627.6763 1435.5879 8818.6172 197892
-6625.7231 1446.5698 8886.0781 197892
-6637.3755 1460.722 8973.0127 197892
-6617.0923 1468.0177 9017.8291 263685
-6588.6187 1473.6002 9052.1221 263685
-6603.4785 1489.0461 9147.0039 329478
-6509.6855 1480.0442 9091.7061 329478
-6556.4346 1503.1124 9233.4111 329478
-6522.9707 1508.0247 9263.5859 329478
-6346.5664 1479.6937 9089.5537 263685
-6264.8286 1473.1383 9049.2842 263685
-6203.9453 1471.4158 9038.7031 395271
-6193.8018 1481.8021 9102.5049 395271
-6103.5781 1473.0446 9048.708 395271
-6067.6299 1477.3466 9075.1348 461064
-5997.7642 1473.3936 9050.8516 461064
-5923.873 1468.3712 9020.001 461064
-5870.7988 1468.4646 9020.5742 461064
-5777.5918 1458.4288 8958.9258 526857
-5740.1543 1462.4154 8983.415 592650
-5717.207 1470.2029 9031.252 592650
-5708.958 1481.9529 9103.4307 526857
-5673.4106 1486.7732 9133.041 395271
-5641.5103 1492.6512 9169.1494 263685
-5648.8438 1509.1254 9270.3477 263685
-5602.8232 1511.5291 9285.1133 66049
-5545.1743 1510.8124 9280.7109 256
-5512.4995 1516.9536 9318.4355 256
-5507.7256 1530.9747 9404.5654 256
-5531.8169 1553.3881 9542.248 256
-5497.6167 1559.7266 9581.1846 512
-5477.1992 1570.1487 9645.2051 256
-5473.002 1585.4891 9739.4395 256
-5439.2271 1592.4968 9782.4873 0
-5422.1196 1604.588 9856.7617 512
-5398.6421 1615.0369 9920.9473 512
-5493.6636 1661.5558 10206.706 66306
-5427.3726 1659.7781 10195.787 66304
-5525.7734 1708.8931 10497.493 329476
-5474.9531 1712.4532 10519.362 263683
-5472.4561 1731.3837 10635.649 197890
-5442.1216 1741.8453 10699.914 329476
-5216.7129 1689.3809 10377.632 526855
-5276.8882 1729.2515 10622.552 461062
-5297.812 1757.0665 10793.416 395526
-5374.2598 1804.2014 11082.959 526855
-5319.248 1807.8241 11105.213 526855
-5432.0703 1869.2931 11482.808 526855
-5293.2314 1844.6205 11331.248 592648
-5254.3032 1854.579 11392.422 921356
-5176.1162 1850.7595 11368.959 921613
-5058.2822 1832.4763 11256.647 1053199
-4974.9341 1826.3646 11219.104 1053199
-4979.167 1852.6749 11380.725 1184785
-4964.4761 1872.5701 11502.938 1184785
-4997.1475 1911.1322 11739.819 1184785
-4847.3281 1880.0052 11548.611 263428
-4460.3921 1754.7061 10778.915 256
-4382.3818 1749.0621 10744.246 256
-4603.7402 1864.495 11453.334 256
-4609.5337 1894.7728 11639.327 256
-4584.1543 1912.9622 11751.062 256
-4520.7217 1915.5881 11767.191 2
-4426.9946 1905.2584 11703.738 132099
-4229.7505 1849.3401 11360.239 66306
-4200.2783 1866.153 11463.519 66306
-4115.7681 1858.6635 11417.512 66306
-3330.7456 1529.2885 9394.207 256
-3283.6257 1533.2784 9418.7168 256
-3273.7371 1555.0918 9552.7129 256
-3156.3096 1525.6909 9372.1074 256
-3152.606 1551.193 9528.7637 256
-3074.1096 1540.1536 9460.9492 256
-2989.4531 1525.5602 9371.3047 256
-2973.5632 1546.1715 9497.917 256
-2909.5576 1542.0763 9472.7607 256
-2850.813 1540.6632 9464.0801 256
-2820.9851 1555.1344 9552.9746 256
-2754.4128 1549.5273 9518.5312 256
-2696.0813 1548.4188 9511.7217 256
-2644.1794 1551.0342 9527.7881 256
-2567.2104 1538.7391 9452.2607 256
-2566.4253 1572.5771 9660.123 256
-2508.9719 1572.4435 9659.3018 0
-2499.7285 1603.2235 9848.3789 0
-2495.6431 1638.8622 10067.303 0
-2307.8618 1552.661 9537.7812 257
-2241.865 1546.1218 9497.6123 256
-2103.9841 1488.3942 9142.999 66049
-1928.7175 1400.4685 8602.8838 66049
-1875.7031 1398.948 8593.543 131842
-1862.4889 1427.8546 8771.1133 197634
-1766.4711 1393.1185 8557.7334 263171
-1712.2401 1390.2579 8540.1621 329220
-1656.8484 1386.2522 8515.5547 395012
-1586.7211 1369.2783 8411.2871 461062
-1531.3436 1364.3451 8380.9824 526854
-1491.5239 1373.4066 8436.6465 592391
-1385.175 1319.7118 8106.8062 658441
-1322.6034 1305.3657 8018.6802 855820
-1300.9625 1331.853 8181.3887 987406
-1259.2953 1339.0953 8225.877 1053199
-1195.0155 1321.9072 8120.293 1118992
-1138.1476 1311.8199 8058.3276 1118991
-1120.9783 1348.6091 8284.3184 658441
-1104.8452 1390.0715 8539.0166 66304
-1071.316 1412.5764 8677.2607 770
-1036.9097 1436.1354 8821.9805 256
-1011.629 1475.5059 9063.8281 66050
-1054.3943 1624.1039 9976.6445 131843
-1044.4147 1704.2842 10469.182 263428
-1024.327 1777.0553 10916.204 197636
-1000.0505 1851.879 11375.836 1
-910.1377 1807.1901 11101.317 258
-943.28516 2018.925 12401.977 592396
-870.61224 2020.8137 12413.579 131844
-812.5965 2060.2124 12655.6 197892
-748.30011 2090.0796 12839.068 263685
-681.7085 2119.5703 13020.226 395271
-640.21039 2244.5654 13788.054 592650
-557.12054 2238.979 13753.736 1118994
-498.42288 2346.303 14413.014 1184787
-429.27783 2438.6614 14980.358 1447446
-360.79471 2583.9116 15872.611 1382166
-272.7373 2641.9771 16229.298 1447959
-182.88966 2736.5024 16809.955 1513752
-82.355995 2706.0129 16622.662 1579545
16.32411 2736.8887 16812.326 1382166
116.45264 2748.8979 16886.098 1316373
222.47458 2824.6323 17351.324 1316373
315.54068 2739.9905 16831.381 1447446
437.79153 2888.5662 17744.061 1447446
537.30377 2858.6211 17560.113 1645081
620.58362 2766.042 16991.412 1842204
728.89551 2795.3066 17171.18 1842204
849.20911 2857.7905 17555.01 1710618
960.13654 2878.4976 17682.211 1776411
1068.6848 2888.699 17744.877 1579032
1199.4917 2951.8496 18132.803 1513752
1309.4878 2957.6135 18168.209 1513752
1423.7277 2971.3584 18252.643 1447959
1579.2928 3063.3206 18817.553 1447959
1713.9463 3105.2661 19075.219 1645338
1815.6359 3085.9937 18956.832 1711131
2013.6426 3223.1375 19799.285 1513752
0 0 0 0
0 0 0 0
0 0 0 0
2435.5874 3161.6973 19421.867 1644825
2366.5833 2933.5115 18020.154 1447446
2481.2205 2942.8345 18077.424 1381653
2638.3835 2999.7363 18426.963 1513239
2865.2991 3128.269 19216.523 1644825
2913.3735 3059.1853 18792.15 1579032
3093.7561 3129.0034 19221.033 1645338
3006.5752 2932.8601 18016.152 1645338
3258.7698 3069.8708 18857.791 1711131
3396.8894 3093.8975 19005.383 1579545
3372.7734 2973.3589 18264.932 1382166
3412.5535 2914.8938 17905.789 1250579
3593.9373 2977.2605 18288.898 1250579
4048.0691 3255.3108 19996.922 1315858
0 0 0 0
0 0 0 0
0 0 0 0
0 0 0 0
0 0 0 0
0 0 0 0
4842.1665 3231.73 19852.068 1381650
4917.4678 3204.1482 19682.639 1381907
5004.7661 3185.4807 19567.965 1316371
4904.3662 3050.8955 18741.229 1316371
4979.376 3028.9727 18606.559 1250578
4975.7861 2961.2227 18190.381 1250578
5084.1245 2961.5449 18192.359 1250578
4953.7607 2825.6946 17357.85 1316371
4953.083 2767.8406 17002.461 1250579
5007.6802 2742.5662 16847.203 1315858
5008.5298 2689.4189 16520.727 1184272
5130.5933 2702.1492 16598.928 1184272
5167.0933 2670.1846 16402.572 1184272
5279.1924 2677.7458 16449.021 1184272
5278.8315 2629.0244 16149.732 1184271
5316.7974 2600.7859 15976.268 1118478
5452.2422 2620.3845 16096.659 1118478
5293.0962 2500.1616 15358.146 1118479
5335.1177 2477.4163 15218.425 1118479
5450.6089 2488.9766 15289.438 1184271
5491.5625 2466.6785 15152.463 1184272
5460.8652 2413.4314 14825.374 1184272
5638.2598 2452.3809 15064.635 1184272
5607.6646 2401.0601 14749.379 1250065
5564.7197 2346.1079 14411.815 1250065
5631.2715 2338.2832 14363.75 1250065
5774.311 2361.979 14509.309 1315858
5766.791 2324.2966 14277.831 1250065
5725.8848 2274.4419 13971.581 1315858
5671.3252 2220.6626 13641.222 1315858
5698.8916 2200.0999 13514.908 1447444
5804.1177 2209.6729 13573.713 1381651
5925.3081 2224.9783 13667.733 1381651
5908.2593 2188.6621 13444.647 1381651
6010.9976 2197.0957 13496.454 1381651
6058.5415 2185.3984 13424.6 1447444
6192.6929 2204.8401 13544.026 1447444
6296.6348 2213.166 13595.172 1513237
6311.936 2190.5193 13456.057 1447444
6381.7798 2187.1304 13435.238 1447444
6498.5464 2199.708 13512.501 1381651
6608.5708 2209.7249 13574.033 1381651
6635.4653 2192.0388 13465.391 1315858
6657.459 2173.1733 13349.502 1381651
6647.6953 2144.5059 13173.402 1447444
6789.8267 2164.9358 13298.9 1579030
7113.6978 2242.1797 13773.399 1579030
6893.5806 2148.1558 13195.822 1776409
6949.8872 2141.4128 13154.401 2039579
6978.9292 2126.5117 13062.866 1118220
7112.8989 2143.5588 13167.585 263169
7248.2334 2160.6428 13272.529 789256
7231.1016 2132.3992 13099.031 1052683
7442.0176 2171.2905 13337.937 65792
7571.416 2185.8308 13427.256 131585
7667.6343 2190.5894 13456.486 1052428
7694.5732 2175.6611 13364.784 1644565
7697.3203 2154.2664 13233.359 1250320
7587.7271 2102.1794 12913.396 2105374
7412.8818 2033.2347 12489.879 1776409
7401.4932 2010.0435 12347.418 1710616
7467.9043 2008.2277 12336.264 1776410
7410.5366 1973.4839 12122.838 1710360
7387.5449 1948.4736 11969.203 2105374
7292.6919 1905.1659 11703.17 1184016
7390.7222 1912.5891 11748.77 1513492
7819.894 2004.7676 12315.009 2105629
8026.2822 2038.6549 12523.175 2763558
8162.0132 2054.1394 12618.293 3026730
8286.7803 2066.6082 12694.888 3750453
8586.6016 2122.1162 13035.866 4145211
8826.9883 2162.0767 13281.337 4079416
8892.2793 2158.822 13261.345 3355695
8931.0293 2149.2373 13202.467 2829351
9108.4678 2172.9043 13347.849 1842456
9472.8496 2240.377 13762.324 921355
9456.4727 2217.415 13621.273 328964
9260.0898 2152.99 13225.519 65792
9409.6152 2169.3958 13326.298 0
9276.5928 2120.9287 13028.571 0
7511.1938 1703.1284 10462.081 0
7424.1328 1669.6078 10256.169 256
7531.0796 1679.9078 10319.44 256
7617.1875 1685.4307 10353.367 256
9099.8818 1997.415 12269.844 256
8947.6582 1948.4349 11968.966 256
8012.8545 1731.1515 10634.223 256
7661.3545 1642.2961 10088.397 256
7448.2344 1584.2504 9731.8301 256
7258.123 1531.9528 9410.5732 256
7330.252 1535.3812 9431.6338 0
8234.7266 1711.78 10515.227 256
8073.6797 1665.6995 10232.16 256
8079.168 1654.4078 10162.798 65536
8163.6792 1659.3453 10193.129 131072
7862.6455 1586.4208 9745.1621 986372
7876.4136 1577.6124 9691.0537 1117444
7897.582 1570.4031 9646.7686 393472
7229.4595 1427.2197 8767.2129 196608
7330.6519 1436.8719 8826.5049 196608
7263.5312 1413.6301 8683.7334 0
7454.3706 1440.5663 8849.1992 0
7556.2246 1450.0498 8907.4551 0
7456.8921 1421.0616 8729.3848 0
7410.9414 1402.5759 8615.8291 0
7468.8257 1403.8601 8623.7178 256
7457.1929 1392.1488 8551.7773 256
7249.6904 1344.2767 8257.7051 256
7213.9219 1328.6766 8161.876 256
7094.3184 1297.9463 7973.1045 256
6745.2417 1225.9169 7530.6372 256
6584.1626 1188.7773 7302.4946 256
6732.2988 1207.5875 7418.0425 256
6636.1597 1182.6213 7264.6792 256
6527.0259 1155.6764 7099.1602 256
6472.7656 1138.7301 6995.0615 196608
6524.1792 1140.4722 7005.7622 722689
6492.6646 1127.7874 6927.8408 1314307
6401.9077 1105.0359 6788.0825 590592
6293.5688 1079.553 6631.5444 393216
6247.4814 1064.998 6542.1353 262144
0 0 0 0
0 0 0 0
0 0 0 0
-9234.3428 1698.1348 10065.049 921615
-9283.332 1718.2406 10184.219 987408
-9246.5547 1722.6312 10210.243 921615
-9155.2227 1716.8496 10175.974 987408
-9096.0107 1717.0543 10177.188 1053201
-9016.8467 1713.4702 10155.944 987408
-8975.9619 1717.1613 10177.821 987408
-8921.9434 1718.3726 10185.001 987408
-8884.7246 1722.8579 10211.586 855822
-8795.667 1717.2838 10178.548 921615
-8692.4355 1708.8464 10128.538 987408
-8564.2295 1695.3475 10048.529 987408
-8502.1738 1694.8466 10045.56 724236
-7106.7568 1426.6683 8456.0352 132099
-8494.5977 1717.3831 10179.136 197892
-8322.0684 1694.5342 10043.708 197892
-6664.0718 1366.7075 8100.6406 526857
-6780.7764 1400.7311 8302.3018 526857
-6822.5571 1419.6615 8414.5049 592650
-6787.104 1422.6813 8432.4033 526857
-6744.7676 1424.2922 8441.9521 526857
-6748.4697 1435.722 8509.6973 526857
-6703.103 1436.806 8516.1221 526857
-6665.9248 1439.6748 8533.126 461064
-6634.25 1443.7852 8557.4883 395271
-6648.5415 1458.0393 8641.9746 263685
-6627.2305 1464.6466 8681.1367 263685
-6651.4766 1481.5042 8781.0537 329478
-6613.7236 1484.7096 8800.0527 263685
-6615.1025 1496.8204 8871.835 329478
-6597.6675 1504.8337 8919.3311 329478
-6562.4287 1508.8834 8943.334 395271
-6531.0386 1513.8907 8973.0127 395271
-6547.0762 1530.0646 9068.877 329478
-6408.9834 1510.187 8951.0605 395271
-6424.2671 1526.4207 9047.2793 395271
-6407.9897 1535.3655 9100.2959 263685
-6331.0215 1529.7969 9067.29 263685
-6305.9434 1536.7787 9108.6729 263685
-6225.2578 1530.2125 9069.7539 263685
-6162.4893 1527.9744 9056.4883 329478
-6371.2021 1593.6012 9445.4668 263685
-6029.8408 1521.5846 9018.6152 263685
-5966.8916 1519.1632 9004.2637 263685
-5922.6841 1521.5129 9018.1904 263685
-5822.187 1509.3132 8945.8809 263685
-5720.0986 1496.4729 8869.7754 263685
-5718.2505 1509.8623 8949.1357 197892
-5625.085 1499.1648 8885.7305 329478
-5642.9097 1518.1251 8998.1104 197892
-5452.3042 1480.8379 8777.1045 263685
-5532.3853 1517.0586 8991.7891 197892
-5520.5239 1528.5267 9059.7617 197892
-5595.7319 1564.5643 9273.3613 66049
-5549.7949 1567.1089 9288.4434 256
-5516.2695 1573.2443 9324.8086 257
-5417.624 1560.7435 9250.7148 256
-5519.2769 1606.2804 9520.6172 256
-5514.1211 1621.3519 9609.9482 256
-5465.3545 1623.7811 9624.3467 256
-5422.0869 1627.9126 9648.834 256
-5436.5869 1649.661 9777.7393 256
-5393.2358 1654.1345 9804.2549 256
-5400.5879 1674.4257 9924.5234 512
-5423.3701 1700.0005 10076.107 257
-5403.4688 1712.6161 10150.882 256
-5366.7856 1720.1371 10195.459 197890
-5293.4873 1715.9598 10170.7 197890
-5281.0713 1731.6495 10263.695 263683
-5206.7407 1727.1666 10237.125 197890
-5191.9985 1742.5776 10328.468 262913
-5215.9526 1771.4987 10499.886 263170
-5230.0928 1797.7446 10655.449 263170
-5228.9434 1819.3124 10783.283 328963
-5225.7114 1840.6801 10909.933 394756
-5342.1758 1905.2727 11292.78 394756
-5337.0527 1927.5898 11425.057 526855
-5230.5938 1913.4106 11341.016 724234
-5144.7441 1906.4996 11300.053 790027
-5014.7583 1882.8351 11159.79 790027
-5040.9204 1917.9486 11367.912 855820
-4981.0981 1920.8552 11385.14 987406
-4930.8442 1927.5818 11425.01 921613
-4955.3916 1964.1445 11641.722 987406
-4784.3257 1923.1111 11398.511 263428
-4483.1025 1827.8347 10833.797 256
-4457.0474 1843.6107 10927.303 256
-4527.9146 1900.5337 11264.692 256
-4561.3521 1943.2144 11517.665 256
-4533.4971 1960.6833 11621.206 256
-4407.2871 1935.4978 11471.929 1
-4366.2739 1947.5242 11543.21 256
-4265.1108 1932.6771 11455.21 256
-4240.8623 1952.7662 11574.281 256
-4138.3784 1936.8995 11480.236 256
-4072.6763 1938.0046 11486.787 256
-3258.7935 1577.0707 9347.4873 256
-3164.9995 1558.1628 9235.4189 256
-3058.2241 1532.0864 9080.8604 197636
-3035.9382 1548.1606 9176.1348 790029
-2968.9519 1541.6108 9137.3135 855822
-2869.3848 1517.5862 8994.916 855822
-2807.1721 1512.7823 8966.4434 921616
-2707.2881 1487.1005 8814.2236 855566
-2645.4084 1481.6945 8782.1816 724236
-2598.429 1484.5846 8799.3115 658443
-2533.7361 1477.2654 8755.9297 592650
-2474.4395 1472.8522 8729.7725 527114
-2421.3708 1472.037 8724.9404 526857
-2366.25 1469.9113 8712.3408 461064
-2301.8354 1461.7886 8664.1973 460807
-2241.6038 1456.0122 8629.96 329478
-2186.5596 1453.4144 8614.5625 329478
-2138.8298 1455.6708 8627.9355 263429
-2099.2544 1463.723 8675.6621 263429
-2042.7949 1460.1116 8654.2568 263683
-1989.1129 1458.3503 8643.8184 132098
-1941.6476 1461.1746 8660.5576 132098
-1888.0935 1459.4456 8650.3096 131841
-1835.0939 1458.0605 8642.1006 66049
-1777.8649 1453.1393 8612.9316 66049
-1706.9321 1436.3953 8513.6875 66049
-1637.9269 1420.3027 8418.3057 512
-1602.1604 1432.9271 8493.1318 512
-1538.5123 1420.625 8420.2158 512
-1454.365 1387.9355 8226.4609 512
-1409.6656 1391.9303 8250.1387 512
-1359.428 1390.5471 8241.9404 66304
-1307.16 1386.9067 8220.3633 66304
-1272.3292 1402.2014 8311.0166 66304
-1223.2942 1402.4434 8312.4512 66048
-1146.6206 1369.6902 8118.3188 66304
-1121.4996 1398.347 8288.1719 66304
-1122.4788 1463.6621 8675.3018 66048
-1081.1499 1477.4309 8756.9111 66306
-1030.8698 1479.7393 8770.5928 256
-987.08173 1492.1063 8843.8936 1184787
-1018.6624 1626.1774 9638.5498 1118994
-996.75134 1685.7101 9991.4062 1184533
-1017.4267 1829.3313 10842.667 1974819
-972.83716 1867.058 11066.277 2303784
-937.16162 1928.5822 11430.938 2632492
-921.63824 2044.3943 12117.371 2698286
-844.4212 2031.3634 12040.136 2434854
-799.08514 2099.699 12445.169 2171682
-724.52185 2097.3235 12431.089 790029
-660.06537 2126.978 12606.855 1119251
-591.41949 2148.979 12737.257 1316117
-534.29742 2225.4141 13190.298 1382166
-456.78708 2228.5732 13209.021 1447960
-390.15787 2297.1025 13615.203 1513497
-318.40112 2363.3013 14007.571 1447703
-247.16246 2481.3838 14707.46 1316117
-160.93051 2495.583 14791.621 1447959
-72.706429 2475.9075 14675.001 1447959
14.345372 2492.6792 14774.41 1381911
105.09938 2571.2026 15239.828 1382167
201.59401 2652.6875 15722.798 1447960
294.34531 2648.9741 15700.789 1513239
394.87988 2700.2683 16004.815 1513239
496.93106 2740.0583 16240.656 1447446
623.92511 2882.1584 17082.9 1447446
697.78156 2773.3877 16438.203 1381653
757.29169 2641.228 15654.876 1381653
842.48499 2617.7126 15515.498 1315860
987.41827 2766.1821 16395.494 1315862
1132.6975 2888.9355 17123.068 1250583
1237.4381 2896.6123 17168.57 1579291
1314.8972 2844.1133 16857.402 1513499
1356.8094 2727.5679 16166.623 1381912
1459.7736 2741.032 16246.426 1447706
1674.5012 2949.7063 17483.264 1447706
1803.089 2991.166 17729.002 1513496
1911.272 2996.075 17758.098 1381654
2022.7444 3005.3591 17813.125 1315860
2103.8806 2970.8848 17608.791 1315860
2271.1138 3055.5007 18110.32 1447446
2239.4141 2876.9175 17051.836 1381653
2286.5298 2810.634 16658.967 1250067
2373.1008 2796.3291 16574.18 1184274
2453.7893 2776.5046 16456.678 1250067
2707.7251 2946.7356 17465.656 1315861
2823.6118 2959.7288 17542.668 1316373
3160.6787 3195.4102 18939.58 1382166
3053.2112 2980.9194 17668.268 1447959
3227.697 3046.8018 18058.762 1382166
3233.5298 2954.364 17510.871 1513752
3276.3579 2900.4246 17191.166 1645338
3598.1631 3089.2578 18310.404 1579545
3698.1128 3082.1348 18268.184 1644825
3693.0017 2990.3455 17724.139 1579032
3951.3323 3111.0513 18439.576 1579032
4077.9653 3124.3606 18518.461 1644825
4185.3682 3122.6245 18508.172 1644825
4239.2881 3082.094 18267.941 1579032
4309.9092 3055.4214 18109.85 1513239
4252.4214 2941.4309 17434.215 1447446
4185.8613 2826.7207 16754.314 1447702
4461.4883 2943.0518 17443.822 1382166
4619.5132 2978.2942 17652.709 1316373
4575.5552 2884.6367 17097.59 1382165
4393.5859 2709.9136 16061.983 1316372
4470.2285 2698.7261 15995.675 1118993
4238.9014 2505.9387 14853 1053199
4601.7051 2665.0859 15796.285 1053200
4589.2881 2604.9102 15439.617 1118478
4660.1626 2593.4399 15371.631 1118479
4773.0562 2605.3452 15442.194 1250065
4845.1108 2594.9299 15380.463 1184272
4883.3662 2567.1313 15215.696 1250065
4942.9746 2551.3623 15122.231 1250066
4970.7334 2520.0083 14936.393 1184273
5045.645 2513.2378 14896.263 1118480
5117.7227 2505.313 14849.291 1052686
5154.5459 2480.6892 14703.344 1052686
5200.8862 2461.3882 14588.944 1052686
5194.9829 2418.3975 14334.133 1052686
5192.7246 2378.4592 14097.415 1118479
5264.5356 2373.1753 14066.097 1184272
5359.7388 2378.4363 14097.279 1250065
5421.479 2368.9146 14040.842 1250065
5326.7544 2292.3464 13587.014 1184272
5434.3423 2303.8264 13655.057 1184272
5362.3823 2239.969 13276.566 1184272
5382.1372 2215.7153 13132.812 1315858
5478.1465 2223.0981 13176.57 1250322
5367.1309 2147.4404 12728.139 1907995
5881.3594 2320.5793 13754.353 1710616
5995.1523 2333.1467 13828.842 1579030
6108.5615 2345.2278 13900.448 1644823
6246.7974 2366.3926 14025.895 1513237
6267.604 2343.1011 13887.843 1644823
6440.5107 2376.5383 14086.028 1579030
6479.0649 2360.1782 13989.061 1579030
6519.394 2344.8696 13898.325 1513237
6842.1753 2430.2671 14404.486 1513237
6790.043 2382.0356 14118.612 1579030
7010.1836 2429.3325 14398.946 1579030
7103.8203 2432.1802 14415.825 1579030
6992.8389 2365.7363 14022.003 1579030
7028.6182 2349.9199 13928.258 1579030
7108.5664 2349.0667 13923.2 1579030
7214.5942 2356.752 13968.753 1644823
6772.4282 2187.2188 12963.91 1710616
7320.0122 2337.5525 13854.956 1644823
6867.7783 2168.8137 12854.819 1710873
7360.5576 2298.9336 13626.057 1776409
6971.5884 2153.8206 12765.953 1513237
7057.1333 2156.8467 12783.891 1513236
7024.374 2124.0356 12589.416 1512979
7074.1831 2116.6189 12545.455 1513234
7153.1279 2117.9834 12553.542 1249806
7554.4624 2213.7942 13121.425 855048
7395.2729 2145.0679 12714.075 526597
7418.7085 2130.1653 12625.747 460549
7142.748 2030.452 12034.733 2105374
7022.2373 1976.4623 11714.73 2171167
7004.3306 1952.1257 11570.484 2171167
6981.0239 1926.7704 11420.2 2171167
7009.916 1916.1707 11357.374 1973788
6994.0986 1893.6672 11223.994 2105374
6997.5791 1876.7635 11123.804 1710616
7068.7695 1878.1656 11132.114 2631718
7009.1284 1845.1017 10936.14 1842202
7171.9053 1870.6569 11087.608 2565926
7304.7705 1888.017 11190.504 2368545
7373.7236 1888.6943 11194.519 2697510
7822.25 1985.7162 11769.579 3026475
8231.2363 2071.075 12275.51 2960938
8549.1699 2132.2285 12637.976 2960937
8687.8672 2148.0056 12731.488 2895143
9757.9766 2391.8127 14176.562 3092523
10081.475 2450.0156 14521.537 3224108
10064.183 2425.1147 14373.947 3816245
10476.583 2503.3037 14837.382 4539968
10105.748 2394.6003 14193.085 4671554
10287.941 2417.6521 14329.716 4539968
10333.917 2408.5779 14275.931 4079414
9710.0938 2244.8047 13305.228 3618863
9485.3135 2175.1785 12892.545 2697761
9451.7793 2150.1711 12744.324 1645075
9327.3691 2105.051 12476.891 723978
9083.9531 2033.9939 12055.727 329220
8493.4287 1886.9304 11184.064 131584
8326.4141 1835.5044 10879.256 0
7460.1162 1631.9004 9672.4697 0
8154.8701 1770.2775 10492.647 0
8330.1572 1794.6466 10637.086 256
8063.6733 1724.1895 10219.479 0
7893.979 1675.3243 9929.8486 65536
7877.7451 1659.5096 9836.1133 65536
7806.0078 1632.3209 9674.9629 1051907
7435.6382 1543.5369 9148.7285 920065
7148.2896 1473.1471 8731.5205 394240
7260.8413 1485.5897 8805.2695 196608
7365.7505 1496.3024 8868.7646 196608
7375.1895 1487.6066 8817.2236 65536
7432.7881 1488.6787 8823.5781 0
7642.792 1520.0472 9009.5029 0
7577.856 1496.6781 8870.9912 256
7350.6089 1441.7942 8545.6875 256
7417.1719 1444.8966 8564.0762 256
7419.127 1435.4568 8508.125 256
7280.6128 1399.1493 8292.9268 256
7290.0454 1391.5699 8248.0029 256
7195.2583 1364.3298 8086.5474 256
7212.5122 1358.5544 8052.3154 256
6749.0361 1262.8993 7485.356 256
6652.3696 1236.6835 7329.9717 256
6576.3501 1214.6211 7199.2051 256
6500.144 1192.8088 7069.9219 65536
6726.8486 1226.5056 7269.6465 65792
6672.2793 1208.8153 7164.7939 459520
6468.3193 1164.4548 6901.8638 1314822
6400.5781 1145.0203 6786.6729 853760
6264.7944 1113.7322 6601.2246 393216
6241.6738 1102.7367 6536.0532 196608
0 0 0 0
0 0 0 0
0 0 0 0
-9328.0098 1775.6038 10167.142 987408
-9290.251 1779.9117 10191.81 1053201
-9258.5615 1785.4467 10223.502 855822
-9226.3291 1790.949 10255.008 1184787
-9131.3574 1784.2649 10216.735 1118994
-9066.8955 1783.493 10212.316 987408
-8958.8477 1774.0798 10158.416 921615
-8728.3799 1740.1331 9964.0352 921615
-8809.9141 1768.3496 10125.604 921615
-8753.5957 1769.0933 10129.862 921615
-8647.8418 1759.7875 10076.577 1053201
-8554.2256 1752.8394 10036.792 921615
-7347.6084 1516.1331 8681.4072 592650
-8533.209 1773.1882 10153.311 197892
-8403.6494 1758.6653 10070.151 263685
-7193.1265 1516.0995 8681.2148 132099
-6776.5454 1438.5841 8237.3604 132099
-6916.748 1479.0002 8468.7842 132099
-7124.8608 1534.6345 8787.3467 132099
-6834.2759 1482.882 8491.0107 132099
-7299.6602 1595.6064 9136.4727 197892
-6979.354 1536.9907 8800.8389 197892
-6897.7202 1530.4486 8763.3779 132099
-6906.791 1544.0852 8841.4619 132099
-6810.0493 1534.0938 8784.251 197892
-6886.3677 1563.2341 8951.1084 263685
-6893.104 1576.9086 9029.4092 263685
-6794.1357 1566.4264 8969.3877 197892
-6774.8833 1574.3025 9014.4873 197892
-6759.208 1583.1417 9065.1006 263685
-6767.9233 1597.8812 9149.499 197892
-6685.0352 1591.0568 9110.4219 197892
-6527.2563 1566.1521 8967.8174 263685
-6578.9629 1591.5151 9113.0459 197892
-6522.3784 1590.8843 9109.4336 197892
-6553.6255 1611.8447 9229.4541 329478
-6592.9233 1635.1549 9362.9287 263685
-6535.5107 1634.6713 9360.1592 197892
-6280.6011 1584.3585 9072.0674 132099
-6357.1768 1617.5198 9261.9502 132099
-6259.2017 1606.4595 9198.6182 132099
-6171.2974 1597.8121 9149.1035 66306
-6131.0972 1601.4722 9170.0605 66306
-6096.4785 1606.6686 9199.8154 66306
-6039.2266 1605.9401 9195.6445 66306
-6018.2466 1614.9318 9247.1299 132099
-6030.2925 1633.032 9350.7725 66306
-5942.0732 1624.0638 9299.4209 66306
-5873.647 1620.3881 9278.374 132099
-5827.2026 1622.7648 9291.9824 132099
-5787.0718 1626.9614 9316.0127 66306
-5766.4771 1636.7844 9372.2588 197892
-5742.0317 1645.6946 9423.2793 197892
-5665.1025 1639.5901 9388.3242 257
-5650.0693 1651.4559 9456.2686 256
-5473.8423 1615.9724 9253.0889 256
-5448.2871 1624.7015 9303.0732 256
-5577.3467 1680.1874 9620.7861 256
-5537.2983 1685.3492 9650.3418 256
-5471.0532 1682.5619 9634.3818 256
-5426.8257 1686.5585 9657.2666 256
-5394.8779 1694.4974 9702.7256 256
-5378.0098 1707.3947 9776.5752 256
-5365.4473 1721.9547 9859.9463 256
-5368.1035 1741.7733 9973.4277 256
-5343.4126 1753.061 10038.062 256
-5344.7153 1773.2269 10153.532 66304
-5313.8799 1783.068 10209.882 131841
-5273.3735 1789.8535 10248.735 131584
-5136.4268 1763.6821 10098.878 65792
-5150.1489 1789.2386 10245.216 131584
-5205.5195 1830.047 10478.885 197377
-5343.2466 1901.1428 10885.981 263170
-5299.5088 1908.6218 10928.806 263170
-5216.3555 1901.9147 10890.4 263171
-5243.4707 1935.7478 11084.129 394756
-5277.2305 1972.923 11296.995 526342
-5198.6494 1968.5149 11271.754 657928
-5147.8745 1974.6578 11306.929 461062
-5085.7422 1976.5488 11317.757 461062
-5039.0405 1984.5677 11363.673 461063
-5002.6616 1996.9241 11434.426 592648
-4960.0527 2007.099 11492.688 526598
-4840.4614 1985.9722 11371.716 790028
-4728.2979 1967.3398 11265.025 0
-4536.2358 1914.4535 10962.198 66049
-4456.7129 1908.2163 10926.483 66051
-4355.1157 1892.2042 10834.798 66051
-3951.2773 1742.431 9977.1934 131844
-3812.8975 1706.9475 9774.0146 197893
-3738.8135 1699.5975 9731.9287 329480
-3618.9717 1670.8905 9567.5508 724236
-3535.8193 1658.4791 9496.4834 658443
-3423.7192 1631.8685 9344.1113 592650
-3301.5996 1599.5292 9158.9355 263429
-3232.6235 1592.2858 9117.459 256
-3206.4163 1606.2205 9197.25 256
-3124.4443 1592.2195 9117.0791 256
-3009.6162 1560.6876 8936.5273 256
-2996.75 1581.8473 9057.6885 256
-2908.7603 1563.4012 8952.0664 256
-2612.8567 1430.4448 8190.7549 256
-2499.6377 1394.3616 7984.1416 256
-2389.9895 1358.9166 7781.1826 256
-2375.0222 1376.9702 7884.5581 256
-2329.052 1377.4131 7887.0942 256
-2272.394 1371.4241 7852.8008 256
-2218.925 1367.1494 7828.3237 256
-2173.4233 1367.7057 7831.5098 256
-2136.5686 1373.8467 7866.6729 256
-2091.6033 1374.9298 7872.875 256
-2043.0667 1373.6613 7865.6108 256
-1997.3668 1374.2854 7869.1851 256
-1951.584 1374.881 7872.5947 256
-1904.433 1374.5181 7870.5171 256
-1860.63 1376.6141 7882.519 256
-1892.8092 1436.4821 8225.3242 256
-1794.7793 1398.0852 8005.4634 256
-1720.2035 1376.3699 7881.1206 256
-1673.9136 1376.7062 7883.0464 256
-1678.4219 1420.0399 8131.1758 256
-1665.7816 1450.9976 8308.4404 256
-1554.4343 1395.2427 7989.1865 256
-1503.7161 1392.1143 7971.2734 256
-1459.3611 1394.8651 7987.0244 256
-1417.6245 1400.3868 8018.6421 256
-1374.1876 1404.5537 8042.5015 256
-1338.2341 1416.9435 8113.4458 256
-1292.3583 1419.3593 8127.2788 256
-1245.8177 1421.2037 8137.8403 256
-1238.9813 1470.3142 8419.0479 256
-1178.4457 1457.146 8343.6465 256
-1156.3506 1492.438 8545.7285 256
-1123.3676 1516.2662 8682.1699 512
-1092.2053 1544.9574 8846.4561 257
-1049.3939 1559.2324 8928.1953 256
-950.75781 1487.673 8518.4443 4672330
-987.49139 1631.7814 9343.6113 4409929
-966.51208 1691.9762 9688.2891 4409673
-939.802 1749.1078 10015.425 4343880
-910.40289 1808.5986 10356.071 4344394
-874.86426 1863.611 10671.072 4278600
-823.66949 1891.2462 10829.312 4474953
-777.48981 1936.0394 11085.799 3159092
-737.16687 2005.0297 11480.838 724237
-687.38428 2059.7024 11793.896 724237
-644.8512 2150.9312 12316.273 1053201
-587.83356 2210.9646 12660.027 1184787
-512.74329 2210.6433 12658.187 1250324
-438.31992 2213.5801 12675.002 1118740
-360.21759 2195.3098 12570.387 1250326
-290.43069 2231.4026 12777.054 1184533
-215.39119 2238.3618 12816.904 1118740
-141.32773 2268.5688 12989.869 1250326
-65.869781 2321.8748 13295.1 1184534
13.004655 2339.0759 13393.595 1118740
97.342094 2465.0618 14114.991 1184533
180.56375 2459.4043 14082.598 1185043
265.34061 2471.811 14153.639 1381653
346.28857 2451.1562 14035.368 1447445
456.4715 2605.363 14918.359 1381653
514.92261 2462.1716 14098.442 1381653
667.06415 2744.4141 15714.568 1381653
715.88739 2584.5107 14798.959 1315860
823.45203 2648.4333 15164.98 1381653
904.59839 2623.1694 15020.319 1381654
976.09772 2576.9629 14755.739 1382166
1027.2988 2489.1704 14253.038 1382167
1093.4574 2448.2056 14018.473 1447705
1166.9442 2428.2744 13904.346 1250583
1387.6594 2697.1333 15443.837 1250326
1495.046 2726.0811 15609.593 1381911
1611.8381 2767.8066 15848.515 1447705
1693.9894 2748.7283 15739.271 1513240
1694.9607 2606.7893 14926.526 1513240
1769.1384 2585.9338 14807.108 1513239
1927.6688 2684.5215 15371.622 1579032
2017.2424 2682.5142 15360.128 1447446
2127.8298 2707.4177 15502.727 1381653
2222.8977 2711.3308 15525.133 1381653
2313.3882 2709.5713 15515.058 1381653
2537.3481 2858.2983 16366.672 1513238
2655.0049 2880.7339 16495.139 1382166
2697.4329 2822.8501 16163.694 1382166
2828.0115 2858.0215 16365.087 1316373
2959.0454 2891.3059 16555.674 1316373
2850.9648 2696.311 15439.129 1316373
2882.1487 2641.0557 15122.736 1447959
3110.6128 2764.4595 15829.349 1447959
3322.1394 2866.0269 16410.926 1579032
3457.6377 2898.0928 16594.535 1644825
3517.595 2866.8201 16415.467 1579032
3692.905 2928.7119 16769.861 1644825
3599.6958 2779.9875 15918.263 1579032
3764.9746 2833.387 16224.029 1579032
3660.1438 2685.9136 15379.594 1513239
3755.5876 2689.0022 15397.279 1644825
3881.1816 2713.0198 15534.804 1710874
3807.8904 2600.1208 14888.343 1645338
4112.2729 2744.3799 15714.373 1447959
4187.6528 2732.8069 15648.105 1447959
4226.9019 2698.668 15452.624 1447959
3957.9324 2473.366 14162.541 1447959
4043.324 2474.2671 14167.702 1513752
4086.918 2450.0747 14029.175 1513752
4214.3745 2476.1191 14178.306 1579032
4459.4712 2568.9133 14709.647 1579032
4497.0361 2540.8909 14549.19 1579032
4492.4219 2490.5391 14260.875 1381653
4422.0059 2406.2407 13778.182 1381653
4336.5708 2316.9741 13267.038 1447446
4520.3228 2372.1484 13582.968 1513239
4461.3379 2300.2388 13171.212 1513239
4427.5073 2243.5481 12846.601 1447446
4505.2642 2244.3628 12851.266 1447446
4673.2817 2289.3679 13108.966 1315858
4567.394 2200.9133 12602.473 1250065
4735.9893 2245.4431 12857.451 1315858
4852.6909 2264.3486 12965.705 1250066
4826.1172 2216.8523 12693.739 1184272
4881.1865 2207.7402 12641.563 1184272
4962.9507 2210.7952 12659.056 1184272
5078.9487 2228.7817 12762.048 1118478
5094.2876 2202.7168 12612.799 1118479
5090.105 2169.0867 12420.232 1250065
5151.7075 2164.0491 12391.387 1118479
5110.542 2116.5906 12119.639 723721
5282.5957 2157.531 12354.063 921100
5751.9502 2317.1167 13267.854 1250065
5894.9019 2342.6836 13414.252 1315858
5938.625 2328.6606 13333.956 1184272
6067.5576 2347.9797 13444.577 1184272
6183.2788 2361.7517 13523.437 1250065
6338.9819 2390.2478 13686.604 1381651
6453.2393 2402.593 13757.294 1579031
6514.2944 2395.0698 13714.216 1644825
6566.6924 2384.5879 13654.196 1710617
6749.3418 2421.0847 13863.178 1644824
6809.4287 2413.2671 13818.414 1644824
6965.4102 2439.217 13967.004 1644823
7112.1328 2461.353 14093.755 1644823
7018.6196 2400.7998 13747.026 1644823
6962.9736 2354.4402 13481.57 1710616
7203.2627 2408.064 13788.621 1776409
7084.9331 2341.9429 13410.01 1776409
7098.3452 2320.3528 13286.385 1776409
6891.0708 2227.8882 12756.931 1776409
6906.0405 2208.5024 12645.927 1776409
7034.1992 2225.3408 12742.345 1710616
6925.7437 2167.7615 12412.645 1710616
6897.5347 2136.2458 12232.185 1776409
6897.6387 2114.063 12105.165 1710616
6840.646 2075.0173 11881.59 1842202
6826.1636 2049.5308 11735.652 1842202
6498.4766 1931.468 11059.623 1973788
6837.7949 2012.0298 11520.921 1907995
6763.9199 1970.618 11283.797 1907995
6859.8301 1978.9984 11331.783 1907995
6846.8853 1956.1171 11200.765 1842202
6848.4771 1937.7882 11095.812 1710616
6899.0752 1933.5426 11071.503 1579030
6974.9243 1936.3872 11087.79 1447444
6975.5732 1918.4962 10985.346 526342
7051.0449 1921.3242 11001.54 1644823
7019.9497 1895.3286 10852.688 1907995
7125.0879 1906.2528 10915.24 1513238
7210.562 1911.7666 10946.812 2631972
7409.5244 1947.0037 11148.58 3355694
7743.9116 2016.8892 11548.746 3092523
8056.395 2079.8955 11909.521 2697765
8526.127 2182.0513 12494.468 3092523
8871.4922 2250.894 12888.662 2763558
8923.873 2244.8594 12854.107 2960937
9060.1426 2259.8508 12939.949 2960937
9223.541 2281.3003 13062.771 3026730
9117.5059 2236.3079 12805.142 3289901
9114.2891 2217.0684 12694.977 3224109
9117.1211 2199.603 12594.971 3224108
8904.1709 2130.7847 12200.914 3224108
8804.0205 2089.8506 11966.525 3421487
8935.46 2104.1045 12048.144 3684659
8907.3135 2080.8516 11914.997 4079675
8630.4434 2000.3167 11453.853 4606018
8637.5596 1986.3457 11373.854 5001032
8666.7656 1977.6318 11323.958 5592912
8593.8262 1945.9225 11142.39 5592912
8536.7471 1918.2606 10983.997 5263691
8615.543 1921.3184 11001.506 4671554
8395.3232 1858.1483 10639.794 2894886
7905.7202 1736.7421 9944.6182 1512979
7941.1475 1731.6179 9915.2773 394496
8131.7114 1760.1493 10078.648 65536
7933.5723 1704.7412 9761.3809 131328
8032.1812 1713.438 9811.1797 131072
7381.2173 1563.2589 8951.251 65536
7446.2212 1565.7748 8965.6562 0
7377.4302 1540.3199 8819.9023 256
7418.896 1538.0819 8807.0869 256
7719.6035 1589.2455 9100.0508 256
7629.4077 1559.7816 8931.3398 256
7360.936 1494.5275 8557.6934 256
7576.999 1527.8707 8748.6172 256
7354.2075 1472.8689 8433.6758 256
7298.2881 1451.8044 8313.0605 256
7299.2119 1442.2539 8258.374 256
7246.1987 1422.2444 8143.7983 256
7336.1826 1430.3805 8190.3862 256
6737.9971 1305.1147 7473.1123 256
6656.2271 1280.8588 7334.2222 256
6559.4248 1254.0433 7180.6768 256
6527.8604 1239.9656 7100.0669 65536
6774.6865 1278.6099 7321.3452 256
6575.0308 1233.0325 7060.3677 196864
6399.1743 1192.4662 6828.0845 1314821
6389.1011 1183.1088 6774.5039 1380098
6322.1094 1163.3942 6661.6177 327680
6296.4658 1151.4858 6593.4302 196608
0 0 0 0
0 0 0 0
0 0 0 0
-9309.2559 1832.1571 10146.7 921615
-9301.3691 1842.5048 10204.007 921615
-9276.4639 1849.5942 10243.27 1053201
-9204.5586 1847.3447 10230.811 987408
-9081.6709 1834.765 10161.144 1053201
-8936.2559 1817.436 10065.173 1053201
-8958.8809 1834.2793 10158.453 1053201
-8775.6416 1808.916 10017.988 1053201
-8751.9189 1816.3119 10058.947 1118994
-8625.7646 1802.4056 9981.9336 1053201
-8444.7139 1776.7574 9839.8896 1118994
-8296.1787 1757.6411 9734.0215 1053458
-7244.499 1545.5759 8559.5801 592650
-6961.9175 1495.7605 8283.6963 66306
-7138.0078 1544.4825 8553.5244 132099
-7224.9009 1574.4635 8719.5625 132099
-6748.3413 1481.2031 8203.0762 132099
-6992.5962 1545.95 8561.6514 197892
-7049.6489 1569.9535 8694.5859 132099
-7110.3574 1595.1304 8834.0186 132099
-7070.3638 1597.9219 8849.4785 132099
-7018.1367 1597.9697 8849.7432 197892
-7003.6914 1606.6854 8898.0117 263685
-6878.3193 1589.8932 8805.0146 263685
-6866.3472 1599.2566 8856.8701 263685
-6888.832 1616.8513 8954.3115 197892
-6853.3882 1621.0177 8977.3848 197892
-6781.8643 1616.6484 8953.1875 263685
-6754.8096 1622.8942 8987.7773 197892
-6718.0293 1626.884 9009.874 197892
-6698.2607 1635.0905 9055.3223 132099
-6667.5479 1640.7367 9086.5908 197892
-6647.2925 1649.0687 9132.7354 197892
-6645.3828 1662.1261 9205.0488 197892
-6636.855 1673.7308 9269.3164 197892
-6609.3491 1680.7029 9307.9297 197892
-6536.0986 1676.0624 9282.2295 132099
-6531.8472 1689.1866 9354.9131 197892
-6431.4814 1677.4668 9290.0068 197892
-6395.2954 1682.4287 9317.4863 132099
-6258.2402 1660.7098 9197.2051 132099
-6161.4653 1649.3923 9134.5273 66306
-6097.0273 1646.6073 9119.1035 132099
-6113.8789 1665.9224 9226.0732 132099
-5995.8828 1648.511 9129.6465 132099
-5962.6592 1654.3021 9161.7188 197892
-5880.8667 1646.6008 9119.0674 132099
-5859.7417 1655.9005 9170.5703 263685
-5823.2803 1660.9999 9198.8115 263685
-5758.458 1658.0298 9182.3623 263685
-5638.8271 1639.0714 9077.3691 263685
-5653.8325 1659.2604 9189.1777 263685
-5691.4609 1686.5458 9340.2871 263685
-5685.7124 1701.3868 9422.4795 257
-5632.9165 1702.3043 9427.5605 256
-5591.9868 1706.8623 9452.8027 256
-5500.1685 1695.8224 9391.6621 256
-5531.4629 1722.903 9541.6377 256
-5538.2612 1742.8344 9652.0195 256
-5418.6123 1722.9747 9542.0352 256
-5411.3589 1738.8119 9629.7432 256
-5401.2915 1754.0728 9714.2598 256
-5365.1377 1761.0995 9753.1748 256
-5343.915 1773.234 9820.377 256
-5310.8623 1781.6667 9867.0791 256
-5355.6836 1816.7029 10061.113 0
-5386.8345 1847.8387 10233.547 1052943
-5471.8472 1898.37 10513.395 1118992
-5461.731 1916.6815 10614.806 1382165
-5426.8159 1926.6155 10669.821 1644567
-5422.8989 1947.9182 10787.799 1842459
-5408.4727 1965.9094 10887.436 2105374
-5345.083 1966.3223 10889.723 2237217
-5291.7881 1970.5045 10912.884 2829353
-5262.9683 1984.0166 10987.716 2895147
-5196.165 1983.3689 10984.129 3093038
-5142.9644 1987.9628 11009.57 3224368
-5083.6196 1990.2694 11022.345 3159090
-4971.2173 1971.5933 10918.914 3224884
-4885.7085 1963.2311 10872.604 3553849
-4837.7319 1969.9288 10909.696 3685435
-4730.0342 1952.1602 10811.291 3882814
-4586.812 1919.0405 10627.871 3750972
-4481.5059 1901.0833 10528.421 3685435
-4344.8989 1869.1533 10351.589 4080193
-4254.251 1856.3635 10280.758 4080193
-4078.5027 1805.5286 9999.2285 4080192
-3970.0105 1783.4077 9876.7207 4014400
-3876.3647 1767.3942 9788.0352 3948607
-3754.1011 1737.6477 9623.2959 4080193
-3658.0066 1719.2832 9521.5918 3949123
-3442.2971 1643.2433 9100.4736 3948863
-3339.4885 1619.5358 8969.1787 3817534
-3182.438 1568.3308 8685.5996 3817534
-3074.4895 1540.0382 8528.9111 2501161
-3023.2371 1539.6741 8526.8945 256
-3063.667 1586.783 8787.7891 256
-3055.3916 1609.8586 8915.585 256
-2923.844 1567.6523 8681.8418 256
-2881.3369 1572.5294 8708.8516 256
-2750.0068 1528.224 8463.4834 256
-2725.8191 1542.9194 8544.8682 256
-2719.6333 1568.5538 8686.834 256
-2657.2188 1562.1213 8651.2109 256
-2610.8381 1565.0475 8667.416 256
-2573.7207 1573.7551 8715.6396 256
-2546.6292 1589.0754 8800.4854 256
-2494.5046 1589.0894 8800.5625 256
-2433.0637 1583.0424 8767.0732 256
-2390.2578 1589.1205 8800.7354 256
-2297.4199 1561.4652 8647.5762 256
-2218.5969 1542.2909 8541.3867 256
-2151.2373 1530.3761 8475.4014 256
-2074.032 1510.72 8366.5439 256
-2018.0455 1505.9357 8340.0479 256
-1907.0265 1458.8129 8079.0762 256
-1937.9642 1520.6521 8421.5488 256
-1900.6598 1530.7974 8477.7344 256
-1867.993 1545.3301 8558.2188 256
-1813.5847 1542.186 8540.8066 256
-1771.2992 1549.4661 8581.124 256
-1715.8728 1545.3414 8558.2812 256
-1667.7343 1547.729 8571.5039 256
-1611.3467 1542.3706 8541.8281 256
-1557.0522 1538.7333 8521.6846 256
-1515.7178 1548.0887 8573.4961 256
-1469.3961 1552.823 8599.7148 256
-1420.38 1554.9474 8611.4805 256
-1371.0798 1556.9078 8622.3369 256
-1327.2666 1565.4915 8669.875 256
-1279.6797 1570.1365 8695.5986 256
-1234.1267 1577.7711 8737.8809 256
-1181.5197 1576.6613 8731.7344 256
-1117.7834 1559.9188 8639.0127 512
-1074.3159 1571.2126 8701.5586 256
-1016.8542 1562.1464 8651.3496 256
-947.19769 1532.3885 8486.5469 4541257
-944.4801 1613.6604 8936.6396 4213064
-937.9248 1697.6404 9401.7305 4147271
-918.4007 1767.2706 9787.3516 4081478
-876.68121 1800.6985 9972.4785 4212294
-839.84894 1849.722 10243.977 4080964
-799.9989 1899.2197 10518.101 3948866
-763.70538 1966.2377 10889.254 263687
-705.20789 1983.183 10983.1 527116
-662.36664 2052.0789 11364.652 723982
-606.88855 2092.9875 11591.21 921361
-547.31812 2128.4229 11787.455 987154
-478.02219 2130.8723 11801.021 1052947
-416.38223 2174.137 12040.624 987154
-340.24634 2143.9521 11873.457 987154
-267.27893 2123.1995 11758.527 987154
-200.87819 2158.3699 11953.305 1052947
-128.59662 2134.2478 11819.714 1316119
-58.453213 2130.3533 11798.146 1184533
11.553947 2148.6545 11899.5 1250326
87.41465 2288.7693 12675.472 1316119
164.26097 2313.2603 12811.105 1316119
251.91092 2426.3267 13437.281 1447448
346.63367 2536.8469 14049.355 1513241
399.35965 2356.728 13051.836 1315862
470.74274 2327.291 12888.809 1381655
565.71112 2406.3982 13326.914 1381653
630.36383 2352.9656 13030.999 1381653
734.01379 2440.876 13517.855 1447446
817.76355 2451.8223 13578.479 1447447
881.28278 2405.5857 13322.414 1381912
965.12988 2417.8774 13390.488 1381912
1099.335 2544.8767 14093.824 1381912
1254.0983 2698.1738 14942.802 1316119
1217.752 2447.1975 13552.866 1250326
1283.7521 2420.2268 13403.498 1250326
1392.6805 2472.6152 13693.632 1447705
1457.6029 2445.4065 13542.947 1513241
1530.4532 2433.644 13477.806 1513242
1634.837 2470.7046 13683.05 1513240
1782.5848 2566.7014 14214.692 1447445
1888.4296 2596.4229 14379.293 1447445
2003.621 2635.874 14597.778 1447446
2029.8431 2559.8599 14176.804 1513239
2176.7725 2636.0632 14598.826 1381653
1917.4886 2233.3203 12368.389 1381653
2388.3018 2679.2778 14838.153 1447959
2341.4822 2533.4873 14030.749 1513752
2489.9016 2601.7002 14408.52 1513752
2467.844 2493.1638 13807.433 1447959
2446.9373 2392.7185 13251.154 1447959
2510.2288 2378.292 13171.259 1447959
2609.2068 2397.5266 13277.783 1579545
2815.9844 2511.79 13910.587 1579032
2958.9141 2564.2234 14200.969 1644825
3162.4436 2664.821 14758.09 1644825
3350.9797 2747.7107 15217.144 1710618
3173.3628 2533.8887 14032.971 1710618
3190.6169 2482.6143 13749.008 1644825
3366.1562 2553.988 14144.284 1710618
3216.6946 2381.2981 13187.907 1644825
3483.4172 2517.5911 13942.714 1579545
3614.1177 2551.5383 14130.717 1579545
3690.8679 2546.7219 14104.043 1776924
3788.1553 2555.9761 14155.294 1579545
3928.8315 2593.4709 14362.944 1513752
3848.5916 2486.6379 13771.291 1447959
3985.2158 2521.4517 13964.094 1382166
4057.0388 2514.6831 13926.608 1382166
3992.9111 2425.5977 13433.243 1447190
4139.1323 2465.2788 13653.003 1513239
4147.3398 2422.8135 13417.823 1579032
4122.8052 2363.1775 13087.554 1579032
4070.3184 2290.0178 12682.386 1644825
3956.5566 2185.6611 12104.446 1644825
3953.491 2145.0818 11879.714 1579032
4083.0735 2176.6355 12054.462 1644825
4034.0715 2113.5398 11705.03 1579032
4222.9214 2175.0867 12045.885 1579032
4274.1782 2164.8958 11989.445 1447446
4150.709 2067.9856 11452.745 1381653
4073.0667 1996.6577 11057.724 921102
4067.7629 1962.4882 10868.489 592136
4535.5874 2154.0867 11929.583 1250066
4570.9888 2137.5852 11838.196 1250066
4679.6318 2155.3157 11936.391 1118479
4810.7583 2182.7197 12088.156 1381651
4844.6167 2165.8347 11994.646 1315858
4806.4082 2117.6855 11727.99 1315858
4913.4106 2133.9768 11818.212 1315858
5210.2803 2231.1135 12356.167 1315858
5356.7803 2262.0603 12527.554 1250065
5387.0156 2243.7356 12426.07 1118479
5598.8345 2300.5168 12740.53 1118479
5715.9551 2317.3936 12833.997 1118479
5781.4937 2313.1895 12810.713 1184271
5828.5605 2301.7993 12747.633 1184271
5822.4351 2269.9629 12571.319 1118479
6031.8472 2321.8997 12858.952 1184271
6224.6943 2366.2437 13104.534 1118479
6193.0142 2325.1956 12877.204 1118478
6227.6978 2309.7598 12791.719 1118479
6364.0347 2331.9431 12914.573 1447443
6294.6089 2279.0991 12621.917 1447445
6445.4268 2306.3032 12772.577 1513239
6473.5107 2289.469 12679.348 1579031
6530.6182 2283.1682 12644.453 1579031
6579.7178 2274.2424 12595.021 1710616
6643.9194 2270.678 12575.28 1644823
6591.2856 2227.7053 12337.292 1513237
6531.6523 2183.3352 12091.566 1513237
6579.9629 2175.6191 12048.833 1513237
6647.957 2174.5071 12042.674 1447444
6757.4526 2186.8491 12111.025 1513237
6658.6709 2132.2373 11808.58 1513237
6619.5669 2097.6729 11617.157 1579030
6641.436 2082.9426 11535.58 1710616
6549.5664 2033.2041 11260.122 1776410
6658.2861 2046.1106 11331.6 1776410
6546.854 1991.7814 11030.718 1776411
6558.8721 1975.7129 10941.729 1710617
6637.9009 1979.947 10965.178 1644825
6606.9072 1951.5995 10808.187 1579030
6663.3091 1949.3641 10795.807 1579030
6707.7729 1943.712 10764.505 1447444
6819.707 1957.5331 10841.047 1513237
6869.2993 1953.3687 10817.983 1579030
6961.8364 1961.38 10862.352 1513237
7088.7925 1978.8527 10959.117 1579030
7081.6602 1958.917 10848.711 1579030
7330.7573 2009.5801 11129.289 1579030
