# .PCD v0.7 - Point Cloud Data file format
VERSION 0.7
FIELDS x y z rgb
SIZE 4 4 4 4
TYPE F F F U
COUNT 1 1 1 1
WIDTH 1277
HEIGHT 1
VIEWPOINT 0 0 0 1 0 0 0
POINTS 1277
DATA ascii
-3725.9211 1255.9414 4464.7974 1644044
-3686.6587 1251.5936 4449.3413 1512459
-3634.0007 1242.6028 4417.3794 1578253
-3633.7925 1251.546 4449.1724 1578254
-3573.8464 1239.895 4407.7534 1512461
-3547.3857 1239.775 4407.3271 1380875
-3483.627 1226.5215 4360.2114 1315082
-3457.5552 1226.4377 4359.9141 1380874
-3423.384 1223.4584 4349.3223 1446668
-3421.9565 1232.2245 4380.4854 1446668
-3422.8611 1241.9707 4415.1328 1380875
-3419.7036 1250.382 4445.0342 1446668
-3342.8953 1231.785 4378.9229 1512461
-3316.5073 1231.6211 4378.3403 1315084
-3270.6699 1224.175 4351.8701 1315083
-3247.2634 1225.073 4355.062 1315083
-3218.4634 1223.9341 4351.0137 1249290
-3214.9543 1232.4725 4381.3672 1512461
-3202.1104 1237.5421 4399.3892 1644047
-3183.8613 1240.5887 4410.2197 1775632
-3148.8303 1237.0927 4397.7915 1775632
-3097.8496 1227.2197 4362.6938 1775631
-3069.0571 1226.0446 4358.5161 1841424
-3038.5996 1224.1786 4351.8828 1907217
-3021.5408 1227.725 4364.4897 1841425
-3003.3167 1230.855 4375.6167 1775633
-2942.8745 1216.5864 4324.8931 1775377
-2916.5098 1216.2787 4323.7988 1446668
-2882.4353 1212.7218 4311.1543 1512461
-2855.0688 1211.9487 4308.4062 1644047
-2836.4871 1214.9243 4318.9844 1841426
-2799.666 1210.0709 4301.7305 1907218
-2764.4834 1205.8428 4286.7002 1841426
-2720.7356 1197.7656 4257.9858 1841426
-2688.8291 1194.799 4247.4399 1775633
-2669.3167 1197.3356 4256.4575 1775633
-2637.7629 1194.4681 4246.2637 1709842
-2604.2344 1190.6425 4232.6636 1775635
-2578.7961 1190.4772 4232.0762 1709842
-2533.844 1181.2118 4199.1382 1775635
-2517.5801 1185.2689 4213.561 1841428
-2472.3308 1175.6246 4179.2759 1709842
-2445.6379 1174.698 4175.9819 1709842
-2415.5493 1172.1047 4166.7632 1775635
-2388.748 1171.0696 4163.0835 1709842
-2356.1472 1167.14 4149.1138 1644049
-2332.2834 1167.5011 4150.3975 1644049
-2307.811 1167.562 4150.6143 1512463
-2287.3789 1169.6902 4158.1797 1512463
-2262.9363 1169.7917 4158.5405 1578255
-2240.2146 1170.7948 4162.1064 1512463
-2217.7405 1171.951 4166.2168 1578256
-2193.4822 1172.1799 4167.0303 1446669
-2166.8479 1171.1298 4163.2974 1446670
-2144.0081 1172.1299 4166.8525 1380877
-2143.9207 1185.7371 4215.2251 1380876
-2118.3359 1185.3967 4214.0156 1315084
-2089.9407 1183.4572 4207.1201 1249291
-2061.0513 1181.1874 4199.0513 1249291
-2034.729 1180.3513 4196.0791 1315084
-2006.472 1178.3584 4188.9946 1183498
-1986.4241 1181.1968 4199.085 1183241
-1936.8967 1166.3556 4146.3252 1183498
-1912.7281 1166.5995 4147.1924 1052427
-1884.6887 1164.4584 4139.5806 1052427
-1876.0277 1174.3914 4174.8921 986634
-1846.5153 1171.3627 4164.125 855048
-1820.4381 1170.4606 4160.9185 986634
-1791.3004 1167.5388 4150.5317 1052427
-1743.073 1151.9203 4095.0088 986634
-1715.9469 1150.0024 4088.1909 920841
-1678.1447 1140.7723 4055.3787 920841
-1650.0464 1137.9667 4045.4041 1052427
-1621.9487 1135.0784 4035.1365 986634
-1598.5465 1135.4388 4036.4182 1052427
-1572.3379 1133.7867 4030.5449 1052427
-1545.3359 1131.5027 4022.4253 986634
-1510.9963 1123.6903 3994.6526 986634
-1489.1096 1125.0376 3999.4421 1052427
-1455.6581 1117.5497 3972.8232 986634
-1428.6971 1114.8807 3963.335 855048
-1397.5538 1108.8041 3941.7332 855048
-1375.7878 1110.0873 3946.2947 855048
-1346.3812 1105.1433 3928.7192 789255
-1325.1877 1106.8854 3934.9124 1052426
-1299.0879 1104.5186 3926.4983 1118219
-1276.864 1105.4207 3929.7053 986633
-1251.6803 1103.7465 3923.7537 723461
-1224.0886 1099.8453 3909.8853 920326
-1201.8312 1100.679 3912.8486 854534
-1184.4259 1106.0765 3932.0369 722948
-1161.1271 1106.0765 3932.0369 986119
-1137.54 1105.7965 3931.0413 1249290
-1114.2699 1105.8192 3931.1221 1512461
-1092.3035 1107.1643 3935.9041 1644048
-1071.0754 1109.3329 3943.6128 1644048
-1043.7493 1105.1412 3928.7119 1512463
-1018.0233 1102.4916 3919.2927 1578255
-992.81708 1100.2941 3911.4805 1644047
-969.26337 1099.8667 3909.9612 1775633
-948.4856 1102.6456 3919.8398 1841427
-918.57251 1094.6771 3891.5127 1973010
-893.01495 1091.6227 3880.6541 2038546
-866.74384 1087.5114 3866.0388 1972753
-843.95599 1087.666 3866.5884 2169619
-822.98413 1090.2349 3875.7207 2235153
-796.53717 1085.4901 3858.8535 2300946
-771.75159 1082.7959 3849.2754 2366739
-747.9632 1081.3793 3844.2393 2366482
-723.56317 1078.9614 3835.6443 2038546
-699.97351 1077.6344 3830.927 2038546
-676.09149 1075.7533 3824.2397 2038546
-652.08575 1073.5382 3816.3647 2103829
-627.50775 1070.1877 3804.4543 2235925
-602.92792 1066.5845 3791.6448 2170132
-580.12488 1065.9669 3789.4495 2038291
-557.17889 1065.0265 3786.1064 2038292
-533.80505 1063.155 3779.4536 2038292
-511.31021 1062.9471 3778.7144 2104340
-489.09552 1063.3291 3780.0723 2169878
-465.23541 1059.9988 3768.2332 2235670
-442.40683 1058.8016 3763.9771 2301718
-419.87628 1058.2281 3761.939 2170132
-396.94489 1056.5237 3755.8794 2170132
-374.15219 1055.0078 3750.4907 2235925
-351.76883 1054.5276 3748.7834 2170132
-330.19601 1056.5762 3756.0662 2038546
-307.54175 1055.2104 3751.2107 1972753
-285.54544 1056.0652 3754.2493 1972500
-262.73074 1053.782 3746.1328 1841426
-240.3779 1053.1007 3743.7109 1775633
-218.32118 1053.7102 3745.8774 1578254
-195.98251 1052.9427 3743.1494 1578255
-173.85832 1053.2788 3744.344 1446670
-151.46049 1051.813 3739.1328 1446670
-129.26399 1051.4823 3737.9578 1512463
-107.03739 1050.7196 3735.2463 1512461
-84.771675 1049.0752 3729.4004 1512461
-62.407383 1044.621 3713.5659 1578254
-40.650753 1051.0264 3736.3367 1775633
-18.445415 1047.2766 3723.0066 1775374
3.6220593 1049.3527 3730.387 1972752
25.71632 1048.9537 3728.9688 1906960
47.757538 1047.7599 3724.7246 2038544
69.697258 1045.7976 3717.749 1906960
91.359993 1041.62 3702.8977 1709579
112.58424 1035.0293 3679.4678 1841167
135.49071 1043.5332 3709.699 1446409
156.57304 1037.575 3688.5176 1381132
177.95552 1034.8217 3678.73 1446924
200.78117 1040.1456 3697.6565 1315338
221.28934 1033.5975 3674.3782 1315081
243.65451 1036.1191 3683.3425 1380876
264.5303 1032.4136 3670.1692 1907221
285.78305 1030.6302 3663.8298 1841428
308.42059 1033.7402 3674.8857 1709842
329.93301 1032.9176 3671.9612 1775635
351.3671 1031.9668 3668.5811 1907221
373.88617 1034.1277 3676.2627 1841428
396.18466 1035.474 3681.0491 1907221
418.45154 1036.6017 3685.0579 1841942
441.38788 1039.1936 3694.272 2105114
461.47931 1035.1591 3679.9292 1841942
481.03262 1030.3361 3662.7837 1512978
502.45502 1029.76 3660.7358 1512978
523.90417 1029.2841 3659.0442 1512978
544.578 1027.3834 3652.2876 1381392
566.03442 1027.048 3651.0952 1249806
586.99939 1025.8784 3646.9375 1447185
606.86475 1022.9384 3636.4856 1315599
628.05365 1022.3544 3634.4097 1249806
648.21387 1020.1902 3626.7158 1447185
668.57709 1018.4741 3620.6155 1578771
688.09808 1015.6217 3610.4751 1447185
704.14807 1007.9725 3583.2827 1381392
725.0813 1007.5568 3581.8049 1447187
746.42822 1007.7232 3582.3967 1249806
769.65222 1010.3446 3591.7153 1184013
786.49475 1004.6732 3571.5537 1184013
806.52338 1003.2621 3566.5378 1052427
826.46716 1001.8204 3561.4126 1052427
849.23474 1003.7882 3568.408 986634
867.5058 1000.4746 3556.6282 526084
889.34546 1001.3361 3559.6909 986633
906.04419 996.5036 3542.5115 1052427
929.12122 998.74615 3550.4836 986634
944.65594 992.96149 3529.9194 986634
965.1319 992.50867 3528.3098 1052427
985.34131 991.80688 3525.8149 1184013
1005.0751 990.66547 3521.7573 1249806
1026.2389 990.95117 3522.7732 1184013
1054.0767 997.54163 3546.2017 1118220
1068.9399 991.83575 3525.9177 1118220
1087.3463 989.57336 3517.8748 1118219
1107.3615 988.8324 3515.2407 1249805
1127.2 987.96405 3512.1538 1184013
1145.0427 985.40967 3503.0732 1184013
1168.6713 987.83673 3511.7014 1381392
1186.9889 985.76831 3504.3484 1512978
1207.3167 985.4118 3503.0808 1710357
1220.9908 979.72833 3482.8765 1447185
1248.8007 985.38782 3502.9956 1381392
1270.7682 986.3277 3506.3369 1512978
1284.7253 981.11993 3487.8235 1381392
1299.1886 976.45746 3471.2488 1512208
1320.4802 976.99255 3473.1506 1314828
1339.2032 975.63977 3468.3418 1248779
1358.5835 974.7995 3465.3545 1183243
1379.4926 975.06494 3466.2981 1117193
1392.7606 970.00085 3448.2957 1052427
1413.5555 970.24963 3449.1799 855048
1439.3263 973.85791 3462.0073 920841
1458.4369 972.92175 3458.6794 920841
1476.6512 971.42212 3453.3481 920843
1496.2288 970.8479 3451.3069 986636
1514.7308 969.60077 3446.8735 986636
1537.892 971.32941 3453.0188 986636
1552.4823 967.67059 3440.0117 855049
1570.7356 966.36005 3435.3528 855050
1588.5277 964.80286 3429.8174 986634
1610.7267 965.92786 3433.8164 986634
1632.0587 966.51135 3435.8909 1118220
1653.6733 967.24573 3438.5015 1184012
1674.834 967.69995 3440.1162 1249806
1692.0538 965.89368 3433.6951 1249806
1706.0037 962.28589 3420.8694 1118220
1724.7164 961.41779 3417.7834 1118220
1739.5494 958.43225 3407.1699 1315598
1756.0703 956.43451 3400.0684 1249806
1774.5164 955.5188 3396.8127 1184013
1787.8024 951.87616 3383.8635 1118222
1804.2478 949.97778 3377.115 1249808
1821.3949 948.48663 3371.814 1184015
1841.614 948.61011 3372.2532 1117965
1856.4994 946.01312 3363.0208 986636
1875.6509 945.62189 3361.6301 986636
1893.52 944.5993 3357.9949 1052172
1916.3226 946.03357 3363.0935 1118222
1932.8312 944.36298 3357.1548 920843
1955.0093 945.46826 3361.084 920843
1965.9379 941.16589 3345.7891 986636
1985.9441 941.25171 3346.0942 1052429
2003.5894 940.22791 3342.4546 1118222
2019.9528 938.62842 3336.7688 1184014
2041.287 939.34753 3339.325 1447185
2055.9575 937.01569 3331.0354 1315599
2072.9163 935.76117 3326.5757 1249806
2088.7539 934.02899 3320.418 1184013
2106.1021 932.99835 3316.7542 1184013
2125.762 933.0014 3316.7649 1315599
2143.7546 932.27917 3314.1975 1381392
2164.4639 932.74078 3315.8386 1512978
2177.647 929.9801 3306.0244 1447185
2199.4907 930.9342 3309.4163 1381392
2209.2913 926.81909 3294.7874 1381392
2220.3042 923.28033 3282.2073 1447185
2237.5078 922.35516 3278.918 1315598
2257.7141 922.67279 3280.0474 1381392
2284.7686 925.75983 3291.0217 1315599
2295.095 922.07404 3277.9187 1184013
2319.2705 923.96729 3284.6494 986634
2328.4373 919.89972 3270.1892 920841
2351.5654 921.36938 3275.4138 986634
2372.7114 922.04468 3277.8145 1117450
2400.3845 925.22491 3289.1199 1051657
2414.407 923.1347 3281.6895 1183243
2437.8784 924.66168 3287.1179 1183243
2450.6406 922.13489 3278.1353 1117450
2472.3291 922.98016 3281.1401 1051657
2496.4219 924.70288 3287.2642 1051657
2497.8589 918.0719 3263.6914 1117194
2521.4417 919.61981 3269.1941 1248780
2524.9902 913.89294 3248.8354 1183500
2537.8357 911.5921 3240.6562 1315342
2551.0879 909.47101 3233.1157 1315086
2566.2334 908.05133 3228.0688 920841
2577.4177 905.26135 3218.1509 855049
2590.5186 903.18073 3210.7542 1118220
2608.783 902.91742 3209.8181 1184013
2603.8313 894.68091 3180.5378 1052427
2611.3281 890.80939 3166.7749 1118220
2624.6252 888.95764 3160.1919 1249805
2622.6067 881.98138 3135.3918 1381392
2624.1868 876.30505 3115.2129 1512978
2620.7869 869.0567 3089.4453 1381392
2625.064 864.43695 3073.0222 1447185
2622.3289 857.58752 3048.6731 1315599
2618.9094 850.60962 3023.8669 1184013
2579.071 831.97815 2957.6333 1052427
2596.7515 832.02795 2957.8103 1052427
2599.5276 827.33356 2941.1218 1118221
2623.4802 829.39648 2948.4556 1118220
2698.0569 847.33069 3012.2104 1249805
2701.6758 842.89117 2996.4285 1118220
2687.0049 832.84076 2960.6997 1052427
2714.1396 835.79425 2971.1995 1052427
2757.1016 843.55231 2998.7786 1052427
2750.4495 836.1283 2972.3867 986634
2776.5371 838.68835 2981.4875 986634
2767.3728 830.63495 2952.8582 1118220
2812.415 838.85089 2982.0652 1052427
2856.0496 846.54688 3009.4241 986634
2868.259 844.89069 3003.5366 986634
0 0 0 0
0 0 0 0
0 0 0 0
0 0 0 0
0 0 0 0
0 0 0 0
-4056.6362 1295.072 4508.9263 2103307
-4064.8755 1306.3057 4548.0376 2893336
-4026.4585 1302.5957 4535.1211 3880231
-4033.1958 1313.5419 4573.231 4274989
-4023.1411 1319.13 4592.687 2959645
-3882.0056 1281.5223 4461.752 1313796
-3774.8909 1254.7068 4368.3906 1249285
-3626.0183 1213.5455 4225.0835 1380617
-3710.011 1250.2882 4353.0073 1512202
-3684.2253 1250.2909 4353.0166 1512202
-3647.7817 1246.6511 4340.3442 1512202
-3606.178 1241.1836 4321.3086 1512459
-3578.0964 1240.3252 4318.3198 1578252
-3542.7224 1236.9084 4306.4243 1446667
-3487.4492 1226.4442 4269.9917 1380875
-3462.1482 1226.4442 4269.9917 1249289
-3446.9761 1230.059 4282.5767 1249291
-3412.6592 1226.8447 4271.3862 1183496
-3343.9038 1211.1093 4216.6016 1315082
-3300.8765 1204.5255 4193.6797 1446667
-3276.5049 1204.7012 4194.291 1512461
-3246.1016 1202.6449 4187.1318 1512461
-3232.6992 1206.9038 4201.96 1578254
-3212.2732 1208.5864 4207.8184 1578254
-3206.7302 1215.9388 4233.4165 1644046
-3193.2385 1220.3694 4248.8418 1644047
-3143.219 1210.7994 4215.5229 1709840
-3105.7754 1205.9594 4198.6719 1644047
-3093.9226 1211.0582 4216.4238 1775633
-3069.0356 1211.0966 4216.5571 1709841
-3045.0142 1211.4799 4217.8916 1775634
-3022.0623 1212.2983 4220.7417 1775634
-2999.6726 1213.3583 4224.4316 1775633
-2972.2234 1212.3721 4220.998 1841426
-2939.4358 1209.173 4209.8604 1841426
-2916.9761 1210.2043 4213.4507 1841426
-2893.3525 1210.7661 4215.4067 1775633
-2868.8459 1210.9651 4216.0996 1775633
-2855.3711 1215.8652 4233.1597 1775633
-2821.2988 1212.0035 4219.7148 2038805
-2771.8635 1201.4138 4182.8462 1973012
-2758.7065 1206.4994 4200.5518 1841426
-2714.3162 1197.8933 4170.5889 1775633
-2681.8052 1194.4202 4158.4966 1775633
-2659.3779 1195.415 4161.9604 1709840
-2625.5735 1191.2667 4147.5176 1709841
-2596.0903 1189.0189 4139.6919 1709842
-2569.6021 1188.1133 4136.5386 1644049
-2539.345 1185.4307 4127.1987 1644049
-2512.1548 1184.1415 4122.7104 1578256
-2481.3167 1181.0907 4112.0889 1578256
-2450.7002 1178.0859 4101.6274 1578256
-2410.6865 1170.4583 4075.071 1578256
-2382.7212 1168.5853 4068.5503 1446670
-2358.2815 1168.4209 4067.9775 1578256
-2332.2458 1167.4542 4064.6121 1644048
-2305.1799 1165.9462 4059.3616 1709842
-2283.6003 1167.2106 4063.7639 1709841
-2256.7908 1165.8003 4058.8538 1578256
-2253.4612 1176.6194 4096.5215 1578256
-2210.0457 1166.5157 4061.3447 1512463
-2188.8909 1168.0688 4066.752 1446670
-2166.2051 1168.8303 4069.4033 1314827
-2142.271 1168.9279 4069.7427 1183498
-2124.3936 1172.37 4081.7271 1117705
-2119.2576 1183.0039 4118.75 1117450
-2091.4421 1181.0782 4112.0454 1117451
-2044.7881 1168.3431 4067.7068 1117450
-2019.8113 1167.8378 4065.9473 1051912
-1996.7091 1168.4171 4067.9646 1051912
-1973.6996 1169.0657 4070.2227 1117705
-1936.9084 1161.4661 4043.7634 1117705
-1909.1168 1159.1401 4035.6658 1183498
-1887.9058 1160.8014 4041.4497 1183241
-1857.9932 1157.0865 4028.5156 986891
-1835.1827 1157.7554 4030.8442 1184013
-1808.5994 1156.0302 4024.8379 986634
-1788.8345 1158.6753 4034.0474 920841
-1757.0927 1153.5295 4016.1316 920841
-1726.7168 1149.1511 4000.8882 986634
-1699.2184 1146.5928 3991.9807 986634
-1666.9973 1140.7303 3971.5701 986634
-1644.0714 1141.1519 3973.0376 1118220
-1619.6061 1140.5016 3970.7737 1118220
-1592.7833 1138.1476 3962.5776 986634
-1560.5762 1131.8181 3940.541 920841
-1533.509 1129.0807 3931.0105 986634
-1510.3831 1129.2053 3931.4448 986634
-1478.5929 1122.755 3908.9871 920841
-1453.0038 1120.8829 3902.4692 855048
-1426.8159 1118.4808 3894.1062 591876
-1400.7212 1116.0741 3885.7268 657669
-1374.8229 1113.7461 3877.6216 657669
-1347.1013 1109.8368 3864.011 789255
-1313.6404 1100.9819 3833.1819 920841
-1294.558 1104.0784 3843.9626 855048
-1269.4105 1102.0206 3836.7981 920840
-1245.1957 1100.712 3832.2424 723460
-1225.0737 1103.04 3840.3477 526081
-1200.6112 1101.4742 3834.8958 525568
-1178.3121 1101.8708 3836.2769 788740
-1152.0739 1098.5271 3824.635 854533
-1125.6753 1094.8932 3811.9834 1051912
-1105.511 1097.2983 3820.3572 1249291
-1083.1869 1097.6156 3821.4617 1512463
-1060.9908 1098.079 3823.0747 1709842
-1033.5591 1093.0255 3805.4807 1644047
-1014.3402 1096.6259 3818.0156 1709841
-991.51874 1096.4066 3817.2524 1709581
-969.28912 1096.847 3818.7856 1577994
-940.99884 1090.2863 3795.9436 2104339
-921.68622 1094.0607 3809.085 2104339
-895.18311 1089.2751 3792.4238 2104339
-870.2962 1086.2607 3781.9285 2038802
-847.78967 1086.1364 3781.4954 2170132
-825.63251 1086.4648 3782.6394 2235156
-802.84406 1085.9579 3780.874 2300948
-779.07568 1084.0583 3774.2607 2366484
-756.44995 1083.6833 3772.9553 2498070
-732.12073 1080.7709 3762.8149 2104339
-710.90161 1082.4106 3768.5244 2104339
-685.55237 1077.6647 3752.0007 2170132
-658.89532 1070.4756 3726.9712 2301461
-637.1123 1070.9814 3728.7319 2169879
-611.70538 1065.2126 3708.6475 2301461
-591.4444 1068.309 3719.4277 2170132
-566.32898 1062.5374 3699.3333 2235668
-543.68976 1061.1337 3694.446 2235925
-520.94128 1059.39 3688.3755 2301718
-498.71957 1058.6119 3685.6663 2169876
-476.94586 1058.7568 3686.1711 2170133
-453.49808 1055.0212 3673.1653 2103829
-431.18295 1053.677 3668.4849 2170132
-410.11176 1055.391 3674.4524 2170132
-387.6514 1053.5219 3667.9448 1972753
-365.12326 1051.2356 3659.9849 1841167
-343.14429 1050.3416 3656.8721 1906450
-321.51273 1050.4619 3657.2915 1709327
-299.84808 1050.484 3657.3682 1906706
-277.87256 1049.3354 3653.3694 1841425
-257.27377 1053.631 3668.325 1578255
-235.0614 1051.5013 3660.9102 1512463
-213.39427 1051.6257 3661.3433 1578256
-192.03198 1053.4506 3667.6965 1644049
-170.03629 1051.823 3662.0298 1578256
-148.2608 1051.2806 3660.1416 1775635
-126.54872 1051.079 3659.4395 1578256
-104.67777 1049.2017 3652.9033 1512463
-82.979088 1048.5222 3650.5381 1446670
-61.350769 1048.5664 3650.6919 1512463
-39.699387 1048.0498 3648.8936 1578256
-18.071142 1047.6392 3647.4636 1643534
3.543231 1048.1381 3649.2007 1775120
25.146271 1047.3076 3646.3091 1775373
46.66872 1045.4395 3639.8049 1709581
68.230591 1045.3561 3639.5149 1775374
89.606216 1043.1448 3631.8157 1775374
110.57758 1037.9949 3613.8862 1577995
131.99963 1038.0605 3614.1145 1577995
153.40843 1038.0179 3613.9663 1643277
174.55827 1036.4482 3608.5012 1446155
195.73792 1035.3788 3604.7781 986118
217.36067 1036.6332 3609.145 722947
238.04903 1033.6055 3598.604 1314572
258.19357 1028.9087 3582.2515 1314829
279.81268 1030.3552 3587.2876 1249036
300.97726 1030.0419 3586.197 1380622
321.99869 1029.3124 3583.657 1643793
343.93643 1031.4209 3590.9983 1644049
365.04391 1030.9391 3589.3206 1644049
387.36194 1033.7407 3599.075 1512463
409.3678 1035.4606 3605.0625 1578770
430.42093 1034.7195 3602.4822 1315598
451.5542 1034.2318 3600.7847 1184012
471.03888 1030.1826 3586.687 1184012
494.3009 1034.3877 3601.3274 1052427
511.90628 1026.8973 3575.2488 986634
533.09106 1026.8973 3575.2488 855048
552.11792 1022.8995 3561.3298 985864
573.10583 1022.6953 3560.6187 855305
591.57318 1018.1675 3544.855 855048
610.49072 1014.6984 3532.7769 855048
630.80511 1013.7041 3529.3152 855048
651.76257 1013.7739 3529.5581 1118220
669.71442 1009.3096 3514.0151 1249806
690.38171 1009.0836 3513.2283 1184013
711.26801 1009.1815 3513.5691 1381394
730.58942 1007.1166 3506.3801 1249806
749.01819 1003.9694 3495.4229 1249805
768.73993 1002.6781 3490.9272 1249806
790.20172 1003.6647 3494.3618 1184013
806.98065 998.80469 3477.4412 1249806
829.03107 1000.5489 3483.5139 1249806
847.28595 997.73865 3473.73 1381392
869.28363 999.36481 3479.3916 1184013
889.64667 999.07983 3478.3994 1184013
909.67017 998.43506 3476.1545 1184013
929.95178 998.09595 3474.9739 1184013
950.27814 997.81848 3474.0078 1249806
966.26178 993.08954 3457.5435 1184013
984.03729 990.36035 3448.0413 1118220
1004.6088 990.49872 3448.5234 1184013
1025.782 991.2132 3451.0107 1381392
1048.7332 993.58405 3459.2651 1315599
1062.351 987.19116 3437.0076 1447185
1085.6755 989.8891 3446.4006 1381392
1101.6821 985.93805 3432.6448 1381392
1122.9203 986.72748 3435.3933 1447185
1142.9376 986.43512 3434.3755 1578771
1159.6086 983.31537 3423.5137 1512978
1178.129 981.84424 3418.3918 1512978
1198.2024 981.69507 3417.8726 1512978
1209.696 974.63837 3393.304 1381392
1231.4714 975.96075 3397.908 1315599
1251.5452 975.91394 3397.7446 1381649
1276.4161 979.54987 3410.4038 1446415
1295.5259 978.72021 3407.5151 1380621
1309.4641 974.06909 3391.3218 1183243
1323.9796 969.98138 3377.0901 1314829
1342.0035 968.54761 3372.0981 1446415
1362.4048 968.84637 3373.1384 1249805
1385.0815 970.73132 3379.7012 1052427
1404.7112 970.45746 3378.7476 1052427
1424.5223 970.31494 3378.2515 986634
1445.084 970.68048 3379.5239 1052427
1466.108 971.34241 3381.8284 920843
1484.9784 970.57874 3379.1697 920843
1503.3389 969.50659 3375.437 1184014
1516.3845 965.08008 3360.0256 1052428
1535.4707 964.56287 3358.2249 1052428
1556.1356 965.03796 3359.8789 789257
1576.8383 965.52411 3361.5715 920842
1597.1179 965.74249 3362.3318 1183756
1617.3011 965.89771 3362.8723 1184013
1636.902 965.70563 3362.2036 1184012
1652.5071 963.18933 3353.4426 1184013
1671.046 962.42236 3350.7725 1184013
1689.8372 961.81702 3348.665 1184013
1708.0123 960.87933 3345.4001 1184013
1723.7758 958.62177 3337.5403 1184013
1742.2334 957.89673 3335.0161 1184013
1753.1373 953.08148 3318.2512 1184015
1771.1707 952.20593 3315.2029 1249807
1790.8538 952.22675 3315.2754 1184014
1808.7178 951.29034 3312.0151 1184015
1820.4949 947.20703 3297.7988 1117965
1839.3506 946.85437 3296.571 1184015
1859.5458 947.19147 3297.7446 1118222
1874.3517 944.80493 3289.4355 1184014
1898.6576 947.20685 3297.7981 1118222
1916.4651 946.35095 3294.8184 920843
1931.9105 944.35773 3287.8787 1052429
1948.7321 943.07025 3283.396 1184015
1963.085 940.62531 3274.8838 1118222
1978.5338 938.74823 3268.3486 1118222
1991.1653 935.5838 3257.3313 1184013
2017.0735 938.65851 3268.0361 1184013
2027.5339 934.55432 3253.7471 1249806
2049.5496 935.80359 3258.0964 1249806
2062.9414 933.1286 3248.7834 1381392
2073.1702 929.08563 3234.7073 1381392
2093.7449 929.71069 3236.8835 1315598
2113.6277 930.02002 3237.9604 1052427
2134.147 930.60138 3239.9844 1118219
2151.6418 929.86523 3237.4214 1249806
2157.0037 923.94489 3216.8093 1249805
2180.8059 925.95807 3223.8184 1184013
2197.5205 924.95306 3220.3193 1315599
2217.8733 925.48346 3222.166 1249806
2235.3186 924.80194 3219.7932 1184013
2254.228 924.73254 3219.5515 1315599
2277.0024 926.23645 3224.7876 1249806
2293.0298 924.99371 3220.4607 1118220
2311.8022 924.86975 3220.0291 1052427
2333.835 926.04132 3224.1082 1117707
2351.8547 925.6145 3222.6221 1183243
2369.7168 925.13306 3220.946 1051657
2389.3665 925.35156 3221.7068 920071
2414.9243 927.83661 3230.3586 1249036
2429.5591 926.1189 3224.3782 1117193
2439.5244 922.66187 3212.3423 1117707
2454.334 921.07629 3206.8218 1051914
2471.4517 920.37469 3204.3792 985863
2483.3794 917.76575 3195.2959 1117450
2504.1152 918.42676 3197.5974 1051913
2524.605 918.98828 3199.5525 1249805
2540.3904 917.84192 3195.561 1118220
2552.802 915.50244 3187.416 986634
2563.3062 912.51831 3177.0264 986634
2575.8552 910.30035 3169.3044 986634
2582.0881 905.89856 3153.979 1118220
2591.8718 902.79675 3143.1799 1184013
2599.0671 898.84418 3129.4185 1249806
2602.7227 893.73199 3111.6201 1315599
2597.6917 885.72998 3083.76 1249806
2600.3599 880.44666 3065.3655 1184013
2613.4348 878.7356 3059.4084 1315599
2623.3118 875.98035 3049.8157 1381392
2604.8955 863.87964 3007.686 1447185
2568.6086 846.05719 2945.6353 1512978
2527.2498 826.81592 2878.6448 1249806
2516.0334 817.62799 2846.656 1118222
2621.5496 846.24402 2946.2856 1315598
2620.2593 840.23212 2925.3545 1117963
2626.3191 836.64056 2912.8503 1118220
2634.3984 833.73523 2902.7349 1118220
2658.5625 835.92493 2910.3586 1184013
2673.6196 835.24139 2907.9788 1052429
2676.2048 830.69537 2892.1514 1118222
2709.3572 835.63483 2909.3486 1052428
2754.7578 844.26569 2939.3979 1052428
2770.8201 843.85309 2937.9614 1052427
2789.1719 844.13855 2938.9551 1052170
2815.7051 846.88116 2948.5039 1052426
0 0 0 0
0 0 0 0
0 0 0 0
0 0 0 0
0 0 0 0
0 0 0 0
-3947.3389 1286.1764 4387.4429 2893337
-3927.7517 1288.2789 4394.6152 2169615
-3890.011 1284.4154 4381.436 1511685
-3819.2051 1269.5093 4330.5874 1380615
-3651.3435 1221.9216 4168.2554 1380616
-3627.3889 1222.1724 4169.1104 1380359
-3610.6343 1224.8689 4178.3091 1314823
-3573.9683 1220.8013 4164.4336 1511947
-3550.968 1221.3778 4166.3999 1577740
-3538.678 1225.6718 4181.0479 1643534
-3520.0725 1227.8236 4188.3882 1446669
-3485.2754 1224.318 4176.4297 1512461
-3463.8638 1225.4982 4180.4556 1578254
-3425.502 1220.6552 4163.9351 1315082
-3394.262 1218.298 4155.894 1183496
-3359.8611 1214.7637 4143.8379 1315082
-3341.1357 1216.8865 4151.0791 1315082
-3324.2751 1219.725 4160.7617 1315082
-3283.0557 1213.6016 4139.8735 1380875
-3227.1519 1201.9167 4100.0142 1512461
-3208.2126 1203.9264 4106.8696 1512461
-3157.5818 1193.9829 4072.95 1512461
-3132.2329 1193.5201 4071.3711 1578254
-3125.6853 1200.2697 4094.3953 1512461
-3082.9897 1193.1354 4070.0586 1578253
-3056.3423 1192.1482 4066.6912 1644046
-3034.3997 1192.9951 4069.5803 1709840
-3005.3591 1191.0426 4062.9199 1907219
-2994.0408 1196.1388 4080.3042 1973012
-2964.6016 1194.0197 4073.075 1907219
-2943.7195 1195.3403 4077.5803 1907219
-2938.792 1203.2151 4104.4429 1973012
-2916.8176 1204.1837 4107.7471 2038805
-2888.4346 1202.5005 4102.0054 2038805
-2866.0002 1203.2864 4104.686 1973012
-2846.5718 1205.3584 4111.7544 1907219
-2813.113 1201.474 4098.5039 1907219
-2796.1077 1204.6104 4109.2026 1973012
-2770.7212 1204.1594 4107.6641 1841426
-2741.7151 1202.1132 4100.6841 1973012
-2708.3308 1198.0938 4086.9729 1841426
-2682.4492 1197.3508 4084.4385 1709840
-2651.0208 1194.0957 4073.3347 1644047
-2617.1824 1189.6853 4058.2898 1578255
-2580.1348 1183.7208 4037.9436 1512462
-2556.3645 1183.7933 4038.1907 1512462
-2525.2539 1180.4357 4026.7373 1512463
-2498.9414 1179.2783 4022.7893 1512463
-2474.9919 1179.2246 4022.606 1380877
-2449.3828 1178.3713 4019.6953 1380877
-2418.2676 1174.8264 4007.6028 1315083
-2386.374 1170.8292 3993.9675 1183498
-2362.8418 1170.8955 3994.1936 1249291
-2334.6099 1168.6106 3986.3989 1446670
-2303.1716 1164.6576 3972.9146 1380877
-2278.9497 1164.3098 3971.7283 1446670
-2251.6875 1162.3851 3965.1626 1512462
-2228.978 1162.795 3966.561 1578256
-2207.9758 1164.1139 3971.0598 1446670
-2184.8601 1164.3346 3971.8127 1446670
-2162.2581 1164.8372 3973.5269 1380877
-2138.9734 1164.9786 3974.0098 1315084
-2150.6208 1184.3608 4040.1267 1249291
-2089.3682 1163.5807 3969.2412 1315084
-2069.2051 1165.4712 3975.6899 1249291
-2039.4734 1161.9537 3963.6909 985864
-2001.5471 1153.631 3935.3003 985864
-1998.5996 1165.5105 3975.8237 1249291
-1970.9089 1163.0718 3967.5051 1183498
-1945.6725 1162.0403 3963.9861 1183498
-1920.0453 1160.7471 3959.575 1183241
-1896.8077 1160.8845 3960.0437 1183498
-1876.7786 1163.0134 3967.3062 1249291
-1852.9166 1162.7914 3966.5483 1249291
-1829.387 1162.7747 3966.4915 986891
-1793.8553 1155.0298 3940.0715 1118220
-1768.7949 1153.9117 3936.2576 1052427
-1742.8059 1152.1497 3930.2473 1184013
-1721.2673 1153.322 3934.2463 1118220
-1687.7494 1146.3898 3910.5986 920841
-1656.4797 1140.8129 3891.5747 789255
-1636.922 1143.2584 3899.9167 855048
-1603.6465 1136.0558 3875.3472 723462
-1576.6294 1133.1421 3865.408 789255
-1555.239 1134.2461 3869.1738 723462
-1534.2942 1135.713 3874.1777 591876
-1498.8293 1126.313 3842.1123 789255
-1473.3408 1124.2356 3835.0259 591876
-1445.8937 1120.5752 3822.5393 855048
-1419.7297 1117.8087 3813.1021 920841
-1396.483 1117.2867 3811.3213 789255
-1372.239 1115.9363 3806.7148 789255
-1346.5803 1113.3712 3797.9648 789255
-1321.7264 1111.3956 3791.2258 855048
-1298.4236 1110.6786 3788.7798 855048
-1272.1322 1107.3348 3777.3735 920841
-1247.0614 1104.9528 3769.2478 789255
-1223.8545 1104.1655 3766.5623 855048
-1205.0962 1107.4371 3777.7227 986633
-1183.1847 1107.88 3779.2332 1380877
-1150.6095 1098.1625 3746.0842 1380876
-1128.7582 1098.499 3747.2322 1249291
-1105.8632 1097.8127 3744.8914 1314827
-1080.056 1094.1483 3732.3914 1315083
-1053.2769 1089.3256 3715.9397 1380877
-1030.1698 1088.1758 3712.0173 1446670
-1007.1795 1087.1017 3708.3533 1446667
-981.99072 1083.5537 3696.2505 1644047
-966.60828 1090.9114 3721.3494 1709580
-946.73883 1093.4304 3729.9421 1512201
-932.30695 1102.5 3760.8806 1248774
-904.02454 1095.2338 3736.094 1182727
-883.1449 1096.7964 3741.4243 920068
-859.5816 1095.0208 3735.3674 854018
-836.95142 1094.3713 3733.1519 1248776
-806.72083 1083.4789 3695.9954 1972240
-785.63568 1084.6041 3699.8337 2038546
-762.15369 1082.3901 3692.2812 2170132
-738.00122 1079.0649 3680.9382 2104339
-717.03143 1080.3324 3685.2617 2104339
-694.63763 1079.4666 3682.3083 2170132
-670.71271 1076.0881 3670.7837 2235925
-646.00397 1071.1835 3654.0527 2433304
-624.31464 1071.119 3653.833 2367258
-601.00812 1068.1755 3643.7922 2301718
-579.03003 1067.4619 3641.3577 2170132
-555.79663 1064.2889 3630.5342 2104339
-531.92914 1059.5977 3614.531 2104598
-509.99005 1058.5153 3610.8386 2301720
-489.53751 1060.5585 3617.8086 2038805
-465.65582 1055.0195 3598.9138 2038805
-444.33707 1055.0344 3598.9646 1907219
-422.62881 1054.0792 3595.7063 1841170
-400.76575 1052.6161 3590.7153 1709840
-379.91849 1053.8066 3594.7764 1906961
-359.27478 1055.7366 3601.3599 2038546
-337.06302 1053.0116 3592.0642 1841167
-315.94272 1053.5588 3593.9312 1840913
-294.57385 1053.2965 3593.0364 1709583
-273.72708 1055.0055 3598.866 1709328
-251.75229 1052.2883 3589.5969 1446670
-231.00528 1054.6752 3597.7393 1446669
-209.93654 1055.9292 3602.0168 1380877
-187.72005 1051.0406 3585.3411 1512463
-167.25468 1055.9602 3602.1228 1644049
-145.30698 1051.5914 3587.22 1446670
-123.90727 1050.3708 3583.0562 1446670
-102.41093 1047.6569 3573.7983 1380877
-81.175819 1046.897 3571.2061 1446670
-60.05439 1047.5842 3573.5505 1578256
-38.72646 1043.4563 3559.469 1512462
-17.651049 1044.3953 3562.6721 1577741
3.4487758 1041.2435 3551.9207 1643533
24.57255 1044.5259 3563.1177 1643787
45.588783 1042.3157 3555.5781 1577994
66.639755 1042.0459 3554.6577 1643788
87.800209 1043.2064 3558.6167 1643788
108.05206 1035.2125 3531.3474 1577995
129.54895 1039.8055 3547.0154 1446154
150.31615 1038.0769 3541.1187 1446668
170.9738 1036.1082 3534.4026 1380876
191.84911 1035.7439 3533.1604 1380876
211.8703 1031.2939 3517.9805 1314828
232.50214 1030.3473 3514.7512 1183242
253.1411 1029.5853 3512.1519 1249036
273.32562 1027.2312 3504.1216 1314829
294.37164 1028.2186 3507.4897 1380622
315.29449 1028.674 3509.043 1183243
338.44739 1035.8986 3533.688 1446415
357.24591 1029.7302 3512.6462 1314829
378.26263 1030.2828 3514.5312 1512463
398.93799 1029.8965 3513.2134 1381391
419.98224 1030.4535 3515.1135 1249805
439.24066 1026.7833 3502.5938 1249806
458.84427 1024.2148 3493.832 1184013
479.72672 1024.5995 3495.1443 1184013
500.40054 1024.5251 3494.8906 1052427
520.63312 1023.5892 3491.6978 855048
539.7804 1020.6727 3481.7488 854278
558.94043 1017.9941 3472.6116 855048
579.53717 1018.0295 3472.7322 657669
600.07147 1017.9564 3472.4832 855048
618.89557 1015.0833 3462.6819 920841
639.37427 1015.0211 3462.4702 986634
657.75568 1011.7371 3451.2673 920841
676.41077 1009.0592 3442.1326 920841
696.02118 1007.9216 3438.252 1118222
714.46332 1005.2048 3428.9846 1118220
733.87128 1003.9598 3424.7373 1052427
752.84418 1002.2025 3418.7429 1184013
769.92377 998.08295 3404.6902 1118220
796.07605 1005.6348 3430.4512 1249806
810.84222 998.78522 3407.0857 1249806
830.01056 997.55933 3402.9038 1315599
852.3078 1000.0629 3411.4441 1315599
869.20374 996.25964 3398.4705 1184013
886.18933 992.72913 3386.4268 1118220
908.82404 995.54291 3396.0254 1052427
929.24896 995.8667 3397.1299 986634
945.77716 992.08905 3384.2437 855048
968.11719 994.43842 3392.2576 920841
983.34094 989.53094 3375.5173 1052427
1002.3908 988.59259 3372.3164 1184013
1021.331 987.5849 3368.8789 1315599
1040.2428 986.58899 3365.4814 1381392
1057.1185 983.73566 3355.7483 1315599
1077.0127 983.74481 3355.7795 1381391
1096.3801 983.28125 3354.198 1447185
1114.3126 981.57007 3348.3611 1447185
1132.41 980.06158 3343.2151 1512978
1151.9998 979.87433 3342.5764 1447185
1172.4509 980.41382 3344.4165 1512978
1185.1874 974.59143 3324.5552 1381392
1203.2836 973.29462 3320.1313 1381392
1222.6552 973.05463 3319.3127 1249806
1242.2019 972.95947 3318.9883 1446415
1268.2781 977.90173 3335.8474 1512208
1279.3022 971.26471 3313.2068 1380622
1298.9464 971.27374 3313.2378 1380622
1322.4893 974.15424 3323.064 1511951
1336.8213 970.26514 3309.7971 1249806
1358.1942 971.52478 3314.094 1118220
1372.5199 967.77948 3301.3179 986634
1392.2942 967.92731 3301.8223 920842
1415.7667 970.60651 3310.9617 920843
1432.5975 968.72131 3304.5308 920842
1452.557 968.974 3305.3926 920843
1465.9449 964.89441 3291.4766 1052429
1485.6873 965.04968 3292.0061 1052429
1506.319 965.77118 3294.4673 1052427
1523.9403 964.56873 3290.3655 1052427
1542.6774 964.09406 3288.7461 789256
1565.988 966.45374 3296.7957 1184012
1580.5344 963.41296 3286.4229 1184013
1599.0698 962.84814 3284.4961 1447185
1618.838 963.03033 3285.1177 1447185
1636.6913 962.08252 3281.8845 1512978
1651.7629 959.54114 3273.2151 1447185
1664.6571 955.80859 3260.4824 1052427
1691.0942 959.84833 3274.2629 1118220
1706.9036 957.83264 3267.387 1118220
1719.329 953.98456 3254.2605 1117965
1736.3832 952.76172 3250.0891 1249808
1754.2057 951.98273 3247.4316 1118222
1774.231 952.40295 3248.8652 1184015
1788.944 949.99316 3240.6448 1381394
1808.1593 950.00012 3240.6685 1315601
1821.8624 947.1413 3230.9165 1381394
1844.2207 948.79474 3236.5566 1249808
1866.026 950.13251 3241.1201 1249807
1879.8916 947.44153 3231.9407 1249808
1897.3438 946.59418 3229.0503 1249808
1909.576 943.18561 3217.4226 1249808
1926.799 942.28497 3214.3503 1249808
1945.1654 941.95575 3213.2273 1249807
1955.6774 937.86609 3199.2766 1249807
1968.8197 935.10449 3189.856 1249806
1988.5779 935.50757 3191.2312 1249806
2002.8912 933.36584 3183.9253 1249806
2020.3142 932.69958 3181.6526 1381392
2037.9341 932.13574 3179.7292 1249806
2056.9167 932.20001 3179.9482 1184013
2074.7769 931.75885 3178.4434 1249805
2091.2515 930.70892 3174.8618 1184013
2110.3855 930.85089 3175.3459 986634
2129.0957 930.80487 3175.1892 920841
2146.0217 929.98657 3172.3979 855048
2168.552 931.59009 3177.8677 920841
2184.7676 930.47662 3174.0693 920841
2204.4116 930.82977 3175.2739 1052427
2221.7742 930.22174 3173.2 1052427
2239.8169 929.90625 3172.1238 1118220
2259.7783 930.38611 3173.7607 1184013
2274.0022 928.51526 3167.3787 1249805
2295.9973 929.82214 3171.8369 1183756
2314.041 929.52063 3170.8081 1183243
2337.3003 931.30212 3176.8853 1183757
2347.708 927.97522 3165.5366 1183757
2376.3528 931.85242 3178.7627 1118477
2391.4243 930.38812 3173.7676 1184269
2389.8516 922.52173 3146.9333 1118476
2397.0906 918.15216 3132.0278 1249806
2425.4192 921.86566 3144.6953 1052427
2437.9963 919.58124 3136.9028 1184012
2471.2446 925.06927 3155.6238 1381392
2486.3894 923.74908 3151.1201 1381393
2500.0291 921.89343 3144.7903 1249807
2523.2327 923.56604 3150.4958 1052428
2535.9077 921.38867 3143.0681 1249806
2542.0176 916.87488 3127.6709 1249806
2549.0811 912.76801 3113.6614 1118220
2554.8804 908.27081 3098.3203 1315598
2560.7859 903.87512 3083.3257 1315599
2562.4033 898.03906 3063.4175 1512978
2576.3523 896.57629 3058.4277 1512978
2583.4954 892.78223 3045.4851 1447185
2579.802 885.32184 3020.0361 1447185
2544.4895 867.18823 2958.1782 1512978
2551.1545 863.51129 2945.6353 1644564
2507.7939 843.06671 2875.894 1512978
2495.3237 833.21265 2842.2795 1512978
2515.1799 834.21246 2845.6904 1578772
2411.9939 794.66125 2710.772 1315599
2557.1577 836.91388 2854.9055 1249805
2579.03 838.52515 2860.4019 1052427
2534.0234 818.51294 2792.1357 986634
2598.7688 833.98126 2844.9016 1052427
2619.3191 835.15887 2848.9187 1052170
2647.9553 838.88287 2861.6223 986633
2667.6211 839.7359 2864.532 986634
2684.23 839.62183 2864.1428 1249805
2708.6067 841.92365 2871.9949 1381391
2716.8093 839.20074 2862.7065 1315600
2734.9849 839.57312 2863.9766 1184015
0 0 0 0
0 0 0 0
0 0 0 0
0 0 0 0
0 0 0 0
0 0 0 0
-3693.6687 1227.8488 4105.4902 1183235
-3668.0269 1227.4086 4104.0186 1643787
-3642.5681 1227.0243 4102.7334 1512202
-3604.4988 1222.3585 4087.1326 1446409
-3536.3984 1207.3763 4037.0378 1446409
-3568.3191 1226.5713 4101.2188 1511947
-3542.0627 1225.8948 4098.9565 1511948
-3475.719 1211.2389 4049.9529 1643534
-3449.2244 1210.3627 4047.0227 1775120
-3468.1343 1225.5186 4097.6987 1709070
-3391.5713 1206.9135 4035.49 1512204
-3415.7458 1224.1469 4093.1123 1183496
-3349.5552 1209.0096 4042.4988 1183496
-3312.5227 1204.2549 4026.6006 1446668
-3284.2239 1202.6292 4021.1648 1315082
-3267.3591 1205.1974 4029.7517 1249289
-3242.1736 1204.7113 4028.127 1249291
-3220.6287 1205.5811 4031.0352 1315082
-3188.9814 1202.6539 4021.2478 1315082
-3160.0977 1200.7328 4014.8237 1446668
-3099.1426 1186.5039 3967.2476 1380875
-3044.9241 1174.6564 3927.6335 1315082
-3020.2139 1174.0975 3925.7651 1249289
-3002.6157 1176.3164 3933.1841 1183496
-2983.2029 1177.8534 3938.3232 1249289
-2965.0137 1179.9016 3945.1719 1380875
-2943.3701 1180.5967 3947.4961 1644047
-2917.6904 1179.6711 3944.4014 1841426
-2899.8167 1181.9122 3951.8948 1841426
-2882.3601 1184.3612 3960.0833 1907219
-2866.405 1187.4723 3970.4858 1841426
-2842.9465 1187.501 3970.5813 1907219
-2855.7576 1202.806 4021.7563 1973012
-2833.5757 1203.5062 4024.0977 1907219
-2809.2715 1203.3093 4023.439 1973012
-2785.0286 1203.1355 4022.8577 1907219
-2761.6003 1203.3136 4023.4534 1841170
-2733.9456 1201.6372 4017.8479 1841426
-2689.0942 1192.3066 3986.6499 1709840
-2660.8462 1190.2375 3979.7317 1709840
-2638.4392 1190.7676 3981.5039 1644047
-2608.9797 1188.0956 3972.5698 1644047
-2582.8381 1186.8997 3968.571 1775633
-2559.8054 1187.1235 3969.3196 1644046
-2530.0813 1184.2196 3959.6096 1644047
-2510.1318 1185.8793 3965.1589 1578256
-2479.6936 1182.568 3954.0872 1578255
-2447.4062 1178.3033 3939.8279 1512463
-2421.0386 1176.8341 3934.9153 1512463
-2399.3535 1177.6346 3937.5918 1512462
-2376.272 1177.7587 3938.0066 1512463
-2341.2793 1171.9231 3918.4946 1380877
-2313.3899 1169.5616 3910.5989 1380876
-2288.5476 1168.7087 3907.7468 1380877
-2260.4724 1166.1703 3899.2593 1380877
-2246.6821 1171.0251 3915.4924 1446670
-2215.3643 1166.7504 3901.1987 1512462
-2192.6152 1166.9457 3901.8518 1446670
-2162.0315 1162.931 3888.4282 1380877
-2136.6108 1161.6371 3884.1018 1380877
-2114.6965 1162.2419 3886.1243 1380877
-2094.8372 1164.002 3892.009 1315083
-2072.1914 1164.2356 3892.7903 1249291
-2047.3673 1163.2369 3889.4512 1249034
-2023.8887 1162.9886 3888.6211 1183241
-1990.0305 1156.7015 3867.5991 1051912
-1964.3945 1155.1028 3862.2534 1117449
-1951.022 1160.7623 3881.1772 1051912
-1925.3982 1159.1813 3875.8906 1051912
-1902.1104 1158.9854 3875.2354 1051912
-1878.0725 1158.3219 3873.0173 986119
-1853.146 1157.0873 3868.8892 986119
-1828.337 1155.8961 3864.9062 1051912
-1802.0933 1153.7561 3857.7505 1117705
-1777.8888 1152.8834 3854.8328 855048
-1755.8767 1153.4282 3856.6543 789255
-1727.4382 1149.7102 3844.2227 657669
-1699.1844 1146.0173 3831.8752 591876
-1670.4825 1141.9183 3818.1694 526083
-1651.7162 1144.5917 3827.1082 526083
-1623.5222 1140.7156 3814.1477 657669
-1595.3185 1136.7228 3800.7976 657669
-1570.9308 1135.374 3796.2874 460290
-1543.7009 1131.9017 3784.6775 394497
-1516.9485 1128.6825 3773.9133 394497
-1495.801 1129.5996 3776.98 526084
-1479.2025 1134.0321 3791.8008 855048
-1455.2898 1132.9075 3788.04 855048
-1424.0763 1125.975 3764.8604 920841
-1396.0624 1121.392 3749.5364 1052427
-1371.1377 1119.1823 3742.1479 920841
-1343.6143 1114.7438 3727.3071 789255
-1321.9095 1115.0653 3728.3823 1052427
-1296.0294 1111.8156 3717.5166 986634
-1274.4144 1112.1759 3718.7212 855048
-1249.1438 1109.3024 3709.1133 591876
-1223.6428 1106.1178 3698.4651 920841
-1202.6697 1106.9846 3701.3635 920841
-1174.7457 1101.3671 3682.5803 1052427
-1153.288 1101.7137 3683.7395 1183242
-1131.0614 1101.3253 3682.4407 1249035
-1107.1068 1099.2059 3675.354 1051656
-1082.6697 1096.5127 3666.3491 986119
-1055.3986 1090.7803 3647.1819 1051912
-1032.0947 1088.9941 3641.2097 986119
-1010.6342 1089.1182 3641.6243 1183498
-989.27045 1089.3542 3642.4136 1446670
-964.76074 1086.0592 3631.3962 1644047
-940.09625 1082.4358 3619.2808 1644046
-921.41663 1085.6951 3630.1785 1512461
-898.5788 1084.0934 3624.8232 1644047
-885.53644 1094.5205 3659.6877 1906961
-861.69977 1091.7943 3650.5725 1972498
-839.20581 1090.673 3646.823 2038548
-813.77704 1085.5773 3629.7849 2170390
-794.30249 1088.3634 3639.1008 2235668
-766.67603 1079.8235 3610.5461 2104339
-748.60291 1084.6349 3626.634 2104339
-727.71332 1085.5295 3629.625 2170132
-701.4137 1078.1626 3604.9927 2038546
-681.01306 1079.6852 3610.084 1775373
-659.0849 1078.8063 3607.145 2038546
-636.35779 1076.5168 3599.49 2235925
-610.44452 1068.4919 3572.6575 2169622
-585.6687 1061.9526 3550.7922 2103829
-565.54492 1063.6755 3556.5535 2038292
-543.00018 1060.8024 3546.9465 2038292
-520.96161 1058.7264 3540.0054 2038292
-498.67361 1055.9481 3530.7156 2038549
-477.3916 1055.1499 3528.0469 2038548
-457.06598 1056.4895 3532.5256 2038548
-440.05411 1065.9846 3564.2742 1709327
-414.22571 1054.0034 3524.2131 1511948
-393.75867 1055.1165 3527.9348 1117191
-373.74719 1057.6433 3536.3838 1446155
-353.61069 1060.0956 3544.583 1314569
-332.83075 1060.8068 3546.9612 1380362
-309.79752 1053.948 3524.0278 1709326
-288.89639 1053.8757 3523.7861 1643534
-267.53223 1051.9713 3517.4182 1446670
-246.81812 1052.5171 3519.2434 1512463
-226.11879 1053.2325 3521.6355 1446670
-205.13463 1052.6318 3519.6272 1446670
-184.27065 1052.5818 3519.4597 1512462
-163.55237 1053.4573 3522.3872 1446670
-141.82875 1047.1664 3501.3525 1315084
-121.21212 1048.2932 3505.1199 1249290
-100.22783 1046.0487 3497.6155 1051912
-79.27108 1042.9965 3487.4099 1183241
-58.636398 1043.5237 3489.1726 1117703
-37.897079 1041.7488 3483.2378 1051910
-17.269131 1042.4512 3485.5864 1248776
3.3803444 1041.2118 3481.4426 1249030
23.978516 1039.8772 3476.9802 1446408
44.475197 1037.4088 3468.7268 1249029
65.164604 1039.5754 3475.9709 919555
85.346848 1034.5536 3459.1797 1117191
106.15805 1037.6244 3469.4475 985604
125.82929 1030.3641 3445.1719 919811
146.26801 1030.5381 3445.7534 657154
166.37808 1028.6377 3439.3989 854533
187.09001 1030.4669 3445.5154 459776
207.34267 1029.6554 3442.802 393984
227.04195 1026.4874 3432.2095 920327
248.14478 1029.6643 3442.8315 1051656
268.23254 1028.4664 3438.8267 1314828
288.05966 1026.509 3432.2815 1446415
308.62228 1027.2579 3434.7856 1314828
329.27496 1028.1952 3437.9197 1380622
350.07315 1029.4513 3442.1196 1314572
370.09283 1028.4058 3438.6235 1314829
390.84592 1029.401 3441.9514 1447185
410.26093 1026.9479 3433.7493 1381392
429.59439 1024.5323 3425.6726 1381393
451.03934 1027.1432 3434.4021 1710357
469.45847 1022.9354 3420.3328 1249806
488.51645 1020.4103 3411.8899 1052427
508.52866 1019.9999 3410.5176 920841
528.58868 1019.7132 3409.5588 920071
546.7724 1015.9612 3397.0134 855048
570.40228 1022.2357 3417.9934 920841
585.3642 1013.0787 3387.3752 789255
604.76959 1011.9639 3383.6479 789255
624.58044 1011.5775 3382.3557 920841
643.29926 1009.5014 3375.4141 855048
662.75647 1008.6743 3372.6484 986634
680.31372 1005.0886 3360.6592 920843
699.18781 1003.5969 3355.6716 986634
717.86261 1001.9097 3350.03 789255
737.98706 1002.282 3351.2751 789256
757.61591 1001.9795 3350.2634 855048
774.04584 997.56958 3335.5183 789255
791.02844 994.07391 3323.8301 1184013
814.5072 998.71338 3339.3428 1381392
835.15759 999.74701 3342.7988 1315599
852.34283 996.68066 3332.5464 1249806
871.3089 995.78864 3329.5635 1118220
891.06976 995.82428 3329.6826 986634
910.32611 995.30664 3327.9519 723462
924.17181 989.02081 3306.9343 986634
946.63098 992.02228 3316.9702 1249806
964.40247 990.08936 3310.5071 1249806
982.03894 988.09747 3303.8469 1249806
1000.4919 986.98907 3300.1409 1447185
1018.6835 985.6701 3295.7307 1249806
1035.6458 983.23364 3287.5842 1315598
1054.2196 982.38898 3284.76 1249806
1071.6959 980.5708 3278.6804 1184012
1091.744 981.12854 3280.5454 1184012
1108.6725 978.91217 3273.1348 1315599
1123.3605 974.828 3259.4785 1381392
1140.0867 972.62042 3252.0972 1447185
1158.8185 972.16895 3250.5879 1381392
1176.4821 970.85077 3246.1802 1381391
1195.7179 970.8515 3246.1826 1381391
1212.2841 968.71893 3239.052 1446158
1231.4523 968.69965 3238.9875 1446414
1250.6927 968.73694 3239.1123 1446415
1267.7396 967.09967 3233.6379 1380622
1288.246 968.11108 3237.0198 1380622
1307.123 967.88629 3236.2681 1249806
1326.1863 967.80389 3235.9924 1249806
1345.6133 967.98547 3236.5996 1184013
1363.7773 967.26624 3234.1948 1118220
1383.8856 967.92664 3236.4031 1117965
1402.5382 967.56494 3235.1936 1052429
1420.9625 967.05756 3233.4971 1052429
1437.1227 965.04333 3226.7622 1052429
1452.6105 962.63641 3218.7144 1052428
1472.3567 963.07727 3220.1882 1052429
1493.9683 964.71136 3225.6523 1118221
1508.428 961.74445 3215.7317 1118221
1530.6487 963.73798 3222.3975 1315599
1550.1392 963.98444 3223.2217 1184013
1567.9375 963.18561 3220.5505 1381392
1587.1188 963.24524 3220.75 1710357
1605.6136 962.89172 3219.5679 1710357
1624.4653 962.75806 3219.1211 1381392
1631.635 955.78442 3195.8035 1644564
1646.9818 953.70581 3188.8535 1381392
1667.5114 954.64136 3191.9817 1315599
1681.4636 951.83282 3182.5908 1315601
1704.9873 954.44452 3191.3235 1249808
1723.6732 954.32056 3190.9089 1315601
1738.738 952.21613 3183.8726 1249808
1759.8561 953.43634 3187.9526 1315601
1771.3566 949.47559 3174.7092 1381394
1788.5988 948.64325 3171.9263 1381394
1803.5358 946.61835 3165.1555 1315601
1820.8231 945.85602 3162.6067 1381394
1836.354 944.20618 3157.0901 1381394
1852.5585 942.93237 3152.8311 1315601
1871.3385 942.98193 3152.9966 1315601
1887.2661 941.6073 3148.4004 1381394
1898.9647 938.17029 3136.9082 1315601
1920.476 939.60077 3141.6912 1118222
1935.3063 937.76648 3135.5581 1249806
1950.4564 936.12061 3130.0547 1315599
1967.6932 935.49774 3127.9724 1315599
1981.6074 933.32166 3120.696 1381391
2000.8302 933.66296 3121.8372 1184013
2017.7081 932.91376 3119.3323 1184013
2030.2296 930.18231 3110.1992 1184013
2054.2332 932.71332 3118.6619 1118220
2073.5312 933.08167 3119.8938 1249805
2091.8159 932.99158 3119.5925 1249806
2117.4744 936.16315 3130.1973 1184013
2139.0034 937.46991 3134.5664 1118220
2157.6694 937.51007 3134.7007 1118220
2174.001 936.54376 3131.47 1052427
2190.99 935.87488 3129.2332 1249806
2200.5427 932.06732 3116.5022 1381392
2223.7288 934.04974 3123.1306 1512978
2235.9294 931.42322 3114.3484 1315599
2257.2756 932.61829 3118.3442 1315599
2247.3442 920.97607 3079.417 1512208
2289.4272 930.66571 3111.8154 1183242
2311.4192 932.09851 3116.6064 1117450
2324.0298 929.75549 3108.7722 1380622
2336.187 927.26941 3100.4597 1249036
2343.3027 922.83679 3085.6384 1249805
2359.3804 921.97473 3082.7559 1184012
2381.3552 923.41266 3087.564 1184013
2398.7827 923.0788 3086.4478 1118220
2417.0396 923.06677 3086.4075 1184013
2438.9534 924.44098 3091.0022 1184012
2451.8853 922.41559 3084.2302 1184013
2477.1201 925.01447 3092.9199 1447186
2492.1265 923.78363 3088.8044 1381392
2519.2634 927.03455 3099.6743 1512978
2505.8887 915.4389 3060.9026 1447185
2519.6736 913.86041 3055.6248 1315599
2524.2078 908.97327 3039.2837 1315599
2520.2859 901.13184 3013.0649 1447185
2507.5593 890.27472 2976.7625 1512978
2504.9812 883.14722 2952.9307 1512978
2522.4785 883.14722 2952.9307 1644564
2533.7004 880.96539 2945.6353 1512978
2551.1545 880.96539 2945.6353 1578771
2478.4819 850.0542 2842.2795 1710357
2492.2197 848.99689 2838.7441 1710357
2478.7905 838.76105 2804.519 1644563
2473.1094 831.26587 2779.458 1512978
2392.1665 798.74005 2670.7031 1578771
2465.1133 817.68762 2734.0571 1512978
2459.4683 810.48877 2709.9866 1512978
2446.6797 801.04449 2678.4082 1381392
2462.5505 801.04449 2678.4082 1249806
2503.5476 809.16553 2705.5623 1315598
2542.1162 816.40332 2729.7627 1249805
2637.3567 841.63477 2814.1277 1184013
2601.4343 824.95532 2758.3577 1249806
2642.1143 832.62439 2784.0002 1249806
2666.9021 835.22119 2792.6829 1249807
0 0 0 0
0 0 0 0
0 0 0 0
0 0 0 0
0 0 0 0
0 0 0 0
-3538.9976 1199.741 3933.574 1709581
-3530.1853 1204.6876 3949.7927 1577995
-3480.1567 1195.5414 3919.8052 1380359
-3475.9844 1202.131 3941.4099 1380872
-3436.8152 1196.6246 3923.3567 1446665
-3425.6572 1200.8627 3937.2517 1380362
-3432.9409 1211.6677 3972.6782 1315081
-3392.5286 1205.6714 3953.0181 1051910
