# .PCD v0.7 - Point Cloud Data file format
VERSION 0.7
FIELDS x y z rgb
SIZE 4 4 4 4
TYPE F F F U
COUNT 1 1 1 1
WIDTH 1296
HEIGHT 1
VIEWPOINT 0 0 0 1 0 0 0
POINTS 1296
DATA ascii
-1643.5359 1185.0269 2548.5212 196864
-1627.9768 1184.6937 2547.8047 262144
-1617.9611 1188.4258 2555.8308 262144
-1605.8385 1190.6663 2560.6492 262144
-1588.4729 1189.025 2557.1196 262144
-1598.8303 1208.3036 2598.5801 196608
-1597.2872 1218.8756 2621.3164 131840
-1585.8413 1222.0248 2628.0889 723714
-1577.7866 1227.8751 2640.6709 855561
-1556.0094 1223.0566 2630.3081 1974041
-1551.03 1231.4778 2648.4187 1842455
-1531.6678 1228.5347 2642.0894 2237214
-1526.0121 1236.6383 2659.5168 2171421
-1512.9512 1238.8472 2664.2673 1974042
-1497.7524 1239.334 2665.3142 1842456
-1471.7764 1230.8181 2647 1974042
-1456.198 1230.9078 2647.1929 2105627
-1438.6847 1229.3461 2643.8342 2303007
-1416.7719 1223.9493 2632.2278 2039581
-1405.6899 1227.8934 2640.71 1710616
-1391.5281 1229.2054 2643.5317 1710616
-1376.1219 1229.4358 2644.0271 1776409
-1366.4579 1234.8606 2655.6936 1776409
-1349.8215 1234.0375 2653.9236 1710616
-1330.7968 1230.9857 2647.3604 1644823
-1316.709 1232.4822 2650.5789 1644823
-1299.8656 1231.4045 2648.2612 1644823
-1280.8705 1228.2372 2641.4495 1513237
-1272.4922 1235.298 2656.6345 1513237
-1256.516 1235.0674 2656.1384 1513237
-1236.8649 1231.173 2647.7632 1381651
-1226.687 1236.7294 2659.7126 1579030
-1212.6274 1238.4658 2663.447 1381651
-1188.7749 1230.1146 2645.4871 1381651
-1176.47 1233.6492 2653.0884 1381651
-1151.7354 1224.0688 2632.4851 1381651
-1143.0756 1231.5448 2648.5627 1381651
-1126.3018 1230.3651 2646.0256 1710616
-1114.9819 1235.194 2656.4106 1644823
-1096.8867 1232.5477 2650.7197 1776409
-1081.303 1232.6876 2651.0208 1973788
-1066.9207 1234.2217 2654.3198 1907995
-1052.2875 1235.5071 2657.084 1842202
-1034.0052 1232.4818 2650.5781 1776409
-1019.6908 1234.1659 2654.1997 2105374
-1005.4944 1236.0477 2658.2468 2302753
-991.0022 1237.6199 2661.6279 2171167
-975.91577 1238.489 2663.4971 2039581
-957.62823 1235.2574 2656.5471 2039581
-941.45929 1234.6964 2655.3406 2039581
-925.54535 1234.4563 2654.8242 2039581
-905.57922 1228.7098 2642.4658 1973788
-892.25464 1231.931 2649.3936 2105374
-876.71826 1232.1593 2649.8843 2039581
-856.16925 1225.2224 2634.9658 2236960
-838.76654 1222.614 2629.3562 2236960
-820.48285 1218.5984 2620.7202 2171167
-806.10675 1220.3435 2624.4731 2105374
-790.72418 1220.6036 2625.0327 1973788
-774.24921 1219.1539 2621.915 1907995
-758.58618 1218.9497 2621.4758 1842202
-743.51477 1219.7074 2623.1052 2105373
-727.03571 1218.1389 2619.7322 1973788
-713.16394 1220.9659 2625.8118 2105374
-697.4574 1220.7076 2625.2563 2171167
-679.67474 1216.7211 2616.6829 2236960
-663.34625 1215.2123 2613.438 2236960
-649.30212 1217.9163 2619.2532 2171167
-634.20844 1218.7357 2621.0154 2039581
-619.40039 1220.1589 2624.0764 2105374
-603.76825 1219.9904 2623.7139 2105374
-589.53143 1222.7069 2629.5559 2039581
-574.54584 1223.9756 2632.2844 2105887
-557.70123 1221.2445 2626.4109 2171680
-543.2359 1223.7161 2631.7263 1908508
-527.35394 1223.0482 2630.29 2040094
-507.01642 1211.6918 2605.8667 2237473
-495.00046 1220.1337 2624.022 2171680
-479.46396 1220.1638 2624.0869 2040094
-463.52307 1219.1324 2621.8689 2105887
-444.55426 1209.7896 2601.7761 2105374
-431.35696 1216.0461 2615.2312 2105374
-416.8396 1218.9086 2621.3875 1973788
-399.53516 1213.5273 2609.8145 1842202
-384.28439 1214.2018 2611.2649 1907995
-369.18015 1215.4152 2613.8743 1842202
-353.57867 1215.0261 2613.0376 2302753
-338.99814 1218.2704 2620.0146 2302753
-323.52274 1218.4558 2620.4136 2236960
-307.43011 1216.2183 2615.6013 2302752
-292.74048 1219.588 2622.8484 2236960
-277.18326 1219.5184 2622.699 2171167
-261.08792 1216.9326 2617.1377 2368546
-246.46043 1221.2938 2626.5168 2302753
-230.74594 1220.4934 2624.7957 2302753
-214.5699 1216.9595 2617.1956 2236960
-199.05708 1216.9297 2617.1316 2500132
-184.05835 1220.3031 2624.3865 2565925
-168.82535 1222.6028 2629.332 2368546
-153.17731 1222.0586 2628.1619 2302753
-137.66811 1222.6246 2629.3789 2368546
-122.05566 1222.3008 2628.6826 2631718
-105.82427 1214.7776 2612.5032 2565925
-90.346069 1214.8035 2612.5588 2434339
-75.419418 1223.7898 2631.885 2368546
-59.994766 1227.274 2639.3779 2302753
-44.522991 1231.9114 2649.3511 2434339
-28.862677 1233.542 2652.8582 2434339
-13.134208 1232.6768 2650.9971 2500132
2.581912 1236.4589 2659.1311 2302753
18.33547 1236.2661 2658.7163 2302753
34.170986 1239.2236 2665.0769 2302753
49.66954 1231.954 2649.4426 2105374
65.771996 1239.5574 2665.7947 2302753
81.3536 1236.3007 2658.7908 2302753
97.125572 1236.5244 2659.272 2368546
112.80515 1235.6736 2657.4421 2565925
127.74363 1227.9075 2640.7402 2302753
143.87915 1232.087 2649.729 2105374
159.89104 1234.4895 2654.8958 2171167
176.19978 1238.5483 2663.6248 2302753
191.17775 1233.3546 2652.4548 2368546
205.46339 1224.8228 2634.1062 2302752
220.67494 1222.6255 2629.3809 2171166
238.57227 1234.6169 2655.1697 2171167
254.42601 1235.2034 2656.4309 2302753
270.14249 1235.094 2656.1956 2434339
282.87579 1222.1083 2628.2688 2434339
297.79575 1219.432 2622.5129 2565925
316.72446 1232.6222 2650.8799 2500132
333.11951 1235.1714 2656.3623 2565925
349.16171 1236.2415 2658.6633 2500132
364.70105 1235.5155 2657.1021 2434339
379.72519 1233.1764 2652.0715 2368546
395.42322 1233.1246 2651.9604 2368546
412.75745 1237.9844 2662.4119 2171167
428.82373 1238.8235 2664.2163 2105374
444.15466 1237.554 2661.4861 2236960
461.19281 1240.9652 2668.8223 2236960
476.97867 1240.8925 2668.6658 2302753
492.7814 1240.8668 2668.6106 2302753
508.56207 1240.7889 2668.4431 2302752
524.80011 1241.7979 2670.613 2171167
541.36511 1243.4989 2674.2715 2236960
555.52106 1239.7272 2666.1597 2171167
570.78107 1238.5596 2663.6487 2171167
587.05872 1239.6036 2665.894 2302753
604.39935 1242.7787 2672.7224 2302753
619.90765 1242.1201 2671.3062 2302753
635.96576 1242.5686 2672.2708 2105374
646.935 1233.2942 2652.325 2171167
665.77509 1239.1083 2664.8289 2434339
682.91699 1241.5659 2670.1143 2500132
697.5401 1239.4365 2665.5347 2302753
712.18695 1237.4426 2661.2466 2368546
728.03876 1237.5835 2661.5496 2302753
744.83875 1239.296 2665.2324 2236960
761.26483 1240.3282 2667.4524 2236960
777.36151 1240.7925 2668.4509 2302753
793.77881 1241.7401 2670.4888 2236960
808.33789 1239.8003 2666.3171 2434339
823.84729 1239.3646 2665.3801 2368546
839.66882 1239.4061 2665.4695 2434339
857.0932 1241.7683 2670.5496 2368546
872.49707 1241.1705 2669.2639 2302753
887.29401 1239.746 2666.2002 2500132
901.30988 1237.2991 2660.938 2368546
918.10693 1238.6886 2663.9263 2500132
932.73291 1237.1516 2660.6208 2368546
942.40106 1229.199 2643.5178 2302753
957.15759 1228.0349 2641.0144 2368546
975.44458 1231.3649 2648.1758 2368546
991.45709 1231.7637 2649.0334 2302753
999.02917 1221.8274 2627.6643 2368546
1017.0546 1224.7842 2634.0234 2565925
1027.4707 1218.6268 2620.7815 2763304
1044.1052 1219.9183 2623.5588 2960424
1055.9833 1215.6962 2614.4785 3092266
1072.5519 1216.9177 2617.106 3289132
1089.2452 1218.244 2619.9583 3420205
1108.6096 1222.4786 2629.0652 3749170
1121.7455 1219.8226 2623.353 3880756
1139.8875 1222.6088 2629.345 4406842
1152.7681 1219.7526 2623.2024 4538428
1172.3024 1223.9191 2632.1628 5064772
1191.3453 1227.4698 2639.7993 5328201
1192.1035 1212.3335 2607.2471 5525580
1245.2731 1250.2035 2688.6902 5788749
1239.3052 1228.4951 2642.0042 5919822
1254.281 1227.8302 2640.5742 6314581
1269.9274 1227.8302 2640.5742 6578007
1284.1232 1226.4447 2637.5945 6644056
1301.8042 1228.3813 2641.7593 6841435
1313.6346 1224.8165 2634.093 6709849
1330.8951 1226.3392 2637.3677 6643799
1334.6204 1215.4994 2614.0554 6775385
1364.7159 1228.6494 2642.3359 7038043
1382.5328 1230.5719 2646.4705 7630179
1401.8567 1233.7777 2653.3647 7564129
1409.5562 1226.795 2638.3479 7630179
1420.6517 1222.8892 2629.9478 7301215
1438.5378 1224.8496 2634.1641 7367009
1450.4901 1221.7699 2627.541 7367009
1466.4705 1222.1125 2628.2776 7432801
1467.9226 1210.4678 2603.2346 7498336
1508.2903 1230.8219 2647.0081 7564386
1517.0907 1225.262 2635.0508 7630179
1524.4728 1218.6814 2620.8987 7432800
1538.3904 1217.4055 2618.1548 7432800
1553.0258 1216.7174 2616.675 7564129
1606.4053 1246.097 2679.8589 7498336
1597.9182 1227.381 2639.6082 7432800
1625.2362 1236.2634 2658.7107 7366750
1640.8524 1236.1597 2658.4875 7432800
1651.8501 1232.6117 2650.8572 7367007
1669.4771 1234.0304 2653.9084 7235421
1679.8143 1230.0847 2645.4229 7367007
1690.7905 1226.6757 2638.0913 7038042
1708.759 1228.3555 2641.7039 7301213
1731.3116 1233.2703 2652.2734 7433055
1735.5728 1225.184 2634.8833 7301212
1756.4958 1228.8994 2642.8735 7235676
1768.47 1226.3434 2637.3765 7893607
1783.6176 1226.0134 2636.667 8090985
1811.8215 1234.5861 2655.1033 7893606
1833.8358 1238.8296 2664.2295 8090984
1841.7202 1233.5367 2652.8467 8222571
1856.0615 1232.6217 2650.8789 7959399
1889.6229 1244.3793 2676.1646 7696227
1901.0629 1241.4943 2669.9602 7367262
1915.7799 1240.7797 2668.4233 7498848
1919.5907 1233.0709 2651.8447 7564641
1931.29 1230.5134 2646.3447 7630434
1963.8988 1241.2122 2669.3535 6972504
1970.1851 1235.2369 2656.5029 7367262
1990.3163 1237.9675 2662.3755 7630434
2013.9166 1242.7961 2672.76 7762020
2050.9324 1255.7637 2700.6479 7959399
2065.418 1254.8422 2698.666 7762020
2062.6333 1243.5227 2674.3225 7761763
2076.3843 1242.269 2671.6265 7696227
2085.0876 1238.0372 2662.5254 7696227
2115.9673 1246.9377 2681.6667 7630434
2132.1396 1247.1027 2682.0217 7630177
2139.4373 1242.1129 2671.2908 7695970
2144.8779 1236.1265 2658.416 7696227
2162.8303 1237.3851 2661.123 7762020
2176.3418 1236.1034 2658.3665 7498848
2191.918 1236.0044 2658.1536 7498591
2220.3071 1243.0802 2673.3708 7367261
2224.2412 1236.4613 2659.1362 7301470
2246.2539 1239.9146 2666.5627 7169628
2290.9788 1255.7692 2700.6597 7367007
2298.0178 1250.89 2690.1665 7301214
2292.7866 1239.4452 2665.5532 7301214
2307.6248 1238.9315 2664.4487 7235421
2316.9973 1235.5106 2657.0918 7564386
2341.1252 1239.951 2666.6411 7169628
2357.4834 1240.244 2667.2715 7169627
2365.7437 1236.3014 2658.7925 6972249
2374.5024 1232.6699 2650.9824 7169628
2409.6047 1242.6718 2672.4924 7432800
2438.8035 1249.5184 2687.2168 7564386
2440.6292 1242.3425 2671.7844 7564386
2450.5662 1239.3615 2665.3733 7498593
2512.8364 1262.7163 2715.6003 7432800
2533.9712 1265.2347 2721.0166 7629922
2547.3584 1263.8773 2718.0972 7630179
2562.6069 1263.4547 2717.1882 7827558
2551.7515 1250.2474 2688.7847 7695972
2592.3931 1262.2789 2714.6597 7630180
0 0 0 0
0 0 0 0
0 0 0 0
0 0 0 0
0 0 0 0
0 0 0 0
0 0 0 0
0 0 0 0
-2299.7476 1219.79 2590.2747 768
-2337.0718 1247.9155 2650.0002 768
-2327.3552 1251.1332 2656.833 768
-2260.467 1223.4514 2598.0496 768
-2268.1289 1236.0159 2624.731 768
-2268.6838 1244.8544 2643.4998 768
-2209.0002 1220.5322 2591.8506 768
-2248.0349 1250.796 2656.1169 768
-2209.1504 1237.8268 2628.5764 768
-2154.4807 1215.766 2581.7295 768
-2195.1768 1247.589 2649.3069 768
-2138.55 1224.1605 2599.5557 768
-2119.4761 1222.0441 2595.0613 768
-2103.7361 1221.8333 2594.6135 768
-2079.8533 1216.855 2584.042 768
-2050.6716 1208.6799 2566.6819 768
-2032.0397 1206.6471 2562.365 768
-2032.8138 1216.194 2582.6382 768
-2019.8105 1217.5803 2585.5823 768
-2009.0194 1220.3318 2591.425 768
-2005.9558 1227.8556 2607.4021 768
-1997.3279 1232.0636 2616.3381 768
-1955.3536 1215.6069 2581.3916 768
-1929.4585 1208.9656 2567.2883 768
-1894.0446 1196.2069 2540.1948 768
-1893.7847 1205.6235 2560.1917 768
-1876.7545 1204.4299 2557.657 768
-1860.5996 1203.7832 2556.2834 768
-1850.4618 1207.0505 2563.2219 768
-1821.8379 1198.214 2544.457 768
-1760.5516 1167.5686 2479.3804 768
-1743.2235 1165.8053 2475.636 768
-1732.6394 1168.5604 2481.4866 768
-1723.5485 1172.3784 2489.594 768
-1710.6681 1173.6624 2492.3206 512
-1687.2745 1167.6931 2479.6445 512
-1671.7188 1167.0906 2478.365 512
-1656.9072 1167.0016 2478.1763 65792
-1645.2357 1169.1425 2482.7224 256
-1647.4337 1181.267 2508.4692 460032
-1652.7733 1195.8853 2539.512 196608
-1644.7435 1201.0099 2550.394 196608
-1639.7019 1208.4316 2566.1545 262144
-1619.9047 1205.0157 2558.9009 262144
-1605.3107 1205.4427 2559.8076 262144
-1590.5416 1205.7451 2560.4497 131072
-1582.0182 1210.8335 2571.2551 262657
-1580.7968 1221.6639 2594.2539 1644819
-1569.5577 1224.8894 2601.1033 1710869
-1564.0934 1232.7301 2617.7534 2368799
-1529.01 1217.1499 2584.6682 1974042
-1535.9949 1235.0811 2622.7458 2237214
-1515.7026 1231.2216 2614.5498 2434594
-1507.3455 1237.0771 2626.9846 2237214
-1482.0353 1228.9967 2609.8254 1710870
-1461.3447 1224.6171 2600.5251 1776663
-1443.1464 1222.2548 2595.5085 1776153
-1441.1908 1233.7465 2619.9116 1776409
-1416.9587 1226.2106 2603.9089 2039581
-1406.0364 1230.1538 2612.2825 1907995
-1390.1854 1229.8245 2611.5833 1513237
-1368.7783 1224.5173 2600.3132 1447444
-1350.2753 1221.7169 2594.3665 1250065
-1337.2513 1223.8665 2598.9312 1381651
-1322.0868 1224.0842 2599.3936 1447444
-1311.9528 1229.0195 2609.874 1250065
-1295.6351 1228.2109 2608.1567 1513237
-1280.3778 1228.3999 2608.5581 1710616
-1264.7905 1228.2732 2608.2888 1644823
-1242.5477 1221.6001 2594.1182 1579030
-1238.348 1232.7207 2617.7334 1513237
-1224.8707 1234.7709 2622.0872 1447444
-1207.9685 1233.377 2619.127 1184272
-1186.671 1227.4005 2606.4358 1118479
-1168.7932 1224.8501 2601.02 1315858
-1155.9769 1227.6067 2606.8738 1381651
-1137.2061 1224.0289 2599.2761 1447444
-1127.1013 1229.8087 2611.5496 1644823
-1109.9073 1227.9064 2607.51 1710616
-1094.5619 1228.0242 2607.7603 1710616
-1079.6799 1228.673 2609.1379 1710616
-1065.09 1229.6776 2611.2712 1644823
-1050.4088 1230.6052 2613.241 1644823
-1035.2229 1230.9603 2613.9951 1973788
-1019.9692 1231.2443 2614.5981 1907995
-1007.3169 1234.7256 2621.991 2039581
-990.47168 1233.0962 2618.5308 2039581
-974.23895 1232.1896 2616.6055 1973788
-960.04553 1233.8744 2620.1833 1842202
-947.85022 1238.2251 2629.4221 2039581
-928.7627 1233.5669 2619.5305 1973788
-904.89075 1222.2878 2595.5789 1907995
-891.42853 1224.9229 2601.1743 2039581
-875.3092 1223.9352 2599.0771 2236960
-853.87952 1215.3539 2580.8542 2302753
-840.2608 1217.7798 2586.0059 2302753
-823.841 1216.1608 2582.5679 2302753
-807.70325 1214.9048 2579.9006 2302753
-792.08826 1214.4019 2578.8325 2302753
-777.73358 1215.8494 2581.9065 2236960
-761.32166 1214.0745 2578.1372 2039581
-746.72742 1215.1846 2580.4949 2105374
-731.59473 1215.4469 2581.0518 2302753
-717.29553 1217.1345 2584.6355 2105374
-698.22504 1210.623 2570.8081 2302753
-686.1507 1216.2219 2582.6975 2236960
-668.59601 1212.1406 2574.0308 2368546
-655.40692 1215.9681 2582.1587 2302753
-639.44519 1214.7118 2579.4907 2236960
-624.33191 1215.045 2580.1985 2236960
-609.50299 1215.9624 2582.1465 2039581
-595.38373 1218.379 2587.2783 1907995
-579.16425 1216.5122 2583.314 2039581
-563.94373 1216.6991 2583.7109 2105887
-548.83386 1217.1418 2584.6511 2237473
-531.11401 1211.6559 2573.0012 2369059
-520.13086 1221.6683 2594.2634 2105887
-503.35834 1218.2788 2587.0654 2040350
-485.99106 1213.1917 2576.2627 1842971
-471.89551 1216.2068 2582.6653 1908508
-456.71445 1216.5322 2583.3567 1908508
-440.46848 1213.9457 2577.8638 2105374
-421.83633 1204.3606 2557.5095 2039581
-408.7005 1210.338 2570.2029 1973788
-391.66992 1204.7979 2558.438 1907995
-377.79922 1208.9226 2567.1973 2236960
-364.24255 1214.4407 2578.915 2236960
-348.65469 1213.373 2576.6479 2171167
-332.36118 1209.6396 2568.7197 2368546
-318.62762 1215.3118 2580.7649 2302753
-303.94138 1217.739 2585.9192 2105374
-286.93338 1210.6281 2570.8188 2236960
-273.09195 1216.8292 2583.9871 2434339
-258.41061 1219.8021 2590.3003 2434339
-241.39197 1211.4209 2572.5024 2236960
-227.12502 1216.65 2583.6067 2368546
-211.16664 1212.9196 2575.6848 2368546
-195.32533 1209.3325 2568.0676 2500132
-179.98674 1208.5151 2566.3318 2434339
-165.14835 1211.2151 2572.0654 2500132
-151.10172 1220.8613 2592.5496 2565925
-135.40816 1217.8783 2586.2151 2500132
-120.22954 1219.3566 2589.354 2500132
-105.10738 1221.9235 2594.8049 2434339
-89.070076 1212.9081 2575.6606 2171167
-74.545486 1225.0233 2601.3877 2171166
-59.091183 1224.1938 2599.6262 2171167
-43.704643 1224.6783 2600.655 2171167
-28.271063 1223.6545 2598.481 2368546
-12.967426 1232.5326 2617.334 2565925
2.5332496 1228.6143 2609.0132 2500132
17.952414 1225.8633 2603.1714 2500132
33.523201 1231.2239 2614.5547 2565925
48.811466 1226.0989 2603.6719 2434339
64.526741 1231.5858 2615.3235 2500132
80.03688 1231.7904 2615.7581 2302753
95.382904 1229.8126 2611.5581 2500132
110.98132 1231.187 2614.4766 2368546
126.61082 1232.5273 2617.3228 2236959
142.68175 1237.4033 2627.677 2236960
157.21613 1229.3052 2610.4805 2236960
173.33804 1233.9592 2620.3635 2434339
187.90114 1227.6635 2606.9941 2434339
203.36617 1227.7693 2607.219 2171167
219.1987 1229.9224 2611.791 2368546
235.74084 1235.5105 2623.6577 2236960
250.41205 1231.2083 2614.5217 2236960
265.65952 1230.0756 2612.1165 2500132
278.98569 1220.6613 2592.1248 2631718
294.45737 1221.1271 2593.1138 2631718
311.55331 1227.9484 2607.5991 2434339
326.99112 1227.8986 2607.4934 2631718
342.94382 1229.6995 2611.3176 2960683
359.65134 1233.9346 2620.3113 2565925
373.5379 1228.5414 2608.8584 2500132
389.63824 1230.5684 2613.1628 2171167
405.94153 1233.0568 2618.447 2039581
421.31641 1232.6459 2617.5745 2171167
437.52716 1234.6227 2621.7725 2105374
454.16425 1237.6259 2628.1497 2105374
468.7276 1234.9659 2622.5015 2105374
485.01443 1236.8722 2626.5493 1973788
499.96301 1235.3533 2623.3237 2039581
517.5661 1240.287 2633.8008 2105374
532.10339 1237.8 2628.5198 2105374
547.09906 1236.4906 2625.739 2171167
563.66132 1238.6964 2630.4231 2171167
579.69037 1239.6432 2632.4336 2171167
595.13757 1239.3287 2631.7659 2236959
609.93628 1237.7144 2628.3376 2368546
625.22937 1237.1586 2627.1575 2171167
640.08264 1235.7805 2624.2312 2171167
653.63129 1232.009 2616.2222 2434339
669.98383 1233.5748 2619.5471 2565925
685.50531 1233.5741 2619.5457 2302753
701.54272 1234.4813 2621.4722 2302753
717.22784 1234.7428 2622.0273 2236960
733.2182 1235.5073 2623.6509 2236960
749.23645 1236.2864 2625.3052 2500132
764.55292 1235.8992 2624.4829 2368546
779.13519 1234.3643 2621.2236 2302753
795.55939 1235.7504 2624.167 2302753
808.82703 1232.2743 2616.7854 2565925
827.72186 1237.3409 2627.5447 2368546
842.61414 1236.3477 2625.4353 2368546
858.69751 1237.1063 2627.0464 2434339
876.02692 1239.6012 2632.3442 2368546
890.39771 1237.8953 2628.7219 2565925
901.70703 1232.0652 2616.3416 2500132
917.20245 1232.0552 2616.3201 2434339
931.21252 1230.0835 2612.1331 2368546
947.19507 1230.739 2613.5254 2236960
961.23529 1228.8905 2609.5999 2302753
977.28638 1229.6305 2611.1714 2368546
989.93945 1226.1387 2603.7563 2434339
1000.9094 1220.7013 2592.2097 2631718
1013.2645 1217.0922 2584.5454 2566182
1027.8362 1216.2131 2582.679 2631462
1041.6707 1214.5005 2579.042 2697511
1052.6487 1209.5552 2568.5405 2960425
1068.6746 1210.4683 2570.4795 3026218
1082.989 1209.4447 2568.3057 3485999
1097.4686 1208.6312 2566.5784 3551791
1109.3732 1205.0428 2558.9585 3748913
1126.0343 1206.6484 2562.3679 4275256
1153.1198 1219.2333 2589.0923 4670014
1170.192 1221.0393 2592.9275 4801599
1185.3599 1220.8372 2592.4983 5328457
1208.799 1229.0499 2609.9385 5525577
1220.1357 1224.9056 2601.1379 5657163
1240.4248 1229.74 2611.4038 5920335
1251.3286 1225.2653 2601.9016 6051665
1283.7456 1241.7084 2636.8191 6577752
1297.6101 1240.0267 2633.248 6512470
1294.0179 1221.9012 2594.7578 6709849
1310.1074 1222.568 2596.1738 6709848
1320.4836 1217.9496 2586.3665 6775642
1336.719 1218.7794 2588.1284 6774872
1346.3737 1213.6584 2577.2539 7235423
1376.8903 1227.2469 2606.1096 7367009
1377.8323 1214.4658 2578.9685 7827560
1397.6375 1218.4095 2587.343 7301216
1421.9335 1226.1401 2603.7593 8551280
1429.5525 1219.4784 2589.6128 7432799
1447.6759 1221.8237 2594.5933 7367006
1461.8397 1220.8131 2592.447 7432800
1470.0214 1214.8795 2579.8469 7695715
1502.0887 1228.6051 2608.9937 7761765
1502.9663 1216.7997 2583.9246 7564386
1539.0649 1233.4597 2619.3027 7432800
1562.1488 1239.4608 2632.0464 7498593
1575.2715 1237.5179 2627.9207 7564129
1585.1206 1233.0665 2618.4678 7432800
1608.9015 1239.4338 2631.989 7367007
1600.5228 1221.1423 2593.1462 7432800
1627.3015 1229.7673 2611.4619 7498336
1644.2101 1230.8413 2613.7424 7498593
1647.8344 1222.0436 2595.0601 7695972
1661.2954 1220.6359 2592.0708 7564386
1691.9537 1231.7742 2615.7234 7432800
1713.933 1236.4487 2625.6501 7498591
1734.2968 1239.8845 2632.946 7432798
1739.9951 1232.8679 2618.0461 7498848
1773.8516 1245.7504 2645.4023 7695970
1775.2297 1235.7977 2624.2676 7695970
1793.7297 1237.8336 2628.5908 7630434
1816.877 1243.0138 2639.5913 7696227
1833.2793 1243.5304 2640.6882 7695970
1847.9883 1242.8995 2639.3486 7630177
1868.0802 1245.8691 2645.6548 7827813
1870.8772 1237.351 2627.5659 7498847
1890.3561 1239.9152 2633.0112 7433055
1908.2894 1241.4321 2636.2324 7433055
1914.0488 1235.069 2622.72 7696227
1937.6776 1240.2458 2633.7134 7498848
1947.6661 1236.6792 2626.1394 7498591
1981.6218 1248.2664 2650.7454 7564384
1979.4929 1237.1198 2627.075 7564641
2005.5532 1243.6268 2640.8931 7630434
2013.681 1238.9994 2631.0667 7761763
2023.0396 1235.1947 2622.9871 7959399
2031.4126 1230.8508 2613.7627 7564641
2062.3796 1240.1589 2633.5288 7498591
2095.8389 1250.8148 2656.157 7696227
2115.9558 1253.4082 2661.6643 7696227
2094.0083 1231.2302 2614.5684 7762020
2127.3506 1241.6486 2636.6921 7630177
2126.7117 1232.226 2616.6829 7630434
2150.0742 1236.7458 2626.281 7696227
2155.7517 1231.1012 2614.2944 7498848
2172.1614 1231.6221 2615.4006 7498848
2189.1589 1232.4669 2617.1943 7498848
2203.3369 1231.7233 2615.6155 7301214
2225.2974 1235.3105 2623.2329 7367007
2266.3379 1249.3661 2653.0806 7301213
2283.2512 1250.0192 2654.4673 7169628
2273.3604 1236.089 2624.8862 7498593
2311.9119 1248.5088 2651.26 7564386
2296.9341 1232.0482 2616.3054 7564386
2320.2964 1236.2357 2625.1978 6972252
2340.0537 1238.4597 2629.9204 6972251
2344.3198 1232.5098 2617.2854 7235421
2360.5991 1232.9124 2618.1404 7301214
2411.293 1251.1666 2656.9041 7367007
2388.7778 1231.444 2615.0222 7761765
2448.384 1254.0372 2663 7432800
2447.6519 1245.6343 2645.156 7432800
2437.6741 1232.6632 2617.6113 7103834
2499.8567 1256.1149 2667.4119 7367006
2512.1411 1254.3568 2663.6785 7498593
2533.4763 1257.1116 2669.5283 7564386
2546.2322 1255.6014 2666.3215 7630178
0 0 0 0
0 0 0 0
0 0 0 0
0 0 0 0
0 0 0 0
0 0 0 0
0 0 0 0
0 0 0 0
-2266.3362 1217.1941 2552.6426 768
-2340.4031 1265.4188 2653.7773 768
-2286.5227 1244.6492 2610.22 768
-2215.9753 1214.4624 2546.9136 768
-2242.2793 1237.3046 2594.8174 768
-2226.2893 1236.963 2594.1011 768
-2180.0872 1219.7136 2557.9265 768
-2181.1355 1228.8436 2577.0732 768
-2165.4124 1228.5867 2576.5344 768
-2126.8621 1215.2826 2548.6338 768
-2108.2224 1213.2465 2544.3638 768
-2097.7747 1215.9296 2549.9905 768
-2080.7463 1214.8093 2547.6414 768
-2065.6599 1214.8147 2547.6526 768
-2041.3633 1209.3639 2536.2214 768
-2027.7217 1210.1915 2537.957 768
-2015.366 1211.8046 2541.3398 768
-2006.7579 1215.7123 2549.5349 768
-1988.8365 1213.9944 2545.9324 768
-1978.3762 1216.8392 2551.8984 768
-1972.6685 1222.6737 2564.134 768
-1942.771 1213.4893 2544.873 768
-1919.0698 1208.0619 2533.491 768
-1904.0167 1208.0356 2533.436 768
-1878.8677 1201.5527 2519.8403 768
-1864.4141 1201.8606 2520.4858 768
-1850.4464 1202.4891 2521.804 768
-1794.0098 1175.3053 2464.7954 768
-1757.7743 1161.0182 2434.833 768
-1747.3789 1163.7034 2440.4644 768
-1732.6852 1163.547 2440.1362 768
-1718.6764 1163.8517 2440.7754 768
-1705.6761 1164.8503 2442.8696 512
-1696.2275 1168.3123 2450.1299 512
-1688.5028 1173.0317 2460.0273 512
-1671.1233 1171.0676 2455.9082 512
-1653.6442 1168.9985 2451.5691 512
-1644.8137 1173.0608 2460.0884 65792
-1630.3535 1173.1449 2460.2646 65536
-1618.9016 1175.4147 2465.0247 65536
-1608.1969 1178.2732 2471.0195 196608
-1611.777 1191.7466 2499.2751 262144
-1609.9513 1201.4354 2519.5942 131072
-1586.759 1195.2118 2506.5422 196864
-1584.8918 1205.0851 2527.248 263169
-1565.947 1202.0378 2520.8574 1711126
-1561.4449 1210.125 2537.8174 1974041
-1546.2368 1209.9916 2537.5376 1776663
-1545.1127 1220.9849 2560.5923 2171420
-1536.937 1226.5687 2572.3027 1974042
-1520.9884 1225.9991 2571.1082 1645077
-1501.1295 1222.2344 2563.2126 1645077
-1486.5352 1222.7227 2564.2368 1579284
-1465.6311 1217.9775 2554.2854 1645077
-1462.2271 1227.828 2574.9436 1710870
-1433.8429 1216.6895 2551.5842 1710869
-1420.1398 1217.9039 2554.1311 1579030
-1406.3079 1219.0327 2556.4985 1447444
-1378.5049 1207.9438 2533.2434 1513237
-1370.2684 1213.9451 2545.8289 1315858
-1356.7717 1215.3679 2548.8127 1315858
-1340.328 1214.1532 2546.2654 1250065
-1328.7924 1217.4073 2553.0898 1315858
-1315.3051 1218.9279 2556.2786 1315858
-1298.0945 1216.9933 2552.2214 1447444
-1291.4729 1225.0575 2569.1333 1447444
-1266.8612 1216.0455 2550.2339 1644823
-1259.7026 1223.7712 2566.4358 1513237
-1246.597 1225.8378 2570.7698 1513237
-1231.293 1225.7668 2570.6211 1447444
-1210.7078 1220.371 2559.3049 1447444
-1202.4855 1227.4578 2574.167 1513237
-1180.7123 1220.7166 2560.0298 1381651
-1165.6791 1220.8591 2560.3286 1381651
-1157.3273 1228.0951 2575.5037 1447444
-1141.0795 1227.0341 2573.2783 1447444
-1124.2914 1225.3551 2569.7573 1513237
-1106.3429 1222.3481 2563.4514 2171167
-1090.2543 1221.3408 2561.3389 1776409
-1077.7369 1224.3623 2567.6753 1710616
-1062.8069 1224.6901 2568.3628 1776409
-1048.1533 1225.3506 2569.748 1644823
-1034.5249 1227.2467 2573.7244 1644823
-1018.8903 1226.7841 2572.7542 1579030
-1001.6537 1224.3494 2567.6482 1315858
-991.44104 1230.5573 2580.6672 1513237
-973.24658 1226.8976 2572.9924 1644823
-958.6723 1227.7579 2574.7966 1513237
-939.05707 1222.0857 2562.9011 1579030
-926.04639 1224.9635 2568.9363 2105374
-908.87677 1222.3442 2563.4431 1973788
-892.67413 1220.9585 2560.5369 1842202
-873.36115 1215.1969 2548.4541 2039581
-860.70874 1218.6633 2555.7236 2105374
-843.21277 1215.2731 2548.6138 2105374
-823.93347 1209.1422 2535.7563 2236960
-809.35724 1209.8135 2537.1643 2039581
-792.78662 1207.4725 2532.2551 1907995
-776.01453 1204.7286 2526.5007 2171167
-763.6377 1208.8346 2535.1113 2302753
-748.9873 1209.434 2536.3682 2302753
-734.50983 1210.3427 2538.2742 2434339
-721.38324 1213.562 2545.0256 2434339
-704.34686 1210.2012 2537.9773 2368546
-688.7937 1209.2976 2536.0825 2434339
-674.29883 1210.2533 2538.0867 2368546
-658.6972 1209.2208 2535.9214 2171167
-645.37799 1212.4279 2542.647 2171167
-628.01575 1208.0114 2533.385 2105374
-611.19775 1204.451 2525.9185 1907995
-598.2738 1208.5784 2534.5742 2105374
-584.25824 1210.6564 2538.9319 2236960
-569.73199 1211.7579 2541.2422 2039581
-554.97235 1212.4095 2542.6086 2105886
-538.36523 1208.9486 2535.3506 1974301
-522.83582 1207.7788 2532.8972 2105887
-505.57892 1202.4313 2521.6826 1908508
-493.90619 1210.4435 2538.4854 1974301
-478.07922 1208.458 2534.3215 2040094
-465.32364 1214.3593 2546.6975 1974301
-449.87402 1213.39 2544.6648 2039838
-432.96002 1208.2666 2533.9202 2236960
-417.99362 1208.4056 2534.2119 2171167
-403.76544 1210.7687 2539.1675 2434339
-387.78336 1207.8518 2533.0503 2500132
-373.2782 1209.4855 2536.4763 2368546
-357.69836 1207.6279 2532.5808 2368546
-343.13379 1209.1854 2535.8472 2302753
-328.78134 1211.6674 2541.0522 2368546
-313.66425 1211.4343 2540.5635 2039581
-298.75885 1212.0365 2541.8264 2105374
-283.21817 1209.9886 2537.5317 2236960
-268.20663 1210.0988 2537.7625 2368546
-252.67506 1207.7361 2532.8076 2434339
-236.62184 1202.4241 2521.6675 2500132
-222.93581 1209.236 2535.9531 2434339
-208.02826 1209.928 2537.4045 2368546
-193.36032 1212.2301 2542.2324 2302753
-177.68771 1208.0906 2533.551 2236960
-162.39955 1206.042 2529.2549 2500132
-148.31142 1213.3947 2544.6746 2500132
-133.14987 1212.6359 2543.0833 2368546
-118.01456 1211.9528 2541.6506 2368546
-103.15105 1214.2694 2546.509 2368546
-87.979202 1213.1282 2544.1157 2105374
-72.652672 1208.941 2535.3347 2039581
-57.967728 1216.0302 2550.2017 2039581
-43.111847 1223.2681 2565.3806 2171167
-27.915926 1223.4868 2565.8394 2302753
-12.738329 1225.9921 2571.0933 2500132
2.4978344 1226.6814 2572.5391 2368546
17.706339 1224.2738 2567.4897 2434339
32.956661 1225.6465 2570.3687 2368546
47.930687 1219.1239 2556.6897 2236960
63.230503 1222.0309 2562.7859 2236960
78.197685 1218.6281 2555.6497 2105374
94.139404 1229.0525 2577.5115 2302753
109.35244 1228.3813 2576.1038 2302753
124.03435 1222.6389 2564.0613 2302753
140.14421 1230.6897 2580.9448 2236960
155.67949 1232.6069 2584.9656 2236960
170.77806 1231.0326 2581.6641 2368546
185.68463 1228.447 2576.2417 2434339
200.81677 1227.6332 2574.5349 2236960
215.5981 1224.941 2568.8892 2302753
231.54218 1228.7748 2576.929 2302753
246.59807 1227.712 2574.7002 2302753
260.79391 1222.7408 2564.2749 2763304
275.17279 1219.1279 2556.6982 2565925
291.39709 1223.6415 2566.1638 2171166
307.72055 1228.1029 2575.52 2171166
321.35864 1221.932 2562.5789 2434339
336.02267 1220.0431 2558.6172 2829097
350.02496 1216.0181 2550.1763 2500132
367.72357 1224.6362 2568.25 2500132
382.99753 1224.8156 2568.6257 2302753
399.7305 1229.4686 2578.384 2302753
415.75983 1231.6946 2583.0522 2236960
430.58334 1230.317 2580.1633 2171167
447.18933 1233.9525 2587.7874 2171167
459.85056 1226.8228 2572.8352 2039581
476.46347 1230.3547 2580.2424 2039581
492.36526 1231.8881 2583.458 2105374
507.95782 1232.5785 2584.906 2105374
522.1131 1229.8429 2579.1692 2105374
537.2486 1229.5063 2578.4631 2368546
554.46045 1233.8087 2587.4858 2236960
569.92169 1234.0886 2588.073 2302753
582.15082 1227.5388 2574.3369 1973788
598.79297 1230.3912 2580.3188 2171167
614.19775 1230.6222 2580.8035 2302753
630.70526 1232.9979 2585.7856 2236960
644.16437 1229.4427 2578.3298 2434339
661.38428 1233.064 2585.9241 2500132
677.03741 1233.6663 2587.187 2434339
692.65955 1234.1864 2588.2781 2302753
706.48547 1231.553 2582.7554 2434339
721.98993 1231.8954 2583.4734 2236960
734.6217 1227.4236 2574.0955 2302753
752.59869 1231.8831 2583.4475 2368546
768.14124 1232.2594 2584.2368 2434339
782.80353 1231.2365 2582.0916 2302753
797.01611 1229.5592 2578.574 2236960
812.11182 1229.2815 2577.9917 2105374
827.33917 1229.2097 2577.8413 2171167
845.35632 1233.2103 2586.231 2302753
859.271 1231.1904 2581.9949 2236960
871.1521 1226.3783 2571.9031 2434339
890.71661 1232.3622 2584.4524 2500132
906.09351 1232.4478 2584.6318 2500132
916.38049 1225.7224 2570.5278 2368546
933.84229 1228.657 2576.6819 2302753
947.22028 1226.2104 2571.5513 2236960
964.94598 1229.3806 2578.1995 2302753
969.33765 1215.7285 2549.5691 2171167
989.26758 1221.6842 2562.0591 2434339
996.32538 1211.804 2541.3386 2631718
1012.002 1212.5446 2542.8918 2631718
1026.0775 1211.3734 2540.4355 2500132
1038.2838 1208.0609 2533.489 2894633
1053.1761 1207.9238 2533.2014 2894633
1066.4487 1205.9589 2529.0806 3222571
1079.8267 1204.1659 2525.3203 3354157
1090.3794 1199.3145 2515.1462 3420207
1107.4567 1201.6733 2520.093 3749170
1123.2128 1202.5552 2521.9424 4209464
1149.5153 1214.5569 2547.1118 4275257
1168.554 1218.672 2555.7419 4406842
1183.8096 1218.7871 2555.9834 5196358
1200.4038 1220.2601 2559.0725 5196358
1221.923 1226.6403 2572.4526 5459787
1233.1503 1222.6591 2564.1033 5525834
1244.6246 1219.0165 2556.4644 5920592
1247.1664 1206.818 2530.8823 6249300
1290.6356 1234.0422 2587.9756 6380885
1281.1458 1210.5847 2538.7817 6446677
1314.3049 1227.5044 2574.2646 6512470
1307.5679 1207.2015 2531.6868 6972507
1311.717 1197.2961 2510.9136 7037787
1320.9296 1192.1827 2500.1899 7695974
1363.8212 1217.2421 2552.7432 7761767
1369.9115 1209.266 2536.0161 7893353
1384.9225 1209.2522 2535.9871 7432802
1391.4707 1201.9285 2520.6282 7498595
1411.4847 1206.2684 2529.7297 6840665
1430.6178 1209.7722 2537.0776 7498595
1447.7477 1211.5267 2540.7573 7367008
1461.9482 1210.8191 2539.2732 7432543
1491.3721 1222.6057 2563.9915 7564387
1502.665 1219.441 2557.3547 7695971
1528.0721 1227.6791 2574.6311 7498593
1523.9166 1212.2378 2542.2485 7235421
1555.2948 1225.0885 2569.1982 7498593
1574.0205 1227.8203 2574.9275 7367007
1599.5482 1235.7548 2591.5671 7498593
1615.1669 1235.9557 2591.9885 7432799
1614.6868 1223.9498 2566.8103 7367007
1633.9984 1227.0303 2573.2705 7367007
1658.1738 1233.6726 2587.2004 7367007
1664.1462 1226.7743 2572.7336 7498593
1681.6158 1228.3997 2576.1423 7564385
1702.5338 1232.4922 2584.7249 7367262
1724.8105 1237.4865 2595.1987 7433054
1741.1519 1238.1719 2596.6362 7367262
1752.094 1235.0393 2590.0667 7696227
1777.1237 1241.8052 2604.2559 7630177
1784.8527 1236.4692 2593.0657 7564641
1817.0918 1248.0593 2617.3716 7564641
1812.2828 1234.222 2588.3528 7433055
1837.1232 1240.6399 2601.812 7498591
1850.886 1239.5322 2599.489 7498847
1864.4624 1238.319 2596.9448 7498591
1880.6962 1238.8762 2598.1133 7367262
1895.3566 1238.3964 2597.1069 7104090
1910.3926 1238.1677 2596.6274 7433055
1932.191 1242.2904 2605.2734 7301469
1934.1971 1233.7234 2587.3071 7367005
1946.3676 1231.7234 2583.1128 7564641
1962.7291 1232.3862 2584.5027 7564641
1974.0222 1229.8807 2579.2485 7564641
1991.7306 1231.3804 2582.3933 7696227
2005.4601 1230.4158 2580.3704 7696227
2020.6797 1230.3729 2580.2808 7564384
2034.8221 1229.6799 2578.8274 7433055
2043.5615 1225.7566 2570.5994 7893606
2075.0437 1235.4316 2590.8894 7893606
2100.8142 1241.5889 2603.8022 7696227
2113.5129 1239.9873 2600.4434 7367261
2110.7615 1229.41 2578.2612 7498591
2134.0842 1234.0624 2588.0178 7498847
2153.7458 1236.5465 2593.2275 7498848
2179.0176 1242.1935 2605.0701 7564641
2176.7832 1232.1909 2584.0933 7564130
2210.7715 1242.689 2606.1094 7432799
2208.2993 1232.6891 2585.1379 7630179
2227.0579 1234.5964 2589.1379 7695971
2238.4392 1232.4161 2584.5654 7301214
2254.6824 1232.9238 2585.6301 7367007
2269.8171 1232.8226 2585.418 7367007
2285.762 1233.1599 2586.1255 7301214
2296.7905 1230.8582 2581.2981 7367007
2312.1379 1230.8859 2581.3564 7169630
2320.7327 1227.342 2573.9243 7893352
2331.4399 1224.9546 2568.9175 7893866
2345.6116 1224.4064 2567.7678 7827815
2409.6931 1249.75 2620.9175 7630179
2407.1443 1240.434 2601.3801 7432801
2399.6726 1228.7156 2576.8047 7301216
2468.0994 1255.7622 2633.5259 7103835
2450.3115 1238.8789 2598.1189 7367009
2472.1428 1242.1128 2604.9009 7498596
2467.6436 1232.1591 2584.0264 7432545
0 0 0 0
0 0 0 0
0 0 0 0
0 0 0 0
0 0 0 0
0 0 0 0
0 0 0 0
0 0 0 0
0 0 0 0
-2221.4617 1216.0348 2518.9102 768
-2206.6523 1216.0988 2519.0427 512
-2196.1204 1218.537 2524.0933 512
-2183.7346 1219.973 2527.0679 512
-2184.7449 1228.9645 2545.6929 768
-2137.7451 1210.8865 2508.2458 768
-2131.624 1215.8726 2518.574 768
-2118.5364 1216.9271 2520.7585 768
-2083.2654 1205.1636 2496.3914 768
-2130.0095 1241.0168 2570.6582 768
-2098.6287 1231.5404 2551.0286 768
-2051.2925 1212.4952 2511.5781 768
-2031.0557 1209.307 2504.9741 768
-2014.7772 1208.446 2503.1907 768
-2036.2646 1230.3918 2548.6497 768
-1987.7672 1210.0621 2506.5383 768
-1977.0195 1212.5796 2511.7529 768
-1961.8372 1212.3947 2511.3699 768
-1935.4957 1205.2581 2496.5872 768
-1924.693 1207.7622 2501.7742 768
-1905.8746 1205.2363 2496.542 768
-1892.968 1206.4385 2499.0322 768
-1861.0363 1195.439 2476.2476 768
-1847.288 1196.0374 2477.4873 768
-1806.1259 1178.7542 2441.6865 768
-1778.5695 1170.1431 2423.8496 768
-1746.6217 1158.4791 2399.6887 768
-1731.8279 1158.0948 2398.8926 768
-1714.8311 1156.2188 2395.0066 512
-1707.4094 1160.8214 2404.5405 512
-1696.4841 1163.0994 2409.259 512
-1682.0831 1163.0128 2409.0798 512
-1679.5718 1171.2158 2426.0715 512
-1662.6444 1169.4209 2422.3535 65792
-1649.2178 1170.0784 2423.7156 256
-1641.5459 1174.8662 2433.6331 131072
-1628.7192 1176.0167 2436.0164 196608
-1620.454 1180.5111 2445.3259 196608
-1626.359 1195.5028 2476.3799 131072
-1621.0619 1202.4579 2490.7869 131584
-1603.2002 1200.1351 2485.9756 1052682
-1594.6483 1204.8033 2495.645 2039318
-1578.6104 1203.8497 2493.6699 2170906
-1571.6923 1209.8989 2506.2002 2368286
-1550.01 1204.5894 2495.2019 1908248
-1549.7084 1215.9536 2518.7419 2171421
-1525.4233 1208.5376 2503.3804 2237213
-1525.8098 1220.7142 2528.6033 1842456
-1501.8544 1213.4648 2513.5867 1513747
-1498.5193 1222.8976 2533.126 1447697
-1485.0906 1224.201 2535.8257 1513235
-1465.4183 1220.3315 2527.8105 1513492
-1441.4928 1212.8038 2512.2175 1710615
-1424.3932 1210.9219 2508.3193 1710616
-1408.8729 1210.3571 2507.1492 1710616
-1401.9398 1217.2361 2521.3984 1842202
-1384.6278 1215.1545 2517.0869 1579030
-1380.5085 1224.7319 2536.9255 1644823
-1353.9463 1214.3904 2515.5039 1447444
-1338.9651 1214.3217 2515.3616 1381651
-1328.8031 1218.671 2524.3708 1447444
-1313.4235 1218.28 2523.5608 1447444
-1299.8356 1219.5609 2526.2141 1315858
-1273.516 1208.787 2503.897 1315858
-1265.9626 1215.7815 2518.3855 1184272
-1256.1885 1220.7848 2528.7493 1447444
-1235.4662 1215.1407 2517.0581 1315858
-1217.9172 1212.5181 2511.6255 1513237
-1215.4514 1225.0325 2537.5481 1315858
-1193.785 1218.2661 2523.532 1250065
-1178.5173 1217.9408 2522.8584 1381651
-1161.3209 1215.5884 2517.9854 1644823
-1145.9746 1215.1364 2517.0491 1776409
-1131.0015 1215.0734 2516.9187 1447444
-1121.0482 1220.4739 2528.1052 1513237
-1105.6851 1220.0511 2527.2297 1315858
-1095.9 1225.8562 2539.2544 1447444
-1080.681 1225.6603 2538.8484 1447445
-1059.8274 1218.9779 2525.0066 1447445
-1046.6864 1221.1019 2529.4062 1381651
-1032.8688 1222.4869 2532.2751 1250067
-1020.0851 1225.1544 2537.8008 1250065
-1003.3781 1223.1193 2533.585 1381651
-991.00989 1226.3916 2540.3635 1447444
-974.27618 1224.2793 2535.9878 1710616
-958.59064 1223.4384 2534.2461 1644823
-944.61169 1224.7837 2537.0327 1513237
-927.04028 1221.4391 2530.1045 1710616
-907.85559 1215.824 2518.4734 1842202
-891.46576 1213.8267 2514.3362 1842202
-874.88 1211.4902 2509.4963 1907995
-859.36914 1210.5872 2507.6257 2039581
-844.34064 1210.3436 2507.1213 2105373
-827.61475 1207.6147 2501.4688 1973788
-812.66034 1207.4182 2501.0618 2039581
-798.70459 1208.726 2503.7705 2171167
-785.57233 1211.3528 2509.2119 2171167
-769.05072 1208.7539 2503.8284 2302753
-754.37451 1209.0104 2504.3596 2500132
-736.66663 1204.3208 2494.6455 2171167
-723.31799 1206.7117 2499.5981 2368546
-707.39539 1204.8186 2495.6768 2631718
-692.86505 1205.2666 2496.6047 2434339
-676.80444 1203.0142 2491.939 2500132
-664.39008 1207.287 2500.7898 2368546
-651.0531 1210.0399 2506.4922 2302753
-635.71808 1209.1211 2504.5891 2171167
-619.10431 1205.6682 2497.4368 2105374
-604.53876 1206.1326 2498.3987 2105374
-589.93811 1206.5486 2499.2603 2039581
-575.9552 1208.2817 2502.8503 2105374
-562.81427 1211.9198 2510.3862 1973788
-546.37897 1208.4688 2503.2378 2040094
-532.98706 1211.7444 2510.0229 2040094
-519.3819 1214.7094 2516.1646 2237473
-503.83633 1213.1772 2512.991 2105887
-487.77887 1210.2817 2506.9932 2105887
-472.98825 1210.4462 2507.334 1974301
-457.23846 1208.0874 2502.4478 1974301
-439.56635 1200.321 2486.3604 1974045
-424.41412 1199.1355 2483.9048 2500132
-411.51096 1204.4478 2494.9087 2434339
-396.32559 1203.2272 2492.3804 2565925
-381.89725 1204.2996 2494.6016 2434339
-366.83456 1203.3771 2492.6909 2500132
-351.08209 1200.0197 2485.7361 2763304
-337.80542 1205.2012 2496.4692 2631718
-323.12543 1205.6212 2497.3394 2565925
-308.66858 1206.9542 2500.1006 2236960
-294.16327 1208.2224 2502.7275 2039581
-279.35138 1208.2993 2502.8867 2236960
-264.06219 1206.2046 2498.5479 2302753
-248.5387 1202.7273 2491.3447 2039581
-234.62781 1207.1071 2500.4172 2565925
-218.5455 1200.1528 2486.0122 2368546
-204.40936 1203.6534 2493.2634 2500132
-190.23735 1207.4718 2501.1729 2302753
-174.9409 1204.1954 2494.386 2434339
-160.57587 1207.3171 2500.8523 2500132
-144.96622 1200.7644 2487.2788 2565925
-130.45515 1202.8582 2491.6157 2302753
-116.43446 1210.5844 2507.6201 2368546
-101.74736 1212.6292 2511.8557 2302753
-86.231087 1203.7991 2493.5649 2039580
-72.027397 1213.4302 2513.5149 2105374
-57.195892 1214.7485 2516.2458 2171167
-42.112514 1209.7612 2505.915 2236960
-27.463305 1218.6066 2524.2373 2302753
-12.503694 1218.3639 2523.7346 2368546
2.4528606 1219.5636 2526.22 2631718
17.435158 1220.5038 2528.1672 2631718
32.374592 1218.9611 2524.9717 2434339
47.351665 1219.3628 2525.804 2302753
62.330021 1219.5968 2526.2886 2302753
77.303352 1219.6606 2526.4209 2236960
92.24942 1219.3436 2525.7642 2302753
107.26039 1219.8531 2526.8196 2105374
122.56387 1223.1572 2533.6636 2302752
137.50929 1222.5564 2532.4192 2302753
152.94421 1225.9979 2539.5479 2171167
167.97206 1225.8519 2539.2456 2434339
182.57452 1222.881 2533.0913 2368546
197.41 1221.8032 2530.8591 2171167
212.80173 1224.0776 2535.5701 2302752
227.22537 1220.8505 2528.8855 2171167
242.54903 1222.5591 2532.4248 2302753
257.2601 1221.1609 2529.5286 2368546
272.91666 1224.1576 2535.7358 2302753
287.61398 1222.7635 2532.8481 2500132
302.62234 1222.7644 2532.8499 2105374
317.19003 1221.0687 2529.3374 2302753
332.20462 1221.1688 2529.5449 2302753
345.52628 1215.306 2517.4004 1973788
361.09552 1217.5065 2521.9585 1973788
378.65509 1225.9761 2539.5027 2171167
392.40662 1221.9403 2531.1428 2105374
408.39447 1224.9091 2537.2922 2171167
424.112 1226.885 2541.3855 2236960
440.0787 1229.4216 2546.6396 2236960
454.91922 1228.7482 2545.2446 2236960
469.71283 1227.9952 2543.6851 2039581
484.22641 1226.5798 2540.7532 2171167
499.35886 1226.7701 2541.1475 2368546
514.97791 1228.1096 2543.9221 2236959
529.09729 1225.8984 2539.3418 2105374
544.39972 1226.4749 2540.5356 2039581
558.61877 1224.645 2536.7454 2105373
577.17719 1232.1749 2552.343 2039581
591.06897 1229.6122 2547.0347 2105374
606.35541 1230.0062 2547.8508 2236960
621.49976 1230.0999 2548.0447 2434339
636.57892 1230.0631 2547.9685 2302753
651.60162 1229.9214 2547.675 2236960
664.47919 1225.8289 2539.1978 2302753
683.15839 1232.3834 2552.7749 2236960
696.95789 1230.042 2547.9248 2171167
711.90027 1229.774 2547.3699 2236960
724.46338 1225.4924 2538.501 2302753
743.3891 1231.9291 2551.8337 2302753
754.90436 1226.0735 2539.7043 2368546
772.92859 1230.8116 2549.519 2302753
786.70526 1228.734 2545.2153 2171167
800.89355 1227.3652 2542.3801 2236960
816.45728 1228.116 2543.9353 2171167
830.31799 1226.3242 2540.2239 2368546
845.17206 1226.0374 2539.6296 2302753
858.33514 1223.3503 2534.0637 2302753
872.82111 1222.6088 2532.5276 2434339
891.25592 1227.3302 2542.3076 2434339
907.07166 1228.348 2544.4158 2434339
921.30359 1227.2227 2542.085 2236960
935.26685 1225.7815 2539.0996 2302753
947.50928 1222.1663 2531.6111 2236960
961.64832 1221.0721 2529.3445 2302753
971.70483 1214.9071 2516.5742 2368546
988.58844 1217.3352 2521.604 2434339
998.9068 1211.7271 2509.9871 2565925
1007.9356 1204.7422 2495.5186 2500132
1021.498 1203.2997 2492.5305 2565668
1036.4384 1203.4984 2492.9421 2828840
1053.3013 1205.8926 2497.9014 2894633
1064.3022 1201.6023 2489.0144 3026219
1080.5002 1203.2164 2492.3582 3091242
1094.6487 1202.5356 2490.9478 3091240
1107.5292 1200.4985 2486.728 3617327
1125.3021 1203.7484 2493.46 3814706
1138.8339 1202.4359 2490.7412 4077878
1164.1205 1213.4097 2513.4724 4604220
1172.2645 1206.4634 2499.084 4801600
1191.7205 1211.1873 2508.8689 5196358
1209.7437 1214.3564 2515.4336 5262151
1219.4762 1209.2275 2504.8096 5459272
1232.9985 1207.9346 2502.1313 5854030
1243.3651 1203.6177 2493.1892 5985872
1256.1608 1201.7258 2489.2705 6117458
1286.5322 1216.4969 2519.8674 6314837
1292.4038 1208.0288 2502.3264 6512469
1299.6315 1201.0059 2487.7791 6841434
1314.9185 1201.5046 2488.8123 6907228
1332.5906 1204.1477 2494.2871 7039071
1347.5892 1204.3435 2494.6926 7039071
1364.7627 1206.4575 2499.0715 7170400
1378.1432 1205.2091 2496.4856 7169630
1397.111 1208.8215 2503.9685 7103837
1414.6115 1211.1017 2508.6917 7169630
1423.7037 1206.2108 2498.5608 7301215
1444.5464 1211.2736 2509.0476 7432802
1463.5754 1214.7278 2516.2029 7432802
1472.2582 1209.6119 2505.6057 7367009
1492.9347 1214.3539 2515.4282 7498339
1503.7847 1211.0883 2508.6638 7432800
1520.8444 1212.8386 2512.2896 7432800
1540.3029 1216.4493 2519.769 7564129
1557.6348 1218.3275 2523.6594 7432543
1616.4214 1252.2861 2594.0017 7498593
1583.1965 1214.9927 2516.7515 7564386
1604.6241 1219.9457 2527.0112 7367007
1621.4974 1221.3766 2529.9753 7301214
1635.689 1220.7798 2528.739 7630179
1650.0055 1220.2863 2527.7168 7432800
1672.235 1225.6013 2538.7263 7301213
1690.5999 1228.0143 2543.7246 7235421
1705.6726 1228.0143 2543.7246 7104091
1725.6577 1231.5201 2550.9866 7630179
1741.0555 1231.7198 2551.4004 7762020
1756.4088 1231.8849 2551.7422 7893606
1776.501 1235.3423 2558.9038 7827812
1780.3638 1227.5511 2542.7654 7630434
1806.4235 1235.067 2558.3337 7827813
1830.1815 1240.8973 2570.4106 7235676
1841.8148 1238.4781 2565.3997 7301469
1854.3794 1236.72 2561.7576 7433055
1868.2695 1235.8671 2559.991 7433055
1884.141 1236.328 2560.9458 7498848
1893.5654 1232.585 2553.1924 7433055
1909.9644 1233.4053 2554.8916 7498848
1929.6283 1236.3046 2560.8972 7433055
1944.8414 1236.3292 2560.9482 7433055
1947.5375 1228.458 2544.6438 7498591
1961.5295 1227.7783 2543.2358 7498848
1976.3246 1227.6077 2542.8823 7498848
1993.2445 1228.7496 2545.2478 7169883
2006.3619 1227.5477 2542.7583 7564641
2021.2465 1227.4371 2542.5291 7433055
2038.3123 1228.6428 2545.0266 7367262
2045.7678 1224.0807 2535.5764 7498591
2071.9028 1230.6802 2549.2468 7630433
2088.5906 1231.6133 2551.1797 7433054
2102.1658 1230.7108 2549.3103 7432799
2108.4402 1225.5774 2538.6768 7564642
2124.2498 1226.02 2539.5938 7498591
2142.5569 1227.8878 2543.4626 7301214
2176.2263 1238.4719 2565.3867 7630179
2174.8745 1229.1173 2546.0093 7630179
2209.5918 1240.1354 2568.8323 7695972
2204.9231 1229.0483 2545.8667 7695972
2216.5427 1227.1298 2541.8923 7432800
2224.7429 1223.3567 2534.0767 7367007
2254.0422 1231.1584 2550.2375 7367007
2253.3228 1222.5695 2532.446 7301214
2244.1721 1209.5497 2505.4768 7432800
2285.4646 1223.71 2534.8086 7432801
2317.0061 1232.4984 2553.0132 7170399
2331.7898 1232.3167 2552.6367 7170143
2311.2793 1213.605 2513.877 6906714
2319.0657 1209.896 2506.1941 6774616
2371.1899 1229.2189 2546.2197 7103837
2377.377 1224.634 2536.7227 6906458
2387.2156 1221.9761 2531.217 7169629
2435.7361 1239.0283 2566.5393 7235423
2462.3484 1244.7937 2578.4817 7104093
0 0 0 0
0 0 0 0
0 0 0 0
0 0 0 0
0 0 0 0
0 0 0 0
0 0 0 0
0 0 0 0
0 0 0 0
-2209.3425 1224.2449 2505.1682 768
-2239.2554 1249.2134 2556.2612 768
-2194.0425 1232.3262 2521.7051 768
-2166.1614 1225.009 2506.7319 768
-2133.9202 1215.1079 2486.4714 768
-2158.0688 1237.4022 2532.092 768
-2137.8232 1234.3756 2525.8987 768
-2116.4036 1230.6235 2518.2209 768
-2067.7695 1210.8815 2477.8228 768
-2058.7317 1214.2104 2484.6348 768
-2046.975 1215.9722 2488.2397 768
-2060.2583 1232.7421 2522.5559 768
-2043.7828 1231.8208 2520.6709 768
-2027.2922 1230.877 2518.7395 768
-1970.2999 1205.146 2466.0862 768
-1963.4816 1209.949 2475.9146 768
-1944.8181 1207.4701 2470.842 768
-1928.0824 1206.1594 2468.1602 768
-1913.2354 1206.0194 2467.8735 768
-1895.124 1203.8036 2463.3394 768
-1875.6978 1200.7117 2457.0125 768
-1857.254 1198.2053 2451.8838 768
-1816.4458 1181.1173 2416.9165 768
-1798.7499 1178.9056 2412.3906 768
-1744.4537 1152.4783 2358.3125 768
-1737.0074 1156.8256 2367.2085 512
-1724.2552 1157.6813 2368.9595 512
-1707.8536 1156.0807 2365.6841 512
-1699.6429 1160.0439 2373.7942 512
-1689.4098 1162.6816 2379.1917 512
-1679.481 1165.575 2385.1121 512
-1664.5614 1165.0242 2383.9851 66048
-1665.6552 1175.7676 2405.9695 196864
-1659.6967 1181.6755 2418.0588 196864
-1636.7052 1175.4536 2405.3269 196864
-1629.1294 1180.2908 2415.2251 131072
-1626.5681 1188.8789 2432.7991 256
-1617.3672 1192.7244 2440.668 197376
-1613.6663 1200.7316 2457.0532 1842452
-1605.2548 1205.3477 2466.499 2302490
-1597.3053 1210.3987 2476.8347 2171162
-1557.1029 1190.8762 2436.886 2236955
-1559.1489 1203.6023 2462.9275 2171420
-1557.1064 1213.3831 2482.9419 2171421
-1540.5277 1211.9149 2479.9375 2237215
-1527.8218 1213.4944 2483.1697 2302753
-1517.6798 1217.1609 2490.6724 1973788
-1487.0753 1204.3276 2464.4116 1842202
-1476.7073 1207.7911 2471.499 2105374
-1465.15 1210.3416 2476.718 1973788
-1444.8398 1205.6396 2467.0967 1776409
-1451.515 1223.5897 2503.8276 1644823
-1430.9495 1218.7102 2493.8428 1907995
-1417.2042 1219.5981 2495.6597 1842202
-1403.179 1220.2612 2497.0166 1776409
-1388.941 1220.7516 2498.02 1776409
