# .PCD v0.7 - Point Cloud Data file format
VERSION 0.7
FIELDS x y z rgb
SIZE 4 4 4 4
TYPE F F F U
COUNT 1 1 1 1
WIDTH 1282
HEIGHT 1
VIEWPOINT 0 0 0 1 0 0 0
POINTS 1282
DATA ascii
888.30353 1106.8441 2577.4507 1972499
892.94604 1093.8229 2547.1289 1840914
928.71967 1118.735 2605.1404 1775120
939.92609 1113.7227 2593.4685 1972499
962.67859 1122.3328 2613.5183 1906706
968.13507 1110.8247 2586.7202 1906449
966.92926 1092.1505 2543.2344 2103826
983.66803 1094.0068 2547.5571 2037263
994.67792 1089.5319 2537.1365 2037261
1013.0115 1093.0927 2545.4285 2629398
1031.7612 1096.9916 2554.5078 2826520
1043.0566 1092.9667 2545.1353 2235154
1062.7148 1097.6946 2556.1448 1708811
1093.142 1113.2567 2592.3835 1643018
1108.3341 1113.0873 2591.989 1512202
1115.0894 1104.5652 2572.1438 1511948
1134.1475 1108.2952 2580.8298 1446155
1149.6985 1108.5446 2581.4106 1314312
1162.2074 1105.8926 2575.2351 1248776
1172.4041 1101.1377 2564.1626 1248779
1187.5999 1101.1396 2564.167 1248778
1202.7487 1101.0985 2564.0713 1380364
1217.8468 1101.0127 2563.8713 1511950
1230.5226 1098.7659 2558.6394 1380364
1245.5591 1098.6561 2558.3838 1315084
1257.8483 1096.1548 2552.5591 1381134
1262.89 1087.4722 2532.3403 1578256
1283.3146 1092.0841 2543.0798 1644049
1292.756 1087.3508 2532.0576 1446670
1314.2188 1092.7216 2544.5642 1578255
1324.1562 1088.4962 2534.7249 1446670
1338.0272 1087.5629 2532.5515 1578256
1354.3239 1088.6 2534.9666 1578255
1369.6693 1088.858 2535.5676 1446926
1368.6831 1076.2682 2506.2502 1314829
1395.3248 1085.4408 2527.6099 1446415
1412.4576 1087.0999 2531.4734 1578001
1421.9196 1082.8823 2521.6521 1578256
1442.1332 1086.8553 2530.9041 1380622
1456.3308 1086.2594 2529.5161 1709587
1441.7793 1064.4504 2478.7307 1314829
1478.957 1080.8872 2517.0063 1314829
1492.3997 1079.8225 2514.5269 1314315
1511.5179 1082.8447 2521.5647 1117193
1526.775 1083.0688 2522.0864 1117193
1540.2611 1082.0442 2519.7007 1117193
1548.5977 1077.4567 2509.0178 1117193
1564.2874 1078.0236 2510.3379 1182985
1572.816 1073.6914 2500.2498 1314571
1590.9432 1075.9315 2505.4663 1314571
1606.8654 1076.6527 2507.1455 1248521
1611.7522 1070.0342 2491.7334 1182985
1632.3779 1073.8901 2500.7126 1051912
1647.3557 1073.9945 2500.9556 986119
1663.1743 1074.6401 2502.4592 986119
1675.856 1073.2656 2499.2583 1051912
1685.825 1070.1929 2492.103 1051913
1702.6826 1071.5089 2495.1675 1117451
1709.3326 1066.4336 2483.3489 1117193
1721.6506 1064.951 2479.8965 1051657
1736.0535 1064.7722 2479.48 1183243
1748.5255 1063.4221 2476.3362 1183243
1772.4781 1069.0187 2489.3687 1249036
1792.2155 1072.0016 2496.3147 1380365
1806.1412 1071.4879 2495.1184 1117450
1816.8409 1069.0841 2489.521 1051657
1801.7568 1051.6694 2448.9683 1051400
1853.9229 1073.4727 2499.7402 854021
1853.7338 1064.8555 2479.6741 788485
1848.3303 1053.4021 2453.0029 722435
1834.494 1037.3588 2415.6438 788228
1840.1101 1032.4786 2404.2798 919814
1892.2953 1053.6025 2453.4697 1051399
1904.1802 1052.1366 2450.0562 985606
1914.3434 1049.7488 2444.4958 1116935
1900.2855 1034.2148 2408.3228 1117192
1933.8063 1044.6136 2432.5378 1116935
1924.3993 1031.8412 2402.7954 985606
1949.2286 1037.4786 2415.9231 1051399
1967.9152 1039.7883 2421.3015 1117193
1990.8848 1044.3113 2431.8337 1182985
1999.6323 1041.3625 2424.9673 1117192
2041.1288 1055.3892 2457.6304 1051399
2048.7583 1051.8298 2449.3418 985864
2066.8059 1053.6317 2453.5376 1182986
2110.325 1068.3024 2487.7007 1051655
2083.5054 1047.4095 2439.0486 1117450
2084.1018 1040.4919 2422.9397 985864
2101.0464 1041.7749 2425.9275 1051657
2108.0164 1038.1284 2417.436 985864
2126.0344 1039.9353 2421.6436 656899
2145.8887 1042.6099 2427.8718 854278
2163.1184 1043.9823 2431.0679 1051657
2176.9243 1043.6949 2430.3987 788485
2187.1865 1041.7238 2425.8083 854278
2186.0144 1034.3678 2408.679 722692
2198.9446 1033.7368 2407.2095 854278
2218.5544 1036.234 2413.0244 788485
2236.2563 1037.8135 2416.7029 788485
2247.1287 1036.2238 2413.0007 591109
2254.3235 1032.9689 2405.4214 591108
2255.1531 1026.8567 2391.1882 394242
2259.0837 1022.2241 2380.4004 591365
2280.554 1025.5361 2388.113 788744
0 0 0 0
0 0 0 0
0 0 0 0
0 0 0 0
0 0 0 0
0 0 0 0
0 0 0 0
-2702.4333 1316.3743 3023.6519 1446668
-2684.2058 1316.2217 3023.3015 1512461
-2662.478 1314.3392 3018.9775 1644047
-2646.1309 1315.1053 3020.7371 1709840
-2626.3462 1314.1619 3018.5701 1841426
-2619.3945 1319.6708 3031.2236 1841426
-2594.5283 1316.168 3023.178 1841426
-2581.71 1318.7705 3029.156 1644046
-2542.6279 1307.8999 3004.1868 1644047
-2528.9326 1310.0266 3009.0718 1644047
-2508.8147 1308.8331 3006.3303 1512461
-2489.8347 1308.2202 3004.9226 1512463
-2473.384 1308.9374 3006.5696 1380877
-2443.4099 1302.4559 2991.6821 1380877
-2428.4546 1303.9441 2995.1003 1380877
-2407.6526 1302.2917 2991.3052 1446670
-2394.3809 1304.7183 2996.8787 1380877
-2370.1794 1301.1808 2988.7532 1249291
-2352.0793 1300.9648 2988.2571 1315083
-2336.6157 1302.2147 2991.1282 1380874
-2321.3691 1303.6057 2994.3232 1446668
-2303.3318 1303.439 2993.9402 1380876
-2284.343 1302.7271 2992.3049 1315084
-2263.1101 1300.7141 2987.6812 1380878
-2237.2905 1296.0125 2976.8818 1512463
-2220.3606 1296.4265 2977.833 1512463
-2203.3728 1296.8134 2978.7214 1512463
-2181.197 1294.1282 2972.5537 1446670
-2166.0869 1295.6257 2975.9934 1315084
-2147.7969 1295.23 2975.0845 1249291
-2132.5271 1296.6642 2978.3787 1249291
-2107.5107 1292.1467 2968.0022 1249291
-2098.7864 1297.6259 2980.5876 1249034
-2077.062 1295.0925 2974.7688 1117705
-2061.0713 1296.1212 2977.1316 1051912
-2045.4105 1297.3771 2980.0161 986119
-2019.0583 1291.8143 2967.2388 1051912
-2002.8983 1292.7322 2969.3472 1051912
-1981.3191 1290.1376 2963.3875 1051912
-1957.1387 1285.7876 2953.3958 1051912
-1940.5417 1286.3864 2954.771 1117705
-1922.0951 1285.7587 2953.3291 1051912
-1904.2924 1285.5541 2952.8591 1117705
-1879.7867 1280.7786 2941.8904 1117705
-1852.4252 1273.9497 2926.2046 1051912
-1832.5994 1272.2233 2922.239 1117705
-1808.9305 1267.7706 2912.0115 1117705
-1795.3872 1270.3969 2918.0439 1051912
-1772.5878 1266.4609 2909.0032 986119
-1768.9374 1276.2634 2931.5193 920326
-1752.2007 1276.7253 2932.5801 986119
-1692.3956 1245.5005 2860.8582 986119
-1681.3806 1249.9138 2870.9954 788740
-1658.0337 1245.1562 2860.0674 788740
-1645.1057 1248.2057 2867.0718 722947
-1644.4968 1260.7633 2895.916 920326
-1617.033 1252.7802 2877.5791 1183498
-1611.8719 1262.0898 2898.9629 1117705
-1580.7008 1251.0148 2873.5242 1051912
-1551.7408 1241.4677 2851.5947 1051912
-1541.1537 1246.5713 2863.3176 986119
-1518.13 1241.6172 2851.9382 920326
-1496.9064 1238.0404 2843.7224 854533
-1480.557 1238.4592 2844.6846 788740
-1463.3431 1238.1562 2843.9888 920326
-1442.9818 1235.1522 2837.0886 986119
-1428.2439 1236.9476 2841.2124 986376
-1418.9247 1243.5347 2856.3428 854020
-1397.8127 1239.8208 2847.8123 854020
-1383.328 1241.9664 2852.7405 854020
-1369.6727 1244.9189 2859.5222 985606
-1352.5007 1244.709 2859.0398 919813
-1339.7428 1248.6074 2867.9944 854533
-1318.4298 1244.5305 2858.6301 920326
-1297.4213 1240.6387 2849.6907 1183498
-1275.9169 1236.1637 2839.4119 1315084
-1255.7972 1232.9287 2831.9814 1183498
-1233.8164 1227.754 2820.0952 1249291
-1214.2914 1224.9146 2813.5732 1380877
-1197.7491 1225.0469 2813.877 1446670
-1180.7117 1224.6693 2813.0098 1380877
-1164.0811 1224.7087 2813.1003 1446668
-1144.5671 1221.672 2806.125 1644047
-1125.7844 1219.3375 2800.7629 1644047
-1106.8571 1216.7743 2794.8752 1709840
-1089.8997 1216.3315 2793.8584 1709840
-1069.0537 1211.4688 2782.6887 1644047
-1052.7714 1211.7061 2783.2339 1644047
-1034.5951 1209.7365 2778.7097 1644047
-1015.9173 1207.1072 2772.6704 1841167
-1005.2417 1214.0558 2788.6311 1972753
-980.90729 1204.4651 2766.6016 1972497
-966.79553 1207.3141 2773.1458 2103310
-949.76514 1206.554 2771.3997 2432531
-940.93597 1216.369 2793.9443 2827032
-918.97699 1209.2583 2777.6116 2892824
-904.54773 1211.9771 2783.8564 2629653
-883.52155 1205.7938 2769.6538 2563346
-869.79236 1209.5236 2778.2207 2366481
-855.66833 1212.8375 2785.8328 2366481
-833.05969 1204.0192 2765.5774 2169104
-818.84363 1207.22 2772.9294 2037517
-798.81781 1201.8113 2760.5059 2367512
-783.85156 1203.9474 2765.4126 2038546
-769.49805 1207.1361 2772.7368 1775633
-756.14807 1212.0726 2784.0759 1644048
-735.40527 1205.1145 2768.0935 1841171
-714.1109 1196.9147 2749.2588 1841171
-698.01721 1197.2522 2750.0339 2038550
-682.99078 1199.4801 2755.1514 1906964
-666.05432 1198.3809 2752.6262 1906964
-649.25311 1197.4755 2750.5469 1841170
-634.83209 1201.0266 2758.7036 1840914
-616.80078 1197.7549 2751.1885 1578254
-600.00641 1196.7726 2748.9321 1380875
-581.1723 1191.5536 2736.9443 1183496
-565.91711 1193.583 2741.606 1249288
-546.8205 1187.3912 2727.3838 1380875
-532.41479 1191.3184 2736.4043 1315082
-516.23065 1191.3879 2736.5642 1183495
-497.67444 1185.8102 2723.7522 1051910
-480.6908 1183.731 2718.9763 1117446
-463.89975 1181.9984 2714.9966 1446667
-445.49716 1175.8876 2700.9602 1249033
-430.44821 1178.5031 2706.968 1511692
-411.80008 1171.0857 2689.9307 1643790
-395.79813 1170.8992 2689.5022 1972498
-384.3616 1184.7697 2721.3623 1841168
-368.01321 1184.0515 2719.7126 2104084
-350.27325 1178.5852 2707.1567 2104339
-331.44135 1168.7437 2684.5513 2235925
-313.32785 1160.571 2665.7791 2104339
-296.78403 1157.6533 2659.0771 2038546
-281.09344 1157.9232 2659.697 2170132
-264.43591 1154.0052 2650.6978 2235925
-249.32356 1156.7617 2657.0291 1841167
-233.47926 1156.2649 2655.8879 1841169
-216.96912 1152.1603 2646.4597 2038291
-202.89119 1161.3381 2667.541 2169875
-186.95242 1160.5155 2665.6516 2038546
-171.44276 1162.4507 2670.0964 2038546
-153.89503 1149.5554 2640.4766 1972753
-139.9702 1163.8661 2673.3477 2170132
-123.65736 1159.4388 2663.1782 2038803
-107.96807 1160.4181 2665.4275 1972753
-91.930122 1157.3434 2658.3652 1907217
-76.232307 1158.1649 2660.2522 1971983
-60.647713 1161.583 2668.1033 2235153
-44.652668 1156.7784 2657.0676 2235153
-28.88703 1155.9203 2655.0964 2761496
-13.244376 1163.8164 2673.2334 2695191
2.6009769 1166.2251 2678.7661 2695190
18.39373 1161.1742 2667.1643 2498068
34.078465 1157.1238 2657.8608 2497812
49.848598 1157.6171 2658.9939 2695191
65.476784 1155.3688 2653.8296 2432019
81.191154 1155.2174 2653.4819 2234640
97.795418 1165.7228 2677.6123 2234640
113.97325 1168.9216 2684.96 2037774
129.36415 1164.2546 2674.24 1971981
144.88136 1161.619 2668.186 1971981
160.20416 1158.0966 2660.0952 2103567
177.03307 1165.1173 2676.2217 2432532
192.90257 1165.1886 2676.3855 2564118
208.5029 1163.7467 2673.0735 2695704
223.59262 1159.8599 2664.1455 2564118
237.90234 1152.7062 2647.7139 2695704
255.56891 1161.6964 2668.3638 2827290
272.90167 1168.2101 2683.3254 2827290
285.98389 1156.8129 2657.1467 2695704
301.9277 1157.5764 2658.9006 2629911
317.4534 1156.7406 2656.9807 2498326
335.0451 1163.1564 2671.7175 2366741
349.43958 1158.3943 2660.7791 2300948
366.03824 1161.0349 2666.8442 2432277
380.26227 1156.2363 2655.8225 2432277
394.01935 1150.4559 2642.5452 2498327
409.55737 1150.1187 2641.7703 2498327
424.12158 1147.1722 2635.0024 2563863
435.66107 1136.5442 2610.5903 2564120
452.47418 1139.931 2618.3696 2498327
467.65747 1139.1232 2616.5142 2366741
482.72537 1138.0953 2614.1533 2169878
500.88928 1144.2036 2628.1838 2104086
511.96585 1134.2418 2605.302 2235671
522.92236 1124.605 2583.1665 2367257
538.49011 1125.1514 2584.4216 2038292
556.00647 1129.6263 2594.7004 1840913
569.81952 1126.5391 2587.6091 2301464
584.8407 1125.9396 2586.2319 2104085
602.10022 1129.5698 2594.5706 2104085
616.24725 1127.3254 2589.4153 1971986
633.26379 1130.3119 2596.2751 2103828
649.29236 1131.4352 2598.8552 2038033
665.16803 1132.2462 2600.718 2432535
681.53821 1133.843 2604.386 2104339
689.83319 1122.2323 2577.7168 2499097
709.64471 1129.4541 2594.3049 2367511
719.60199 1121.0186 2574.9287 2235924
732.95142 1118.1077 2568.2427 2235668
772.75647 1154.8523 2652.6433 2170132
765.86041 1121.7302 2576.5635 2170132
777.88672 1117.0762 2565.8733 2301461
784.52448 1105.0109 2538.1597 2366998
795.53796 1099.4467 2525.3792 2037520
818.29407 1110.0167 2549.6582 1774606
825.31494 1099.2457 2524.9177 1840655
832.2699 1088.7721 2500.8601 1511949
866.19269 1113.3269 2557.2615 1643534
889.79785 1124.004 2581.7864 1709327
901.53613 1119.5834 2571.6321 1709327
919.5592 1122.9844 2579.4443 1643534
920.93182 1106.2732 2541.0593 1643534
918.22626 1085.2793 2492.8372 1709327
944.01416 1098.0944 2522.2727 1643534
962.20367 1101.809 2530.8052 1971729
987.24261 1113.1326 2556.8149 1906190
997.14923 1107.3097 2543.4402 1774348
996.68506 1090.3152 2504.4045 1708811
1018.607 1097.9492 2521.9395 1840398
1032.5414 1096.8773 2519.4773 2366740
1050.4476 1099.995 2526.6384 2432533
1060.5037 1094.9202 2514.9819 1907217
1073.6527 1093.1351 2510.8818 1775630
1102.2987 1106.9614 2542.6401 1577742
1101.787 1091.5286 2507.1917 1380107
1128.4663 1103.0858 2533.738 1183498
1143.7491 1103.3457 2534.335 1249291
1155.0405 1099.7985 2526.187 1314573
1168.2037 1098.1012 2522.2886 1314829
1176.9957 1092.39 2509.1702 1380364
1180.9287 1082.3678 2486.1497 1314572
1204.2701 1090.1619 2504.0522 1380620
1228.7581 1098.7915 2523.8743 1578255
1241.094 1096.4777 2518.5596 1446670
1250.9961 1092.0942 2508.4907 1446669
1263.9327 1090.4315 2504.6719 1446670
1280.6815 1092.0582 2508.4082 1380876
1291.0629 1088.2802 2499.7302 1446669
1292.4518 1077.0939 2474.0356 1380877
1296.4027 1068.2695 2453.7666 1380877
1330.3922 1084.119 2490.1724 1380876
1346.7056 1085.3748 2493.0566 1380621
1362.7629 1086.3993 2495.4097 1578001
1376.3057 1085.4185 2493.157 1512208
1387.8926 1082.9325 2487.4468 1512208
1403.8795 1083.896 2489.6597 1380622
1421.265 1085.9078 2494.281 1380622
1428.7734 1080.4095 2481.6516 1512207
1440.6954 1078.3267 2476.8672 1446415
1460.4802 1082.1116 2485.561 1314829
1474.8163 1081.8241 2484.9009 1314829
1482.4937 1076.7062 2473.1453 1183243
1501.7567 1080.0208 2480.7585 1249036
1516.4751 1080.0342 2480.7893 1314829
1526.5632 1076.7814 2473.3179 1183243
1543.5006 1078.3757 2476.98 1249036
1556.0729 1076.9188 2473.6338 1314572
1567.9221 1074.9938 2469.2119 1380364
1582.9734 1075.2792 2469.8674 1314571
1595.958 1074.1683 2467.3159 1314570
1590.3381 1060.6696 2436.3098 1183498
1621.8346 1071.9456 2462.2104 1117705
1634.1597 1070.4622 2458.803 1051912
1646.5425 1069.0425 2455.542 1249291
1660.2981 1068.5311 2454.3677 1051913
1674.8722 1068.551 2454.4131 1051657
1686.6958 1066.8307 2450.4617 1183243
1701.2393 1066.8455 2450.4956 985864
1710.2183 1063.4 2442.5815 920071
1699.3273 1047.761 2406.6594 985864
1740.0836 1063.9618 2443.8718 1117450
1722.3969 1044.4554 2399.0667 1117450
1740.8678 1047.0149 2404.9456 1117450
1788.9631 1067.2052 2451.3218 920071
1798.1942 1064.0724 2444.126 985864
1809.0052 1061.9174 2439.1758 1117450
1788.6665 1041.6558 2392.636 985607
1831.4181 1058.1655 2430.5581 985606
1813.1466 1039.4344 2387.5339 788227
1834.7441 1043.6726 2397.2686 1906452
1831.9646 1034.0854 2375.2473 1051143
1876.6315 1051.2223 2414.6101 985605
1855.2001 1031.3541 2368.9736 1182728
1909.4963 1053.5673 2419.9961 1117192
1924.7833 1054.0862 2421.188 1314571
1896.2075 1030.7542 2367.5955 1709329
1978.4779 1067.5768 2452.1755 1182985
1951.0316 1045.0917 2400.5281 1117192
1964.5372 1044.7097 2399.6506 1182985
1967.2708 1038.6458 2385.7222 1248778
1992.8335 1044.6354 2399.4802 1182985
2006.6461 1044.4246 2398.9956 1117450
2027.787 1048.0039 2407.2175 1051657
2041.7524 1047.8508 2406.866 1051657
2066.4839 1053.1868 2419.1223 1051657
2074.0874 1049.78 2411.2971 1117450
2087.1726 1049.1755 2409.9087 1051657
2101.7134 1049.3059 2410.208 854278
2114.0364 1048.3347 2407.9773 854278
2134.2107 1051.2438 2414.6594 1051657
2149.7114 1051.8275 2416 985864
2164.5088 1052.0616 2416.5378 985864
2170.6443 1048.1102 2407.4617 920071
2173.9111 1042.8342 2395.3428 920071
2171.2004 1034.7778 2376.8379 854278
2206.1228 1044.6454 2399.5029 788487
2216.4854 1042.8314 2395.3364 788486
2232.8838 1043.8623 2397.7043 722692
2232.2236 1036.9557 2381.8403 854280
2234.2168 1031.3608 2368.989 657671
2231.6816 1023.7584 2351.5266 789001
2240.7876 1021.5575 2346.4712 788744
0 0 0 0
0 0 0 0
0 0 0 0
0 0 0 0
0 0 0 0
0 0 0 0
0 0 0 0
-2649.9529 1308.3792 2964.9336 1644047
-2635.7947 1310.0742 2968.7747 1644047
-2620.1213 1311.0337 2970.9492 1841426
-2604.5117 1312.0385 2973.2261 1841426
-2582.2871 1309.7018 2967.9309 1907219
-2563.0005 1308.8335 2965.9631 1841426
-2545.1772 1308.7056 2965.6733 1709839
-2517.2358 1303.337 2953.5078 1578254
-2503.593 1305.3485 2958.0659 1578254
-2488.0515 1306.3915 2960.4292 1446669
-2469.3538 1305.7802 2959.0439 1644049
-2449.1326 1304.3488 2955.8003 1446670
-2421.925 1299.1492 2944.0173 1315084
-2399.4355 1296.4235 2937.8406 1315084
-2387.7327 1299.5283 2944.8767 1315084
-2371.0234 1299.9341 2945.7964 1315084
-2351.2769 1298.6686 2942.9285 1446670
-2324.4744 1293.4576 2931.1199 1512462
-2303.6731 1291.5328 2926.7581 1446670
-2290.3308 1293.7924 2931.8784 1446670
-2271.4319 1292.9236 2929.9097 1446669
-2255.6501 1293.8295 2931.9624 1512461
-2238.447 1293.9275 2932.1846 1512463
-2216.9639 1291.5339 2926.7605 1380876
-2197.0327 1290.0139 2923.3159 1380877
-2177.3997 1288.646 2920.2161 1315084
-2155.9917 1286.1974 2914.6672 1183498
-2137.8594 1285.6791 2913.4927 1183497
-2120.1653 1285.4182 2912.9016 1117705
-2094.6445 1280.3687 2901.4587 1183498
-2088.3962 1287.1136 2916.7437 1183498
-2073.887 1288.8374 2920.6499 1183498
-2059.731 1290.8114 2925.1233 1051912
-2044.4078 1292.0814 2928.0012 986119
-2024.7458 1290.6075 2924.6611 986119
-2006.1198 1289.774 2922.7725 986119
-1990.2582 1290.7189 2924.9136 1051912
-1969.0143 1288.1593 2919.1133 986119
-1938.2963 1279.3013 2899.0398 986119
-1927.1589 1283.3237 2908.1553 1051912
-1908.2173 1282.1749 2905.552 1051912
-1889.5706 1281.2052 2903.3545 1051912
-1862.6217 1274.5369 2888.2432 854533
-1839.1254 1270.1292 2878.2549 788740
-1820.0526 1268.7224 2875.0671 920326
-1799.4069 1266.1824 2869.311 854533
-1792.458 1273.3237 2885.4941 722947
-1759.4502 1261.9127 2859.6355 854533
-1742.7749 1262.1075 2860.0771 920326
-1724.824 1261.3735 2858.4138 854533
-1715.6407 1267.1002 2871.3911 854533
-1702.2043 1269.7692 2877.4392 722947
-1673.0101 1260.6184 2856.7024 788740
-1651.0706 1256.803 2848.0562 788740
-1644.5482 1264.7655 2866.1001 657154
-1617.3638 1256.8379 2848.1353 722947
-1601.5459 1257.6692 2850.019 1051912
-1580.6445 1254.4835 2842.8 1051912
-1550.4152 1243.7463 2818.4685 854533
-1533.1581 1243.295 2817.4458 788740
-1521.1483 1247.1359 2826.1494 854533
-1498.4382 1242.1918 2814.9456 854533
-1478.6086 1239.551 2808.9614 920326
-1462.2883 1239.8257 2809.5837 1051912
-1441.3464 1236.1431 2801.2385 1051912
-1421.1713 1233.0399 2794.2063 854533
-1408.5424 1236.4879 2802.02 986119
-1391.4259 1236.032 2800.9868 1051399
-1376.4406 1237.4807 2804.27 1051399
-1367.411 1244.3851 2819.916 854020
-1348.5569 1242.4089 2815.4377 985606
-1332.1638 1242.6791 2816.05 1051399
-1309.8369 1237.3505 2803.9749 1051912
-1294.1699 1238.2573 2806.0295 1117705
-1280.7441 1241.3599 2813.0605 1512463
-1259.1783 1236.5505 2802.1621 1446670
-1236.3977 1230.4039 2788.2329 1380877
-1218.5265 1229.0422 2785.1475 1380877
-1200.129 1227.1053 2780.7583 1380877
-1180.264 1223.5931 2772.7991 1644049
-1159.5721 1219.1125 2762.6455 1446669
-1142.974 1218.869 2762.0935 1446668
-1126.6876 1218.9556 2762.2898 1446668
-1108.1375 1216.5596 2756.8601 1512461
-1087.9786 1212.2994 2747.2061 1512461
-1071.7528 1212.3588 2747.3406 1578253
-1053.7584 1210.3884 2742.8757 1578253
-1038.8584 1211.9666 2746.4519 1709839
-1029.1384 1219.7341 2764.054 1775118
-1007.2736 1213.1261 2749.0796 2103567
-990.26031 1212.24 2747.0715 2169360
-973.70557 1211.8949 2746.2896 2169360
-957.08594 1211.4561 2745.2949 2433043
-935.92004 1205.1479 2731 2826774
-919.44446 1204.7634 2730.1289 2761237
-900.9223 1201.6357 2723.041 2694931
-885.11859 1202.0858 2724.061 2563858
-867.84515 1200.5194 2720.5115 2497555
-855.86639 1206.3568 2733.7395 2432274
-838.86871 1205.2086 2731.1377 2300688
-822.82318 1205.41 2731.5942 2103822
-807.07495 1206.064 2733.0762 2234896
-786.82642 1199.8818 2719.0667 2104337
-770.11035 1198.9408 2716.9341 2104339
-755.56799 1201.4158 2722.5427 2038292
-738.67328 1200.1769 2719.7351 1972499
-715.03198 1187.6764 2691.4077 2038292
-699.12823 1187.7511 2691.5769 2367001
-685.11829 1191.1217 2699.2151 2235671
-672.70679 1197.4989 2713.6665 2038293
-653.15588 1191.1681 2699.3203 2038292
-639.72095 1195.9534 2710.1641 2104084
-623.34991 1195.3546 2708.8074 2169877
-606.27777 1193.3441 2704.2515 2235926
-587.86926 1188.5228 2693.3259 2235925
-571.90839 1188.519 2693.3171 2169875
-555.89233 1188.3971 2693.0408 2038545
-539.69116 1187.8605 2691.8247 2038545
-522.91675 1185.9908 2687.5881 2104338
-505.01776 1181.3733 2677.1243 2170131
-488.26685 1179.229 2672.2649 1972751
-472.50671 1179.4139 2672.6841 2301716
-455.16376 1175.5238 2663.8687 2367251
-439.78168 1176.6006 2666.3086 2301715
-422.198 1171.6477 2655.085 2170129
-406.31693 1171.2194 2654.114 2367252
-390.09015 1169.7197 2650.7158 2433044
-373.26157 1166.214 2642.7715 2498837
-359.25977 1171.62 2655.0222 2433301
-343.39441 1171.1655 2653.9922 2630165
-326.41519 1166.6862 2643.8413 2762008
-311.35638 1168.9652 2649.0059 2695959
-295.38678 1167.885 2646.5581 2433302
-279.78336 1168.2128 2647.3008 2564890
-261.87119 1158.3668 2624.989 2104339
-244.76982 1151.0907 2608.5002 2038545
-230.91406 1159.1254 2626.708 1906706
-214.60793 1155.1324 2617.6597 2038292
-199.49751 1157.4548 2622.9221 1775119
-184.84189 1163.031 2635.5586 1840911
-169.71713 1166.4124 2643.2209 1906961
-151.7674 1149.092 2603.9712 1775631
-137.15869 1156.0106 2619.6494 1971983
-120.46699 1144.8984 2594.468 2695706
-105.09373 1144.8984 2594.468 2103569
-91.078362 1162.2261 2633.7346 2103568
-75.034882 1155.4883 2618.4658 2366739
-59.314381 1151.5078 2609.4456 2432532
-43.526772 1142.958 2590.0708 2300946
-28.38953 1151.4744 2609.3696 2695447
-13.033044 1160.8333 2630.5781 2629911
2.52232 1146.3497 2597.7568 2300946
17.832558 1141.0698 2585.792 2300945
33.304096 1146.2214 2597.4661 2037774
49.576515 1166.9683 2644.4807 2234640
65.143974 1165.1411 2640.3403 2102797
80.626678 1162.7994 2635.0337 1905675
95.314941 1151.6188 2609.6973 2168847
111.57271 1159.8757 2628.4084 2235153
127.15616 1159.9586 2628.5959 2103567
142.72754 1159.9252 2628.5205 1971981
158.82945 1163.7858 2637.2688 2235153
173.24777 1155.7235 2618.999 2564118
189.58212 1160.7179 2630.3167 2498325
205.23654 1161.1067 2631.1978 2432275
219.74785 1155.4303 2618.3342 2432532
235.35176 1155.8684 2619.3274 2629911
250.7285 1155.2058 2617.8257 2629911
264.7692 1148.8234 2603.3623 2695704
281.43536 1153.9082 2614.885 2761497
296.66104 1152.8645 2612.52 2761496
313.02539 1156.1299 2619.9199 2761497
325.03641 1143.7678 2591.906 2564120
339.94946 1142.2726 2588.5176 2498327
359.49481 1155.7994 2619.1709 2498070
374.66003 1154.707 2616.6956 2629913
388.00998 1148.3293 2602.2427 2366741
400.43887 1139.8171 2582.9534 2695706
415.37015 1138.7924 2580.6311 2300691
430.48065 1138.3143 2579.5479 2300948
444.20236 1134.3228 2570.5024 2300948
460.30676 1136.4785 2575.3875 2498327
474.23923 1133.3055 2568.1973 2235668
488.47357 1131.0289 2563.0381 2038546
505.18674 1134.4559 2570.8042 2235925
514.3551 1121.2356 2540.8455 2367255
535.57654 1134.2944 2570.4382 2498843
546.01837 1124.4323 2548.0894 2301464
560.97876 1124.1554 2547.4622 2498843
577.87408 1127.6693 2555.4248 2893601
586.00452 1114.3362 2525.2107 2367513
609.59186 1130.328 2561.45 2367768
628.62543 1137.3043 2577.2588 2104083
645.27972 1139.7471 2582.7944 2104085
659.35236 1137.6223 2577.9795 2038292
673.07196 1134.9985 2572.0337 1972499
681.9137 1124.4474 2548.1238 1840913
695.71692 1122.3577 2543.3879 1906706
716.26923 1131.0133 2563.0029 1972499
718.42615 1110.866 2517.3467 1972499
731.95312 1108.7615 2512.5776 1972499
744.99445 1106.0198 2506.3647 1906706
759.47296 1105.4773 2505.1353 1709328
791.23029 1129.6241 2559.855 1709329
795.34656 1114.1425 2524.7715 1511951
818.91144 1125.9734 2551.5818 1643536
832.05927 1123.312 2545.5508 1643536
845.927 1121.7001 2541.8979 1643280
859.39154 1119.6193 2537.1826 1578000
852.18359 1091.1406 2472.647 1512463
889.38251 1119.5226 2536.9636 1577999
901.77698 1116.2572 2529.5637 1512206
908.66254 1106.3909 2507.2056 1380619
926.47003 1109.9265 2515.2178 1380362
923.60376 1088.9747 2467.7388 1446155
957.7843 1111.6757 2519.1814 1511948
973.13934 1112.1646 2520.2893 1577740
989.63074 1113.918 2524.2627 1643534
1002.7655 1111.897 2519.6831 1643533
1014.8322 1108.7686 2512.5938 1709068
1021.0854 1099.4707 2491.5239 1643787
1032.8862 1096.3263 2484.3982 1906447
1045.8427 1094.4796 2480.2134 2170132
1055.4037 1089.1801 2468.2041 2038546
1073.0104 1092.215 2475.0813 1840912
1095.7821 1100.3546 2493.5269 1577741
1099.494 1089.3932 2468.6868 1577742
1112.0596 1087.3765 2464.1167 1577742
1114.3666 1075.5114 2437.229 1380621
1152.0887 1097.6926 2487.4944 1314572
1160.7617 1091.9857 2474.5618 1314829
1166.0239 1083.2524 2454.7712 1446415
1174.5535 1077.7324 2442.2622 1249036
1203.3878 1090.751 2471.7639 1249036
1217.8813 1090.6143 2471.4539 1314829
1217.681 1077.4788 2441.6875 1249036
1246.2399 1089.8008 2469.6106 1183243
1258.7391 1087.9562 2465.4307 1249036
1252.6736 1070.292 2425.4016 1248780
1274.6626 1076.7267 2439.9832 1249036
1286.7075 1074.7113 2435.416 1248780
1298.8085 1072.7869 2431.0552 1051657
1326.9583 1084.0151 2456.4998 1446414
1342.8135 1085.0653 2458.8794 1380622
1356.6968 1084.5165 2457.6357 1578257
1372.6954 1085.6523 2460.2097 1578257
1383.8143 1082.9454 2454.0757 1512463
1397.7593 1082.4836 2453.0291 1380622
1413.1277 1083.1223 2454.4763 1512208
1424.046 1080.3718 2448.2434 1512208
1438.2565 1080.1493 2447.739 1249036
1452.955 1080.2938 2448.0669 1380365
1464.9354 1078.4348 2443.854 1380365
1463.4971 1066.8304 2417.5571 1314572
1486.0476 1072.7683 2431.0132 1314829
1502.0367 1073.9011 2433.5803 1249036
1515.5554 1073.2629 2432.134 1183243
1528.6744 1072.3564 2430.0796 1183243
1544.7006 1073.4871 2432.6418 1183243
1554.0884 1070.026 2424.7988 1249036
1567.0414 1069.0608 2422.6113 1314829
1577.7966 1066.6274 2417.0972 1314829
1596.2151 1069.3716 2423.3157 1183243
1613.2736 1071.1638 2427.3772 1183243
1625.8854 1069.9982 2424.7356 1183243
1636.0841 1067.2786 2418.5728 1183243
1646.3632 1064.6583 2412.635 1183243
1650.3368 1058.0408 2397.6387 1117450
1649.2346 1048.3097 2375.5872 985864
1684.6702 1061.7715 2406.093 854278
1681.0686 1050.6106 2380.801 1117450
1692.3104 1048.8346 2376.7766 1314829
1731.2394 1064.1058 2411.3831 1183243
1737.7457 1059.3617 2400.6323 1117450
1750.4446 1058.4392 2398.5417 1183243
1769.6567 1061.438 2405.3374 1117450
1777.0499 1057.3567 2396.0886 1051400
1796.0123 1060.1692 2402.4622 1051657
1818.3137 1064.8929 2413.1667 986120
1818.5959 1056.748 2394.7095 1249291
1793.9391 1034.35 2343.9529 2104600
1811.2108 1036.2854 2348.3389 1182986
1858.4907 1055.2297 2391.2688 1051657
1868.3209 1052.7848 2385.7283 985607
1877.8279 1050.1957 2379.8611 985607
1883.9163 1045.7477 2369.7812 1051400
1906.2332 1050.307 2380.1133 788485
1877.7297 1027.0038 2327.3057 920071
1944.39 1055.7097 2392.3564 920071
1943.4469 1047.5604 2373.8892 1117192
1959.9093 1048.8427 2376.7949 1117192
1963.3561 1043.1912 2363.9878 1051399
1975.8934 1042.4155 2362.2302 985864
1992.467 1043.7651 2365.2886 985864
2014.4343 1047.9017 2374.6626 1051400
2037.1201 1052.3521 2384.7476 1117450
2048.5181 1050.9501 2381.5706 1183243
2048.1648 1043.5798 2364.8689 920071
2066.1965 1045.6138 2369.4778 788485
2109.6814 1060.4141 2403.0168 722692
2119.9475 1058.4304 2398.5217 788485
2121.1924 1051.9993 2383.9482 854278
2133.0093 1050.8618 2381.3706 920071
2148.9683 1051.7665 2383.4207 1051657
2164.2639 1052.3368 2384.7129 1051657
2164.0015 1045.384 2368.957 1051657
2177.7524 1045.2467 2368.646 985864
2186.8284 1042.8816 2363.2864 854278
2202.8767 1043.8507 2365.4824 854278
2207.092 1039.2357 2355.0244 920071
2214.0562 1035.9648 2347.6123 854280
2207.7129 1026.5471 2326.2708 854280
2194.7485 1014.1867 2298.2607 920073
0 0 0 0
0 0 0 0
0 0 0 0
0 0 0 0
0 0 0 0
0 0 0 0
0 0 0 0
0 0 0 0
-2592.7964 1306.0068 2920.3445 1644047
-2578.9072 1307.7385 2924.2166 1709840
-2556.0889 1304.9352 2917.948 1644047
-2546.3093 1308.7955 2926.5801 1578254
-2524.5178 1306.4923 2921.4302 1446668
-2494.5525 1299.8981 2906.6846 1249290
-2473.0574 1297.6566 2901.6726 1446668
-2451.0225 1295.0984 2895.9521 1380875
-2447.2578 1302.2262 2911.8906 1446670
-2416.0071 1294.7255 2895.1184 1380877
-2402.0891 1296.4724 2899.0247 1315084
-2380.6111 1294.1348 2893.7974 1315084
-2370.5225 1297.9996 2902.4397 1446670
-2346.6948 1294.343 2894.2632 1578256
-2332.467 1295.9667 2897.8936 1578256
-2305.8845 1290.6986 2886.1138 1446670
-2293.9373 1293.6051 2892.6133 1446670
-2268.5164 1288.9001 2882.0925 1512461
-2256.8921 1292.0221 2889.0732 1315083
-2237.4412 1290.6768 2886.0649 1380876
-2214.5752 1287.3257 2878.5718 1380876
-2190.7817 1283.3792 2869.7471 1380876
-2173.2878 1283.0903 2869.1011 1380876
-2154.8875 1282.2573 2867.2383 1446670
-2135.3943 1280.7557 2863.8809 1183498
-2114.3887 1278.3156 2858.4243 1051912
-2103.0886 1281.7513 2866.1069 1117448
-2087.6819 1282.7197 2868.2725 1117705
-2069.8767 1282.2183 2867.1509 1051912
-2057.2788 1284.9608 2873.2837 1051912
-2038.8718 1284.0907 2871.3381 986119
-2021.8279 1284.0717 2871.2954 986119
-2007.2788 1285.6503 2874.8252 1051912
-1993.446 1287.7183 2879.4497 1051912
-1968.7273 1282.7295 2868.2942 1051912
-1951.6029 1282.6449 2868.1052 1117705
-1933.0206 1281.5924 2865.7517 1051912
-1920.6426 1284.671 2872.6357 1117705
-1902.0956 1283.6416 2870.3337 1183498
-1890.2021 1287.1243 2878.1213 1051912
-1864.108 1280.9124 2864.231 986119
-1828.1499 1267.7461 2834.79 854533
-1807.0736 1264.7512 2828.0933 1051912
-1787.4904 1262.755 2823.6296 986119
-1761.1603 1255.9099 2808.3232 986119
-1752.6865 1261.7893 2821.4702 657154
-1734.4089 1260.6559 2818.9358 722947
-1705.9751 1252.0468 2799.6851 657154
-1695.2902 1256.4226 2809.4697 657154
-1686.6311 1262.4015 2822.8391 459776
-1673.8441 1265.3796 2829.4985 459776
-1642.1741 1253.9985 2804.0493 525568
-1631.6464 1258.6945 2814.5498 591361
-1612.0309 1256.4044 2809.4292 657154
-1590.2042 1252.3254 2800.3081 788740
-1569.1648 1248.7869 2792.3955 920326
-1548.5101 1245.4822 2785.0061 986119
-1528.7769 1242.8555 2779.1326 986119
-1508.1887 1239.469 2771.5601 920326
-1491.5767 1239.3115 2771.208 854533
-1473.3812 1237.8204 2767.8738 986119
-1457.0067 1237.8428 2767.9236 986119
-1438.7429 1236.2421 2764.3445 920326
-1416.9031 1231.4967 2753.7332 920326
-1399.9404 1230.9288 2752.4636 920326
-1386.4056 1233.3975 2757.9834 854533
-1373.8119 1236.7719 2765.5291 985606
-1358.6708 1237.907 2768.0671 1314571
-1341.645 1237.3315 2766.7805 1117192
-1321.1935 1233.5435 2758.3101 1182985
-1304.5789 1233.2876 2757.738 1117192
-1292.1589 1237.0414 2766.1316 1183498
-1273.2031 1234.5538 2760.5693 1183498
-1257.6801 1235.3734 2762.4021 1117705
-1236.917 1230.9996 2752.6218 1117705
-1216.8514 1227.2125 2744.1536 1183498
-1202.8405 1229.5116 2749.2944 1249034
-1183.9448 1226.8124 2743.2588 1117705
-1169.639 1228.8602 2747.8379 1051912
-1141.9725 1216.7305 2720.7148 1183240
-1121.1691 1211.6704 2709.4001 1183496
-1104.1052 1210.5635 2706.9248 1578254
-1089.1384 1211.7571 2709.5938 1578254
-1070.3717 1208.6953 2702.7476 1381132
-1051.7162 1205.6682 2695.9785 1446923
-1041.3861 1212.239 2710.6714 1578252
-1021.0793 1207.2201 2699.4487 1644045
-1003.8362 1205.7213 2696.0974 1775374
-985.58618 1202.9453 2689.8899 1906957
-958.63953 1189.2887 2659.3525 2235153
-956.11389 1205.9789 2696.6731 2366994
-936.35992 1201.1364 2685.8447 2630166
-918.04718 1198.0068 2678.8472 2827030
-903.32971 1199.5416 2682.2791 2892823
-884.79974 1195.978 2674.3105 2629138
-870.55664 1198.1847 2679.2449 2695444
-853.37347 1196.3517 2675.146 2695190
-840.45978 1200.5479 2684.5291 2695446
-828.49231 1206.2836 2697.3547 2563860
-808.31085 1200.0503 2683.4165 2564373
-792.12701 1199.6211 2682.4565 2498068
-774.69666 1197.2477 2677.1494 2432788
-760.6123 1200.0542 2683.425 2498325
-742.99951 1197.2947 2677.2546 2433304
-727.67151 1198.177 2679.2275 2301718
-713.82605 1201.5941 2686.8687 2367767
-695.29016 1197.0916 2676.8005 2367511
-678.10803 1194.7642 2671.5962 2433303
-668.065 1205.2045 2694.9417 2433304
-643.33142 1189.005 2658.7183 2498839
-627.57861 1189.0073 2658.7234 2498839
-614.34149 1193.8984 2669.6604 2564632
-598.65436 1194.1613 2670.248 2367253
-582.40686 1193.2899 2668.2998 2433044
-565.64716 1191.2914 2663.8308 2564630
-546.6347 1184.2974 2648.1917 2762009
-530.10651 1182.4314 2644.019 2893336
-510.71262 1173.865 2624.8638 2827286
-496.26401 1176.4839 2630.72 2761236
-481.76514 1179.1499 2636.6814 2958871
-464.0582 1173.8794 2624.896 2958359
-447.29568 1170.7152 2617.8206 2958870
-433.76389 1176.0831 2629.8237 2893077
-415.02292 1167.201 2609.9626 2893076
-399.87509 1168.1277 2612.0349 2958870
-383.51334 1165.4403 2606.0254 2893334
-367.7236 1164.3385 2603.5618 2959126
-352.12878 1163.7843 2602.3225 2959127
-337.57996 1166.7948 2609.0542 2827543
-320.57843 1161.21 2596.5659 2695957
-304.84073 1159.8706 2593.571 2761751
-288.50079 1155.976 2584.8623 2695704
-275.7449 1166.8105 2609.0894 2169873
-259.66315 1164.0227 2602.8557 2170131
-244.6185 1165.8258 2606.8875 1972753
-227.59886 1157.825 2588.9968 1972753
-211.36748 1152.9673 2578.1345 2104339
-194.34415 1142.696 2555.1675 2564889
-180.04289 1148.0469 2567.1323 2696476
-164.66467 1146.8843 2564.5325 2104596
-148.97328 1143.0822 2556.0308 1907216
-135.85071 1160.361 2594.6677 1971980
-118.46877 1141.026 2551.4329 2300690
-103.21171 1139.4937 2548.0063 3090462
-88.719551 1147.3279 2565.5244 3090461
-73.322189 1144.2753 2558.6987 2629910
-58.464352 1150.2461 2572.0498 2300689
-43.250885 1150.9635 2573.6541 2234896
-27.980494 1150.1226 2571.7737 2300946
-12.655542 1142.3455 2554.3835 2300178
2.5043631 1153.4718 2579.2629 1905934
17.885859 1159.8479 2593.5205 1971982
33.042099 1152.4742 2577.0322 1774604
48.106384 1147.5681 2566.0618 1774604
63.917103 1158.5482 2590.6143 1840397
78.773445 1151.3268 2574.4666 2037776
94.075073 1151.9009 2575.75 1906190
109.05316 1148.906 2569.0535 2037776
123.77859 1144.309 2558.7742 2037776
140.43272 1156.6002 2586.2583 2037775
155.32092 1153.3595 2579.0117 1971983
170.14523 1150.2675 2572.0977 1906190
185.62703 1151.7633 2575.4426 2169362
200.97745 1152.2787 2576.595 2234898
216.50607 1153.6709 2579.708 2432531
231.01993 1149.8286 2571.1165 2564118
247.89763 1157.4994 2588.2688 2629911
262.47696 1154.1698 2580.8237 2564118
276.29636 1148.0492 2567.1375 2564118
290.289 1143.2496 2556.4053 2432532
305.27646 1142.6498 2555.064 2300946
322.96307 1151.7322 2575.3728 2432532
337.66647 1149.8364 2571.1338 2498324
354.02097 1153.4839 2579.29 2432534
368.95261 1152.3854 2576.8337 2366485
381.65118 1144.6768 2559.5964 2170132
396.49146 1143.7352 2557.4912 2038293
411.46344 1143.2291 2556.3594 1906707
422.67792 1132.6896 2532.792 1972499
437.66577 1132.6379 2532.6765 2104085
452.23087 1131.5319 2530.2034 2169878
467.61917 1132.4905 2532.3469 2104340
482.52942 1132.2678 2531.8489 2169876
496.21506 1129.2716 2525.1492 2169876
507.76562 1121.734 2508.2944 2301718
537.15479 1152.9127 2578.0127 2564635
540.76312 1128.563 2523.5647 2564636
549.84564 1116.6409 2496.9058 2696222
572.10083 1131.3938 2529.8945 2498843
583.86401 1125.1742 2515.9871 2235671
603.72437 1134.4797 2536.7952 2235671
619.52594 1135.8918 2539.9524 2104085
631.95776 1131.2048 2529.4719 1972499
649.95355 1136.4637 2541.2314 2038292
665.42224 1137.1659 2542.8015 2104085
672.56879 1123.9298 2513.2043 2104085
688.04065 1124.8783 2515.3252 2038292
697.7901 1116.6294 2496.8799 2038292
707.79163 1109.1178 2480.0835 1972499
721.33557 1107.3501 2476.1306 1906706
737.24622 1109.2136 2480.2976 1775120
754.7652 1113.3767 2489.6067 1840914
774.48505 1120.5646 2505.6794 1577743
771.90533 1095.8247 2450.3589 1511950
805.20709 1121.9966 2508.8816 1511950
810.97211 1109.5448 2481.0383 1775122
827.60999 1112.1475 2486.8579 1578256
841.97668 1111.6603 2485.7686 1446670
856.6745 1111.6195 2485.6775 1380877
874.51361 1115.5875 2494.5503 1380877
892.6712 1119.823 2504.0212 1380878
878.34082 1083.8313 2423.5408 1315084
915.40753 1111.3992 2485.1848 1315084
927.8501 1108.671 2479.0845 1249291
937.44055 1102.6732 2465.6729 1249291
950.47412 1100.8473 2461.5898 1315084
963.27057 1098.806 2457.0254 1511950
985.99554 1107.9824 2477.5447 1643536
1002.8817 1110.4246 2483.0056 1709329
1016.0659 1108.7565 2479.2756 1643536
1026.0123 1103.6533 2467.8645 1709329
1034.035 1096.6532 2452.2114 1577743
1049.9015 1098.0507 2455.3364 1446157
1064.4131 1098.0123 2455.2505 1380621
1078.9767 1098.0277 2455.2849 1446414
1093.2786 1097.78 2454.7314 1512463
1105.1562 1095.1366 2448.8203 1315085
1116.7365 1092.2708 2442.4121 1314829
1129.6123 1090.7292 2438.9651 1314829
1142.7157 1089.4437 2436.0906 1380622
1158.2537 1090.4823 2438.4128 1380622
1167.5499 1085.6913 2427.6997 1380621
1184.2103 1087.7812 2432.373 1249036
1196.847 1086.1694 2428.769 1183243
1217.3917 1091.6873 2441.1074 1380622
1227.042 1087.4208 2431.5671 1380622
1239.8036 1085.9788 2428.3425 1380622
1248.9127 1081.4071 2418.1199 1446415
1268.5844 1085.9812 2428.3481 1446415
1280.6321 1083.9994 2423.9167 1446415
1291.0634 1080.7086 2416.5581 1380622
1308.3046 1083.1278 2421.9678 1512208
1321.7671 1082.4001 2420.3406 1512208
1331.7867 1078.8989 2412.5115 1446414
1348.5682 1080.8918 2416.9678 1446415
1364.3406 1082.0425 2419.5408 1512208
1378.1542 1081.6318 2418.6226 1512208
1396.3521 1084.6354 2425.3386 1709842
1402.3152 1078.1708 2410.8833 1644050
1412.0433 1074.7023 2403.1274 1512208
1419.7383 1069.771 2392.1006 1380622
1446.9186 1079.4742 2413.7979 1249036
1456.3572 1075.8809 2405.7627 1314828
1472.2903 1077.1085 2408.5078 1249036
1484.2487 1075.4325 2404.7603 1314829
1497.1351 1074.4546 2402.5735 1380621
1509.0944 1072.8358 2398.9539 1314829
1515.9364 1067.6434 2387.343 1314829
1533.1411 1069.7776 2392.1155 1183243
1548.7249 1070.7522 2394.2947 1314829
1562.1025 1070.1975 2393.0544 1380622
1574.4701 1068.9672 2390.3032 1314829
1589.1993 1069.3479 2391.1545 1380622
1604.1678 1069.8813 2392.3474 1314829
1623.5332 1073.3124 2400.0193 1249036
1633.0098 1070.2029 2393.0664 1314572
1628.8948 1058.3164 2366.4873 1051657
1639.5292 1056.134 2361.6072 1051657
1637.6088 1045.9696 2338.8787 1117450
1662.6714 1053.0656 2354.7458 854278
1690.5132 1061.7891 2374.2524 1051657
1706.0237 1062.6874 2376.261 985864
1715.0178 1059.5452 2369.2349 854278
1705.0134 1044.8118 2336.2898 722692
1742.9004 1059.4268 2368.97 722692
1762.7859 1062.9534 2376.8557 919814
1743.2061 1042.8152 2331.8252 985607
1795.0439 1065.381 2382.2842 1117193
1804.7416 1062.7792 2376.4663 1117193
1802.5717 1053.2831 2355.2322 1182986
1808.4335 1048.59 2344.738 1182729
1833.2881 1054.8971 2358.8413 1248779
1856.033 1059.9041 2370.0374 985607
1861.9326 1055.2883 2359.7163 788228
1880.9143 1058.1008 2366.0051 854021
1895.9302 1058.6571 2367.249 722435
1905.8351 1056.3723 2362.1401 590849
1905.9788 1048.75 2345.0957 656899
1903.5897 1039.8541 2325.2041 788485
1917.7131 1040.0416 2325.6233 788485
1932.7214 1040.7029 2327.1018 920071
1937.423 1035.8444 2316.2378 1051657
1963.4329 1042.3665 2330.8218 985865
1984.3547 1046.1151 2339.2041 985866
2004.171 1049.233 2346.1758 920074
2015.5739 1047.9337 2343.2705 985865
2045.7234 1056.332 2362.05 854280
2054.6213 1053.7175 2356.2036 722693
2071.9746 1055.4453 2360.0671 656899
2069.3345 1047.0337 2341.2581 525314
2102.2424 1056.6008 2362.6511 722694
2116.8337 1056.8962 2363.3115 788486
2123.113 1053.0651 2354.7446 788486
2136.1035 1052.5908 2353.6843 722693
2099.0464 1027.6211 2297.8499 854279
2162.5183 1051.8717 2352.0764 920071
2170.5652 1049.025 2345.7109 656899
2164.8674 1039.6141 2324.6672 591106
2172.4636 1036.6659 2318.075 394497
2180.9792 1034.1907 2312.54 591878
2176.8738 1025.7991 2293.7756 657671
2186.0129 1023.7139 2289.113 591878
0 0 0 0
0 0 0 0
0 0 0 0
0 0 0 0
0 0 0 0
0 0 0 0
0 0 0 0
0 0 0 0
-2562.5193 1307.8583 2886.2424 1512461
-2545.1235 1307.7073 2885.9094 1578254
-2527.7827 1307.5828 2885.6345 1709840
-2518.1772 1311.4854 2894.2468 1644047
-2494.0071 1307.8038 2886.1223 1512461
-2458.3643 1298.014 2864.5178 1315084
-2439.8125 1297.1749 2862.666 1380876
-2430.0996 1301.0563 2871.2314 1315084
-2412.8398 1300.9232 2870.938 1249291
-2385.4163 1295.2695 2858.4612 1315083
-2368.3933 1295.2228 2858.3579 1380877
-2350.4519 1294.6696 2857.1372 1446670
-2330.0813 1292.7604 2852.9238 1380877
-2311.9744 1292.0886 2851.4414 1380877
-2298.3452 1293.9277 2855.5 1446670
-2278.772 1292.4229 2852.179 1446670
-2261.8242 1292.3959 2852.1194 1446670
-2249.3472 1294.942 2857.7385 1249291
-2229.1724 1293.0618 2853.5889 1315084
-2207.0776 1290.0305 2846.8994 1315084
-2174.1399 1280.566 2826.0127 1249291
-2164.4358 1284.7454 2835.2358 1380877
-2150.217 1286.2896 2838.6436 1249291
-2130.1484 1284.3308 2834.321 1051912
-2119.8547 1288.2815 2843.0398 1117705
-2091.6733 1281.3378 2827.7158 986119
-2080.6636 1284.886 2835.5461 920326
-2065.2747 1285.7655 2837.4871 986119
-2046.0844 1284.2734 2834.1943 986119
-2024.0444 1280.9532 2826.8672 1051912
-2013.8696 1285.1493 2836.1274 1051912
-2000.3517 1287.2648 2840.7959 1117705
-1986.2175 1289.0164 2844.6611 1051912
-1970.1112 1289.5068 2845.7437 1117705
-1949.9617 1287.3364 2840.9541 1051912
-1926.0264 1282.6074 2830.5178 1183498
-1912.2435 1284.6155 2834.9492 1117705
-1894.4672 1283.9525 2833.4861 1117705
-1872.0665 1280.1156 2825.0188 1183498
-1850.4087 1276.722 2817.5295 986119
-1842.2451 1282.662 2830.6382 1051912
-1817.9323 1277.364 2818.9463 1051912
-1773.8574 1257.9532 2776.1096 920326
-1751.4784 1253.7087 2766.7429 920326
-1732.6686 1251.9633 2762.8909 854533
-1729.1942 1261.3711 2783.6523 788740
-1709.3134 1258.8768 2778.1479 854533
-1688.7622 1255.8357 2771.4368 854533
-1681.6908 1262.8574 2786.9326 591361
-1665.5182 1263.116 2787.5032 525568
-1649.1265 1263.2122 2787.7153 525568
-1631.4623 1262.3256 2785.7588 393984
-1611.2142 1259.4011 2779.3052 459776
-1587.402 1253.6016 2766.5063 657154
-1570.4801 1253.1793 2765.5745 722947
-1552.1936 1251.6477 2762.1946 788740
-1534.1017 1250.2421 2759.0923 722947
-1500.8036 1236.2802 2728.2805 657411
-1473.9219 1227.3572 2708.5889 525570
-1478.512 1244.7332 2746.9351 920326
-1452.9746 1236.85 2729.5381 986119
-1441.9666 1241.2968 2739.3513 1051912
-1418.9447 1235.385 2726.3052 854533
-1407.7411 1239.745 2735.927 1051912
-1391.9209 1240.0936 2736.6963 986119
-1372.1888 1236.9242 2729.7019 1183241
-1358.8931 1239.5502 2735.4971 1182985
-1341.4386 1238.4003 2732.9595 1182728
-1324.8053 1237.9897 2732.0532 1117192
-1311.6852 1240.8925 2738.4592 1182985
-1293.7666 1239.2716 2734.8823 1248778
-1275.3519 1237.1284 2730.1526 1183498
-1259.8629 1237.8047 2731.645 1051912
-1245.3384 1239.4584 2735.2944 920326
-1226.832 1237.1404 2730.179 788740
-1207.5823 1234.0009 2723.2505 722691
-1195.7738 1238.4833 2733.1426 657154
-1172.8915 1231.462 2717.6477 722947
-1155.8915 1230.5073 2715.5408 788740
-1134.0952 1224.3475 2701.9473 986117
-1112.3904 1218.1117 2688.1855 1117703
-1097.9543 1219.7698 2691.8447 1380875
-1079.9525 1217.457 2686.7407 1446668
-1061.882 1214.9963 2681.3105 1512461
-1043.5336 1212.1383 2675.0032 1841166
-1027.3713 1211.7705 2674.1917 2038546
-1011.4081 1211.6298 2673.8809 1841167
-995.66498 1211.7522 2674.1511 1972753
-977.27692 1208.6078 2667.2119 2234896
-954.95197 1200.4111 2649.123 2366738
-945.01886 1207.7777 2665.3801 2563859
-927.26367 1205.228 2659.7532 2761238
-909.24951 1202.2476 2653.1758 2958357
-892.26935 1200.5535 2649.4373 3024919
-880.82751 1206.384 2662.3044 2629651
-869.37476 1212.4121 2675.6074 2629651
-847.89221 1204.4169 2657.9631 2760980
-830.6662 1202.2798 2653.2471 2761237
-815.82538 1203.5791 2656.1145 2827286
-796.9953 1198.9286 2645.8513 2761749
-784.28076 1203.4756 2655.886 2564374
-766.86957 1200.8541 2650.1008 2761752
-750.59296 1199.937 2648.0769 2630166
-734.83917 1199.8345 2647.8506 2564373
-721.27905 1203.3872 2655.6909 2827290
-702.27301 1197.8098 2643.3826 2827290
-687.61206 1199.5581 2647.2407 2629911
-673.06738 1201.5956 2651.7371 2629911
-656.55994 1200.1427 2648.5308 2695704
-642.29315 1202.8147 2654.4275 2761751
-621.63196 1193.3455 2633.5305 2695959
-607.07391 1195.4065 2638.0789 2630166
-587.67261 1187.7875 2621.2646 2498580
-576.18677 1196.1876 2639.8025 2564373
-556.21515 1186.9481 2619.4124 2827545
-541.92145 1189.6425 2625.3582 2893336
-526.34998 1189.6082 2625.2827 2893336
-508.35895 1183.9368 2612.7668 2826774
-493.62717 1185.738 2616.7419 2892822
-475.12128 1178.2966 2600.3198 2893079
-458.30237 1174.6801 2592.3386 2958869
-442.66287 1173.9404 2590.7065 3090456
-427.75739 1175.1643 2593.4075 2958870
-411.95706 1173.9296 2590.6824 2958870
-396.77509 1174.4294 2591.7854 3024663
-380.7493 1172.3712 2587.2434 2827541
-364.27823 1168.7119 2579.1677 2630163
-349.20078 1169.3988 2580.6838 2695700
-333.81543 1169.0706 2579.9592 2498578
-320.49658 1176.2952 2595.9028 2564373
-303.27206 1169.1908 2580.2246 2432786
-285.68771 1159.8715 2559.6582 2301972
-270.86435 1161.3446 2562.9094 2301459
-254.65004 1156.6752 2552.6045 2235925
-238.56779 1152.0536 2542.4055 2038546
-223.36926 1151.364 2540.8838 1972753
-207.67818 1147.8525 2533.1345 1709581
-194.18604 1156.8945 2553.0886 1972753
-178.68256 1154.469 2547.7361 2103569
-162.16132 1144.4133 2525.5447 2235411
-147.28523 1145.1035 2527.0679 1906190
-132.3221 1145.1967 2527.2732 1774603
-117.40141 1145.7278 2528.4453 1905932
-102.28809 1144.2593 2525.2046 1774347
-87.382034 1145.0035 2526.8472 1905932
-72.857384 1152.0867 2542.4785 2169359
-57.920174 1154.6383 2548.1096 2103567
-42.933178 1157.6467 2554.7488 2169359
-27.757954 1156.0929 2551.3196 2235155
-12.584056 1150.9431 2539.9548 1971983
2.4702995 1152.8579 2544.1804 1576968
17.40803 1143.8192 2524.2336 1708810
32.390324 1144.7097 2526.1987 1643018
47.522015 1148.6483 2534.8906 1643018
62.270977 1143.6659 2523.8953 1643018
77.245506 1143.9537 2524.5305 1774604
92.788986 1151.2072 2540.5374 1708811
106.49027 1136.7703 2508.6775 1577995
122.23026 1144.9672 2526.7668 1577995
136.93719 1142.7544 2521.8835 1577995
151.76695 1141.901 2520.0002 1906960
168.55821 1154.6368 2548.1064 1906960
183.51436 1153.7417 2546.1309 1907216
197.31506 1146.27 2529.6421 2234898
213.44704 1152.4403 2543.259 2169362
227.76552 1148.6512 2534.897 2103568
244.08864 1154.8151 2548.4995 2300946
258.09866 1149.9547 2537.7737 2300946
273.60153 1151.9147 2542.0991 2366739
288.6459 1151.8407 2541.9355 2300946
302.88684 1148.7267 2535.0635 2235153
318.00314 1149.0701 2535.8213 2432275
333.97311 1152.3279 2543.011 2366484
348.31964 1149.9449 2537.752 2366484
363.87143 1151.5735 2541.3459 2300948
376.04501 1142.8062 2521.9978 2103312
390.72162 1142.0251 2520.2742 1971984
405.03259 1140.2721 2516.4055 1972499
420.02365 1140.4904 2516.8872 2104085
433.85638 1137.6561 2510.6323 2433304
444.84415 1127.7971 2488.8752 2104339
463.43701 1137.233 2509.6987 2170132
475.81458 1131.3046 2496.6157 2104084
490.40143 1130.8282 2495.5645 2038290
503.82574 1127.7776 2488.832 2038546
515.98389 1122.1467 2476.4055 2235669
530.64978 1122.1301 2476.3691 2959647
546.63953 1124.8387 2482.3464 2828062
559.27557 1120.6852 2473.1802 2762268
574.49933 1121.7965 2475.6328 2564637
591.61542 1126.4556 2485.9146 2169878
609.62378 1132.546 2499.3552 1972499
619.13672 1122.9392 2478.1545 2169878
642.28174 1137.9294 2511.2356 1972499
660.37866 1143.4996 2523.5283 1972499
671.29456 1136.6639 2508.4429 2169878
685.73529 1135.9636 2506.8975 2301464
695.74854 1128.114 2489.5745 2169878
708.70471 1125.2631 2483.283 1972499
727.22729 1131.1865 2496.355 1841428
737.61121 1124.4667 2481.5254 1644049
753.87988 1126.8054 2486.6865 1578257
759.82526 1113.9202 2458.2507 1446415
766.23846 1102.1925 2432.3699 1446415
778.18524 1098.7108 2424.6863 1314829
801.84064 1111.5869 2453.1018 1249036
806.06274 1097.5441 2422.1113 1183242
831.26428 1112.0585 2454.1423 1380621
847.95941 1114.8896 2460.3904 1051656
843.56982 1090.3717 2406.283 986120
