# .PCD v0.7 - Point Cloud Data file format
VERSION 0.7
FIELDS x y z rgb
SIZE 4 4 4 4
TYPE F F F U
COUNT 1 1 1 1
WIDTH 1283
HEIGHT 1
VIEWPOINT 0 0 0 1 0 0 0
POINTS 1283
DATA ascii
390.513 1156.9004 2426.1975 2434339
403.52579 1153.0048 2418.0276 2500132
417.73682 1152.6826 2417.3521 2565925
432.81226 1154.688 2421.5576 2565925
447.08188 1154.4836 2421.1292 2631718
461.81702 1155.4569 2423.1702 2500132
476.83521 1157.0582 2426.5286 2763304
492.63007 1160.3954 2433.5269 3026476
505.07675 1155.8802 2424.0579 3552563
520.86053 1159.0405 2430.6858 3618354
535.60352 1159.7772 2432.2307 3881526
552.21356 1164.4122 2441.9509 3947319
566.57697 1164.1942 2441.4937 4144440
582.26917 1166.6494 2446.6426 4473148
596.18848 1165.5193 2444.2725 4868163
607.59082 1159.6392 2431.9409 5197127
622.13196 1159.8831 2432.4526 5328712
638.4176 1163.2949 2439.6077 5197382
652.70538 1162.9958 2438.9805 6052178
667.15735 1162.9958 2438.9805 6052179
680.71729 1161.4739 2435.7888 6381144
695.59723 1162.2206 2437.3547 6446936
710.06073 1162.2552 2437.4275 6381143
722.9325 1159.7351 2432.1423 6907485
736.03937 1157.6832 2427.8391 7038815
746.91254 1152.264 2416.4744 7236193
764.37842 1157.0282 2426.4653 7236193
777.44501 1155.08 2422.3799 7104607
792.71594 1156.4183 2425.1865 7433572
808.07471 1157.8347 2428.1567 7565158
822.63831 1158.0822 2428.6758 7565158
837.35968 1158.5394 2429.6348 7630951
852.89868 1160.0934 2432.8936 7499365
871.95605 1166.3018 2445.9136 7630951
881.36053 1159.6067 2431.873 7301986
895.15613 1158.8116 2430.2056 7564901
904.45337 1152.3105 2416.5718 7565158
918.50439 1151.9741 2415.8665 8157295
932.16254 1151.1631 2414.1653 8288881
945.95233 1150.5366 2412.8516 7433572
961.37286 1151.8827 2415.6746 7630951
967.69604 1142.449 2395.8906 7630950
985.64954 1146.8202 2405.0576 7762537
1005.4903 1153.2313 2418.5027 7499363
1019.6717 1153.0626 2418.1489 7630949
1039.1534 1158.8092 2430.2004 7565156
1040.1229 1144.037 2399.2209 7696742
1062.7319 1153.1437 2418.3191 7630949
1073.6816 1149.5253 2410.7305 7959913
1092.7374 1154.5664 2421.3025 7630692
1111.9661 1159.6571 2431.9788 7828328
1123.7346 1156.9373 2426.2747 7695972
1134.2963 1153.0591 2418.1416 7828071
1156.568 1161.0331 2434.8643 7959657
1163.6025 1153.7028 2419.4917 7959144
1178.0977 1153.8583 2419.8176 8024936
1192.8885 1154.2961 2420.7358 8288364
1203.9039 1151.1136 2414.0618 7696225
1218.5532 1151.4398 2414.7456 7696225
1234.796 1153.2463 2418.5344 7762018
1244.6559 1149.1187 2409.8779 8419947
1261.925 1151.8474 2415.6006 7959397
1275.0292 1150.7561 2413.312 8024678
1300.3129 1160.5596 2433.8711 7958629
1317.0802 1162.6301 2438.2134 8089701
1325.9197 1157.7335 2427.9446 8288103
1354.1055 1169.6531 2452.9417 8156516
1363.4523 1165.2195 2443.6438 8288102
1372.1167 1160.302 2433.3311 8682861
1379.8931 1154.7437 2421.6743 7367256
1404.98 1163.6367 2440.3245 7827809
1415.2615 1160.2113 2433.1409 7696226
1428.8972 1159.5769 2431.8105 7564640
1442.6453 1159.0455 2430.6963 8354157
1468.2467 1167.9539 2449.3782 8288364
1481.7866 1167.1869 2447.7698 8354157
1501.9756 1171.6215 2457.0698 8025192
1517.2417 1172.1676 2458.2151 8090985
1531.2114 1171.7115 2457.2585 8025192
1546.7314 1172.439 2458.7842 8354157
1560.918 1172.1516 2458.1814 8288364
1563.2783 1163.0708 2439.1377 8090985
1577.7311 1163.0708 2439.1377 7959399
1593.1997 1163.8129 2440.6938 7827813
1607.7909 1163.9061 2440.8896 7695970
1621.7704 1163.5592 2440.1619 7827813
1636.2295 1163.5592 2440.1619 7893606
1654.1541 1166.0021 2445.2852 8090985
1668.382 1165.8195 2444.9021 7893606
1678.6642 1162.9065 2438.7932 7893606
1700.0092 1167.6418 2448.7239 7762020
1719.7438 1171.2001 2456.186 7827812
1725.0763 1164.9728 2443.1265 7893605
1744.1045 1168.0211 2449.5193 7893606
1768.1576 1174.3563 2462.8052 7761765
1785.0376 1175.8627 2465.9644 7761765
1794.3068 1172.3719 2458.6438 7827558
1808.7166 1172.2693 2458.4282 7695972
1821.0861 1170.8562 2455.4648 7630179
1842.5121 1175.2424 2464.6633 7564386
1856.2537 1174.6965 2463.5186 7564386
1864.3448 1170.6112 2454.9512 7564386
1881.105 1171.9905 2457.8435 7498336
1895.1212 1171.6519 2457.1335 7564386
1917.968 1176.7365 2467.7966 7696485
1924.6119 1171.8782 2457.6082 7499363
1939.692 1172.191 2458.2644 7499363
1964.9707 1178.6166 2471.7397 7433570
1974.3101 1175.4572 2465.1138 7499363
1990.8242 1176.5844 2467.4778 7565156
2009.4 1178.9048 2472.344 7301984
2017.9116 1175.3297 2464.8464 7433570
2044.8506 1182.4618 2479.8037 7565156
2054.1453 1179.3621 2473.303 7499363
2076.0327 1183.4849 2481.9492 7499363
2082.375 1178.7501 2472.0198 7696744
2098.0593 1179.3329 2473.2417 7630951
2103.8972 1174.4111 2462.9199 7630951
2157.2986 1195.9246 2508.0371 7565158
2137.4932 1176.8383 2468.0103 7630951
2129.6917 1164.5752 2442.2927 7499365
2176.4666 1182.1204 2479.0876 7565158
2164.4312 1167.7024 2448.8508 7565158
2170.6716 1163.2706 2439.5566 7433572
2187.5725 1164.5724 2442.2869 7499108
2198.1919 1162.5352 2438.0144 7499365
2258.8574 1186.8191 2488.9417 7630438
2287.9512 1194.3076 2504.6462 7565158
2305.9744 1195.958 2508.1072 7630951
2334.6785 1203.0913 2523.0669 7630694
2330.8677 1193.485 2502.9209 7696744
2328.5845 1184.7775 2484.6599 7959916
2310.2944 1168.0862 2449.6558 7894122
2321.708 1166.5278 2446.3877 7564901
2335.561 1166.2069 2445.7146 7564901
0 0 0 0
0 0 0 0
0 0 0 0
0 0 0 0
0 0 0 0
0 0 0 0
0 0 0 0
0 0 0 0
0 0 0 0
-2054.2031 1124.4769 2329.2559 256
-2026.686 1116.9183 2313.5989 196608
-2018.3466 1119.8977 2319.7705 196608
-2005.3539 1120.3182 2320.6416 196608
-1974.6926 1110.8057 2300.9373 196608
-1972.5458 1117.3124 2314.4153 196608
-1957.6188 1116.6205 2312.9819 855047
-1930.6951 1109.0275 2297.2539 2368030
-1916.9132 1108.9293 2297.0505 2171420
-1906.2091 1110.623 2300.5588 2039835
-1894.9092 1111.9915 2303.3933 2237214
-1879.3398 1110.8561 2301.0415 2039835
-1867.1377 1111.7089 2302.8081 1973788
-1851.9824 1110.8031 2300.9319 1842202
-1834.7994 1108.6587 2296.4897 1776409
-1822.0164 1109.1605 2297.5295 1973788
-1811.3444 1110.9648 2301.2668 2039581
-1796.1506 1110.0022 2299.2729 1973788
-1788.4238 1113.6746 2306.8796 1907995
-1765.6869 1107.9845 2295.0933 1842202
-1763.4604 1115.1764 2309.9907 1579030
-1755.1592 1118.6093 2317.1016 1973788
-1744.5216 1120.5956 2321.2161 2039581
-1728.7643 1119.2985 2318.5293 1907995
-1724.6592 1125.5856 2331.5525 1710616
-1708.4003 1123.9779 2328.2224 1513237
-1695.9005 1124.8374 2330.0027 1513237
-1682.2181 1124.9203 2330.1743 1513237
-1657.9923 1117.8956 2315.6233 1579030
-1645.5818 1118.7865 2317.4688 1710616
-1636.4507 1121.9408 2324.0027 1710616
-1615.1342 1116.7234 2313.1953 1579030
-1601.4575 1116.7444 2313.2388 1776409
-1580.5707 1111.6945 2302.7781 1776409
-1562.6356 1108.6506 2296.4731 1776409
-1556.4702 1113.9769 2307.5063 1710616
-1543.8207 1114.7159 2309.0369 1710616
-1523.6471 1109.9867 2299.2407 1710616
-1512.1554 1111.5541 2302.4873 1710616
-1502.6434 1114.6184 2308.835 1644823
-1486.3738 1112.6804 2304.8206 1710616
-1471.1949 1111.5308 2302.439 1644823
-1460.7582 1113.9756 2307.5034 1513237
-1441.944 1110.0178 2299.3052 1579030
-1426.5594 1108.6499 2296.4717 1710616
-1416.6998 1111.5906 2302.563 1907995
-1405.5718 1113.5836 2306.6914 2039581
-1388.8378 1111.1306 2301.6104 2105374
-1377.8344 1113.2594 2306.0198 2171167
-1364.8771 1113.8362 2307.2146 1973788
-1352.6365 1115.0154 2309.6572 2171167
-1337.34 1113.674 2306.8787 2171167
-1322.9508 1113.0681 2305.6238 2236960
-1310.4254 1114.0343 2307.625 2236960
-1299.0841 1116.038 2311.7754 2171167
-1289.0248 1119.1974 2318.3198 1907995
-1282.2657 1125.3213 2331.0049 1907995
-1269.6365 1126.3707 2333.1787 1644823
-1253.9183 1124.6727 2329.6616 1973788
-1236.886 1121.7451 2323.5972 2039581
-1226.5956 1124.9346 2330.2041 1907995
-1221.2766 1132.808 2346.5132 2236960
-1196.4611 1122.5704 2325.3069 1907995
-1183.2889 1123.146 2326.499 1842202
-1167.661 1121.3765 2322.8337 2039581
-1154.6189 1122.0778 2324.2864 2105374
-1135.4922 1116.8114 2313.3777 2171167
-1128.7537 1123.7496 2327.7495 1973788
-1113.0284 1121.8021 2323.7153 2039581
-1109.4457 1132.1971 2345.2478 1973788
-1094.9812 1131.6102 2344.032 1907995
-1088.5948 1139.4637 2360.3 1973788
-1067.9497 1132.4026 2345.6733 2105374
-1046.1289 1123.892 2328.0442 1973788
-1037.4371 1129.4474 2339.5518 2039581
-1023.593 1129.4679 2339.5945 2236960
-1000.1501 1118.752 2317.3972 2105374
-990.53558 1123.4214 2327.0693 2302753
-977.3949 1124.1667 2328.6135 2236960
-971.383 1133.2502 2347.4292 2302753
-950.26562 1124.7191 2329.7576 2368546
-935.4386 1123.4913 2327.2144 2302753
-921.13416 1122.8638 2325.9146 2236960
-906.11926 1121.3381 2322.7542 2302753
-893.14856 1122.334 2324.8171 2302753
-880.79724 1124.1516 2328.5823 1776409
-867.9173 1125.3417 2331.0471 1907995
-849.89813 1119.799 2319.5659 2039581
-841.2041 1126.5624 2333.5759 2302753
-830.76123 1131.1708 2343.1218 2236960
-812.29327 1124.8232 2329.9734 2171167
-798.85681 1125.3438 2331.0515 2368546
-783.09589 1122.5507 2325.2659 2302753
-769.58319 1122.938 2326.0681 2302753
-754.26349 1120.6547 2321.3384 2236960
-740.5094 1120.6558 2321.3408 2105374
-726.6297 1120.4634 2320.9421 1842202
-713.46741 1121.391 2322.8638 1776409
-698.98132 1120.2335 2320.4661 1907995
-687.87628 1124.5571 2329.4221 2171167
-672.62323 1122.1376 2324.4102 1973788
-659.07568 1122.5217 2325.2058 2039581
-643.48663 1119.3708 2318.6792 2236960
-631.49689 1122.4803 2325.1204 2236960
-617.44562 1121.9824 2324.0889 2302753
-604.54669 1123.6036 2327.447 1973788
-589.97809 1122.1248 2324.3838 1710616
-575.68536 1121.1123 2322.2866 1776152
-561.07227 1119.4113 2318.7629 1776922
-548.51947 1121.8386 2323.791 1776922
-534.20221 1120.6892 2321.4102 1842715
-518.42261 1116.3303 2312.3809 1908508
-509.41901 1126.7216 2333.9055 1842715
-494.43347 1124.0929 2328.4607 1908508
-480.36545 1123.4592 2327.1479 1776922
-466.02435 1122.1306 2324.3958 1710872
-451.7211 1120.8148 2321.6702 1710616
-438.42825 1122.0022 2324.1299 1842202
-425.42758 1124.0387 2328.3481 1842202
-409.92966 1119.3923 2318.7236 1842202
-396.06314 1119.033 2317.9795 2105374
-385.0524 1127.0066 2334.4958 2302753
-371.96573 1129.2719 2339.1882 2302753
-359.22842 1132.8142 2346.5259 2302753
-345.36884 1132.9602 2346.8284 2302752
-328.98694 1124.4972 2329.2979 2302752
-315.89053 1127.0145 2334.5125 2236960
-304.82593 1137.3436 2355.9082 2302753
-289.55884 1132.2313 2345.3186 2236960
-276.42484 1135.3651 2351.8098 2171167
-262.09521 1133.6599 2348.2778 2105374
-248.25887 1134.017 2349.0173 1907995
-234.62048 1135.3743 2351.8289 2039580
-221.08801 1137.448 2356.1243 1973788
-206.84947 1135.9237 2352.967 2105374
-192.84264 1135.5435 2352.1794 2105374
-178.47461 1132.8116 2346.5205 2105374
-165.78314 1141.1584 2363.8103 2302753
-151.56198 1139.5447 2360.4675 2171167
-137.72476 1140.783 2363.0325 2236959
-123.74252 1140.9644 2363.4084 2302753
-109.50623 1138.5508 2358.4089 2500132
-95.928909 1143.2847 2368.2146 2368546
-81.941277 1143.9127 2369.5154 2565925
-67.83992 1142.8845 2367.3857 2434339
-53.899746 1144.7437 2371.2368 2368546
-39.88015 1145.6323 2373.0776 2302753
-25.75268 1142.7024 2367.0085 2565925
-11.748572 1144.7847 2371.3215 2434339
2.3013844 1144.2498 2370.2136 2368546
16.340012 1143.8409 2369.3669 2565925
30.435385 1145.9465 2373.7285 2368546
44.534443 1146.816 2375.5295 2434339
58.548424 1145.6031 2373.0171 1973788
72.006958 1136.0966 2353.325 2039581
86.195602 1139.3248 2360.0122 2368546
100.23655 1139.9723 2361.3533 2236960
114.92334 1146.9065 2375.7168 2368546
128.72073 1144.4199 2370.5662 2434339
143.40491 1149.531 2381.1533 2171167
157.08316 1146.3854 2374.6375 2171167
171.2366 1146.9397 2375.7856 2171167
185.43318 1147.6768 2377.3125 2236960
199.48543 1147.4795 2376.9038 2302753
212.15205 1139.8635 2361.1282 2236960
228.10907 1149.7751 2381.6589 2236960
240.00195 1139.2401 2359.8367 2302753
255.60754 1146.5182 2374.9126 2434339
272.25671 1157.4735 2397.6055 2368546
286.46768 1157.4905 2397.6406 2368546
299.51788 1153.0371 2388.416 2368546
312.35138 1148.1892 2378.374 2302753
327.66141 1152.4706 2387.2424 2171167
341.0192 1149.8151 2381.7417 2368546
355.54623 1151.1562 2384.52 2434339
369.77933 1151.4797 2385.1899 2500132
383.43375 1150.0437 2382.2153 2565925
398.08047 1151.5801 2385.3979 2631718
411.51349 1149.6207 2381.3391 2565925
425.94394 1150.485 2383.1296 2631718
440.905 1152.6813 2387.679 2500132
455.10306 1152.8082 2387.9419 2434339
470.79163 1156.5892 2395.7739 2829097
486.21356 1159.5129 2401.8301 2960683
499.6037 1157.563 2397.7908 3355184
513.20654 1156.1997 2394.967 3289389
527.30597 1155.9988 2394.5508 3684147
542.87701 1158.9498 2400.6636 3618354
558.82312 1162.5305 2408.0806 3880756
573.13 1162.6078 2408.2407 4078390
587.22534 1162.2625 2407.5254 4538941
601.33185 1161.9551 2406.8887 4670526
614.91992 1160.6833 2404.2546 5131076
628.46362 1159.3876 2401.5703 5196868
642.47174 1158.9868 2400.7402 5460041
658.04022 1161.3572 2405.6501 5591627
672.21747 1161.2238 2405.374 5854800
684.12836 1157.2622 2397.168 6249557
698.07458 1156.8347 2396.2825 6710107
710.69293 1154.2678 2390.9651 6512729
725.55786 1155.3785 2393.2659 6907487
739.70581 1155.3268 2393.1587 6973280
754.28119 1155.932 2394.4124 7170658
765.30054 1151.1658 2384.5398 6841692
781.74304 1154.5822 2391.6165 7104607
795.82355 1154.4506 2391.3438 7104607
805.38696 1147.8854 2377.7446 7696744
825.07849 1155.7332 2394.0005 7696744
839.49805 1156.0554 2394.6682 7433572
852.90057 1154.99 2392.4612 7038557
868.07086 1156.3141 2395.2039 7301986
882.2525 1156.2997 2395.1741 7367779
895.5741 1155.1765 2392.8477 7433572
909.12628 1154.3812 2391.2002 7630951
919.39911 1149.5101 2381.1101 7828330
936.57147 1153.2822 2388.9236 7630951
939.8064 1140.0353 2361.4836 7828329
954.19952 1140.5137 2362.4749 7433572
972.388 1145.4493 2372.6985 7762535
986.88062 1145.9525 2373.741 7696485
1000.6039 1145.561 2372.9299 7236190
1018.2419 1149.6 2381.2961 7367779
1034.5929 1152.0952 2386.4651 7433572
1042.6832 1145.4486 2372.697 7630950
1062.2378 1151.4052 2385.0354 7762535
1066.658 1141.0161 2363.5154 7696742
1089.8805 1150.7487 2383.6755 7696998
1097.0732 1143.5236 2368.7095 7827558
1113.0382 1145.5093 2372.8228 7959144
1128.97 1147.4117 2376.7634 8222059
1144.7075 1149.0723 2380.2031 7958888
1158.7388 1149.0005 2380.0544 8024681
1164.8832 1141.204 2363.9045 7564641
1179.0654 1141.3734 2364.2556 6840918
1201.8397 1149.7587 2381.625 8156778
1215.9921 1149.7969 2381.7041 8090985
1229.8632 1149.571 2381.2363 8025190
1244.4211 1149.9854 2382.0945 7893604
1257.3829 1148.9316 2379.9119 7827042
1273.105 1150.3956 2382.9443 7695456
1290.1417 1153.0026 2388.3442 8024678
1306.639 1155.0758 2392.6389 8156263
1319.114 1153.587 2389.5552 8748399
1339.8899 1159.3121 2401.4141 8025190
1362.6158 1166.5863 2416.4819 8025189
1372.9377 1163.2002 2409.468 7893347
1389.5504 1165.1587 2413.5247 7762017
1399.2152 1161.3107 2405.554 7695968
1413.7969 1161.58 2406.1116 7762018
1425.6884 1159.6558 2402.1257 8025192
1438.9106 1158.8413 2400.4387 7893606
1460.4722 1164.6931 2412.5603 7959399
1470.4999 1161.3228 2405.5789 8288364
1491.8755 1166.8931 2417.1172 8156778
1506.6797 1167.2662 2417.8904 8090985
1520.926 1167.2043 2417.7622 8354157
1534.5232 1166.6501 2416.614 8485742
1534.05 1155.5077 2393.5337 9143671
1551.3934 1157.8668 2398.4202 8156776
1568.0916 1159.7058 2402.2295 7959399
1584.0684 1160.9829 2404.875 7893606
1598.7954 1161.3296 2405.593 7827813
1613.0494 1161.3296 2405.593 7762020
1619.8759 1156.0287 2394.6128 7827813
1646.7158 1164.9785 2413.1516 8288364
1660.5603 1164.6599 2412.4915 8090985
1677.798 1166.7063 2416.7305 7959399
1689.3708 1164.812 2412.8066 7564641
1710.6631 1169.5948 2422.7139 7630434
1730.5099 1173.318 2430.426 7827813
1740.9373 1170.6459 2424.8909 7827558
1757.5183 1172.1216 2427.9478 7761765
1779.1458 1176.9114 2437.8694 7761764
1786.5406 1172.285 2428.2864 7893351
1785.9873 1162.5588 2408.1394 7893350
1813.2917 1170.9767 2425.5762 7564386
1825.5785 1169.6403 2422.8079 7432800
1829.6805 1163.1218 2409.3054 7367007
1845.1851 1163.8967 2410.9106 7827558
1866.2502 1168.1403 2419.7007 7366750
1875.8872 1165.2203 2413.6523 7366750
1899.9489 1171.2369 2426.1152 7564643
1915.8051 1172.1427 2427.9915 7499107
1927.8922 1170.7461 2425.0986 7433314
1944.689 1172.2091 2428.1292 7367777
1958.674 1171.9681 2427.6299 7367777
1959.9913 1164.2064 2411.5522 8025707
1979.3448 1167.1926 2417.7378 7433570
2009.0713 1176.2087 2436.4141 7433570
2017.808 1172.8955 2429.5508 7367777
2030.1672 1171.72 2427.1157 7499363
2052.7395 1176.4138 2436.8389 7696488
2072.8762 1179.6562 2443.5552 7565158
2143.1006 1211.1604 2508.8132 7630694
2122.4304 1191.2159 2467.5 7630951
2131.2639 1187.9899 2460.8176 7499108
2142.1765 1185.9587 2456.6104 7564901
2153.3936 1184.1226 2452.8066 7499365
2171.4841 1186.0652 2456.8308 7499108
2147.3076 1165.0494 2413.2983 7499365
2158.8804 1163.5796 2410.2539 7630951
2226.6663 1192.2275 2469.5955 7630951
2246.0715 1194.7657 2474.8533 7564902
2260.8445 1194.8231 2474.9719 7564901
2270.989 1192.4495 2470.0552 7565158
2288.437 1193.9166 2473.0942 7565158
2297.4807 1191.0082 2467.0696 7630951
2315.2815 1192.6473 2470.4651 7630951
2323.1704 1189.1924 2463.3083 7828330
2284.9736 1162.3374 2407.6807 7762537
2297.4436 1161.4292 2405.7993 7630951
0 0 0 0
0 0 0 0
0 0 0 0
0 0 0 0
0 0 0 0
0 0 0 0
0 0 0 0
0 0 0 0
0 0 0 0
-2025.3937 1122.3148 2296.5891 196608
-2008.6769 1120.5806 2293.0403 196608
-1989.2856 1117.3206 2286.3694 262144
-1968.1614 1113.0359 2277.6016 196608
-1913.4417 1089.5618 2229.5669 196864
-1957.4482 1122.3696 2296.7012 1250063
-1922.2358 1109.8958 2271.176 1645077
-1914.4313 1113.1827 2277.9023 1908249
-1904.2654 1115.1337 2281.8945 1776663
-1885.3853 1111.9731 2275.427 1776663
-1870.1636 1110.9401 2273.3132 1974042
-1856.1171 1110.5953 2272.6077 2039834
-1839.1678 1108.496 2268.3118 1907995
-1822.7933 1106.7147 2264.6667 1973788
-1809.2495 1106.6384 2264.5107 1973788
-1794.3848 1105.7471 2262.6865 1973788
-1784.5184 1107.9454 2267.1853 1907995
-1768.964 1106.619 2264.4709 1907995
-1761.6099 1110.4414 2272.2925 1973788
-1744.3866 1108.0535 2267.4062 1842202
-1737.7964 1112.4354 2276.373 1776409
-1721.2365 1110.4537 2272.3179 1776409
-1714.7074 1114.9634 2281.5459 1710616
-1703.3439 1116.3762 2284.437 1513237
-1692.1945 1117.953 2287.6636 1579030
-1679.7832 1118.7148 2289.2227 1447444
-1666.4144 1118.8463 2289.4917 1513237
-1646.7285 1114.7039 2281.0149 1579030
-1629.0886 1111.8892 2275.2551 1513237
-1619.8713 1114.824 2281.2607 1381651
-1600.2987 1110.6217 2272.6616 1447444
-1583.8036 1108.5018 2268.3237 1381651
-1567.0437 1106.1588 2263.5293 1513237
-1556.1221 1107.9323 2267.1582 1644823
-1547.0548 1111.0681 2273.5752 1710616
-1532.3956 1110.208 2271.8149 1907995
-1517.8051 1109.3827 2270.1262 1842202
-1507.0233 1111.3513 2274.1548 1644823
-1494.4384 1112.0139 2275.5105 1842202
-1479.4391 1110.8756 2273.1812 1842202
-1464.0253 1109.4023 2270.1663 1842202
-1449.6248 1108.6766 2268.6814 1907995
-1439.9082 1111.5532 2274.5676 1907995
-1420.8093 1107.1729 2265.6042 1776409
-1413.5538 1112.026 2275.5352 1644823
-1400.6521 1112.488 2276.4807 1907995
-1384.3667 1110.2455 2271.8916 1973788
-1370.7271 1110.1014 2271.5969 1973788
-1358.2825 1110.932 2273.2966 2105374
-1344.9968 1111.0846 2273.6086 1973788
-1331.7805 1111.2979 2274.0452 1973788
-1319.2771 1112.1166 2275.7205 1973788
-1307.3033 1113.4033 2278.3535 2039581
-1289.1853 1109.4293 2270.2217 1907995
-1287.374 1119.5526 2290.9368 1776409
-1271.7708 1117.7697 2287.2883 1842202
-1259.996 1119.3495 2290.5212 2039581
-1244.3248 1117.4646 2286.6643 1776409
-1233.2098 1119.6749 2291.187 2105374
-1219.1294 1119.212 2290.2397 2171167
-1201.2069 1115.1716 2281.9722 2105374
-1188.2299 1115.683 2283.0186 2105374
-1172.2468 1113.3511 2278.2468 1973788
-1162.9227 1117.3629 2286.4563 2039581
-1151.8423 1119.762 2291.3652 2105374
-1137.9338 1119.4362 2290.6987 1973788
-1128.917 1123.9729 2299.9819 1842202
-1109.7166 1118.3573 2288.4907 1907995
-1096.7937 1119.0074 2289.8213 2039581
-1094.8805 1131.0475 2314.4587 1907995
-1069.0093 1118.3293 2288.4338 1776409
-1053.5009 1116.2648 2284.209 1842202
-1041.6089 1118.0282 2287.8174 1907995
-1028.9919 1119.0498 2289.908 2171167
-1017.8666 1121.7423 2295.4177 2039581
-1005.1287 1122.7068 2297.3911 1973788
-990.46216 1121.5137 2294.95 2105374
-977.17981 1121.8767 2295.6926 2039581
-964.4624 1122.9077 2297.8022 2171167
-945.54547 1116.6469 2284.9907 2171167
-932.58813 1117.3442 2286.418 2171167
-919.36456 1117.7386 2287.2249 1973788
-907.68988 1120.056 2291.967 2039581
-893.2854 1119.0243 2289.8557 2302753
-881.54089 1121.3442 2294.603 2236960
-868.01245 1121.432 2294.7827 2105374
-853.52759 1120.2675 2292.3997 1973788
-841.80414 1122.7479 2297.4756 2368546
-832.94043 1129.1873 2310.6521 2171167
-811.95831 1119.1384 2290.0894 2302753
-802.92413 1125.4961 2303.0989 2565925
-786.97424 1122.2118 2296.3784 2829097
-775.7876 1125.7239 2303.5652 2236960
-759.80597 1122.2792 2296.5164 2236960
-745.51447 1121.251 2294.4121 2302753
-730.55786 1119.1655 2290.1448 2039581
-717.33759 1119.7114 2291.262 1973788
-704.3689 1120.6787 2293.2412 2171167
-688.36841 1116.7655 2285.2336 1907995
-676.52576 1119.5759 2290.9846 1776409
-661.19067 1116.6036 2284.9023 1907995
-648.5257 1118.1104 2287.9856 1907995
-635.97522 1119.8833 2291.6135 1842202
-622.52002 1120.1055 2292.0681 1907995
-606.61792 1115.8367 2283.333 1776409
-593.4024 1116.4277 2284.5425 1644823
-579.89655 1116.4874 2284.6646 1776409
-566.73749 1117.2335 2286.1914 1907738
-553.36676 1117.5887 2286.9182 1776922
-538.58032 1115.0308 2281.6838 2171680
-525.63416 1116.2491 2284.177 2105887
-509.70526 1111.0304 2273.4978 2237473
-497.10056 1112.9708 2277.4685 2303266
-482.53235 1110.5007 2272.4141 1908508
-469.83572 1112.3198 2276.1365 1974301
-459.01114 1118.8092 2289.4158 1842458
-443.36356 1113.5803 2278.7158 1776409
-430.57605 1115.4321 2282.5051 1842202
-419.89877 1123.0479 2298.0891 1842202
-404.28177 1117.5197 2286.7769 1842202
-391.75858 1120.4565 2292.7866 2039581
-380.09906 1126.1635 2304.4646 2171166
-365.20096 1122.3428 2296.6465 2105373
-353.44498 1128.2565 2308.7476 2039582
-339.81479 1128.4229 2309.0879 2105373
-325.56339 1126.4536 2305.0583 2236960
-312.93866 1130.1866 2312.6973 2039581
-298.69092 1128.1316 2308.4922 2171167
-285.88095 1131.5706 2315.5291 2039581
-271.01569 1126.8107 2305.7891 2105374
-258.53906 1132.004 2316.416 2171167
-244.07944 1128.6104 2309.4717 2368546
-229.72379 1125.3229 2302.7446 1973788
-217.30891 1131.7277 2315.8506 2105374
-203.80511 1132.9425 2318.3367 2105374
-189.78543 1131.2579 2314.8894 2039581
-176.25439 1132.4506 2317.3298 1907995
-162.50957 1132.355 2317.1343 2171167
-149.1069 1134.8459 2322.2317 2171167
-135.47697 1135.9379 2324.4658 2302753
-121.53555 1134.3695 2321.2566 2434339
-107.8679 1135.2822 2323.1243 2302753
-94.436699 1139.3147 2331.376 2171167
-79.752495 1127.0222 2306.2219 2236960
-66.248978 1129.781 2311.8672 1973787
-52.964195 1138.6808 2330.0789 2171167
-39.001698 1134.1489 2320.8052 2368546
-25.370314 1139.5532 2331.864 2434339
-11.552328 1139.4789 2331.7119 2500132
2.2672329 1141.1057 2335.0408 2368546
16.107275 1141.3883 2335.6191 2368546
29.769411 1134.6289 2321.7876 2171167
43.607826 1136.7377 2326.1025 2368546
57.29974 1134.9315 2322.4067 2434339
71.674904 1144.7375 2342.4727 2302753
85.423462 1142.9775 2338.8713 2500132
99.324402 1143.4633 2339.8652 2434339
113.18063 1143.3784 2339.6914 2368546
126.79401 1141.1263 2335.083 2302753
140.95712 1143.7781 2340.5093 2368546
154.51451 1141.48 2335.8069 2434339
168.40337 1141.8073 2336.4766 2302753
182.5114 1143.458 2339.8542 2105374
196.51511 1144.2682 2341.5122 1973788
209.10286 1137.2701 2327.1924 2368546
223.4998 1140.3694 2333.5342 2236960
237.74722 1142.3889 2337.6667 2236960
251.97173 1144.082 2341.1313 2500132
265.02304 1140.5496 2333.9028 2434339
280.55865 1147.5286 2348.1838 2565925
295.28754 1150.7042 2354.6824 2368546
307.86972 1145.6055 2344.2488 2434339
321.17792 1143.5319 2340.0056 2565925
336.30823 1147.8489 2348.8394 2236960
349.75922 1146.3188 2345.7085 2302753
363.89371 1147.0603 2347.2258 2302753
377.90036 1147.3591 2347.8372 2500132
391.53702 1146.5532 2346.188 2368546
405.58456 1146.9645 2347.0295 2500132
420.40057 1149.4496 2352.115 2697511
434.63876 1150.246 2353.7446 2434339
448.82916 1150.8705 2355.0225 2631718
464.03409 1153.9801 2361.3857 2565925
476.81628 1151.0593 2355.4089 2829097
491.47543 1152.7067 2358.78 3223341
505.72678 1153.3329 2360.0615 3223597
519.64386 1153.1838 2359.7563 3223598
534.52563 1155.1272 2363.7332 3684149
549.41901 1156.9957 2367.5566 3683377
564.32837 1158.8041 2371.2571 4209721
578.14111 1158.3273 2370.2815 4341562
591.20044 1156.3997 2366.3367 4736320
605.80292 1157.5096 2368.6084 5065285
617.42987 1153.0129 2359.4067 5131077
632.77777 1155.51 2364.5164 5328200
647.55896 1156.8865 2367.333 5460041
662.19318 1157.9476 2369.5044 5460041
672.68616 1151.8734 2357.075 5986385
687.23822 1152.8555 2359.0845 6183764
698.94611 1149.1224 2351.4456 6117971
712.52063 1148.5442 2350.2622 6907744
730.16028 1154.4153 2362.2761 6512730
742.89618 1152.4583 2358.2715 7039073
757.16626 1152.9094 2359.1948 6907486
772.12531 1154.3744 2362.1926 7104863
785.6889 1153.738 2360.8904 7236193
799.08228 1152.8784 2359.1313 7236193
812.35663 1151.8795 2357.0874 7367779
824.20959 1148.933 2351.0579 7894123
840.18286 1151.7327 2356.7869 7828330
850.25549 1146.4843 2346.0471 7301986
866.54242 1149.6494 2352.5237 7433315
878.85852 1147.5295 2348.186 7499365
889.04663 1142.7406 2338.3862 7696744
906.51935 1147.318 2347.7532 7565158
920.38672 1147.2633 2347.6411 7828330
931.61395 1143.9681 2340.8982 7696744
949.85217 1149.2523 2351.7114 7630951
963.99432 1149.4996 2352.2173 7696744
972.04724 1142.5823 2338.0623 7696744
986.26672 1143.0059 2338.9292 7170400
1002.3832 1145.5858 2344.2085 7236193
1018.759 1148.3873 2349.9414 7170400
1030.1093 1145.5248 2344.0837 6841434
1045.0194 1146.6448 2346.3755 7433572
1058.1726 1145.8325 2344.7134 7630952
1070.5397 1144.2013 2341.3752 7959916
1086.228 1146.116 2345.2935 7828071
1100.5817 1146.5919 2346.2673 7893864
1112.9727 1145.0367 2343.085 7630436
1126.5916 1144.7677 2342.5344 7695972
1142.6332 1146.9369 2346.9734 7630949
1156.3472 1146.7458 2346.5823 7499618
1170.1879 1146.6833 2346.4543 7565155
1191.1229 1153.4927 2360.3882 7828327
1194.8705 1143.6925 2340.3342 7959912
1211.2192 1146.0403 2345.1384 7696227
1223.4951 1144.5249 2342.0376 7959399
1242.2562 1149.0419 2351.2808 8025190
1255.4181 1148.3373 2349.8389 8090982
1273.6238 1152.2111 2357.7656 8090983
1299.0973 1162.5044 2378.8289 8025447
1304.0771 1154.4347 2362.3159 8090983
1312.34 1149.4119 2352.0378 8288360
1343.4882 1164.3281 2382.5608 8617579
1350.1556 1157.9386 2369.4858 9801341
1368.0938 1161.2472 2376.2563 9472630
1380.6182 1159.9401 2373.5815 9275510
1392.8418 1158.4091 2370.4487 8420202
1407.1029 1158.5863 2370.8113 8156778
1419.3695 1157.134 2367.8396 8156778
1438.9601 1161.6226 2377.0244 8090984
1453.583 1162.0527 2377.9048 7959399
1465.8951 1160.645 2375.0242 7959398
1481.2185 1161.6256 2377.0308 7827812
1497.6129 1163.4198 2380.7021 7696227
1513.9077 1165.1039 2384.1482 7696227
1518.4373 1157.786 2369.1736 8156778
1522.2142 1150.0336 2353.3098 7630433
1545.7086 1157.1831 2367.9399 8025192
1554.1873 1153.0637 2359.5105 7762020
1585.9427 1166.1332 2386.2546 7959399
1591.5312 1159.9011 2373.502 7762020
1607.2367 1161.087 2375.9287 7696227
1621.569 1161.2689 2376.3008 7695970
1639.0903 1163.7118 2381.2996 7827813
1653.6785 1164.0483 2381.9883 7695970
1672.3291 1167.2144 2388.467 7564641
1688.0945 1168.3307 2390.7512 7564641
1700.2448 1166.947 2387.9199 7762020
1715.239 1167.5221 2389.0967 8024937
1726.7102 1165.7094 2385.3872 7959144
1746.7903 1169.6908 2393.5344 7959144
1755.0358 1165.7471 2385.4646 8090730
1777.3511 1171.1373 2396.4946 7893351
1785.1572 1166.9576 2387.9417 7695972
1798.3661 1166.3475 2386.6931 7630179
1813.1915 1166.7874 2387.593 7564386
1824.4895 1164.9679 2383.8699 7498593
1844.603 1168.7621 2391.634 7761508
1855.0005 1166.389 2386.7781 7630179
1869.33 1166.5056 2387.0166 7565156
1882.9189 1166.1619 2386.3132 7630179
1896.8218 1166.0161 2386.0151 7432543
1906.7198 1163.429 2380.7209 8025707
1909.9913 1156.8661 2367.2915 7236190
1928.1176 1159.3308 2372.335 7433570
1950.2495 1164.151 2382.1982 7696742
1977.4974 1171.9337 2398.124 7894120
1993.3666 1172.9102 2400.1221 7367520
2002.0859 1169.6954 2393.5439 6973018
2004.5719 1162.9098 2379.6584 6775642
2019.0333 1163.1177 2380.084 7170400
2051.033 1173.3561 2401.0347 7367779
2075.1924 1178.999 2412.5818 7630951
2083.7122 1175.74 2405.9131 7565158
2105.2905 1179.8436 2414.3103 7565158
2125.4673 1183.1117 2420.9976 7565158
2142.4573 1184.5737 2423.9895 7367779
2151.7996 1181.8164 2418.3469 7630951
2124.4001 1159.0494 2371.759 7433572
2158.9885 1170.1793 2394.5342 7499365
2197.5801 1183.3193 2421.4226 7499365
2223.2576 1189.3804 2433.8252 7564645
2244.2698 1192.8837 2440.9939 7499365
2247.5461 1186.9752 2428.9036 7433572
2275.7358 1194.2156 2443.7195 7301986
2286.5652 1192.3119 2439.824 7170400
2230.9429 1155.9993 2365.5176 7630951
2311.2295 1190.1238 2435.3464 7630951
2327.4429 1191.0363 2437.2136 7696744
0 0 0 0
0 0 0 0
0 0 0 0
0 0 0 0
0 0 0 0
0 0 0 0
0 0 0 0
0 0 0 0
0 0 0 0
-2000.9722 1122.2263 2268.8975 196608
-1989.4686 1123.322 2271.1128 196608
-1969.9855 1119.8966 2264.187 197376
-1951.2971 1116.8789 2258.0859 920584
-1929.0554 1111.7716 2247.7603 1381392
-1921.6866 1115.2246 2254.7415 1447698
-1907.1744 1114.5514 2253.3804 1579284
-1885.3466 1109.5634 2243.2957 1579284
-1872.9681 1110.1051 2244.3909 1579284
-1856.2375 1108.0565 2240.2493 1645077
-1837.1998 1104.5916 2233.2437 1645333
-1824.6418 1105.0001 2234.0698 1710871
-1805.6937 1101.5167 2227.0271 1776409
-1792.5186 1101.5295 2227.053 1842202
-1781.2457 1102.7202 2229.4602 1907995
-1766.7761 1101.9349 2227.8726 1842202
-1751.8622 1100.8585 2225.6963 1907995
-1738.8457 1100.9673 2225.9163 1973788
-1725.5112 1100.8748 2225.729 1842202
-1717.7434 1104.3596 2232.7747 1842202
-1705.4546 1104.9695 2234.0078 1776409
-1696.151 1107.5382 2239.2012 1842202
-1688.0154 1110.9159 2246.0303 1842202
-1676.8551 1112.3411 2248.9116 1776409
-1657.4672 1108.2875 2240.7161 1842202
-1645.4729 1109.1522 2242.4644 1447444
-1631.1326 1108.4368 2241.0178 1579030
-1625.1174 1113.4135 2251.0796 1513237
-1606.2319 1109.5817 2243.3325 1579030
-1594.7209 1110.8226 2245.8416 1579030
-1579.5573 1109.5188 2243.2056 1579030
-1564.1011 1107.9856 2240.1057 1579030
-1549.8163 1107.2632 2238.645 1710616
-1541.5925 1110.8958 2245.9895 1776409
-1524.8312 1108.3859 2240.915 1776409
-1510.1791 1107.3785 2238.8784 1907995
-1495.2911 1106.1788 2236.4529 1776409
-1485.4052 1108.6912 2241.5322 1907995
-1466.3002 1104.3057 2232.6658 2105374
-1454.7594 1105.5891 2235.2605 2105374
-1442.339 1106.2213 2236.5388 2105374
-1428.0482 1105.4176 2234.9138 2368546
-1414.6045 1105.2606 2234.5964 2236960
-1404.0885 1107.4097 2238.9414 2105374
-1389.146 1106.0753 2236.2434 1907995
-1377.0063 1106.9684 2238.0491 1907995
-1363.939 1107.126 2238.3677 1776409
-1352.8954 1108.9452 2242.0459 1776409
-1339.7938 1109.0972 2242.353 1907995
-1327.1884 1109.6669 2243.5049 2236960
-1314.63 1110.2878 2244.7605 2105374
-1300.0457 1109.193 2242.5469 1973788
-1283.8348 1106.6735 2237.4529 1907995
-1271.2438 1107.2543 2238.6272 1907995
-1261.9283 1110.7303 2245.655 1842202
-1247.9003 1110.0884 2244.3572 1842202
-1235.3129 1110.7279 2245.6501 1842202
-1229.2382 1117.3011 2258.9397 1842202
-1222.0719 1123.0157 2270.4937 2105374
-1208.0199 1122.46 2269.3696 1907995
-1180.4351 1109.1754 2242.5115 1973788
-1171.6462 1113.4509 2251.1555 1907995
-1162.417 1117.4016 2259.1428 1973788
-1150.0497 1118.3925 2261.1462 2105374
-1137.6892 1119.4136 2263.2107 2105374
-1121.6298 1116.7761 2257.8782 2039581
-1106.7744 1115.2882 2254.8699 1710616
-1093.4679 1115.3438 2254.9822 1842202
-1078.9977 1114.199 2252.668 1973788
-1066.3544 1114.9358 2254.1575 1973788
-1053.7479 1115.7303 2255.7639 1973788
-1047.8544 1123.7441 2271.9661 1907995
-1027.9451 1116.7404 2257.8059 2039581
-1020.1957 1122.9363 2270.3328 1710616
-1005.9346 1122.0345 2268.5095 1776409
-991.92859 1121.3967 2267.22 1907995
-980.32855 1123.4987 2271.4697 1907995
-958.23218 1113.4624 2251.1787 1973788
-946.41968 1115.2614 2254.8159 1842202
-931.0766 1112.892 2250.0254 1973788
-917.02063 1112.0145 2248.2512 1973788
-905.80994 1114.6121 2253.5032 1973788
-894.79102 1117.5271 2259.3967 1907995
-881.27185 1117.3607 2259.0601 1973788
-867.57349 1116.9583 2258.2466 2105374
-854.48187 1117.3368 2259.0117 2105374
-843.87817 1121.0322 2266.4832 1776409
-827.36371 1116.8682 2258.0645 1776409
-817.35205 1121.4897 2267.4082 2236960
-800.86328 1117.2301 2258.7961 2171167
-789.29352 1119.8043 2264.0007 2236960
-776.54297 1120.7637 2265.9402 2171167
-762.39276 1119.7009 2263.7915 2039581
-747.48608 1117.4691 2259.2795 2105374
-733.32385 1116.2893 2256.894 2171167
-720.5451 1117.2108 2258.7571 2236959
-705.7428 1114.9701 2254.2268 1973788
-692.28455 1114.8074 2253.8979 1907995
-680.12555 1116.7716 2257.8691 1973788
-664.81018 1113.5278 2251.311 1973788
-651.90649 1114.2736 2252.8186 1907995
-637.14355 1111.806 2247.8298 1776409
-626.58606 1116.7281 2257.7812 1907995
-612.86658 1116.1067 2256.5249 2171167
-598.72571 1114.6731 2253.6265 2171166
-583.7467 1111.578 2247.3689 1776409
-568.48932 1107.7961 2239.7227 1710616
-558.20062 1113.7471 2251.7542 1907995
-546.20905 1116.5087 2257.3374 1776922
-531.39661 1113.4978 2251.2502 2105887
-514.98889 1106.9032 2237.9175 2040094
-502.72278 1109.0972 2242.353 2040094
-488.76324 1107.5728 2239.271 2369059
-474.77957 1105.9071 2235.9036 1974301
-460.70642 1103.9314 2231.9089 1908508
-451.05652 1112.7511 2249.7405 2039324
-437.58307 1112.3879 2249.0063 1842202
-424.49768 1113.0195 2250.2832 1973788
-410.70538 1111.7783 2247.7739 2171167
-397.60226 1112.3823 2248.9949 2105374
-385.3822 1115.5844 2255.4688 2171167
-372.74585 1117.7679 2259.8835 2236959
-358.61218 1115.457 2255.2114 2171167
-346.42725 1119.2633 2262.907 2171167
-335.04123 1126.0613 2276.6509 1973788
-321.57523 1126.1456 2276.8213 1907995
-306.59058 1120.6862 2265.7834 1907995
-294.79498 1126.9174 2278.3818 2039581
-281.57297 1128.0323 2280.636 2105374
-268.06464 1128.0549 2280.6816 2105374
-254.65421 1128.5138 2281.6091 2105374
-240.78099 1126.858 2278.2617 2039581
-226.87193 1124.8281 2274.1577 1907995
-214.21571 1129.1455 2282.8865 2171167
-201.10884 1131.5094 2287.6658 1973788
-187.28351 1129.8806 2284.3726 2302753
-172.55371 1122.1161 2268.6746 2236960
-160.78586 1133.9286 2292.5569 2171167
-147.17715 1133.7407 2292.177 2302753
-133.23071 1130.6486 2285.9253 2434338
-119.88043 1132.4882 2289.6448 2368546
-106.0681 1129.8756 2284.3625 2171167
-92.516953 1129.6879 2283.9829 2434339
-78.670036 1125.2052 2274.9202 2105374
-65.605675 1132.3762 2289.4182 2302753
-52.033958 1132.2457 2289.1545 2236960
-38.579716 1135.4808 2295.6951 2368546
-24.958164 1134.6335 2293.9822 2368546
-11.310017 1129.1047 2282.804 2434339
2.2290273 1135.4795 2295.6924 2434339
15.874186 1138.5103 2301.8201 2565925
29.35619 1132.446 2289.5593 2368546
43.143463 1138.2692 2301.3325 2368546
56.765656 1137.986 2300.76 2434339
70.389488 1137.839 2300.4629 2500132
84.022812 1137.8683 2300.522 2500132
97.773514 1139.257 2303.3296 2565925
111.41444 1139.1831 2303.1802 2500132
125.15459 1140.0291 2304.8906 2368546
138.20857 1135.0734 2294.8713 2368546
152.22054 1138.1683 2301.1287 2302753
165.99594 1139.1311 2303.0752 2434339
179.67714 1139.3503 2303.5183 2302753
193.2141 1138.6884 2302.1799 2236960
207.37221 1141.533 2307.9312 2171167
219.3972 1133.0099 2290.6995 2236960
234.15576 1138.7742 2302.3535 2105374
247.83678 1138.9517 2302.7124 2302753
262.66092 1144.0901 2313.1011 2302753
275.97958 1142.4863 2309.8586 2302753
290.50949 1145.8114 2316.5813 2434339
303.31021 1142.3241 2309.5308 2500132
317.07928 1142.6274 2310.144 2565925
330.50836 1141.7312 2308.332 2434339
344.5936 1143.0829 2311.0647 2434339
358.00104 1142.1686 2309.2163 2434339
372.45645 1144.542 2314.0149 2500132
385.67975 1143.0952 2311.0898 2565925
399.85342 1144.4678 2313.8647 2565925
412.4635 1141.4224 2307.7075 2500132
427.73682 1145.7058 2316.3679 2500132
441.89755 1146.8357 2318.6521 2565925
456.35046 1148.6326 2322.2852 2565925
472.78589 1155.1686 2335.4993 2631718
484.06979 1149.1036 2323.2375 2631718
499.14801 1152.1322 2329.3606 3223598
513.89343 1154.2502 2333.6428 3355184
527.76355 1154.3429 2333.8301 3289391
541.24323 1153.5986 2332.3254 3618097
556.104 1155.7617 2336.6987 3946549
570.25543 1156.3813 2337.9514 4209720
583.34735 1154.8741 2334.9041 4341307
597.22461 1154.9554 2335.0684 4209720
607.35553 1147.952 2320.9092 4473148
622.88068 1151.2286 2327.5337 5065285
638.57611 1154.671 2334.4937 5262664
652.83783 1155.4303 2336.0286 5196871
662.74365 1148.6085 2322.2366 5854801
678.46893 1151.9451 2328.9822 5394250
693.62762 1154.2057 2333.5527 6183764
707.4549 1154.2057 2333.5527 6183764
721.7998 1155.0341 2335.2275 6578265
732.73035 1150.4705 2326.0007 6512472
749.90692 1155.7012 2336.5762 6775901
763.4646 1155.266 2335.6965 6907487
772.98102 1148.8403 2322.7051 6907228
788.69446 1151.6885 2328.4634 7236192
800.9754 1149.5126 2324.0645 7236193
814.2782 1148.8521 2322.7288 7236193
827.66516 1148.3302 2321.6736 7565158
841.31543 1148.1847 2321.3796 7696744
850.52582 1142.082 2309.0415 7565158
866.75116 1145.4432 2315.8369 7433572
880.25635 1145.1608 2315.2659 7367779
888.62689 1138.3097 2301.4146 7433572
899.60706 1134.9581 2294.6382 7630951
917.07996 1139.7756 2304.3782 7762537
930.87134 1139.9432 2304.7173 7630951
944.63983 1140.0786 2304.991 7630951
953.71655 1134.6283 2293.9714 7762537
963.59369 1130.27 2285.1602 7959916
999.78827 1156.4746 2338.1399 7104607
1012.0737 1154.6844 2334.5205 7433572
1018.512 1146.3616 2317.6936 7499108
1028.6132 1142.3279 2309.5383 7696744
1035.3217 1134.6819 2294.0798 7696744
1056.1389 1142.4965 2309.8792 7696744
1087.3245 1161.1836 2347.6606 7828327
1086.1921 1145.3217 2315.5911 7762535
1097.6431 1142.9581 2310.8125 7696742
1110.9078 1142.5182 2309.9231 7236191
1115.41 1133.1869 2291.0571 7235934
1137.2142 1141.4462 2307.7559 7565156
1155.8162 1146.3333 2317.6365 7894121
1179.5621 1156.1476 2337.4788 7828328
1185.9827 1148.9496 2322.926 7828328
1196.8154 1146.1423 2317.2502 7761764
1211.5707 1147.1123 2319.2114 7762020
1222.9003 1144.8536 2314.645 7827814
1240.6418 1148.5813 2322.1814 7959399
1250.8313 1145.3121 2315.5718 8090984
1267.2567 1147.7617 2320.5244 8617327
1282.1649 1148.7993 2322.6223 8090983
1295.1296 1148.0922 2321.1926 8222569
1306.3232 1145.8464 2316.6521 8551789
1332.4567 1156.6155 2338.4248 8946033
1348.1929 1158.2306 2341.6902 9932922
1359.522 1156.0653 2337.3125 10722179
1368.2235 1151.7319 2328.5513 9933434
1384.0924 1153.4581 2332.0413 8814700
1410.6633 1163.9807 2353.3157 9209205
1420.4561 1160.5886 2346.4575 9012086
1442.521 1167.1921 2359.8086 8617328
1447.4973 1159.9746 2345.2163 8354157
1468.2627 1165.4269 2356.2395 8025192
1485.1969 1167.764 2360.9648 8025192
1497.4415 1166.4048 2358.2168 7959399
1507.3475 1163.266 2351.8706 8025192
1519.6738 1162.0353 2349.3823 8025192
1522.1207 1153.3409 2331.8044 7696227
1539.3062 1155.8704 2336.9185 7762020
1559.2823 1160.4319 2346.1406 7630434
1570.7864 1158.663 2342.5645 7696227
1579.688 1155.0226 2335.2043 7630177
1598.0361 1158.2924 2341.8149 7301469
1621.069 1164.8721 2355.1179 7367005
1634.6665 1164.6173 2354.6028 7564641
1647.46 1163.799 2352.9482 7564641
1657.3196 1160.9392 2347.1665 7630177
1672.7094 1161.9686 2349.2478 7827812
1685.2501 1161.0183 2347.3264 7695972
1701.4768 1162.6021 2350.5283 7893351
1718.2057 1164.5005 2354.3665 7695972
1729.22 1162.5262 2350.3752 7630179
1736.5548 1158.1301 2341.4871 7564386
1759.7522 1164.2986 2353.9583 7827558
1774.3721 1164.7394 2354.8496 7695715
1786.1212 1163.3037 2351.947 7564386
1800.9415 1163.8751 2353.1023 7169628
1814.8846 1163.8751 2353.1023 7630179
1834.194 1167.2903 2360.0068 7367007
1840.1978 1162.25 2349.8167 7564386
1857.8384 1164.58 2354.5273 7629922
1871.4766 1164.3851 2354.1333 7827301
1884.7603 1163.974 2353.3022 7630179
1891.0769 1159.2981 2343.8484 7498850
1916.5303 1166.3362 2358.0781 7301984
1928.7262 1165.2629 2355.908 7565156
1935.3784 1160.8796 2347.0461 7433570
1950.0826 1161.3544 2348.0059 7433570
1979.5895 1170.5754 2366.6487 7367777
1986.8649 1166.6133 2358.6382 7367778
1994.265 1162.7792 2350.8865 7104607
2019.4158 1169.2764 2364.0222 7038814
2016.7224 1159.6726 2344.6057 7301986
2052.6172 1172.2379 2370.01 7301986
2051.1482 1163.4391 2352.2207 7301986
2071.9534 1167.308 2360.0427 7696744
2096.2634 1173.0864 2371.7256 7499365
2119.7461 1178.3281 2382.323 7564901
2093.7539 1156.1801 2337.5444 7565158
2142.0225 1175.0608 2375.717 7367779
2118.5078 1154.5735 2334.2964 8025709
2183.2019 1182.1133 2389.9758 7761511
2180.2617 1172.9131 2371.375 7565158
2160.8267 1155.0139 2335.1868 7565158
2174.3643 1154.8549 2334.8652 7565158
2189.5066 1155.5449 2336.2603 7499365
2262.4414 1186.5354 2398.9163 7433572
2279.4414 1187.9871 2401.8513 7367522
2290.1321 1186.1528 2398.1428 7433315
0 0 0 0
0 0 0 0
0 0 0 0
0 0 0 0
0 0 0 0
0 0 0 0
0 0 0 0
0 0 0 0
0 0 0 0
0 0 0 0
-1966.7191 1123.7803 2245.1426 986634
-1916.9252 1102.7877 2203.2026 986634
-1925.644 1115.3998 2228.3997 1381649
-1915.8013 1117.3601 2232.3162 1447442
-1891.7478 1111.0022 2219.614 1315857
-1878.6199 1111.0165 2219.6426 1315602
-1861.5801 1108.7012 2215.0168 1447445
-1842.0863 1104.8811 2207.385 1513237
-1824.6444 1102.246 2202.1204 1513237
-1810.6379 1101.6631 2200.9558 1513237
-1793.816 1099.3462 2196.3271 1447444
-1783.6874 1101.1274 2199.8857 1710616
-1770.2593 1100.8832 2199.3977 1907995
-1758.35 1101.5867 2200.8032 1973788
-1739.8335 1098.1306 2193.8984 1907995
-1729.1416 1099.5983 2196.8306 1907995
-1716.139 1099.6075 2196.8491 1842202
-1704.532 1100.5179 2198.668 1710616
-1693.1992 1101.621 2200.8716 1776409
-1682.7896 1103.3462 2204.3184 1842202
-1670.863 1104.0963 2205.8169 1842202
-1656.7788 1103.4208 2204.4675 1907995
-1648.3325 1106.5195 2210.6584 1710616
-1635.3457 1106.5955 2210.8101 1710616
-1622.7172 1106.9171 2211.4526 1776409
-1615.8798 1111.2264 2220.062 1973788
-1594.6274 1105.6122 2208.8455 1776409
-1580.1411 1104.6348 2206.8928 1710616
-1564.5035 1102.8297 2203.2866 1776409
-1553.1593 1104.046 2205.7166 1973788
-1538.2073 1102.6967 2203.0208 1842202
-1524.8494 1102.4767 2202.5813 1842202
-1509.7065 1100.9514 2199.5339 1776409
-1503.6681 1106.0967 2209.8135 1710616
-1490.2374 1105.8469 2209.3145 1776409
-1477.9556 1106.4526 2210.5247 1776409
-1464.3639 1106.0801 2209.7803 1842202
-1449.8835 1105.0232 2207.6689 1907995
-1435.7371 1104.2041 2206.0325 2105374
-1427.3311 1107.8253 2213.2671 1973788
-1411.0475 1105.3429 2208.3074 2236960
-1398.6598 1105.8943 2209.4092 2105374
-1384.317 1104.8956 2207.4141 1973788
-1371.5156 1105.1201 2207.8623 1973788
-1360.7799 1107.0292 2211.6765 1644823
-1343.8949 1103.9242 2205.4731 1644823
-1334.3364 1106.8357 2211.2898 1842202
-1321.1899 1106.799 2211.2166 1973788
-1304.0249 1103.3615 2204.3489 1907995
-1294.3481 1106.2544 2210.1287 1644823
-1282.5127 1107.3428 2212.303 1579030
-1269.8958 1107.7717 2213.1602 1776409
-1257.0826 1108.0369 2213.6897 1842202
-1244.3973 1108.4215 2214.458 1842202
-1233.1639 1110.1211 2217.8538 1907995
-1226.9681 1116.4414 2230.4807 1579030
-1217.4923 1119.8821 2237.3547 1907995
-1196.9772 1113.1326 2223.8701 1907995
-1190.7472 1119.6653 2236.9214 1842202
-1171.976 1114.4197 2226.4414 1776409
-1157.2487 1112.9436 2223.4924 1710616
-1145.0074 1113.8521 2225.3076 2105373
-1129.3636 1111.4331 2220.4749 2105374
-1116.1836 1111.4104 2220.4294 2236960
-1101.1687 1109.5383 2216.6895 2105374
-1099.1995 1120.9246 2239.4373 1973788
-1076.9496 1111.6548 2220.9177 1776409
-1063.4 1111.2476 2220.104 1776409
-1052.1343 1113.2466 2224.0979 1710616
-1039.4084 1113.7317 2225.0671 1710616
-1025.1761 1112.5945 2222.7952 1776409
-1014.4213 1115.2509 2228.1021 1776409
-998.30548 1112.0055 2221.6184 1710616
-983.52234 1110.1779 2217.967 1776409
-968.26318 1107.7561 2213.1287 1710616
-970.16101 1125.166 2247.9111 2171167
-937.65277 1102.6019 2202.8315 2039581
-929.63757 1108.6091 2214.833 1842202
-916.72113 1108.86 2215.3342 1842202
-904.79327 1110.3312 2218.2734 1973788
-894.48871 1113.8673 2225.3379 2039581
-884.02472 1117.3076 2232.2112 1973788
-867.81073 1113.4747 2224.5537 1776409
-856.11462 1115.4098 2228.4197 1710616
-844.15088 1117.0514 2231.6995 1907995
-830.79694 1116.8763 2231.3496 1710616
-816.93945 1116.0077 2229.6143 1710616
-807.18793 1120.8119 2239.2122 2171167
-787.22693 1111.3633 2220.3354 2039581
-775.8855 1113.9692 2225.5415 2105374
-767.41217 1120.8541 2239.2966 2039581
-746.85529 1110.0221 2217.6558 2105374
-737.11603 1115.1677 2227.936 2368546
-722.07214 1112.3295 2222.2656 2171167
-709.18091 1112.7634 2223.1326 2105374
-695.79724 1112.4265 2222.4595 2236960
-684.2796 1115.1177 2227.8359 1973788
-670.31091 1113.8417 2225.2866 2105374
-656.84021 1113.3585 2224.3215 1973788
-643.88104 1113.7405 2225.0847 1776409
-630.09857 1112.6847 2222.9753 1644823
-616.79047 1112.4392 2222.4849 1644823
-604.44305 1113.9536 2225.5103 1973788
-590.85443 1113.1969 2223.9988 2039581
-575.41986 1108.8486 2215.3115 1842202
-563.84961 1111.9177 2221.4431 1776409
-551.02112 1112.593 2222.7922 1710616
-535.43677 1107.6007 2212.8184 1842715
-520.4444 1103.613 2204.8516 1776922
-508.58954 1106.2444 2210.1086 2105887
-497.87186 1111.5538 2220.7161 2566438
-483.14771 1107.9637 2213.5435 2303266
-469.46161 1106.6202 2210.8594 2105887
-456.70816 1107.4611 2212.5393 2040094
-444.60925 1109.9858 2217.5835 2105374
-432.10394 1111.6188 2220.8457 1973788
-417.21613 1107.0326 2211.6833 2171167
-405.04718 1109.5972 2216.8069 2105374
-393.01514 1112.7213 2223.0483 2368546
-380.2543 1113.927 2225.4573 2105374
-367.28604 1114.5901 2226.782 2105374
-354.74338 1116.6421 2230.8816 1973788
-343.18698 1122.0776 2241.741 1907996
-325.46332 1106.9747 2211.5676 1973788
-314.67731 1115.1909 2227.9824 1710616
-303.14838 1121.3788 2240.3447 1842202
-290.3024 1123.0381 2243.6599 1973788
-277.55298 1125.2484 2248.0757 2039581
-262.6994 1118.7207 2235.0344 1776409
-249.38258 1118.3918 2234.3774 1973788
-237.68114 1125.6766 2248.9312 2039581
-224.53548 1126.5804 2250.7371 1973788
-211.32475 1127.2516 2252.0776 2039581
-198.25836 1128.8347 2255.2407 2039581
-184.12399 1124.1267 2245.8347 2039581
-169.93536 1118.3279 2234.2495 1973788
-158.09268 1128.2921 2254.1565 2302753
-144.60909 1127.3033 2252.1812 2236960
-130.75128 1122.9001 2243.3843 2236959
-118.0351 1128.4141 2254.4001 2368545
-104.86848 1130.4795 2258.5266 2105374
-91.436363 1129.8687 2257.3062 2171167
-78.069298 1129.9899 2257.5486 2302753
-64.646553 1129.1887 2255.948 2368546
-51.220558 1127.8986 2253.3704 2434339
-37.999638 1131.8063 2261.1775 2302753
-24.500013 1127.1486 2251.8721 2368546
-11.200295 1131.5461 2260.6577 2171167
2.1959352 1132.0232 2261.6106 2368546
15.652705 1136.0745 2269.7046 2500132
29.023781 1133.0359 2263.634 2500132
42.493114 1134.5415 2266.6421 2500132
55.70406 1130.082 2257.7327 2368546
69.367851 1134.7577 2267.0737 2434339
82.835823 1135.2325 2268.0225 2368546
96.110962 1133.301 2264.1636 2368546
109.58293 1133.8793 2265.3188 2434339
123.33817 1136.9426 2271.439 2434339
136.55005 1134.8872 2267.3325 2434339
150.13739 1136.041 2269.6377 2302753
163.41463 1134.8516 2267.2612 2500132
176.84161 1134.8037 2267.1658 2171167
190.69936 1137.3317 2272.2163 2302753
204.09904 1136.9746 2271.5029 2368546
217.84384 1138.4653 2274.481 2368546
230.94112 1136.5953 2270.7451 2434339
244.81868 1138.5602 2274.6707 2302753
258.48639 1139.3949 2276.3384 2039581
272.83264 1142.9895 2283.5198 2105374
283.06158 1129.8105 2257.1902 2302753
298.35037 1137.1055 2271.7644 2434339
311.74341 1136.8573 2271.2686 2434339
325.61597 1138.3058 2274.1626 2500132
339.48059 1139.6127 2276.7734 2368546
353.3927 1140.9729 2279.491 2434339
365.30405 1136.0111 2269.5781 2565924
380.36713 1140.8549 2279.2551 2500132
393.65335 1140.2198 2277.9863 2631719
