# .PCD v0.7 - Point Cloud Data file format
VERSION 0.7
FIELDS x y z rgb
SIZE 4 4 4 4
TYPE F F F U
COUNT 1 1 1 1
WIDTH 1288
HEIGHT 1
VIEWPOINT 0 0 0 1 0 0 0
POINTS 1288
DATA ascii
1758.1366 977.49683 2598.9995 1052428
1770.8239 976.00153 2595.0237 1184013
1771.1996 967.80493 2573.2302 1118220
1793.3726 971.55682 2583.2061 1249806
1814.4818 974.67383 2591.4937 1447185
1836.6128 978.28278 2601.0891 1578001
1851.9937 978.26611 2601.0449 1709587
1868.3481 978.7597 2602.3572 1643794
1882.8574 978.2865 2601.0991 1709587
1898.2368 978.26947 2601.0537 1578001
1916.7765 979.8681 2605.3044 1512208
1941.4283 984.54102 2617.7288 1512208
1954.6716 983.40002 2614.6951 1512208
1971.2242 983.92883 2616.1011 1578001
1986.754 983.94281 2616.1384 1512208
2002.4899 984.05792 2616.4443 1512208
2020.8344 985.44336 2620.1279 1512208
2034.217 984.40649 2617.3711 1512208
2048.3835 983.76172 2615.6567 1643794
2065.5579 984.56036 2617.7803 1512208
2081.9866 984.99432 2618.9341 1512208
2105.6174 988.80408 2629.0635 1512208
2122.7122 989.51093 2630.9431 1512208
2136.2991 988.58429 2628.4792 1578001
2148.905 987.2204 2624.8528 1709587
2161.198 985.73334 2620.8989 1643794
2176.7917 985.76221 2620.9758 1578001
2182.8745 981.51416 2609.6809 1512208
2199.7073 982.12567 2611.3069 1512208
2210.4624 980.03394 2605.7451 1512208
2219.1096 977.04315 2597.7932 1578001
2226.1257 973.38037 2588.0544 1643794
2236.2898 971.13452 2582.0833 1512208
2245.0894 968.33087 2574.6289 1446414
2255.5667 966.28394 2569.1863 1380622
2267.3213 964.8078 2565.2615 1380622
2276.2598 962.16107 2558.2244 1446415
2294.9531 963.6452 2562.1704 2104345
2302.7607 960.56915 2553.9917 1446415
2314.9834 959.36285 2550.7844 1512207
2352.4285 968.55707 2575.2302 1446415
2380.1328 973.64801 2588.7661 1512208
2401.0916 975.93195 2594.8389 1643794
2420.4568 977.54333 2599.123 1643794
2450.9355 983.59436 2615.2117 1709587
2492.3303 993.92249 2642.6726 1314829
2461.1003 975.34027 2593.2656 1117450
2534.6509 998.25586 2654.1941 920071
0 0 0 0
0 0 0 0
0 0 0 0
0 0 0 0
0 0 0 0
0 0 0 0
0 0 0 0
0 0 0 0
-2351.9119 1012.0097 2649.0288 1512461
-2329.4795 1009.0918 2641.3911 1512461
-2303.8594 1004.7443 2630.0112 1512461
-2285.6987 1003.6129 2627.0493 1512461
-2270.3923 1003.7278 2627.3501 1644047
-2253.2922 1003.0459 2625.5652 1644046
-2235.0269 1001.832 2622.3879 1578253
-2218.9075 1001.5699 2621.7017 1644047
-2198.8518 999.51489 2616.3225 1578254
-2179.0398 997.54211 2611.1587 1578254
-2161.115 996.41125 2608.1985 1709840
-2145.2839 996.23645 2607.741 1512461
-2147.4783 1004.4905 2629.3469 1446155
-2129.9822 1003.5878 2626.9836 1315339
-2123.2483 1007.7799 2637.957 1512461
-2106.1558 1007.081 2636.1274 1446668
-2090.677 1007.149 2636.3057 1446668
-2076.1406 1007.6757 2637.6841 1315082
-2063.3103 1009.0444 2641.2671 1315082
-2050.9053 1010.6436 2645.4531 1315082
-2048.2661 1017.1172 2662.3982 1315082
-2035.6517 1018.6992 2666.5393 1315082
-2014.6758 1016.089 2659.7068 1315082
-1996.7435 1014.9846 2656.8162 1249289
-1982.7692 1015.8907 2659.1877 1183496
-1966.5343 1015.6437 2658.5413 1249289
-1946.2224 1013.2701 2652.3284 1249289
-1930.559 1013.2979 2652.4006 1249289
-1916.3571 1014.0994 2654.4988 1249289
-1900.8041 1014.1932 2654.7444 1183496
-1883.4141 1013.3004 2652.4075 1051910
-1868.0334 1013.4825 2652.8843 986118
-1851.5815 1013.0819 2651.8354 1051911
-1833.0165 1011.5082 2647.7161 920325
-1815.2529 1010.3533 2644.6931 854531
-1795.3617 1007.9839 2638.491 854531
-1776.2925 1006.0383 2633.3982 854531
-1768.1104 1010.2791 2644.4988 854532
-1756.2917 1012.4992 2650.3103 788738
-1740.9456 1012.7074 2650.8552 788738
-1722.2417 1010.9485 2646.2512 854531
-1705.7748 1010.4824 2645.031 986117
-1690.5187 1010.7317 2645.6836 920326
-1674.4994 1010.5249 2645.1423 920326
-1656.9911 1009.4072 2642.2166 854532
-1642.1865 1009.9309 2643.5874 854532
-1625.2134 1009.1183 2641.4604 722946
-1608.8624 1008.6798 2640.3127 525568
-1588.1598 1005.4778 2631.9309 459776
-1571.6475 1004.8914 2630.396 393984
-1552.8101 1002.7918 2624.9001 328192
-1542.3087 1006.0875 2633.5269 393984
-1535.3557 1011.7889 2648.4509 262400
-1520.1876 1012.1385 2649.366 328192
-1505.4998 1012.8184 2651.1458 196864
-1490.2792 1013.1505 2652.0151 328192
-1475.3293 1013.6758 2653.3899 328192
-1459.8905 1013.8726 2653.9053 262400
-1442.9565 1013.0242 2651.6846 328192
-1432.2156 1016.5528 2660.9209 393728
-1418.6293 1018.1179 2665.0176 590592
-1403.4718 1018.5778 2666.2217 525056
-1388.8129 1019.4142 2668.4109 854017
-1368.5017 1016.0733 2659.6658 1117189
-1356.2771 1018.7285 2666.616 1248776
-1340.1735 1018.4983 2666.0134 1182983
-1330.1711 1022.9548 2677.679 1051140
-1312.6097 1021.6355 2674.2253 1116673
-1294.9515 1020.2077 2670.4878 1248002
-1276.2917 1017.9457 2664.5669 1182466
-1258.6582 1016.4558 2660.667 1248260
-1240.2944 1014.3309 2655.1047 1116675
-1221.4901 1011.7865 2648.4446 1182468
-1204.5848 1010.7693 2645.7822 1051139
-1189.8955 1011.6094 2647.981 1182725
-1165.5214 1004.128 2628.3977 1314570
-1152.7465 1006.5723 2634.7961 1249030
-1136.9443 1006.4043 2634.3562 1249031
-1118.7946 1004.1245 2628.3887 1183494
-1102.3065 1003.2928 2626.2117 1314823
-1090.203 1006.4851 2634.5679 1314823
-1069.7269 1001.9283 2622.6399 1051651
-1048.9679 996.96814 2609.6562 1248004
-1042.2356 1005.3905 2631.7024 1577225
-1026.9197 1005.6627 2632.415 1708808
-1012.6573 1006.991 2635.8918 1840395
-997.16577 1007.1194 2636.228 1708808
-974.823 1000.2222 2618.1741 1511430
-967.11578 1008.3616 2639.4797 1839881
-949.25146 1006.0043 2633.3093 1905930
-930.88605 1003.0283 2625.5193 1971979
-913.77185 1001.3221 2621.0532 2168589
-897.6225 1000.6326 2619.2483 2300175
-881.29822 999.72034 2616.8604 2300175
-865.28809 999.13818 2615.3364 2431761
-853.00867 1002.9211 2625.2388 2497554
-836.21875 1001.4431 2621.3696 2497554
-816.67401 996.54718 2608.5544 2366481
-803.8623 999.83698 2617.1658 2366481
-786.60352 997.61633 2611.353 2366481
-771.81177 998.49805 2613.6609 2366481
-756.1496 998.26678 2613.0554 2300686
-742.21826 1000.3587 2618.5312 2234892
-726.3017 999.80707 2617.0874 2234636
-710.02148 998.71985 2614.2415 2169102
-695.00134 999.39612 2616.0117 2168845
-679.35327 999.17963 2615.4451 2037516
-664.18805 999.67987 2616.7544 2037516
-648.29736 999.08606 2615.2 1840138
-636.27252 1004.5665 2629.5457 1905931
-619.09418 1001.9815 2622.7793 1905933
-604.77393 1004.0082 2628.0842 1643788
-587.98395 1001.9335 2622.6533 1709324
-572.19318 1001.495 2621.5056 1643534
-555.51123 999.42877 2616.0972 1906706
-537.88776 995.50134 2605.8169 2104085
-523.84106 998.15723 2612.7688 1775633
-507.39774 996.26904 2607.8264 1775634
-491.85995 996.09631 2607.374 1709842
-475.68579 994.5816 2603.4092 1578256
-460.25751 994.57715 2603.3977 1709583
-444.47675 993.7843 2601.3223 1709327
-428.4617 992.39197 2597.6777 1775633
-413.56201 993.57544 2600.7754 1446669
-397.4552 991.83813 2596.228 1380877
-382.05389 991.79242 2596.1084 1446670
-366.3024 990.79565 2593.4993 1512463
-350.73349 990.22711 2592.011 1446670
-335.17932 989.6499 2590.5002 1315084
-319.51077 988.66351 2587.9182 1249291
-304.44003 989.52069 2590.1619 1183498
-289.23172 989.99792 2591.4111 1183498
-273.42798 988.37634 2587.1665 1117705
-257.88535 987.56213 2585.0352 1117705
-242.15355 985.87488 2580.6187 1051912
-226.89212 986.00421 2580.9573 1183497
-211.83241 987.09235 2583.8054 1183498
-196.78609 988.41718 2587.2732 1183242
-181.11052 986.53827 2582.355 1315083
-166.05551 988.00482 2586.1938 1315084
-150.74876 988.11938 2586.4939 1380877
-135.18065 986.35291 2581.8699 1512463
-119.8007 985.68378 2580.1184 1446670
-104.64796 986.96167 2583.4634 1446670
-89.26284 986.11035 2581.2349 1578256
-74.438759 992.38641 2597.6633 1578256
-58.924023 990.3269 2592.2722 1512463
-43.497032 988.80994 2588.3013 1315083
-28.228271 991.19629 2594.5479 1578256
-12.825759 988.97748 2588.74 1644048
2.5114112 988.13007 2586.5217 1380877
17.856766 989.19226 2589.3022 1249290
33.094906 986.07812 2581.1506 1315083
48.403347 986.36523 2581.9021 1118220
63.710155 986.48907 2582.2263 1052427
79.066147 987.17914 2584.0325 1118220
94.529984 988.77325 2588.2053 1052427
109.81699 988.33099 2587.0476 986634
125.32289 989.72559 2590.6982 1118220
140.54034 988.78656 2588.2402 1249806
156.22375 990.98804 2594.0027 1183756
172.19812 994.4754 2603.1313 986378
186.75679 989.88562 2591.1172 1314572
202.30414 990.83545 2593.6035 1248779
218.11589 992.8548 2598.8892 1183243
233.47577 992.68652 2598.4487 1249036
248.58601 991.5434 2595.4563 1051657
264.47604 993.46246 2600.4797 1051657
280.69962 996.35425 2608.0493 1117450
296.4617 997.39154 2610.7646 1052684
311.94223 997.42578 2610.8542 920841
327.74182 998.42889 2613.4797 920841
343.59235 999.48944 2616.2559 920841
359.06604 999.40955 2616.0469 1512978
374.14389 998.28027 2613.0908 1118220
388.9541 996.55487 2608.5745 1052427
403.12997 993.39832 2600.3118 920841
420.21188 997.37158 2610.7122 920841
435.33133 996.57013 2608.6145 1052427
450.87473 996.76099 2609.114 1315599
466.6611 997.4585 2610.9397 1249806
481.83469 996.84344 2609.3298 1249806
496.96518 996.1803 2607.594 1117963
512.5448 996.43018 2608.248 1381392
529.396 999.06519 2615.1455 1512722
547.09882 1003.1119 2625.738 1512978
562.61432 1003.0352 2625.5371 1447185
577.29279 1001.5104 2621.5459 2039322
591.43738 999.16364 2615.4031 1907736
606.96649 999.21594 2615.54 2630945
618.35431 992.61792 2598.269 1841429
638.18152 999.55865 2616.4373 1710357
652.24847 997.36212 2610.6875 986634
666.58923 995.67627 2606.2747 920841
681.69855 995.1889 2604.9988 855048
695.44489 992.77722 2598.6863 789255
710.2843 991.99677 2596.6431 855048
726.60406 993.27301 2599.9839 1052427
742.06152 993.34192 2600.1643 1118220
753.58618 988.25067 2586.8374 1118220
774.36432 995.25543 2605.1731 1118220
788.61243 993.75763 2601.2524 1380879
805.4613 995.5318 2605.8965 1447185
818.68994 992.84882 2598.8735 1447185
832.20569 990.60663 2593.0044 1184013
847.6214 990.66632 2593.1606 1184013
864.66821 992.59644 2598.2129 1184013
880.28735 992.84869 2598.8733 1184013
895.9986 993.1944 2599.7781 1249806
911.16925 992.93933 2599.1106 1117707
926.80927 993.19574 2599.7815 1249036
942.23755 993.22052 2599.8464 1314572
954.6698 990.13721 2591.7756 1380622
969.69696 989.80017 2590.8936 1380622
990.88824 995.66754 2606.2517 1052684
998.0481 987.47205 2584.7993 854535
1007.522 981.7793 2569.8982 525826
1020.8422 979.94818 2565.105 591876
1032.7678 976.85187 2557 1052170
1054.4104 982.90283 2572.8391 1447185
1065.4261 979.0166 2562.6665 1315599
1085.7418 983.66498 2574.834 1447185
1099.8093 982.60242 2572.0525 1511951
1115.8682 983.32361 2573.9404 1446414
1132.4207 984.45435 2576.9004 1380622
1148.2965 984.97485 2578.2627 1314829
1161.6742 983.36688 2574.0537 1380622
1177.4213 983.78027 2575.1357 1315855
1192.766 983.8512 2575.3213 1315599
1213.9073 988.6413 2587.8601 1381392
1226.9185 986.77295 2582.9695 1315599
1241.3616 986.08832 2581.1772 1249806
1257.5923 986.82275 2583.0999 1315598
1275.6494 988.95575 2588.6831 1644564
1291.473 989.32697 2589.6548 1644564
1303.1622 986.55957 2582.4109 1578258
1320.1005 987.78406 2585.616 1184269
1337.2747 989.15485 2589.2043 1118220
1353.8837 990.08148 2591.6296 1118220
1372.7897 992.64807 2598.3481 1184013
1387.6531 992.26703 2597.3506 1184013
1402.9807 992.22266 2597.2346 1117963
1418.2006 992.10394 2596.9238 986634
1432.9674 991.67419 2595.7988 1118220
1452.7327 994.67596 2603.6562 1118220
1470.3099 996.13232 2607.4683 1118220
1486.3673 996.53931 2608.5337 1118220
1501.7717 996.5047 2608.4431 1118220
1517.0223 996.36969 2608.0898 1052427
1528.1047 993.52747 2600.6499 1249808
1539.6178 991.01917 2594.0842 1381392
1555.1774 991.1394 2594.3989 1184013
1572.2522 992.21338 2597.2102 1052426
1588.5909 992.8067 2598.7632 1118220
1599.5936 990.08563 2591.6406 1183243
1612.4329 988.54242 2587.6011 1052427
1625.9169 987.41974 2584.6624 986634
1640.5354 987.00055 2583.5652 986634
1651.6614 984.50751 2577.0393 920841
1663.4105 982.42804 2571.5962 986634
1681.8617 984.30865 2576.5188 986634
1696.2997 983.82794 2575.2605 920841
1709.7468 982.78619 2572.5337 1052427
1724.3911 982.44489 2571.6404 1184013
1739.4355 982.33545 2571.354 1052427
1751.5383 980.5813 2566.7622 986634
1764.4706 979.31763 2563.4543 986634
1773.2877 975.81097 2554.2754 1118220
1796.6567 980.30365 2566.0354 1184269
1812.7565 980.78784 2567.3027 1314829
1824.8055 979.09058 2562.8601 1380622
1842.7325 980.54913 2566.678 1380622
1862.7408 983.08234 2573.3088 1446415
1877.3918 982.76978 2572.4907 1512208
1893.2742 983.10168 2573.3596 1446415
1912.2145 985.00366 2578.3381 1446415
1937.447 990.09082 2591.6543 1380622
1944.3098 985.78442 2580.3818 1512208
1963.8403 987.91766 2585.9658 1512208
1980.3024 988.48633 2587.4543 1578001
1995.4788 988.40936 2587.2529 1578001
2013.3177 989.6424 2590.4805 1512208
2028.2253 989.42682 2589.916 1578001
2042.6907 989.00024 2588.7996 1643794
2061.7402 990.78296 2593.4661 1643794
2079.624 991.98352 2596.6084 1709587
2092.5618 990.82428 2593.574 1709587
2116.7166 994.95447 2604.3853 1446415
2122.6191 990.50751 2592.7451 1446415
2131.0583 987.29987 2584.3486 1578001
2146.2231 987.23145 2584.1694 1578001
2158.0796 985.65314 2580.0381 1512208
2178.5474 988.00238 2586.1875 1446415
2189.282 985.93542 2580.7771 1512207
2199.7439 983.77527 2575.1226 1512208
2211.1633 982.07007 2570.6592 1512208
2219.948 979.22614 2563.2148 1446414
2225.7905 975.13165 2552.4973 1380622
2234.3706 972.28387 2545.043 1182986
2246.3252 970.9328 2541.5063 1380365
2260.8428 970.7002 2540.8975 1314829
2260.1541 963.98486 2523.3196 1051657
2286.8035 968.94141 2536.2937 1183243
2292.4019 964.9718 2525.9028 1446415
2302.3291 962.86407 2520.3857 1643794
2356.1216 979.01038 2562.6501 1709587
2291.9573 946.25055 2476.8982 1578001
2312.29 948.57086 2482.9719 1578002
2423.1201 987.75183 2585.5317 1512208
2440.5198 988.59418 2587.7366 1578001
2450.4807 986.43152 2582.0757 1380622
2467.147 986.97821 2583.5066 1117450
0 0 0 0
0 0 0 0
0 0 0 0
0 0 0 0
0 0 0 0
0 0 0 0
0 0 0 0
0 0 0 0
-2311.7246 1010.1457 2603.7646 1249289
-2288.4746 1006.705 2594.8958 1380875
-2269.126 1004.9455 2590.3606 1380875
-2250.0671 1003.2913 2586.0967 1512461
-2231.0854 1001.649 2581.8635 1644046
-2214.3127 1000.9826 2580.1458 1578254
-2194.2759 998.82117 2574.5742 1446668
-2175.5725 997.24072 2570.5005 1512461
-2157.7542 996.04639 2567.4221 1446668
-2139.7556 994.75153 2564.0842 1315082
-2120.7639 992.9729 2559.4998 1380875
-2114.0249 996.94708 2569.7437 1380875
-2097.7104 996.43042 2568.4119 1380106
-2097.3765 1003.5525 2586.7698 1249545
-2093.0977 1008.8781 2600.4973 1249289
-2075.2954 1007.716 2597.5017 1249289
-2058.5459 1007.0515 2595.7888 1315081
-2046.243 1008.5687 2599.6997 1380875
-2032.6753 1009.4808 2602.0508 1315082
-2020.3788 1011.043 2606.0774 1380875
-2006.6157 1011.8896 2608.2598 1380875
-1999.2971 1016.0244 2618.9177 1249289
-1984.0824 1016.1799 2619.3184 1249289
-1966.2628 1014.993 2616.2593 1249289
-1956.6439 1018.0543 2624.1499 1249288
-1940.1194 1017.5427 2622.8313 1249288
-1920.3452 1015.3048 2617.0627 1183496
-1901.7324 1013.6495 2612.7959 1117703
-1887.4277 1014.2821 2614.4265 1051913
-1869.0035 1012.693 2610.3306 1051912
-1852.0167 1011.8628 2608.1904 1051912
-1837.4434 1012.3483 2609.4419 1051912
-1815.2 1008.5804 2599.7297 1117705
-1799.4469 1008.3849 2599.2261 986119
-1790.5204 1012.0448 2608.6597 986119
-1772.9775 1010.8557 2605.5947 986119
-1759.2399 1011.8345 2608.1174 920326
-1742.0768 1010.8428 2605.5613 854533
-1727.4365 1011.3104 2606.7668 854533
-1711.9355 1011.2779 2606.6831 920326
-1697.2574 1011.7355 2607.8625 854533
-1681.2832 1011.4217 2607.0537 920326
-1665.7551 1011.3731 2606.9282 920326
-1648.3282 1010.1598 2603.8008 854533
-1632.6855 1010.0272 2603.4592 854533
-1615.1987 1008.7405 2600.1426 657154
-1598.9637 1008.2184 2598.7966 393984
-1582.1003 1007.2859 2596.3933 393984
-1567.2932 1007.6572 2597.3503 459776
-1551.1392 1007.1614 2596.0723 459776
-1535.0613 1006.7056 2594.8972 525569
-1519.2709 1006.431 2594.1895 591362
-1507.6007 1008.908 2600.5742 459776
-1492.1155 1008.8568 2600.4421 262400
-1477.806 1009.6076 2602.3777 196608
-1465.1163 1011.4928 2607.2368 196608
-1448.3694 1010.5872 2604.9023 262656
-1432.8231 1010.5086 2604.7002 328192
-1418.705 1011.4466 2607.1179 393728
-1404.1508 1012.0911 2608.7791 262400
-1388.6926 1012.0911 2608.7791 328192
-1372.6897 1011.6895 2607.7439 460032
-1360.0194 1013.7629 2613.0884 525312
-1345.4327 1014.4392 2614.8315 657154
-1329.6141 1014.1917 2614.1934 723204
-1315.2103 1015.0299 2616.3542 722947
-1309.0787 1022.3487 2635.2192 722690
-1290.5052 1020.0101 2629.1912 722432
-1272.8472 1018.3467 2624.9036 722432
-1257.2478 1018.3097 2624.8081 788225
-1230.0231 1008.7378 2600.1355 854018
-1221.0582 1014.0878 2613.9258 722433
-1199.2981 1008.8124 2600.3279 854018
-1186.4586 1011.001 2605.9692 854018
-1169.1066 1009.3514 2601.7173 985604
-1147.7429 1004.1482 2588.3052 985604
-1134.4866 1005.9929 2593.0603 1117444
-1118.8444 1005.7437 2592.418 920065
-1103.1733 1005.4613 2591.6899 920065
-1084.8904 1002.7565 2584.7183 920065
-1074.7877 1007.6437 2597.3154 854272
-1048.5703 997.34534 2570.7703 854273
-1040.9027 1004.6471 2589.5913 985858
-1024.7651 1003.8702 2587.5886 1249030
-1010.1317 1004.5652 2589.3804 1249030
-995.44861 1005.2318 2591.0984 986115
-975.88995 1000.9186 2579.9807 1117187
-964.31189 1004.7837 2589.9434 1314053
-951.35089 1007.3094 2596.4539 1379588
-929.76825 1000.6395 2579.2612 1774346
-914.01135 1000.121 2577.9248 2037515
-897.46075 998.7019 2574.2668 2299918
-880.64893 996.93781 2569.7197 2365967
-864.85596 996.28534 2568.0381 2497039
-852.54279 999.68994 2576.8137 2431503
-832.89203 994.45782 2563.3274 2299917
-821.2627 998.78662 2574.4854 2365709
-805.32855 997.94495 2572.3157 2102794
-789.90326 997.71338 2571.7188 2168587
-775.77612 999.14465 2575.4082 2234380
-757.41406 995.0697 2564.9045 2299916
-744.93036 998.70886 2574.2849 2431503
-729.81891 998.90356 2574.7866 2563345
-713.84259 997.89746 2572.1934 2629138
-698.86523 998.27441 2573.165 2497552
-681.42566 995.07275 2564.9124 2497551
-668.29736 998.16418 2572.8809 2366737
-652.25842 996.95123 2569.7544 2169102
-637.19971 997.21423 2570.4324 1971468
-624.4873 1001.2523 2580.8408 1971983
-609.26221 1001.363 2581.1262 1709580
-592.64801 999.1377 2575.3901 1775120
-577.0907 998.6236 2574.0649 1709327
-561.87024 998.68036 2574.2112 1709583
-546.05609 997.6554 2571.5696 1907219
-527.75439 991.89667 2556.7256 1907219
-513.7428 994.09882 2562.4019 1578255
-500.33847 997.64569 2571.5444 1446670
-482.99823 993.32117 2560.3975 1512463
-467.31711 992.23895 2557.6079 1446670
-452.18503 992.28888 2557.7366 1512463
-436.31418 990.66486 2553.5505 1512463
-419.89001 987.6228 2545.7092 1512463
-405.81827 990.0932 2552.0771 1709841
-391.14822 991.23883 2555.03 1644049
-376.14725 991.60431 2555.9719 1446670
-360.11185 989.15894 2549.6689 1512463
-345.28818 989.97351 2551.7686 1446670
-329.32898 987.45807 2545.2847 1117705
-314.02185 986.75018 2543.46 986119
-299.82913 989.64929 2550.9326 986119
-284.46738 988.79248 2548.7244 1183498
-269.08789 987.77472 2546.1008 1249291
-253.33813 985.19604 2539.4541 1183498
-238.17531 984.71832 2538.2227 1183242
-223.22346 985.10736 2539.2253 985863
-207.90533 983.81934 2535.9053 920326
-192.65948 982.69916 2533.0181 985863
-178.56894 987.78058 2546.116 1315084
-163.65932 988.85083 2548.8748 1380877
-148.68501 989.70825 2551.0847 1512463
-133.56851 989.70593 2551.0789 1578256
-118.1645 987.30096 2544.8796 1775635
-103.17444 988.15698 2547.0862 1775635
-88.114052 988.51727 2548.0149 1051911
-73.1838 990.78851 2553.8694 1249291
-58.056992 990.88916 2554.1287 1380877
-42.906567 990.51538 2553.1653 1249291
-27.91634 995.44708 2565.8772 1578256
-12.640917 989.8429 2551.4316 1512462
2.4663153 985.43781 2540.0771 1249291
17.525665 985.90875 2541.2913 1380876
32.647724 987.84186 2546.2739 1380620
47.713074 987.37946 2545.082 1118220
62.756779 986.79877 2543.5852 1249806
77.96019 988.4679 2547.8877 1249805
93.183105 989.8028 2551.3284 1184012
108.47327 991.37939 2555.3923 1315599
122.98806 986.3515 2542.4324 1315599
138.61388 990.35883 2552.7617 1315342
154.07741 992.53229 2558.364 1052426
169.04927 991.4328 2555.53 1117450
184.33694 992.21405 2557.5437 1183243
199.35933 991.55701 2555.8501 1183243
214.214 990.21753 2552.3975 1314572
229.86603 992.49756 2558.2744 1249036
244.48927 990.32819 2552.6826 1249036
260.00333 991.80975 2556.5015 1248779
276.2916 995.91882 2567.0933 1117450
291.30377 995.23932 2565.3418 855048
306.28354 994.52209 2563.4929 920841
322.11649 996.51202 2568.6221 986634
336.60724 994.35736 2563.0684 986634
352.10651 995.23932 2565.3418 1184013
367.14542 994.80103 2564.2119 1381392
382.86099 996.15826 2567.7102 1184013
398.06839 996.13989 2567.6631 1052427
412.7637 994.88861 2564.4377 920841
427.68353 994.24823 2562.7871 723462
443.82721 996.39917 2568.3313 789255
458.65021 995.54089 2566.1191 789512
472.9888 993.72009 2561.4258 1118220
490.43137 998.33099 2573.3108 1052427
506.37134 999.69727 2576.8325 1052427
519.99408 996.54272 2568.7014 1052428
537.23193 1000.2987 2578.3828 986891
551.66998 998.77808 2574.4634 1118220
568.56378 1001.6657 2581.9065 1052426
582.3241 999.02643 2575.1033 986634
595.82336 996.08527 2567.5222 1052427
609.76361 994.00946 2562.1716 1118220
626.19659 995.99939 2567.3008 1052427
642.30597 997.39246 2570.8916 1118220
656.46716 995.76575 2566.6987 1052427
670.10223 993.4328 2560.6853 1315599
682.92175 990.02094 2551.8906 1118220
699.07922 991.49097 2555.6799 1052427
714.57446 991.97937 2556.9387 1184013
731.20996 993.9975 2562.1409 1315599
745.1814 992.3858 2557.9863 1381391
761.22021 993.5365 2560.9526 1447185
777.15344 994.5072 2563.4546 1644048
792.77216 995.0459 2564.8433 1775635
803.56262 989.61829 2550.8528 2104343
816.10712 986.51129 2542.8442 2301721
835.41016 991.53857 2555.8025 2565151
849.1684 989.92285 2551.6379 1578770
865.93726 991.81195 2556.5073 1118477
880.7243 991.40521 2555.459 1184013
898.96033 994.82928 2564.2847 1315086
912.53192 993.06317 2559.7324 1249036
928.99384 994.44873 2563.304 1117450
945.58612 995.92725 2567.115 1183243
959.34161 994.41827 2563.2253 1183243
974.81696 994.71143 2563.981 1118220
980.90619 985.56476 2540.4043 986634
991.21387 980.86896 2528.3005 460291
1012.2202 986.74249 2543.4402 394242
1023.8322 983.42023 2534.8765 788998
1032.4681 977.37665 2519.2986 1117707
1053.2056 982.79773 2533.2722 1249806
1066.8623 981.55212 2530.0615 1249805
1080.3342 980.17328 2526.5073 1249036
1101.5563 985.76758 2540.9272 1446415
1114.6671 984.05042 2536.501 1117450
1127.5004 982.13715 2531.5693 1314829
1143.4219 982.92877 2533.6099 1183243
1159.7087 984.00995 2536.3967 1052683
1176.6337 985.5979 2540.4897 1184013
1191.5048 985.44708 2540.1011 1184013
1204.873 984.07263 2536.5583 1118220
1222.3646 986.05829 2541.6765 1118220
1237.7133 986.2879 2542.2683 1249806
1253.8473 987.13031 2544.4399 1315599
1271.451 989.09607 2549.5068 1315599
1285.7162 988.44904 2547.8389 1315343
1301.8396 989.22894 2549.8494 1512978
1319.2804 990.98053 2554.3643 1381391
1335.2041 991.5658 2555.8728 1315599
1352.9766 993.49548 2560.8469 1249806
1366.8242 992.53235 2558.3643 1184013
1382.0961 992.61316 2558.5725 1118220
1396.5012 992.07648 2557.1892 920841
1415.5436 994.8103 2564.2358 1118220
1437.5544 999.55005 2576.4531 1118220
1448.011 996.24072 2567.9229 1118220
1463.571 996.47504 2568.5269 1118220
1477.5381 995.63098 2566.3513 1118220
1491.1498 994.56726 2563.6094 1184013
1505.1472 993.77954 2561.5791 1184015
1519.0778 992.96387 2559.4766 1118220
1536.6481 994.51996 2563.4875 1052427
1552.7278 995.09039 2564.9578 1052427
1564.6848 993.03326 2559.6553 1118220
1575.361 990.21045 2552.3792 1248779
1588.1741 988.77179 2548.6709 1118220
1600.879 987.29358 2544.8606 1052427
1616.0559 987.35321 2545.0144 986634
1627.1302 984.92841 2538.7642 986634
1642.2618 984.98145 2538.9009 920841
1653.295 982.59766 2532.7563 920841
1665.9541 981.21436 2529.1909 920841
1678.2561 979.64746 2525.1519 855048
1697.7264 982.25537 2531.8743 986634
1712.1201 981.90643 2530.9746 986634
1726.9889 981.8335 2530.7866 986634
1743.7511 982.82898 2533.3525 1118220
1755.1012 980.7832 2528.0793 1184013
1770.2719 980.88885 2528.3518 1184269
1787.3959 982.06598 2531.386 1380622
1799.1121 980.27716 2526.7749 920071
1806.3735 976.11047 2516.0349 1117450
1836.0925 984.0481 2536.4951 1314572
1851.7195 984.36548 2537.3132 1249036
1867.5983 984.81061 2538.4607 1380621
1888.0963 987.66498 2545.8181 1380622
1906.7683 989.52661 2550.6165 1512207
1911.661 984.26422 2537.052 1446414
1928.9674 985.4256 2540.0457 1380622
1952.7074 989.83008 2551.3989 1314829
1966.1549 988.98981 2549.2329 1446415
1991.2968 993.99982 2562.1467 1512208
2000.7539 991.16388 2554.8367 1578001
2018.3916 992.39264 2558.0042 1643794
2032.1036 991.68744 2556.1863 1643794
2046.8822 991.50928 2555.7271 1643794
2069.9353 995.3125 2565.5303 1643794
2074.4766 990.22375 2552.4136 1643794
2093.3613 992.00592 2557.0073 1709587
2102.3616 989.11194 2549.5476 1578001
2119.6677 990.13916 2552.1953 1512208
2134.9849 990.22925 2552.4277 1380622
2147.4578 989.0083 2549.2805 1380622
2163.7222 989.53827 2550.6465 1578000
2166.0073 983.71204 2535.6289 1578001
2177.4006 982.07428 2531.4075 1446415
2190.7368 981.32916 2529.4868 1512208
2194.0801 976.14832 2516.1326 1446415
2207.7097 975.58295 2514.675 1446415
2215.9922 972.6781 2507.1875 1512208
2229.0122 971.8775 2505.124 1380622
2238.9729 969.76245 2499.6721 1512208
2244.4563 965.74872 2489.3264 1446415
2256.6003 964.63464 2486.4546 1446415
2289.7615 972.461 2506.6279 1380621
2290.7332 966.60364 2491.53 1512208
2279.4182 955.67004 2463.3474 1380622
2293.2349 955.34528 2462.5103 1578001
2383.6138 986.71814 2543.3774 1578001
2397.9902 986.43274 2542.6416 1643794
2413.8074 986.73962 2543.4329 1643794
2437.0396 990.05518 2551.979 1314829
0 0 0 0
0 0 0 0
0 0 0 0
0 0 0 0
0 0 0 0
0 0 0 0
0 0 0 0
0 0 0 0
0 0 0 0
-2252.8467 1006.1686 2554.4976 1380875
-2227.3831 1001.5251 2542.7083 1512461
-2206.5247 998.90308 2536.0513 1512461
-2191.7424 999.01465 2536.3347 1512461
-2177.6348 999.43738 2537.408 1380875
-2163.9038 1000.0402 2538.9382 1249289
-2149.155 1000.1777 2539.2874 1380875
-2131.6741 999.03668 2536.3906 1380875
-2113.5479 997.57495 2532.6794 1446668
-2096.7329 996.71552 2530.4976 1380874
-2079.6392 995.71021 2527.9453 1380875
-2069.417 998.00439 2533.7698 1511691
-2058.4534 999.9718 2538.7646 1380875
-2061.9944 1009.0663 2561.854 1380875
-2045.9552 1008.6427 2560.7786 1380874
-2027.7639 1007.1439 2556.9734 1315082
-2012.0927 1006.8836 2556.3125 1380875
-2004.0443 1010.4629 2565.3999 1315082
-1991.0946 1011.6067 2568.3037 1051910
-1973.0504 1010.1599 2564.6306 920324
-1969.2321 1016.0305 2579.5349 920324
-1955.1599 1016.6611 2581.136 986117
-1940.4933 1016.9899 2581.9709 986117
-1932.1906 1020.6859 2591.3542 986120
-1909.9326 1017.01 2582.022 1051912
-1891.9821 1015.5871 2578.4092 986119
-1871.5388 1012.7919 2571.3127 920326
-1855.8298 1012.5339 2570.6577 986119
-1839.8331 1012.1133 2569.5898 986119
-1823.0588 1011.2543 2567.4092 986119
-1810.1511 1012.5438 2570.6829 986119
-1792.5195 1011.1904 2567.2468 1051912
-1775.0427 1009.9019 2563.9753 920326
-1758.2892 1009.0061 2561.7012 986119
-1742.8467 1008.8535 2561.314 920326
-1726.0452 1007.9049 2558.9055 986119
-1711.6591 1008.3622 2560.0667 1051912
-1703.2585 1012.3856 2570.2812 1051913
-1686.2334 1011.3088 2567.5476 986119
-1670.9032 1011.2385 2567.3689 788740
-1654.5432 1010.5377 2565.5898 788740
-1640.1592 1011.0419 2566.8699 722947
-1623.6436 1010.2294 2564.8071 591361
-1606.1854 1008.8097 2561.2026 459776
-1591.871 1009.356 2562.5896 525568
-1580.4259 1011.7498 2568.667 525568
-1560.6017 1008.7739 2561.1118 328192
-1534.9409 1001.9297 2543.7356 788739
-1524.1409 1004.7463 2550.8865 788740
-1509.6865 1005.1862 2552.0032 986119
-1492.1251 1003.5453 2547.8374 788740
-1482.396 1007.1924 2557.0967 722947
-1467.3369 1007.2562 2557.2583 131328
-1454.3409 1008.7521 2561.0564 328192
-1438.3442 1008.1763 2559.5947 459776
-1417.1473 1003.9045 2548.749 525568
-1405.3562 1006.2754 2554.7686 525568
-1394.422 1009.3183 2562.4939 328192
-1383.8458 1012.6901 2571.0544 525568
-1368.5485 1012.6436 2570.9363 525568
-1353.6951 1012.9282 2571.6589 591361
-1341.9773 1015.5925 2578.4229 657154
-1327.105 1015.9031 2579.2117 854533
-1313.658 1017.3249 2582.8213 854533
-1297.424 1016.5963 2580.9717 722947
-1284.871 1018.7691 2586.488 788227
-1268.9827 1018.3179 2585.3423 919811
-1252.9031 1017.7003 2583.7744 854018
-1233.9988 1014.7444 2576.27 919811
-1218.1022 1014.2189 2574.9358 854019
-1201.115 1012.7606 2571.2332 919554
-1184.4487 1011.5388 2568.1311 920068
-1170.3309 1012.4899 2570.5461 985861
-1151.7778 1009.5784 2563.1541 1117191
-1134.3364 1007.5765 2558.0718 1183240
-1119.6444 1007.9957 2559.136 1051909
-1102.5566 1006.2399 2554.6782 985860
-1086.1459 1005.0617 2551.687 920324
-1070.0371 1004.1337 2549.3308 986117
-1058.1718 1007.218 2557.1616 986118
-1042.2299 1006.4554 2555.2253 985861
-1028.3702 1007.7108 2558.4128 920324
-1009.9969 1004.5146 2550.2981 920580
-993.68207 1003.2996 2547.2134 985605
-977.45526 1002.1375 2544.2629 985604
-961.29114 1001.0041 2541.3855 985604
-948.18286 1003.0674 2546.624 919811
-933.61884 1003.6327 2548.0591 1182468
-917.53271 1002.5533 2545.3186 1314053
-899.76318 999.56769 2537.7385 1577226
-885.56268 1000.5128 2540.1382 1774088
-869.44891 999.29175 2537.0381 2102796
-854.01025 998.81726 2535.8335 2168589
-840.37445 1000.4721 2540.0349 2234380
-825.46619 1000.6449 2540.4734 2497295
-809.30737 999.27979 2537.0078 2431245
-793.07684 997.77301 2533.1824 2168586
-778.84888 998.77606 2535.7288 2168587
-761.84113 996.18359 2529.147 2037001
-746.41876 995.60187 2527.6702 2102794
-729.76172 993.31573 2521.866 2234380
-716.85657 996.14758 2529.0557 2497551
-701.96295 996.27832 2529.3875 2563345
-687.90936 997.63281 2532.8264 2826517
-669.42316 992.47614 2519.7344 2563345
-654.75787 992.87823 2520.7554 2366482
-637.33746 989.02362 2510.969 2432274
-623.76593 991.10034 2516.2415 1840651
-613.93445 999.36676 2537.2285 1840140
-598.39099 998.51672 2535.0706 1577994
-584.09204 999.75317 2538.2097 1775120
-568.33496 998.49323 2535.0107 1709327
-553.14044 998.17999 2534.2156 1841169
-538.61456 999.08966 2536.5249 2038805
-523.62512 999.16687 2536.7209 1841426
-506.1951 994.45404 2524.7559 1709840
-491.08542 994.15137 2523.9875 1512463
-475.1687 992.14459 2518.8928 1315083
-459.16525 989.82086 2512.9929 1512462
-443.75082 988.65344 2510.0293 1446669
-429.55267 990.20905 2513.9785 1709839
-413.99588 988.63177 2509.9741 1709840
-399.53116 989.64221 2512.5396 1578254
-384.34686 988.87933 2510.6028 1644047
-369.39523 988.6778 2510.0911 1512463
-354.07312 987.42615 2506.9133 1512462
-339.02173 986.85297 2505.458 1446670
-324.48337 987.789 2507.8345 1117705
-308.61221 984.56299 2499.644 1117449
-294.33929 986.36743 2504.2253 1051656
-279.71674 987.12952 2506.1602 1117193
-264.79785 986.87286 2505.5085 1117450
-249.73534 986.01855 2503.3396 1117707
-234.17442 982.96429 2495.5854 986121
-219.59915 983.91449 2497.9978 854535
-204.84242 984.13031 2498.5457 788742
-190.70499 987.58679 2507.321 854792
-175.48099 985.52502 2502.0867 1249549
-160.43036 984.14624 2498.5862 1447184
-145.96251 986.4256 2504.373 1315084
-131.17746 986.83453 2505.4114 1380877
-116.07583 984.66229 2499.8965 1841428
-101.62003 988.1347 2508.7122 2038807
-86.565979 985.98285 2503.249 1380877
-72.287247 993.59802 2522.5825 1446670
-56.999893 987.70575 2507.623 1644049
-42.146336 987.82562 2507.9275 1380877
-27.42417 992.83295 2520.6404 1315084
-12.497172 993.53339 2522.4185 1578256
2.4307885 986.0769 2503.4878 1183498
17.350006 990.93427 2515.8198 722949
32.192974 988.95978 2510.8069 328705
47.202641 991.73578 2517.8547 1511951
61.868141 987.68408 2507.5681 1117450
76.86261 989.43622 2512.0166 1117450
91.752884 989.49634 2512.1692 1249036
106.59793 989.11987 2511.2134 1052170
121.55772 989.77002 2512.864 1052427
136.67783 991.44116 2517.1067 1184013
151.4826 990.72113 2515.2788 1184013
166.56339 991.77356 2517.9507 1117963
181.30421 990.7951 2515.4666 1117963
196.24048 990.95221 2515.8655 1052170
211.02591 990.37933 2514.4109 1381135
225.4133 988.13702 2508.718 1314829
240.60405 989.47607 2512.1177 1183243
256.491 993.35516 2521.9661 1117450
271.14667 992.30115 2519.2903 1248780
285.96954 991.93719 2518.3662 1052683
301.27802 993.21027 2521.5981 986634
316.74823 994.87097 2525.8145 920841
330.38538 990.88409 2515.6924 657669
345.85568 992.50208 2519.8003 986634
363.18655 999.10437 2536.5625 1118220
376.6814 995.04883 2526.2659 1118220
391.33533 994.24792 2524.2327 1118220
405.91724 993.32977 2521.9016 1184013
420.75189 993.07343 2521.2507 1315599
437.27884 996.69189 2530.4375 789255
453.66681 999.7641 2538.2373 723462
466.85638 995.81689 2528.2161 789255
483.5686 999.39545 2537.3015 855048
498.43631 999.06116 2536.4526 986634
512.72131 997.61255 2532.7749 986891
527.21564 996.64209 2530.311 855305
543.98981 999.91595 2538.6228 789255
557.36792 996.93909 2531.0652 855048
572.44482 997.07733 2531.416 789255
587.15955 996.59357 2530.188 920841
602.35638 996.93195 2531.0471 1118220
617.37262 996.9624 2531.1243 1118220
631.0752 994.9201 2525.9392 1052427
645.10376 993.47461 2522.2693 1052427
658.83997 991.65454 2517.6484 1118220
672.58032 989.92108 2513.2476 1118220
688.1839 990.94574 2515.8489 1249805
698.50128 984.4765 2499.4246 1052427
717.10834 989.71686 2512.729 1118220
734.65717 993.31323 2521.8596 1315599
749.28467 992.89508 2520.7981 1249805
763.60297 992.09155 2518.7581 1577745
776.16034 989.07495 2511.0994 1446671
790.71948 988.67462 2510.083 1446670
806.57513 989.88025 2513.144 1512463
817.9939 985.6958 2502.5203 1512206
834.31244 987.45947 2506.9978 1512463
852.40057 991.21912 2516.543 1381133
864.88446 988.44476 2509.4993 1314829
878.66541 987.22131 2506.3933 1512208
894.21173 987.98907 2508.3425 1446415
913.37646 992.66437 2520.2124 1314572
929.46674 993.90161 2523.3533 1249036
943.77716 993.22644 2521.6394 1446415
952.27246 986.5481 2504.6841 1250062
967.76489 987.21228 2506.3704 1447185
980.43182 985.01776 2500.7988 1315599
993.74207 983.52521 2497.0095 1249806
1007.722 982.72968 2494.9897 1381392
1022.9529 983.1593 2496.0806 1118220
1037.7722 983.18677 2496.1504 1118220
1056.0853 986.47717 2504.5039 1381391
1069.002 984.70526 2500.0054 1051914
1076.5269 978.08307 2483.1929 1183243
1090.2686 977.21167 2480.9805 1314572
1109.9424 981.60968 2492.1462 1249036
1122.4075 979.60071 2487.0459 1183243
1140.2285 982.25769 2493.7915 1118219
1158.7546 985.44641 2501.887 1118220
1172.7555 984.75464 2500.1306 1052427
1186.4946 983.86304 2497.8672 1052427
1200.7638 983.42749 2496.7615 1052427
1217.3566 984.88269 2500.4558 1052427
1234.2758 986.5636 2504.7234 1118220
1250.8921 987.96533 2508.2822 1052427
1264.2284 986.77399 2505.2576 1249549
1281.8983 988.95361 2510.7913 1184013
1296.6799 988.88062 2510.606 1249806
1311.0884 988.52771 2509.71 1249806
1329.6736 991.29681 2516.7402 1249806
1344.2404 991.04175 2516.0928 1184012
1359.5817 991.35699 2516.8931 1118220
1378.9586 994.57623 2525.0662 1052427
1394.634 995.08527 2526.3586 1052427
1407.4971 993.59821 2522.583 1052427
1421.9709 993.2674 2521.7432 1052427
1436.4646 992.95721 2520.9558 1052427
1449.5321 991.6778 2517.7075 1052427
1463.3749 990.94934 2515.8582 1052427
1478.2982 990.96002 2515.8853 1052428
1496.4622 993.12103 2521.3716 1052427
1509.7483 992.03424 2518.6125 1249806
1523.7191 991.41418 2517.0383 1118220
1537.0404 990.38757 2514.4319 986634
1549.6169 988.90552 2510.6692 1248523
1562.344 987.54675 2507.2195 1118220
1576.3301 987.00189 2505.8362 986634
1592.6715 987.92816 2508.1877 986634
1607.5624 987.94592 2508.2329 1052427
1620.4009 986.7135 2505.104 920841
1631.7665 984.61481 2499.7759 920841
1638.6237 979.85791 2487.6987 920841
1657.0027 982.0141 2493.1731 986634
1672.8396 982.63904 2494.7598 986634
1684.7766 980.98236 2490.5535 986634
1703.1506 983.0697 2495.853 986634
1717.0818 982.57886 2494.6069 986634
1729.9728 981.50641 2491.884 1052426
1746.224 982.34216 2494.0059 1052427
1761.454 982.59424 2494.646 1183243
1762.557 975.02734 2475.4348 1249036
1788.7155 981.3313 2491.4395 1183243
1802.7338 980.92627 2490.4111 1183243
1828.299 986.7597 2505.2214 1249036
1843.4678 986.93341 2505.6624 1249036
1858.3857 986.97101 2505.7578 1314829
1871.9385 986.28876 2504.0256 1314829
1891.9222 988.97894 2510.8557 1051657
1915.8086 993.65143 2522.7183 1051400
1928.8566 992.67346 2520.2354 1446415
1946.6646 994.14154 2523.9626 1380622
1964.5854 995.64441 2527.7781 1314829
1971.5787 991.6283 2517.5818 1249036
1984.0287 990.39642 2514.4543 1578001
1998.7207 990.29382 2514.1938 1643794
2017.8257 992.36304 2519.4473 1578001
2032.8871 992.42773 2519.6116 1578001
2045.5249 991.31708 2516.7917 1512208
2073.1724 997.44385 2532.3467 1512208
2083.4963 995.20789 2526.6697 1643794
2092.6467 992.44708 2519.6606 1578001
2102.9678 990.27679 2514.1506 1709587
2113.1204 988.05823 2508.5181 1775380
2118.627 983.71344 2497.4873 1512208
2138.2415 985.93402 2503.125 1446415
2147.3687 983.32172 2496.4927 1446414
2155.4983 980.29138 2488.7993 1512208
2166.563 978.62793 2484.5762 1643794
2178.1841 977.23676 2481.0442 1578001
2185.9624 974.15167 2473.2117 1643794
2197.856 972.92938 2470.1084 1578001
2210.7417 972.15955 2468.1538 1578001
2225.2954 972.12842 2468.075 1578001
2229.3125 967.52496 2456.3875 1578000
2237.791 964.90479 2449.7354 1380622
2243.7878 961.25531 2440.4697 1314829
2258.4365 961.33533 2440.6729 1314829
2278.2307 963.59058 2446.3987 1380624
2330.8833 979.62714 2487.1128 1314829
2368.0581 988.99805 2510.9041 1512208
2365.4329 981.73352 2492.4607 1578001
2393.3894 987.17285 2506.2703 1380622
0 0 0 0
0 0 0 0
0 0 0 0
0 0 0 0
0 0 0 0
0 0 0 0
0 0 0 0
0 0 0 0
0 0 0 0
-2208.9875 1001.4219 2504.7656 1249289
-2192.114 1000.4946 2502.446 1249289
-2178.9182 1001.2448 2504.3223 1183496
-2163.1299 1000.8054 2503.2236 1183496
-2149.7671 1001.4903 2504.9365 1249289
-2132.8853 1000.5337 2502.5439 1314825
-2112.6194 997.96509 2496.1194 1315082
-2099.5327 998.77576 2498.147 1183496
-2081.0149 996.99573 2493.6948 1315082
-2064.5398 996.1759 2491.6443 1380875
-2050.9482 996.74567 2493.0693 1446668
-2036.0026 996.66095 2492.8574 1380362
-2022.3657 997.22028 2494.2563 1315081
-2026.7627 1006.7457 2518.0815 1249289
-2011.9746 1006.812 2518.2473 1380875
-1997.9934 1007.2863 2519.4333 1380875
-1983.5566 1007.5361 2520.0583 1183496
-1968.5511 1007.4986 2519.9646 1051910
-1957.9279 1009.7206 2525.5222 986117
-1951.1847 1013.9932 2536.209 1051911
-1943.4863 1017.8318 2545.8101 920326
-1929.8901 1018.6176 2547.7756 986119
-1909.4618 1015.7812 2540.6812 920326
-1892.8903 1014.9679 2538.6467 986119
-1881.2113 1016.7858 2543.1938 1051912
-1863.1649 1015.1639 2539.137 1051912
-1846.8445 1014.4634 2537.3853 1183241
-1830.8767 1013.9468 2536.093 1117705
-1810.7981 1011.1263 2529.0383 1051912
-1795.1532 1010.7552 2528.1099 1051912
-1777.8271 1009.4231 2524.7781 986119
-1760.2239 1007.9097 2520.9929 920326
-1745.4154 1007.9844 2521.1797 1051912
-1726.6826 1005.7746 2515.6526 986119
-1713.4183 1006.7394 2518.0657 920326
-1696.9006 1005.7927 2515.6978 1051912
-1679.9271 1004.5566 2512.6062 986119
-1667.3585 1005.9562 2516.1067 854533
-1658.2947 1009.5145 2525.0068 854533
-1645.1626 1010.6384 2527.8179 854533
-1630.7765 1011.0056 2528.7363 920326
-1615.4652 1010.8007 2528.2236 788740
-1599.4563 1010.1512 2526.5994 722947
-1584.9607 1010.4545 2527.3579 525569
-1571.605 1011.4971 2529.9656 525568
-1554.8976 1010.3818 2527.176 459776
-1538.6667 1009.5575 2525.1143 459776
-1516.4832 1004.7728 2513.147 591361
-1503.9275 1006.3358 2517.0562 657154
-1487.4011 1005.2465 2514.3315 854533
-1474.3839 1006.5308 2517.5437 722947
-1459.3071 1006.421 2517.269 591361
-1440.8203 1003.9327 2511.0457 657154
-1431.1246 1007.582 2520.1731 722947
-1414.6533 1006.4876 2517.4358 657154
-1401.8837 1008.0314 2521.2974 722947
-1387.7117 1008.5894 2522.6929 722947
-1373.3461 1009.0173 2523.7632 525568
-1359.1464 1009.5778 2525.165 591617
-1348.1573 1012.5623 2532.6299 722947
-1335.0201 1013.9823 2536.1816 722947
-1319.9099 1013.9192 2536.0237 854533
-1304.3523 1013.5067 2534.9922 722947
-1292.4651 1015.97 2541.1533 788740
-1277.5947 1016.1188 2541.5254 656900
-1267.4602 1020.0825 2551.4395 788485
-1247.6327 1016.2468 2541.8455 788740
-1231.8514 1015.6533 2540.3611 854533
-1216.2445 1015.1906 2539.2039 920326
-1200.0696 1014.2363 2536.8169 920326
-1184.6449 1013.8999 2535.9756 986119
-1167.2163 1011.8177 2530.7676 1051912
-1150.457 1010.2691 2526.8943 1183239
-1134.8496 1009.7047 2525.4824 1315081
-1120.1814 1009.9717 2526.1504 1249032
-1102.4114 1007.4117 2519.7471 1117447
-1083.9847 1004.1729 2511.6462 1117190
-1068.8885 1003.9722 2511.1443 1182983
-1051.0884 1001.1902 2504.186 1117704
-1040.8473 1005.6318 2515.2954 1183239
-1025.5431 1005.2399 2514.3149 1183239
-1009.4382 1004.0397 2511.313 1249289
-993.06952 1002.5373 2507.5554 920324
-976.96631 1001.2614 2504.364 920324
-961.49121 1000.5998 2502.7092 920324
-947.47211 1001.4564 2504.8518 854018
-932.55695 1001.3782 2504.656 919811
-917.91199 1001.5922 2505.1914 1116675
-901.77753 1000.1612 2501.6123 1182467
-886.4433 999.5849 2500.1707 1314054
-870.77008 998.60004 2497.7075 1248259
-853.57556 995.80652 2490.7202 1444869
-838.6485 995.60632 2490.2195 1642504
-826.13458 998.31519 2496.9949 1773831
-812.41125 999.63477 2500.2954 2168846
-796.56628 998.34418 2497.0674 2037001
-778.75842 994.49792 2487.4473 2037001
-763.00348 993.17572 2484.1401 2300172
-751.60022 997.57739 2495.1494 2365451
-735.93011 996.37866 2492.1514 2365450
-721.22791 996.4682 2492.3752 2365450
-705.89551 995.67261 2490.3853 2497035
-692.89062 998.19611 2496.697 2497036
-675.57361 994.48199 2487.4072 2496781
-659.16077 991.96289 2481.1064 2102794
-646.33911 994.85638 2488.3438 2234895
-630.86499 993.70709 2485.469 2235154
-617.71198 996.24628 2491.8201 1971982
-603.97327 997.94196 2496.0615 1578252
-589.48505 998.45349 2497.3408 1709327
-574.0202 997.29431 2494.4417 1643790
-558.68994 996.31409 2491.9897 1907219
-539.59802 988.39038 2472.1709 1841426
-528.78619 995.61438 2490.2397 1907219
-514.77124 997.04907 2493.8281 1907220
-498.69595 994.45996 2487.3523 1709842
-482.84198 992.16803 2481.6196 1512463
-468.59201 993.13153 2484.0295 1446670
-452.46658 990.05371 2476.3313 1512463
-437.03354 988.33557 2472.0339 1775635
-423.66492 991.32867 2479.5203 1512464
-408.20123 989.45856 2474.8425 1446669
-393.63608 989.70813 2475.467 1446668
-379.39478 990.82288 2478.2551 1446668
-364.28635 989.67157 2475.3755 1380877
-348.66632 986.97552 2468.6321 1380877
-333.88113 986.51001 2467.4678 1249034
-319.45752 987.11914 2468.9912 1183499
-304.64673 986.5329 2467.5249 1051657
-289.83557 985.88629 2465.9077 985864
-275.06784 985.3266 2464.5078 985864
-260.41269 985.13013 2464.0164 1051914
-245.66791 984.55103 2462.5679 855305
-230.95618 984.03967 2461.2888 789512
-216.1674 983.10883 2458.9607 920841
-201.83183 984.25385 2461.8245 723462
-187.68546 986.57141 2467.6213 920841
-172.89818 985.6272 2465.2598 1249805
-158.49438 986.89667 2468.4348 1315598
-143.61147 985.13745 2464.0347 1249291
-129.03091 985.28894 2464.4136 1183498
-114.61242 986.87451 2468.3794 1315084
-99.995125 986.96185 2468.5979 1841428
-85.27153 985.8501 2465.8171 1380877
-70.769585 987.37103 2469.6213 1249291
-56.286095 990.00952 2476.2207 1578256
-41.498299 987.26892 2469.366 1446670
-26.85784 986.95758 2468.5872 1841428
-12.192094 983.86078 2460.8416 1775635
2.3973057 987.12415 2469.0037 1380877
17.071218 989.6792 2475.3945 1249291
31.922247 995.39563 2489.6924 1183497
46.380962 989.13184 2474.0254 1314572
60.902122 986.88861 2468.4146 1249036
75.571655 987.4527 2469.8257 1183243
90.227539 987.68463 2470.4058 1117450
104.87318 987.75507 2470.582 1052684
119.68818 989.20819 2474.2166 1184013
134.55486 990.72455 2478.0093 1184013
149.71394 993.88379 2485.9111 1184013
163.86676 990.3952 2477.1855 1249806
178.61314 990.77277 2478.1299 1118220
192.44144 986.38715 2467.1604 1184013
207.79425 989.8833 2475.905 1052427
222.20837 988.74152 2473.0491 1249036
236.27539 986.29205 2466.9226 1315086
251.91605 990.31415 2476.9827 1381392
266.08786 988.43713 2472.2878 1381392
281.57065 991.37164 2479.6277 986890
296.60748 992.52289 2482.5073 920841
311.88541 994.33405 2487.0374 986634
326.06943 992.65161 2482.8291 986634
340.70859 992.44006 2482.3 920841
355.90854 993.81207 2485.7317 986634
371.20883 995.34406 2489.5635 1118220
385.4353 993.98962 2486.1758 1118220
401.61182 997.57867 2495.1528 1249549
414.86057 993.89874 2485.9485 1184013
429.73669 994.23627 2486.7927 789255
445.34698 996.1936 2491.6885 526083
460.89786 997.89679 2495.9485 460290
475.86127 998.2616 2496.8608 723462
490.05566 997.03986 2493.8049 855048
505.59085 998.53772 2497.5515 1052427
519.61469 997.05029 2493.8311 986634
533.61957 995.60986 2490.2283 855048
546.56726 992.32745 2482.0183 789255
564.29865 997.67456 2495.3926 789255
576.92249 993.9491 2486.0745 855048
592.99731 996.20673 2491.7212 1118220
606.69208 994.45337 2487.3357 1052427
620.5166 992.99072 2483.6775 1118220
633.68555 990.57123 2477.6257 1052427
647.93805 989.91669 2475.9885 1052427
662.69763 990.04877 2476.3188 1052427
676.28711 988.46472 2472.3569 1184012
693.0329 991.46338 2479.8572 1184013
705.01343 987.66187 2470.3486 986634
720.71527 989.12213 2474.0012 986634
736.3399 990.42041 2477.2485 986634
752.13013 991.88623 2480.9148 1446415
766.82288 991.8764 2480.8901 1643794
782.28326 992.841 2483.303 1578001
799.29443 995.70197 2490.4587 1380622
809.78711 990.48615 2477.4128 788485
821.61066 987.05487 2468.8306 854022
839.27869 990.64227 2477.8032 1117193
854.2019 990.92206 2478.5032 1249036
866.94849 988.71008 2472.9707 1249036
884.77094 992.26434 2481.8604 1314829
898.46594 991.14899 2479.0708 1380622
914.16632 992.24615 2481.8152 1314829
928.22101 991.55078 2480.0757 1446415
942.44519 991.05518 2478.8362 1315599
955.16791 989.02008 2473.7458 1381392
968.56439 987.73364 2470.5283 1447185
980.74506 985.2641 2464.3516 1249806
999.09253 988.9715 2473.6243 1184013
1006.6337 982.0293 2456.2605 1052427
1021.3824 982.21625 2456.728 1381391
1032.7731 979.21393 2449.2188 1184013
1047.4293 979.34833 2449.5549 1380878
1062.3257 979.70044 2450.4355 1183243
1071.9497 975.24622 2439.2947 1249036
1094.5443 982.55414 2457.5732 1183243
1108.3112 981.84961 2455.811 1183243
1123.3173 982.24695 2456.8049 1052427
1138.1195 982.45813 2457.3333 1052427
1153.2854 982.97406 2458.6235 1118220
1168.5624 983.57043 2460.1152 855048
1182.2664 982.84448 2458.2996 855048
1199.5197 985.05096 2463.8184 855048
1216.6002 987.06433 2468.8542 920841
1231.0839 986.94788 2468.5627 1052427
1246.8492 987.84961 2470.8184 920841
1264.4486 990.16656 2476.6135 1052427
1277.8705 989.19653 2474.1873 1052427
1292.5094 989.18005 2474.146 1052427
1307.0587 989.09601 2473.9358 1184013
1322.7927 989.90039 2475.9478 1249805
1342.0229 993.27478 2484.3879 1184013
1357.1802 993.59418 2485.1868 1184013
1370.0623 992.25903 2481.8472 1118220
1385.1398 992.52521 2482.5129 1052427
1400.459 992.95734 2483.5938 1052427
1416.3119 993.75476 2485.5884 1052427
1430.2338 993.19489 2484.188 1118220
1444.2577 992.71661 2482.9917 1118220
1460.7958 993.95862 2486.0981 1118221
1471.6737 991.36292 2479.606 1052170
1487.0699 991.83221 2480.7798 1315599
1501.6899 991.77966 2480.6482 1381392
1515.601 991.2644 2479.3594 1315599
1528.1002 989.84454 2475.8081 1446415
1541.7957 989.21912 2474.2439 1315599
1555.2598 988.45856 2472.3413 1249806
1568.0087 987.26178 2469.3481 986634
1579.8348 985.5116 2464.9705 1052427
1590.6104 983.14404 2459.0486 1118220
1606.2305 983.78662 2460.656 986634
1620.3596 983.51276 2459.9709 920841
1634.576 983.29633 2459.4297 855048
1650.2025 983.92444 2461.0005 986634
1663.624 983.23828 2459.2844 986634
1679.2601 983.86157 2460.8433 986634
1695.809 985.00433 2463.7017 920841
1710.7291 985.18958 2464.165 920841
1725.1277 985.07391 2463.8757 986634
1740.5927 985.5639 2465.1013 1117194
1753.1078 984.38947 2462.1638 1117450
1766.896 983.94342 2461.0481 1117193
