# .PCD v0.7 - Point Cloud Data file format
VERSION 0.7
FIELDS x y z rgb
SIZE 4 4 4 4
TYPE F F F U
COUNT 1 1 1 1
WIDTH 1286
HEIGHT 1
VIEWPOINT 0 0 0 1 0 0 0
POINTS 1286
DATA ascii
1937.3989 1068.2815 3435.8103 8935215
1957.7573 1068.2815 3435.8103 9001266
1983.5322 1071.2065 3445.218 9067059
2004.8346 1071.6813 3446.7449 9132852
2030.3385 1074.3696 3455.3911 8935473
2045.6409 1071.66 3446.6765 8672045
2076.1506 1076.892 3463.5037 9198389
2114.9309 1086.2695 3493.6636 8803887
2096.104 1066.1638 3428.9995 8343337
2111.5593 1063.7142 3421.1211 8672045
2158.1938 1076.8684 3463.4277 8672301
2157.1816 1066.2247 3429.1953 8540459
2168.4722 1061.8036 3414.9763 8803631
2195.3401 1065.0214 3425.3252 9001780
2233.4883 1073.6025 3452.9238 9132853
2250.3459 1071.8867 3447.4055 8803889
2271.7646 1072.3547 3448.9106 8278059
2280.1409 1066.7126 3430.7646 8212010
2282.0381 1058.1661 3403.2773 8080683
2308.4741 1061.0481 3412.5461 8277805
2312.8252 1053.8173 3389.2903 8212268
2350.8303 1061.9131 3415.3281 7948840
2376.8511 1064.5034 3423.6592 8146476
2380.2629 1057.0098 3399.5579 8672561
2415.9309 1063.8458 3421.5442 8409389
2429.728 1061.0175 3412.4478 8540975
2466.4788 1068.1764 3435.4724 9133112
2470.9429 1061.3501 3413.5176 7949094
2514.2524 1071.1844 3445.147 8212010
2539.4531 1073.2074 3451.6533 8475441
2533.3989 1062.095 3415.9133 7685924
2542.8567 1057.6102 3401.4893 8475441
2546.6462 1050.8571 3379.7698 8803635
2581.7131 1057.0149 3399.5747 8606511
2599.449 1056.0366 3396.4285 8540462
2619.0198 1055.8131 3395.7097 8342826
2634.7976 1054.0757 3390.1216 7948066
2671.7222 1060.7604 3411.6211 7026963
2685.9495 1058.4008 3404.032 7552794
2675.2346 1046.3212 3365.1816 8342567
2670.0308 1036.5598 3333.7871 8343339
2700.6626 1040.7518 3347.2693 8540461
2701.5947 1033.5208 3324.0127 8212009
2726.0735 1035.3373 3329.855 8080681
2756.6023 1039.4088 3342.9497 8146732
2751.0476 1029.9136 3312.4114 8015146
2776.5342 1032.0916 3319.416 7949611
2795.3845 1031.7894 3318.4443 7751719
2808.51 1029.3933 3310.7378 8146476
2836.4417 1032.4194 3320.4707 7554085
2878.375 1040.4652 3346.3477 7554085
2946.9236 1057.9559 3402.6013 7488036
2902.0017 1034.7495 3327.9646 7685415
2906.8506 1029.4829 3311.0261 7488292
2952.9431 1038.7959 3340.9785 7356450
2948.2874 1030.2511 3313.4968 7290913
2954.1155 1025.4587 3298.0837 7554342
2971.397 1024.6792 3295.5762 6699289
2994.2192 1025.8079 3299.2065 7225890
2988.9785 1017.37 3272.0686 7686439
3014.0083 1019.2778 3278.2046 8213296
3047.7427 1024.0862 3293.6692 8080943
3057.6465 1020.8767 3283.3469 7620392
3092.4365 1025.9644 3299.7097 7817514
3108.5583 1024.8334 3296.0725 8015149
3142.033 1029.4017 3310.7654 8014893
3161.1824 1029.2495 3310.2754 8212272
0 0 0 0
0 0 0 0
0 0 0 0
0 0 0 0
0 0 0 0
0 0 0 0
-3198.1677 1126.3242 3554.7437 1280
-3190.5896 1131.1049 3569.8318 1280
-3160.2358 1127.8212 3559.4683 1280
-3149.8076 1131.6522 3571.5591 1280
-3100.0017 1121.2917 3538.8611 1280
-3077.6267 1120.7799 3537.2456 1280
-3052.3665 1119.2029 3532.2686 1280
-3030.0835 1118.7035 3530.6924 1280
-3034.0034 1127.9384 3559.8381 1536
-3022.5706 1131.5551 3571.2527 1536
-3000.1013 1131.0619 3569.696 1536
-2972.9417 1128.7808 3562.4968 1536
-2948.8254 1127.6309 3558.8677 1536
-2928.2776 1127.8389 3559.5239 1536
-2906.1455 1127.4352 3558.25 1536
-2888.7427 1128.8738 3562.7903 1536
-2871.1426 1130.2559 3567.1523 1536
-2852.3015 1131.1663 3570.0256 1536
-2835.801 1133.0255 3575.8936 1536
-2814.0845 1132.8131 3575.2229 1536
-2792.4783 1132.642 3574.6831 1536
-2771.1184 1132.5691 3574.4529 1536
-2760.7251 1137.0116 3588.4739 1536
-2749.5312 1141.1909 3601.6638 1536
-2726.6846 1140.5612 3599.6765 1536
-2706.0872 1140.8699 3600.6506 1536
-2690.6235 1143.365 3608.5254 1280
-2677.1851 1146.7676 3619.2642 1280
-2652.3606 1145.3085 3614.6592 1536
-2627.9688 1144.014 3610.574 1536
-2606.8511 1144.1354 3610.9568 1536
-2587.1743 1144.8964 3613.3584 1536
-2573.4409 1148.3221 3624.1707 1536
-2550.4883 1147.6571 3622.0713 1536
-2525.1062 1145.8783 3616.4575 1536
-2510.7715 1149.1251 3626.7048 1536
-2496.4175 1152.4192 3637.1008 1280
-2481.8215 1155.658 3647.3228 1280
-2475.2859 1162.7399 3669.6736 1280
-2456.9121 1164.3372 3674.7148 1280
-2445.8027 1169.4363 3690.8081 1024
-2485.729 1199.25 3784.9016 768
-2471.7563 1203.366 3797.8921 512
-2474.1504 1215.599 3836.5 197376
-2479.3289 1229.4393 3880.1812 1183748
-2452.7266 1227.6323 3874.478 1182980
-2400.7656 1212.9785 3828.2295 1247490
-2393.4067 1220.7953 3852.8999 1247747
-2388.0134 1229.7748 3881.2397 1181954
-2355.512 1224.8331 3865.6433 1313540
-2365.771 1242.2474 3920.6042 1576199
-2314.6121 1227.4374 3873.8628 1247489
-2296.9109 1230.251 3882.7424 1378561
-2277.4028 1232.1438 3888.7166 1575683
-2254.0847 1231.9932 3888.241 1575683
-2227.7734 1230.1863 3882.5386 1707012
-2204.5181 1230.047 3882.0989 1707269
-2177.7688 1227.9346 3875.4319 1641476
-2160.1038 1230.954 3884.9612 1641476
-2137.4387 1231.1586 3885.6069 1641476
-2112.6367 1230.123 3882.3389 1706756
-2088.1367 1229.2426 3879.5601 1377792
-2083.3198 1240.0587 3913.6963 1574913
-2029.0089 1221.326 3854.5752 1443328
-2018.7452 1228.9823 3878.7385 1509120
-1998.2269 1230.5001 3883.5288 1574914
-1974.9834 1230.3556 3883.0725 1705985
-1954.4735 1231.9307 3888.0437 1706242
-1929.7587 1230.8612 3884.6685 1706242
-1902.4763 1228.1085 3875.981 1706499
-1875.1061 1225.2313 3866.9001 1575170
-1853.4559 1226.0667 3869.5366 1508864
-1818.7283 1218.1637 3844.5942 1509120
-1797.5472 1219.2488 3848.019 1640192
-1768.4882 1214.9496 3834.4502 1771778
-1741.4285 1211.9298 3824.9199 1706242
-1710.6038 1206.1757 3806.7595 1771778
-1681.2903 1201.3477 3791.522 1838085
-1659.6361 1201.9358 3793.3782 1772292
-1643.1133 1206.3073 3807.1748 1640449
-1622.9077 1208.0591 3812.7036 1311488
-1580.7373 1193.2795 3766.0586 1377536
-1560.7191 1195.0385 3771.6099 1640706
-1539.105 1195.6089 3773.4099 1640706
-1510.8353 1190.9496 3758.7051 1574656
-1489.165 1191.4309 3760.2241 1706242
-1460.5604 1186.2944 3744.0134 1837828
-1436.4791 1184.7305 3739.0771 1837828
-1414.2 1184.6267 3738.75 1837828
-1390.5363 1183.3418 3734.6943 1706242
-1368.7605 1183.6477 3735.6599 1640193
-1342.489 1180.0121 3724.1855 1706242
-1318.0818 1177.9209 3717.5859 1837828
-1297.4078 1179.1517 3721.4705 1903364
-1273.8864 1177.7924 3717.1802 1903621
-1255.7576 1181.4587 3728.7517 1903621
-1228.9579 1176.9528 3714.53 1772035
-1208.4536 1178.421 3719.1643 1706242
-1181.3108 1173.3501 3703.1604 1837571
-1156.8834 1170.8354 3695.2239 1772035
-1137.6305 1173.5618 3703.8281 1640449
-1115.3435 1173.2037 3702.6982 1706242
-1087.4752 1166.8429 3682.6228 1903364
-1072.1404 1173.9449 3705.0374 1772035
-1051.2084 1175.087 3708.6421 1772035
-1025.7034 1171.057 3695.9231 1574657
-996.73608 1162.812 3669.9014 1706242
-969.78308 1156.6016 3650.3008 1837058
-948.38281 1156.8811 3651.1831 1639937
-926.5343 1156.6143 3650.3408 1705729
-902.64539 1153.7267 3641.2275 1771265
-881.17755 1153.868 3641.6733 1705730
-860.94263 1155.6714 3647.365 1639936
-842.13519 1159.5331 3659.553 1508352
-818.15198 1156.2841 3649.2988 1508096
-800.63269 1162.2421 3668.1025 1705729
-780.65381 1164.8624 3676.3726 1705728
-749.72357 1150.823 3632.0632 1705728
-727.93066 1150.3939 3630.7092 1705472
-707.61725 1152.3481 3636.8767 1639936
-687.82184 1155.2952 3646.1777 1574144
-667.64111 1157.765 3653.9729 1968900
-641.24799 1149.2666 3627.1511 1771521
-621.43304 1152.3771 3636.9683 1771265
-598.76379 1150.2279 3630.1853 1837057
-576.92615 1149.5758 3628.127 1837057
-555.26398 1149.2361 3627.0549 1902850
-532.83466 1147.2175 3620.6843 2034180
-510.9679 1146.2915 3617.7617 2166022
-491.98044 1152.0267 3635.8623 1902850
-470.57712 1152.371 3636.949 1968643
-448.72626 1151.6001 3634.5156 1968643
-426.84662 1150.6736 3631.5916 2231045
-405.11914 1150.0807 3629.7205 2231043
-382.85443 1147.8107 3622.5562 1967872
-361.41541 1147.8934 3622.8174 2164993
-339.72882 1147.1508 3620.4736 2560008
-318.09509 1146.4985 3618.415 2362629
-296.96201 1147.6869 3622.1655 2296836
-275.38681 1147.2186 3620.6875 2165250
-254.75838 1150.9485 3632.4592 2362629
-233.33879 1151.4626 3634.082 2559495
-211.28952 1148.6581 3625.2307 2691081
-189.85269 1148.925 3626.0732 2625031
-168.06729 1146.8816 3619.624 2559493
-147.23024 1151.6583 3634.6997 2559749
-125.79091 1152.5537 3637.5256 2559749
-104.48056 1155.2456 3646.0215 2887943
-82.951569 1156.2931 3649.3274 3019530
-61.164276 1153.2094 3639.5947 2624514
-39.762096 1157.9819 3654.6575 2887685
-18.216602 1165.0052 3676.8232 3018758
3.5626101 1162.577 3669.1597 2887173
25.431477 1168.4406 3687.6653 2886913
47.700188 1178.7655 3720.2515 3609090
69.96637 1182.5209 3732.1038 4726279
90.941818 1167.8966 3685.9487 6896157
112.33432 1163.2551 3671.2998 8211497
134.757 1169.0569 3689.6106 8014371
156.51431 1168.2722 3687.134 8606249
178.68091 1170.3607 3693.7253 9132592
199.95633 1166.7931 3682.4661 8737578
220.86983 1162.0233 3667.4124 9066799
240.78564 1153.3295 3639.9739 9066800
264.13098 1161.1414 3664.6289 9001008
285.47681 1159.6443 3659.9038 8211492
311.02661 1174.2297 3705.9365 8672043
331.78555 1169.9974 3692.5789 9066544
354.00644 1171.1251 3696.1382 8869164
375.46634 1169.7506 3691.7998 9000750
396.14371 1166.2236 3680.6687 8869421
420.13385 1172.3085 3699.8728 9066801
440.67883 1168.6536 3688.3374 8803629
467.18832 1180.4141 3725.4543 9329973
485.44821 1171.2098 3696.4055 9198644
505.14392 1166.1152 3680.3264 9527609
523.22943 1157.8788 3654.332 9067057
543.23877 1154.3853 3643.3059 8737836
563.94495 1152.5829 3637.6177 8672043
584.43817 1150.494 3631.0251 8672044
604.22986 1147.2216 3620.6968 9264436
624.92676 1145.8333 3616.3152 9198130
653.44727 1158.4062 3655.9966 9198387
669.84149 1149.3652 3627.4626 9132336
692.24323 1150.8741 3632.2249 8869164
718.80249 1158.9956 3657.8564 9395508
738.26031 1155.5264 3646.9075 9263922
760.76056 1156.8811 3651.1831 9329971
778.75238 1151.4946 3634.1829 9264179
801.50183 1153.2434 3639.7024 9198385
822.11426 1151.9064 3635.4827 9198386
841.19037 1148.5399 3624.8579 8869165
862.31561 1148.0693 3623.3726 9198387
873.474 1134.6742 3581.0969 8211235
904.91455 1147.6368 3622.0078 8079905
919.91174 1139.6282 3596.7317 7948063
944.47058 1143.5593 3609.1389 8277285
956.48071 1132.4591 3574.1055 8606250
981.70905 1137.1506 3588.9124 8671786
1006.3865 1141.0187 3601.1204 8869165
1027.0526 1140.2727 3598.7659 9066800
1041.3373 1132.6162 3574.6016 9001007
1060.1233 1130.0632 3566.5442 9132593
1088.7025 1137.8452 3591.1047 8803372
1106.9567 1134.7448 3581.3196 8672043
1130.0635 1136.642 3587.3069 7816477
1146.076 1131.4651 3570.9685 8343078
1161.7755 1126.1724 3554.2646 8540456
1182.1136 1125.4846 3552.094 8145699
1209.9656 1131.8497 3572.1826 8013856
1231.4529 1132.1445 3573.113 8408870
1249.5596 1129.3739 3564.3687 8606506
1273.3795 1131.7733 3571.9417 8738093
1288.4388 1126.4352 3555.0942 8211748
1307.0831 1124.3527 3548.5212 8408872
1312.8099 1111.4003 3507.6428 8145958
1334.6384 1112.2705 3510.3894 8607024
1353.556 1110.7255 3505.5134 8475184
1385.292 1119.5869 3533.4805 6041883
1425.2889 1134.7615 3581.3723 3085320
1454.7531 1141.2279 3601.7808 2295040
1475.619 1140.86 3600.6194 2031616
1489.0947 1134.8701 3581.7151 2162688
1500.4249 1127.4365 3558.2542 2622976
1517.9409 1124.7925 3549.9097 2951680
1508.8621 1102.7834 3480.4478 5975067
1501.9069 1082.899 3417.6917 6830620
1509.9738 1074.2307 3390.334 7883051
1504.7576 1056.4645 3334.2625 7554343
1507.8962 1044.9484 3297.9167 2951425
1496.1888 1023.5704 3230.4468 2294016
1487.2808 1004.6234 3170.6489 3150854
1535.6576 1024.361 3232.9421 2296578
1558.9961 1027.1163 3241.6379 3152392
1574.6313 1024.7911 3234.2996 3745557
1593.4845 1024.5909 3233.668 4074781
1602.9427 1018.4266 3214.2124 4009244
1616.968 1015.2744 3204.2639 3811863
1622.2185 1006.7497 3177.3599 4074004
1616.5764 991.73834 3129.9829 4073234
1626.8218 986.70361 3114.093 2230528
1629.1298 977.02142 3083.5356 1310976
1630.5394 967.02148 3051.9751 10320955
1664.5477 976.362 3081.4543 10582582
1719.319 997.54645 3148.3137 8344101
1827.2303 1048.777 3310.0002 8804397
1864.5688 1058.8428 3341.7686 8343077
1912.2234 1074.4937 3391.1638 8211492
1926.3171 1071.1572 3380.6335 8343078
1948.5576 1072.3728 3384.47 8935215
1982.5933 1079.989 3408.5071 9001010
2010.7493 1084.2809 3422.0527 8869681
2021.3556 1079.1182 3405.7585 8145958
2059.0566 1088.3792 3434.9871 9264182
2072.2869 1084.6506 3423.2195 9396024
2077.7722 1076.9801 3399.011 8606252
2089.1497 1072.4814 3384.8127 8606252
2105.6836 1070.6903 3379.1602 8409130
2139.2078 1077.4908 3400.6228 8803888
2142.8047 1069.2311 3374.5544 8277545
2159.1255 1067.4143 3368.8206 8672560
2167.7754 1061.8733 3351.333 8278314
2200.8972 1068.3115 3371.6526 8211753
2218.6582 1067.2449 3368.2861 8145703
2257.4343 1076.2161 3396.5996 8607024
2256.269 1066.1553 3364.8472 8146476
2283.5598 1069.5991 3375.7163 7883303
2313.3005 1074.1208 3389.9871 7817254
2324.8416 1070.1869 3377.571 8146476
2367.6733 1080.6012 3410.4392 7817511
2358.7778 1067.4308 3368.8726 8541232
2381.9431 1068.8682 3373.4092 8475182
2369.9685 1054.6444 3328.5181 8277289
2418.2966 1067.2688 3368.3613 8277289
2442.708 1069.2178 3374.5125 8408875
2460.0083 1068.0476 3370.8193 8211753
2479.5803 1067.8746 3370.2734 8474925
2485.2454 1061.7632 3350.9854 8607022
2513.9778 1065.5254 3362.8589 8607278
2511.4597 1056.0874 3333.0723 8738610
2534.0925 1057.2903 3336.8684 8738096
2557.626 1058.8474 3341.783 8606509
2564.3555 1053.4772 3324.8342 8672045
2591.5146 1056.5178 3334.4307 8804144
2586.2024 1046.3744 3302.4177 8343082
2602.6204 1045.1095 3298.4253 8277289
2635.4634 1050.4098 3315.1536 8409131
2638.3008 1043.761 3294.1694 8540461
2634.2339 1034.4984 3264.936 8474924
2664.1587 1038.6224 3277.9519 8540461
2710.2249 1048.9341 3310.4958 8146476
2712.3918 1042.2294 3289.3354 8080939
2711.353 1034.3972 3264.6169 8081196
2748.8645 1041.2791 3286.3364 7357216
2751.6572 1035.005 3266.5352 8080684
2781.4587 1038.9066 3278.8489 7883562
2811.543 1042.8593 3291.3232 8080941
2802.7241 1032.4265 3258.3972 7817768
2842.4526 1039.8975 3281.9761 7817257
2848.6599 1035.0868 3266.7932 7751464
2860.6536 1032.4292 3258.4058 7422499
2882.1826 1033.2258 3260.9197 6698520
2865.4067 1020.3712 3220.3499 7159071
2871.4724 1015.7668 3205.8181 7224864
2877.3047 1011.1409 3191.2185 6830362
2943.8088 1027.7574 3243.6614 7356707
2993.3926 1038.2894 3276.9009 6961949
2971.2996 1023.984 3231.7522 7620391
3004.9646 1028.9545 3247.4392 7949357
3031.9871 1031.6014 3255.7935 7949098
3054.0564 1032.5405 3258.7571 7817512
3064.103 1029.4286 3248.9355 7883563
3097.4568 1034.137 3263.7954 8146479
3120.7332 1035.4432 3267.9182 8146735
0 0 0 0
0 0 0 0
0 0 0 0
0 0 0 0
0 0 0 0
0 0 0 0
-3116.4238 1118.0608 3463.886 1280
-3108.5034 1122.6128 3477.9888 1280
-3087.366 1122.4205 3477.3928 1280
-3059.3635 1119.713 3469.0049 1280
-3032.6672 1117.4502 3461.9944 1280
-3008.0305 1115.9207 3457.2556 1536
-3007.9607 1123.5465 3480.8813 1536
-2979.2188 1120.4939 3471.4241 1536
-2982.2151 1129.4187 3499.0742 1536
-2968.3013 1132.0194 3507.1318 1536
-2941.0476 1129.5337 3499.4304 1536
-2915.8982 1127.8265 3494.1414 1536
-2901.428 1130.2549 3501.6648 1536
-2884.9358 1131.925 3506.8391 1536
-2857.0134 1129.1022 3498.0935 1536
-2835.5818 1128.8219 3497.2251 1536
-2809.6279 1126.7239 3490.7253 1536
-2778.4209 1122.4727 3477.5544 1536
-2768.7595 1126.9272 3491.3555 1536
-2759.5449 1131.6321 3505.9316 1536
-2737.7869 1131.2255 3504.6719 1536
-2722.2742 1133.4131 3511.4492 1536
-2709.0015 1136.574 3521.2422 1536
-2688.9673 1136.925 3522.3298 1536
-2674.3113 1139.5735 3530.5352 1536
-2655.3728 1140.4244 3533.1714 1536
-2632.0642 1139.3971 3529.9885 1536
-2618.9709 1142.8109 3540.5649 1280
-2601.7095 1144.4463 3545.6316 1280
-2579.1375 1143.7533 3543.4846 1536
-2562.9556 1145.906 3550.1538 1536
-2537.6851 1143.9971 3544.24 1536
-2520.7051 1145.825 3549.9028 1280
-2494.6345 1143.5165 3542.751 1280
-2477.8057 1145.4412 3548.7136 1536
-2454.2488 1144.2618 3545.0601 1280
-2448.021 1151.2114 3566.5908 1280
-2429.7603 1152.5741 3570.8125 1024
-2414.363 1155.3311 3579.3538 1024
-2402.0359 1159.619 3592.6384 768
-2417.5967 1177.5671 3648.2441 768
-2392.5764 1175.8948 3643.0627 512
-2418.7905 1199.6017 3716.5095 394240
-2448.9656 1225.7267 3797.4478 1117187
-2410.9473 1217.8882 3773.1633 1116672
-2382.7983 1214.9353 3764.0149 1248001
-2359.1106 1214.2227 3761.8071 1116162
-2345.0337 1218.4904 3775.0291 1116161
-2328.2959 1221.4442 3784.1804 1378819
-2304.77 1220.8601 3782.3706 1510406
-2290.1648 1225.036 3795.3081 1115905
-2268.7227 1225.6013 3797.0596 1509634
-2244.52 1224.6719 3794.1799 1575683
-2229.6311 1228.8569 3807.1458 1904391
-2199.2512 1224.5022 3793.6543 1641476
-2174.9094 1223.4542 3790.4077 1509634
-2151.3015 1222.8016 3788.3857 1509890
-2125.3408 1220.7838 3782.1343 1378305
-2104.0295 1221.422 3784.1116 1378304
-2073.7561 1216.8153 3769.8394 1575683
-2051.0659 1216.6062 3769.1917 1575170
-2032.3214 1218.7588 3775.8606 1575170
-2015.5298 1222.1436 3786.3467 1443584
-1988.4717 1219.3091 3777.5652 1312000
-1956.9456 1213.639 3759.999 1575170
-1943.0153 1218.8766 3776.2256 1706242
-1919.9399 1218.4326 3774.8501 1772035
-1886.1874 1211.1222 3752.2014 1640449
-1866.1722 1212.5635 3756.6667 1706242
-1846.1194 1214.0148 3761.1631 1509120
-1816.5978 1209.1986 3746.2422 1443584
-1788.89 1205.486 3734.7395 1509377
-1768.4165 1206.616 3738.2407 1575170
-1741.824 1203.5469 3728.7319 1509378
-1721.0883 1204.4976 3731.6775 1640963
-1699.3352 1204.7517 3732.4651 1706499
-1677.7058 1205.1016 3733.5488 1772035
-1648.1653 1199.7021 3716.8208 1837571
-1624.0327 1198.1464 3712.0007 1837571
-1599.7821 1196.4594 3706.7744 1574656
-1574.2924 1193.7859 3698.4915 1179904
-1543.6611 1187.0831 3677.7256 1574401
-1523.9218 1188.6842 3682.6858 1705985
-1495.0317 1183.0905 3665.3557 1640449
-1470.7957 1181.069 3659.093 1574656
-1448.7568 1180.7778 3658.1909 1574400
-1425.2075 1179.2279 3653.3894 1771778
-1401.2245 1177.2661 3647.3113 1837571
-1378.4893 1176.3073 3644.3408 1837828
-1354.481 1174.2145 3637.8572 1837828
-1331.8348 1173.254 3634.8813 1640449
-1311.9852 1174.766 3639.5657 1706242
-1291.7965 1176.0198 3643.4497 1771778
-1262.8124 1169.1729 3622.2373 1771778
-1241.2141 1169.0455 3621.843 1772035
-1216.8073 1166.222 3613.0955 1837828
-1196.4424 1167.2407 3616.2515 1772035
-1176.5702 1168.7861 3621.0393 1640193
-1149.8177 1163.427 3604.4363 1508864
-1131.3445 1166.4008 3613.6492 1706242
-1106.6055 1162.9049 3602.8184 1640449
-1082.2466 1159.6787 3592.8235 1640449
-1059.5417 1158.1311 3588.0288 1640450
-1035.7812 1155.3425 3579.3896 1508864
-1012.8315 1153.3606 3573.2493 1508864
-991.64893 1153.3494 3573.2146 1574400
-968.09149 1150.5154 3564.4343 1443072
-946.79596 1150.303 3563.7761 1639937
-925.12183 1149.6104 3561.6306 1705729
-902.67761 1147.9062 3556.3508 1639936
-881.22101 1147.4065 3554.8027 1574144
-859.07629 1145.9645 3550.335 1574144
-836.05896 1143.2567 3541.946 1574400
-814.30505 1142.1816 3538.6152 1574400
-793.66418 1142.6521 3540.073 1574144
-771.33978 1140.6587 3533.897 1574144
-750.69751 1141.1108 3535.2979 1508352
-730.5625 1142.3822 3539.2368 1705472
-708.49817 1140.6227 3533.7856 1574144
-686.82672 1139.4078 3530.0215 1442304
-669.70245 1145.897 3550.126 1639936
-653.01337 1153.5759 3573.916 1771521
-630.25366 1150.686 3564.9629 1574144
-605.50616 1143.8407 3543.7554 1574144
-585.95966 1146.6815 3552.5564 1639936
-561.65515 1140.0759 3532.0918 1574400
-541.92786 1142.6099 3539.9419 1574400
-519.63232 1139.7147 3530.9724 1837314
-499.70059 1141.9788 3537.9868 1771521
-478.98318 1142.5669 3539.8091 1705728
-458.90573 1144.8055 3546.7446 1837057
-434.65787 1136.356 3520.5667 1902850
-415.10245 1139.9406 3531.6724 2165765
-396.38498 1146.3292 3551.4651 2166022
-374.99942 1145.2858 3548.2324 1968643
-353.00693 1142.1545 3538.5312 2230788
-332.03415 1142.1353 3538.4717 2296837
-311.81848 1144.8934 3547.0168 2296838
-290.53067 1143.8292 3543.72 2362630
-271.01212 1150.1075 3563.1707 2230786
-248.64285 1144.3268 3545.2612 2165250
-229.56894 1154.0449 3575.3691 2296836
-207.66611 1150.0723 3563.0615 2231043
-187.5204 1156.0328 3581.5278 2296067
-164.53268 1143.7583 3543.5 2296066
-144.01425 1147.5691 3555.3064 2493445
-122.41758 1142.6217 3539.9785 2427652
-101.9867 1148.7594 3558.9941 2428164
-80.407646 1141.7931 3537.4116 2559749
-59.871639 1149.9479 3562.676 2690822
-38.842255 1152.3479 3570.1118 2690565
-17.839355 1162.2146 3600.6802 2690563
3.4623849 1151.0004 3565.9368 2953477
24.782536 1159.9186 3593.5664 3150342
46.054741 1159.3868 3591.9192 3215619
67.439758 1161.1337 3597.3308 3477505
89.269806 1167.8634 3618.1807 4726794
110.22911 1162.8014 3602.4978 6567707
131.54962 1162.5739 3601.793 7751203
152.33012 1158.3038 3588.5637 8869167
173.5528 1158.0302 3587.7158 8606508
193.70676 1151.4635 3567.3716 9198387
215.56381 1155.3167 3579.3093 9132592
236.08366 1151.9547 3568.8936 9066799
257.81662 1154.5782 3577.0217 9000751
282.14676 1167.5505 3617.2112 8803629
301.35602 1158.9965 3590.71 9132594
322.23282 1157.561 3586.2625 8934958
346.00497 1166.0607 3612.5955 8211235
361.4039 1146.9957 3553.53 9066544
391.08026 1172.8478 3633.6228 9001008
409.68027 1164.5175 3607.8145 8672300
431.703 1166.2599 3613.2126 8277541
451.77548 1162.818 3602.5491 8277285
474.06003 1165.1233 3609.6914 8672043
493.3642 1160.2208 3594.5029 8606250
511.39182 1152.8464 3571.656 8540456
533.48193 1154.8523 3577.8704 8869424
552.47711 1150.2612 3563.6467 8474922
570.78101 1144.6218 3546.175 8474666
589.7019 1140.5762 3533.6416 8672044
610.49872 1140.312 3532.8232 8474664
636.12708 1148.7908 3559.0913 9066801
660.18329 1153.9773 3575.1597 9198386
677.46033 1147.3599 3554.6582 9329972
699.57129 1149.0817 3559.9924 9198130
726.24774 1157.9821 3587.5669 8540457
743.72742 1152.1294 3569.4346 8803372
757.73816 1141.375 3536.1165 8934958
780.32269 1143.7666 3543.5256 9001007
804.7674 1148.688 3558.7727 9001006
825.22345 1147.8101 3556.053 8737835
843.013 1143.3595 3542.2644 8343077
853.70624 1129.7343 3500.052 8606249
874.44086 1129.7285 3500.0339 8540456
891.14105 1124.6312 3484.2422 8803628
909.78857 1122.1669 3476.6072 8145698
934.9281 1127.6418 3493.5691 8079649
955.29132 1127.2433 3492.3347 8343077
975.9903 1127.2498 3492.3547 8869421
989.23718 1118.8275 3466.2615 8408871
1013.6574 1123.1279 3479.5847 7816733
1038.636 1127.8632 3494.2549 8540456
1058.7024 1127.1835 3492.1492 8540456
1070.9934 1118.4102 3464.9683 7816734
1086.5264 1113.2886 3449.1011 8408871
1112.0754 1118.4296 3465.0286 8606250
1130.8947 1116.7385 3459.7896 8737836
1159.9602 1125.0457 3485.5259 8737835
1161.5872 1106.915 3429.355 7618841
1192.105 1116.4653 3458.9434 8210979
1215.8363 1119.4447 3468.1733 8013857
1228.4675 1112.2745 3445.9595 8013857
1250.6139 1113.8132 3450.7266 8211493
1287.6896 1128.3846 3495.8708 8277542
1294.8525 1116.6978 3459.6633 8474923
1316.2312 1117.4438 3461.9746 8015144
1340.5554 1120.6294 3471.8438 8475179
1330.873 1095.7206 3394.6733 8014884
1362.5641 1105.1095 3423.7615 8409899
1437.1797 1148.5261 3558.2715 7883814
1473.6125 1160.6147 3595.7234 7620904
1480.274 1149.2451 3560.4988 5844757
1499.839 1148.072 3556.8645 5056016
1507.0385 1137.5973 3524.4126 3149831
1528.407 1137.9585 3525.5315 1310720
1529.8038 1123.6406 3481.1731 1114112
1527.249 1106.8398 3429.1223 983040
1501.9398 1074.2061 3328.0188 1245184
1502.3368 1060.5652 3285.7578 2294016
1503.7502 1047.9818 3246.7729 2294016
1532.4359 1054.4824 3266.9128 2162944
1545.3824 1050.1259 3253.4155 2032384
1568.3894 1052.6287 3261.1697 1966848
1578.968 1046.8308 3243.207 2032896
1593.5916 1043.8219 3233.885 1901312
1606.6923 1039.8987 3221.7307 2098432
1619.4147 1035.8258 3209.1123 2098944
1625.1005 1027.3989 3183.0046 2624768
1620.172 1012.5318 3136.9446 2953472
1631.4238 1007.9993 3122.9023 2164224
1625.0343 992.79077 3075.7844 1442048
1628.9202 984.12738 3048.9443 10123836
1664.7144 994.7204 3081.7629 10319925
1692.6296 1000.4268 3099.4419 8476195
1805.9039 1055.9204 3271.3677 7882782
1833.035 1060.402 3285.2522 8474406
1841.358 1054.0233 3265.4902 8408871
1874.1818 1061.656 3289.1372 8737836
1883.2153 1055.7942 3270.9766 8474921
1932.7625 1072.5336 3322.8372 8409128
1953.2832 1072.9904 3324.2524 8408873
1950.5212 1060.776 3286.4106 8014371
1975.9045 1063.9583 3296.27 8606252
2009.8751 1071.657 3320.1213 8080164
2039.5123 1076.9183 3336.4216 8474665
2061.342 1077.9956 3339.7595 7882787
2068.7419 1071.578 3319.877 8474924
2099.6724 1077.355 3337.7747 7751201
2093.3809 1064.1036 3296.7202 8408874
2117.7615 1066.5442 3304.2817 8211752
2131.1094 1063.4348 3294.6482 8014373
2180.0728 1077.9928 3339.7507 8475182
2200.5107 1078.3105 3340.7351 8475438
2198.2498 1067.5988 3307.5488 8475438
2228.3486 1072.6533 3323.2083 8080683
2203.9795 1051.63 3258.0754 9133371
2270.1094 1073.7781 3326.6931 8738613
2289.0239 1073.4042 3325.5347 9133371
2298.5042 1068.6504 3310.8066 8212268
2317.9675 1068.5791 3310.5859 8277804
2329.2993 1064.7919 3298.8525 8145703
2349.4575 1065.069 3299.7112 8079910
2351.3506 1057.1298 3275.1145 8277546
2379.8489 1061.1838 3287.6746 8211753
2399.6079 1061.3069 3288.0559 8146217
2417.7651 1060.7252 3286.2537 8343596
2446.1001 1064.5825 3298.2039 8738610
2439.6665 1053.3665 3263.4556 8804403
2462.1443 1054.7118 3267.6235 8541231
2477.6799 1053.0856 3262.585 8869426
2495.6575 1052.5142 3260.8149 8672046
2513.8552 1052.0439 3259.3579 8409132
2541.9487 1055.6906 3270.6555 8409132
2534.9014 1044.7981 3236.9094 8014373
2591.1399 1059.9575 3283.8752 8672303
2560.2278 1039.5062 3220.5146 8474924
2568.7129 1035.2351 3207.2822 8540717
2593.3362 1037.483 3214.2463 8343596
2598.3584 1031.9137 3196.9919 8475441
2630.7197 1037.2039 3213.3816 7817254
2649.3428 1037.0404 3212.8755 8014890
2664.4043 1035.4952 3208.0881 8080427
2704.1816 1043.5093 3232.9167 7883305
2736.874 1048.696 3248.9858 7817255
2729.4441 1038.5438 3217.533 8080683
2744.0557 1036.861 3212.3193 7488293
2734.7991 1026.2448 3179.429 7422500
2771.9568 1033.0717 3200.5796 8014893
2783.0481 1030.1572 3191.5505 7949100
2799.8369 1029.377 3189.1331 8541494
2850.7341 1041.0634 3225.3386 7357220
2871.9111 1041.8125 3227.6599 7817771
2839.3987 1023.2045 3170.0098 7423013
2866.5522 1026.2008 3179.293 7686184
2884.6611 1025.9413 3178.489 7488803
2913.115 1029.3405 3189.02 8146733
2931.9233 1029.3097 3188.9246 7883562
2939.3887 1025.3226 3176.572 8015148
2963.9067 1027.2966 3182.688 8146477
2990.9761 1030.1244 3191.4487 8475698
3019.3464 1033.3619 3201.479 7817512
3047.0459 1036.3309 3210.6775 7423011
3098.7532 1047.3778 3244.9016 7488549
0 0 0 0
0 0 0 0
0 0 0 0
0 0 0 0
0 0 0 0
0 0 0 0
-3077.2803 1124.2845 3420.3782 1280
-3063.1941 1126.5577 3427.2937 1280
-3040.2478 1125.5811 3424.3223 1280
-3025.5173 1127.6533 3430.627 1280
-2986.1016 1120.4908 3408.8367 1280
-2948.3545 1113.8612 3388.6675 1536
-2943.554 1119.673 3406.3484 1536
-2939.9329 1126.0166 3425.6477 1536
-2930.1499 1130.0721 3437.9854 1536
-2910.3623 1130.2988 3438.6753 1536
-2878.7837 1125.9174 3425.3455 1536
-2861.2654 1127.0116 3428.6743 1536
-2840.3069 1126.7568 3427.8994 1536
-2817.405 1125.7219 3424.7507 1536
-2798.3726 1126.2292 3426.2942 1536
-2779.1333 1126.6602 3427.6052 1536
-2758.1929 1126.4026 3426.8218 1536
-2741.5322 1127.9021 3431.3835 1536
-2729.0364 1131.1501 3441.2651 1536
-2703.5271 1129.0127 3434.7625 1536
-2687.8162 1130.9657 3440.7039 1536
-2667.4436 1130.972 3440.7234 1536
-2651.8799 1133.0332 3446.9937 1536
-2634.417 1134.3085 3450.8735 1280
-2607.2781 1131.405 3442.0403 1280
-2594.5212 1134.7458 3452.2041 1280
-2571.6331 1133.6735 3448.9417 1280
-2545.2654 1131.0377 3440.9231 1536
-2525.8164 1131.4587 3442.2039 1536
-2508.7007 1132.9404 3446.7114 1536
-2493.7144 1135.4158 3454.2422 1536
-2477.2549 1137.2559 3459.8403 1280
-2470.0332 1143.4031 3478.5417 1280
-2451.2073 1144.2367 3481.0779 1280
-2432.8926 1145.3252 3484.3894 1280
-2431.3701 1154.405 3512.0127 1280
-2411.7327 1154.9667 3513.7214 1280
-2399.5872 1159.1571 3526.4697 1024
-2393.3845 1166.3171 3548.2527 768
-2374.0195 1167.1332 3550.7354 768
-2356.7839 1169.0201 3556.4758 512
-2372.8113 1187.589 3612.9673 723458
-2387.7957 1205.9692 3668.885 985858
-2392.4324 1219.4132 3709.7852 1314307
-2365.5339 1216.884 3702.0911 1379588
-2334.8496 1212.3418 3688.272 1379587
-2319.0212 1215.5004 3697.8813 1248004
-2309.0715 1221.8298 3717.1372 1313027
-2288.6794 1222.7025 3719.7922 1313027
-2254.0264 1215.8993 3699.0947 1444613
-2239.1587 1219.7401 3710.7798 1312770
-2211.2952 1216.5077 3700.946 1444097
-2194.7336 1219.4905 3710.0203 1509890
-2170.7126 1218.3467 3706.5405 1509890
-2141.1724 1214.0503 3693.4697 1378305
-2130.1387 1220.2667 3712.3818 1444098
-2110.8245 1221.8197 3717.1067 1312514
-2088.0698 1221.3932 3715.8091 1246721
-2060.6582 1218.2045 3706.1079 1378305
-2043.3688 1220.9955 3714.5989 1509890
-2017.4449 1218.6316 3707.4075 1575170
-1980.5303 1209.5037 3679.6377 1509378
-1973.8353 1218.833 3708.02 1706757
-1956.3263 1221.6196 3716.4976 1706756
-1919.7014 1212.3969 3688.4397 1640963
-1901.2789 1214.59 3695.1118 1640449
-1871.7943 1209.6851 3680.1897 1706242
-1846.7677 1207.5795 3673.7839 1640449
-1821.0449 1204.9631 3665.8242 1706242
-1796.0291 1202.7568 3659.1121 1574913
-1770.6 1200.2167 3651.3843 1575170
-1746.4504 1198.4918 3646.1367 1575170
-1726.7195 1199.7938 3650.0977 1575170
-1707.5378 1201.5154 3655.3352 1640963
-1683.1368 1199.5614 3649.3909 1574913
-1662.9716 1200.6146 3652.595 1706756
-1635.3265 1196.2244 3639.2383 1575170
-1608.7373 1192.4993 3627.9058 1509377
-1581.0721 1187.865 3613.8069 1640962
-1573.3696 1198.3073 3645.5752 1180416
-1535.9025 1186.0555 3608.3022 983040
-1511.7185 1183.8601 3601.623 1443328
-1491.5051 1184.7559 3604.3484 1640449
-1461.5533 1177.8297 3583.2771 1443072
-1443.3818 1180.3328 3590.8918 1574656
-1420.597 1179.0817 3587.0859 1640449
-1393.6227 1174.2626 3572.4248 1640192
-1373.9482 1175.5405 3576.3125 1640449
-1357.3147 1179.5009 3588.3613 1640449
-1331.6931 1175.6526 3576.6536 1706242
-1308.1259 1173.5228 3570.1743 1640193
-1289.5234 1175.8501 3577.2544 1574656
-1264.9136 1172.6857 3567.6274 1180160
-1243.6687 1172.5865 3567.3257 1772035
-1210.0813 1160.6455 3530.998 1508864
-1191.3929 1162.8263 3537.6326 1574657
-1174.189 1166.5597 3548.9907 1508864
-1141.2135 1154.4746 3512.2244 1640449
-1122.9855 1157.1366 3520.3228 1640449
-1101.2004 1156.1646 3517.3657 1640449
-1078.3137 1153.9762 3510.7083 1574656
-1059.1871 1155.8048 3516.2712 1640449
-1035.7125 1152.8669 3507.3335 1508864
-1014.2696 1152.1167 3505.051 1508864
-996.12592 1155.1609 3514.3123 1508608
-972.30127 1151.6066 3503.499 1574400
-950.72516 1150.6184 3500.4929 1508864
-930.14313 1150.8162 3501.0945 1377024
-909.83661 1151.3716 3502.7842 1640449
-888.20819 1150.241 3499.3445 1508864
-865.49023 1147.6117 3491.3455 1574144
-844.36749 1147.0205 3489.5471 1771521
-820.21344 1142.1786 3474.8167 1771522
-799.32141 1141.7467 3473.5027 1771522
-776.80151 1138.9054 3464.8586 1508352
-756.55878 1139.339 3466.1777 1705729
-737.32458 1141.358 3472.3201 1639936
-716.19568 1140.4757 3469.636 1574144
-695.34961 1140.0051 3468.2043 1574656
-675.1405 1140.5818 3469.9587 1508864
-655.34717 1141.9192 3474.0276 1574656
-634.54242 1141.5239 3472.8252 1771265
-614.56946 1142.6487 3476.2468 1771522
-593.51038 1141.762 3473.5493 1771266
-573.89331 1143.6854 3479.4006 1837314
-553.35175 1143.8411 3479.8743 2100486
-531.86475 1141.9786 3474.2083 1903107
-510.49301 1140.2239 3468.8699 1837314
-490.3887 1141.2714 3472.0566 1968643
-470.7095 1143.4435 3478.6646 1902850
-449.02188 1140.7122 3470.3552 1968643
-427.14136 1137.2051 3459.6858 1837058
-406.95242 1138.0751 3462.3325 1902850
-385.72601 1135.9819 3455.9648 1902850
-364.50699 1133.6771 3448.9531 1968386
-345.0079 1136.7657 3458.3494 2034177
-324.51074 1136.7479 3458.2952 2231043
-303.81491 1135.9851 3455.9744 2231299
-284.34744 1140.0367 3468.3003 2099201
-263.57458 1139.0782 3465.3845 2165250
-243.07477 1139.2374 3465.8689 2165250
-223.23624 1142.8115 3476.7419 2165251
-202.07883 1139.6741 3467.197 2231043
-180.97742 1136.1779 3456.5608 2099457
-161.27538 1141.696 3473.3484 2165250
-140.95863 1143.8401 3479.8713 2099201
-120.09738 1141.5436 3472.8845 2362116
-99.554306 1141.9468 3474.1116 2362114
-78.825592 1139.8759 3467.8113 2362370
-58.412086 1142.5101 3475.8252 2362370
-37.714718 1139.4373 3466.4766 2624771
-17.214188 1142.0734 3474.4966 2690564
3.3842328 1145.673 3485.4475 2887685
24.067705 1147.1407 3489.9131 2887172
44.89043 1150.8219 3501.1121 3084550
65.940216 1156.1572 3517.3435 3084036
85.61779 1140.6486 3470.1616 3280641
106.92448 1148.6471 3494.4958 3937284
126.81975 1141.3483 3472.2905 6041108
147.68185 1143.5736 3479.0605 8408620
170.28215 1157.0649 3520.1047 8605995
190.72739 1154.5659 3512.5022 8803372
212.34332 1158.9484 3525.8347 9132337
232.24875 1154.0461 3510.9209 8737836
252.0354 1149.4083 3496.8113 8934958
274.32513 1156.0232 3516.9355 9000751
294.50861 1153.4548 3509.1218 9066544
316.08801 1156.3318 3517.8748 8803629
337.52802 1158.3744 3524.0889 8869421
357.51407 1155.4799 3515.2827 8935215
378.90933 1157.208 3520.54 8737579
397.51913 1150.6925 3500.7183 8803886
421.65201 1160.0181 3529.0891 8211749
439.59369 1152.2344 3505.4092 8343078
458.92581 1148.6333 3494.4534 8935472
477.24823 1142.9248 3477.0867 8869678
497.32404 1141.7142 3473.4038 8869424
516.73602 1139.1365 3465.5618 9001010
533.60632 1131.3667 3441.9241 8409130
551.71655 1126.7013 3427.7305 9001010
574.99695 1132.5507 3445.5259 8738094
598.20483 1137.861 3461.6812 8803630
614.78339 1130.6273 3439.6746 9461304
641.30713 1141.5609 3472.9375 9329718
659.83746 1138.0283 3462.1904 8605995
687.05029 1149.2321 3496.2754 9461302
701.85925 1139.6393 3467.0913 9066801
722.47833 1139.7578 3467.4519 9066544
744.25677 1141.6482 3473.2031 8869422
764.63458 1141.3462 3472.2844 8671786
782.93848 1138.0455 3462.2427 8408614
805.51263 1140.9619 3471.115 8737578
822.86377 1136.5192 3457.5991 7816733
832.40356 1121.7656 3412.7148 9000750
858.61041 1129.6401 3436.6711 8408614
871.52203 1120.0629 3407.5347 8474663
897.86835 1127.7943 3431.0559 8803372
913.07245 1121.4979 3411.9004 8079904
934.16083 1122.5453 3415.0867 8737578
952.23798 1120.0062 3407.3623 8803628
979.49359 1128.1442 3432.1201 9001007
1001.5925 1130.1324 3438.1692 7881500
1018.7466 1126.5736 3427.3418 7224082
1040.1946 1127.8091 3431.1006 7224085
1049.1198 1115.6799 3394.2007 7618586
1080.4854 1127.4225 3429.9246 6631691
1091.0532 1117.4308 3399.5269 7224085
1103.3411 1109.5311 3375.4939 7882272
1136.5603 1122.5865 3415.2122 8343078
1142.6272 1108.8359 3373.3794 8474663
1160.5579 1106.8733 3367.4082 8408870
1172.9275 1099.7627 3345.7759 8935216
1210.4667 1116.0958 3395.4656 8935216
1218.3221 1104.9727 3361.6262 8540203
1240.696 1107.1635 3368.291 7684894
1247.8217 1095.8931 3334.0037 7355674
1257.8754 1087.5054 3308.4861 7816738
1268.2485 1079.6472 3284.5793 8343081
1300.5309 1090.3959 3317.2793 7882531
1321.7661 1091.6998 3321.2468 8540461
1368.2781 1113.5366 3387.6799 7816736
1348.2666 1081.3864 3289.8701 7751199
1387.8038 1097.2332 3338.0806 8475181
1432.7798 1116.8743 3397.8337 7225629
1448.4468 1113.4408 3387.3884 8278318
1546.5968 1172.6403 3567.4893 7950124
1525.2296 1140.8464 3470.7639 7423785
1471.6 1086.088 3304.1738 7423791
1514.4659 1103.0492 3355.7742 5383446
1535.3915 1103.7977 3358.0515 2560007
1512.2361 1073.2427 3265.0947 1968129
1532.2671 1073.7219 3266.553 1835520
1547.1638 1070.6364 3257.1658 1704448
1564.6959 1069.4281 3253.4897 1704448
1574.7101 1063.1735 3234.4614 2032640
1589.1678 1060.0331 3224.908 2098432
1599.2321 1054.0717 3206.7715 1966848
1611.3744 1049.604 3193.1794 1901056
1618.9232 1042.2825 3170.9055 2032384
1635.3586 1040.7845 3166.3486 2228992
1640.0587 1031.9369 3139.4314 2295040
1653.8313 1028.932 3130.2898 1835520
1604.5582 987.20496 3003.3447 9596980
1655.3672 1007.2933 3064.459 10385457
1678.8895 1010.522 3074.2817 7620888
1760.7061 1048.3921 3189.4924 8145442
1782.1138 1049.8699 3193.9885 8672043
1814.8214 1057.9038 3218.4299 8672299
1831.7429 1056.6641 3214.6582 8540457
1851.5758 1057.1121 3216.0212 8211749
1878.2588 1061.4221 3229.1335 8079907
1891.4152 1058.0782 3218.9604 8277287
1925.0046 1066.1174 3243.418 7882786
1929.0382 1057.7908 3218.0859 8409129
1945.0747 1056.1444 3213.0774 8080164
1977.562 1063.376 3235.0779 9264182
2014.7446 1072.9692 3264.2629 9198645
2028.2324 1069.8811 3254.8679 8474923
2040.8206 1066.3811 3244.22 8935217
2055.3367 1063.9445 3236.8071 8540459
2102.3635 1078.2263 3280.2566 8803634
2116.9661 1075.7698 3272.783 8607025
2145.2131 1080.2285 3286.3477 8475439
2144.6665 1070.2383 3255.9546 7817509
2161.0632 1068.806 3251.5972 8277546
2183.8594 1070.5359 3256.8601 7948583
2216.2878 1076.916 3276.2703 8080426
2229.0339 1073.7046 3266.5002 9198651
2242.6318 1070.9551 3258.1355 7817511
2264.9033 1072.3593 3262.4072 7554338
2301.8608 1080.6342 3287.5818 9264698
2315.0999 1077.7288 3278.7429 8212266
2320.7021 1071.3462 3259.3252 8540975
2314.2737 1059.5609 3223.4714 8540718
2346.0029 1065.2957 3240.9177 8080167
2377.5593 1070.8593 3257.8438 7948324
2370.4114 1059.0411 3221.8899 8145960
2398.8701 1063.193 3234.521 8672303
2436.0999 1071.1355 3258.6843 7553566
2418.9065 1055.2119 3210.2405 8277289
2441.6392 1056.8181 3215.1267 8737840
2458.2231 1055.7585 3211.9033 8409132
2461.8225 1049.1816 3191.8945 8343082
2489.958 1053.0819 3203.7605 8540460
2492.5959 1046.2211 3182.8879 8343082
2499.1338 1041.088 3167.2717 8211753
2519.637 1041.8058 3169.4553 8343339
2523.8125 1035.8116 3151.2197 8343082
2541.9041 1035.5751 3150.5 8605997
2584.0212 1045.0587 3179.3518 8278059
2598.231 1043.2001 3173.6973 8146475
2610.9309 1040.7664 3166.293 8080683
2621.3457 1037.4628 3156.2429 7751718
2622.0706 1030.3983 3134.751 8606770
2668.4546 1041.2498 3167.7639 8607027
2690.2727 1042.4307 3171.3567 8541234
2672.8645 1028.5013 3128.9797 7751463
2697.4746 1030.8208 3136.0361 7949099
2717.4214 1031.3386 3137.6116 9264704
2748.2612 1035.9557 3151.6577 9001531
2748.9585 1029.2249 3131.1807 7225121
2752.1885 1023.526 3113.8433 7554342
2797.3293 1033.3859 3143.8396 8343855
2815.7024 1033.2921 3143.5544 8015147
2841.1218 1035.7683 3151.0879 7685926
2821.9534 1022.0634 3109.3938 7817512
2857.9363 1028.3817 3128.6155 7949354
2855.7261 1020.9637 3106.0481 8014891
2881.7585 1023.6733 3114.2915 8014891
2863.1345 1010.5862 3074.4771 8014891
2905.4126 1019.0251 3100.1504 8146733
2921.7163 1018.3051 3097.9597 8409650
2975.2229 1030.4794 3134.9973 8278063
3028.0518 1042.2693 3170.8655 8278321
0 0 0 0
0 0 0 0
0 0 0 0
0 0 0 0
0 0 0 0
0 0 0 0
0 0 0 0
-2991.1667 1119.8987 3346.7051 1280
-2971.0354 1119.7853 3346.3662 1280
-2947.3315 1118.3149 3341.9722 1280
-2912.1902 1112.4556 3324.4619 1280
-2896.9065 1114.1536 3329.5364 1536
-2888.5447 1118.5552 3342.6902 1536
-2872.5562 1120.0441 3347.1394 1536
-2855.2905 1121.0521 3350.1519 1536
-2829.8379 1118.8374 3343.5334 1536
-2806.4067 1117.3962 3339.2268 1536
-2795.5427 1120.974 3349.9187 1536
-2778.2766 1122.0173 3353.0364 1536
-2763.2861 1124.0013 3358.9656 1536
-2743.3318 1123.9803 3358.9028 1536
-2724.3547 1124.3625 3360.0449 1536
-2704.6479 1124.4469 3360.2969 1536
-2678.5647 1121.8617 3352.5715 1536
-2667.1433 1125.4248 3363.2192 1536
-2655.645 1129.0087 3373.9294 1536
-2634.2124 1128.3915 3372.0852 1536
-2622.5452 1131.98 3382.8091 1536
-2612.5454 1136.349 3395.8652 1536
-2593.9504 1137.0184 3397.8657 1536
-2570.0098 1135.3367 3392.8398 1280
-2545.7961 1133.5068 3387.3716 1280
-2524.1016 1132.7783 3385.1946 1280
-2495.218 1128.7863 3373.2646 1536
-2484.3262 1132.9343 3385.6609 1536
-2464.6753 1133.1229 3386.2246 1536
-2453.8621 1137.4113 3399.0398 1536
-2433.8293 1137.4617 3399.1904 1536
-2423.0281 1141.8634 3412.3445 1024
-2400.4324 1140.7343 3408.97 1280
-2391.3032 1146.0397 3424.825 1280
-2370.144 1145.6212 3423.5745 1280
-2355.115 1148.1842 3431.2336 768
-2357.0447 1159.1317 3463.949 768
-2352.5461 1167.0824 3487.709 512
-2354.2441 1178.2753 3521.1577 0
-2345.4905 1184.3909 3539.4336 657408
-2367.1172 1206.0959 3604.2971 788480
-2329.1931 1197.5779 3578.8416 1051651
-2333.8416 1210.9933 3618.9324 1050882
-2320.8037 1215.3954 3632.0874 985089
-2293.5962 1212.3899 3623.106 1116417
-2274.3494 1213.5752 3626.6479 1247235
-2266.6108 1220.9825 3648.7842 1313028
-2238.4421 1217.4211 3638.1414 1378306
-2215.6895 1216.7648 3636.1799 1444356
-2194.0833 1216.7313 3636.0798 1312513
-2169.9548 1215.2845 3631.7563 1443841
-2146.2668 1214.0581 3628.0911 1509890
-2122.6382 1212.8406 3624.4529 1444097
-2094.0588 1208.7406 3612.2004 1443841
-2075.2751 1210.2684 3616.7661 1246720
-2051.5046 1208.8898 3612.646 1444097
-2029.6107 1208.5995 3611.7786 1378304
-2005.7177 1207.0999 3607.2971 1444097
-1978.1978 1203.3616 3596.1257 1246720
-1947.65 1197.6801 3579.147 1377793
-1935.2515 1203.1569 3595.5139 1311744
-1915.1831 1203.9341 3597.8367 1509378
-1893.6222 1203.7802 3597.3765 1246208
-1875.7555 1205.9978 3604.0037 1246208
-1853.2114 1205.2246 3601.6929 1443588
-1822.5756 1199.1095 3583.4189 1377537
-1802.7122 1200.0214 3586.1438 1575171
-1781.5199 1200.0598 3586.2588 1443330
-1760.5485 1200.2498 3586.8264 1575170
-1739.2092 1200.1906 3586.6494 1772292
-1714.4607 1197.748 3579.3501 1706499
-1690.3136 1195.6698 3573.1396 1640706
-1664.368 1192.2505 3562.9214 1509121
-1644.4907 1193.1462 3565.5981 1575170
-1615.8992 1187.6603 3549.2039 1509377
-1590.5924 1184.4758 3539.6875 1443584
-1566.3595 1182.0167 3532.3386 1377792
-1544.2212 1181.0929 3529.5779 983296
-1516.7335 1175.9961 3514.3467 917504
-1494.8542 1175.1664 3511.8672 851968
-1484.7096 1183.6687 3537.2754 1180672
-1449.8622 1172.4382 3503.7146 1508864
-1425.1991 1169.2369 3494.1477 1443072
-1403.7681 1168.632 3492.3396 1574400
-1380.5925 1166.5348 3486.0725 1508864
-1358.2806 1165.1146 3481.8286 1508864
-1334.5742 1162.4362 3473.824 1508864
-1313.9706 1162.4186 3473.7715 1574400
-1293.4602 1162.4844 3473.968 1640449
-1269.7732 1159.651 3465.501 1640449
-1248.0424 1158.5404 3462.1821 1640449
-1229.7194 1160.609 3468.364 1771778
-1205.8013 1157.3777 3458.7073 1640449
-1183.5441 1155.6562 3453.563 1706242
-1164.1157 1156.6852 3456.6377 1772035
-1139.038 1152.0366 3442.7463 1772035
-1118.8242 1152.2283 3443.3188 1772035
-1098.3926 1152.1984 3443.2292 1574656
-1076.7715 1150.8958 3439.3367 1574656
-1057.3104 1151.8964 3442.3269 1508864
-1034.3354 1149.0327 3433.769 1443072
-1013.0408 1147.9583 3430.5583 1442816
-990.41919 1145.3052 3422.6301 1377280
-972.18536 1147.7214 3429.8506 1574656
-950.47192 1146.045 3424.8411 1508864
-927.8053 1143.1213 3416.1038 1508864
-906.96106 1142.3625 3413.8359 1443072
-885.80011 1141.1611 3410.2458 1377280
-866.10126 1141.8311 3412.248 1574656
-841.42712 1135.8171 3394.2759 1574656
-818.96417 1132.5667 3384.562 1706242
-801.38147 1136.0713 3395.0354 1771522
-780.86469 1135.4899 3393.2979 1705729
-759.35242 1133.392 3387.0283 1705986
-739.01227 1132.9769 3385.7883 1705985
-720.83887 1135.9535 3394.6831 1705985
-702.63531 1139.0518 3403.9424 1574656
-680.26208 1135.3741 3392.9519 1574656
-660.9035 1136.6572 3396.7864 1574400
-639.46252 1134.3269 3389.8225 1574400
-619.77411 1135.0552 3391.9988 1640449
-598.13733 1132.1444 3383.3003 1705729
-578.95459 1133.8378 3388.3608 1705472
-557.90015 1131.8556 3382.4373 1705729
-535.54175 1126.9818 3367.8721 1903107
-515.71344 1127.2607 3368.7061 1903107
-497.0181 1130.1385 3377.3059 1968901
-477.94406 1132.3605 3383.9458 1968900
-456.26184 1128.3271 3371.8928 1771778
-436.74246 1129.5181 3375.4514 1903107
-417.37067 1131.2229 3380.5466 1837057
-397.03214 1130.3478 3377.9312 1705472
-376.94553 1130.1349 3377.2949 1837057
-358.26532 1134.3511 3389.8948 1902850
-338.40826 1135.1206 3392.1946 1837057
-317.65405 1132.7882 3385.2241 1771521
-296.33508 1127.9913 3370.8892 1837058
-278.2377 1135.6504 3393.7776 2100229
-258.45529 1137.0892 3398.0776 2034435
-235.56554 1123.9457 3358.7991 2034691
-215.8596 1124.9688 3361.8562 2165763
-196.7504 1129.6257 3375.7734 2165506
-179.30212 1145.9524 3424.564 2165507
-157.56262 1135.5199 3393.3875 2231043
-137.21188 1133.5078 3387.3748 2231043
-117.30009 1135.054 3391.9949 2165251
-97.643654 1140.2208 3407.436 2559495
-77.370819 1139.0078 3403.8108 2296323
-57.413727 1143.2263 3416.4175 2559493
-37.084778 1140.6027 3408.5769 2296322
-16.899292 1141.3928 3410.9382 2691335
3.3181503 1143.5513 3417.3884 2887944
23.655807 1147.8337 3430.1863 2624770
43.890293 1145.4655 3423.1089 2821892
64.314552 1147.9816 3430.6279 2821379
84.448479 1145.3514 3422.7681 2886658
103.49712 1131.8711 3382.4836 3346695
124.90817 1144.4091 3419.9519 4003335
145.40268 1146.2216 3425.3684 4989195
165.12531 1142.2506 3413.5015 7159840
186.57118 1149.7659 3435.9602 8540974
206.33528 1146.458 3426.075 8738094
226.90279 1147.8068 3430.1057 8474407
248.31483 1152.8549 3445.1912 8540457
269.54553 1156.3578 3455.6594 8540457
288.60495 1150.709 3438.7788 8408614
309.09348 1151.1276 3440.0295 8211235
329.52307 1151.2885 3440.5103 8342821
348.02289 1145.0811 3421.9602 9198387
371.27631 1154.3367 3449.6196 9001265
391.06229 1152.4082 3443.8567 8606506
408.52597 1144.167 3419.2285 8738092
432.2037 1153.286 3446.4797 9001264
451.43286 1150.2473 3437.3989 8803885
471.50125 1149.5168 3435.2161 8672299
488.53534 1141.7554 3412.0217 8803629
507.1431 1138.1426 3401.2253 9132851
522.34406 1127.4525 3369.2791 8672045
542.70685 1128.2809 3371.7546 8738095
561.21576 1125.3333 3362.9456 8672301
584.83154 1132.4766 3384.2927 8474921
608.02722 1138.3599 3401.8743 9066801
627.0509 1136.3052 3395.7344 7816733
649.90662 1141.1066 3410.083 8803628
672.89484 1145.8442 3424.2407 9000751
685.01654 1132.3418 3383.8901 9198386
707.48108 1136.2181 3395.4741 9000750
725.56451 1133.0386 3385.9727 9132336
742.26068 1127.9221 3370.6824 8803629
764.92206 1131.9008 3382.572 8803372
787.65503 1135.7794 3394.1631 8672042
799.6156 1124.3184 3359.9128 7027217
827.58417 1135.3755 3392.9561 7289363
836.64282 1120.5807 3348.7434 7881756
865.71387 1132.6547 3384.8252 7948063
879.62439 1124.7958 3361.3398 8211491
898.19275 1123.109 3356.2991 8605993
921.84796 1127.7183 3370.0732 8540200
933.64062 1117.9281 3340.8162 7948063
950.72699 1114.7513 3331.3228 8671788
972.89667 1117.543 3339.6653 9198132
993.92041 1118.933 3343.8193 9132339
1013.0052 1118.1288 3341.416 8540200
1032.2211 1117.4972 3339.5286 8408870
1055.6907 1121.408 3351.2156 8671789
1063.3385 1108.6779 3313.1731 7092501
1079.5233 1105.1489 3302.6272 6960402
1090.0199 1096.0262 3275.3647 7092243
1107.0631 1093.6901 3268.3833 7750429
1128.8488 1096.0391 3275.4028 8474407
1150.9377 1098.598 3283.05 8803629
1170.0648 1098.2917 3282.1348 8474407
1195.142 1103.4893 3297.667 9329462
1196.2539 1086.748 3247.6377 8474410
1225.22 1095.4407 3273.6147 8868912
1238.6561 1090.1938 3257.9353 8869425
1252.2644 1085.2573 3243.1829 8737325
1284.1409 1096.0625 3275.4729 8342823
1296.4088 1090.0585 3257.5305 8342824
1318.7223 1092.5533 3264.9863 8145188
1317.1804 1075.4978 3214.0176 8079907
1358.1 1093.1046 3266.6338 8342821
1376.0238 1091.968 3263.2371 8079905
1398.7347 1094.6091 3271.1299 8606250
1417.4019 1094.0568 3269.479 8409127
1431.1863 1089.8014 3256.7622 7948320
1444.7838 1085.5186 3243.9636 7422233
1450.2944 1075.3522 3213.5823 8014372
1488.6218 1089.4666 3255.7617 8869425
1503.6653 1086.3972 3246.5894 7685664
1526.8599 1089.2202 3255.0256 7619615
1543.3787 1087.2698 3249.197 7488287
1560.2462 1085.6102 3244.2375 7554081
1591.9924 1094.2175 3269.9595 4859403
1593.2067 1081.8845 3233.1038 3215362
1597.7673 1072.0903 3203.8345 1966592
1613.0762 1069.6532 3196.5515 1704192
1628.7599 1067.5186 3190.1724 2032384
1631.036 1056.7458 3157.9792 2163456
1645.9458 1054.3102 3150.7007 2229504
1654.8112 1048.1008 3132.1443 2163456
1627.2578 1019.2187 3045.833 8412969
1643.8473 1018.3152 3043.1331 10319412
1671.2531 1024.0591 3060.2981 8475943
1753.1349 1062.7017 3175.7773 8803628
1750.3146 1049.7245 3136.9966 8277283
1763.7048 1046.64 3127.7788 8014112
1801.1714 1057.7587 3161.0061 8013856
1823.7651 1060.0043 3167.7166 8540457
1834.9352 1055.6322 3154.6509 8145699
1848.217 1052.5507 3145.4424 8409130
1868.1599 1053.2864 3147.6409 8408873
