# .PCD v0.7 - Point Cloud Data file format
VERSION 0.7
FIELDS x y z rgb
SIZE 4 4 4 4
TYPE F F F U
COUNT 1 1 1 1
WIDTH 1391
HEIGHT 1
VIEWPOINT 0 0 0 1 0 0 0
POINTS 1391
DATA ascii
-994.75153 1506.8204 11315.56 9527354
-923.0509 1499.2654 11258.824 9396024
-840.62305 1471.7521 11052.212 8869426
-757.43036 1438.1376 10799.781 8540461
-665.49518 1380.1876 10364.604 8277545
-593.93195 1357 10190.474 7883302
-522.46271 1328.803 9978.7266 7356960
-459.18021 1316.8881 9889.251 6961945
-393.54666 1293.7584 9715.5576 7027225
-333.45828 1284.0554 9642.6924 7092761
-273.12296 1269.1923 9531.0762 7093275
-211.02058 1236.2279 9283.5283 6896153
-153.69351 1217.8567 9145.5684 6764824
-97.417007 1192.3333 8953.8984 6764824
-43.317768 1164.2786 8743.2207 6567958
8.260128 1132.8451 8507.1689 7226913
55.908276 1079.5468 8106.9224 8609847
102.15018 1060.9059 7966.937 8282161
149.31859 1060.6295 7964.8623 8216372
193.63033 1045.0679 7848.0005 7100465
248.11728 1079.8163 8108.9463 2628104
289.46661 1055.3903 7925.5176 1904901
336.80276 1056.5643 7934.3345 524544
387.51276 1066.7384 8010.7363 1180416
437.18024 1072.1353 8051.2646 2888706
473.92172 1047.8894 7869.189 8410930
588.23444 1184.1414 8892.3818 8475951
647.0459 1195.4493 8977.2998 8606768
707.96686 1208.6409 9076.3613 8475438
768.09155 1218.7059 9151.9463 8343852
829.99518 1230.08 9237.3604 8343852
906.10437 1259.7974 9460.5254 8607024
970.56116 1270.795 9543.1123 8475439
1029.3787 1273.6044 9564.21 8541232
1101.1929 1291.3621 9697.5615 8146472
1154.1721 1286.3658 9660.042 8343851
1209.9137 1284.7751 9648.0967 8409901
1278.1648 1296.0121 9732.4814 8672045
1337.8651 1297.983 9747.2822 8672300
1400.4674 1302.4896 9781.125 8672300
1454.4747 1298.9623 9754.6357 9001265
1514.4326 1300.8157 9768.5537 9066801
1580.6979 1307.751 9820.6348 9066802
1625.5186 1297.0818 9740.5146 9000753
1683.7001 1297.4402 9743.2061 9066547
1740.0779 1296.4309 9735.627 6372384
1817.358 1310.5599 9841.7295 5843725
1856.2263 1296.9712 9739.6846 5644807
1865.3818 1264.0675 9492.5918 9855282
1931.4609 1270.5349 9541.1592 10381110
1993.765 1274.2219 9568.8467 9986354
2018.4576 1254.332 9419.4824 8802082
2098.1455 1268.7687 9527.8955 8605218
2164.1543 1274.3936 9570.1357 10052924
2164.4111 1242.0009 9326.8809 10119230
2277.1353 1274.1514 9568.3174 9790009
2415.8037 1318.9041 9904.3896 10053436
2379.1101 1268.0658 9522.6172 9855546
2424.7798 1262.4658 9480.5645 9987386
2512.2976 1278.4146 9600.332 9921335
2516.822 1252.3596 9404.6709 9591860
2439.1292 1187.4091 8916.9199 4328448
2417.7915 1152.0654 8651.5059 9986616
2653.5066 1238.1309 9297.8184 11763282
2636.5825 1205.2109 9050.6045 10184251
2743.2009 1228.9503 9228.877 10052668
2864.2202 1258.0873 9447.6826 9986618
2817.5479 1213.8617 9115.5684 9789496
2928.2397 1237.8208 9295.4902 9723960
2958.7107 1227.6104 9218.8145 9987131
2950.239 1201.9052 9025.7793 9724472
2960.1558 1184.4733 8894.874 10053694
2960.9587 1164.0682 8741.6416 11634274
2995.0115 1157.2119 8690.1533 13015413
3049.0156 1158.1659 8697.3174 11304794
3134.9666 1171.0216 8793.8574 10316865
3173.6243 1166.0798 8756.7471 9592884
3255.7063 1176.9956 8838.7207 9132079
3329.2446 1184.5262 8895.2715 7356444
3347.0442 1172.2996 8803.4551 6437654
3423.0923 1180.5366 8865.3115 10118971
3369.4146 1144.4617 8594.4043 9921333
3446.9016 1153.3494 8661.1475 10052409
3475.8569 1145.9756 8605.7734 9723444
3523.1389 1144.7699 8596.7188 9986874
3527.2493 1129.7708 8484.082 9395511
3099.6238 978.85217 7350.75 2425600
3366.6062 1048.4319 7873.2627 3211520
3434.7727 1055.0403 7922.8892 2686976
3509.2261 1063.3756 7985.4839 4003078
3566.3589 1066.3103 8007.5225 12222023
3705.2559 1093.2938 8210.1562 11037236
3654.5325 1064.3527 7992.8208 10116655
3668.4666 1054.7419 7920.6489 10380346
3853.6782 1093.9971 8215.4375 9854519
4034.5222 1131.0482 8493.6758 9657653
4144.8364 1147.6577 8618.4053 9657910
4161.6895 1138.2993 8548.1279 9657910
4156.2866 1123.152 8434.3779 9986875
4195.8306 1120.3661 8413.457 10512962
4207.7998 1110.3691 8338.3848 9854775
4074.2891 1062.66 7980.1104 9592113
4046.803 1043.3817 7835.3389 9657909
4106.4658 1046.7556 7860.6748 10185797
4151.6279 1046.3988 7857.9951 11503711
4212.2744 1049.9093 7884.3579 10320208
4244.3481 1046.2993 7857.2485 12949619
4363.5591 1064.0153 7990.2871 12028515
4569.7539 1102.3335 8278.04 8869171
4496.9004 1073.2395 8059.5571 3545091
4406.6001 1040.637 7814.7266 3806978
4500.5215 1051.7646 7898.291 5121809
4496.1606 1039.9315 7809.4287 9857860
4488.437 1027.5693 7716.5947 8805172
4436.5024 1005.4373 7550.3921 6503964
4461.5054 1001.009 7517.1382 7294516
4515.9966 1003.2193 7533.7363 10648403
4564.3267 1004.0309 7539.8311 12358504
4612.7007 1004.8364 7545.8799 12950126
4565.2314 984.94818 7396.5283 13146477
4686.1099 1001.4139 7520.1782 13277807
4856.7085 1028.0944 7720.5371 9592374
4988.6714 1046.1747 7856.3125 9723958
5013.4414 1041.649 7822.3267 10315840
5045.2417 1038.6537 7799.8325 10447422
5190.375 1058.8324 7951.3662 9723697
5074.7886 1025.9401 7704.3594 8538136
5252.4473 1052.3893 7902.981 7354636
5370.1392 1066.4622 8008.6626 9460774
5361.1377 1055.3486 7925.2051 13146460
5335.3418 1041.151 7818.5864 13807727
5341.0967 1033.3014 7759.6401 14005361
5393.9722 1034.6244 7769.5747 13478250
5451.8652 1036.879 7786.5063 13345639
5443.814 1026.6593 7709.7607 10712386
5644.8628 1055.7162 7927.9648 10514499
5635.9883 1045.3571 7850.1719 10645063
5720.6914 1052.3821 7902.9268 10382661
5785.5723 1055.6761 7927.6636 10645577
5792.9712 1048.5131 7873.8721 10645321
5753.9028 1033.1212 7758.2861 10513992
5736.8418 1021.8932 7673.9697 10118979
5527.4048 976.84412 7335.6699 9001528
5720.3657 1003.0576 7532.522 5187088
5545.2583 964.82471 7245.4097 4005903
5976.1221 1031.8027 7748.3857 13281668
5916.5825 1013.7349 7612.7041 14005397
6165.7065 1048.4261 7873.2192 14005137
6278.3398 1059.5613 7956.8403 11831399
6280.9648 1052.1035 7900.8359 9331008
6146.8066 1022.0134 7674.8721 9264445
6073.6997 1002.4417 7527.8965 9198651
6069.6016 994.46191 7467.9722 9132858
5865.4375 954.05548 7164.5376 9001528
5698.2622 920.20294 6910.3198 8673074
5516.8091 884.54431 6642.5391 8541747
5549.4897 883.4809 6634.5537 8410416
5772.8135 912.56952 6852.9966 9200706
5814.0928 912.67517 6853.7896 11174234
6123.0317 954.50403 7167.9062 11371360
6124.606 948.17236 7120.3579 9461823
6194.3901 952.41498 7152.2183 7026459
5833.397 890.8161 6689.6372 9267271
6044.6851 916.85162 6885.1528 10383952
6087.5981 917.17035 6887.5464 9463106
6218.5786 930.66498 6988.8853 9857349
6269.582 932.09094 6999.5938 9659199
6473.4917 956.08112 7179.7495 10054213
6421.6045 942.22559 7075.7007 8738609
6372.791 928.99799 6976.3667 7949862
6377.6284 923.71143 6936.667 7357213
6148.8701 884.87616 6645.0308 10384460
6043.3428 864.15613 6489.4331 8343078
5816.603 826.47522 6206.4658 4068359
5753.8262 812.41876 6100.9077 6632991
5714.0396 801.76367 6020.8931 4331527
0 0 0 0
0 0 0 0
0 0 0 0
0 0 0 0
0 0 0 0
0 0 0 0
0 0 0 0
0 0 0 0
0 0 0 0
0 0 0 0
0 0 0 0
0 0 0 0
0 0 0 0
0 0 0 0
0 0 0 0
0 0 0 0
0 0 0 0
0 0 0 0
0 0 0 0
0 0 0 0
0 0 0 0
0 0 0 0
0 0 0 0
0 0 0 0
0 0 0 0
0 0 0 0
0 0 0 0
0 0 0 0
0 0 0 0
0 0 0 0
0 0 0 0
0 0 0 0
0 0 0 0
0 0 0 0
0 0 0 0
0 0 0 0
0 0 0 0
0 0 0 0
0 0 0 0
0 0 0 0
0 0 0 0
0 0 0 0
0 0 0 0
0 0 0 0
0 0 0 0
0 0 0 0
0 0 0 0
0 0 0 0
-4340.3013 919.20728 6608.771 67584
-4184.9458 894.37482 6430.2349 1792
-4044.7881 872.36371 6271.9829 1280
-3877.0532 843.94159 6067.6382 1280
-3930.3044 863.54102 6208.5508 1280
-3876.8928 859.85413 6182.0435 1280
-3865.9683 865.60986 6223.4253 1536
-4004.105 905.17358 6507.874 1280
-4005.2578 914.23889 6573.0503 1024
-3928.6658 905.56183 6510.6655 512
-3790.2646 882.32434 6343.5962 256
-3705.0776 871.133 6263.1348 0
-3723.4229 884.30389 6357.8286 256
-3865.7734 927.49597 6668.3643 256
-3711.5063 899.6792 6468.3716 256
-3568.2373 873.97571 6283.5728 263680
0 0 0 0
-4519.7603 1130.6294 8128.8203 1024
-4851.4453 1226.6737 8819.3447 1280
-4780.6445 1221.9341 8785.2686 66816
-4955.7959 1280.6478 9207.3994 330240
-5012.3252 1309.6738 9416.0859 264448
-4935.3794 1304.0847 9375.9023 198656
-4632.147 1237.8958 8900.0273 132864
-4556.2344 1231.6306 8854.9834 198656
-4860.9214 1329.3011 9557.1992 1792
-4749.3203 1314.0912 9447.8457 1792
-4716.0991 1320.4641 9493.6641 1280
-4642.1743 1315.4568 9457.6631 1280
-4708.1045 1350.442 9709.1943 1280
-4594.9849 1334.3 9593.1396 1280
-4380.1128 1287.8364 9259.083 1280
-4479.8975 1333.8828 9590.1396 1280
-4449.5083 1341.8552 9647.459 1280
-4315.3433 1318.3319 9478.335 1280
-4291.1816 1328.2373 9549.5508 1280
-4209.0625 1320.2281 9491.9678 1280
-4599.519 1462.2391 10512.976 1280
-4261.3008 1373.3152 9873.6445 1024
-4123.1899 1347.3031 9686.627 768
-4081.5117 1352.512 9724.0771 132608
-4082.988 1372.3751 9866.8857 67328
-4131.1953 1408.7509 10128.414 1280
-4153.8857 1437.3693 10334.171 1280
-4078.6436 1432.4496 10298.8 1280
-3991.1357 1423.0071 10230.912 1536
-3987.8918 1443.7805 10380.266 198912
-3804.7463 1399.0526 10058.688 1792
-3855.7273 1440.3624 10355.69 1280
-3861.5823 1465.8783 10539.14 68096
-3814.9417 1471.9777 10582.992 528896
-3680.4106 1443.8021 10380.421 1318145
-3591.803 1432.9905 10302.688 1646852
-3533.5481 1434.1239 10310.838 2172936
-3536.7537 1460.6804 10501.77 2107143
-3460.1089 1454.6194 10458.192 329984
-3404.853 1457.4929 10478.853 1280
-3417.7612 1490.194 10713.961 262912
-3375.1992 1499.489 10780.789 6376998
-3524.4343 1595.9958 11474.639 9398333
-3730.1228 1722.3665 12383.198 9660475
-3525.5354 1660.5642 11938.862 9922618
-3353.4478 1611.8522 11588.64 9726006
-3185.9966 1563.3787 11240.133 9988406
-3074.5032 1540.88 11078.376 10054200
-2884.9568 1477.4277 10622.177 9922613
-2573.1023 1347.1124 9685.2559 9988663
-2486.5269 1331.4836 9572.8906 9988407
-2348.8035 1287.0972 9253.7676 10054203
-1866.0045 1046.9744 7527.3711 2163968
-1900.124 1092.2253 7852.7095 10054202
-2257.3542 1330.1403 9563.2324 9988411
-2300.0518 1390.1976 9995.0234 10053949
-2339.019 1451.1154 10433 10119741
-2359.7119 1503.6953 10811.031 10054207
-2324.6008 1522.6572 10947.36 10119744
-2274.5403 1532.6344 11019.093 9922621
-2172.4866 1507.132 10835.739 9922622
-2152.7612 1538.9296 11064.353 9988414
-2049.2246 1510.9293 10863.041 9987902
-1964.8975 1495.7358 10753.805 9264179
-1946.627 1531.4933 11010.889 10053952
-1844.639 1501.5828 10795.843 10251331
-1761.6741 1485.5647 10680.679 10251075
-1727.576 1511.0963 10864.241 10119488
-1664.2473 1512.047 10871.076 10316867
-1609.5983 1521.2775 10937.44 10185283
-1521.6782 1498.5178 10773.807 10316357
-1461.8123 1502.6019 10803.17 10250820
-1377.4218 1480.6967 10645.679 10316869
-1313.9438 1480.2483 10642.455 10185283
-1243.1694 1471.1202 10576.828 10184771
-1178.4612 1468.5828 10558.584 10184771
-1105.7249 1455.1951 10462.332 9987647
-1036.9913 1445.7981 10394.771 9987645
-975.58533 1446.0756 10396.766 9922109
-916.43872 1449.9651 10424.73 9921856
-843.8559 1431.6221 10292.851 9921855
-792.13214 1448.566 10414.671 9987905
-727.69958 1443.1688 10375.867 9987649
-658.85986 1427.2288 10261.264 9593404
-600.34546 1432.6881 10300.515 9198648
-528.67322 1404.4292 10097.344 9198393
-456.03174 1366.0546 9821.4434 8869426
-389.68481 1338.0667 9620.2197 7751201
-323.72986 1302.0638 9361.373 7685151
-262.76151 1275.3757 9169.4951 7488543
-204.26859 1249.921 8986.4844 8146217
-148.25723 1227.0543 8822.082 7883046
-94.501442 1208.1157 8685.9199 8212011
-42.540024 1194.2516 8586.2412 8081195
7.9307942 1136.0769 8167.9858 7688234
54.188499 1092.8984 7857.5479 8610360
102.66625 1113.7114 8007.1865 8216884
149.37746 1108.2612 7968.002 7955260
193.04163 1088.2517 7824.1406 1115392
241.5146 1097.8513 7893.1577 590080
290.46982 1106.1727 7952.9854 1247744
338.3017 1108.49 7969.646 984064
385.58252 1108.6553 7970.8345 1245952
432.80194 1108.6272 7970.6323 2033152
484.47241 1118.8843 8044.377 8608308
572.82678 1204.436 8659.4639 8935989
630.88812 1217.4628 8753.1221 9067062
692.04443 1234.0295 8872.2305 9001783
762.55121 1263.7529 9085.9316 9198905
812.94989 1258.4294 9047.6572 9001781
878.28638 1275.4573 9170.0811 9264953
936.52997 1280.8008 9208.499 9265208
998.04242 1289.7802 9273.0576 9462075
1059.2617 1297.4634 9328.2979 9527611
1137.448 1324.1365 9520.0674 9461817
1181.8352 1310.8015 9424.1934 9790269
1249.5562 1323.382 9514.6426 9856062
1304.6505 1322.0813 9505.291 9987648
1346.6672 1308.1841 9405.375 9856061
1399.756 1305.7197 9387.6572 9987648
1467.5024 1316.594 9465.8398 9921599
1519.9594 1313.4556 9443.2754 10053185
1556.2745 1297.0864 9325.5869 10118463
1559.4269 1255.1478 9024.0635 9921339
1670.4904 1299.9658 9346.2891 9986877
1748.2036 1316.7874 9467.2295 9921082
1747.6436 1275.4386 9169.9473 10052666
1823.1816 1290.4457 9277.8428 10118201
1809.329 1243.1556 8937.8438 10249786
1909.6301 1274.7576 9165.0508 10118200
1929.6504 1252.5029 9005.0479 9855028
1983.2489 1252.6545 9006.1377 9986872
2024.4733 1245.1873 8952.4502 10644547
2082.6189 1248.2433 8974.4219 11434320
2124.7395 1241.7814 8927.9639 10907976
2169.3579 1237.058 8894.0039 10973769
2249.8635 1252.5375 9005.2959 10118460
2299.6785 1250.6096 8991.4355 9986874
2388.2119 1269.348 9126.1582 9986873
2405.9675 1250.4709 8990.4385 10118716
2392.9119 1216.7449 8747.96 9131564
2389.5112 1189.254 8550.3105 9986873
2520.8716 1228.5825 8833.0684 10315581
2571.7446 1227.8824 8828.0352 9921080
2655.8569 1242.764 8935.0283 9789493
2667.0583 1223.613 8797.3398 10052922
2727.0474 1227.1506 8822.7734 10250303
2795.908 1234.472 8875.4121 10119231
2767.1987 1199.2388 8622.0977 10185281
2789.4604 1186.972 8533.9043 11567449
2804.7317 1172.2206 8427.8457 11436123
2842.7432 1167.3229 8392.6338 10251850
2819.0999 1137.7114 8179.7383 10843215
2870.4731 1138.8641 8188.0254 11106129
2937.155 1145.9512 8238.9785 9790523
2997.1023 1150.2217 8269.6826 9921338
3025.5652 1142.4666 8213.9248 9592117
3038.9414 1129.3501 8119.6226 9790007
3049.7908 1115.718 8021.6133 9789749
3196.5713 1151.4696 8278.6543 9592627
3235.616 1147.9185 8253.123 9723957
3294.334 1151.3488 8277.7852 9789494
3335.0457 1148.4775 8257.1426 9592373
3352.8613 1137.9189 8181.2295 8210724
3206.5615 1072.7561 7712.7324 5514509
3270.2031 1078.674 7755.2793 4988681
3322.085 1080.6023 7769.1436 4201225
3396.6858 1089.7671 7835.0352 3741444
3515.8262 1112.7819 8000.5029 3543298
3536.8381 1104.5389 7941.2393 11565124
3582.6699 1104.1619 7938.5293 10973241
3602.8215 1095.9828 7879.7241 9657130
3670.7007 1102.3459 7925.4727 9788976
3748.1123 1111.3749 7990.3877 10381117
3812.7134 1116.4272 8026.7124 11631698
3941.6633 1139.9657 8195.9453 11697491
4017.4641 1147.7468 8251.8887 12355675
4068.2673 1148.2853 8255.7598 12683870
4129.4004 1151.6918 8280.252 12420955
4033.9607 1111.863 7993.897 9197358
3977.481 1083.5724 7790.4971 9460532
3979.9529 1071.8066 7705.9058 7158554
4022.9856 1071.1069 7700.875 6567446
4018.3052 1057.8619 7605.6484 10515796
4056.5444 1056.0845 7592.8696 10779737
4181.3428 1076.6338 7740.6113 11896678
4239.8516 1079.8536 7763.7612 11041366
4261.0337 1073.5999 7718.7983 9922370
4214.063 1050.4895 7552.6431 9001524
4195.6318 1034.9044 7440.5928 9067313
4386.4165 1070.7125 7698.04 8935472
4417.042 1067.0916 7672.0063 8935730
4438.5889 1061.3735 7630.8955 8408884
4338.9614 1027.087 7384.3887 4265224
4183.3701 980.3703 7048.5117 3343616
4407.1372 1022.6007 7352.1328 4792843
4486.5303 1030.8329 7411.3193 11699803
4434.7065 1009.049 7254.7007 12555108
4456.1758 1004.1998 7219.8374 12356958
4487.3979 1001.6201 7201.2896 12619363
4505.7842 996.25061 7162.6855 10316096
4646.2549 1017.7231 7317.0645 9526066
4761.7959 1033.3882 7429.6914 9328945
4792.9292 1030.6163 7409.7632 7354647
4840.7861 1031.4583 7415.8159 5841416
4704.1665 993.33105 7141.6948 3014656
4857.8687 1016.6414 7309.2871 3737344
5115.3086 1061.0577 7628.625 3608064
5161.0542 1061.1693 7629.4277 3935488
0 0 0 0
5310.2456 1073.0464 7714.8193 12950374
5278.5415 1057.536 7603.3057 13343326
5306.8765 1054.2151 7579.4292 10447928
5406.8721 1065.0658 7657.4424 11237192
5533.7261 1080.9825 7771.8779 11434828
5568.8071 1078.8573 7756.5977 11435347
5589.3804 1073.9791 7721.5254 11106383
5601.2261 1067.5168 7675.064 11501394
5724.1875 1082.1653 7780.3809 12620129
5789.3623 1085.7422 7806.0977 12750946
5649.541 1051.1219 7557.1909 11237965
5803.4585 1071.2679 7702.0327 11106639
5562.3901 1018.7573 7324.501 10382661
5633.3672 1023.7689 7360.5322 9461305
5805.8389 1047.0068 7527.604 9329464
5908.6372 1057.4214 7602.481 9987906
6230.2222 1106.5365 7955.6016 9922628
6216.3438 1095.7805 7878.27 11041626
6137.1641 1073.7598 7719.9482 10317904
5677.874 986.05267 7089.3657 10186060
5614.4834 967.88306 6958.7324 10185288
5560.6562 951.61493 6841.771 9856321
5622.2563 955.19299 6867.4956 9724734
5437.2261 917.11938 6593.7603 9330233
5402.9409 904.83435 6505.4351 9132853
5382.4209 895.01239 6434.8188 7159577
5426.4995 895.99481 6441.8818 3278848
6041.0005 990.49078 7121.2739 9726020
5872.687 956.21466 6874.8408 12555372
5682.3203 918.84479 6606.165 13147250
5816.9922 934.18616 6716.4639 12422755
5786.9614 923.04816 6636.3857 11830362
5774.1182 914.78339 6576.9653 9724474
5448.3125 857.37994 6164.2549 9461047
5800.2837 906.68988 6518.7754 9526840
5824.8999 904.51428 6503.1338 9526839
5970.7983 921.07672 6622.2119 9526839
6023.8481 923.1933 6637.4292 9790010
5854.0137 891.34546 6408.4551 9855806
5968.1606 902.86926 6491.3066 9987652
5818.9917 874.66577 6288.5337 9133119
5752.5312 859.17426 6177.1553 6369823
5503.5835 816.79541 5872.4663 3015936
5583.1636 823.3999 5919.9507 2819584
5597.3555 820.33887 5897.9429 2754048
5647.5098 822.55371 5913.8667 2228736
0 0 0 0
0 0 0 0
0 0 0 0
0 0 0 0
0 0 0 0
0 0 0 0
0 0 0 0
0 0 0 0
0 0 0 0
0 0 0 0
0 0 0 0
0 0 0 0
0 0 0 0
0 0 0 0
0 0 0 0
0 0 0 0
0 0 0 0
0 0 0 0
0 0 0 0
0 0 0 0
0 0 0 0
0 0 0 0
0 0 0 0
0 0 0 0
0 0 0 0
0 0 0 0
0 0 0 0
0 0 0 0
0 0 0 0
0 0 0 0
0 0 0 0
0 0 0 0
0 0 0 0
0 0 0 0
0 0 0 0
0 0 0 0
0 0 0 0
0 0 0 0
0 0 0 0
0 0 0 0
0 0 0 0
0 0 0 0
0 0 0 0
-4868.4292 1037.537 7154.7178 1280
-5095.481 1095.4646 7554.1787 1280
-5017.5732 1088.2754 7504.603 1280
-4762.2241 1042.1278 7186.3755 1280
-4570.0732 1009.1021 6958.6343 1024
-4187.1694 932.97186 6433.6509 1280
-4066.0159 914.30115 6304.8994 1536
-4045.022 918.01514 6330.5112 1792
-4154.2881 951.638 6562.3696 1536
-3916.4905 905.64172 6245.1851 1280
-3981.4163 929.43683 6409.2734 1280
-3985.6562 939.38715 6477.8896 1280
-3945.3076 938.91962 6474.665 1024
-3945.8618 948.27277 6539.1631 512
-3915.1287 950.21777 6552.5757 256
-3904.6511 957.16705 6600.4976 0
-3932.1775 973.66748 6714.2817 0
-3966.929 992.31238 6842.855 256
-4178.9536 1056.1447 7283.0337 256
-4173.2485 1065.708 7348.9814 263936
-4482.2393 1156.6833 7976.3354 66816
-4405.7051 1149.0492 7923.6909 67072
-4788.9995 1262.4698 8705.8252 395776
-4537.5698 1209.2136 8338.5771 330752
-4853.0093 1307.5122 9016.4307 264960
-4528.3101 1233.6115 8506.8213 199168
-4452.9707 1226.7427 8459.4551 199168
-4414.3892 1229.9592 8481.6357 133376
-4673.6548 1317.193 9083.1885 1024
-4474.667 1275.8037 8797.7734 1536
-4651.5752 1341.8763 9253.4014 1280
-3902.4099 1139.1868 7855.6812 1280
-4256.7666 1257.6311 8672.458 1280
-4253.5674 1272.0421 8771.834 1280
-4257.5542 1288.9852 8888.6719 1280
-4059.949 1244.5558 8582.292 1280
-4194.0059 1301.9581 8978.1309 1280
-4150.332 1304.953 8998.7832 1280
-4051.8943 1290.5829 8899.6885 1280
-4055.9966 1308.9247 9026.1719 1280
-4038.9734 1320.8483 9108.3945 1024
-4168.7627 1381.7565 9528.4092 659968
-4051.593 1361.3575 9387.7412 1024
-3946.0164 1344.3403 9270.3926 1024
-3925.2874 1356.1569 9351.8779 1280
-3887.2148 1362.2338 9393.7842 1280
-3843.3577 1366.4308 9422.7256 1280
-3846.3196 1387.6423 9568.998 1536
-3781.0955 1384.5212 9547.4746 1536
-3766.9182 1400.2808 9656.1514 1536
-3711.5679 1400.9852 9661.0088 1536
-3628.1855 1390.965 9591.9102 1536
-3597.2642 1401.0581 9661.5117 1536
-3568.0061 1412.1361 9737.9033 1536
-3562.6685 1433.2009 9883.1641 1536
-3515.793 1437.9806 9916.124 67584
-3463.0017 1440.4622 9933.2363 594688
-3402.9185 1439.944 9929.6631 989184
-3410.7681 1468.6589 10127.678 66816
-3417.5334 1497.9272 10329.508 1024
-3356.3271 1497.9272 10329.508 197376
-3406.2168 1548.4304 10677.771 1511168
-3406.5144 1577.8746 10880.814 3547143
-3653.9463 1725.134 11896.296 4597257
-3574.4429 1720.7949 11866.374 6437658
-3331.6682 1636.1031 11282.351 8345650
-3211.7852 1609.5277 11099.09 9397823
-3109.0491 1590.6139 10968.662 9529150
-2975.1272 1554.5969 10720.294 9594941
-2788.668 1488.9569 10267.649 9792060
-2545.2083 1389.2758 9580.2617 9923132
-2342.3354 1307.7061 9017.7676 9857082
-2237.8008 1278.511 8816.4424 9857342
-1888.699 1104.853 7618.9199 1442048
-1867.2994 1119.0839 7717.0537 9199153
-2040.4041 1253.5228 8644.1279 9725242
-2120.8271 1336.4803 9216.1914 9856317
-2160.9412 1397.7499 9638.6982 9725502
-2135.3984 1418.7247 9783.3379 9594173
-2138.552 1460.4677 10071.191 9791553
-2090.7412 1468.8031 10128.672 9857345
-2050.8831 1483.3834 10229.216 9856830
-1986.9934 1480.9407 10212.371 9922366
-1937.4448 1489.3689 10270.491 10119231
-1906.2339 1512.8975 10432.741 10119487
-1801.2302 1477.4744 10188.468 10053438
-1733.5724 1471.2897 10145.819 9987645
-1675.5682 1473.1483 10158.636 10316868
-1616.3992 1474.083 10165.081 10185282
-1534.2635 1453.335 10022.005 10119232
-1457.8586 1436.5631 9906.3486 10251076
-1396.97 1434.3149 9890.8457 10251077
-1329.9663 1425.3164 9828.7939 10251077
-1280.0254 1434.6174 9892.9316 10185284
-1215.3646 1427.5217 9844.001 10250817
-1152.6812 1422.15 9806.958 10185282
-1087.672 1413.1863 9745.1455 10316611
-1037.729 1423.8901 9818.958 10251074
-966.40356 1404.7836 9687.2012 10185282
-896.87933 1386.0475 9558 10118975
-851.18005 1404.0868 9682.3965 10249790
-775.54108 1371.7762 9459.5869 10053695
-717.83972 1368.6313 9437.9004 9856315
-668.66864 1382.5929 9534.1777 9987646
-601.94318 1359.4847 9374.8271 9987902
-547.77283 1362.9165 9398.4922 10053183
-504.74954 1397.999 9640.416 9855805
-434.65231 1357.4797 9361 9724220
-382.27914 1368.558 9437.3945 9658683
-317.61905 1331.9087 9184.666 9527354
-263.55115 1333.7047 9197.0518 9527354
-200.58134 1279.646 8824.2695 9527610
-144.49721 1246.8829 8598.3398 9264436
-92.526291 1233.2572 8504.3779 9067314
-40.943813 1198.4081 8264.0635 8870705
7.7267489 1154.001 7957.8384 8740146
53.938984 1134.2107 7821.3672 8806965
100.94186 1141.6543 7872.6963 8479285
147.43422 1140.4435 7864.3472 8218169
192.12479 1129.2241 7786.98 852736
243.76714 1155.2969 7966.7749 2036227
290.38702 1152.9685 7950.7183 2300173
341.17627 1165.5336 8037.3647 2431758
386.33841 1158.1516 7986.46 2693380
427.33493 1141.2559 7869.9492 1640704
504.78534 1215.4614 8381.6611 9397825
565.63153 1239.9734 8550.6924 9594430
620.21295 1247.8505 8605.0117 9790785
677.33142 1259.2476 8683.6045 9856576
739.06323 1277.0066 8806.0684 10053185
795.5274 1283.9216 8853.7539 10119233
853.60986 1292.4315 8912.4365 10053440
889.60223 1268.4521 8747.0781 9921852
939.01672 1265.1976 8724.6357 9790523
1012.8426 1293.4575 8919.5117 9987902
1062.2471 1289.2736 8890.6592 10053438
1116.4512 1291.035 8902.8066 10053438
1144.8961 1264.1945 8717.7178 10118974
1206.4076 1274.6072 8789.5225 10118718
1255.546 1271.6265 8768.9678 10118718
1307.0209 1271.1549 8765.7158 10250304
1368.3491 1279.9362 8826.2705 10184511
1432.4335 1290.5541 8899.4902 10184510
1465.7148 1273.6512 8782.9307 10118974
1509.2448 1266.5079 8733.6709 9987132
1556.343 1262.7333 8707.6416 10052667
1604.963 1260.396 8691.5234 10053178
1652.5336 1257.4056 8670.9023 10249788
1714.4973 1265.2169 8724.7686 10249787
1763.3359 1263.1688 8710.6445 10183994
1812.3011 1261.3252 8697.9316 10052408
1867.1592 1263.5715 8713.4219 10183993
1919.3478 1263.939 8715.9561 9921077
1963.4327 1259.0906 8682.5225 10052921
2011.5442 1257.0059 8668.1465 9921593
2038.4326 1242.0931 8565.3096 10053178
2098.6172 1247.7006 8603.9775 10184251
2148.1501 1246.8595 8598.1777 9789495
2204.4561 1249.8976 8619.1279 10118203
2218.3115 1229.2742 8476.9121 5712397
2277.5449 1234.1533 8510.5586 5514250
2257.3701 1196.7238 8252.4482 9723696
2338.853 1213.6315 8369.042 9131302
2391.23 1215.0476 8378.8076 9197095
2435.7773 1212.5087 8361.2998 7881239
2481.918 1210.8483 8349.8496 9723444
2590.9453 1239.3336 8546.2803 9789751
2628.4971 1233.193 8503.9355 9658421
2686.928 1236.8948 8529.4629 8080164
2661.3796 1202.515 8292.3838 11042398
2602.8875 1154.7661 7963.1138 11175014
2612.7646 1138.5093 7851.0093 11174760
2639.9941 1130.2504 7794.0571 10649182
2610.4207 1098.3748 7574.2471 8937533
2707.6047 1120.0104 7723.4434 9396787
2785.1821 1132.9512 7812.6812 8935724
2817.2534 1127.2605 7773.4395 9002289
2832.3628 1115.0752 7689.4111 11040847
2818.4963 1092.049 7530.6245 9724728
2889.8262 1102.2358 7600.8721 9264175
3019.7502 1134.1161 7820.7139 9394992
2992.9097 1107.047 7634.0493 9789493
3056.1304 1113.6006 7679.2427 9657654
3120.9573 1120.5387 7727.0869 9526839
3164.4956 1119.7435 7721.603 10645064
3114.2214 1086.2487 7490.6274 11501141
3227.3096 1109.8759 7653.5571 12158814
3322.6301 1126.8224 7770.4185 11106123
3368.7275 1126.8407 7770.5444 10052667
3402.8484 1122.9064 7743.4136 8999720
3454.5251 1124.7927 7756.4224 9920562
3402.4863 1093.3033 7539.2754 9723440
3501.2576 1110.4613 7657.5938 9657136
3560.0632 1114.6665 7686.5933 7748886
3626.5076 1121.1273 7731.145 3212545
3708.5466 1132.1876 7807.4155 3868928
3722.3977 1122.4148 7740.0234 8934188
3637.6907 1083.5232 7471.8325 12947814
3595.9924 1058.2236 7297.3696 11763797
3660.9861 1064.5491 7340.9897 12948072
3608.5583 1036.983 7150.8979 13342577
3856.0776 1095.2517 7552.7104 12421988
3939.3137 1106.0566 7627.2202 9724476
3928.9268 1090.6279 7520.8257 9198388
3919.252 1075.7407 7418.1655 9066545
3887.3486 1055.1501 7276.1758 9132081
3942.8596 1058.4781 7299.125 9264182
3961.1895 1051.8607 7253.4922 9263925
3998.9102 1050.4791 7243.9653 9066547
4070.552 1057.9431 7295.436 9263667
4185.9399 1076.5005 7423.4048 9198387
4238.9116 1078.7871 7439.1733 9198132
4301.2393 1083.3833 7470.8677 6500628
4211.5693 1049.9911 7240.5991 2884866
4205.8628 1037.9941 7157.8706 2162944
4257.7788 1040.316 7173.8823 1769472
4311.9971 1043.1489 7193.417 4922374
4244.4077 1016.7474 7011.3555 5844747
4414.2129 1047.1743 7221.1758 11239250
4420.1313 1038.5117 7161.4395 11172686
4450.9741 1035.8141 7142.8369 10118972
4459.0952 1027.9294 7088.4653 9789494
4448.2866 1015.869 7005.2983 9657908
4519.6758 1022.6296 7051.9185 9460531
4558.1113 1021.8787 7046.7402 9460788
4615.1167 1025.2667 7070.103 9658167
4623.9136 1017.9802 7019.8569 9592376
4662.8594 1017.4022 7015.8711 9329202
4725.7773 1022.0186 7047.7046 9526581
4904.8037 1051.4442 7250.6206 9658421
5003.8281 1063.3579 7332.7754 10316094
5133.0684 1081.4321 7457.4131 10579264
5188.2192 1083.722 7473.2036 10382142
4919.416 1018.878 7026.0479 10316349
5013.3779 1029.6252 7100.1587 10184506
5081.4502 1034.9207 7136.6758 10316092
5178.0679 1045.8947 7212.3511 7946782
5298.2461 1061.4088 7319.3345 11171399
5165.6445 1026.4423 7078.2095 12092493
5138.7163 1012.8677 6984.6016 13672803
5227.7754 1022.1891 7048.8804 13409888
5401.6484 1047.8151 7225.5938 13475938
5615.9194 1080.8127 7453.1411 13409376
5639.0254 1076.7919 7425.4141 13408865
5597.9326 1060.6692 7314.2344 13474148
5788.8506 1088.4167 7505.5776 13145186
5547.1235 1035.0156 7137.3311 11697747
5140.9312 951.96796 6564.645 10710602
5293.415 972.84326 6708.5981 10644812
5333.166 972.84326 6708.5981 10448204
5466.5098 989.78955 6825.4575 10382411
5400.876 970.72363 6693.9819 10251079
5407.3413 964.80017 6653.1343 10251079
5389.4204 954.64282 6583.0903 10053700
5353.1611 941.40631 6491.8135 9725250
5423.7485 947.01483 6530.4888 7817769
5168.6206 896.07507 6179.2148 3020550
5573.2583 959.42993 6616.1016 2427392
5609.2471 958.88043 6612.3125 1507840
5467.5454 928.17377 6400.5635 7030311
5313.8135 895.86194 6177.7451 13016434
5497.1304 920.42688 6347.1421 12423007
5617.2803 934.15344 6441.7983 11962716
5552.0649 917.07642 6324.0376 11106383
5402.02 886.31049 6111.8794 8803887
5626.3501 916.96887 6323.2959 9395768
5542.6289 897.34845 6187.9961 9066804
5543.2852 891.55676 6148.0571 8672304
5532.2231 883.96826 6095.728 8934964
5568.9937 884.07159 6096.4404 9329472
5560.4463 877.0257 6047.8535 8144429
5608.207 878.89453 6060.7407 1573120
5149.1118 801.81268 5529.1938 1769472
5408.7666 836.92065 5771.2939 1572864
5401.0776 830.4801 5726.8809 1441792
5442.9673 831.69574 5735.2637 1441792
5441.4966 826.31189 5698.1372 1572864
0 0 0 0
0 0 0 0
0 0 0 0
0 0 0 0
0 0 0 0
0 0 0 0
0 0 0 0
0 0 0 0
0 0 0 0
0 0 0 0
0 0 0 0
0 0 0 0
0 0 0 0
0 0 0 0
0 0 0 0
0 0 0 0
0 0 0 0
0 0 0 0
0 0 0 0
0 0 0 0
0 0 0 0
0 0 0 0
0 0 0 0
0 0 0 0
0 0 0 0
0 0 0 0
0 0 0 0
0 0 0 0
0 0 0 0
0 0 0 0
0 0 0 0
0 0 0 0
0 0 0 0
0 0 0 0
0 0 0 0
0 0 0 0
-5740.4258 1200.2008 7951.5205 1280
0 0 0 0
-5256.2539 1117.312 7402.3696 1280
0 0 0 0
-5459.4312 1180.198 7818.9985 1280
-5433.6982 1184.6887 7848.7505 1280
-5253.9346 1155.3845 7654.6055 1536
-5231.1909 1160.4006 7687.8384 1280
-5036.3667 1126.9979 7466.54 1280
-4507.9146 1017.6851 6742.3252 1280
-4861.0879 1107.2285 7335.5645 1280
-4653.3003 1069.4626 7085.3599 1280
-4180.334 969.50867 6423.1484 1280
-4092.6038 957.88312 6346.1274 1536
-4080.3596 963.87347 6385.8149 1536
-4016.4143 957.6488 6344.5747 1024
-3979.9226 957.91412 6346.333 1536
-3907.0691 949.34924 6289.5894 1280
-3852.6724 945.1474 6261.751 1280
-3826.9868 947.97565 6280.4888 768
-3796.6292 949.6908 6291.8521 512
-3785.2029 956.22235 6335.1245 256
-3899.439 994.94781 6591.687 0
-3982.0076 1026.2952 6799.3677 0
-4172.1753 1086.2985 7196.8999 256
-4030.6956 1060.2993 7024.6509 512
-4079.9998 1084.4681 7184.7729 66560
-4249.1763 1141.3447 7561.5898 133120
-4184.7617 1136.0215 7526.3223 133376
-4249.8218 1166.1101 7725.6646 67072
-4405.4644 1221.98 8095.8105 66816
-4576.1304 1283.2926 8502.0166 67072
-4473.9536 1268.6049 8404.708 1024
-4014.5146 1151.1432 7626.5059 1280
-3961.665 1148.9218 7611.7886 1280
-3992.2024 1171.1108 7758.7944 1280
-3877.1187 1150.6014 7622.9165 1280
-3673.429 1103.0032 7307.5703 1280
-3971.1118 1206.6097 7993.9805 1280
-3954.4814 1216.0619 8056.6025 1280
-3878.9663 1207.4158 7999.3208 1536
-3947.4407 1243.9302 8241.2344 1536
-3895.429 1242.9159 8234.5146 1536
-3811.9553 1231.7098 8160.2725 1536
-3756.8657 1229.5051 8145.6665 1536
-3670.5847 1216.9023 8062.1704 1536
-3699.1345 1242.5386 8232.0146 1536
-3622.3433 1233.0032 8168.8413 1536
-3767.0051 1299.6105 8610.125 1280
-3680.7124 1287.2738 8528.3926 1280
-3833.1018 1359.2312 9005.1221 1280
-3828.0312 1376.5962 9120.168 1280
-3778.0071 1378.0612 9129.874 1280
-3739.3313 1383.7684 9167.6846 1280
-3684.6533 1383.6348 9166.7998 1536
-3638.7166 1386.8286 9187.96 1536
-3590.4604 1389.2223 9203.8184 1536
-3521.4883 1383.5507 9166.2422 1536
-3442.0854 1373.5389 9099.9131 1536
-3460.5093 1402.8669 9294.2158 1536
-3383.0911 1393.6614 9233.2275 1536
-3305.8467 1384.2261 9170.7168 1536
-3257.3459 1386.712 9187.1865 1536
-3255.1567 1409.3334 9337.0566 1280
-3358.1348 1479.0566 9798.9844 1280
-3399.7336 1523.7239 10094.912 1024
-3239.8696 1478.0807 9792.5186 66304
-3263.939 1516.2162 10045.173 1840130
-3262.0935 1543.5066 10225.976 2824199
-3265.3289 1574.2794 10429.851 3217417
-3187.9778 1566.6378 10379.224 3347973
-3163.6509 1585.2653 10502.634 3675911
-3052.8379 1560.4337 10338.121 3872262
-3066.4297 1599.4757 10596.78 3476736
-2925.4873 1557.8588 10321.062 3804931
-2716.7969 1477.6174 9789.4502 5119238
-2418.5874 1344.1254 8905.043 6040331
-2323.6975 1320.1927 8746.4863 7948837
-2169.3306 1260.6062 8351.7158 8673846
-1934.3203 1150.2812 7620.7959 8674099
-1839.448 1120.01 7420.2432 1441792
-1887.3593 1177.3237 7799.9561 8607529
-1932.9321 1236.0195 8188.8252 9594169
-1991.5637 1306.3037 8654.4688 9724730
-2036.5775 1371.1346 9083.9844 9790780
-2042.2438 1412.2756 9356.5498 9790780
-2003.6954 1424.2836 9436.1045 9790780
-1985.4418 1451.8212 9618.5449 9659194
-1936.9664 1458.2341 9661.0322 9790524
-1893.4226 1468.8636 9731.4541 9988414
-1838.6528 1471.1785 9746.79 10053438
-1767.6467 1460.2307 9674.2598 9790522
-1686.6953 1440.0581 9540.6133 9921852
-1628.2168 1438.3385 9529.2207 9922109
-1600.3547 1464.5129 9702.6309 9790523
-1537.4027 1459.3302 9668.2939 9856316
-1471.9347 1451.2657 9614.8652 9987646
-1393.9839 1429.7485 9472.3105 10053440
-1326.0244 1417.1036 9388.5361 9922368
-1251.0966 1395.5781 9245.9268 10053440
-1192.9937 1391.7084 9220.2891 9921854
-1143.7174 1398.2585 9263.6846 9987646
-1103.8625 1417.568 9391.6123 10185282
-1011.5458 1367.9797 9063.083 10119489
-945.09674 1349.7751 8942.4746 10251074
-906.90509 1372.1619 9090.79 10052925
-848.55011 1364.942 9042.957 10184254
-787.81714 1352.6659 8961.626 10184254
-732.6355 1348.8358 8936.251 10184767
-693.44 1376.1333 9117.1016 10053439
-620.38416 1335.1703 8845.7148 9987902
-566.10406 1330.7847 8816.6592 9724990
-517.58075 1340.4158 8880.4668 9725250
-476.6012 1373.9745 9102.7988 9659715
-412.55118 1341.1021 8885.0137 9330750
-357.70258 1332.8993 8830.6689 9659455
-298.81439 1304.2535 8640.8867 9593406
-247.88968 1305.7076 8650.5195 9659196
-195.42921 1297.7213 8597.6094 9790781
-143.86792 1292.1797 8560.8945 9725244
-90.495682 1255.4777 8317.7383 9725245
-41.008564 1249.3488 8277.1328 9133879
7.7169518 1199.6313 7947.7476 8871992
54.796864 1199.3318 7945.7637 8807481
100.8361 1187.0582 7864.4487 8413747
147.42137 1186.9395 7863.6616 8479805
193.69888 1184.995 7850.7793 3745807
243.70059 1202.175 7964.6001 1903620
291.741 1205.6752 7987.7891 722436
338.47794 1203.5634 7973.7983 722435
385.79639 1203.7833 7975.2554 984322
427.46582 1188.2524 7872.3608 1901313
507.1268 1270.9944 8420.5391 9529670
542.30377 1237.4111 8198.0449 9528380
599.03369 1254.4855 8311.165 9790525
647.29517 1252.5784 8298.5303 9790781
708.91608 1274.9672 8446.8594 10119235
749.22656 1258.6044 8338.4531 10119232
817.57422 1288.451 8536.1924 10053439
858.45715 1274.0588 8440.8418 9856060
916.35974 1285.1201 8514.124 10053696
960.26611 1276.4226 8456.502 9790522
997.46979 1260.1201 8348.4951 10053694
1051.4816 1265.5889 8384.7266 10053438
1109.7991 1275.5128 8450.4746 9855545
1153.6674 1268.6901 8405.2725 9987132
1206.1021 1271.4626 8423.6416 10118717
1262.2328 1277.7565 8465.3389 10184511
1291.2311 1257.1527 8328.8359 10052925
1346.8469 1263.027 8367.7539 10315839
1394.9907 1261.7258 8359.1338 10052924
1447.8799 1264.6588 8378.5654 10118461
1497.6591 1264.771 8379.3086 10184252
1543.0239 1261.2677 8356.0986 10183995
1588.141 1257.7859 8333.0312 10315838
1648.0166 1265.8505 8386.46 10250044
1690.2052 1260.255 8349.3887 10118459
1728.0651 1251.8418 8293.6504 10315837
1786.3552 1258.2848 8336.3359 10184251
1810.1079 1240.708 8219.8867 10118202
1869.2465 1247.6713 8266.0195 10052922
1929.2814 1254.8619 8313.6592 10053178
1971.4968 1250.3929 8284.0518 10052922
2009.0619 1243.2633 8236.8164 10053178
2041.3179 1233.2644 8170.5718 10184765
2086.2319 1231.199 8156.8877 9855800
2136.1089 1232.0896 8162.7886 10184505
2149.3572 1212.2814 8031.5562 9987126
2220.915 1225.5068 8119.1768 9855285
2246.3071 1213.2372 8037.8887 9920821
2251.6763 1190.8871 7889.8154 9920821
2360.8625 1223.2372 8104.1396 9855286
2362.9148 1199.8944 7949.4902 9789494
2383.3589 1186.6211 7861.5527 9724216
2477.2942 1209.7448 8014.751 9329460
2579.6147 1236.0165 8188.8047 4134148
2449.5417 1152.0229 7632.335 4922374
2543.5881 1174.5677 7781.6973 3015936
2563.7983 1162.8209 7703.8726 2820096
2515.166 1120.8075 7425.5273 6897433
2501.5662 1095.5815 7258.4014 11108439
2491.8857 1072.8958 7108.1045 12423782
2586.1428 1094.9713 7254.3584 11634265
2630.7842 1095.6611 7258.9287 9003829
2641.0854 1082.257 7170.1235 8217145
2717.636 1095.995 7261.1401 7691838
2673.4897 1061.3875 7031.8599 8680534
2515.801 983.45715 6515.5591 10457458
2505.5 964.62714 6390.8076 10257508
2653.8599 1006.5335 6668.4438 9462588
2828.0459 1056.8617 7001.8765 9658678
2907.021 1070.6681 7093.3457 9592374
2951.2634 1071.4711 7098.665 9593912
3103.2666 1110.8247 7359.3896 10514757
3129.5171 1104.6979 7318.7983 10974795
3109.6753 1082.6904 7172.9961 11566158
3184.9167 1093.9353 7247.4951 9263147
3247.2383 1100.5024 7291.0029 9657648
3267.2083 1092.7324 7239.5249 9723441
3336.0789 1101.3068 7296.3315 9591856
3376.0142 1100.2318 7289.21 9657907
3422.019 1101.1371 7295.2075 9131564
3487.3123 1108.1489 7341.6621 9263922
3549.3022 1113.9513 7380.104 9066031
3601.7161 1116.6436 7397.9404 5186057
3698.6008 1132.8926 7505.5933 3475714
3698.7585 1119.4799 7416.731 2686976
3711.1553 1110.0427 7354.209 4724231
3651.2275 1079.4429 7151.4805 10052669
3670.2881 1072.6293 7106.3389 12553060
3658.3032 1057.0001 7002.793 12947304
3723.7534 1063.844 7048.1353 12684131
3713.5151 1049.1525 6950.8013 12026461
3798.3142 1061.339 7031.5386 9592377
3875.9758 1071.2882 7097.4541 9329718
3935.2329 1075.9916 7128.6147 4067587
4033.1338 1091.0492 7228.3735 3214080
4201.1895 1124.5691 7450.4482 5119500
4152.7354 1100.0396 7287.9365 6237975
4182.9619 1096.6426 7265.4307 10053956
4150.0293 1076.9249 7134.7983 10185796
4171.813 1071.6608 7099.9224 8804657
4174.8218 1061.7269 7034.1089 8936500
4150.9966 1045.2324 6924.8306 8541486
4236.4702 1056.3134 6998.2437 8409901
4296.7529 1060.9592 7029.0234 5909518
4405.6299 1077.3998 7137.9438 10251849
4393.7007 1064.2653 7050.9263 11105872
4352.0103 1044.2372 6918.2368 10118460
4383.3818 1041.95 6903.0835 10973512
4394.4746 1034.9293 6856.5708 10907978
4386.9302 1023.6883 6782.0972 11829079
4520.48 1045.2769 6925.1245 9197618
4427.0474 1014.4636 6720.9819 9328949
4498.5474 1021.6573 6768.6421 9328946
4558.3848 1026.0988 6798.0669 9394739
4731.8755 1055.8218 6994.9863 9460531
4711.1626 1042.0721 6903.8931 9658165
4736.5063 1038.6591 6881.2808 9723959
4822.9141 1048.5804 6947.0117 9921594
4813.8872 1037.7606 6875.3281 10315838
4861.4443 1039.218 6884.9844 10184510
4950.6782 1049.4862 6953.0127 9855546
4906.5278 1031.5425 6834.1318 8407593
4677.2905 975.2984 6461.5068 4921858
4670.582 965.99219 6399.8516 7355682
4726.6572 969.71661 6424.5264 11303246
4938.9507 1005.1749 6659.4434 11631951
4943.8237 998.19165 6613.1777 10710588
5170.9634 1035.8424 6862.6201 10907711
5172.8521 1028.1356 6811.561 11302724
5333.9971 1051.9562 6969.3765 11565644
5321.043 1041.3395 6899.0386 11565646
5405.3081 1049.7653 6954.8613 11236170
5302.9463 1022.0931 6771.5283 10381375
5241.9702 1002.7533 6643.3994 10513735
5332.9653 1012.5562 6708.3457 10711373
5326.5205 1003.8502 6650.667 10843474
5245.7524 981.36798 6501.7183 11107418
5205.5601 966.7489 6404.8647 10383953
5216.9434 961.85065 6372.4126 10253138
5145.0298 941.77545 6239.4116 9924685
5160.3867 937.84729 6213.3867 10912094
5128.5713 925.46246 6131.3354 12491382
5161.6279 924.87585 6127.4487 11439465
5202.3857 925.6676 6132.6948 12688504
5228.9419 923.93915 6121.2432 12622455
5318.6963 933.32434 6183.4219 10646862
5096.0225 888.13153 5884.0117 10250821
5125.9102 887.2699 5878.3037 9593145
5140.7705 883.83643 5855.5562 9592635
5274.2222 900.70123 5967.2881 9066290
5321.0088 902.63983 5980.1318 9132341
5162.6172 869.97717 5763.7368 9000755
5157.4775 863.39941 5720.1582 8672047
5278.3979 877.87317 5816.0488 6895383
5196.5444 858.65356 5688.7158 5908237
5109.6943 838.86151 5557.5903 5317130
5036.1948 821.50061 5442.5718 5776912
5076.4609 822.80005 5451.1807 5514000
5063.168 815.45691 5402.5312 4593419
5127.2354 820.58722 5436.52 4528393
5170.418 822.33179 5448.0781 4594955
5262.1289 831.72491 5510.3096 4595983
0 0 0 0
0 0 0 0
0 0 0 0
0 0 0 0
0 0 0 0
0 0 0 0
0 0 0 0
0 0 0 0
0 0 0 0
0 0 0 0
0 0 0 0
0 0 0 0
0 0 0 0
0 0 0 0
0 0 0 0
0 0 0 0
0 0 0 0
0 0 0 0
0 0 0 0
0 0 0 0
-7752.1353 1488.9052 9491.623 133376
0 0 0 0
-7075.4019 1378.9375 8790.5898 1024
-6979.0054 1370.238 8735.1318 1280
-6011.7837 1189.1556 7580.7495 1280
-5900.0371 1175.8374 7495.8472 1280
0 0 0 0
0 0 0 0
-5804.0415 1183.4331 7544.2686 1280
0 0 0 0
-5595.9761 1158.86 7387.6177 1280
-5512.8081 1150.6379 7335.2021 1280
-5449.415 1146.4451 7308.4741 1280
-5405.3325 1146.2804 7307.4238 1280
-5361.1621 1146.0944 7306.2373 1280
-5354.1885 1153.9215 7356.1353 1280
-5272.5601 1145.6559 7303.4429 1280
-5227.6372 1145.2952 7301.1426 1024
-5192.3574 1147.0585 7312.3838 1280
-5304.7764 1181.7548 7533.5693 1280
-5274.1655 1184.9064 7553.6606 1536
-5209.2236 1180.3331 7524.5068 1536
-5074.2476 1159.6753 7392.8145 1536
-5067.6665 1168.2566 7447.52 1536
-4889.436 1137.0704 7248.7114 1536
-4483.9932 1052.0238 6706.5469 1536
-4422.3501 1046.8386 6673.4927 1536
-4350.3638 1039.0896 6624.0933 1536
-4177.959 1006.996 6419.4995 1280
-4110.2471 999.77802 6373.4858 1536
-4031.5935 989.74017 6309.4956 1536
-3979.5012 986.09619 6286.2651 1536
-3979.1423 995.32361 6345.0889 1536
-3883.0229 980.54553 6250.8804 1280
-3838.1741 978.55432 6238.1865 1280
-3786.2883 974.71289 6213.6982 768
-3816.1252 992.04071 6324.1611 512
-3848.521 1010.3839 6441.0972 256
-3900.1223 1034.1874 6592.8418 0
-3988.8433 1068.415 6811.04 0
-4278.7539 1157.7821 7380.7456 256
-3676.0544 1004.9704 6406.5864 512
0 0 0 0
-4092.957 1142.542 7283.5913 1792
-4015.0566 1132.7404 7221.1069 1280
-4058.6353 1157.3688 7378.1108 1280
-4006.1514 1154.8419 7362.0029 1280
-4021.9224 1172.1516 7472.3506 1280
-3943.6643 1162.1379 7408.5137 1280
-3827.2351 1140.5236 7270.7241 1280
-3769.3247 1136.0543 7242.2334 1280
-3711.4468 1131.4921 7213.1499 1536
-3673.6838 1133.0273 7222.937 1280
-3603.8833 1124.6014 7169.2222 1280
-3569.4548 1127.1439 7185.4312 1536
-3592.8462 1148.2266 7319.8301 1536
-3749.3704 1212.8917 7732.0645 1536
-3721.9155 1218.9048 7770.3965 1536
-3686.5615 1222.4491 7792.9912 1536
-3659.0725 1228.7244 7832.9956 1536
-3622.5134 1232.076 7854.3628 1536
-3522.1816 1213.5426 7736.2139 1536
-3529.8965 1232.2379 7855.394 1536
-3518.4373 1244.6499 7934.5195 1536
-3464.7046 1242.2415 7919.166 1536
-3441.5154 1250.8684 7974.1616 1536
-3514.2808 1295.0969 8256.1143 1536
-3540.3035 1323.1053 8434.665 1536
-3577.6467 1356.2072 8645.6865 1536
-3575.6125 1375.1268 8766.2969 1536
-3554.0769 1386.9938 8841.9473 1536
-3601.7527 1426.63 9094.625 1536
-3444.719 1385.1545 8830.2227 1536
-3370.2439 1376.1095 8772.5615 1536
-3320.0913 1376.8678 8777.3955 1536
-3288.1719 1385.3319 8831.3535 1536
-3215.1548 1376.4751 8774.8916 1536
-3187.2642 1386.9641 8841.7588 1792
-3180.614 1407.2013 8970.7686 1536
-3180.7444 1431.1774 9123.6133 1536
-3063.3291 1402.1781 8938.7461 1280
-3019.6006 1406.4806 8966.1738 1024
-3151.25 1494.0884 9524.665 920064
-3171.9575 1531.3317 9762.0879 2431239
-3079.9788 1514.5465 9655.084 2692358
-3004.387 1505.3365 9596.3711 3019781
-2899.3596 1480.7382 9439.5586 3282182
-2847.0469 1482.6234 9451.5771 3479305
-2706.7522 1437.8478 9166.1367 3479048
-2638.8669 1430.4906 9119.2354 3413510
-2536.2458 1403.6023 8947.8252 3545096
-2448.9565 1384.2318 8824.3398 3479303
-2397.7273 1384.8431 8828.2373 3741704
-2222.8098 1312.4504 8366.7412 3675913
-2050.9985 1238.6307 7896.1479 3544073
-1894.2529 1170.6753 7462.939 3742477
-1856.8833 1175.0107 7490.5767 1179648
-1885.9475 1222.6265 7794.1221 5844241
-1880.1337 1249.4541 7965.1455 6174488
-1938.3137 1321.286 8423.0674 7817511
-1935.5551 1354.2771 8633.3818 8080938
-1901.0757 1366.2625 8709.7871 9331001
-1909.6492 1410.7213 8993.208 10053951
-1840.3425 1398.5482 8915.6064 9922365
-1824.8621 1427.7693 9101.8877 9659192
-1763.7871 1422.0109 9065.1777 9921852
-1729.0753 1437.8129 9165.9141 9790266
-1663.1343 1427.829 9102.2676 9658937
-1594.9586 1415.1929 9021.7139 9658680
-1553.3945 1426.1115 9091.3193 9724729
-1491.5498 1418.527 9042.9688 9856315
-1441.9319 1422.4387 9067.9053 9921851
-1364.3809 1398.0311 8912.3096 9921852
-1284.2633 1368.9224 8726.7441 9922109
-1240.6471 1377.911 8784.0459 9856316
-1168.4626 1354.5686 8635.2402 10053696
-1120.4121 1358.3473 8659.3291 9987131
-1076.1403 1367.2896 8716.335 9987131
-1009.2487 1346.9452 8586.6416 10118461
-968.76343 1361.5535 8679.7686 10052925
-909.05316 1349.2653 8601.4316 10052924
-850.25751 1336.9552 8522.957 10118717
-806.65613 1348.4908 8596.4951 9921595
-754.32782 1346.0095 8580.6768 9855546
-702.24689 1343.6427 8565.5889 9987645
-640.28754 1320.5339 8418.2725 9922108
-591.36725 1322.6841 8431.9795 9790779
-540.12048 1319.5474 8411.9834 9922109
-493.7825 1328.9847 8472.1455 9724990
-439.36594 1316.3542 8391.6279 9725505
-393.01208 1327.739 8464.2041 9462587
-341.4368 1322.2343 8429.1123 9462331
-287.80338 1305.5072 8322.4785 9659197
-237.48216 1299.9938 8287.3311 9396282
-189.60472 1308.4706 8341.3701 8277805
-136.27452 1272.0271 8109.0469 4527881
-86.776093 1251.1346 7975.8594 2165766
-39.382675 1246.9159 7948.9648 1901312
7.6055937 1228.7344 7833.0591 1441792
53.470562 1216.2455 7753.4443 8675903
99.690567 1219.6433 7775.105 8677178
146.56725 1226.3881 7818.1021 8546360
194.13478 1234.2854 7868.4468 8546882
239.23033 1226.451 7818.5039 5718049
287.49026 1234.7496 7871.4062 5060120
331.2027 1223.9264 7802.4097 5125654
379.67142 1231.1782 7848.6387 5125136
425.79819 1230.0817 7841.6484 6439708
477.59448 1243.968 7930.1729 9463361
532.76074 1263.3582 8053.7827 9660224
580.21082 1262.7664 8050.0103 9725244
629.50269 1265.9688 8070.4248 9856317
682.41644 1275.4884 8131.1123 10052669
719.64148 1256.3629 8009.189 10118460
775.64258 1270.3553 8098.3892 10052668
823.23926 1269.7546 8094.5596 9986874
878.11774 1279.833 8158.8081 9855289
929.77942 1284.4156 8188.0225 9855289
960.20502 1260.663 8036.6011 9789496
1002.5509 1254.0656 7994.5435 9789496
1043.8311 1246.7906 7948.166 9789496
1108.4225 1266.7855 8075.6318 9789495
1150.2611 1260.1982 8033.6382 9855289
1194.395 1256.5491 8010.3755 9855545
1226.9287 1241.4414 7914.0659 9789753
1278.3431 1245.8468 7942.1499 9789496
1327.7178 1248.0221 7956.0176 9789752
1367.9436 1241.7435 7915.9917 9987131
1419.459 1245.7894 7941.7842 10118716
1458.0901 1238.6307 7896.1479 10118972
1523.4614 1253.9264 7993.6558 9987129
1569.3732 1252.7657 7986.2573 9790006
1595.9443 1236.6863 7883.7524 9855030
1649.2142 1241.6216 7915.2144 9723701
1704.0717 1247.446 7952.3452 9986616
1737.876 1237.9603 7891.8735 9986872
1785.6519 1238.6632 7896.355 9855544
1823.4031 1232.554 7857.4092 9987385
1872.424 1234.1771 7867.7563 9987386
1904.6891 1224.9454 7808.9053 10118716
1958.6414 1229.7682 7839.6504 10052923
1995.5089 1223.8893 7802.1729 9855800
2043.1951 1224.7616 7807.7339 9987385
2067.637 1211.9703 7726.1904 10118715
2114.7185 1212.7162 7730.9453 9855286
2158.1392 1211.3757 7722.3999 9855286
2199.2134 1208.8011 7705.9868 9921079
2238.1584 1205.1847 7682.9326 9855287
2265.9031 1195.8016 7623.1172 9921080
2285.6665 1182.6556 7539.312 9658422
2326.6235 1180.7695 7527.2886 9658682
2380.3037 1185.29 7556.106 9593146
2415.3362 1180.5292 7525.7559 9330745
2472.0176 1186.3304 7562.7383 9067826
2521.531 1188.5464 7576.8652 6897683
2455.2808 1137.073 7248.7275 8674607
2446.3254 1113.4476 7098.1182 11042132
2438.4456 1091.1019 6955.6665 11897442
2466.707 1085.4021 6919.3306 11567193
2403.2678 1040.198 6631.1592 8217663
2389.6763 1017.6768 6487.5884 7035448
2324.4124 974.21149 6210.5015 4667675
2355.0806 971.68176 6194.375 5259557
2365.3591 960.94611 6125.936 7693897
2459.4863 984.08429 6273.4399 7957325
2448.5552 965.12378 6152.5684 8548175
2521.4285 979.26733 6242.7319 9269840
2698.2859 1032.803 6584.0166 8739125
2883.7783 1088.0708 6936.3433 9725501
2984.0334 1110.0765 7076.6279 11040841
3026.9011 1110.4199 7078.8169 10119481
3058.3357 1106.6169 7054.5728 11172428
3153.6062 1125.7031 7176.2456 12026967
3114.4175 1096.9238 6992.7808 12092244
3185.6428 1107.2786 7058.791 10973764
3192.3801 1095.2402 6982.0479 10513468
3221.7786 1091.1851 6956.1968 12356161
3138.7412 1049.6326 6691.3032 13013579
3335.7634 1101.6038 7022.6143 11631679
3424.0569 1116.83 7119.6802 8802336
3437.1091 1107.4427 7059.8374 9263153
3399.6035 1082.1873 6898.8359 9328951
3282.2402 1032.4131 6581.5308 8408617
3298.2444 1025.2653 6535.9644 2359552
3423.4973 1051.8496 6705.4365 7488291
3526.7769 1071.15 6828.4751 11041107
3649.5649 1095.8705 6986.0659 12488040
3694.8142 1097.0148 6993.3604 13145972
3682.7305 1081.2999 6893.1802 11829855
3695.5264 1073.1548 6841.2549 9131829
3747.5664 1076.4589 6862.3188 4396037
3717.7874 1056.4424 6734.7153 6106130
3705.9968 1041.9084 6642.063 3410432
3749.4524 1043.0486 6649.3311 3476992
