# .PCD v0.7 - Point Cloud Data file format
VERSION 0.7
FIELDS x y z rgb
SIZE 4 4 4 4
TYPE F F F U
COUNT 1 1 1 1
WIDTH 1306
HEIGHT 1
VIEWPOINT 0 0 0 1 0 0 0
POINTS 1306
DATA ascii
1432.2382 1035.9484 3396.5493 8803882
1458.7719 1040.5188 3411.5347 8606503
1475.9399 1038.3755 3404.5073 9001520
1479.9246 1027.1399 3367.6694 8475434
1504.8789 1030.5637 3378.8948 8475435
1528.1953 1032.7905 3386.196 8343849
1519.166 1013.3831 3322.5649 8541486
1543.8097 1016.6469 3333.2659 8147242
1576.2677 1024.9092 3360.3555 8409905
1567.6324 1006.5792 3300.2571 7291938
1601.7637 1015.8231 3330.5649 4332041
1627.4271 1019.5371 3342.7422 4660745
1642.5265 1016.6234 3333.189 2492417
1667.7959 1019.9987 3344.2556 2689792
1643.4088 993.28217 3256.6604 8936486
1682.208 1004.9326 3294.8584 9264939
1720.3651 1015.9365 3330.9368 9067050
1732.3999 1011.4394 3316.1924 9132590
1742.67 1006.0248 3298.4395 8934700
1789.769 1021.7551 3350.0144 8211234
1795.6809 1013.8853 3324.2117 8474406
1810.3253 1011.0632 3314.959 8606506
1833.3165 1012.9134 3321.0251 8606505
1846.8999 1009.5817 3310.1013 8672299
1862.4408 1007.3787 3302.8784 8803629
1885.715 1009.361 3309.3779 8540457
1901.3387 1007.2496 3302.4553 8803372
1918.8151 1006.1525 3298.8584 8474663
1935.6726 1004.7565 3294.2812 8474663
1952.9309 1003.5944 3290.4707 8540456
1995.2633 1015.213 3328.5647 8211492
2006.6591 1011.0175 3314.8088 8211750
2029.7184 1012.7227 3320.3999 7816992
2051.647 1013.8366 3324.0518 8409130
2065.5571 1011.0044 3314.7661 8607022
2073.5723 1005.3674 3296.2842 8409899
2111.8169 1014.3557 3325.7539 8277543
2127.2109 1012.3035 3319.0254 8409387
2166.3455 1021.4832 3349.1226 8014628
2168.7632 1013.3403 3322.4248 7882785
2185.1023 1011.7902 3317.3425 7751200
2203.0688 1011.0147 3314.7998 7751199
2234.5017 1016.3781 3332.3848 7948580
2247.3748 1013.2793 3322.2249 8145958
2262.7085 1011.3343 3315.8477 8540714
2278.5029 1009.627 3310.2498 8869680
2297.25 1009.2458 3309.0002 8803888
2324.2983 1012.4872 3319.6279 8409130
2344.0525 1012.5236 3319.7471 8738094
2359.7781 1010.8335 3314.2058 8145958
2388.6504 1014.7565 3327.0679 8606509
2405.8591 1013.7009 3323.6069 8409129
2425.553 1013.7009 3323.6069 8343850
2439.6433 1011.378 3315.991 8145445
2449.0754 1007.1765 3302.2156 8211237
2459.614 1003.493 3290.1387 7224342
2422.457 980.56128 3214.9526 8540203
2474.8862 993.96704 3258.906 8606509
2488.0457 991.51587 3250.8694 8343336
2526.4678 999.09253 3275.7107 8277800
2543.8979 998.31555 3273.1633 8212010
2571.8264 1001.6392 3284.0605 8343853
2586.0356 999.60968 3277.4065 8475438
2600.5647 997.7334 3271.2544 8146474
2589.3145 986.06726 3233.0051 8146217
2617.8633 989.6178 3244.646 8080681
2631.9983 987.70721 3238.3821 8212269
2694.9905 1004.0264 3291.8875 7751718
2719.4915 1005.874 3297.9451 7883304
2723.8542 1000.2998 3279.6689 8146989
2726.0881 994.02826 3259.1067 7949610
2753.7781 997.06189 3269.0527 8212782
2756.4036 991.04126 3249.3132 8015403
2778.3975 992.01984 3252.5215 8146988
2780.0208 985.76166 3232.0029 8146732
2798.2334 985.43115 3230.9194 8146989
2797.6824 978.5423 3208.333 8212781
2825.052 981.44629 3217.8542 7818023
2813.1414 970.75653 3182.8059 8015402
2876.9248 986.15558 3233.2947 7883817
2886.6042 982.92786 3222.7117 7752230
2897.8755 980.28094 3214.0334 7883816
2932.9795 985.67804 3231.729 8080939
2943.7959 982.89581 3222.6067 7686438
2950.6484 978.83441 3209.2908 7489059
2961.3484 976.09332 3200.3037 7291680
2959.7241 969.35071 3178.1965 7357216
2943.8193 958.04578 3141.1313 8344368
2980.2258 963.80035 3159.9988 8146989
2990.8013 961.18152 3151.4124 7751974
3056.4897 976.19739 3200.6448 7554595
0 0 0 0
0 0 0 0
0 0 0 0
0 0 0 0
0 0 0 0
0 0 0 0
-3103.1943 1072.4388 3449.1814 1280
-3082.7563 1072.4388 3449.1814 1280
0 0 0 0
0 0 0 0
0 0 0 0
0 0 0 0
0 0 0 0
-2922.0002 1058.6249 3404.7524 1280
-2892.0718 1055.0664 3393.3081 1280
-2885.6025 1060.0764 3409.4209 1280
-2860.0002 1058.0786 3402.9956 1280
-2845.9316 1060.3497 3410.3 1536
-2822.3074 1059.0674 3406.176 1536
-2804.4998 1059.9653 3409.0637 1536
-2750.5229 1047.1067 3367.7078 1536
-2748.7139 1054.0652 3390.0879 1536
-2751.5386 1062.9163 3418.5544 1536
-2727.9565 1061.6219 3414.3918 1536
-2703.8396 1060.0986 3409.4927 1536
-2683.1201 1059.8944 3408.8359 1536
-2662.9189 1059.8934 3408.8328 1536
-2640.6799 1059.0752 3406.2009 1536
-2621.2615 1059.3843 3407.1948 1536
-2604.9805 1060.9758 3412.314 1536
-2588.3679 1062.4563 3417.0754 1536
-2564.4397 1060.9336 3412.1782 1280
-2551.8489 1064.1144 3422.408 1280
-2536.6843 1066.2643 3429.3225 1280
-2527.0352 1070.7859 3443.865 1280
-2505.6501 1070.3678 3442.5203 1280
-2483.8022 1069.7434 3440.5122 1280
-2461.1733 1068.7697 3437.3804 1280
-2441.45 1069.0519 3438.2881 1536
-2418.1511 1067.76 3434.1333 1536
-2395.8196 1066.8768 3431.293 1536
-2378.9507 1068.4323 3436.2954 1536
-2362.8855 1070.3784 3442.5544 1536
-2344.5789 1071.3342 3445.6287 1536
-2328.7388 1073.4438 3452.4138 1024
-2312.5525 1075.4299 3458.8013 1280
-2288.9561 1073.9747 3454.1208 1280
-2273.3933 1076.2964 3461.5881 768
-2267.1453 1083.1107 3483.5042 768
-2265.4915 1092.265 3512.9463 512
-2256.6309 1098.0825 3531.6562 512
-2285.9272 1122.7498 3610.9915 1053191
-2274.9458 1127.9135 3627.5989 592130
-2259.1433 1130.7628 3636.7629 854272
-2244.8066 1134.4077 3648.4858 985089
-2244.1636 1145.1108 3682.9089 1181698
-2218.4739 1143.1182 3676.5005 1116161
-2197.2151 1143.392 3677.3809 1378819
-2182.2944 1147.0024 3688.9927 1379074
-2172.6355 1153.4794 3709.8242 1444867
-2137.0962 1146.2081 3686.4382 1181696
-2115.3562 1146.2644 3686.6191 1378818
-2086.2241 1142.2743 3673.7861 1444097
-2063.0491 1141.4961 3671.2834 1509890
-2043.876 1142.9392 3675.9248 1378304
-2017.2137 1140.1805 3667.052 1378305
-1985.2581 1134.3369 3648.2581 1509633
-1970.2805 1138.1726 3660.5945 1444097
-1938.6505 1132.3669 3641.9221 1246720
-1908.2393 1127.1505 3625.145 1312256
-1895.5071 1132.3766 3641.9534 1312512
-1872.9589 1131.7917 3640.072 1443584
-1852.9633 1132.7534 3643.165 1443584
-1824.0564 1128.226 3628.604 1443584
-1801.4899 1127.559 3626.459 1640706
-1784.0328 1130.1127 3634.6721 1575170
-1759.2119 1128.007 3627.8994 1509377
-1745.0552 1132.7716 3643.2236 1443585
-1721.2601 1131.3207 3638.5571 1312000
-1698.443 1130.4839 3635.866 1509377
-1671.8857 1127.1041 3624.9961 1509377
-1650.8416 1127.4015 3625.9524 1443585
-1625.5326 1124.7557 3617.4431 1443585
-1601.9601 1123.257 3612.6223 1575170
-1573.0321 1117.9114 3595.4302 1574914
-1550.9703 1117.3656 3593.675 1443328
-1529.1555 1116.9852 3592.4514 1509376
-1510.8809 1119.2164 3599.6274 1443584
-1485.3699 1116.0743 3589.522 1180416
-1463.2324 1115.4127 3587.3938 1048832
-1435.4225 1110.3436 3571.0906 917504
-1414.5497 1110.5691 3571.8159 720896
-1393.5208 1110.6771 3572.1633 917504
-1365.809 1105.38 3555.1265 1245952
-1341.0427 1102.3379 3545.3428 1442816
-1318.0217 1100.6565 3539.9351 1311488
-1293.1888 1097.3833 3529.4075 1443072
-1269.6136 1095.0872 3522.0229 1377280
-1255.4266 1100.9473 3540.8704 1640448
-1225.0975 1092.6101 3514.0564 1771778
-1210.1261 1097.9186 3531.1292 1705985
-1187.5791 1096.4194 3526.3076 1837828
-1167.3746 1097.0682 3528.3943 1771778
-1142.9545 1093.7067 3517.5828 1772035
-1119.7241 1091.3798 3510.0989 1837571
-1095.6038 1088.0809 3499.4895 1772035
-1072.7952 1085.9828 3492.7412 1772035
-1052.2181 1086.1055 3493.1357 1837828
-1030.5822 1085.118 3489.9602 1772035
-1007.765 1082.8212 3482.5728 1640449
-991.93518 1088.0928 3499.5276 1640449
-972.38098 1089.417 3503.7864 1574400
-947.995 1085.2675 3490.4407 1640449
-923.2442 1080.5059 3475.1265 1443072
-901.90082 1079.606 3472.2322 1574913
-882.22278 1080.7039 3475.7632 1509120
-862.20056 1081.4227 3478.0752 1640449
-841.67517 1081.53 3478.4204 1706241
-819.53174 1079.5115 3471.9285 1311488
-797.82745 1077.9824 3467.0107 1574656
-775.85553 1076.0015 3460.6392 1706242
-754.90149 1075.3627 3458.5847 1837571
-733.53253 1074.0808 3454.4619 1771522
-713.63232 1074.9376 3457.2178 1705729
-693.32727 1075.2174 3458.1174 1705985
-669.91241 1070.5444 3443.0884 1640193
-649.70892 1070.8711 3444.1389 1706242
-629.10797 1070.5427 3443.0828 1508864
-608.24353 1069.7286 3440.4648 1508864
-586.92426 1068.0306 3435.0037 1574400
-567.64832 1070.0624 3441.5381 1705473
-547.3692 1070.2842 3442.2515 1705729
-528.3443 1073.0704 3451.2124 1705730
-508.59943 1074.5598 3456.0027 1705729
-485.28204 1068.3096 3435.9006 1639936
-467.44128 1074.0962 3454.5117 1771521
-445.5795 1070.7502 3443.7502 1771521
-426.99814 1075.3442 3458.5256 1639936
-404.28308 1069.4666 3439.6218 1903107
-384.84961 1072.1066 3448.1125 1968900
-365.27927 1074.64 3456.2605 1903107
-344.49142 1073.6796 3453.1719 1968642
-323.85266 1073.092 3451.2822 1968641
-303.69577 1074.1296 3454.6189 2034434
-282.21756 1070.306 3442.3215 1902851
-261.20245 1067.7798 3434.1968 1902850
-240.80061 1067.5454 3433.4431 2034436
-219.67419 1063.7592 3421.2659 1968643
-200.54059 1069.8342 3440.8042 1903106
-180.58284 1072.3901 3449.0247 2034436
-159.73112 1069.6121 3440.0898 1902850
-139.5892 1071.4696 3446.064 1968129
-118.73518 1067.5613 3433.4939 2296836
-98.699265 1070.913 3444.2734 2493958
-78.142593 1068.8889 3437.7639 2231043
-58.097839 1074.9089 3457.1255 1968128
-37.567646 1073.6133 3452.9585 2033665
-17.119333 1074.3573 3455.3513 2559749
3.3652306 1077.63 3465.877 2493956
23.869219 1076.1545 3461.1318 2493956
44.343391 1075.3198 3458.447 2362370
64.892494 1076.2555 3461.4563 2361344
85.431465 1076.6141 3462.6096 2558977
106.06998 1077.8452 3466.5693 2624513
126.87328 1080.0798 3473.7561 2821892
147.50301 1080.4191 3474.8474 3149829
168.36356 1082.1589 3480.4431 3477764
189.90413 1087.413 3497.3411 4463624
212.25034 1095.7924 3524.291 6567964
228.35838 1073.3495 3452.1099 8278060
251.15062 1083.4314 3484.5356 8146726
270.20282 1077.0732 3464.0862 8540714
290.92883 1077.8138 3466.4683 8672299
312.93329 1082.8807 3482.7644 8738091
331.60422 1076.4989 3462.2393 8803884
353.13812 1079.6134 3472.2561 9330484
378.05093 1092.1462 3512.5642 9067056
397.84827 1089.3643 3503.6167 8804141
411.59509 1071.1127 3444.9163 9396277
433.31146 1074.3455 3455.3135 9133106
453.50076 1073.6711 3453.1445 9001519
472.55981 1070.4948 3442.9285 9001520
492.56128 1069.6277 3440.1399 9067312
514.96387 1073.8365 3453.6765 9264435
537.05127 1077.0914 3464.145 9396277
556.78265 1075.5555 3459.2053 8672298
580.21252 1081.0197 3476.7791 8474919
604.19397 1087.1014 3496.3389 9067057
622.06952 1082.1581 3480.4402 9132850
642.09607 1081.1538 3477.2102 9067057
664.36572 1083.8715 3485.9507 8540456
677.36603 1071.7587 3446.9937 8343333
699.87689 1074.9628 3457.2986 8672298
723.901 1080.2427 3474.2798 9001263
743.86322 1079.3368 3471.3665 9001263
762.78888 1077.0162 3463.9028 8606506
782.80658 1076.3186 3461.6594 8540714
804.25311 1077.5712 3465.6877 8474921
824.85931 1077.6633 3465.9844 8474920
838.10803 1068.3723 3436.1023 8474663
853.42078 1062.0906 3415.8989 8211491
859.9986 1045.4811 3362.4795 8540456
889.78265 1057.1962 3400.1577 8540199
913.17273 1060.9637 3412.2751 8869420
929.5412 1056.5869 3398.198 8803627
957.64917 1065.4567 3426.7251 9395764
979.09259 1066.6973 3430.7151 8737578
995.67529 1062.6995 3417.8574 8737834
1022.2593 1069.3226 3439.1592 9001007
1032.1765 1058.5939 3404.6531 8869165
1056.5629 1062.8313 3418.2815 8935214
1079.356 1065.3368 3426.3394 8803372
1087.3656 1053.4276 3388.0371 8606250
1105.9835 1052.041 3383.5779 8737579
1118.105 1044.6344 3359.7566 8474407
1135.6942 1042.506 3352.9111 8079649
1159.3943 1045.9637 3364.032 9395509
1178.6434 1045.3572 3362.0808 8605993
1203.3835 1049.5596 3375.5969 8343078
1221.3835 1047.8422 3370.0735 8869165
1235.6376 1043.0181 3354.5581 8737835
1245.5531 1034.7426 3327.9421 8474407
1270.066 1038.6627 3340.5503 8540457
1284.3024 1034.1873 3326.1565 8671786
1303.5464 1033.8187 3324.9709 8343078
1328.0709 1037.5865 3337.0891 8540457
1346.2662 1036.3716 3333.1814 8409126
1367.4709 1037.4749 3336.73 8211490
1388.637 1038.5178 3340.0842 8935468
1407.3977 1037.7579 3337.6401 8672039
1413.7501 1027.9966 3306.2456 8935211
1436.9336 1030.5731 3314.5325 8869418
1455.4595 1029.7849 3311.9973 8606247
1473.0546 1028.3678 3307.4397 8606246
1490.479 1026.8704 3302.6238 8540969
1500.4442 1020.3394 3281.6187 8738348
1520.2552 1020.5851 3282.4089 8606505
1526.5011 1011.8331 3254.2607 8344104
1541.7214 1009.1738 3245.7083 8935984
1571.2449 1015.8273 3267.1072 8607019
1590.3622 1015.673 3266.6108 8212517
1610.3988 1016.1025 3267.9919 8409639
1640.4891 1022.7899 3289.5 8146468
1628.6641 1003.4943 3227.4414 8738348
1660.1709 1011.0353 3251.6951 8869419
1673.8273 1007.6573 3240.8308 8540456
1711.7496 1018.7986 3276.6636 9001263
1718.1833 1011.1588 3252.092 8935213
1718.6488 1000.215 3216.8948 8474919
1750.9294 1007.824 3241.3667 8869933
1773.4392 1009.7047 3247.4153 8475176
1777.928 1001.395 3220.6897 8343588
1797.8927 1001.8859 3222.2686 8540713
1835.1361 1011.8939 3254.4563 8803629
1832.0693 999.69775 3215.2312 8935215
1853.0371 1000.7327 3218.5596 8803628
1891.3091 1010.9964 3251.5698 8803628
1879.33 994.46228 3198.3928 7948577
1910.9305 1001.0887 3219.7048 9066803
1937.72 1005.0886 3232.5691 8474922
1961.23 1007.3257 3239.7644 7948578
1980.7942 1007.5126 3240.3652 7948578
1996.8163 1005.9114 3235.2156 8343850
2010.4257 1003.1369 3226.292 8015142
2030.6652 1003.6917 3228.0764 7949349
2044.3427 1001.023 3219.4934 8344107
2059.2124 998.98206 3212.9292 8475436
2071.7615 995.86298 3202.8977 8212521
2135.9385 1017.3919 3272.1392 9002037
2109.9934 995.99286 3203.3154 8475436
2129.2131 996.10443 3203.6743 8607021
2179.126 1010.4465 3249.8013 8869683
2211.7329 1016.5828 3269.5369 8211496
2212.6855 1008.1896 3242.5425 8540461
2220.7932 1003.1728 3226.4077 8672304
2247.9277 1006.7634 3237.9556 7488029
2263.0776 1004.9709 3232.1907 8672302
2290.4436 1008.588 3243.8237 8672302
2330.459 1017.6685 3273.0286 8080165
2323.144 1006.1014 3235.8267 8540459
2376.0254 1020.58 3282.3926 8738094
2362.6121 1006.5789 3237.3623 8343079
2387.8831 1009.1519 3245.6377 8540459
2410.7773 1010.6873 3250.5759 8474922
2429.0559 1010.2789 3249.262 8145958
2411.1543 994.94714 3199.9521 8343080
2418.4189 990.15839 3184.5505 8408873
2446.4526 993.88129 3196.5242 8672301
2449.783 987.58826 3176.2844 8277544
2487.4441 995.12555 3200.5259 8409646
2492.8828 989.75537 3183.2544 8541232
2503.7388 986.60059 3173.1079 8343853
2518.7615 985.12238 3168.3538 8146474
2538.2485 985.39935 3169.2446 8343596
2572.585 991.39465 3188.5269 8343853
2584.0718 988.56134 3179.4141 8475438
2606.3782 989.87805 3183.6489 8146217
2640.0813 995.47321 3201.644 8804149
2654.541 993.7843 3196.2122 8541490
2667.302 991.48779 3188.8264 8146732
2698.2393 995.93268 3203.1218 8081196
2733.2446 1001.8065 3222.0132 7751974
2730.051 993.69495 3195.9248 8212782
2743.6519 991.76605 3189.7209 8146988
2742.6404 984.61749 3166.73 8146732
2742.1987 977.76947 3144.7053 7818024
2787.6785 987.27728 3175.2842 7949353
2779.001 977.6059 3144.1792 8212782
2800.7842 978.70758 3147.7224 7949609
2837.7639 985.06976 3168.1846 7949610
2838.4741 978.841 3148.1514 7423266
2839.2927 972.73065 3128.4995 7291423
2878.3936 979.7298 3151.01 7686181
2879.1135 973.65912 3131.4856 7620132
2890.481 971.2439 3123.7178 7686438
2884.5688 963.09015 3097.4937 7028507
2889.6279 958.67944 3083.3079 7423010
2914.3005 960.79028 3090.0967 9265469
2940.8252 963.48157 3098.7524 7620134
2983.5129 971.40198 3124.2263 7686182
0 0 0 0
0 0 0 0
0 0 0 0
0 0 0 0
0 0 0 0
0 0 0 0
0 0 0 0
-3012.6379 1068.0188 3370.7285 1280
0 0 0 0
0 0 0 0
0 0 0 0
0 0 0 0
0 0 0 0
-2885.1477 1065.1934 3361.8113 1280
-2859.053 1062.8978 3354.5664 1280
-2840.8711 1063.5325 3356.5693 1280
-2817.9268 1062.3806 3352.9341 1280
-2792.9617 1060.4451 3346.8254 1536
-2777.1958 1061.9999 3351.7322 1536
-2754.1138 1060.7589 3347.8159 1536
-2728.4722 1058.5072 3340.7092 1536
-2716.4368 1061.5394 3350.2793 1536
-2717.6902 1069.8477 3376.5005 1536
-2687.2451 1065.7083 3363.4363 1536
-2667.2097 1065.666 3363.303 1536
-2647.6384 1065.8099 3363.7573 1536
-2628.019 1065.9366 3364.157 1536
-2608.5354 1066.1206 3364.7378 1536
-2586.0227 1065.0601 3361.3906 1536
-2571.011 1067.0962 3367.8169 1536
-2556.5293 1069.386 3375.0435 1280
-2534.4021 1068.4884 3372.2107 1536
-2513.8921 1068.264 3371.5024 1280
-2494.7676 1068.6294 3372.6555 1280
-2483.8662 1072.5514 3385.0337 1280
-2467.6267 1074.2136 3390.2798 1280
-2448.6628 1074.7072 3391.8376 1280
-2433.1824 1076.7507 3398.2871 1280
-2413.2908 1076.8599 3398.6316 1536
-2397.54 1078.8341 3404.8623 1536
-2370.8831 1075.8927 3395.5789 1536
-2350.603 1075.8196 3395.3479 1536
-2332.5496 1076.7729 3398.3572 1536
-2311.5681 1076.3795 3397.1155 1280
-2295.6064 1078.3374 3403.2944 1280
-2277.5024 1079.3145 3406.3784 1280
-2269.2859 1085.0366 3424.4377 1280
-2259.7598 1090.2302 3440.8291 768
-2240.7065 1090.8802 3442.8804 512
-2225.2292 1093.2991 3450.5144 256
-2232.3762 1106.9816 3493.6973 591616
-2257.7214 1130.0289 3566.4358 722432
-2278.2124 1151.059 3632.8081 984576
-2221.5444 1133.1343 3576.2366 1116161
-2206.803 1136.4553 3586.7183 1181441
-2204.2634 1146.186 3617.4285 1444357
-2178.6575 1143.9956 3610.5156 1181442
-2163.5503 1147.3295 3621.0376 1312513
-2153.7385 1153.5663 3640.7212 1378304
-2129.4863 1152.1166 3636.146 1312512
-2107.5117 1151.8822 3635.406 1312512
-2075.5637 1146.1355 3617.2693 1509890
-2063.3608 1151.286 3633.5244 1312512
-2032.5018 1146.0259 3616.9233 1444097
-2015.4962 1148.5482 3624.8838 1378048
-1986.1244 1144.0018 3610.5354 1312512
-1963.2787 1143.1565 3607.8672 1312512
-1938.2941 1141.0333 3601.1665 1312512
-1915.439 1140.1306 3598.3174 1509890
-1875.7583 1129.0796 3563.4397 1444097
-1866.947 1136.5698 3587.0793 1444097
-1846.7402 1137.2153 3589.1165 1509377
-1817.6223 1132.3243 3573.6804 1443328
-1800.5762 1134.9271 3581.8948 1377792
-1761.4723 1123.5228 3545.9023 1114624
-1748.656 1128.8127 3562.5974 1509377
-1729.4994 1130.089 3566.6255 1509377
-1717.2229 1135.948 3585.1169 1312000
-1692.6437 1133.7136 3578.0652 1377792
-1669.3864 1132.3192 3573.6643 1509377
-1645.1255 1130.1996 3566.9744 1509377
-1623.572 1129.9088 3566.0569 1377792
-1601.3604 1129.1462 3563.6504 1443584
-1579.8593 1128.8711 3562.782 1509377
-1557.6312 1128.062 3560.2285 1509377
-1533.187 1125.6038 3552.4702 1575170
-1509.7169 1123.8024 3546.7844 1443584
-1484.0111 1120.262 3535.6111 1377792
-1461.6235 1119.1613 3532.137 1311744
-1435.4836 1115.1135 3519.3623 851968
-1411.9269 1112.9828 3512.6375 786432
-1388.5138 1110.9032 3506.074 720896
-1361.0459 1105.4669 3488.917 655360
-1337.6654 1103.2343 3481.8704 1312000
-1313.1442 1099.976 3471.5869 1246464
-1291.0137 1098.6483 3467.397 1246208
-1269.6954 1097.9802 3465.2886 1377792
-1250.0494 1098.7601 3467.75 1508864
-1227.7981 1097.2378 3462.9453 1574656
-1201.6268 1092.1011 3446.7334 1640449
-1185.5981 1096.1641 3459.5566 1508864
-1163.483 1094.6439 3454.7588 1574656
-1142.0227 1093.6963 3451.7681 1772035
-1122.4174 1094.5228 3454.377 1837828
-1102.6665 1095.2357 3456.627 1837828
-1077.25 1090.2418 3440.8655 1640450
-1064.5009 1098.1223 3465.7371 1640449
-1038.6368 1092.5178 3448.0491 1706242
-1015.8854 1090.0281 3440.1909 1837828
-991.11786 1085.2289 3425.0444 1574657
-974.35699 1089.1793 3437.5122 1706499
-951.16052 1085.9508 3427.3228 1378048
-931.50305 1086.71 3429.7188 1509377
-910.83984 1086.3036 3428.4363 1509377
-887.51593 1082.6329 3416.8516 1443072
-866.20612 1081.3053 3412.6614 1508864
-844.92303 1079.9482 3408.3784 1443072
-828.24255 1084.5518 3422.9072 1443072
-805.84357 1081.7101 3413.9392 1245952
-784.38422 1080.016 3408.5923 983040
-758.31885 1071.7227 3382.4182 1245696
-741.8783 1076.951 3398.9189 1377280
-717.68115 1070.897 3379.8123 1706242
-698.71625 1072.527 3384.9565 1640449
-676.82251 1069.6246 3375.7964 1574656
-655.04321 1066.7317 3366.6665 1772035
-637.81323 1071.2986 3381.0796 1508864
-619.93103 1075.0304 3392.8577 1508608
-599.76654 1074.9222 3392.5159 1443072
-581.27942 1077.9166 3401.9668 1443072
-562.47528 1080.5176 3410.1753 1771522
-539.74286 1075.4846 3394.2913 1639936
-519.35889 1074.923 3392.5186 1705729
-500.17477 1076.8993 3398.7559 1705729
-477.88016 1072.0635 3383.4937 1771264
-457.21918 1070.6293 3378.9675 1705728
-437.32477 1070.9412 3379.9517 1705729
-416.23294 1068.21 3371.3315 1705472
-397.37369 1071.2218 3380.8372 1903107
-376.92834 1070.0505 3377.1409 2034436
-356.59723 1069.0907 3374.1113 1903107
-336.82199 1069.7821 3376.2937 1968643
-317.25259 1071.2561 3380.9456 2034436
-296.83575 1069.8743 3376.5845 1968643
-276.25391 1067.6549 3369.5803 1837057
-257.66855 1073.4071 3387.7341 1771264
-236.21451 1067.1709 3368.0525 1902593
-216.99323 1070.8018 3379.5117 2166022
-196.57872 1068.684 3372.8279 2099972
-176.81668 1070.0355 3377.0933 1902850
-157.17972 1072.5854 3385.1411 1837057
-137.13304 1072.6765 3385.4285 2034436
-116.93839 1071.443 3381.5354 1836800
-96.927711 1071.7335 3382.4524 1836288
-76.666985 1068.6899 3372.8467 2231043
-57.052166 1075.6785 3394.9026 2164994
-36.862034 1073.524 3388.1035 2296067
-16.816727 1075.479 3394.2734 2362370
3.3055575 1078.6936 3404.4189 2428163
23.436497 1076.7819 3398.3853 2428163
43.766869 1081.5656 3413.4827 2428163
63.905804 1080.0896 3408.8247 2690565
84.391197 1083.772 3420.4465 2427393
104.46829 1081.8 3414.2229 2558980
124.93413 1083.8405 3420.6626 2624513
145.44769 1085.6675 3426.4287 2690307
166.71036 1091.9536 3446.2678 2887172
186.37543 1087.5453 3432.3552 3017730
208.74167 1098.2157 3466.0315 3674370
228.7449 1095.656 3457.9531 5251594
248.51662 1092.4994 3447.9907 7291167
265.51538 1078.5583 3403.9919 8409386
289.42477 1092.6757 3448.5471 8737836
307.96878 1086.0107 3427.5122 9132849
328.35706 1086.2717 3428.3359 8277540
349.50351 1088.8645 3436.5186 7882782
370.11539 1089.5979 3438.8333 8672298
387.67374 1081.7345 3414.0159 8935726
407.56552 1080.839 3411.1897 9198898
427.67099 1080.5682 3410.3352 9001520
444.1225 1071.506 3381.7344 8869420
466.56509 1077.0568 3399.2527 8540456
486.36368 1076.2969 3396.8547 8475176
509.46631 1082.6185 3416.8062 9132849
532.53656 1088.3909 3435.0237 8935727
546.62915 1076.0652 3396.1235 8804140
571.12781 1084.3722 3422.3408 8540712
588.98932 1079.9402 3408.353 8935727
613.81293 1088.144 3434.2449 9132593
631.59796 1083.7441 3420.3584 8803885
652.2005 1084.3019 3422.1189 8935214
670.97882 1081.8848 3414.4905 9198386
697.05109 1091.0256 3443.3394 8869421
710.46082 1080.3909 3409.7754 8606505
731.10846 1081.0464 3411.8442 8738091
753.76355 1084.5551 3422.9177 8211748
769.51648 1078.209 3402.8892 8540457
790.97205 1079.9731 3408.457 8672555
803.78687 1070.1453 3377.4397 9067312
820.38617 1065.7112 3363.4456 9330228
833.82843 1057.4835 3337.4788 9001263
855.40387 1059.7128 3344.5144 9001007
868.20038 1051.2119 3317.6848 8803371
890.35498 1054.1671 3327.0117 7882526
914.99939 1059.8783 3345.0364 8869420
937.02661 1062.38 3352.9321 8672041
968.19513 1074.9269 3392.5308 8935214
986.4718 1072.9414 3386.2644 8869420
1014.8538 1081.807 3414.2451 8540456
1021.4346 1067.5411 3369.2207 8343078
1033.6138 1059.5608 3344.0344 8672043
1053.5378 1059.6707 3344.3813 9264179
1073.6752 1059.9872 3345.3801 8869421
1085.6183 1052.349 3321.2737 9000751
1103.0015 1050.1624 3314.3726 8540456
1117.8135 1045.647 3300.1218 8342821
1140.052 1048.1145 3307.9094 8408870
1163.0647 1051.1982 3317.6421 8803372
1189.0049 1056.7816 3335.2632 9001007
1194.7601 1044.5354 3296.6133 8606250
1216.2125 1046.1858 3301.8223 8474663
1232.62 1043.5129 3293.3867 8605480
1247.9442 1040.0208 3282.365 7948319
1264.5472 1037.6851 3274.9937 7882526
1283.1776 1037.0585 3273.0159 8408614
1312.0361 1044.5938 3296.7979 8474920
1332.9734 1045.6941 3300.2703 9001263
1355.7993 1048.2227 3308.2505 8869933
1374.0247 1047.1729 3304.9373 9066798
1386.3706 1041.7347 3287.7747 8606246
1401.3425 1038.3933 3277.2288 8606246
1418.8873 1037.0236 3272.9055 8869418
1431.8251 1032.3689 3258.2156 8934958
1446.778 1029.2719 3248.4409 8672042
1473.5526 1034.556 3265.1182 8803884
1489.524 1032.2167 3257.7351 8672554
1506.8531 1030.8661 3253.4724 8474665
1515.7864 1023.8783 3231.4185 8475177
1535.6782 1024.3749 3232.9858 8475691
1557.4095 1026.0712 3238.3394 9199413
1561.2002 1016.05 3206.7119 8409897
1579.6486 1015.6946 3205.5903 8409896
1601.2209 1017.3325 3210.7595 8080675
1637.2881 1028.033 3244.531 8738091
1623.3306 1007.4399 3179.5381 8804140
1658.1982 1017.2725 3210.5703 8672041
1675.2023 1016.0474 3206.7039 8606249
1690.2789 1013.6938 3199.2759 8408871
1702.0262 1009.4181 3185.7812 8737836
1731.2604 1015.4932 3204.9546 8409127
1745.4296 1012.6959 3196.126 8343334
1754.7413 1007.1704 3178.6875 8408872
1786.2823 1014.3858 3201.4597 8408871
1796.1305 1009.2603 3185.283 8869422
1818.2045 1011.0395 3190.8987 9132594
1836.6235 1010.7708 3190.0508 8869422
1838.7145 1001.613 3161.1482 8408870
1854.9453 1000.2648 3156.8931 8474921
1886.9092 1007.3427 3179.2312 8474920
1910.462 1009.8349 3187.0967 8343334
1943.3351 1017.1563 3210.2036 7619612
1950.7623 1011.1465 3191.2363 7882786
1971.9513 1012.3168 3194.9297 8079908
1976.4016 1004.9536 3171.6909 8014372
2002.2262 1008.495 3182.8679 7619870
2025.4972 1010.6961 3189.8149 8343850
2032.0763 1004.6046 3170.5896 8278059
2034.0627 996.375 3144.6165 8212521
2061.4126 1000.606 3157.9697 8278314
2067.3291 994.45081 3138.5437 7949349
2104.2297 1003.1769 3166.0837 8804658
2123.1379 1003.2468 3166.3042 8211496
2138.0022 1001.4213 3160.543 8474924
2191.8337 1017.7209 3211.9856 8803888
2204.2229 1014.6629 3202.3342 9132597
2263.6748 1033.1365 3260.6377 8737843
2225.9282 1007.3115 3179.1328 8606255
2259.1914 1013.7849 3199.563 8474670
2267.5566 1009.0707 3184.6851 8672304
2295.0168 1012.8615 3196.6489 8606511
2299.23 1006.4147 3176.3025 8343339
2320.9229 1007.6617 3180.2378 8277545
2356.448 1014.8456 3202.9109 8343081
2372.74 1013.6979 3199.2886 8080164
2375.4482 1006.8109 3177.553 7948579
2396.094 1007.5752 3179.9651 8343337
2408.4048 1004.85 3171.364 7554336
2426.0259 1004.3654 3169.8347 8409645
2422.8237 995.3338 3141.3303 8080681
2421.3843 987.15851 3115.5286 8672561
2467.9241 998.51917 3151.3835 8606768
2483.3733 997.22455 3147.2976 8081194
2492.8794 993.58051 3135.7969 8080937
2498.1907 988.33081 3119.2285 9725506
2506.481 984.32819 3106.5959 9133369
2547.4248 993.11371 3134.3237 7554337
2562.0405 991.58252 3129.4912 7948837
2595.55 997.33313 3147.6406 8409391
2622.4028 1000.4621 3157.5159 8080426
2629.9492 996.23352 3144.1699 7949097
2639.3835 992.77454 3133.2534 8738869
2644.1594 987.6239 3116.9976 8475697
2703.7292 1002.8688 3165.1113 7752230
2680.6843 987.47125 3116.5159 8212525
2652.9292 970.56134 3063.1472 7686438
2688.8186 977.0069 3083.4897 8278574
2713.9167 979.47095 3091.2664 8344367
2729.8115 978.60254 3088.5259 8278574
2746.531 978.03955 3086.7488 7752230
2781.5166 983.94543 3105.3882 8015146
2799.9175 983.94543 3105.3882 8409904
2787.8176 973.297 3071.7812 7883816
2822.1069 978.87726 3089.3926 8278575
2834.5857 976.86902 3083.0544 8475697
2841.3113 972.9165 3070.5803 7949353
2854.3757 971.1712 3065.0718 8015147
2875.7117 972.24432 3068.4587 7488804
2913.5767 978.85706 3089.3291 7225632
2927.0654 977.24896 3084.2537 7488804
2951.8127 979.39636 3091.031 7751976
0 0 0 0
0 0 0 0
0 0 0 0
0 0 0 0
0 0 0 0
0 0 0 0
0 0 0 0
0 0 0 0
0 0 0 0
0 0 0 0
0 0 0 0
0 0 0 0
0 0 0 0
-2836.0366 1066.6427 3304.5864 1280
-2815.7104 1066.3605 3303.7122 1280
-2792.8591 1065.1112 3299.842 1280
-2763.7332 1061.4346 3288.4514 1280
-2749.1501 1063.3308 3294.3262 1536
-2705.4004 1053.8922 3265.084 1536
-2688.782 1054.9625 3268.4004 1536
-2670.2249 1055.2826 3269.3916 1536
-2673.8472 1064.4366 3297.752 1536
-2649.522 1062.5178 3291.8074 1536
-2630.1565 1062.5743 3291.9824 1536
-2618.6797 1065.8424 3302.1074 1536
-2604.7161 1068.14 3309.2256 1536
-2587.0774 1068.954 3311.7471 1536
-2571.405 1070.5989 3316.8435 1536
-2548.1736 1069.0979 3312.1931 1536
-2530.3435 1069.8572 3314.5457 1536
-2510.4194 1069.7362 3314.1707 1536
-2489.0989 1069.0133 3311.9314 1536
-2467.1365 1068.0015 3308.7961 1280
-2445.6379 1067.1757 3306.2378 1280
-2432.5032 1070.0155 3315.0361 1280
-2412.7979 1069.9879 3314.9504 1280
-2390.05 1068.5994 3310.6487 1280
-2366.7346 1066.932 3305.4832 1280
-2349.9153 1068.1898 3309.3799 1536
-2334.7468 1070.2256 3315.6868 1536
-2321.7668 1073.3074 3325.2346 1536
-2307.2056 1075.705 3332.6626 1536
-2293.8474 1078.7095 3341.9709 1280
-2286.9736 1084.8423 3360.9712 1280
-2268.2612 1085.4178 3362.7544 1280
-2243.1223 1082.9011 3354.9573 768
-2233.6633 1087.9767 3370.6819 768
-2215.2085 1088.7228 3372.9932 512
-2201.1289 1091.6521 3382.0688 512
-2192.5996 1097.4133 3399.918 328704
-2212.1367 1117.4592 3462.0222 656896
-2214.064 1128.9012 3497.4714 787712
-2183.3904 1123.7804 3481.606 1050369
-2175.1975 1130.2428 3501.6272 1116162
-2159.3948 1132.8374 3509.6658 1313026
-2141.1406 1134.1838 3513.8372 1181184
-2116.96 1132.3866 3508.2693 1313027
-2118.3237 1144.3534 3545.3435 1444097
-2084.3267 1137.266 3523.386 1444353
-2064.0615 1137.6034 3524.4314 1115136
-2042.3896 1137.1647 3523.072 1180672
-2020.4944 1136.5909 3521.2949 1180928
-2011.668 1143.4338 3542.4946 1180928
-1978.9082 1136.6737 3521.5513 1378304
-1959.4608 1137.4977 3524.1038 1444096
-1937.8972 1137.0975 3522.8643 1378305
-1919.0975 1138.3281 3526.6768 1180928
-1894.83 1136.3069 3520.4146 1312512
-1867.5486 1132.4131 3508.3511 1378304
-1840.8153 1128.7677 3497.0574 1180928
-1810.0527 1122.5405 3477.7649 1246720
-1808.9025 1134.7462 3515.5793 1377792
-1777.6832 1128.1536 3495.1548 1509377
-1755.7963 1127.3981 3492.814 1509377
-1724.3418 1120.4078 3471.1577 1443584
-1709.631 1124.2596 3483.0906 1377792
-1685.2318 1121.7565 3475.3357 1443584
-1664.797 1121.8628 3475.665 1443328
-1644.0619 1121.7671 3475.3684 1377536
-1626.0258 1123.5337 3480.8418 1377792
-1606.4353 1124.2581 3483.0859 1443584
-1582.1143 1121.6475 3474.9978 1509121
-1564.5676 1123.8341 3481.7725 1443585
-1538.8798 1120.1531 3470.3682 1574913
-1519.0885 1120.7227 3472.1328 1443585
-1498.5504 1120.7494 3472.2156 1575170
-1473.3383 1117.2323 3461.3196 1640963
-1454.3871 1118.4309 3465.033 1443586
-1435.6367 1119.8203 3469.3374 1312000
-1402.8959 1110.1788 3439.467 917504
-1377.6934 1106.3066 3427.4702 786432
-1354.7278 1104.1415 3420.7625 851968
-1336.2678 1105.6387 3425.4009 1049088
-1317.6086 1107.0145 3429.6633 1377792
-1291.3242 1101.9269 3413.9011 1377792
-1268.4293 1099.6155 3406.7402 1312000
-1246.5005 1098.0804 3401.9844 1443584
-1224.4514 1096.3872 3396.7388 1772035
-1200.194 1092.6271 3385.0891 1443072
-1178.6169 1091.2207 3380.7322 1706242
-1154.153 1087.0465 3367.8 1574656
-1132.6812 1085.5933 3363.2979 1705985
-1116.1901 1088.9473 3373.689 1508864
-1092.8727 1085.6422 3363.4495 1574656
-1068.7792 1081.4293 3350.3972 1772035
-1048.8451 1081.3451 3350.1367 1640449
-1033.2029 1085.7679 3363.8391 1640449
-1011.7304 1084.1173 3358.7251 1772035
-994.84027 1087.4093 3368.9241 1837571
-974.53119 1087.0223 3367.7253 1443072
-955.96539 1088.6045 3372.627 1706242
-933.6709 1085.9175 3364.302 1508864
-916.28485 1088.9464 3373.6863 1574656
-891.97632 1083.7003 3357.4331 1443072
-870.72284 1082.0111 3352.1997 1574656
-853.13312 1084.9021 3361.1565 1574913
-830.13531 1080.8898 3348.7256 1443328
-809.89752 1080.3623 3347.0918 1311744
-787.56293 1076.9414 3336.4932 1508865
-766.37994 1074.9596 3330.3535 1443072
-745.58215 1073.4276 3325.6072 1443328
-723.12561 1069.3595 3313.0034 1311744
-703.5816 1069.4913 3313.4124 1377536
-684.71747 1070.6941 3317.1387 1640449
-662.55334 1066.6553 3304.6257 1706241
-644.28009 1068.8252 3311.3484 1706242
-623.78992 1067.3383 3306.7415 1574656
-601.25848 1062.1486 3290.6633 1574656
-584.69897 1067.5145 3307.2876 1706242
-564.7998 1066.9437 3305.5193 1640449
-543.849 1064.2739 3297.2478 1443072
-526.54504 1068.8079 3311.2944 1837571
-507.11725 1069.2146 3312.5547 1311488
-487.17407 1068.5237 3310.4143 1509121
-467.3624 1068.0754 3309.0256 1837827
-448.59335 1070.0751 3315.2207 1903107
-426.92084 1065.0146 3299.5427 1837314
-408.86234 1068.917 3311.6326 1705729
-389.2175 1068.8562 3311.4446 1639937
-369.47632 1068.5105 3310.3735 1837314
-349.93265 1068.7294 3311.0513 1837314
-328.44656 1062.6893 3292.3386 1639936
-310.22803 1067.1263 3306.0852 1837314
-288.34399 1058.703 3279.9885 1902850
-270.14062 1063.553 3295.0144 1902850
-250.65012 1063.6963 3295.4583 1902851
-231.45706 1065.2328 3300.2185 1771264
-211.30304 1062.2222 3290.8911 1705472
-192.42471 1065.6642 3301.5549 1968643
-172.80962 1065.3433 3300.5608 2034179
-153.38397 1066.2573 3303.3928 2231815
-133.71368 1065.4896 3301.0142 2034180
-114.37253 1067.5306 3307.3376 1837057
-94.930222 1069.2765 3312.7466 2034178
-75.68251 1074.6959 3329.5364 1836800
-55.606602 1068.0298 3308.884 2296836
-36.03928 1069.191 3312.4817 2231043
-16.567022 1079.3235 3343.8733 2165250
3.2523725 1081.1859 3349.6433 2230530
23.112328 1081.7463 3351.3794 2164994
42.736382 1075.8501 3333.1123 2361859
62.371403 1073.8701 3326.9778 2493956
81.852364 1070.8254 3317.5454 2559749
101.62159 1072.0011 3321.1875 2362370
121.58298 1074.4934 3328.9092 2427906
140.69672 1069.8445 3314.5061 2624771
160.44302 1070.5553 3316.7083 2690049
181.26817 1077.5239 3338.2981 2887172
202.42836 1084.917 3361.2029 2886915
224.59293 1095.8865 3395.1873 3016960
245.30008 1098.5255 3403.3635 4003075
263.15619 1088.9658 3373.7461 6172951
279.63858 1075.4727 3331.9429 8343596
300.85886 1080.7792 3348.3831 9001264
320.32306 1079.511 3344.4541 8803885
340.17111 1079.6088 3344.7568 8804140
360.6636 1081.6284 3351.0142 8277797
386.26236 1097.9519 3401.5864 9067312
399.13254 1078.2698 3340.6086 8212004
416.81549 1072.835 3323.771 9067313
436.98743 1074.0079 3327.405 8606762
454.97885 1069.9519 3314.8389 8869421
474.55179 1069.7968 3314.3584 8672299
494.20572 1069.8292 3314.459 8804141
515.19312 1072.6355 3323.1533 9198642
535.86481 1074.6022 3329.2461 9001519
556.37964 1076.1257 3333.9663 9001520
576.63177 1077.0541 3336.8425 8935470
595.05182 1074.6124 3329.2778 8803885
626.75171 1095.54 3394.114 8409126
635.95142 1077.0596 3336.8596 8738091
653.46368 1073.3475 3325.3589 8474919
673.57898 1074.0032 3327.3904 8474662
686.91974 1064.1271 3296.7927 8672555
712.28851 1072.9146 3324.0176 8409383
740.79938 1085.8348 3364.0461 8935470
749.63257 1069.9911 3314.9602 8606506
769.22357 1069.9194 3314.7385 9067056
785.28467 1065.0638 3299.6953 9264435
810.46808 1072.516 3322.783 9264436
820.41211 1059.9263 3283.7786 9132849
833.724 1052.1702 3259.7493 9132593
861.00714 1061.998 3290.197 8869421
856.48779 1033.0328 3200.4592 9066543
893.68774 1054.5513 3267.126 8145697
909.63654 1050.6125 3254.9231 7553561
940.25281 1063.4261 3294.6216 8606249
957.80127 1061.2396 3287.8472 9329972
981.73645 1066.0756 3302.8296 9132592
997.922 1062.4714 3291.6636 8211491
1018.8955 1064.0056 3296.4167 8803628
1035.5402 1061.0465 3287.249 8605993
1051.0229 1057.0282 3274.7998 8737835
1068.3368 1054.9637 3268.4041 8737579
1084.7758 1052.1243 3259.6067 8934958
1099.4152 1047.6692 3245.8047 8869421
1122.3926 1051.1763 3256.6697 8737836
1140.8741 1050.4254 3254.3438 8737836
1168.0272 1057.5509 3276.4192 9066544
1186.6453 1056.8419 3274.2227 9066544
1196.0465 1048.0793 3247.075 8737836
1212.0818 1045.3152 3238.5115 8736552
1208.9602 1026.3737 3179.8286 7684891
1231.7463 1029.671 3190.0439 8540200
1257.0107 1034.9091 3206.272 8211492
1273.2772 1032.6932 3199.4072 8606507
1305.3007 1043.1348 3231.7561 8738347
1324.0265 1042.8009 3230.7222 8540456
1330.2831 1032.7961 3199.7261 8671785
1359.1455 1040.3762 3223.2102 8737834
1368.8033 1033.2498 3201.1313 8408870
1392.8513 1037.032 3212.8494 8737577
1408.5217 1034.559 3205.1873 8737832
1430.9744 1037.0669 3212.9575 8671784
1443.5131 1032.4185 3198.5559 8803627
1464.0775 1033.5563 3202.0811 8606249
1484.1803 1034.3431 3204.5188 8408614
1503.2504 1034.3997 3204.6938 7685405
1511.0879 1026.8219 3181.217 7158806
1533.1661 1028.9885 3187.9297 6961425
1544.17 1023.7603 3171.7319 8211492
1555.7018 1019.0035 3156.9949 8409127
1577.3251 1020.8914 3162.8438 8606506
1588.0045 1015.7349 3146.8684 8277541
1605.3324 1014.9014 3144.2859 8738092
1633.5906 1020.9178 3162.9255 8804141
1643.9708 1015.7516 3146.9199 8212004
1654.7385 1010.9379 3132.0068 8211235
1680.9275 1015.5481 3146.2896 7882783
1699.5004 1015.5062 3146.1594 8672043
1717.5272 1015.1425 3145.033 8145699
1732.5096 1013.0063 3138.415 8343078
1750.8158 1012.8385 3137.8948 8343334
1776.851 1017.0983 3151.0923 8672299
1788.3644 1013.0435 3138.53 8606508
1801.2073 1009.8177 3128.5359 8606508
1805.8821 1002.1246 3104.7021 7948323
1840.7671 1011.1822 3132.7634 8672558
1861.7609 1012.5042 3136.8591 8211751
1893.4219 1019.5441 3158.6697 8277543
1904.5337 1015.4893 3146.1074 8803631
1925.8895 1016.9223 3150.5471 8474668
1958.0533 1023.98 3172.4126 8146729
1951.8519 1011.0307 3132.2942 8607023
1965.3778 1008.4477 3124.2915 8607022
1988.2916 1010.6849 3131.2227 8606251
1988.8658 1001.6301 3103.1697 8408873
2004.4749 1000.2435 3098.874 8738096
2010.9634 994.37231 3080.6843 8212009
2031.4039 995.4436 3084.0034 7291165
2045.252 993.29425 3077.3442 8673074
2078.6685 1000.6023 3099.9856 8540718
2113.6914 1008.5488 3124.605 8474668
2141.8174 1013.0953 3138.6902 8014374
2163.333 1014.4633 3142.9287 8672304
2182.3535 1014.6481 3143.5012 9001269
2187.2959 1008.3397 3123.957 8474924
2201.4497 1006.3481 3117.7866 8211752
2217.9695 1005.4622 3115.042 8803888
2217.4106 996.91254 3088.5542 8409130
2249.8132 1003.2005 3108.0352 8540715
2281.4583 1009.0513 3126.1616 8343079
2289.3201 1004.3736 3111.6697 8343336
2301.9399 1001.8416 3103.8252 8540715
2346.6067 1013.1863 3138.9727 8145957
2365.9119 1013.4886 3139.9089 8409131
2362.3518 1004.0677 3110.7219 8343081
2388.5186 1007.3296 3120.8276 8080680
2397.8386 1003.4912 3108.9358 8343596
2397.8467 995.84381 3085.2434 8541232
2422.7432 998.57031 3093.6904 9001782
2436.9912 996.8999 3088.5154 8606769
2457.1279 997.64545 3090.825 8146219
2474.3623 997.21021 3089.4766 8212269
2484.1721 993.81116 3078.9458 8080682
2479.2786 984.62219 3050.4775 8080427
2514.5916 991.41846 3071.533 8080683
2532.1907 991.18323 3070.8042 8278061
2558.4277 994.30841 3080.4863 8539951
2572.127 992.55109 3075.042 9066808
2587.6206 991.50616 3071.8047 9659715
2614.2112 994.69818 3081.6938 8277805
2639.3438 997.29492 3089.7388 8474671
2614.9883 981.28522 3040.1389 7685924
2649.0774 987.27612 3058.6997 7883047
2662.0034 985.35205 3052.7385 8277805
2653.426 975.54822 3022.365 8409391
2701.9944 986.74481 3057.0535 8870712
2695.0662 977.6604 3028.9089 7554852
2708.1772 975.91754 3023.5093 7620388
2720.0789 973.76465 3016.8394 7883816
2744.1089 975.95337 3023.6201 7620388
2766.5391 977.5484 3028.5618 7423009
2753.5813 966.69916 2994.9497 8409904
2778.1721 969.08667 3002.3464 7554595
2811.2048 974.36987 3018.7144 7752231
2833.8359 976.00366 3023.7761 8015403
2855.6223 977.32794 3027.8789 7817513
2888.2122 982.31 3043.314 7883305
2909.1147 983.28003 3046.3191 7817769
0 0 0 0
0 0 0 0
0 0 0 0
0 0 0 0
0 0 0 0
0 0 0 0
0 0 0 0
0 0 0 0
0 0 0 0
0 0 0 0
0 0 0 0
0 0 0 0
0 0 0 0
-2773.4773 1062.2629 3231.6917 1280
-2756.1743 1062.9749 3233.8574 1280
-2731.3613 1060.7802 3227.1807 1280
-2708.1748 1059.1907 3222.3447 1280
-2697.4277 1062.4783 3232.3467 1536
-2680.6675 1063.4275 3235.2344 1536
-2656.1479 1061.29 3228.7317 1536
-2624.4551 1056.2346 3213.3516 1536
-2635.385 1068.3845 3250.3152 1536
-2613.4331 1067.285 3246.9702 1536
-2591.6587 1066.2422 3243.7974 1536
-2570.1743 1065.304 3240.9431 1536
-2552.2454 1065.8364 3242.563 1536
-2535.0227 1066.6741 3245.1113 1536
-2516.4294 1066.9435 3245.9309 1536
-2498.0476 1067.3073 3247.0378 1280
-2476.8159 1066.4497 3244.429 1280
-2459.7363 1067.3805 3247.2607 1280
-2439.3889 1066.8967 3245.7888 1280
-2419.832 1066.7538 3245.3538 1280
-2398.5303 1065.8331 3242.5532 1280
-2384.4026 1068.1115 3249.4841 1280
-2367.1665 1069.0229 3252.2571 1280
-2346.7432 1068.4982 3250.6609 1280
-2329.9746 1069.6426 3254.1423 1280
-2307.1318 1067.9943 3249.1279 1536
-2288.1499 1068.1206 3249.5122 1536
-2271.459 1069.3275 3253.1838 1536
-2258.6836 1072.4142 3262.5745 1280
-2244.6892 1074.9705 3270.3511 1280
-2229.6167 1077.0503 3276.6785 1280
-2208.9417 1076.4365 3274.8113 1024
-2203.167 1083.1373 3295.197 768
-2187.8704 1085.2349 3301.5784 768
-2171.884 1087.0251 3307.0249 512
-2195.011 1108.6023 3372.6685 789248
-2187.0459 1114.7286 3391.3062 591104
-2197.8384 1130.6177 3439.6453 1248258
-2176.5449 1130.144 3438.2043 1182465
-2155.3833 1129.7306 3436.9465 1247747
-2132.0581 1128.1644 3432.1816 1181441
-2126.3228 1135.9651 3455.9136 1181442
-2113.427 1140.0552 3468.3564 984064
-2073.9189 1129.7289 3436.9409 1378820
-2071.3181 1139.5016 3466.6724 1180928
-2033.6193 1129.9683 3437.6694 1114880
-2016.5209 1131.8042 3443.2549 1115136
-2005.1155 1136.9056 3458.7751 1444099
-1988.9799 1139.4028 3466.3718 1378306
-1955.9706 1132.1849 3444.4131 1115136
-1932.743 1130.5365 3439.3984 1246464
-1916.2711 1132.8468 3446.4268 1180928
-1888.9795 1128.7416 3433.9377 1312256
-1869.1229 1129.0381 3434.8398 1115136
-1848.5875 1128.9266 3434.5005 1180928
-1818.7998 1123.0994 3416.7722 1115136
-1802.2461 1125.4049 3423.7864 851968
-1782.6514 1125.8423 3425.1169 1312000
-1758.219 1123.1993 3417.0764 1246208
-1738.7699 1123.7153 3418.6462 1377792
-1720.9182 1125.2881 3423.4312 1377792
-1701.4745 1125.8447 3425.1245 1640963
-1680.8922 1125.6526 3424.54 1377792
-1648.3706 1117.3625 3399.3193 1509377
-1641.191 1126.2581 3426.3823 1377792
-1618.6775 1124.7218 3421.7085 1377792
-1595.4092 1122.6157 3415.301 1575170
-1572.9384 1121.0238 3410.4578 1443585
-1548.6021 1118.0433 3401.3906 1640706
-1523.0411 1114.0887 3389.3596 1575170
-1503.2596 1114.3124 3390.0403 1706499
-1482.7582 1114.0013 3389.0938 1574913
-1455.2783 1108.3667 3371.9519 1377792
-1434.8322 1108.007 3370.8572 1443584
-1408.3429 1102.9044 3355.334 1377792
-1388.2332 1102.7234 3354.783 1377792
-1365.2261 1100.202 3347.1123 1114880
-1344.8047 1099.7208 3345.6487 983552
-1318.6986 1094.507 3329.7866 851968
-1297.3632 1093.1545 3325.6721 786432
-1280.7202 1095.7753 3333.645 1180672
-1260.0922 1095.0149 3331.332 1180928
-1233.7333 1089.1713 3313.5537 1180928
-1211.5525 1086.8866 3306.6035 1378048
-1189.2417 1084.4084 3299.064 1443584
-1170.1935 1084.8718 3300.4741 1509377
-1148.0061 1082.3915 3292.9282 1509377
-1128.2236 1082.132 3292.1387 1574913
-1108.5177 1081.9381 3291.5486 1574657
-1089.3392 1082.2612 3292.532 1574656
-1071.5409 1083.9924 3297.7986 1640193
-1049.2385 1081.147 3289.1416 1574656
-1030.8776 1082.3317 3292.7461 1640449
-1012.7781 1083.8423 3297.3416 1574656
-990.21033 1080.536 3287.2832 1706242
-968.86761 1078.4609 3280.9702 1771778
-952.08813 1081.4843 3290.168 1574656
-929.55823 1077.9653 3279.4626 1772291
-910.24536 1078.1068 3279.8928 1706242
-888.27417 1075.0369 3270.5535 1245952
-868.83087 1074.9579 3270.3127 1246208
-847.28076 1072.2089 3261.95 1377792
-827.12238 1071.1342 3258.6799 1246208
-807.31885 1070.4783 3256.6848 1377792
-788.17914 1070.6921 3257.3354 1312000
-769.16516 1071.0919 3258.5518 1246208
-748.1665 1068.6772 3251.2058 1246208
-727.65796 1066.8536 3245.6577 1180416
-705.93463 1063.1016 3234.2429 1311744
-684.33112 1059.3256 3222.7551 983040
-665.72296 1060.1025 3225.1191 1114368
-645.97882 1059.0631 3221.9568 1311488
-628.70441 1062.1328 3231.2954 1574657
-608.31311 1059.9641 3224.698 1640193
-590.07111 1061.5214 3229.4355 1706242
-571.95044 1063.4086 3235.177 1574656
-551.58429 1061.1069 3228.1748 1574657
-535.90643 1067.983 3249.0935 1574400
-512.98151 1060.3911 3225.9968 1640449
-494.3562 1061.4432 3229.1978 1640449
-474.6918 1060.2592 3225.5955 1639936
-456.13062 1061.5433 3229.5022 1705729
-435.99026 1059.1038 3222.0806 1902851
-419.88681 1066.6963 3245.179 1442560
-400.42975 1066.0891 3243.3318 1639936
-381.03671 1065.5997 3241.8428 1705729
-362.71548 1068.215 3249.7991 1771521
-343.06293 1066.9827 3246.0503 1771521
-321.05515 1057.8438 3218.2473 1639680
-301.45871 1055.9977 3212.6309 1639680
-282.86035 1057.6345 3217.6108 2034436
-265.5654 1064.7336 3239.2083 1968643
-244.72791 1057.6295 3217.5952 1771265
-225.67612 1057.6938 3217.7913 1902850
-205.91046 1054.1157 3206.9055 1968643
-187.98476 1060.1869 3225.3757 2166022
-168.69482 1059.0676 3221.9705 2363401
-149.70552 1059.7909 3224.1711 2297608
-131.03149 1063.2842 3234.7983 1968644
-112.15606 1066.0601 3243.2434 1771265
-92.848297 1065.0249 3240.0942 1837058
-73.714508 1065.9659 3242.957 1968641
-54.549839 1066.9666 3246.001 2033664
-35.303326 1066.5841 3244.8379 2099457
-16.088905 1067.4165 3247.3704 1967872
3.1594272 1069.5688 3253.9182 2033664
22.456873 1070.3636 3256.3359 2099457
41.767262 1070.7556 3257.5286 2099457
61.038303 1070.21 3255.8684 2362369
79.706284 1061.892 3230.563 2493956
99.804848 1072.1638 3261.8127 2691335
119.04504 1071.3777 3259.4211 2821894
138.46463 1072.2001 3261.9231 2953735
158.73547 1078.6053 3281.4097 3019270
177.5488 1074.7897 3269.801 3150344
197.26703 1076.6636 3275.5022 2887171
217.57607 1081.1375 3289.113 3149829
235.47398 1073.8799 3267.0334 3477506
254.69908 1073.3177 3265.3235 4331526
275.409 1078.6505 3281.5469 5646348
294.97565 1079.0974 3282.9065 7619360
313.29019 1075.1918 3271.0247 8540457
333.64505 1078.3356 3280.5889 8277541
352.25012 1075.7893 3272.8425 8540712
369.1431 1068.5529 3250.8271 8540712
385.18369 1059.6891 3223.8613 8343589
410.06958 1074.8478 3269.978 8672555
425.9975 1066.2177 3243.7229 8474919
444.62946 1064.8086 3239.436 9790523
466.26151 1070.4036 3256.4575 9395765
483.95166 1066.8639 3245.6887 8869677
505.06784 1070.8588 3257.8423 9198129
521.85712 1065.7231 3242.2183 8738091
542.16113 1067.8751 3248.7654 9198386
554.08331 1053.9362 3206.3594 10251331
580.76611 1068.0674 3249.3501 8869422
603.71411 1074.6434 3269.3562 8803629
625.58893 1078.9596 3282.4873 8277542
641.1319 1072.4243 3262.605 8737836
646.25293 1049.3488 3192.4031 8869677
669.95795 1056.9033 3215.3862 8409383
699.70612 1073.3099 3265.2996 9001519
708.86377 1058.0989 3219.0234 8738347
732.29767 1064.4363 3238.3035 8803885
751.02875 1063.7887 3236.3333 8408871
772.82635 1067.4087 3247.3464 8343334
786.62964 1060.0797 3225.0496 7619612
794.76996 1045.6477 3181.1436 9001008
817.87762 1051.1201 3197.7922 9132593
838.13104 1052.7595 3202.7795 8803372
842.76117 1035.1368 3149.1665 8540200
853.78174 1025.9567 3121.2383 8408871
894.3913 1051.968 3200.3716 8408871
911.09009 1049.3596 3192.4363 8277284
926.19482 1045.0586 3179.3513 8935215
956.41211 1057.6414 3217.6313 8737579
975.47784 1057.6414 3217.6313 9132337
987.07709 1049.701 3193.4751 8342821
1007.5105 1051.2775 3198.2708 8671786
1023.5623 1048.3081 3189.2373 8211491
1043.0664 1048.9182 3191.0933 8277028
1069.2284 1056.0825 3212.8889 8474664
1079.8551 1047.9203 3188.0574 8408614
1098.6765 1047.8544 3187.8567 8277285
1119.6439 1049.8029 3193.7844 8540456
1135.5267 1046.9983 3185.2524 8343077
1155.7676 1048.238 3189.0242 8869422
1175.3363 1048.8383 3190.8499 8408871
1190.043 1045.1492 3179.627 8672042
1202.8058 1039.8947 3163.6411 9132594
1221.5737 1039.9136 3163.6985 9132593
1249.1904 1047.3507 3186.3245 8211491
1257.8798 1038.9335 3160.7173 8211492
1269.1698 1032.88 3142.3008 8409127
1298.2216 1041.2473 3167.7563 8606761
1301.8479 1029.2742 3131.3308 8804397
1342.0112 1046.1188 3182.5764 8211488
1347.3776 1035.7474 3151.0242 9000748
1365.7224 1035.5001 3150.2717 8605989
1383.8696 1035.1117 3149.0898 8342306
1399.587 1032.9402 3142.4836 8474149
1418.6572 1033.2677 3143.4802 8474663
1440.649 1035.6871 3150.8408 8671786
1466.3234 1040.6581 3165.9639 8145186
1466.0101 1027.293 3125.3035 6895374
1486.4202 1028.6018 3129.2852 6368264
1511.3356 1032.9576 3142.5371 7421208
1526.4512 1030.5911 3135.3372 6763277
1528.1323 1019.3203 3101.0483 7750941
1552.6969 1023.3998 3113.4595 7948320
1548.5967 1008.7122 3068.7759 8079906
1568.6241 1009.8994 3072.3872 7488026
1591.9521 1013.1596 3082.3059 8145699
1618.5503 1018.4036 3098.2595 7948063
1621.3782 1008.7413 3068.8643 7948319
1625.6371 1000.1737 3042.7993 8342820
1689.0276 1027.7758 3126.772 8408871
1685.444 1014.4671 3086.2837 7619354
1698.2892 1011.2266 3076.4253 8540456
1735.1622 1022.2101 3109.8398 8145698
1754.4707 1022.7239 3111.4028 7553307
1753.7672 1011.6829 3077.8132 8079651
