# .PCD v0.7 - Point Cloud Data file format
VERSION 0.7
FIELDS x y z rgb
SIZE 4 4 4 4
TYPE F F F U
COUNT 1 1 1 1
WIDTH 1310
HEIGHT 1
VIEWPOINT 0 0 0 1 0 0 0
POINTS 1310
DATA ascii
0 0 0 0
-2299.0366 1382.6089 3133.1465 1280
-2280.4895 1382.6199 3133.1714 1280
-2261.7913 1382.5385 3132.9871 1280
-2252.6006 1388.3154 3146.0784 1280
-2225.01 1382.7543 3133.4761 1280
-2214.3962 1387.7385 3144.771 1280
-2193.6721 1386.4176 3141.7776 1280
-2174.3608 1385.9746 3140.7737 1536
-2156.1621 1386.2394 3141.3735 1536
-2137.2744 1386.0616 3140.9709 1536
-2119.3289 1386.4974 3141.9583 1536
-2101.4702 1386.9982 3143.0933 1536
-2083.6426 1387.5286 3144.2949 1280
-2066.5093 1388.535 3146.5757 1280
-2053.168 1392.131 3154.7246 1280
-2034.1833 1391.9314 3154.2722 1280
-2012.9792 1390.1954 3150.3384 1280
-1996.1901 1391.5043 3153.3044 1024
-1990.9432 1400.9601 3174.7324 1024
-1964.4873 1395.5297 3162.4265 768
-1943.6436 1394.0199 3159.0051 512
-1935.4469 1401.6395 3176.2722 512
-1925.3376 1408.0103 3190.709 460544
-1927.4191 1423.511 3225.8352 788480
-1931.8954 1441.1085 3265.7131 1117443
-1916.8607 1444.3607 3273.083 985088
-1888.5905 1437.6042 3257.7722 1182467
-1898.0519 1459.7264 3307.9036 1116161
-1870.5898 1453.6174 3294.0598 1050113
-1842.7305 1447.0676 3279.2173 1115905
-1817.5833 1442.5306 3268.936 1247234
-1796.446 1441.1128 3265.7229 1313027
-1772.8198 1437.6455 3257.8657 1180928
-1760.0796 1443.0272 3270.0613 1246720
-1746.7781 1448.0631 3281.4731 1180928
-1733.1013 1452.8981 3292.4297 1115136
-1697.1582 1438.964 3260.8535 1049344
-1674.528 1436.1267 3254.4238 1115136
-1660.8712 1441.0088 3265.4873 1180928
-1629.2205 1430.21 3241.0161 1180672
-1608.5128 1428.8746 3237.99 1312000
-1597.25 1435.9982 3254.1326 1377792
-1563.7085 1423.0217 3224.7266 1377792
-1543.269 1421.7948 3221.9463 1443584
-1518.7089 1416.6934 3210.3857 1509378
-1504.8088 1421.5327 3221.3523 1377792
-1478.228 1414.3634 3205.106 1377536
-1460.03 1415.1326 3206.8489 1312000
-1440.421 1414.5363 3205.4976 1311744
-1422.8051 1415.9075 3208.605 1443072
-1397.4214 1409.4812 3194.0422 1377280
-1376.8391 1407.7876 3190.2043 1311488
-1359.1693 1409.0664 3193.1023 1245696
-1337.9006 1406.5975 3187.5076 1311488
-1318.4602 1406.0076 3186.1707 1508864
-1295.4542 1401.543 3176.0535 1377280
-1270.9592 1395.3121 3161.9333 1311488
-1249.8495 1392.6669 3155.939 1377280
-1229.7363 1391.0686 3152.3171 1311488
-1209.6355 1389.4351 3148.6152 1442816
-1190.6237 1389.0209 3147.6768 1377280
-1175.1089 1392.7382 3156.1006 1508608
-1151.4559 1386.7743 3142.5859 1311744
-1131.9849 1385.7339 3140.228 1377536
-1114.2301 1386.7948 3142.6323 1246208
-1095.7633 1386.9905 3143.0757 1114880
-1074.9065 1384.1152 3136.5601 1048832
-1055.1951 1382.6398 3133.2166 1114624
-1037.7823 1384.1775 3136.7012 1443584
-1014.7957 1378.2012 3123.1582 1114624
-990.27771 1369.8846 3104.312 786432
-971.92639 1369.9451 3104.449 720896
-951.81982 1367.4862 3098.877 720896
-929.88715 1362.2555 3087.0234 1114624
-914.18976 1366.1326 3095.8093 1574656
-891.54852 1359.5793 3080.959 1574656
-873.2218 1359.4691 3080.7092 1640450
-854.1723 1358.2048 3077.8442 1903621
-833.57135 1354.3647 3069.1421 1640449
-815.02277 1353.7622 3067.7769 1640449
-792.60413 1346.5576 3051.4502 1574657
-776.74841 1350.4264 3060.2173 1443072
-760.92706 1354.5415 3069.5427 1508864
-742.4444 1354.0045 3068.3259 1443072
-724.08118 1353.6641 3067.5542 1442816
-702.00397 1346.184 3050.6035 1640449
-681.78986 1341.9756 3041.0669 1705985
-664.2937 1343.0337 3043.4648 1640449
-647.20667 1345.0011 3047.9231 1508864
-626.53198 1339.4117 3035.2571 1311488
-607.74963 1337.6571 3031.2808 1574400
-587.30951 1332.0355 3018.5417 1443072
-572.91241 1340.1974 3037.0371 1772035
-554.02808 1338.0511 3032.1736 1706242
-537.01306 1340.4268 3037.5571 1574657
-517.19403 1335.7257 3026.9041 1771778
-497.23462 1330.3112 3014.634 1706242
-481.58353 1336.4495 3028.5439 1706242
-460.72229 1328.0442 3009.4968 1706242
-442.74823 1327.6196 3008.5347 1640449
-425.49402 1329.4084 3012.5884 1640449
-406.22461 1324.782 3002.1045 1640449
-388.18967 1323.9423 3000.2014 1508864
-370.41229 1323.9423 3000.2014 1574401
-352.694 1324.1642 3000.7043 1574401
-333.59134 1318.9363 2988.8572 1640192
-316.45969 1321.3518 2994.3311 1640193
-298.61313 1320.8921 2993.2893 1771522
-280.8457 1320.7462 2992.959 1771522
-262.69534 1318.6587 2988.2283 1639937
-246.02188 1324.2189 3000.8284 1508352
-226.95885 1316.7814 2983.9739 1442560
-208.99324 1314.9922 2979.9194 1705472
-191.3866 1315.3397 2980.707 1639936
-174.35699 1320.1268 2991.5554 1705986
-156.55029 1319.4482 2990.0173 1639424
-139.05 1321.5083 2994.6858 1771009
-121.2783 1321.2142 2994.0195 1902595
-103.55605 1321.4507 2994.5552 1902595
-85.674377 1319.3297 2989.7488 1837057
-67.795265 1316.1526 2982.5491 2034436
-49.936218 1311.262 2971.4663 1837057
-32.633202 1323.5968 2999.4185 2034436
-14.795873 1317.8457 2986.386 1902850
2.9122808 1323.58 2999.3804 2100229
20.511545 1312.4928 2974.2556 2100229
38.399261 1321.5808 2994.8501 2231815
55.920033 1316.2866 2982.8528 2428167
73.360199 1312.0935 2973.3508 2362631
90.780724 1309.2413 2966.8872 2231045
108.80035 1314.553 2978.9241 2230788
126.20915 1312.0317 2973.2109 1967873
144.2807 1316.1741 2982.5979 1967873
161.3839 1311.5426 2972.1025 2165252
179.14621 1312.652 2974.6165 1704704
197.33051 1316.3778 2983.0593 1901824
213.32494 1306.0834 2959.7312 1967616
231.55359 1309.9929 2968.5908 2164737
248.96843 1309.0715 2966.5027 2362116
266.51016 1308.8948 2966.1023 2428163
285.62473 1315.9865 2982.1729 2493956
302.13428 1310.9489 2970.7571 2559749
320.75406 1315.118 2980.2048 2559748
339.35736 1318.7881 2988.5215 2558979
357.10208 1318.9231 2988.8274 2690052
373.92422 1315.7987 2981.7473 2624513
394.33084 1325.0007 3002.5999 2755842
414.30222 1332.0089 3018.4812 2689793
433.1882 1335.0917 3025.4673 2755586
449.93097 1331.5865 3017.5242 2886915
470.0979 1338.0961 3032.2754 2952964
489.40067 1341.757 3040.5715 2952452
509.45053 1347.1334 3052.7551 3411971
526.85852 1345.395 3048.8157 4462598
546.40607 1349.0542 3057.1077 5777424
556.25818 1329.3091 3012.363 7289883
567.40454 1313.7885 2977.1917 8145188
590.40698 1325.828 3004.4749 8474407
602.47064 1313.3175 2976.1245 8474407
622.58954 1318.5787 2988.0471 9066801
640.3653 1318.7236 2988.3755 8277284
650.42346 1303.3954 2953.6399 7816733
671.25238 1309.8885 2968.354 8408616
689.43665 1311.021 2970.9204 8473895
706.91809 1310.7939 2970.406 8473639
721.93134 1306.1125 2959.7974 8079394
736.66266 1301.1553 2948.5635 8342309
753.3476 1299.7982 2945.4883 8868911
772.99677 1303.5012 2953.8796 9132084
787.78082 1299.0181 2943.7202 9000497
804.87695 1298.4589 2942.4531 8605739
827.479 1306.6174 2960.9414 8540200
838.56244 1296.6267 2938.3013 8540200
861.06036 1304.3329 2955.7644 9066544
881.00427 1307.9401 2963.9387 8408871
890.83295 1296.6829 2938.4285 9527095
910.04968 1299.2603 2944.2693 8868908
930.36969 1303.2864 2953.3928 8473894
936.6084 1287.8025 2918.3047 8736809
962.44928 1299.3438 2944.4583 8671273
970.30988 1286.6318 2915.6519 8671273
964.88025 1257.0504 2848.6169 9131823
1006.2234 1288.3743 2919.6003 8144929
1008.6755 1269.6844 2877.2471 9263153
1036.0277 1282.4385 2906.1492 9065776
1049.0747 1277.3573 2894.6345 8671018
1065.4528 1276.4301 2892.5334 8737068
1084.3881 1278.5475 2897.3318 8671275
1097.7856 1274.1715 2887.4153 8539689
1112.989 1271.9935 2882.4797 8408101
1132.5245 1274.7576 2888.7434 8473893
1144.5576 1269.1205 2875.969 8408101
1151.2749 1257.8407 2850.408 8868652
1172.5813 1262.5966 2861.1851 8473897
1196.8688 1270.3807 2878.825 8408617
1206.9846 1263.1155 2862.3611 9132340
1220.1013 1259.1486 2853.3716 8671019
1228.9586 1250.9543 2834.8025 8408103
1246.4579 1251.6592 2836.3999 8473896
1264.9807 1253.3595 2840.2529 8210467
1283.0317 1254.5537 2842.9592 8342053
1298.5397 1253.2626 2840.0334 8999983
1313.968 1251.9288 2837.011 9526327
1333.9899 1254.95 2843.8572 8079138
1346.047 1250.4963 2833.7646 8407847
1365.7244 1253.1447 2839.7661 8012835
1387.8342 1257.9332 2850.6174 8078882
1401.3047 1254.8701 2843.676 7947551
1412.4221 1249.7976 2832.1814 8013088
1432.1718 1252.3928 2838.0625 8078368
1443.0538 1247.2635 2826.4387 7683867
1459.8008 1247.2628 2826.4373 8209954
1476.5826 1247.2916 2826.5024 8802348
1489.875 1244.4052 2819.9614 8473126
1500.5244 1239.3998 2808.6187 8736811
1511.1328 1234.4707 2797.4487 8802604
1523.33 1230.9323 2789.4304 8868653
1545.4055 1235.3665 2799.4788 8671018
1548.8262 1224.9525 2775.8796 8671275
1554.8195 1216.7706 2757.3386 8013090
1588.3782 1230.1068 2787.5598 8605225
1599.6582 1226.0927 2778.4631 8605225
1620.2661 1229.2368 2785.5881 8934190
1650.3137 1239.407 2808.635 8934446
1679.7806 1248.9423 2830.2429 8605225
1677.9515 1235.25 2799.2148 8210724
1704.7358 1242.6837 2816.0605 8539688
1705.9326 1231.5021 2790.7214 8539689
1726.62 1234.47 2797.4473 8210723
1764.0024 1249.2043 2830.8369 8671017
1751.4558 1228.6362 2784.2271 8013089
1764.8053 1226.4485 2779.2695 8605225
1785.6993 1229.4956 2786.1748 8144930
1808.6001 1233.8562 2796.0562 8144674
1806.6688 1221.3503 2767.7166 8210467
1822.4921 1220.964 2766.8411 8145188
1835.0967 1218.4476 2761.1387 8869168
1859.873 1223.9857 2773.6887 8474412
1877.4192 1224.7106 2775.3311 8605485
1901.0355 1229.348 2785.8401 7618846
1924.1273 1233.5695 2795.4065 7421725
1923.6201 1222.7185 2770.8169 7224088
1925.2063 1213.3706 2749.6335 8079654
1953.1226 1220.6349 2766.0952 8408617
1977.9513 1225.8647 2777.9468 9000756
1987.1095 1221.3763 2767.7756 8145447
2012.7703 1227.0219 2780.5688 7948067
2006.0814 1213.0146 2748.8271 7816482
2040.7163 1224.0193 2773.7646 7355676
2042.0375 1215.026 2753.385 7619104
2042.7949 1205.8427 2732.5745 7553311
2065.8838 1209.882 2741.728 8474414
2073.1379 1204.6571 2729.8879 7224346
2086.3425 1202.9441 2726.0061 7816227
2096.8716 1199.7264 2718.7144 7947813
2119.9568 1203.6873 2727.6902 8211242
2141.77 1206.8713 2734.9055 7684898
2154.9294 1205.1678 2731.0452 7948070
2160.2593 1199.1436 2717.3936 7882277
2194.3325 1209.0457 2739.8328 8276778
2214.2529 1211.0615 2744.4011 7355422
2223.6111 1207.3132 2735.907 6894870
2257.644 1216.9194 2757.6758 7684642
2255.8613 1207.2209 2735.6978 8013606
2281.5864 1212.2766 2747.1545 8079656
2283.6184 1204.7609 2730.123 8277291
2305.8352 1207.9248 2737.2927 8474671
2303.9246 1198.4935 2715.9207 8277291
2291.4373 1183.7294 2682.4631 8408621
2317.6621 1189.0291 2694.4729 8869429
2322.8491 1183.537 2682.0273 8606000
2378.0286 1203.4186 2727.0813 8474671
2328.0835 1170.192 2651.7861 8474670
2351.4102 1173.9933 2660.4004 8408878
2393.0791 1186.8408 2689.5142 8277292
2395.9434 1180.4006 2674.9199 8211498
2403.4221 1176.3035 2665.6353 7882534
2425.5618 1179.3884 2672.6262 8145449
2440.6465 1179.0254 2671.8035 8079656
2458.3977 1179.9467 2673.8914 8079400
2481.1628 1183.2474 2681.3711 7881765
2488.7185 1179.299 2672.4236 7750179
2495.7446 1175.1511 2663.0239 7947559
2527.575 1182.6615 2680.0432 7750692
2553.261 1187.2208 2690.3755 7553571
2557.4812 1181.8044 2678.1013 7290399
0 0 0 0
0 0 0 0
0 0 0 0
0 0 0 0
0 0 0 0
0 0 0 0
0 0 0 0
-2837.7644 1419.9221 3175.0688 1280
-2814.855 1417.859 3170.4556 1280
-2795.3418 1417.4904 3169.6311 1280
-2775.9216 1417.1642 3168.9019 1280
-2754.4734 1415.7911 3165.8318 1280
-2734.0291 1414.9189 3163.8813 1280
-2712.2617 1413.3453 3160.3625 1280
-2691.2856 1412.1648 3157.7227 1280
-2675.0815 1413.4894 3160.6846 1280
-2655.5933 1413.0847 3159.78 1280
-2635.0786 1412.1248 3157.6333 1280
-2614.5723 1411.1553 3155.4653 1280
-2595.5403 1410.9735 3155.0588 1280
-2575.4734 1410.2223 3153.3792 1280
-2554.0774 1408.7271 3150.0356 1280
-2558.4714 1421.5392 3178.6848 1280
-2521.4597 1411.3649 3155.9341 1280
-2501.4766 1410.6414 3154.3164 1280
-2479.8752 1408.9877 3150.6184 1280
-2457.5391 1406.8881 3145.9236 1280
-2443.7422 1409.6824 3152.1719 1280
-2423.9399 1409.0288 3150.7104 1280
0 0 0 0
0 0 0 0
0 0 0 0
0 0 0 0
0 0 0 0
0 0 0 0
-2248.0095 1381.2286 3088.5469 1280
-2229.1128 1380.8596 3087.7217 1280
-2210.8086 1380.8545 3087.7102 1280
-2193.0024 1381.1628 3088.3999 1280
-2173.697 1380.5243 3086.9719 1280
-2154.4148 1379.8899 3085.5532 1280
-2138.9292 1381.697 3089.5942 1536
-2119.8596 1381.2001 3088.4832 1536
-2101.3093 1381.0359 3088.116 1536
-2083.4038 1381.2965 3088.6985 1536
-2062.7944 1379.7531 3085.2473 1536
-2045.6815 1380.5415 3087.0105 1536
-2028.2816 1381.1488 3088.3684 1536
-2010.9194 1381.7931 3089.8091 1280
-1993.7095 1382.5548 3091.5122 1280
-1975.1709 1382.4008 3091.168 1280
-1958.4233 1383.509 3093.646 768
-1940.4255 1383.7467 3094.1775 768
-1929.8467 1389.33 3106.6621 512
-1910.6052 1388.7242 3105.3076 512
-1900.8064 1395.037 3119.4236 328704
-1899.5343 1407.7931 3147.9473 657152
-1893.6578 1417.3558 3169.3303 919552
-1896.6129 1433.7866 3206.071 985088
-1902.5898 1452.8574 3248.7151 1247490
-1877.806 1448.5886 3239.1694 918784
-1841.6808 1435.3917 3209.6604 918784
-1821.8268 1434.7339 3208.1892 1115648
-1798.3533 1431.1816 3200.2461 1115648
-1789.4338 1439.2596 3218.3091 1115136
-1767.2025 1436.6893 3212.5618 1180928
-1736.8588 1427.3959 3191.781 983552
-1717.0999 1426.6929 3190.2087 1049344
-1692.2574 1421.7031 3179.0515 1115136
-1673.6062 1421.8612 3179.4048 1246720
-1664.9547 1430.6151 3198.9792 1180928
-1633.871 1420.0735 3175.4075 1180928
-1610.5542 1416.1158 3166.5576 1246720
-1598.9628 1422.496 3180.8242 1246464
-1570.4362 1413.7827 3161.3406 1245952
-1550.0928 1412.3146 3158.0576 1180416
-1530.9662 1411.933 3157.2043 1246208
-1516.7462 1416.123 3166.5737 1311744
-1493.3457 1411.7391 3156.771 1311744
-1475.3158 1412.3855 3158.2163 1575170
-1451.7268 1407.6582 3147.6458 1312000
-1431.5067 1406.1171 3144.1995 1377792
-1408.9348 1402.1946 3135.4287 1443329
-1389.6964 1401.5292 3133.9407 1574658
-1370.4613 1400.8492 3132.4204 1508864
-1347.6279 1396.422 3122.5205 1311488
-1328.2584 1395.5107 3120.4829 1311488
-1306.6261 1392.163 3112.9968 1442560
-1286.2843 1390.1139 3108.415 1377024
-1265.3318 1387.3354 3102.2024 1311744
-1243.927 1383.9723 3094.6819 1377024
-1226.9922 1385.5558 3098.2229 1442560
-1207.3805 1384.1189 3095.0098 1442560
-1188.4827 1383.4686 3093.5557 1442816
-1167.0072 1379.7504 3085.2415 1508352
-1147.8341 1378.6792 3082.8462 1377024
-1128.8828 1377.8441 3080.9788 1246464
-1110.423 1377.5914 3080.4138 1180416
-1091.5918 1376.8616 3078.7817 1246208
-1078.2117 1383.0996 3092.7305 1377536
-1055.0692 1376.814 3078.6753 1180416
-1033.9091 1372.9395 3070.0115 1246208
-1013.7335 1370.2571 3064.0134 1443586
-990.97168 1363.9172 3049.8369 1377792
-975.33203 1367.3264 3057.4602 1312000
-956.55267 1366.3798 3055.3435 983040
-931.54163 1356.3234 3032.8564 786432
-912.19214 1354.2766 3028.2798 655360
-892.9184 1352.2623 3023.7759 917504
-873.0083 1349.1824 3016.8887 1508864
-855.13202 1349.1824 3016.8887 1245696
-838.87866 1351.7976 3022.7366 1443072
-814.50989 1341.1642 2998.9592 1574656
-795.33545 1338.8002 2993.6731 1508864
-778.68988 1340.6823 2997.8816 1311488
-759.20465 1337.649 2991.0991 1377280
-741.14185 1337.0369 2989.7302 1443072
-721.91644 1334.246 2983.4895 1377024
-704.8501 1335.4054 2986.0823 1245696
-686.86432 1334.8379 2984.8132 1508864
-672.31793 1341.1012 2998.8184 1640193
-650.0152 1331.8124 2978.0479 1508865
-634.92249 1337.1899 2990.0725 1508608
-613.927 1330.0879 2974.1919 1574656
-595.45978 1328.2056 2969.9827 1443072
-577.13452 1326.5347 2966.2463 1377280
-558.60675 1324.2787 2961.2019 1574656
-540.81323 1323.6736 2959.8489 1771778
-524.18665 1325.9799 2965.0059 1508864
-506.13605 1324.7191 2962.1865 1508864
-488.31586 1323.9923 2960.5615 1706243
-469.62988 1320.7765 2953.3706 1640194
-451.31738 1318.4028 2948.0627 1640449
-434.0733 1319.0846 2949.5874 1705985
-415.74802 1316.4 2943.5847 1640449
-397.48572 1313.6888 2937.522 1443072
-379.63748 1312.1603 2934.104 1706499
-362.26041 1312.1915 2934.1741 1705729
-344.90558 1312.3108 2934.4407 1837315
-326.92313 1309.9281 2929.1125 1903364
-309.14618 1308.1475 2925.1311 1772035
-292.71127 1312.1715 2934.1292 1640705
-274.56171 1308.5319 2925.9907 1574656
-257.98267 1312.3912 2934.6204 1574656
-239.71631 1307.6042 2923.9165 1574656
-221.93073 1304.8984 2917.866 1442816
-204.91876 1306.6682 2921.8235 1639680
-187.05605 1302.8394 2913.2617 1639936
-170.68411 1309.6708 2928.5374 1837058
-153.66788 1312.5453 2934.9651 1902852
-136.30814 1312.8448 2935.6348 1968645
-118.66434 1310.0959 2929.488 1902595
-101.96119 1318.5697 2948.436 1968644
-84.063622 1311.9075 2933.5386 1705217
-66.826691 1314.7693 2939.938 1902595
-48.996868 1303.8717 2915.5701 1902850
-31.679653 1302.1744 2911.7749 1705472
-14.464644 1305.6432 2919.5312 1771265
2.8409953 1308.5195 2925.9629 2034436
20.155115 1307.0031 2922.572 1705472
37.462612 1306.6572 2921.7988 1902850
54.546375 1301.1929 2909.5801 2165252
71.995522 1304.976 2918.0393 2099459
88.788162 1297.6987 2901.7666 2164996
106.0603 1298.6538 2903.9023 1967873
123.30307 1299.0328 2904.75 2033666
140.33131 1297.3357 2900.9551 2033666
157.72711 1299.0364 2904.7578 1967873
175.966 1306.6627 2921.811 1770496
191.67256 1295.803 2897.5278 1967872
209.53433 1300.1014 2907.1394 2033408
226.59097 1299.1305 2904.9683 1967872
244.19164 1301.1957 2909.5862 1836288
262.23859 1305.2097 2918.562 1901568
280.13901 1308.0428 2924.8972 2164736
297.12201 1306.5117 2921.4734 2428163
312.43921 1298.2277 2902.9495 2428163
331.95459 1307.3418 2923.3296 2361601
347.46637 1300.5667 2908.1797 2493186
368.56476 1314.3541 2939.0098 2558722
385.69681 1313.3912 2936.8567 2493187
404.96768 1319.4803 2950.4724 2690052
422.45041 1319.4803 2950.4724 2755845
439.54999 1318.3312 2947.9028 2821382
457.37863 1319.3729 2950.2322 2755846
473.15314 1314.6306 2939.6279 2821379
492.04404 1318.5765 2948.4514 2887171
508.60095 1316.2115 2943.1631 3149570
532.57758 1332.5682 2979.738 3608834
547.37103 1325.6354 2964.2356 5054475
563.14087 1321.4247 2954.8201 6764314
573.75665 1305.7384 2919.7441 8014630
595.62 1315.8182 2942.2834 8540458
611.0802 1311.5813 2932.8096 8737579
623.55121 1301.3403 2909.9097 8737835
642.43127 1304.6661 2917.3464 8079906
659.08771 1303.4202 2914.5605 8474150
676.73694 1304.1511 2916.1948 8408101
697.80408 1311.2686 2932.1099 7684380
708.15295 1298.3881 2903.3081 7947296
718.00171 1285.2235 2873.8711 8671275
735.99323 1286.9067 2877.635 8473639
755.19922 1290.5892 2885.8694 8869166
773.17554 1292.0538 2889.1443 9001007
789.56439 1290.8596 2886.4739 9001007
811.82532 1299.1125 2904.9282 9198387
829.57263 1299.95 2906.8008 8935215
842.32617 1293.0874 2891.4556 8934958
860.2486 1294.275 2894.1111 9198130
872.83081 1287.5388 2879.0483 9132080
891.27069 1289.536 2883.5142 8736809
906.27802 1286.5851 2876.9158 8605223
920.43103 1282.5527 2867.8989 8210465
932.69934 1276.0878 2853.4429 8605223
946.573 1272.0106 2844.3259 8408100
967.06628 1276.8158 2855.0708 8473894
965.08319 1252.2905 2800.23 8999982
995.5968 1270.0492 2839.9399 8802859
1023.1743 1283.5344 2870.094 9329205
1023.7076 1263.2073 2824.6409 9131569
1042.8826 1266.1671 2831.2593 8605225
1064.8411 1272.359 2845.105 8605482
1079.762 1270.08 2840.009 8671018
1096.5902 1270.08 2840.009 8539687
1106.7177 1262.4365 2822.9175 8539687
1119.3049 1257.7847 2812.5156 8736809
1139.8062 1262.032 2822.0129 8342051
1156.0122 1261.4695 2820.7551 8605481
1169.8737 1258.401 2813.8938 8605225
1192.8188 1265.0526 2828.7671 8671531
1190.7909 1245.4012 2784.8252 8671532
1212.0055 1250.2634 2795.6973 8605482
1232.9729 1254.743 2805.7141 8802604
1235.9679 1241.0569 2775.1106 8407846
1252.4709 1241.1157 2775.2422 8276517
1268.9153 1241.1157 2775.2422 8473895
1296.3821 1251.7585 2799.0405 7289621
1304.0477 1243.2548 2780.0251 9065778
1326.3344 1248.7283 2792.2646 7618333
1333.6926 1240.1854 2773.1621 8078883
1354.2041 1243.9326 2781.541 8079138
1374.4771 1247.3732 2789.2346 8407846
1376.6785 1234.5266 2760.5083 8276516
1401.0841 1241.6593 2776.4578 8144931
1422.8148 1246.2834 2786.7976 7749403
1448.4597 1254.1906 2804.4788 8275747
1448.7383 1240.2034 2773.2021 8407333
1457.828 1233.9882 2759.3044 8604712
1471.2858 1231.5671 2753.8909 8473380
1493.3096 1236.291 2764.4539 8671274
1504.0626 1231.6826 2754.1492 8605481
1520.1113 1231.4634 2753.6587 8868397
1533.6123 1229.2067 2748.6125 9394741
1537.3799 1219.278 2726.4111 9329205
1570.2949 1232.4319 2755.8245 8934190
1587.1792 1232.8628 2756.7881 8737325
1606.5956 1235.2319 2762.0857 9066289
1622.5865 1234.946 2761.4465 8999983
1645.8931 1240.1783 2773.1462 8999983
1662.3251 1240.1783 2773.1462 8737067
1678.0627 1239.6654 2771.9993 8605481
1692.8871 1238.4941 2769.3801 8276007
1710.2673 1239.1975 2770.9529 8210213
1742.7639 1250.7358 2796.7539 8736813
1733.5327 1232.3921 2755.7356 8078627
1744.6436 1228.7172 2747.5181 8671020
1746.996 1218.9989 2725.7871 8144931
1779.4777 1230.2893 2751.0334 8078882
1780.5651 1219.8663 2727.7268 8342054
1793.731 1217.8315 2723.177 8276263
1818.6193 1223.7209 2736.3462 8211238
1835.1324 1223.9205 2736.7922 8342567
1848.7161 1222.1799 2732.9001 7882273
1880.3107 1232.2729 2755.4692 8342826
1887.7854 1226.5215 2742.6082 8276776
1903.4729 1226.1583 2741.7964 8277032
1884.4264 1203.6163 2691.3904 8013604
1912.6357 1211.3824 2708.7561 8145446
1936.0688 1216.0194 2719.1248 9000756
1966.0156 1224.6372 2738.3948 9329464
1968.2644 1216.0018 2719.0854 8605998
1970.1272 1207.2703 2699.561 7948068
1989.0513 1209.0502 2703.541 8079397
1996.2495 1203.731 2691.6467 9066294
2004.8774 1199.3513 2681.8535 7816483
2012.2878 1194.3179 2670.5984 7421726
2047.4661 1205.7152 2696.0835 8211242
2043.2344 1193.9077 2669.6809 7948070
2062.1963 1195.7301 2673.7561 8079655
2080.1982 1196.9724 2676.5339 7948070
2122.7202 1212.1982 2710.5801 8408621
2142.2466 1214.162 2714.9714 8013606
2135.2588 1201.1812 2685.9453 8540206
2140.2651 1195.0898 2672.3245 8145449
2146.3264 1189.6727 2660.2112 8079656
2178.1592 1198.515 2679.9834 8408877
2192.6096 1197.7341 2678.2373 7882277
2231.3076 1210.1149 2705.9216 7750434
2243.3054 1207.9415 2701.062 8013607
2266.6887 1211.8865 2709.8831 7553055
2239.7146 1189.0416 2658.8 7948583
2255.9636 1189.3024 2659.3831 7553569
2262.1746 1184.3043 2648.207 8079912
2269.6831 1180.0497 2638.6934 7948328
2275.1348 1174.7913 2626.9351 8211499
2306.5498 1182.9197 2645.1108 8474671
2313.7 1178.5779 2635.4023 7882534
2344.49 1186.2556 2652.5706 8145705
2346.1506 1179.1907 2636.7725 8145706
2345.9067 1171.2682 2619.0571 8211498
2365.4871 1173.2827 2623.5618 7948327
2380.3276 1172.9352 2622.7847 7948328
2396.8591 1173.42 2623.8689 8013608
2411.2534 1172.8591 2622.6147 8079657
2434.2507 1176.4633 2630.6736 7816741
2452.1394 1177.5681 2633.1443 7816742
2490.6553 1188.5022 2657.5938 7882534
2490.2886 1180.8611 2640.5076 7750948
2519.7488 1187.3707 2655.0637 8672051
2532.3457 1185.9022 2651.7803 8408879
0 0 0 0
0 0 0 0
0 0 0 0
0 0 0 0
0 0 0 0
0 0 0 0
0 0 0 0
-2810.54 1424.933 3144.6084 1280
-2789.5264 1423.718 3141.9272 1280
-2770.1619 1423.3341 3141.0798 1280
-2748.9646 1421.9968 3138.1289 1280
-2724.8816 1419.1385 3131.8208 1280
-2705.7544 1418.8396 3131.1614 1280
-2686.436 1418.4355 3130.2698 1280
-2667.7537 1418.3643 3130.1123 1280
-2648.5513 1418.0135 3129.3384 1280
-2630.6677 1418.3689 3130.1223 1280
-2606.7092 1415.4305 3123.6382 1280
-2587.9204 1415.2775 3123.3 1280
-2569.2737 1415.2003 3123.1299 1280
-2550.4739 1415.0372 3122.77 1280
-2509.8755 1402.6892 3095.5198 1280
-2518.3774 1417.802 3128.8716 1280
-2494.6001 1414.8314 3122.3159 1280
-2474.1101 1413.6949 3119.8079 1280
-2445.303 1407.7532 3106.6953 1280
-2426.1794 1407.3384 3105.78 1280
-2414.8481 1411.4718 3114.9016 1280
-2389.7388 1407.5535 3106.2546 1280
-2350.1702 1394.9919 3078.5332 1280
0 0 0 0
0 0 0 0
0 0 0 0
0 0 0 0
0 0 0 0
-2218.8896 1381.4006 3048.5393 1280
-2199.4575 1380.5417 3046.6438 1280
-2182.1326 1381.0023 3047.6602 1280
-2162.7852 1380.1798 3045.845 1280
-2144.0674 1379.7487 3044.8936 1280
-2125.1389 1379.1735 3043.624 1280
-2106.3386 1378.6724 3042.5183 1280
-2089.1826 1379.2483 3043.7893 1280
-2071.1172 1379.2283 3043.7454 1280
-2053.386 1379.4326 3044.1963 1280
-2035.9098 1379.8136 3045.0369 1280
-2018.5914 1380.309 3046.1301 1280
-2001.0016 1380.6262 3046.8303 1280
-1983.6782 1381.1348 3047.9524 1280
-1965.7891 1381.255 3048.2178 1024
-1949.3505 1382.4061 3050.7583 768
-1940.288 1388.8586 3064.998 768
-1925.6749 1391.4226 3070.6562 512
-1917.3632 1398.6318 3086.5659 512
-1896.4655 1396.7108 3082.3264 459776
-1888.0094 1404.0045 3098.4224 656896
-1892.8688 1421.4404 3136.9009 1116930
-1874.2383 1421.4076 3136.8286 985088
-1881.8842 1441.5018 3181.1733 918784
-1855.2297 1435.463 3167.8467 852992
-1833.8168 1433.3977 3163.2888 984576
-1805.2118 1425.6101 3146.1028 852992
-1789.5631 1427.9988 3151.374 1049856
-1774.4745 1430.8892 3157.7527 1181441
-1754.5056 1429.864 3155.4905 1246720
-1729.115 1424.3506 3143.3232 1246720
-1707.1761 1421.5914 3137.2341 1246720
-1687.1783 1420.4056 3134.6174 1312512
-1669.0306 1420.7686 3135.4182 1180928
-1647.6016 1418.3148 3130.0032 1180928
-1632.6688 1421.4611 3136.9465 1246464
-1606.9276 1415.1611 3123.0435 1180928
-1585.8928 1412.9077 3118.0703 1312513
-1567.7944 1413.2477 3118.8208 1246464
-1549.6914 1413.5918 3119.5803 1377793
-1528.1543 1410.774 3113.3618 1246208
-1508.9978 1410.1119 3111.9006 1312001
-1488.8599 1408.5049 3108.3542 1377793
-1476.4987 1414.3069 3121.1582 1246208
-1451.4785 1407.9763 3107.1877 1377792
-1432.0172 1406.9448 3104.9114 1246208
-1408.8744 1402.2222 3094.4893 1246208
-1392.3458 1404.0448 3098.5115 1443073
-1370.1831 1400.1589 3089.9358 1442816
-1348.1833 1396.3364 3081.5002 1376768
-1327.3485 1393.6321 3075.5322 1311232
-1312.3134 1397.0266 3083.0234 1311232
-1286.9264 1389.3413 3066.063 1442560
-1264.8466 1385.0571 3056.6086 1377024
-1247.267 1385.6483 3057.9131 1377024
-1227.0632 1383.2986 3052.7278 1311232
-1206.5067 1380.4747 3046.4961 1442560
-1186.3879 1378.0739 3041.1975 1508609
-1170.215 1380.2527 3046.0059 1574657
-1148.8672 1376.3007 3037.2842 1508864
-1131.33 1376.8604 3038.5195 1443072
-1114.5297 1378.3496 3041.8062 1180416
-1095.389 1376.9458 3038.7083 1246208
-1078.6477 1378.5615 3042.2737 1377792
-1058.0836 1375.2634 3034.9954 1246208
-1039.6061 1374.6104 3033.5542 1509379
-1019.7633 1372.0972 3028.0081 1443586
-998.98615 1368.2145 3019.4395 1509377
-979.58978 1366.1157 3014.8076 1509122
-959.79163 1363.3682 3008.7444 1377537
-942.58185 1364.2631 3010.7192 1443586
-921.6629 1359.7202 3000.6938 1311744
-900.05023 1353.9553 2987.9714 786432
-882.19647 1353.7268 2987.4673 1246208
-864.28082 1353.3923 2986.729 1312000
-842.87634 1347.4661 2973.6509 1378048
-825.07422 1347.1688 2972.9949 1574400
-806.81451 1346.0953 2970.6257 1443072
-788.81354 1345.415 2969.1245 1377280
-769.59436 1342.5785 2962.8647 1311488
-753.80212 1345.7275 2969.8142 1640193
-735.59412 1344.6113 2967.3508 1706242
-714.54077 1338.1119 2953.0078 1443072
-697.45435 1338.9015 2954.7502 1377024
-679.59558 1338.2111 2953.2266 1508608
-661.78461 1337.5806 2951.8352 1442816
-642.98438 1334.8622 2945.8359 1508864
-622.52905 1328.4601 2931.7075 1443072
-605.66925 1329.5835 2934.1868 1443072
-588.40454 1329.8582 2934.793 1311488
-571.8775 1331.8676 2939.2273 1245696
-551.35938 1324.4163 2922.7834 1377280
-533.78143 1323.7732 2921.3643 1443072
-515.07532 1320.1956 2913.469 1508608
-499.81155 1325.4987 2925.1721 1508609
-481.17737 1321.9235 2917.2822 1771525
-463.59473 1321.0784 2915.4172 1772037
-446.48282 1321.5612 2916.4827 1640449
-428.88629 1320.5907 2914.3411 1640449
-411.0271 1318.696 2910.1597 1772035
-394.21411 1320.1389 2913.344 1705985
-376.10178 1317.1635 2906.7776 1837828
-358.0069 1313.9666 2899.7224 2034694
-340.35635 1312.1603 2895.7363 1903108
-323.26974 1312.4517 2896.3794 1771778
-305.6965 1310.6895 2892.4905 1706242
-289.55588 1315.225 2902.4998 1837571
-271.27991 1310.0216 2891.0168 1706242
-253.77226 1308.0774 2886.7261 1311488
-235.60512 1302.2069 2873.7708 1443072
-219.59467 1308.2705 2887.1523 1640449
-202.0031 1305.1432 2880.2507 1639936
-184.69481 1303.4379 2876.4873 1705472
-168.51346 1310.1473 2891.2942 1705730
-150.92952 1306.2366 2882.6638 1968388
-133.86642 1306.4109 2883.0483 1902595
-116.92735 1308.0234 2886.6069 1836802
-100.0603 1311.1322 2893.4675 1836545
-82.408432 1303.1165 2875.7781 1902593
-65.608696 1307.9089 2886.3542 1705472
-48.347794 1303.646 2876.9468 1639680
-31.490734 1311.5597 2894.4109 1902850
-14.275067 1305.6038 2881.2671 1705472
2.8076382 1310.2896 2891.6082 2034179
19.940401 1310.2123 2891.4375 1968643
36.906235 1304.3071 2878.4055 1705472
53.937443 1303.7148 2877.0986 1771264
70.921364 1302.5386 2874.5027 2033410
88.135513 1305.2274 2880.4368 2099202
104.98891 1302.5681 2874.5679 2099459
122.09327 1303.3302 2876.2498 1967873
139.07463 1302.7535 2874.9771 1902081
155.84476 1300.5397 2870.0916 2033666
172.7334 1299.6533 2868.1355 2099459
189.52629 1298.2699 2865.0825 1901824
207.14766 1302.3224 2874.0259 2099457
224.17741 1302.3224 2874.0259 2165250
240.38638 1297.8909 2864.2461 1967872
257.5148 1298.6808 2865.989 2230530
275.98926 1305.741 2881.5701 2296323
292.47012 1303.0963 2875.7336 2361860
308.21744 1297.6543 2863.7239 2230784
327.90323 1308.4969 2887.6519 2427906
342.99561 1300.843 2870.761 2558723
363.70096 1314.1942 2900.2251 2164224
380.59906 1313.2043 2898.0405 2361600
398.18652 1314.5758 2901.0671 2426881
413.75626 1309.4481 2889.751 2426881
431.12689 1310.2008 2891.4121 2624002
448.65076 1311.344 2893.9348 2821638
463.91714 1306.0475 2882.2463 2952965
482.71683 1310.7211 2892.5603 2689793
506.35062 1327.7502 2930.1409 2689793
520.21332 1318.8778 2910.561 2952194
534.3894 1311.344 2893.9348 2951680
551.65796 1311.6313 2894.5691 4134404
565.35632 1303.6686 2876.9966 5646350
589.14276 1318.7535 2910.2866 7158810
597.65302 1299.7582 2868.3669 7684891
614.6203 1299.697 2868.2319 8408870
630.60144 1297.6099 2863.626 8145699
648.45459 1299.3834 2867.5398 8079649
670.38342 1309.0247 2888.8164 8473895
689.17712 1312.2164 2895.8601 8144930
695.80872 1292.6584 2852.699 8671019
712.4729 1292.2246 2851.7415 8999982
728.32117 1290.3652 2847.6382 8999984
741.12305 1283.3152 2832.0796 9066800
762.78961 1291.5872 2850.3347 8606249
777.87506 1288.5989 2843.74 9001007
799.95465 1297.0779 2862.4519 8606249
817.36835 1297.7964 2864.0374 8605993
834.46826 1297.9977 2864.4817 8276774
845.63269 1289.1423 2844.9392 8474408
861.52759 1287.7035 2841.7642 8803115
881.32898 1292.0471 2851.3499 9131823
891.07849 1281.7682 2828.6655 8408100
912.17261 1287.8861 2842.167 8934445
923.49066 1280.2296 2825.2705 8868655
940.01727 1279.938 2824.6267 6565645
954.39996 1276.7885 2817.676 8407591
965.1759 1269.0049 2800.499 7749917
979.84729 1266.5195 2795.0144 7881502
991.25439 1259.9679 2780.5559 8012834
1019.2413 1274.3601 2812.3171 9197618
1033.8488 1271.8302 2806.7339 8408102
1049.7594 1270.9579 2804.8091 8276517
1067.7943 1272.6447 2808.5315 8078881
1073.9459 1260.334 2781.3638 9461304
1081.5145 1250.0333 2758.6318 9395255
1100.9629 1253.5658 2766.4272 8737324
1130.6315 1268.4606 2799.2979 8736811
1131.9171 1251.542 2761.9612 9329204
1151.1527 1254.6699 2768.864 7947550
1170.1337 1257.4364 2774.9692 9131826
1180.6222 1251.1265 2761.0442 8671274
1195.6045 1249.6863 2757.8657 8276517
1215.3496 1253.1958 2765.6108 8079137
1226.4979 1247.8656 2753.8479 9066033
1243.522 1248.5748 2755.4131 8671018
1263.9153 1252.6049 2764.3066 8210212
1278.0127 1250.3721 2759.3792 7684124
1282.9546 1239.3512 2735.0579 8078883
1305.4103 1245.3129 2748.2144 8013090
1334.124 1257.024 2774.0591 8342056
1332.882 1240.569 2737.7454 8736557
1355.5054 1246.4552 2750.7354 7618076
1370.11 1244.9154 2747.3372 8276262
1379.6827 1238.8934 2734.0476 7486490
1401.0176 1243.4506 2744.1045 8473385
1423.8192 1249.1898 2756.7703 8276263
1441.2286 1250.1218 2758.8271 7749661
1441.1766 1236.0568 2727.7876 8473381
1450.3779 1230.152 2714.7566 8210465
1475.6542 1237.8611 2731.7695 8210467
1489.1055 1235.5913 2726.7605 8407846
1505.7911 1236.0251 2727.7178 8868397
1517.7192 1232.5861 2720.1282 8802861
1537.584 1235.5969 2726.7729 8736811
1552.7891 1234.8398 2725.1021 8868397
1561.2762 1228.8109 2711.7971 8539689
1582.9381 1233.1683 2721.4131 8802604
1608.0151 1240.0715 2736.6477 8473639
1628.7438 1243.5173 2744.2517 8473639
1645.861 1244.1646 2745.6802 8276517
1650.6794 1235.5933 2726.7646 8276260
1666.4797 1235.3287 2726.1809 8210468
1684.2023 1236.4803 2728.7224 7881504
1702.0496 1237.701 2731.4163 8473641
1717.1252 1236.9022 2729.6533 8276263
1723.358 1229.8077 2713.9971 8145446
1737.111 1228.1614 2710.3635 8342569
1752.2462 1227.5135 2708.9341 8276262
1754.7734 1218.1252 2688.2156 8407848
1782.2007 1226.0355 2705.6721 8540205
1806.9451 1231.9755 2718.781 7882532
1811.7489 1224.3352 2701.9199 7684897
1832.7231 1227.6604 2709.2583 10053444
1851.0416 1229.1644 2712.5774 8277035
1874.7159 1234.1687 2723.6208 8540207
1856.28 1211.6018 2673.8191 8211240
1869.5592 1209.9421 2670.1567 8737326
1888.9536 1212.2349 2675.2163 8408619
1919.822 1221.7916 2696.3066 8737584
1934.3096 1220.8517 2694.2324 7816481
1944.9414 1217.5137 2686.8657 8605741
1956.6854 1214.9203 2681.1426 8408619
1959.3612 1206.7834 2663.186 8079397
1969.6495 1203.428 2655.7808 8342828
1977.9817 1198.9397 2645.876 8803379
1962.4042 1180.1434 2604.3955 7619105
2012.8613 1201.0425 2650.5164 7948070
2012.9609 1191.8029 2630.126 8342828
2050.8354 1204.8984 2659.0259 8211242
2061.1321 1201.7156 2652.002 7684898
2059.5901 1191.7308 2629.967 7684897
2087.8486 1199.0096 2646.0303 8408364
2106.1826 1200.5231 2649.3704 8408621
2109.0425 1193.2593 2633.3401 8145192
2113.0991 1186.774 2619.0283 7948070
2145.0637 1195.9432 2639.2632 7092249
2173.1082 1202.8098 2654.4165 7815972
2169.7219 1192.3059 2631.2361 7355421
2217.0361 1209.614 2669.4324 7223836
2218.8235 1202.0133 2652.6589 7487519
2208.0466 1187.7611 2621.2065 8079913
2234.6897 1193.6963 2634.3047 7750691
2251.0911 1194.1167 2635.2322 7948326
2266.6409 1194.0823 2635.1565 7356190
2248.8047 1176.5809 2596.5334 8672050
2278.197 1183.8596 2612.5964 8540463
2290.0427 1181.9833 2608.4558 7882533
2320.6924 1189.7728 2625.646 7816740
2314.1042 1178.4945 2600.7566 8540208
2316.2019 1171.7595 2585.8936 8013865
2322.6113 1167.2802 2576.0081 8211500
2330.8916 1163.7932 2568.313 7882534
2368.7964 1175.047 2593.1484 7948327
2394.0803 1179.9354 2603.9363 8014377
2406.3103 1178.3687 2600.4788 8079657
2427.1362 1181.0044 2606.2954 8606001
2422.8789 1171.479 2585.2744 7421471
2445.4141 1174.9463 2592.9263 8343087
2491.3315 1189.5347 2625.1204 8013864
2511.9956 1191.9587 2630.4702 7948327
0 0 0 0
0 0 0 0
0 0 0 0
0 0 0 0
0 0 0 0
0 0 0 0
0 0 0 0
-2764.6729 1420.0076 3093.2896 1280
-2744.24 1418.9197 3090.9197 1280
-2724.6638 1418.2631 3089.4895 1280
-2704.4011 1417.2382 3087.2566 1280
-2681.3223 1414.7131 3081.7563 1280
-2660.1816 1413.1831 3078.4233 1280
-2641.5024 1412.9487 3077.9128 1280
-2618.3389 1410.2955 3072.1333 1280
-2607.4126 1414.2427 3080.7317 1280
-2588.4744 1413.8694 3079.9185 1280
-2564.6116 1410.7816 3073.1921 1280
-2546.8247 1411.016 3073.7026 1280
-2527.5801 1410.4403 3072.4485 1280
-2509.5518 1410.5399 3072.6655 1280
-2489.8062 1409.6686 3070.7676 1280
-2468.5532 1407.9248 3066.969 1280
-2453.438 1409.6818 3070.7961 1280
-2433.5984 1408.7301 3068.7231 1280
-2408.1511 1404.4938 3059.4949 1280
-2389.0981 1403.9507 3058.3118 1280
-2375.4761 1406.615 3064.1157 1280
-2352.2043 1403.5624 3057.4661 1280
-2330.5444 1401.4318 3052.825 1280
0 0 0 0
0 0 0 0
0 0 0 0
0 0 0 0
0 0 0 0
-2171.8215 1369.7783 2983.8721 1280
-2163.272 1375.5846 2996.5203 1280
-2147.1277 1376.6177 2998.7708 1280
-2128.3369 1375.957 2997.3315 1280
-2109.8845 1375.5059 2996.3489 1280
-2094.8057 1377.265 3000.1809 1280
-2075.3967 1376.1832 2997.8242 1280
-2054.8975 1374.3531 2993.8379 1280
-2040.2977 1376.4717 2998.4526 1280
-2020.9236 1375.3779 2996.0701 1280
-2006.2983 1377.5254 3000.748 1280
-1988.7434 1377.6818 3001.0886 1280
-1972.5612 1378.8004 3003.5254 1280
-1956.2004 1379.8136 3005.7324 1024
-1941.4816 1382.014 3010.5259 768
-1926.9615 1384.3982 3015.7195 768
-1906.3715 1382.4253 3011.4216 256
-1895.6388 1387.6306 3022.761 256
-1914.0134 1414.4456 3081.1736 592128
-1867.5155 1393.3749 3035.2739 656896
-1857.1456 1399.1121 3047.7717 787968
-1847.83 1405.7639 3062.2617 919296
-1864.1671 1432.257 3119.9731 984320
-1835.5978 1424.4331 3102.9299 984576
-1808.7626 1417.8102 3088.5029 918528
-1795.063 1421.4536 3096.4397 1049856
-1773.7643 1419.0927 3091.2966 1115649
-1763.4415 1425.5553 3105.3745 1049856
-1738.5536 1420.2557 3093.8301 1050112
-1716.6338 1417.2937 3087.3777 1246720
-1695.6553 1415.0533 3082.4976 1246720
-1676.3535 1414.1787 3080.5923 1246720
-1659.8994 1415.7136 3083.9358 1444099
-1641.8495 1415.9065 3084.356 1115136
-1618.9677 1411.8899 3075.6062 1180928
-1606.5264 1416.9905 3086.7173 1312257
-1576.5663 1406.5787 3064.0366 1509890
-1557.9349 1406.1494 3063.1013 1443842
-1538.5142 1404.9889 3060.5735 1377792
-1518.9758 1403.6921 3057.7488 1312001
-1500.8545 1403.6895 3057.7429 1377793
-1473.5345 1394.9786 3038.7673 1443330
-1459.3058 1398.5985 3046.6528 1312000
-1440.4885 1397.8566 3045.0366 1377792
-1419.0005 1394.4711 3037.6619 1443328
-1396.3652 1389.8568 3027.6104 1246208
-1380.8334 1392.2848 3032.8992 1114624
-1360.6219 1389.9962 3027.9138 1245952
-1342.7382 1390.0559 3028.0439 1443329
-1324.167 1389.3962 3026.6069 1246208
-1302.5895 1385.5205 3018.1643 1180672
-1283.8785 1384.6285 3016.2212 1443329
-1262.459 1380.7489 3007.77 1771781
-1240.5029 1376.1631 2997.7803 1508353
-1221.1224 1374.3425 2993.8147 1377024
-1200.3896 1370.9242 2986.3684 1311232
-1181.3812 1369.4021 2983.0527 1311232
-1163.11 1368.7014 2981.5264 1377024
-1143.0062 1365.7896 2975.1831 1311232
-1123.879 1363.9713 2971.2224 1377024
-1107.3198 1365.2617 2974.0334 1311232
-1090.1135 1365.783 2975.1687 1245952
-1077.9364 1372.7257 2990.2927 1246208
-1054.6532 1365.5212 2974.5986 1180160
-1036.8818 1365.3293 2974.1807 1311744
-1014.6615 1359.1714 2960.7664 1246208
-997.16974 1359.2422 2960.9207 1377793
-978.23242 1357.3098 2956.7112 1377793
-959.81915 1356.0474 2953.9612 1443586
-941.60132 1355.0193 2951.7214 1443330
-925.48163 1357.0287 2956.0989 1509379
-906.70789 1355.1492 2952.0044 1377793
-888.41711 1353.9314 2949.3518 983040
-864.58221 1344.0463 2927.8184 1048832
-845.76184 1341.7113 2922.7319 1311488
-829.71686 1343.7737 2927.2246 1048576
-809.97437 1339.8079 2918.5854 1311744
-792.2937 1339.1538 2917.1609 1377280
-774.24457 1337.8341 2914.2861 1706241
-754.86481 1334.1025 2906.1575 1772035
-740.27686 1338.863 2916.5276 1772035
-721.92737 1336.8855 2912.2197 1574656
-703.2558 1334.2001 2906.3699 1640192
-685.12152 1332.4248 2902.5027 1443072
-667.76117 1332.1019 2901.7993 1508864
-647.77844 1326.3923 2889.3618 1508864
-629.71954 1324.4191 2885.0632 1508608
-610.86987 1320.626 2876.8005 1508864
-594.72137 1322.6224 2881.1497 1640192
-578.69849 1325.0244 2886.3818 1640449
-559.86414 1320.9395 2877.4834 1640449
-544.41351 1324.8322 2885.9631 1508864
-526.32703 1322.3549 2880.5667 1574656
-506.04883 1314.0205 2862.4114 1508864
-489.16156 1314.2185 2862.8428 1508864
-473.08517 1316.6875 2868.2209 1442817
-454.98511 1313.4982 2861.2737 1311488
-439.03583 1316.5116 2867.8379 1377024
-420.4921 1311.6747 2857.3013 1706242
-403.1561 1310.3571 2854.4312 1772035
-385.2207 1306.8909 2846.8804 1706242
-368.69009 1308.0911 2849.4951 1772035
-351.29913 1306.2075 2845.3918 1706242
-333.97867 1304.4094 2841.4751 1574657
-316.92929 1303.5355 2839.5713 1508864
-299.51813 1300.9921 2834.0308 1706242
-283.31406 1303.7009 2839.9316 1640449
-265.50128 1298.882 2829.4343 1640449
-250.66928 1308.9788 2851.4287 1640448
-231.98352 1298.9565 2829.5967 1311488
-214.91725 1297.1472 2825.6553 1508864
-197.91814 1295.4718 2822.0056 1706242
-181.89891 1300.4928 2832.9431 1903108
-165.26483 1301.6919 2835.5554 1903364
-147.78645 1295.76 2822.6333 2099717
-131.52803 1300.3751 2832.6868 1902595
-114.37763 1296.2319 2823.6616 1836802
-98.076103 1301.9374 2836.0901 1902595
-81.138901 1299.8191 2831.4758 1837058
-64.385162 1300.3016 2832.5269 1573888
-47.753567 1304.4608 2841.5872 1836802
-30.783573 1298.8724 2829.4133 1771008
-14.015405 1298.6169 2828.8569 1837057
2.7469215 1298.7174 2829.0757 1771265
19.543184 1300.9042 2833.8394 2034436
36.269066 1298.55 2828.7112 1968643
53.177235 1302.1476 2836.5479 1771264
69.860603 1299.8347 2831.5095 1771264
86.313789 1294.9639 2820.8994 1902850
102.59947 1289.5682 2809.1458 1837057
119.26737 1289.8126 2809.678 2033922
135.63579 1287.1549 2803.8884 1902337
152.35593 1288.0508 2805.8401 2099459
168.83725 1286.9501 2803.4424 1968129
185.96198 1290.5116 2811.2004 1901824
202.55763 1290.1177 2810.3425 2099203
218.43083 1285.5319 2800.353 2099460
235.57619 1288.552 2806.9319 2296580
253.65593 1295.9475 2823.042 2296836
270.12793 1294.7222 2820.3728 2428422
286.07883 1291.2875 2812.8906 2231043
302.74609 1291.2866 2812.8887 2099201
318.6908 1288.3645 2806.5234 2230530
338.79938 1301.7306 2835.6396 2098945
353.30481 1293.3226 2817.324 1901568
372.23322 1301.1338 2834.3394 2230531
385.2749 1288.5818 2806.9968 2295809
403.15503 1292.5815 2815.7097 2295809
421.4585 1297.5669 2826.5696 2295809
436.30112 1291.9232 2814.2756 2427395
454.06885 1295.0378 2821.0603 2558722
472.41772 1299.5298 2830.8455 2756100
490.535 1303.0985 2838.6194 2755588
502.24579 1289.976 2810.0337 2755330
523.9325 1302.4957 2837.3064 2886659
539.0462 1298.4047 2828.3945 3083010
556.23779 1299.4143 2830.5938 3542529
579.3172 1313.7167 2861.7498 5843476
592.04407 1304.3969 2841.4475 7026969
608.82751 1304.2827 2841.199 7947810
626.41687 1305.8549 2844.6235 8211238
641.58508 1302.4293 2837.1619 8079906
658.2951 1302.2291 2836.7256 8605222
672.63763 1297.472 2826.3628 8671272
685.49408 1290.1489 2810.4106 8736809
701.73694 1289.3958 2808.7698 7947549
716.97858 1286.8802 2803.2903 8605225
734.64545 1288.7333 2807.3267 8540200
745.37317 1278.6007 2785.2544 8540199
766.39044 1286.1754 2801.7549 8605994
781.51337 1283.7467 2796.4641 8540201
800.11438 1287.0133 2803.5801 8671275
816.19952 1286.1826 2801.7703 7947551
826.05756 1275.7678 2779.0833 7750172
837.82373 1268.6493 2763.5767 8868653
864.64783 1284.1678 2797.3816 8934444
876.23175 1276.8936 2781.5356 8539430
888.32452 1270.6161 2767.8608 8736808
904.8537 1270.7965 2768.2539 8671789
918.53735 1267.0452 2760.0823 8737582
936.90485 1269.7734 2766.0251 8079654
948.38434 1263.2328 2751.7776 7553054
962.64917 1260.5608 2745.9568 8144933
980.40613 1262.4745 2750.1255 8210212
994.35339 1259.4999 2743.646 8868143
1001.4107 1248.0343 2718.6697 8342056
1026.9475 1259.5977 2743.8586 8539435
1041.2637 1257.2526 2738.7502 8868397
1056.0679 1255.5596 2735.0623 8803374
1075.3113 1259.1156 2742.8088 8802860
1092.3011 1259.9666 2744.6624 8802861
1104.6869 1255.5596 2735.0623 8013088
1118.6643 1253.0629 2729.6235 8407591
1128.9991 1246.6152 2715.5784 8407847
1149.8037 1251.7468 2726.7568 8736811
1163.639 1249.2542 2721.3269 8671276
1179.6917 1249.1775 2721.1599 8605227
1196.8217 1250.2285 2723.4495 8276263
1216.6451 1254.0276 2731.7253 8736557
1235.1049 1256.3398 2736.7622 8539435
1250.5063 1255.5217 2734.98 8342054
1260.1028 1248.9707 2720.7095 7684124
1265.2092 1238.191 2697.2275 7749662
1276.6627 1233.8145 2687.6936 8144421
1301.5731 1242.3905 2706.3755 8408104
1325.0403 1249.3973 2721.6387 8670764
1318.683 1228.4515 2676.0115 7223575
1344.3684 1237.4991 2695.7202 7618075
1358.97 1236.2513 2693.0022 7618076
1371.8184 1233.4562 2686.9133 7157781
1389.843 1235.3259 2690.9863 8012834
1402.4247 1232.3702 2684.5479 8407592
1410.9528 1225.9589 2670.5813 8276262
1418.9944 1219.2716 2656.0139 8802861
1439.7806 1223.5618 2665.3596 8934446
1455.4277 1223.4388 2665.0918 8276260
1468.896 1221.5067 2660.8831 9263155
1478.9835 1216.8341 2650.7043 8342310
1505.8468 1225.9169 2670.49 8802603
1521.217 1225.5515 2669.6941 8671021
1542.7838 1230.1344 2679.6772 8736557
1551.9183 1224.8121 2668.0835 8473642
1566.0385 1223.4924 2665.2085 8407848
1591.2698 1230.793 2681.1118 8144677
1609.3654 1232.4846 2684.7969 7881761
1624.6997 1232.0493 2683.8486 8078884
1627.812 1222.444 2662.9246 8276263
1657.5841 1232.8516 2685.5962 8408362
1673.6987 1233 2685.9194 8013860
1683.1957 1228.3162 2675.7166 7815968
1702.0127 1230.4579 2680.3818 8408105
1705.8284 1221.8149 2661.5544 8341799
1730.7 1228.2737 2675.624 7947041
1735.5958 1220.5674 2658.8367 8605741
1736.234 1210.0322 2635.8872 8079653
1773.3457 1224.8777 2668.2263 8474155
1794.3676 1228.4456 2675.9983 7750689
1809.4838 1227.9434 2674.9043 8145447
1763.9202 1186.6292 2584.907 8408620
1792.7295 1195.6279 2604.5095 8211242
1842.5951 1218.3962 2654.1072 8013607
1859.1621 1218.9471 2655.3074 8079399
1858.3633 1208.1986 2631.8931 8868916
1884.5396 1215.0206 2646.7539 7750691
1907.9056 1219.9332 2657.4553 7816484
1905.564 1208.4623 2632.4673 8145449
1919.8595 1207.6427 2630.6821 8145192
1921.0361 1198.6506 2611.094 8474414
1943.5795 1203.0278 2620.6292 8605743
1956.8604 1201.6477 2617.6228 8145449
1956.488 1191.9712 2596.5439 8145192
1982.4342 1198.355 2610.4502 8277034
2011.2969 1206.3892 2627.9514 7684641
2015.134 1199.405 2612.7373 7750434
2022.4757 1194.5969 2602.2637 7816484
2044.4535 1198.4414 2610.6384 8079656
2074.6794 1207.0269 2629.3406 7816227
2065.8284 1192.9189 2598.6086 7619105
2056.6506 1178.8328 2567.9238 7947813
2083.6794 1185.554 2582.5649 7618848
2078.6772 1174.0853 2557.582 7750691
2100.4983 1177.8232 2565.7246 7487776
2124.4863 1182.7141 2576.3787 8277293
2146.9116 1186.6713 2584.9988 8079913
2148.2373 1178.9924 2568.2715 7421727
2171.3896 1183.3163 2577.6904 8342572
2206.7725 1194.1982 2601.3953 8013607
2223.21 1194.748 2602.593 7487262
2242.3354 1196.725 2606.8994 7026713
2233.0364 1183.6086 2578.3271 7618592
2252.0437 1185.5719 2582.604 7026712
2264.8477 1184.2653 2579.7576 7882534
2281.4551 1184.9514 2581.2524 7816741
2286.0647 1179.4387 2569.2437 8408621
2292.9944 1175.1877 2559.9836 8145706
2309.5964 1175.9175 2561.5732 8540207
2321.7737 1174.3995 2558.2666 8079913
2338.2075 1175.0403 2559.6624 8408878
2349.2156 1172.9637 2555.1389 8935222
2367.5254 1174.5361 2558.5642 8671794
2400.8254 1183.478 2578.0427 8408622
2419.5286 1185.1567 2581.6997 8079916
2413.9102 1174.9757 2559.5217 7685157
2452.573 1186.3414 2584.2803 8671796
2456.8174 1181.0206 2572.6897 7948330
0 0 0 0
0 0 0 0
0 0 0 0
0 0 0 0
0 0 0 0
0 0 0 0
0 0 0 0
-2708.5986 1409.1636 3030.55 1280
-2702.3608 1415.3014 3043.75 1280
-2683.6194 1414.9292 3042.9495 1280
-2664.0146 1414.0936 3041.1526 1280
-2641.4319 1411.6552 3035.9084 1280
-2617.9729 1408.7118 3029.5786 1280
-2602.7886 1410.2111 3032.8027 1280
-2584.5271 1410.0524 3032.4614 1280
-2545.262 1398.3522 3007.2991 1280
-2547.363 1409.3737 3031.0017 1280
-2523.8149 1406.2598 3024.3052 1280
-2508.0312 1407.4587 3026.8838 1280
-2478.8884 1401.1241 3013.2605 1280
-2469.3027 1405.8319 3023.385 1280
-2448.5256 1404.1904 3019.855 1280
-2433.7029 1405.9646 3023.6704 1280
-2413.7166 1404.76 3021.0798 1280
-2393.8516 1403.6085 3018.6033 1280
-2365.2341 1397.269 3004.9697 1280
-2347.9761 1397.5951 3005.6709 1280
-2331.9482 1398.6639 3007.9695 1280
-2311.2183 1396.9071 3004.1914 1280
-2291.0659 1395.475 3001.1113 1280
0 0 0 0
0 0 0 0
0 0 0 0
0 0 0 0
0 0 0 0
0 0 0 0
-2133.5259 1374.181 2955.3164 1280
-2115.8723 1374.0887 2955.1182 1280
-2096.6108 1372.942 2952.6519 1280
-2083.7881 1376.0277 2959.2881 1280
-2064.1924 1374.6554 2956.3367 1280
-2045.2438 1373.6942 2954.2695 1280
-2026.5525 1372.8906 2952.5415 1280
-2012.4867 1375.234 2957.5811 1024
-1995.2068 1375.4028 2957.9441 1024
-1979.7424 1376.8374 2961.0293 768
-1962.903 1377.3325 2962.0942 768
-1946.0515 1377.8284 2963.1604 512
-1932.012 1380.3422 2968.5667 512
-1917.8534 1382.8162 2973.8872 512
-1897.9 1381.1191 2970.2378 512
-1882.9938 1383.0977 2974.4927 328960
-1898.9486 1407.9958 3028.0388 657666
-1861.0452 1393.0543 2995.9055 722944
-1853.7113 1400.9277 3012.8381 788736
-1842.4712 1405.9735 3023.6895 853504
-1828.1216 1408.722 3029.6006 919296
-1814.4152 1412.0258 3036.7056 1050368
-1796.8221 1412.3407 3037.3828 918784
-1776.3925 1410.4098 3033.2302 918528
-1759.035 1410.9037 3034.2922 984064
-1738.9028 1409.1591 3030.5403 1115648
-1719.1785 1407.712 3027.4285 1115392
