# .PCD v0.7 - Point Cloud Data file format
VERSION 0.7
FIELDS x y z rgb
SIZE 4 4 4 4
TYPE F F F U
COUNT 1 1 1 1
WIDTH 1330
HEIGHT 1
VIEWPOINT 0 0 0 1 0 0 0
POINTS 1330
DATA ascii
-869.00275 1115.0042 2227.6094 1280
-854.37988 1113.1497 2223.9043 1280
-838.49017 1109.5607 2216.7341 1280
-822.26532 1105.4069 2208.4353 1024
-806.27924 1101.4449 2200.52 1280
-1225.4003 1701.5159 3399.3708 1280
-1203.4951 1699.0278 3394.3999 1280
-747.55951 1073.3004 2144.2915 1280
-733.51843 1071.3502 2140.3953 1280
-1141.3591 1696.3579 3389.0659 1280
-1110.0594 1679.3862 3355.1589 1280
-1100.5452 1695.3551 3387.0627 1280
-1079.5669 1693.9296 3384.2144 1280
-664.66821 1062.6581 2123.0298 1280
-1037.6177 1690.9254 3378.2126 1280
-1017.033 1689.9823 3376.3286 1280
-986.81506 1672.6733 3341.7476 1280
-613.9787 1062.0175 2121.75 1280
-600.86401 1061.0596 2119.8362 1280
-588.41028 1061.2529 2120.2224 1280
-583.16797 1074.7448 2147.1772 1024
-574.0235 1081.4867 2160.6465 1024
-561.76526 1082.5358 2162.7424 768
-554.19061 1092.8701 2183.3889 768
-544.58801 1099.6038 2196.8416 768
-536.68372 1110.1802 2217.9717 768
-520.87152 1104.5187 2206.6609 768
-513.64893 1117.2491 2232.0945 1024
-502.46951 1121.8185 2241.2234 1024
-498.0813 1142.2097 2281.9619 1024
-703.435 1658.1448 3312.7219 1024
-688.42267 1669.3402 3335.0886 1024
-668.31403 1668.4742 3333.3584 1024
-646.534 1663.2556 3322.9326 1024
-623.22711 1653.658 3303.7578 1024
-607.27283 1663.5796 3323.5798 1024
-406.6756 1151.3973 2300.3174 1024
-561.78735 1645.7147 3287.8884 1024
-369.80243 1122.2264 2242.0383 1024
-353.31555 1112.1476 2221.9023 1280
-339.38577 1109.6493 2216.9111 1280
-325.62186 1107.5139 2212.645 1280
-313.04034 1109.3896 2216.3923 1280
-297.99915 1102.3312 2202.2905 1280
-284.94971 1102.3312 2202.2905 1024
-266.82443 1081.7529 2161.1785 1024
-375.65454 1599.7468 3196.0515 1024
-357.91727 1605.1311 3206.8086 1024
-337.87143 1600.1857 3196.9282 1024
-319.83725 1604.746 3206.0393 768
-299.67075 1598.5079 3193.5767 768
-281.60739 1603.4038 3203.3579 768
-261.66556 1597.5388 3191.6404 66048
-241.97488 1592.4128 3181.3994 196864
-223.12383 1592.4128 3181.3994 459264
-203.61722 1587.3025 3171.1899 919040
-184.0136 1580.3202 3157.2402 1246720
-165.00484 1577.4441 3151.4941 1312512
-146.33549 1577.4928 3151.5916 1049344
-127.36307 1573.8108 3144.2354 1049344
-108.63172 1572.3562 3141.3293 1312512
-89.879128 1569.9292 3136.4805 1443328
-71.052917 1564.6155 3125.8645 1443072
-52.342937 1559.0167 3114.679 1639936
-34.012417 1564.7767 3126.1868 1771522
-15.490235 1564.9513 3126.5356 1639936
3.0365839 1565.3846 3127.4011 1574144
21.55686 1564.5984 3125.8306 1508352
40.086044 1564.8867 3126.4065 1508352
58.52264 1562.5206 3121.6792 1705473
77.01767 1562.4766 3121.5913 1639936
95.492432 1562.1179 3120.8748 1508352
113.86444 1560.4674 3117.5774 1639680
132.51523 1562.5652 3121.7683 1771265
150.84612 1560.8387 3118.3193 1639680
169.4126 1561.661 3119.9619 1705216
186.30196 1548.3826 3093.4336 1902595
205.34334 1553.7666 3104.1899 1639168
223.2438 1550.342 3097.3484 1639424
240.79443 1545.193 3087.0613 1968131
257.66818 1536.734 3070.1616 1902595
276.34204 1539.4187 3075.5251 1836802
294.38196 1538.4583 3073.6062 1968387
311.17258 1531.4611 3059.627 1771009
330.08395 1535.0972 3066.8914 1573376
348.30511 1535.3113 3067.3191 1507840
365.9473 1533.0787 3062.8589 1573632
383.50607 1530.7242 3058.155 1705474
400.19724 1525.2754 3047.269 1573632
418.25351 1525.2754 3047.269 1442048
436.30652 1525.2639 3047.2461 1705216
452.73703 1519.8066 3036.3433 1639424
470.30603 1518.4424 3033.6177 1442048
486.96951 1514.3627 3025.467 1639424
505.16516 1515.1681 3027.0762 1705216
522.5354 1513.5276 3023.7986 1573632
539.22693 1510.0952 3016.9412 1573632
556.67804 1508.9419 3014.637 1967362
573.51001 1506.2343 3009.2275 1638656
588.6731 1499.4388 2995.6514 1441792
604.69507 1495.165 2987.113 1638656
622.09857 1494.453 2985.6907 1836032
637.81299 1489.8352 2976.4648 1573120
654.88147 1488.5436 2973.8843 1638656
670.95349 1485.1139 2967.0325 1638656
687.07507 1481.9663 2960.7441 1901825
703.80005 1480.2445 2957.3042 1638656
720.33093 1478.2081 2953.2358 1441792
736.53192 1475.6074 2948.04 1704448
748.06226 1463.9867 2924.8235 1967618
767.93726 1468.8531 2934.5459 1901825
781.88635 1462.4203 2921.6941 1967618
800.87238 1465.4832 2927.8132 1704448
817.90143 1464.911 2926.6702 1836032
833.30475 1461.5115 2919.8784 1770240
850.59924 1461.4995 2919.8545 1704448
864.9978 1456.6115 2910.0889 1770240
881.14655 1454.804 2906.4778 1901825
895.89886 1450.8046 2898.4875 1836802
909.07855 1444.4568 2885.8057 1311232
925.56848 1443.5061 2883.9062 1310720
943.55615 1444.8832 2886.6575 1442048
960.53497 1444.6941 2886.2798 1442304
976.92548 1443.6422 2884.1782 1441792
991.33215 1439.7452 2876.3926 1572864
1000.4308 1428.4012 2853.729 1967873
1022.5009 1435.647 2868.2051 1967874
1039.4805 1435.6252 2868.1616 1902080
1051.6996 1429.1355 2855.196 1639168
1067.1042 1427.1113 2851.1521 1770240
1077.8444 1419.0093 2834.9653 1770240
1092.4706 1416.1935 2829.3398 1572864
1106.5594 1412.7769 2822.5139 1572864
1121.2251 1410.1873 2817.3403 1507328
1133.9886 1405.3167 2807.6096 1179648
1150.6249 1405.3167 2807.6096 1376256
1164.9369 1402.5184 2802.0193 1376256
1178.0997 1398.4348 2793.8606 1638656
1193.9878 1397.6544 2792.3015 1770496
1206.7256 1393.2581 2783.5183 1835520
1221.4834 1391.2811 2779.5688 1967360
1235.038 1388.0046 2773.0227 1835776
1248.3289 1384.5216 2766.0642 1769984
1271.5366 1391.9851 2780.9753 1967360
1286.9373 1390.8203 2778.6482 1967360
1294.8811 1381.7281 2760.4834 2033153
1316.7239 1387.5088 2772.0322 2164739
1333.4526 1387.8246 2772.6631 2098946
1345.7209 1383.5468 2764.1167 1966848
1364.0656 1385.5438 2768.1064 1835008
1371.4264 1376.4694 2749.9771 2295556
1389.4025 1378.137 2753.3086 2427142
1402.1254 1374.6158 2746.2742 2032385
1427.5859 1383.52 2764.0632 1966336
1439.5549 1379.2955 2755.6233 1835008
1456.1848 1379.5813 2756.1943 2229762
1478.7628 1385.4336 2767.8862 2229505
1500.8959 1390.7451 2778.4978 2163969
1518.1343 1391.455 2779.9163 2427142
1530.5892 1387.8127 2772.6394 2361348
1549.6599 1390.1825 2777.3738 2098176
1565.9009 1389.9906 2776.9905 2098176
1582.7913 1390.3734 2777.7551 1900800
1586.7435 1379.4996 2756.0312 1769728
1604.3042 1380.5582 2758.146 2163970
1616.4152 1376.9531 2750.9436 2230016
1630.3615 1374.9677 2746.9771 2229760
1647.0071 1375.2755 2747.592 2295040
1656.1405 1369.366 2735.7856 2295297
1667.3857 1365.3002 2727.6628 2032384
1676.0226 1359.1973 2715.47 2229505
1702.4135 1367.4712 2732.0002 2492675
1716.4758 1365.7797 2728.6208 2558209
1735.5635 1368.0811 2733.2185 2755331
1751.7589 1368.0811 2733.2185 2952197
1763.6694 1364.7654 2726.5942 3083783
1775.4694 1361.425 2719.9207 2952197
1778.9138 1351.7954 2700.6824 2951941
1798.3197 1354.3585 2705.803 2952197
1824.2104 1361.7169 2720.5039 2886404
1827.1294 1351.9491 2700.9893 2754818
1856.6157 1361.8381 2720.7461 2689025
1868.0758 1358.4484 2713.9739 2952196
1870.9341 1348.9147 2694.927 2689024
1900.7175 1358.7908 2714.658 2491648
1909.6925 1353.7502 2704.5876 3215369
1909.6826 1342.4774 2682.0664 2820612
1934.6375 1348.7957 2694.6892 2951939
1944.9573 1344.8907 2686.8877 2820096
1955.1959 1340.9934 2679.1016 3477511
1972.9286 1342.2576 2681.627 3345156
1991.7872 1344.2612 2685.6301 3345154
1998.8793 1338.3547 2673.8298 3542532
2000.4626 1328.8821 2654.9048 3804931
2027.7357 1336.4893 2670.1028 3935233
2046.7563 1338.5814 2674.2827 5184780
2056.1914 1334.4207 2665.9702 6499607
2075.9436 1336.9681 2671.0596 6564367
2082.9656 1331.3401 2659.8157 7353623
2088.7185 1324.9918 2647.1328 8340257
2097.7722 1320.8164 2638.7908 8669219
2127.1719 1329.4182 2655.9761 9063721
2144.6538 1330.5004 2658.1379 9326892
2156.9099 1328.3484 2653.8386 8997928
2164.4182 1323.3247 2643.802 9196077
2176.1433 1320.9327 2639.0234 9525042
2174.8643 1310.7377 2618.655 8866854
2177.9167 1303.2791 2603.7539 9393198
2201.2031 1307.9484 2613.0825 9327405
2207.5208 1302.5399 2602.2773 9130283
2252.0522 1319.5983 2636.3572 9524785
2254.1172 1311.7095 2620.5967 9721907
2270.3638 1312.1248 2621.4263 9327149
2284.9133 1311.5602 2620.2986 9590834
2292.2131 1306.8699 2610.928 9656370
2332.6975 1321.0354 2639.2285 8340768
2353.498 1323.9393 2645.03 9130027
2323.0886 1298.1876 2593.582 9590578
2326.2952 1291.4362 2580.0938 9195820
2358.4441 1300.7354 2598.6721 8669476
2371.8086 1299.621 2596.4458 8603170
2360.0696 1284.8545 2566.9443 8669732
2374.446 1284.4033 2566.0432 9064233
2375.2317 1276.6532 2550.5596 9327662
2383.1602 1272.816 2542.8936 8998954
2413.3306 1280.8315 2558.9072 9656628
2407.738 1269.8849 2537.0376 9195820
2409.054 1262.6952 2522.6736 9722420
0 0 0 0
0 0 0 0
0 0 0 0
0 0 0 0
0 0 0 0
0 0 0 0
0 0 0 0
0 0 0 0
0 0 0 0
-2858.3616 1641.4948 3241.0894 1280
-2306.6965 1333.6459 2633.2498 1280
-2282.4648 1328.6233 2623.3328 1280
-2259.0059 1323.9845 2614.1736 1280
-2255.833 1331.2533 2628.5256 1280
-2770.2375 1646.189 3250.3579 1280
-2213.5159 1324.5712 2615.3318 1280
-2194.0139 1322.1573 2610.5659 1280
-2184.0244 1325.4827 2617.1318 1280
-2169.4209 1326.0354 2618.2229 1280
-2152.9841 1325.4673 2617.1013 1280
-2135.4712 1324.2236 2614.6458 1280
-2120.8391 1324.7612 2615.7073 1280
-2105.061 1324.5858 2615.3608 1280
-2074.2529 1314.8799 2596.1968 1280
-2069.3071 1321.5459 2609.3586 1280
-2050.4163 1319.3392 2605.0017 1280
-2031.5433 1317.1108 2600.6018 1280
-2014.5786 1316.0948 2598.5957 1280
-1993.952 1312.6526 2591.7991 1024
-1975.4885 1310.592 2587.7305 1024
-1956.8683 1308.3943 2583.3911 1024
-1937.9409 1305.9551 2578.575 1024
-1914.7468 1300.5789 2567.9597 1024
-1898.5413 1299.9014 2566.6221 1024
-1874.8688 1294.0592 2555.0869 1024
-1854.1354 1290.1671 2547.4021 1024
-1825.3973 1280.5956 2528.5032 1024
-1810.318 1280.5269 2528.3677 1024
-1787.4629 1274.9111 2517.2795 1024
-1758.8174 1265.036 2497.7812 1024
-1748.4092 1268.2219 2504.0718 1024
-1725.8129 1262.546 2492.8647 1024
-1704.2534 1257.5371 2482.9749 1024
-1680.6448 1250.9156 2469.9011 1024
-1660.7034 1246.9315 2462.0344 1024
-1643.3754 1244.8563 2457.937 1024
-1622.2086 1239.8104 2447.9739 1024
-1602.4498 1235.7589 2439.9744 1024
-1583.8531 1232.5381 2433.615 1024
-1566.1788 1229.9824 2428.5688 1024
-1545.9252 1225.335 2419.3926 1024
-1526.4933 1221.2581 2411.3428 1024
-1507.6221 1217.5566 2404.0347 1280
-1489.0438 1214.0237 2397.0588 1024
-1474.7699 1213.9657 2396.9443 1024
-1448.2046 1203.6906 2376.6562 1280
-1436.1576 1205.3992 2380.0298 1280
-1413.5813 1198.2164 2365.8479 1280
-1396.5818 1195.6644 2360.8088 1024
-1377.5564 1191.3086 2352.2085 1024
-1354.7306 1183.5438 2336.877 1024
-1337.3368 1180.4131 2330.6956 1024
-1320.499 1177.713 2325.3643 1024
-1299.616 1171.3099 2312.7217 1024
-1291.92 1176.7825 2323.5271 1024
-1271.6704 1170.8148 2311.7439 768
-1257.4005 1170.2825 2310.6929 768
-1240.6765 1167.4293 2305.0593 768
-1226.3096 1166.7551 2303.7283 1024
-1211.2788 1165.4271 2301.1062 1024
-1193.1107 1161.0161 2292.3965 768
-1178.2874 1159.7955 2289.9866 1024
-1164.4205 1159.499 2289.4011 1024
-1149.6525 1158.2875 2287.009 768
-1137.3021 1159.5121 2289.427 768
-1122.8065 1158.5526 2287.5327 768
-1106.2704 1155.4386 2281.384 768
-1092.0319 1154.6768 2279.8799 512
-1080.3505 1156.6338 2283.7439 1280
-1064.6332 1154.2645 2279.0659 1280
-1050.4354 1153.5031 2277.5625 1280
-1033.8223 1150.035 2270.7148 1280
-1020.8507 1150.5797 2271.7903 1280
-1006.7063 1149.7994 2270.2498 1280
-990.93335 1147.1128 2264.9451 1280
-975.92944 1145.255 2261.2769 1280
-959.77533 1141.9769 2254.8042 1280
-937.31384 1130.9954 2233.1216 1280
-928.23987 1136.0846 2243.1702 1280
-910.32416 1130.343 2231.8335 1280
-894.13617 1126.6091 2224.4609 1280
-875.91675 1120.1654 2211.738 1280
-860.22131 1116.803 2205.0989 1280
-844.89209 1113.8195 2199.208 1280
-827.21606 1107.6003 2186.9285 1280
-811.96582 1104.4828 2180.7732 1024
-796.00446 1100.2816 2172.478 1280
-776.51758 1090.989 2154.1299 1280
-1170.3628 1671.813 3300.9519 1280
-744.52679 1081.6005 2135.5925 1280
-730.55713 1079.6565 2131.7542 1280
-711.74817 1070.3665 2113.4114 1280
-698.60785 1069.4211 2111.5449 1280
-1079.2268 1682.1959 3321.4529 1280
-1058.9041 1681.177 3319.4409 1280
-1038.3302 1679.7133 3316.5508 1280
-1018.6518 1679.6693 3316.4644 1280
-998.40045 1678.6608 3314.4727 1280
-978.2865 1677.847 3312.8662 1280
-957.32343 1675.5142 3308.2598 1280
-598.63745 1069.6421 2111.981 1280
-587.01697 1071.2733 2115.2017 1280
-580.54218 1082.5713 2137.5093 1024
-572.62665 1091.6266 2155.3887 1024
-559.19183 1090.3331 2152.835 1024
-554.17706 1105.7805 2183.3354 768
-547.10974 1117.7728 2207.0139 768
-545.37097 1141.5056 2253.8738 1024
-516.71667 1108.6794 2189.0591 1024
-516.50366 1136.7582 2244.5 1024
-508.55981 1148.8569 2268.3887 1024
-497.23529 1153.7683 2278.0859 1024
-697.64111 1663.955 3285.4368 1024
-670.4884 1645.0989 3248.2056 1024
-657.40472 1660.6677 3278.946 1024
-637.59052 1659.6652 3276.9666 1024
-617.4342 1657.6813 3273.0493 1024
-596.58197 1653.6396 3265.0691 1024
-569.93921 1632.7385 3223.8005 1024
-554.95227 1644.937 3247.886 1024
-531.43597 1631.8217 3221.9902 1280
-358.60059 1142.1461 2255.1384 1280
-343.70538 1137.0759 2245.1274 1280
-328.72726 1131.3119 2233.7466 1280
-313.28397 1123.3964 2218.1174 1280
-300.30267 1124.0024 2219.3142 1024
-286.97369 1123.3032 2217.9336 1024
-392.78928 1611.2878 3181.4465 1024
-371.72638 1601.7583 3162.6309 1024
-353.50378 1604.1055 3167.2654 1024
-334.5018 1602.981 3165.0449 1024
-315.20682 1600.2355 3159.624 768
-295.89911 1597.0745 3153.3826 768
-277.24036 1597.2258 3153.6816 768
-258.21054 1595.1072 3149.4983 768
-237.88208 1584.0107 3127.5886 196608
-216.68367 1564.7571 3089.573 591616
-198.75674 1567.7548 3095.4917 984576
-181.01907 1573.0066 3105.8611 1180672
-161.82684 1565.3767 3090.7964 1115136
-143.5067 1565.3119 3090.6685 1115136
-125.22109 1565.6602 3091.356 1246720
-106.38112 1558.0087 3076.248 1246208
-88.077316 1556.6689 3073.603 1312000
-69.922745 1557.9558 3076.144 1508864
-51.734833 1559.1458 3078.4934 1969414
-33.334919 1551.7627 3063.9158 1705985
-15.147762 1548.4684 3057.4111 1902852
2.9777298 1553.2168 3066.7869 1508352
21.117783 1550.8748 3062.1626 1574144
39.395859 1556.1492 3072.5769 1771522
57.438656 1551.7335 3063.8582 1705472
75.619942 1552.2815 3064.9402 1574144
93.703644 1551.002 3062.4138 1574144
112.27686 1556.9258 3074.1101 1574400
130.53773 1557.4692 3075.1831 1771008
148.66736 1556.505 3073.2795 1573888
166.80824 1555.8566 3071.999 1836802
184.75429 1553.6971 3067.7354 1705217
202.3604 1549.322 3059.0967 1705216
220.53218 1549.641 3059.7266 1770753
237.77826 1543.901 3048.3931 1770753
255.33632 1540.8542 3042.3772 1771009
272.40109 1535.4286 3031.6646 1705216
290.56259 1536.474 3033.7285 1639424
308.27542 1535.1631 3031.1404 1705216
325.42029 1531.324 3023.5601 1639424
342.65573 1528.2894 3017.5684 1639168
359.77127 1525.0476 3011.1675 1442048
377.06702 1522.84 3006.8086 1573632
393.98828 1519.3873 2999.9915 1573632
411.3541 1517.8734 2997.0022 1639424
428.5773 1515.98 2993.2639 1376512
445.52945 1513.3165 2988.0049 1508096
462.94974 1512.386 2986.1675 1507840
480.08511 1510.6274 2982.6953 1376256
494.48291 1500.6857 2963.0654 1705216
514.14429 1506.8522 2975.241 1573632
530.58545 1503.4849 2968.5925 1442048
546.02368 1497.5829 2956.9392 1572864
562.90942 1495.8945 2953.6055 1638400
580.06323 1494.9989 2951.8372 1376256
596.62231 1492.668 2947.2349 1376512
613.6123 1491.5168 2944.9619 1508096
630.09314 1489.226 2940.4387 1639424
647.26215 1488.6411 2939.2839 1442048
662.43298 1483.6118 2929.3535 1704448
678.16992 1480.0747 2922.3699 1770240
693.98352 1476.8771 2916.0562 1704448
709.92078 1474.0916 2910.5562 1572864
725.86871 1471.4596 2905.3594 1770240
739.92108 1465.1962 2892.9924 1704448
758.13513 1467.2708 2897.0886 1967618
770.90436 1458.949 2880.6575 1967618
787.81897 1458.663 2880.0928 1704448
806.74054 1462.0264 2886.7336 1638656
822.7243 1460.0365 2882.8047 1639424
838.46027 1457.6967 2878.1848 1836801
855.49438 1457.6621 2878.1167 1771009
869.21289 1452.09 2867.1145 1771009
886.20166 1452.09 2867.1145 1705216
901.87677 1449.9778 2862.9441 1310976
916.37762 1446.0907 2855.269 1245184
931.34113 1443.0613 2849.2876 1179648
948.22424 1443.0613 2849.2876 1442048
964.24078 1441.7654 2846.729 1310720
978.38025 1437.7557 2838.812 1639168
991.02863 1431.7274 2826.9092 1573632
1009.5176 1434.1971 2831.7856 1573376
1026.8831 1435.0161 2833.4028 1770496
1036.2262 1424.7781 2813.188 1441792
1052.3138 1423.9911 2811.634 1507328
1064.0446 1417.4248 2798.6689 1441792
1080.3044 1417.0005 2797.8313 1507328
1095.4534 1415.1541 2794.1855 1376256
1106.8967 1408.6469 2781.3372 1245184
1120.9697 1405.6279 2775.3765 1638912
1133.969 1401.3694 2766.968 1507328
1146.7571 1396.975 2758.2915 1507328
1162.2664 1395.9725 2756.312 1704448
1171.4482 1387.5033 2739.5898 1704448
1192.3384 1392.9437 2750.3318 1769984
1208.2056 1392.4486 2749.3542 1835776
1221.9259 1389.5251 2743.582 1901568
1231.817 1382.3816 2729.4771 2033153
1246.4226 1380.6451 2726.0486 2230275
1258.9365 1376.6658 2718.1914 2230532
1273.1924 1374.6677 2714.2463 1967360
1291.8505 1377.4133 2719.6675 1967361
1311.0193 1380.6293 2726.0171 2164739
1329.1938 1382.7324 2730.1699 1967360
1335.553 1372.6415 2710.2456 2164740
1356.4159 1377.5199 2719.8779 1835776
1370.1143 1375.0931 2715.0862 1770240
1372.6565 1361.656 2688.5549 1967360
1398.021 1370.9067 2706.8203 1572864
1421.751 1378.3629 2721.5425 1638400
1432.5563 1373.2623 2711.4714 2032128
1456.3446 1380.5824 2725.9246 1900800
1474.3878 1382.3553 2729.4253 2098176
1488.8549 1380.7733 2726.3018 2361348
1508.6011 1384.0686 2732.8081 2229762
1529.708 1388.5289 2741.615 2295555
1538.5388 1381.8696 2728.4663 2097920
1550.51 1378.14 2721.1023 2295298
1569.8605 1380.9786 2726.707 1966336
1567.2206 1364.6119 2694.3914 2558470
1595.0023 1374.797 2714.5017 2229762
1595.7797 1361.7349 2688.7107 2098176
1628.2532 1375.7109 2716.3062 2295808
1633.3447 1366.505 2698.1292 2164224
1635.0598 1354.6799 2674.781 2163712
1650.4595 1354.3113 2674.053 2361089
1671.3971 1358.4506 2682.2258 2295296
1688.063 1359.0724 2683.4539 2426882
1698.7284 1354.897 2675.2095 2623492
1713.353 1353.9274 2673.2949 2887174
1734.2413 1357.8799 2681.0991 2952966
1747.9257 1356.1711 2677.7253 2952710
1762.1555 1354.9127 2675.2405 2886917
1774.8551 1352.5104 2670.4973 2886661
1787.0938 1349.8025 2665.1506 3017733
1802.6337 1349.6138 2664.7778 2951940
1815.6492 1347.5547 2660.7124 2886404
1827.7183 1344.8346 2655.3416 2689025
1847.0082 1347.4288 2660.4639 2952195
1859.4426 1345.0201 2655.708 3017988
1883.351 1350.8818 2667.2817 2952194
1894.8749 1347.8369 2661.2695 2689025
1887.0135 1331.1671 2628.3555 3017475
1914.3076 1339.3672 2644.5464 2820352
1923.3461 1334.765 2635.4595 2951680
1936.0526 1332.7621 2631.5046 3345668
1956.3231 1335.9565 2637.812 3345925
1970.7677 1335.1533 2636.2261 3411204
1979.7 1330.6577 2627.3496 3345668
1992.1271 1328.563 2623.2136 3345412
2010.0389 1330.1301 2626.3081 3279362
2027.1085 1331.1201 2628.2627 3870210
2060.3152 1342.6107 2650.9507 4790539
2071.6436 1339.7784 2645.3584 6104593
2089.9585 1341.473 2648.7043 7354141
2101.1743 1338.6198 2643.0703 8538408
2118.9968 1339.9865 2645.769 8933164
2134.0305 1339.5824 2644.9712 8801317
2116.7332 1319.0374 2604.4055 9327661
2135.2595 1320.9515 2608.1851 8998440
2143.9846 1316.8185 2600.0244 8932647
2145.3469 1308.2543 2583.1145 8932649
2157.8616 1306.5642 2579.7776 9261613
2174.3508 1307.2876 2581.2058 9525042
2202.217 1314.793 2596.0251 9788212
2206.928 1308.4659 2583.5327 9458992
2217.208 1305.5052 2577.6868 9393199
2252.8796 1317.4333 2601.2385 9130027
2254.2607 1309.2833 2585.1465 9130282
2262.8787 1305.4182 2577.5149 9064490
2271.0808 1301.3665 2569.5149 9261868
2271.678 1293.0402 2553.0747 8801062
2238.4773 1265.7135 2499.1189 9787956
2273.6282 1277.1403 2521.6809 8867368
2275.5991 1269.9017 2507.3887 8143132
2289.4412 1269.3387 2506.2771 8998184
2320.5325 1278.2852 2523.9414 8603940
2352.8708 1287.7993 2542.7271 8669219
2370.3435 1289.1079 2545.3108 8406308
2363.2302 1277.1134 2521.6277 8538150
2352.4094 1263.2786 2494.3113 7617304
2407.4365 1284.757 2536.7197 9853753
2398.9656 1272.2927 2512.1096 9524787
0 0 0 0
0 0 0 0
0 0 0 0
0 0 0 0
0 0 0 0
0 0 0 0
0 0 0 0
0 0 0 0
0 0 0 0
-2288.884 1329.8346 2595.3599 1280
-2267.572 1326.3641 2588.5867 1280
-2252.0664 1326.2656 2588.3945 1280
-2229.0132 1321.6903 2579.4653 1280
-2215.6072 1322.8119 2581.6541 1280
-2200.6533 1323.0184 2582.0571 1280
-2190.1909 1325.9468 2587.7725 1280
-2176.8291 1327.149 2590.1187 1280
-2160.5417 1326.572 2588.9924 1280
-2143.1316 1325.2924 2586.4951 1280
-2126.3049 1324.3577 2584.6709 1280
-2107.5366 1322.1913 2580.4429 1280
-2094.491 1323.6097 2583.2112 1280
-2072.28 1319.2144 2574.6331 1280
-2051.6135 1315.7444 2567.8608 1280
-2039.866 1317.985 2572.2339 1280
-2020.8221 1315.5098 2567.4031 1280
-2002.7513 1313.6353 2563.7446 1280
-1976.7789 1306.5098 2549.8381 1280
-1966.5417 1309.7543 2556.1704 1280
-1949.3448 1308.3781 2553.4844 1280
-1930.6101 1305.9399 2548.7261 1024
-1917.2063 1307.0978 2550.9858 1024
-1886.4075 1296.3204 2529.9524 1024
-1873.8599 1298.0131 2533.2556 1024
-1853.0363 1293.9539 2525.3335 1024
-1821.5707 1282.3369 2502.6614 1024
-1808.6583 1283.6974 2505.3167 1024
-1788.2423 1279.7107 2497.5359 1024
-1770.3434 1277.4738 2493.1702 1024
-1748.6071 1272.4069 2483.2815 1024
-1726.9635 1267.3218 2473.3574 1024
-1705.0175 1261.926 2462.8267 1024
-1682.7793 1256.2189 2451.6885 1024
-1661.9376 1251.4641 2442.4087 1024
-1641.8193 1247.1752 2434.0383 1024
-1618.5027 1240.3593 2420.7361 1024
-1605.0148 1241.0211 2422.0278 1024
-1582.489 1234.6436 2409.5811 1024
-1563.0981 1230.6179 2401.7246 1024
-1543.9475 1226.7094 2394.0964 1024
-1525.5389 1223.3234 2387.488 1024
-1507.3127 1220.0214 2381.0439 1024
-1485.3484 1213.6029 2368.5173 1024
-1469.0817 1211.7617 2364.9238 1024
-1451.765 1209.0104 2359.5544 1280
-1434.1281 1205.9364 2353.5552 1280
-1415.8292 1202.2401 2346.3413 1024
-1391.4528 1193.2584 2328.8123 1024
-1375.5593 1191.4446 2325.2722 1024
-1358.0846 1188.2102 2318.96 1024
-1338.3198 1182.886 2308.5688 1024
-1321.5447 1180.1213 2303.1733 1024
-1304.5751 1177.1234 2297.3225 1024
-1286.9651 1173.4785 2290.209 1024
-1274.8389 1174.8094 2292.8064 1024
-1259.6118 1173.2808 2289.823 1024
-1802.2727 1697.0286 3311.9907 1024
-1219.2081 1160.6504 2265.1731 1024
-1210.1882 1164.8877 2273.4429 1024
-1195.8235 1164.0181 2271.7454 1024
-1177.9175 1159.642 2263.2048 768
-1161 1156.1494 2256.3887 768
-1142.4667 1150.9478 2246.2371 768
-1134.0497 1155.9351 2255.9705 768
-1119.4417 1154.6556 2253.4734 768
-1103.3248 1151.77 2247.8418 768
-1093.4625 1155.423 2254.9712 768
-1079.1903 1154.449 2253.0701 512
-1064.877 1153.4059 2251.0344 1280
-1049.1958 1150.8362 2246.019 1280
-1039.2792 1154.6042 2253.3733 1280
-1027.6743 1156.5708 2257.2112 1280
-1009.23 1150.7904 2245.9299 1280
-990.55328 1144.5869 2233.8228 1280
-973.7865 1140.452 2225.7532 1280
-961.54102 1141.5717 2227.9382 1280
-944.84998 1137.371 2219.74 1280
-928.85583 1133.9025 2212.9707 1280
-915.17279 1133.1963 2211.5925 1280
-902.51263 1133.7546 2212.6821 1280
-882.73236 1125.2531 2196.0901 1280
-867.71869 1122.6642 2191.0376 1280
-850.00708 1116.453 2178.9158 1280
-834.68854 1113.2421 2172.6489 1280
-820.00769 1110.7942 2167.8716 1280
-803.67645 1105.9973 2158.5098 1024
-786.2984 1099.5812 2145.9878 1280
-773.58252 1099.5812 2145.9878 1280
-755.841 1092.3181 2131.813 1280
-740.35742 1088.127 2123.6333 1280
-726.57581 1086.3353 2120.1367 1280
-710.18427 1080.5099 2108.7676 1280
-697.94287 1080.9031 2109.5349 1280
-1058.4596 1669.1281 3257.5391 1280
-1027.3955 1650.236 3220.6685 1280
-1018.7854 1667.3774 3254.1223 1280
-999.35767 1667.1343 3253.6479 1280
-979.48322 1666.1216 3251.6716 1280
-959.85895 1665.5026 3250.4634 1280
-939.49152 1663.542 3246.6372 1280
-595.27148 1076.0718 2100.106 1280
-584.68616 1079.5034 2106.8032 1024
-577.18494 1088.9032 2125.1482 768
-567.5589 1094.6241 2136.3135 768
-557.33881 1099.4343 2145.7012 768
-550.06757 1110.4219 2167.145 768
-541.35846 1118.9626 2183.8135 768
-533.60791 1129.9517 2205.2603 1024
-516.37219 1120.9026 2187.5996 1024
-514.7821 1146.2245 2237.0188 1024
-500.8186 1144.6057 2233.8596 1024
-488.2493 1146.172 2236.9165 1024
-482.83524 1165.0916 2273.8406 1024
-663.19891 1646.2512 3212.8914 1024
-643.77319 1645.2594 3210.9561 1024
-624.53113 1644.6909 3209.8464 1024
-605.17694 1643.7821 3208.073 1024
-585.52954 1641.9923 3204.5796 1024
-562.91144 1631.4725 3184.0488 1024
-544.91681 1634.0878 3189.1528 1280
-525.15698 1631.4075 3183.9219 1280
-361.75131 1165.6614 2274.9526 1280
-346.39294 1159.3744 2262.6829 1280
-331.70767 1154.9249 2253.999 1280
-318.3475 1154.9092 2253.9683 1024
-302.70947 1146.2666 2237.1011 1024
-287.84766 1139.9062 2224.688 768
-275.25165 1142.339 2229.4358 768
-261.73611 1141.0084 2226.8389 768
-345.16287 1584.5811 3092.5337 768
-329.43839 1597.1866 3117.1353 768
-310.38031 1594.1676 3111.2432 768
-290.93079 1588.6298 3100.4353 768
-273.09897 1591.7745 3106.5725 768
-252.83199 1580.1541 3083.8938 768
-234.61174 1580.5116 3084.5913 66048
-215.8006 1576.6125 3076.9817 197120
-197.0338 1572.3475 3068.658 854016
-177.95537 1564.4756 3053.2952 1181697
-158.97232 1555.7556 3036.2766 1313024
-141.30426 1559.321 3043.2354 1049344
-123.04093 1556.3999 3037.5339 1180928
-104.74675 1552.0204 3028.9868 1115136
-86.629982 1549.002 3023.0959 1640962
-68.314369 1539.9275 3005.386 1575170
-50.69677 1545.7367 3016.7231 1640449
-32.770912 1543.3556 3012.0762 1508864
-14.914226 1542.4323 3010.2742 1508352
2.922128 1542.0468 3009.522 1639936
20.692432 1537.4165 3000.4851 1376768
38.757713 1548.8536 3022.8066 1771522
56.586632 1546.601 3018.4099 1639936
74.560394 1548.4382 3021.9958 1574144
92.392944 1547.1993 3019.5779 1574144
110.58293 1551.3768 3027.7307 1574144
128.49413 1551.0227 3027.0398 1705728
146.5182 1551.9512 3028.8518 1771009
163.89165 1546.5375 3018.2861 1836803
181.7762 1546.5375 3018.2861 1639424
199.6472 1546.4323 3018.0808 1639680
217.3098 1544.8632 3015.0183 1705729
234.00333 1537.1664 2999.9971 1508352
251.06604 1532.8105 2991.4961 1574144
268.65866 1532.051 2990.0137 1771266
285.68118 1528.3354 2982.7622 1573888
302.15381 1522.2825 2970.949 1705472
320.50778 1525.8524 2977.9165 1508096
337.77362 1524.14 2974.5745 1705472
353.6427 1516.6074 2959.8735 1442304
371.74936 1518.9291 2964.4045 1508352
388.15952 1514.4222 2955.6089 1245440
405.35266 1513.2277 2953.2773 1245696
422.50232 1511.9762 2950.835 1376768
438.50601 1506.8862 2940.9011 1376768
453.2211 1497.9264 2923.4148 1376768
473.55231 1507.5046 2942.1082 1442560
491.28458 1508.423 2943.9004 1376256
506.36435 1501.4135 2930.2202 1442048
523.08417 1499.5704 2926.6233 1639424
539.87207 1498.0344 2923.6257 1573632
553.96375 1489.3452 2906.6675 1639168
572.30957 1492.2725 2912.3804 1376512
588.05396 1488.4438 2904.9082 1442304
604.02808 1485.3977 2898.9634 983040
620.37372 1483.4087 2895.0813 1507840
635.35986 1478.3632 2885.2344 1771009
650.29236 1473.4607 2875.6665 1310720
666.69507 1472.0547 2872.9226 2033411
684.10663 1472.8909 2874.5544 1704448
700.49158 1471.5297 2871.8979 1770240
716.17035 1468.7849 2866.541 1770240
732.74567 1467.9633 2864.9375 1769984
746.39465 1461.4491 2852.2241 1769984
766.59125 1467.7599 2864.5405 1770240
780.00366 1461.0891 2851.5217 1967618
795.44501 1458.4214 2846.3152 1770240
812.71411 1459.146 2847.7292 1770752
827.09393 1454.7592 2839.1677 1836802
843.78387 1454.5293 2838.7192 1968388
853.68585 1442.8361 2815.8982 2034181
873.66907 1448.3031 2826.5679 1902595
885.41223 1440.1615 2810.6785 1705217
902.88373 1441.4661 2813.2244 1705216
917.66345 1438.5038 2807.4431 1705472
933.05029 1436.5817 2803.6919 1442048
949.20081 1435.882 2802.3264 1442048
959.9856 1427.2291 2785.4392 1310720
980.11798 1432.5312 2795.7869 1376256
996.06824 1431.6459 2794.0591 1179648
1009.0019 1426.5248 2784.0645 1441792
1022.4968 1422.3491 2775.915 1245184
1036.7843 1419.3907 2770.1414 1376256
1051.9982 1417.7731 2766.9841 1376256
1063.8381 1411.7278 2755.186 1376256
1081.9958 1414.1223 2759.8594 1507840
1095.6907 1410.6996 2753.1794 1376512
1109.9995 1408.1562 2748.2156 1442048
1122.0244 1402.8308 2737.8223 1376512
1136.0045 1400.0669 2732.4282 1836288
1149.7308 1397.0724 2726.584 1638912
1156.8596 1386.2549 2705.4722 2165252
1169.0193 1381.6794 2696.5425 1638656
1188.8768 1386.2028 2705.3704 1704448
1203.3704 1384.4347 2701.9197 2098946
1216.7605 1381.4602 2696.1145 2164738
1230.8208 1379.314 2691.9258 2230275
1241.3394 1373.3042 2680.197 2230275
1257.3834 1373.4821 2680.5442 2296325
1273.1925 1373.4021 2680.3879 2164739
1288.0631 1372.324 2678.2839 2164739
1301.8457 1370.1273 2673.9968 2033153
1303.2675 1355.1305 2644.7285 2230532
1324.5322 1360.8778 2655.9451 1967360
1339.1299 1359.7205 2653.6863 1507328
1356.1221 1360.9929 2656.1697 1573120
1378.1235 1367.2058 2668.2952 2361861
1392.0551 1365.3627 2664.698 1704192
1414.1859 1371.5129 2676.7009 1572864
1431.2117 1372.6304 2678.8818 1835008
1448.8987 1374.3506 2682.2393 2163712
1466.4329 1375.8901 2685.2437 2032384
1479.8936 1373.6157 2680.8049 2098176
1496.5413 1374.3163 2682.1721 2032128
1512.2755 1374.172 2681.8906 2097920
1527.7743 1373.8191 2681.2019 2361091
1544.0128 1374.1317 2681.812 2032384
1548.9645 1364.4955 2663.0054 2032640
1553.411 1354.6129 2643.7183 1901312
1564.8209 1350.9392 2636.5486 2032384
1587.7549 1357.1888 2648.7456 1769728
1608.014 1361.0521 2656.2854 1901568
1620.4619 1358.2931 2650.9006 2360832
1635.5042 1357.7407 2649.8225 2229248
1646.1227 1353.5613 2641.6658 2163712
1665.5448 1356.6313 2647.6575 2229504
1670.9973 1348.3718 2631.5378 2558468
1691.2274 1352.079 2638.7729 2755333
1701.6512 1347.9503 2630.7153 2952710
1721.8076 1351.5364 2637.7139 2952710
1737.9095 1351.9039 2638.4312 3018760
1752.9587 1351.4531 2637.5515 2952710
1767.8068 1350.8567 2636.3875 2624002
1766.6835 1338.1732 2611.6338 2624002
1782.1584 1338.1732 2611.6338 2755331
1805.7185 1344.1919 2623.3801 2623745
1823.5905 1345.9095 2626.7324 2689795
1827.7273 1337.5469 2610.4114 3017990
1842.2561 1336.8654 2609.0813 3083783
1854.2028 1334.3373 2604.1475 2952195
1868.2606 1333.3574 2602.2351 2951938
1870.2216 1323.8311 2583.6431 2820352
1884.6456 1323.2096 2582.4302 2689024
1898.1401 1321.9508 2579.9736 2819584
1913.5564 1322.0399 2580.1475 3214082
1939.3949 1329.2709 2594.2598 3279875
1952.4957 1327.7264 2591.2456 3279876
1966.0231 1326.4939 2588.8401 3279619
1976.3884 1323.1635 2582.3403 3345413
1993.1832 1324.1556 2584.2766 3213827
2019.3618 1331.3192 2598.2573 3739654
2024.8723 1324.8513 2585.6345 4265482
2029.123 1317.6627 2571.6047 4593161
2055.6841 1324.9609 2585.8481 4263426
2076.7109 1328.6105 2592.9709 6236176
2094.6699 1330.2583 2596.1868 6959637
2094.4583 1320.4266 2576.9988 8341025
2113.7437 1322.9398 2581.9038 8867111
2124.0857 1319.8599 2575.8928 9130282
2130.0549 1314.126 2564.7024 9064489
2140.696 1311.3352 2559.2559 9064489
2152.207 1309.1129 2554.9185 8603940
2178.1763 1315.6545 2567.6855 9064491
2204.0266 1322.0342 2580.1362 10051385
2211.2017 1317.2009 2570.7036 9985336
2213.9204 1309.7977 2556.2551 9459247
2215.2869 1301.7003 2540.4519 9261868
2219.1338 1295.1602 2527.6877 9327661
2215.6826 1284.4766 2506.8372 9261869
2250.1211 1295.7544 2528.8477 9919542
2233.1821 1277.4926 2493.207 9262383
2223.3838 1263.5288 2465.9548 8736039
2246.2905 1268.212 2475.0947 8340767
2252.4412 1263.4355 2465.7727 9064236
2277.7593 1269.403 2477.4189 8603430
2310.2466 1279.2635 2496.6633 8077341
2326.6284 1280.1373 2498.3687 8406562
2344.4561 1281.7905 2501.5952 8735526
2344.2798 1273.6416 2485.6912 7617045
2355.1904 1271.5802 2481.6682 8406819
2367.0764 1270.0677 2478.7163 8538406
0 0 0 0
0 0 0 0
0 0 0 0
0 0 0 0
0 0 0 0
0 0 0 0
0 0 0 0
0 0 0 0
0 0 0 0
-2272.6592 1335.6775 2576.9626 1280
-2241.4783 1326.2631 2558.7988 1280
-2226.9133 1326.6187 2559.4849 1280
-2207.8115 1324.2578 2554.9302 1280
-2194.3342 1325.2615 2556.8665 1280
-2182.3936 1327.2135 2560.6326 1280
-2172.4717 1330.4291 2566.8367 1280
-2153.2478 1327.9535 2562.0603 1280
-2138.3525 1328.1312 2562.4031 1280
-2123.4712 1328.3199 2562.7673 1280
-2108.7627 1328.6204 2563.3469 1280
-2105.0886 1335.928 2577.4458 1280
-2080.7969 1330.1622 2566.3218 1280
-2061.168 1327.3143 2560.8271 1280
-2036.6698 1321.2654 2549.1567 1280
-2017.8693 1318.8497 2544.4963 1280
-2002.2817 1318.5137 2543.8479 1280
-1973.8181 1309.6294 2526.707 1280
-1958.2404 1309.2241 2525.9253 1024
-1940.7687 1307.5367 2522.6697 768
-1921.4559 1304.5732 2516.9521 1024
-1911.3895 1307.8903 2523.3518 1024
-1891.9089 1304.7668 2517.3257 1024
-1869.1365 1299.3057 2506.7893 1024
-1852.6365 1298.1522 2504.5637 1024
-1831.3246 1293.5811 2495.7446 1024
-1807.1736 1286.9137 2482.8811 1024
-1796.6069 1289.89 2488.6233 1024
-1775.2462 1285.1017 2479.385 1024
-1747.7665 1275.767 2461.3752 1024
-1728.5574 1272.3629 2454.8079 1024
-1703.5688 1264.6108 2439.8516 1024
-1693.6567 1268.0137 2446.4167 1024
-1665.8507 1257.9626 2427.0249 1024
-1646.5938 1254.2485 2419.8591 1024
-1625.8251 1249.3076 2410.3264 1024
-1599.6492 1240.0874 2392.5376 1024
-1581.2072 1236.7512 2386.1011 1024
-1563.1274 1233.6409 2380.1001 1024
-1543.2483 1229.0408 2371.2251 1024
-1523.7646 1224.6741 2362.8003 1024
-1507.3877 1222.7463 2359.0811 1024
-1489.4403 1219.4968 2352.8115 1024
-1468.2371 1213.4948 2341.2317 1024
-1447.99 1208.1763 2330.9705 1024
-1432.5713 1206.8225 2328.3589 1024
-1414.1296 1202.8713 2320.7356 1024
-1395.7977 1198.9368 2313.1445 1024
-1377.3135 1194.792 2305.1479 1024
-1360.8236 1192.3118 2300.3625 1024
-1345.1573 1190.51 2296.8865 1024
-1322.6129 1182.522 2281.4749 1024
-1304.2611 1178.1561 2273.0518 1024
-1288.1342 1175.7297 2268.3706 1024
-1274.5834 1175.6285 2268.1753 1024
-1259.5043 1174.1005 2265.2271 1024
-1246.1498 1174.1644 2265.3506 1024
-1226.8738 1168.5896 2254.5947 768
-1207.5673 1162.8625 2243.5454 768
-1194.6842 1163.2626 2244.3174 768
-1180.4197 1162.3114 2242.4822 768
-1164.7815 1159.9706 2237.9658 768
-1152.1378 1160.5922 2239.1653 768
-1130.6714 1152.2374 2223.0461 768
-1120.9315 1155.7767 2229.8745 768
-1108.934 1157.0448 2232.321 768
-1094.1372 1155.3875 2229.1235 768
-1080.5472 1154.9797 2228.3369 768
-1067.4679 1155.1144 2228.5967 1280
-1535.7996 1682.7157 3246.5137 1280
-1042.1975 1156.3795 2231.0376 1280
-1032.915 1160.8044 2239.5747 1280
-1014.7194 1155.1973 2228.7566 1280
-999.14429 1152.465 2223.4851 1280
-984.73083 1151.0175 2220.6924 1280
-967.71362 1146.446 2211.8726 1280
-951.20667 1142.3618 2203.9929 1280
-937.53723 1141.6193 2202.5601 1280
-921.55188 1137.9958 2195.5693 1280
-905.52295 1134.2139 2188.2727 1280
-894.5014 1136.6853 2193.041 1280
-878.70532 1133.073 2186.0715 1280
-864.22675 1131.0768 2182.2202 1280
-846.21588 1124.3268 2169.1973 1280
-832.06543 1122.5769 2165.821 1280
-817.02295 1119.5497 2159.9807 1280
-799.84479 1113.4532 2148.2185 1280
-783.76556 1108.7141 2139.0752 1280
-1155.6687 1661.6804 3205.9294 1280
-752.76538 1100.4539 2123.1384 1280
-737.62585 1096.6493 2115.7981 1280
-724.45032 1095.6833 2113.9346 1280
-1077.0016 1657.5533 3197.967 1280
-1057.972 1657.4274 3197.7244 1280
-1038.4706 1656.5446 3196.0208 1280
-1019.0723 1655.796 3194.5769 1280
-999.76495 1655.17 3193.3689 1280
-980.63922 1654.8262 3192.7056 1280
-961.37994 1654.239 3191.5725 1280
-941.81812 1653.0974 3189.3701 1280
-922.32654 1652.0345 3187.3196 1280
-902.29803 1649.9457 3183.2896 1280
-584.65112 1091.9216 2106.677 1024
-575.75146 1098.7598 2119.8701 1024
-568.2478 1108.6266 2138.9065 768
-826.1817 1648.6141 3180.7205 768
-550.01282 1123.1512 2166.9292 768
-539.89276 1128.838 2177.9009 768
-533.60791 1143.0188 2205.2603 1024
-522.04272 1146.3167 2211.6228 1024
-513.52606 1156.6508 2231.5608 1024
-500.8186 1157.8423 2233.8596 1024
-487.81564 1158.3969 2234.9297 1024
-482.82773 1178.5466 2273.8052 1024
-655.34778 1645.5746 3174.8562 1024
-636.17297 1644.6375 3173.0481 1024
-616.82965 1643.1945 3170.2639 1024
-597.92999 1642.8794 3169.6565 1024
-578.52875 1641.1215 3166.2646 1024
-558.8667 1638.481 3161.1702 1024
-539.67908 1637.0964 3158.499 1280
-516.75299 1623.8645 3132.9702 1280
-359.11536 1170.5493 2258.3757 1280
-342.08514 1158.1968 2234.5437 1280
-334.05984 1176.5651 2269.9822 1280
-322.28436 1182.7124 2281.8423 1280
-307.0665 1176.2118 2269.3005 1024
-288.79248 1156.8733 2231.9902 1024
-279.27951 1172.4589 2262.0598 768
-263.07196 1160.0942 2238.2043 768
-247.54156 1149.5612 2217.8826 1024
-325.18896 1594.8167 3076.9272 1024
-306.27768 1591.2875 3070.1184 768
-287.41913 1587.604 3063.0117 768
-269.58896 1589.4869 3066.6448 768
-250.61192 1584.392 3056.8147 768
-231.65622 1578.6483 3045.7332 66048
-214.46938 1585.0066 3058.0005 196864
-191.93637 1549.3822 2989.2693 787968
-175.36086 1559.4944 3008.7793 984576
-157.51505 1559.3206 3008.4436 1378049
-139.87193 1561.3646 3012.3875 1115136
-121.32935 1552.4973 2995.2795 720896
-103.16846 1546.3125 2983.3469 720896
-85.597168 1548.2343 2987.0544 983296
-67.946495 1549.3473 2989.2021 1180416
-50.01963 1542.7274 2976.4299 1443072
-32.385532 1542.8438 2976.6545 1311744
-14.739643 1542.0052 2975.0366 1442560
2.8824699 1538.7094 2968.678 1442560
20.489298 1539.9283 2971.0298 1639936
38.144936 1541.9938 2975.0146 1574144
55.677288 1539.345 2969.9043 1574144
73.243782 1538.6857 2968.6323 1508352
90.716438 1536.6924 2964.7864 1508096
108.94818 1546.1182 2982.9719 1442560
126.60765 1545.9247 2982.5986 1442560
144.63565 1549.7274 2989.9353 1573888
161.45192 1541.1335 2973.355 1705472
179.64426 1546.0737 2982.8862 1508352
196.60184 1540.4541 2972.0442 1442560
214.27061 1540.8729 2972.8521 1376768
231.41068 1537.7145 2966.7585 1508352
247.82941 1530.5476 2952.9312 1442560
265.74521 1532.9615 2957.5886 1310976
282.2648 1527.5212 2947.0923 1376768
299.80664 1527.9246 2947.8704 1310976
316.81363 1525.7078 2943.5935 1639936
333.34918 1521.5703 2935.6111 1573888
350.01001 1518.387 2929.4692 1574145
366.23364 1513.6971 2920.4211 1442816
382.79477 1510.7627 2914.7595 1639937
400.20624 1511.2926 2915.782 1442560
416.27899 1506.9326 2907.3701 1376768
433.7002 1507.6064 2908.6702 1771521
449.13715 1501.595 2897.072 1574144
467.78879 1506.3781 2906.3003 1639168
483.76617 1502.5155 2898.8481 1573888
499.76724 1498.9891 2892.0444 1507840
515.41016 1494.6576 2883.6875 1376512
531.95795 1493.1442 2880.7676 1442048
549.02765 1493.1442 2880.7676 1442816
567.50031 1496.8445 2887.9067 1442560
581.02258 1487.6533 2870.1741 1639424
597.68292 1486.7913 2868.5107 1310976
613.66211 1484.329 2863.7603 1507840
629.97162 1482.777 2860.7659 1573376
646.01343 1480.6926 2856.7446 1507840
663.39264 1481.7019 2858.6917 1771009
677.82629 1476.2457 2848.165 1771009
693.67462 1474.0608 2843.9495 1771009
710.51361 1474.0348 2843.8992 1573632
724.59497 1468.4215 2833.0696 1507840
741.77417 1469.1981 2834.5679 1507840
757.19617 1466.5371 2829.4338 1573376
772.54907 1463.8602 2824.2693 1638912
787.27753 1460.139 2817.0898 1836032
803.52081 1459.3235 2815.5164 1770496
818.70062 1456.6486 2810.3557 1705216
834.28119 1454.7795 2806.7495 1771009
848.42902 1450.5338 2798.5583 1771009
866.61487 1453.2225 2803.7456 1902338
878.00275 1444.6248 2787.1577 1771009
892.97229 1442.1289 2782.3423 1705216
912.07983 1446.2852 2790.3611 1836802
924.16333 1439.3535 2776.9878 1507840
937.22736 1434.1649 2766.9773 1442304
950.35657 1429.2528 2757.5 1441792
966.98499 1429.6803 2758.325 1376256
983.51123 1429.9449 2758.8354 1507840
997.88885 1427.1281 2753.4009 1179648
1013.7914 1426.5477 2752.2812 1245184
1027.0707 1422.3529 2744.188 1310720
1040.99 1419.1613 2738.0303 1507328
1054.0704 1414.9417 2729.8892 1704448
1071.0532 1416.0087 2731.9478 1836288
1082.3385 1409.6235 2719.6289 1770240
1096.5883 1407.2301 2715.011 1441792
1107.3394 1400.481 2701.9897 1507584
1115.0928 1390.1871 2682.1294 1769984
1134.8898 1394.9862 2691.3884 2164997
1147.2335 1390.6177 2682.9602 1704448
1162.8593 1390.2927 2682.3333 1901568
1175.0369 1385.9094 2673.8765 1704704
1189.9351 1384.8091 2671.7534 1573120
1206.7025 1385.8844 2673.8281 1901826
1218.2911 1381.0608 2664.522 2099204
1226.8431 1372.9626 2648.8979 2098689
1242.4395 1372.8528 2648.6858 2164482
1254.7997 1369.2146 2641.6665 2296325
1269.225 1367.8915 2639.1138 2098946
1283.9232 1366.8911 2637.1838 1901568
1299.3612 1366.693 2636.8015 2033153
1314.1943 1365.8708 2635.2156 2033153
1329.7935 1365.8549 2635.1846 1967104
1343.3256 1363.7408 2631.106 1901568
1365.2573 1370.1047 2643.384 1441792
1380.6885 1369.8746 2642.9399 1638656
1399.245 1372.7157 2648.4214 1967104
1407.3804 1365.3837 2634.2754 1901312
1424.2267 1366.5707 2636.5657 1704448
1441.9761 1368.5891 2640.46 1967360
1457.745 1368.7048 2640.6831 1704448
1477.1183 1372.1663 2647.3613 2164482
1490.6768 1370.2101 2643.5872 2229762
1503.3091 1367.452 2638.2661 2098176
1518.9419 1367.452 2638.2661 2098177
1535.2478 1368.0519 2639.4233 2098177
1542.3042 1360.4806 2624.8157 1966592
1556.0979 1358.944 2621.8511 1835008
1571.6025 1358.9174 2621.7998 2163968
1587.3821 1359.1265 2622.2034 2295553
1599.7054 1356.4011 2616.9453 2230016
1613.9629 1355.3523 2614.9216 2230016
1632.4739 1357.8613 2619.7625 2361602
1643.3021 1353.993 2612.2993 2426626
1657.6339 1353.0566 2610.4927 2361089
1672.1362 1352.2755 2608.9856 2492675
1682.7426 1348.3868 2601.4829 2755591
1697.8741 1348.1619 2601.0491 3084043
1711.9609 1347.1189 2599.0366 2623748
1728.8464 1348.2772 2601.2715 2360832
1740.8174 1345.6162 2596.1375 2624001
1755.0522 1344.7363 2594.4399 3084553
1767.4824 1342.501 2590.1272 2689538
1785.0179 1344.1486 2593.3059 2492416
1793.1349 1338.7361 2582.8635 2492416
1803.85 1335.3389 2576.3091 2886917
1816.2672 1333.2478 2572.2749 2952967
1828.4569 1331.026 2567.9883 2886661
1845.5848 1332.4061 2570.6509 3017990
1859.4362 1331.4175 2568.7434 2952195
1874.4971 1331.3037 2568.5242 2886402
1888.3955 1330.373 2566.7285 2820609
1908.1606 1333.5573 2572.8718 3084038
1911.677 1325.4253 2557.1826 3280903
1926.8293 1325.4253 2557.1826 3214853
1934.8839 1320.5811 2547.8364 3214596
1949.4299 1320.2079 2547.1165 3280132
1968.7756 1323.066 2552.6309 3280132
1993.4229 1329.4161 2564.8823 3608841
1997.0824 1321.7794 2550.1484 3411718
2011.1805 1321.1143 2548.8652 3608840
2024.0967 1319.6884 2546.1143 3805703
2042.5981 1321.8983 2550.3779 4001795
2068.1599 1328.6115 2563.3296 5184780
2069.1912 1319.5828 2545.9104 6499604
2079.2791 1316.4186 2539.8057 7024916
2100.4192 1320.2471 2547.1921 9393713
2111.3752 1317.6653 2542.2109 9327662
2127.0703 1318.0565 2542.9658 9459248
2139.8481 1316.6472 2540.2468 8801061
2157.9722 1318.5243 2543.8684 8998698
2166.7998 1314.7346 2536.5566 9064490
2176.2144 1311.3507 2530.0281 9130282
2179.9563 1304.6184 2517.0393 9195819
2187.887 1300.4673 2509.0303 9261870
2189.9885 1292.9308 2494.49 9524784
2186.969 1282.4922 2474.3503 9327405
2205.0986 1284.5123 2478.248 9327662
2199.0986 1272.5431 2455.1553 8998697
2202.1177 1265.9155 2442.3687 9195820
2210.2073 1262.2705 2435.3362 9327149
2228.7676 1264.6139 2439.8572 8933162
2240.7036 1263.1925 2437.115 8998698
2246.2722 1258.2229 2427.5271 9196077
2305.3694 1283.109 2475.5405 9130026
2312.2966 1278.8275 2467.2803 8143391
2335.4504 1283.5179 2476.3293 8603939
2317.0017 1265.4282 2441.4285 9459248
2323.5186 1261.1136 2433.1042 8867112
0 0 0 0
0 0 0 0
0 0 0 0
0 0 0 0
0 0 0 0
0 0 0 0
0 0 0 0
0 0 0 0
0 0 0 0
-2692.7881 1600.6863 3053.3459 1024
-2676.2932 1601.6423 3055.1694 1280
-2659.0364 1602.1521 3056.1421 1280
-2173.0388 1318.3015 2514.6904 1280
-2172.2495 1326.9214 2531.1331 1280
-2151.9136 1323.6379 2524.8699 1280
-2133.676 1321.6085 2520.9985 1280
-2114.4939 1318.9612 2515.9487 1280
-2095.8926 1316.641 2511.5229 1280
-2081.3108 1316.8308 2511.885 1280
-2068.6089 1318.2211 2514.5371 1280
-2050.4602 1316.1359 2510.5593 1280
-2035.1241 1315.8384 2509.9919 1280
-2474.4778 1611.6868 3074.3296 1280
-2010.1058 1318.9401 2515.9084 1024
-1989.7932 1315.3671 2509.093 1024
-1981.2775 1319.5975 2517.1626 1024
-1952.4255 1310.2448 2499.322 1280
-1937.2018 1309.9646 2498.7876 1280
-1918.5858 1307.3687 2493.8357 1024
-1903.8087 1307.3687 2493.8357 1280
-1886.1763 1305.3923 2490.0659 1280
-1865.9319 1301.5631 2482.7615 1280
-1843.8868 1296.4069 2472.9258 1280
-1823.1838 1292.1191 2464.7471 1024
-1803.3354 1288.3728 2457.6008 1024
-1776.3657 1279.4363 2440.5542 1024
-1761.692 1279.2821 2440.26 1024
-1742.2537 1275.6366 2433.3062 1024
-1722.5936 1271.7668 2425.9243 1024
-1702.3427 1267.392 2417.5791 1024
-1685.9805 1265.8622 2414.6614 1024
-1666.1956 1261.7148 2406.75 1024
-1644.2684 1255.8596 2395.5811 1024
-1622.3478 1249.9073 2384.2271 1024
-1600.6836 1244.0497 2373.0535 1024
-1586.085 1243.6285 2372.25 1024
-1567.333 1239.9139 2365.1643 1024
-1548.4355 1236.0162 2357.7295 1024
-1528.4706 1231.1877 2348.5188 1024
-1506.5764 1224.7021 2336.1475 1024
-1493.6929 1225.489 2337.6484 1024
-1468.8823 1216.4137 2320.3369 1024
-1447.9979 1210.4487 2308.9587 1024
-1430.5743 1207.2908 2302.9348 1024
-1414.1543 1204.9269 2298.4258 1024
-1398.0327 1202.774 2294.3191 1024
-1375.1873 1194.7372 2278.9885 1024
-1362.6257 1195.564 2280.5657 1024
-1345.9733 1192.7821 2275.2593 1024
-1318.813 1180.5378 2251.9031 1024
-1304.8563 1179.9833 2250.8452 1024
-1286.9314 1175.7917 2242.8496 1024
-1278.2821 1180.0757 2251.0215 1024
-1258.1168 1173.7065 2238.8723 1024
-1241.7354 1170.7694 2233.2695 768
-1226.1433 1168.5214 2228.9812 1024
-1208.3273 1164.0815 2220.5122 1024
-1194.4742 1163.4041 2219.22 1024
-1179.8477 1161.9496 2216.4456 768
-1164.2208 1159.4663 2211.7085 768
-1150.8667 1159.2157 2211.2305 768
-1638.4657 1669.3573 3184.3374 768
-1124.6074 1159.1595 2211.1235 768
-1108.4586 1155.9818 2205.062 768
-1093.3997 1153.8785 2201.0498 768
-1080.3655 1153.8872 2201.0662 768
-1068.1152 1154.7432 2202.6992 768
-1056.4716 1156.2847 2205.6394 1024
-1042.1256 1154.8696 2202.9404 1280
-1030.3593 1156.3138 2205.6953 1280
-1017.9275 1157.0391 2207.0786 1280
-1004.3008 1156.407 2205.8728 1280
-984.53137 1148.592 2190.9658 1280
-968.81128 1145.3553 2184.7917 1280
-956.73071 1146.3921 2186.7693 1280
-941.97449 1144.2073 2182.6016 1280
-926.28101 1140.8071 2176.1157 1280
-912.54156 1139.7517 2174.1025 1280
-899.40106 1139.4247 2173.4788 1280
-885.85608 1138.5684 2171.8452 1280
-872.47327 1137.8983 2170.5671 1280
-855.89618 1132.9799 2161.1851 1280
-839.29724 1127.8826 2151.4619 1280
-824.1701 1124.6365 2145.27 1280
-807.66583 1119.38 2135.2432 1280
-793.96588 1117.9048 2132.429 1280
-777.37415 1112.2444 2121.6316 1280
-763.13141 1109.8138 2116.9954 1280
-748.98407 1107.4432 2112.4734 1280
-735.95087 1106.6674 2110.9934 1280
-1077.3198 1648.0023 3143.6023 1280
-1058.47 1647.6555 3142.9407 1280
-1039.6989 1647.421 3142.4937 1280
-1020.8875 1647.1132 3141.9062 1280
-1002.1324 1646.8865 3141.4739 1280
-983.59204 1647.0105 3141.7104 1280
-964.73944 1646.6067 3140.9399 1280
-946.03668 1646.4475 3140.6362 1280
-927.19629 1646.0377 3139.8545 1024
-908.17822 1645.2891 3138.4268 1024
-593.93829 1098.494 2095.4026 1024
-583.85327 1102.8973 2103.802 1024
-572.99493 1106.0002 2109.7209 768
-569.43616 1123.6454 2143.3794 768
-556.48981 1123.149 2142.4326 768
-549.20526 1134.3234 2163.7478 768
-544.70276 1151.9152 2197.3044 768
-535.8913 1161.0328 2214.6968 1024
-523.13904 1161.8562 2216.2673 1024
-513.87988 1170.6796 2233.0981 1024
-499.83044 1168.7682 2229.4521 1024
-495.76331 1190.7285 2271.342 1024
-660.03894 1629.5243 3108.355 1024
-641.8136 1630.014 3109.2893 1024
-622.87683 1628.6727 3106.7307 1024
-603.91699 1627.1876 3103.8977 1024
-585.59546 1627.3831 3104.2705 1024
-566.78149 1626.1783 3101.9724 1024
-547.47681 1623.4375 3096.7444 1024
-529.10516 1623.3695 3096.6145 1280
-508.9902 1617.7555 3085.9058 1280
-489.42618 1613.5397 3077.864 1280
-470.52222 1611.2576 3073.511 1280
-452.17429 1610.7728 3072.5862 1280
-432.93036 1606.9213 3065.2393 1280
-414.49332 1605.8588 3063.2126 1280
-296.28897 1200.4723 2289.9285 1024
-283.09586 1202.0674 2292.9709 1024
-269.08633 1200.1816 2289.374 1024
-254.70433 1196.3464 2282.0583 1024
-239.55287 1188.2643 2266.6414 768
-223.39558 1173.9365 2239.3108 768
