# .PCD v0.7 - Point Cloud Data file format
VERSION 0.7
FIELDS x y z rgb
SIZE 4 4 4 4
TYPE F F F U
COUNT 1 1 1 1
WIDTH 1311
HEIGHT 1
VIEWPOINT 0 0 0 1 0 0 0
POINTS 1311
DATA ascii
941.88092 869.70996 3300.3264 2033152
963.03107 871.15228 3305.7996 2230273
974.44098 863.90179 3278.2856 2361601
994.45874 864.41687 3280.2402 2492673
1010.3702 861.41125 3268.835 2624259
1029.2352 860.98956 3267.2346 2689795
1045.5494 858.48895 3257.7454 2755587
1065.5422 859.04474 3259.8545 2558208
1084.7764 858.97992 3259.6084 2689793
1101.7097 857.1275 3252.5789 2755329
1120.2126 856.53876 3250.3447 2294784
1136.132 854.02783 3240.8167 2360832
1161.6842 858.72113 3258.6265 2558208
1179.4513 857.60022 3254.3728 2426368
1194.7825 854.77271 3243.6431 2689792
1218.0638 857.63226 3254.4946 2557440
1229.6381 852.28839 3234.2158 2623488
1236.5677 843.93866 3202.5308 2557696
1270.5728 854.04047 3240.8645 2689280
1274.7294 844.07709 3203.0562 2754560
1304.1185 850.8689 3228.8293 3083264
1313.8344 844.81403 3205.8525 3608320
1335.338 846.4035 3211.8845 5053961
1351.9523 844.89276 3206.1514 6696980
1388.8594 855.92999 3248.0349 8144161
1419.3962 862.7934 3274.0796 9196845
1434.7982 860.39569 3264.9812 8802086
1442.6218 853.57788 3239.1094 8736036
1463.7885 854.73029 3243.4824 9327403
1487.9252 857.56476 3254.2383 9064487
1499.4277 853.138 3237.4402 8472351
1535.927 862.86603 3274.3555 8866852
1543.7754 856.45642 3250.0325 9064488
1565.0804 857.57819 3254.2893 8998695
1589.8344 860.53949 3265.5266 9261610
1597.2142 854.13849 3241.2366 9130280
1621.0273 856.57312 3250.4753 9130024
1639.3361 856.07611 3248.5894 9130280
1669.9272 861.93042 3270.8047 9130024
1666.4757 850.28058 3226.5969 8998694
1711.8424 863.52106 3276.8411 11498572
1735.3877 865.58032 3284.6555 8538144
1742.2797 859.37976 3261.126 8735522
1776.4091 866.60278 3288.5352 9130025
1787.2249 862.41895 3272.6587 8143388
1806.8534 862.53198 3273.0876 7879959
1814.6418 857.05054 3252.2871 8406559
1812.9894 847.27222 3215.1809 8407071
1823.0599 843.1189 3199.4202 9788980
1841.4412 842.85498 3198.4185 8538913
1861.6006 843.40204 3200.4946 8143900
1886.9138 846.24939 3211.2996 8933416
1910.3589 848.21051 3218.7415 9131053
1941.0916 853.33661 3238.1936 8143901
1954.4562 850.80182 3228.5747 7552021
1962.1335 845.86438 3209.8384 8802086
1983.4276 846.83545 3213.5234 9065258
1997.9237 844.91339 3206.2295 9065001
2015.4683 844.30438 3203.9187 9394222
2014.1277 835.86938 3171.9099 8341534
2050.0073 842.89404 3198.5667 8538657
2072.76 844.4422 3204.4417 8407327
2087.3997 842.68683 3197.7803 8275744
2104.064 841.77319 3194.3135 8538659
2137.3352 847.46045 3215.895 8209695
2137.2532 839.93939 3187.3547 8538404
2179.9019 849.19623 3222.4819 7551766
2225.8765 859.5766 3261.8728 8078109
2270.7698 869.36438 3299.0149 8604454
2289.833 869.1803 3298.3164 8077856
2305.7432 867.81274 3293.127 7617304
2291.7341 855.30188 3245.6514 7485717
2295.8025 849.68982 3224.355 8407075
2355.0645 864.42932 3280.2876 7814681
2302.4189 838.18774 3180.7078 8736552
2322.6646 838.69281 3182.6243 8078623
2339.9985 838.14685 3180.5525 8867882
2398.4919 852.23438 3234.011 9131309
2449.9177 863.60718 3277.168 9065516
2465.5701 862.2901 3272.1697 8670247
2465.4465 855.51929 3246.4763 8341795
2454.2236 845.03143 3206.6777 8670503
2477.5713 846.51666 3212.3137 8604967
2501.0442 848.02161 3218.0247 8802345
2513.0095 845.63153 3208.9548 8078623
2513.0752 839.30322 3184.9404 7618074
2533.0989 839.68494 3186.3892 7947038
2550.3745 839.15686 3184.385 7157522
2569.3381 839.18787 3184.5027 7947039
2553.9502 828.08032 3142.3525 9920829
2582.2056 831.18201 3154.1226 8342053
2585.1191 826.14044 3134.991 8210723
2650.458 840.97797 3191.2959 8078881
2663.3411 839.07928 3184.0908 7815452
2668.0044 834.63599 3167.2295 7157011
2653.6558 824.34869 3128.1919 12028519
2683.5569 827.8548 3141.4968 9065521
2700.8308 827.44403 3139.938 7289368
2689.96 818.47528 3105.9038 7618078
2691.9744 813.52234 3087.1089 7487004
2703.0881 811.36768 3078.9321 7684128
2730.0022 813.95258 3088.7415 8012836
2770.1729 820.42932 3113.3191 8013350
2820.0757 829.68372 3148.4368 6961694
2825.0457 825.68372 3133.2581 6238745
2813.2146 816.85754 3099.7649 4398600
2794.4365 806.14178 3059.1013 328192
0 0 0 0
2843.9082 809.90637 3073.387 13354918
2844.947 805.047 3054.947 13223332
2867.6748 806.34784 3059.8831 13288866
2876.2419 803.67548 3049.7424 13222817
2899.0813 804.99951 3054.7668 13157024
2918.0071 805.22723 3055.6309 13091230
0 0 0 0
0 0 0 0
0 0 0 0
0 0 0 0
0 0 0 0
0 0 0 0
0 0 0 0
-3052.488 920.24921 3415.3152 1280
-3034.7095 920.99536 3418.0842 1280
-3014.1299 920.89575 3417.7146 1280
-2992.8066 920.56604 3416.491 1280
-2973.8269 920.95758 3417.9441 1280
-2955.2578 921.48254 3419.8923 1280
-2935.5049 921.64307 3420.488 1280
-2914.7292 921.48254 3419.8923 1280
-2895.8574 921.92572 3421.5374 1280
-2875.583 921.92566 3421.5369 1280
-2857.1887 922.53259 3423.7896 1280
-2836.4946 922.40021 3423.2983 1280
-2816.5205 922.50189 3423.6755 1280
-2797.2183 922.82666 3424.8809 1280
-2778.3979 923.31628 3426.698 1280
-2757.2461 923.03278 3425.6458 1280
-2737.7004 923.28656 3426.5874 1280
-2718.0327 923.50275 3427.3899 1280
-2698.1296 923.6416 3427.9053 1024
-2678.7046 923.94739 3429.0403 1024
-2658.3406 923.93158 3428.9814 1024
-2640.1277 924.66882 3431.7178 768
-2618.2341 924.11853 3429.6753 768
-2597.3787 923.92877 3428.9712 768
-2577.3838 924.04462 3429.4011 1024
-2640.8816 954.33405 3541.814 1024
-2606.8877 949.59595 3524.2297 1024
-2585.8333 949.53284 3523.9954 1024
-2564.7024 949.44031 3523.6521 1024
-2546.4641 950.42609 3527.3103 1024
-2524.7363 950.11481 3526.1553 1024
-2500.8896 948.99426 3521.9966 1280
-2491.2063 953.2746 3537.8821 1280
-2455.3677 947.5343 3516.5781 1280
-2437.6421 948.7453 3521.0725 1280
-2416.4331 948.60974 3520.5693 1280
-2394.4221 948.15436 3518.8792 1024
-2373.2266 948.01666 3518.3682 1024
-2343.1943 944.31525 3504.6311 1024
-2329.2886 947.10474 3514.9839 1024
-2310.5146 947.94733 3518.1111 1024
-2280.6946 944.23212 3504.3228 1024
-2261.562 944.914 3506.8533 1024
-2242.7505 945.7439 3509.9333 1024
-2218.8232 944.4118 3504.9897 1280
-2201.9399 946.08118 3511.1851 1280
-2177.7737 944.62317 3505.7742 1280
-2156.9375 944.59564 3505.6719 1280
-2132.7839 943.10065 3500.1233 1280
-2115.5732 944.67633 3505.9712 1280
-2094.9971 944.76569 3506.3027 1280
-2074.5938 944.93567 3506.9336 1280
-2054.1272 945.07977 3507.4688 1280
-2033.4908 945.14795 3507.7217 1280
-2012.8796 945.22949 3508.0242 1280
-1992.3406 945.3468 3508.4597 1280
-1971.7648 945.44904 3508.8391 1280
-1950.6626 945.2984 3508.28 1280
-1929.9843 945.35211 3508.4792 1280
-1909.0216 945.26617 3508.1604 1280
-1881.605 941.94745 3495.8438 1280
-1860.9915 941.99847 3496.033 1280
-1840.2653 941.99292 3496.0125 1280
-1819.5972 942.01727 3496.103 1280
-1790.6936 937.72961 3480.1902 1280
-1770.2281 937.81238 3480.4973 1280
-1749.8353 937.93597 3480.9558 1280
-1729.4142 938.04706 3481.3684 1280
-1708.9468 938.1355 3481.6963 1280
-1687.4338 937.64508 3479.8765 1280
-1667.4218 937.98688 3481.145 1280
-1646.912 938.05396 3481.3936 1280
-1626.2704 938.04645 3481.3657 1280
-1605.8386 938.16132 3481.7922 1280
-1579.3989 934.72357 3469.0337 1280
-1558.2673 934.37805 3467.7515 1280
-1538.009 934.55408 3468.4045 1280
-1516.8195 934.16119 3466.9465 1024
-1496.6115 934.37036 3467.7229 1280
-1476.1262 934.40979 3467.8694 1280
-1457.3651 935.55731 3472.1279 1280
-1435.7057 934.85034 3469.5042 1280
-1414.4347 934.37946 3467.7566 1280
-1393.1622 933.89374 3465.9539 1280
-1373.0173 934.16077 3466.9448 1280
-1352.8865 934.44537 3468.0012 1280
-1332.4961 934.55682 3468.4148 1280
-1311.9235 934.54193 3468.3596 1280
-1290.8505 934.16449 3466.9587 1280
-1270.3444 934.19171 3467.0598 1280
-1248.7917 933.43756 3464.261 1280
-1226.8401 932.35498 3460.2434 1280
-1202.3939 929.30768 3448.9338 1280
-1181.8593 929.23029 3448.6465 1280
-1161.3823 929.19647 3448.521 1280
-1140.6079 928.91907 3447.4917 1280
-1120.3441 929.05511 3447.9963 1280
-1099.5635 928.75964 3446.8999 1280
-1074.6796 924.92139 3432.655 1280
-1057.837 927.98944 3444.0415 1024
-1038.4744 928.92383 3447.5093 1024
-1017.4606 928.38934 3445.5254 768
-991.73633 923.44672 3427.1819 66048
-972.0224 924.0108 3429.2756 394240
-935.63757 908.41321 3371.3884 853760
-929.3125 921.95703 3421.6533 721920
-919.32208 932.38739 3460.3635 1115905
-898.73157 932.29779 3460.0308 1181440
-877.13153 931.13214 3455.7048 1312768
-859.81744 934.56946 3468.4617 1378304
-839.12781 934.41614 3467.8928 1114880
-820.27936 936.35693 3475.0957 983040
-799.9693 936.68634 3476.3181 1114624
-780.16644 937.6427 3479.8674 983040
-757.65442 935.30652 3471.1973 1048832
-736.95801 935.1438 3470.5935 1443328
-715.02698 933.36035 3463.9744 1377280
-694.93219 933.93909 3466.1223 1179904
-672.15442 930.83752 3454.6116 1179904
-647.86896 925.38763 3434.3855 786432
-629.47052 928.26575 3445.0667 917504
-608.88306 928.00049 3444.0823 983040
-588.06006 927.34534 3441.6509 1245696
-566.53021 925.48846 3434.7595 1114112
-545.83673 924.9104 3432.6143 851968
-522.96204 920.44843 3416.0547 1245696
-503.81671 922.45551 3423.5032 1377280
-482.83453 921.12671 3418.5718 1179904
-461.85529 919.68732 3413.2297 1377280
-442.15079 920.77063 3417.2505 1245440
-421.6423 920.20355 3415.1458 1179904
-400.25787 917.57104 3405.3755 1311488
-379.96176 917.28632 3404.3191 1311488
-359.88538 917.53009 3405.2236 1443072
-339.34732 916.55573 3401.6077 1311488
-319.20276 916.58832 3401.7285 1311488
-298.43597 914.71802 3394.7874 1311488
-279.03183 917.05591 3403.4639 1508864
-258.21103 914.73932 3394.8665 1245696
-237.64059 912.99316 3388.386 1245696
-217.33641 912.04224 3384.8567 1179904
-196.4825 908.35626 3371.177 1377280
-176.524 908.44421 3371.5034 1311232
-157.09277 911.61432 3383.2686 1311488
-136.62091 908.78955 3372.7852 1443072
-116.52905 907.95789 3369.6985 1508864
-96.55442 907.8844 3369.4255 1443072
-76.55761 907.5097 3368.0349 1443072
-56.482422 905.61401 3360.9998 1443072
-36.589981 906.1795 3363.0984 1508864
-16.642263 905.09131 3359.0598 1508352
3.2601202 904.70422 3357.623 1508608
23.149481 904.47351 3356.7668 1508352
43.013653 903.9267 3354.7375 1442560
62.785435 902.39764 3349.0627 1376512
82.670158 902.83649 3350.6914 1245184
101.51827 893.97693 3317.8108 1245440
121.3372 895.15411 3322.1799 1639936
141.17961 896.15161 3325.8821 1574145
160.95998 896.55927 3327.3948 1310976
180.62402 896.30078 3326.4353 1245184
200.04903 895.02356 3321.6953 1310976
219.35039 893.47156 3315.9355 1376768
239.46501 895.21503 3322.406 1376768
258.98215 894.6297 3320.2336 1508352
278.9097 895.44464 3323.2581 1639937
297.26736 891.44427 3308.4116 1377024
316.72491 891.03326 3306.8862 1442048
336.26266 890.88257 3306.3269 1376256
355.61081 890.27374 3304.0674 1507840
375.15408 890.19159 3303.7625 1507840
394.73007 890.19135 3303.7615 1376512
414.15579 889.8681 3302.562 1573632
433.9158 890.26013 3304.0166 1771009
453.353 889.98431 3302.9932 1573632
471.18103 886.70319 3290.8162 1573632
491.79584 888.71887 3298.2966 1639168
511.52551 889.04205 3299.4961 1573632
530.66382 888.35138 3296.9331 1639680
550.06598 888.13586 3296.1331 1705472
567.48389 884.84125 3283.9058 1573888
587.26221 885.32343 3285.6953 1639680
606.89648 885.56451 3286.5901 1837057
626.36707 885.55914 3286.5701 1705472
643.34601 882.1377 3273.8721 1705472
663.89124 883.66327 3279.5342 1705216
680.92841 880.56567 3268.0378 1442304
698.13544 877.85284 3257.97 1705216
720.43298 881.51477 3271.5603 1639424
736.22528 877.23358 3255.6716 1573632
755.11835 876.77142 3253.9561 1376512
774.65625 877.06232 3255.0356 1507840
797.24066 880.70447 3268.553 1442304
811.26379 874.94061 3247.1616 1573120
829.39789 873.77478 3242.835 1441792
848.31873 873.4718 3241.7104 1573120
867.03003 872.97125 3239.8528 1573120
885.53516 872.28931 3237.3218 1704704
905.99426 873.5202 3241.8901 1704704
922.89612 871.34143 3233.804 1704704
937.72333 867.33252 3218.9255 2033152
957.22778 867.72314 3220.3755 1835776
976.36816 867.77509 3220.5681 2098432
993.07465 865.70319 3212.8789 2098432
1014.931 868.1142 3221.8269 2098176
1028.9882 863.88831 3206.1433 2163968
1046.7137 862.83978 3202.2517 1769472
1060.8375 858.91223 3187.6755 1769472
1080.6484 859.64618 3190.3994 1572864
1093.5773 854.97443 3173.0613 1835008
1118.3 859.52533 3189.9509 2163456
1138.7751 860.7146 3194.3645 2361088
1157.5549 860.60437 3193.9558 2229504
1174.2926 859.00397 3188.0161 2097664
1189.3804 856.26654 3177.8567 2295296
1203.9596 853.25385 3166.6758 2492673
1223.5835 853.85406 3168.9033 2492673
1243.8162 854.85455 3172.6162 2492673
1247.0626 844.32465 3133.5369 2426880
1272.693 849.03644 3151.0237 2557440
1303.0468 856.71753 3179.5303 2688768
1322.7856 857.30005 3181.6924 3214337
1333.683 852.21655 3162.8259 3410432
1346.7413 848.63562 3149.5361 4988167
1374.9613 854.57605 3171.5828 6434320
1396.5206 856.27228 3177.8779 8276002
1415.6355 856.44452 3178.5171 8406815
1441.3884 860.57544 3193.8481 8801316
1458.4846 859.4978 3189.8489 8669473
1463.9531 851.68317 3160.8462 8735524
1487.3572 854.36835 3170.812 8274717
1508.5314 855.7218 3175.835 8340765
1539.3929 862.4693 3200.877 8669730
1550.5785 858.16296 3184.8948 8670243
1569.0924 857.96741 3184.1689 9262380
1586.8677 857.37726 3181.9788 9196587
1599.4597 854.03339 3169.5688 9393452
1622.4786 856.26996 3177.8694 9393196
1637.7205 854.39789 3170.9216 8998438
1652.1774 852.16345 3162.6289 9393195
1677.2632 855.39996 3174.6404 8340510
1698.5508 856.64899 3179.2761 8011545
1745.6218 870.73163 3231.5408 9525298
1734.6095 855.85059 3176.3127 8736037
1753.6346 855.9502 3176.6826 8670244
1770.3657 854.94 3172.9333 9065002
1786.7886 853.80359 3168.7161 8802087
1796.9763 849.74249 3153.644 8473121
1814.0615 848.99292 3150.8623 8604709
1813.5811 840.1217 3117.9382 8933417
1847.0149 846.98132 3143.3965 8538659
1860.2532 844.53534 3134.3188 8341536
1895.4264 851.99768 3162.0134 8538915
1917.7914 853.61292 3168.0081 8341537
1939.0225 854.69684 3172.0312 8407330
1947.479 850.18329 3155.28 8604709
1966.5164 850.33075 3155.8274 8341280
1983.7152 849.68805 3153.4419 8275744
2004.7291 850.67603 3157.1086 8933415
2004.7388 842.81543 3127.9355 8472864
2021.2335 841.96588 3124.7825 8538913
2046.1045 844.58923 3134.5188 8275485
2052.0942 839.44171 3115.4148 8078363
2088.8267 846.84967 3142.908 8604709
2112.2241 848.76825 3150.0281 8670245
2136.0132 850.80914 3157.6028 8538916
2162.0647 853.70789 3168.3608 8473122
2189.8567 857.23822 3181.4629 7748888
2191.9983 850.75275 3157.3936 7748888
2249.8906 865.83197 3213.3567 7748888
2250.3313 858.73419 3187.0149 7814938
2262.2563 856.10052 3177.2407 9196847
2290.2292 859.53326 3189.9805 9131054
2273.4463 846.25031 3140.6833 8933932
2298.467 848.61731 3149.468 8670759
2322.7375 850.67139 3157.0913 8275745
2354.8181 855.53015 3175.1235 8473382
2382.5405 858.74097 3187.04 8012831
2415.5396 863.78827 3205.7722 8472868
2420.1233 858.67493 3186.7949 8671016
2427.2095 854.52167 3171.3811 8802345
2440.594 852.63269 3164.3704 8933931
2443.7598 847.22974 3144.3186 8538917
2457.6853 845.61066 3138.3093 8275745
2462.7378 840.98584 3121.1455 8539176
2482.9377 841.56403 3123.2913 8407333
2481.0903 834.71625 3097.8772 8144161
2469.0688 824.57129 3060.2263 8144417
2490.1926 825.56281 3063.906 8407333
2500.8311 823.08893 3054.7249 8473383
2529.6501 826.59137 3067.7234 8473896
2584.8894 838.61536 3112.3477 8408103
2567.9207 827.20837 3070.0132 8210210
2602.9822 832.60468 3090.0405 7815196
2655.2578 843.39331 3130.0803 7025937
2643.2283 833.74866 3094.2861 8473895
2615.7856 819.40863 3041.0662 7420950
2638.7827 820.95709 3046.813 8605224
2642.6555 816.57532 3030.5508 8342310
2694.1736 826.87555 3068.7781 7684895
2689.7725 819.99042 3043.2253 8474155
2710.2251 820.72339 3045.9456 8079653
2724.196 819.49683 3041.3933 7947813
2746.0503 820.64221 3045.6443 7421985
2756.0117 818.24176 3036.7354 7226918
2772.4961 817.79651 3035.083 1508865
2804.2983 821.84607 3050.1123 1312768
0 0 0 0
2814.1777 814.24622 3021.9067 13288099
2804.0259 806.17932 2991.9683 13354404
2812.0496 803.40662 2981.678 13222816
2837.5449 805.62897 2989.9258 13288609
2850.5664 804.30426 2985.0095 13222817
0 0 0 0
0 0 0 0
0 0 0 0
0 0 0 0
0 0 0 0
0 0 0 0
0 0 0 0
-2988.8064 920.86572 3344.0642 1280
-2970.0486 921.1936 3345.2546 1280
-2950.3645 921.23663 3345.4111 1280
-2930.5627 921.24329 3345.4353 1280
-2910.6052 921.20068 3345.2808 1280
-2892.8062 921.8454 3347.6218 1280
-2874.2212 922.24683 3349.0796 1280
-2853.8696 922.08301 3348.4849 1280
-2834.594 922.26703 3349.1528 1280
-2815.104 922.38336 3349.5754 1280
-2794.353 922.08527 3348.4929 1280
-2772.9285 921.55908 3346.582 1280
-2755.7874 922.45911 3349.8503 1280
-2736.3542 922.59937 3350.3599 1280
-2716.6846 922.66144 3350.585 1024
-2698.2432 923.14453 3352.3394 1024
-2684.9253 925.40063 3360.5325 1024
-2660.1016 923.69537 3354.3398 1024
-2639.865 923.56909 3353.8813 1024
-2625.9753 925.67834 3361.541 1024
-2603.3809 924.72778 3358.0891 768
-2583.0073 924.55762 3357.4709 1024
-2561.8687 924.10876 3355.8411 1024
-2540.7327 923.65393 3354.1892 1280
-2525.2717 925.27118 3360.0623 1280
-2500.7534 923.56909 3353.8813 1280
-2565.6299 955.11926 3468.4539 1024
-2530.8674 949.78644 3449.0876 1024
-2510.4919 949.80963 3449.1724 1024
-2490.1526 949.84723 3449.3086 1024
-2469.1113 949.61542 3448.4668 1024
-2449.1394 949.79449 3449.1169 1280
-2428.9661 949.89771 3449.4919 1280
-2408.1394 949.74512 3448.9377 1280
-2396.5635 953.26947 3461.7361 1280
-2366.9771 949.62885 3448.5156 1280
-2346.2615 949.51489 3448.1016 1024
-2315.6096 945.34247 3432.9497 1280
-2295.4131 945.4021 3433.1663 1024
-2275.0586 945.39716 3433.1487 1024
-2255.2683 945.62891 3433.9902 1280
-2235.1729 945.73578 3434.3782 1280
-2214.3823 945.54761 3433.6951 1280
-2197.395 946.99512 3438.9514 1280
-2172.8823 945.19617 3432.4187 1280
-2152.1545 945.02527 3431.7979 1280
-2131.9011 945.06128 3431.9287 1280
-2112.8647 945.6427 3434.0403 1280
-2084.7163 942.11755 3421.239 1280
-2072.8367 945.94769 3435.1477 1280
-2052.2532 945.84216 3434.7644 1280
-2032.0637 945.91797 3435.0398 1280
-2011.9589 946.0351 3435.4651 1280
-1991.7258 946.09369 3435.678 1280
-1971.8918 946.34515 3436.5911 1280
-1951.7279 946.44171 3436.9419 1280
-1924.5974 943.12653 3424.9028 1280
-1904.1777 943.06421 3424.6768 1280
-1883.9614 943.10248 3424.8154 1280
-1863.5872 943.06152 3424.6667 1280
-1843.8682 943.35492 3425.7324 1280
-1823.7793 943.46362 3426.127 1280
-1803.4291 943.43793 3426.0337 1280
-1783.599 943.68689 3426.9377 1280
-1763.9406 944.03339 3428.1963 1280
-1738.9639 941.50873 3419.0278 1280
-1716.1271 940.09662 3413.8999 1024
-1696.3995 940.37439 3414.9087 1280
-1676.6078 940.62286 3415.811 1280
-1656.1763 940.51416 3415.4163 1280
-1632.5677 938.57629 3408.3792 1280
-1613.7808 939.39648 3411.3574 1280
-1590.4846 937.57947 3404.759 1280
-1570.446 937.66052 3405.0535 1280
-1551.1445 938.18976 3406.9753 1280
-1529.358 937.20996 3403.417 1280
-1508.9185 937.04041 3402.8015 1280
-1489.8029 937.69971 3405.1956 1024
-1466.4639 935.68219 3397.8694 1280
-1446.6858 935.91229 3398.7048 1280
-1428.7819 937.37854 3404.0293 1280
-1408.9635 937.61261 3404.8794 1280
-1388.2782 937.26837 3403.6292 1280
-1367.9707 937.17261 3403.2817 1280
-1347.5474 936.99359 3402.6313 1280
-1327.7936 937.28168 3403.6777 1280
-1307.3087 937.05469 3402.8533 1280
-1287.08 937.00708 3402.6804 1280
-1266.4755 936.67987 3401.4924 1280
-1242.7223 933.97589 3391.6729 1280
-1221.1284 932.83246 3387.5205 1280
-1199.7192 931.79413 3383.75 1280
-1179.6914 931.81171 3383.814 1280
-1160.1387 932.21179 3385.2666 1280
-1138.2159 930.68781 3379.7324 1280
-1118.1958 930.69293 3379.751 1280
-1098.5577 931.02203 3380.9463 1280
-1079.0714 931.49432 3382.6614 1280
-1058.7794 931.27594 3381.8682 1280
-1039.3727 931.84265 3383.9263 1280
-1018.9321 931.48663 3382.6333 1024
-997.59888 930.28387 3378.2656 768
-973.52582 926.42462 3364.251 512
-959.80432 932.46063 3386.1704 328704
-924.68787 917.52521 3331.9333 985600
-904.60413 917.17975 3330.679 1050368
-890.78876 923.31616 3352.9629 918272
-882.92224 936.03937 3399.1663 786944
-853.45068 925.91705 3362.4077 918016
-843.19495 936.65649 3401.4072 983552
-828.58972 942.97211 3424.342 917760
-804.95917 939.0755 3410.1919 851968
-784.67456 938.98236 3409.8538 851968
-764.93036 939.54816 3411.9082 917504
-745.23486 940.20599 3414.2971 983040
-724.4248 939.45508 3411.5703 1048832
-701.04822 935.2373 3396.2539 1312000
-682.15228 936.92419 3402.3796 1312000
-661.59155 936.35779 3400.3225 1114368
-641.01416 935.73138 3398.0479 1311232
-613.13428 924.05872 3355.6592 1311488
-598.87091 932.81293 3387.4497 1311232
-578.75018 932.73444 3387.1646 917504
-554.14996 925.17157 3359.7007 1114368
-531.13428 919.78918 3340.1548 1311488
-510.83636 918.8786 3336.8481 1443072
-491.39407 919.49597 3339.0898 1508864
-471.10205 918.50824 3335.5032 1245696
-450.47879 916.76001 3329.1545 1245696
-430.78381 916.82721 3329.3987 1179904
-411.37198 917.53253 3331.9597 1377280
-390.93796 915.91394 3326.0823 1179904
-371.04947 915.46967 3324.4685 1114112
-351.46255 915.76111 3325.5271 1245696
-331.56668 915.2345 3323.6147 1245696
-310.47119 911.12085 3308.6763 1245696
-290.88058 911.16669 3308.8428 983040
-270.65268 909.07855 3301.2598 1377280
-251.22772 909.5722 3303.0525 1311488
-231.58473 909.29315 3302.0391 1311488
-211.64215 907.67761 3296.1724 1245696
-191.96263 906.97656 3293.6267 1179904
-172.44014 906.94281 3293.5039 1245696
-152.65149 905.32184 3287.6177 1245696
-133.25011 905.8595 3289.5698 1311488
-113.73791 905.69873 3288.9863 1245696
-94.288048 906.07068 3290.3369 1377280
-74.772156 905.83661 3289.4868 1508864
-55.080387 902.55542 3277.5715 1443072
-35.629505 901.79724 3274.8181 1311488
-16.221346 901.6001 3274.1023 1574144
3.1811981 902.21643 3276.3406 1245440
22.589825 902.01648 3275.6145 1179904
41.929916 900.52948 3270.2144 1114112
61.28651 900.22485 3269.1082 1114112
80.649139 900.13385 3268.7778 1245440
100.10733 900.93823 3271.6987 1376512
119.38818 900.14441 3268.8162 1376768
138.66429 899.5415 3266.6267 1376768
157.93602 899.06128 3264.8828 1310976
176.7036 896.12933 3254.2354 1310976
195.78735 895.21985 3250.9329 1179648
214.937 894.74756 3249.218 1442560
234.18773 894.73926 3249.1875 1639680
253.47949 894.87701 3249.688 1574144
271.87103 892.0415 3239.3911 1508352
291.42029 893.12817 3243.3372 1508096
310.51276 892.76709 3242.0259 1574144
329.63858 892.53833 3241.1951 1705986
348.64786 892.03662 3239.373 1705473
367.56378 891.36084 3236.9192 1639424
387.03174 892.02441 3239.3289 1573632
405.64032 890.7381 3234.6577 1573632
424.28616 889.64612 3230.6921 1705217
444.00577 890.80267 3234.8921 1639424
462.43796 889.38751 3229.7529 1705217
481.55008 889.34039 3229.582 1573632
500.74786 889.44916 3229.9771 1639424
518.75995 887.52136 3222.9763 1639680
537.83582 887.48572 3222.8469 1771264
556.76782 887.22333 3221.894 1705472
575.69843 886.97626 3220.9968 1639680
594.34961 886.32825 3218.6436 1705216
610.4754 882.07166 3203.186 1573632
629.57898 882.24463 3203.8142 1442304
651.35052 886.03668 3217.5847 1179648
670.93964 886.72864 3220.0977 1508096
685.92578 881.46735 3200.9915 1442304
705.06348 881.6806 3201.7659 1508096
727.34576 885.71191 3216.4055 1508096
745.58136 884.73541 3212.8594 1573888
759.12988 878.38422 3189.7954 1639424
777.73016 878.04492 3188.563 1442304
793.67505 874.7948 3176.7607 1310720
817.31415 879.97961 3195.5889 1573120
830.56036 873.99323 3173.8496 1573120
848.46259 873.06281 3170.4712 1573120
867.27985 873.09393 3170.5842 1704448
884.64587 871.69391 3165.4998 1573120
906.03754 874.23615 3174.7319 1770496
920.70142 870.31549 3160.4944 1638912
939.44464 870.33038 3160.5483 1704192
960.70654 872.63239 3168.908 1638656
971.08844 865.15295 3141.7471 1703936
990.31458 865.68634 3143.6838 1900800
1007.3913 864.35565 3138.8516 2229760
1023.8146 862.52277 3132.1953 2163968
1043.2908 863.28119 3134.9497 2097920
1058.1545 860.26331 3123.9905 2229504
1075.1721 859.07019 3119.6577 2295296
1096.9037 861.62024 3128.918 1966336
1119.1855 864.51056 3139.4141 2163712
1126.2102 855.71362 3107.4688 2229504
1148.6743 858.74213 3118.4666 2361088
1166.7275 858.42957 3117.3315 2295296
1183.303 857.05627 3112.3445 2295296
1203.1771 858.07776 3116.054 2624258
1209.0155 849.20966 3083.8499 2295040
1229.6631 850.85266 3089.8164 2689794
1249.7554 852.06897 3094.2332 2754561
1264.8445 849.88812 3086.3137 3017731
1287.5905 852.84119 3097.0376 2623488
1308.0566 854.22235 3102.0532 2754560
1328.436 855.5094 3106.7271 3148801
1334.8748 847.90619 3079.1162 3147776
1352.4926 847.51312 3077.689 3935744
1377.0951 851.44922 3091.9827 5381895
1393.3972 850.21716 3087.5085 8012835
1432.6891 862.8631 3133.4314 8275487
1447.3218 860.52405 3124.9373 8341536
1466.3527 860.82593 3126.0337 8341792
1480.8892 858.51489 3117.6411 9130538
1493.3513 855.07294 3105.1421 8735266
1511.5569 854.96344 3104.7444 8603680
1529.9403 854.95593 3104.717 8669474
1539.5669 850.11328 3087.1313 8801316
1562.3221 852.54852 3095.9749 8801829
1589.7627 857.45447 3113.7903 8999208
1600.9193 853.56555 3099.668 8341536
1625.0059 856.58057 3110.6169 8012572
1630.8765 850.03357 3086.8418 8407075
1637.8384 844.19427 3065.637 8275488
1653.2683 842.79993 3060.5735 7683351
1678.1945 846.22437 3073.009 7749400
1705.178 850.6015 3088.9043 7617045
1760.771 869.00549 3155.7373 7617814
1753.3835 856.26617 3109.4751 7617813
1764.7866 852.87268 3097.1519 8209694
1778.3247 850.57031 3088.7908 8209694
1789.2292 847.06799 3076.0725 8341535
1806.9884 846.84875 3075.2764 8604706
1824.5948 846.56305 3074.2388 8867880
1849.0927 849.44873 3084.718 9262638
1855.5365 844.06543 3065.1689 8473120
1893.5695 853.01672 3097.675 8933672
1926.0474 859.31775 3120.5566 8604708
1929.7966 852.80341 3096.9004 8209949
1946.2306 851.96454 3093.8538 8407329
1960.828 850.34473 3087.9719 8867879
1979.8597 850.66028 3089.1177 8078106
1996.7009 850.03735 3086.8557 8012570
2012.8478 849.13293 3083.5713 8209692
2029.0815 848.28107 3080.4778 7946776
2051.8918 850.16931 3087.3347 8933417
2070.4202 850.26569 3087.6846 8933418
2081.3408 847.26343 3076.7822 8078364
2120.3562 855.65076 3107.2402 8538659
2155.0789 862.17609 3130.9368 8275487
2148.7319 852.29993 3095.072 7946523
2161.7595 850.21075 3087.4854 7683095
2157.3369 841.3512 3055.3123 9065004
2186.0696 845.46173 3070.2397 7814938
2232.7456 856.3869 3109.9136 8669990
2262.1406 860.5592 3125.0649 8867625
2268.3811 855.92676 3108.2427 9065517
2301.3203 861.362 3127.9805 8341794
2292.0325 851.03162 3090.4661 8604711
2345.5764 864.00958 3137.5947 8801577
2392.3052 874.29254 3174.9368 7683353
2379.835 862.9491 3133.7437 7617561
2407.2883 866.14575 3145.3523 8012062
2380.7102 850.0022 3086.7278 8144160
2395.571 848.78711 3082.3154 8276002
2407.813 846.66962 3074.6257 8341795
2416.1809 843.23175 3062.1416 8341540
2443.9675 846.57184 3074.2708 8999470
2452.7244 843.31934 3062.4597 8670762
2457.9329 838.90363 3046.4241 8473126
2453.9912 831.45209 3019.3643 8341540
2474.3201 832.27209 3022.342 8341283
2469.3083 824.61786 2994.5464 8078881
2513.6038 833.42151 3026.5161 7749916
2516.5645 828.49225 3008.6157 8210723
2518.9348 823.43945 2990.2668 8144675
2553.1521 828.79517 3009.7158 8210724
2547.6895 821.28522 2982.4438 8408360
2557.3716 818.72717 2973.1548 8211237
2565.9656 815.85828 2962.7363 8145188
2583.4255 815.82819 2962.6272 8276774
2603.5518 816.63477 2965.5562 8079395
2608.8826 812.82086 2951.7063 8145444
2634.4915 815.3335 2960.8308 8277546
2651.7212 815.23676 2960.4795 8868913
2668.7827 815.09009 2959.9468 7949355
2711.5171 822.73499 2987.7087 6568218
2751.502 829.4519 3012.1006 5385746
2803.6577 839.72748 3049.4158 458752
2818.5078 838.76947 3045.937 1510659
0 0 0 0
2765.9836 812.72992 2951.376 13419941
2772.2708 809.45947 2939.4995 13420196
2792.0808 810.15356 2942.0203 13420196
2805.4324 808.97687 2937.7468 13288610
0 0 0 0
0 0 0 0
0 0 0 0
0 0 0 0
0 0 0 0
0 0 0 0
0 0 0 0
-2927.2988 921.32208 3275.2456 1280
-2909.8145 921.93121 3277.4111 1024
-2890.572 921.98785 3277.6125 1024
-2869.9377 921.59833 3276.2278 1024
-2851.3765 921.87372 3277.2065 1024
-2835.1799 922.92261 3280.9353 768
-2816.6245 923.21283 3281.967 1280
-2797.5044 923.32068 3282.3506 1280
-2778.6511 923.51886 3283.0549 1280
-2759.0413 923.46643 3282.8687 1280
-2737.731 922.84009 3280.6421 1280
-2718.0142 922.74585 3280.3071 1280
-2700.7517 923.4895 3282.9507 1280
-2682.5273 923.91248 3284.4546 1280
-2669.6794 926.20721 3292.6118 1280
-2650.8801 926.45563 3293.4949 768
-2627.4048 925.06128 3288.5383 768
-2607.3828 924.87109 3287.8623 768
-2588.4622 925.07178 3288.5754 768
-2570.751 925.71094 3290.8477 768
-2548.7747 924.81226 3287.6528 768
-2530.678 925.3183 3289.4519 1024
-2510.8643 925.19952 3289.0295 1280
-2490.9958 925.05853 3288.5283 1280
-2470.7273 924.7655 3287.4868 1280
-2451.6843 924.9303 3288.0725 1280
-2432.3223 924.97632 3288.2361 1024
-2489.8523 954.50018 3393.1917 1280
-2460.4883 950.92212 3380.4722 1280
-2438.4839 950.15308 3377.738 1280
-2420.7402 951.04517 3380.9097 1280
-2394.7358 948.67975 3372.5005 1280
-2378.3682 950.12415 3377.6353 1280
-2360.3088 950.91168 3380.4348 1280
-2335.5439 948.98785 3373.5959 1280
-2312.1055 947.57446 3368.5715 1280
-2292.1877 947.5921 3368.634 1024
-2271.4473 947.26685 3367.4778 1280
-2250.8804 947.00891 3366.5605 1280
-2230.8362 946.96808 3366.4155 1280
-2210.7163 946.89429 3366.1531 1280
-2191.7 947.2959 3367.5811 1280
-2171.4209 947.15436 3367.0776 1280
-2151.2544 947.05951 3366.7407 1280
-2131.3328 947.07178 3366.7842 1280
-2111.1201 946.9538 3366.3647 1280
-2091.0439 946.89526 3366.157 1280
-2071.0813 946.88757 3366.1296 1280
-2052.0967 947.33136 3367.707 1280
-2032.6381 947.56274 3368.5295 1280
-2012.7115 947.57849 3368.5854 1280
-1985.7714 944.25934 3356.7861 1280
-1965.8583 944.24841 3356.7473 1280
-1945.5408 944.04108 3356.0103 1280
-1926.0133 944.21661 3356.6343 1280
-1905.9637 944.13727 3356.3523 1280
-1887.1403 944.67004 3358.2461 1280
-1867.1913 944.64471 3358.1562 1280
-1847.3785 944.68854 3358.312 1280
-1820.363 941.00995 3345.2349 1280
-1808.2007 945.01306 3359.4656 1280
-1788.3204 945.02673 3359.5144 1280
-1768.4517 945.04681 3359.5857 1280
-1749.1256 945.36078 3360.7017 1280
-1729.5536 945.54755 3361.3657 1280
-1709.6532 945.55688 3361.3989 1280
-1688.9614 945.12378 3359.8591 1280
-1664.2415 942.39911 3350.1733 1280
-1644.2625 942.32599 3349.9131 1280
-1626.902 943.76984 3355.0459 1280
-1607.4553 944.02435 3355.9507 1280
-1586.4596 943.36401 3353.6035 1280
-1565.8068 942.89349 3351.9309 1280
-1546.3069 943.11401 3352.7148 1280
-1531.725 946.37897 3364.3213 1280
-1506.4788 943.05414 3352.502 1280
-1485.9867 942.65631 3351.0876 1280
-1464.8148 941.81055 3348.0811 768
-1446.5273 942.82166 3351.6755 1280
-1427.1624 943.14886 3352.8386 1280
-1407.8512 943.52124 3354.1624 1280
-1388.228 943.69244 3354.7708 1280
-1368.3182 943.67065 3354.6936 1280
-1348.7881 943.914 3355.5586 1280
-1328.7858 943.82928 3355.2573 1280
-1308.776 943.73657 3354.928 1280
-1289.4169 944.11737 3356.2817 1280
-1268.7545 943.54114 3354.2329 1280
-1247.9591 942.84595 3351.7615 1280
-1223.8956 939.61908 3340.2905 1280
-1203.1405 938.86804 3337.6204 1280
-1182.8219 938.43805 3336.092 1280
-1161.5736 937.24335 3331.845 1280
-1143.5193 938.62915 3336.7712 1280
-1120.6967 936.08087 3327.7122 1280
-1100.5972 935.75647 3326.5591 1280
-1079.9865 934.97772 3323.7908 1280
-1059.3303 934.13013 3320.7773 1280
-1007.0855 904.86768 3216.7515 1024
-1016.3765 930.83307 3309.0566 1024
-992.11499 926.48688 3293.6062 768
-979.48145 933.04309 3316.9131 768
-965.82812 938.87628 3337.6499 66048
-923.83929 916.83276 3259.2864 394240
-907.87408 920.22571 3271.3481 787456
-898.93506 931.04388 3309.8062 524288
-882.7691 934.69244 3322.7766 721152
-860.42175 931.81335 3312.5415 786944
-843.23352 934.5174 3322.1541 983808
-822.69153 933.5451 3318.6978 720896
-803.24292 933.79614 3319.5903 917504
-784.0968 934.42035 3321.8093 1114624
-763.92004 933.81683 3319.6638 1049088
-744.5141 934.14862 3320.8433 1114624
-723.72168 932.71143 3315.7341 1049088
-703.84827 932.41168 3314.6685 1114624
-684.20752 932.41156 3314.6682 1246208
-662.50092 929.51312 3304.3643 1245952
-641.10187 926.88281 3295.0137 1443072
-623.9942 930.48639 3307.8242 1443072
-601.12018 925.44623 3289.9067 1311488
-581.21356 924.78967 3287.5728 1508864
-561.32916 924.12427 3285.207 1508864
-542.23615 924.76068 3287.4695 1442816
-521.19629 922.00043 3277.6572 1508864
-501.89148 922.21466 3278.4189 1311488
-481.43124 920.23773 3271.3909 1180160
-462.34393 920.82935 3273.4939 1245952
-442.45657 919.80945 3269.8682 1179904
-422.90225 919.4201 3268.4844 1179904
-401.78973 915.44336 3254.3469 1377280
-382.11923 914.51666 3251.0527 1245696
-362.77676 914.31836 3250.3479 1179904
-344.34219 916.51434 3258.1545 1114112
-323.34528 911.74609 3241.2036 1048576
-304.2402 912.047 3242.2732 1179904
-284.97659 911.88104 3241.6833 1179904
-265.54999 911.13196 3239.0203 1245696
-247.25261 914.4425 3250.7891 1443072
-226.46725 908.33344 3229.0718 851968
-206.70734 905.58923 3219.3162 1048832
-187.66312 905.74139 3219.8572 1180160
-168.54634 905.53821 3219.1348 1114112
-149.32675 904.66022 3216.0137 1245696
-130.48506 906.14966 3221.3086 1311488
-111.31469 905.47589 3218.9133 1311488
-92.265572 905.71381 3219.7593 1311488
-73.258705 906.59863 3222.9048 1377024
-54.058643 904.87366 3216.7722 1377280
-34.999207 904.90546 3216.8855 1508864
-15.921612 903.98242 3213.6042 1508864
3.1210859 904.21478 3214.4304 1508608
22.168665 904.24701 3214.5447 1245696
41.270905 905.44861 3218.8164 1245696
60.262051 904.22369 3214.4619 1311744
79.063934 901.42932 3204.5281 1377280
98.169296 902.5072 3208.3599 1377024
116.97854 900.95471 3202.8408 1245696
135.6436 898.88007 3195.4658 1114368
154.80406 900.19458 3200.1387 1508352
173.62744 899.47595 3197.584 1442560
192.54237 899.32623 3197.0518 1376768
211.36932 898.82935 3195.2852 1376512
230.19141 898.39514 3193.7417 1508352
248.93358 897.73859 3191.4077 1508352
267.6944 897.23737 3189.6257 1442560
285.29968 893.18457 3175.2185 1442560
304.02527 892.92358 3174.2908 1508352
323.09995 893.65863 3176.9036 1508352
341.59772 892.80481 3173.8684 1508096
360.63596 893.37903 3175.9097 1573632
379.03195 892.38416 3172.373 1573632
397.85922 892.45087 3172.6101 1507840
416.42227 891.94543 3170.8135 1639168
435.3324 892.19501 3171.7007 1639424
452.91306 889.81201 3163.2292 1573632
472.58545 891.56464 3169.4597 1507840
492.31573 893.28827 3175.5872 1573376
509.61218 890.63153 3166.1426 1442304
526.53851 887.53949 3155.1506 1310720
545.51361 887.99469 3156.7686 1573632
564.93146 889.11633 3160.7561 1705472
582.50867 887.36212 3154.52 1705472
600.43964 886.2392 3150.5281 1508096
618.62732 885.55145 3148.0833 1771264
639.16254 888.16602 3157.3777 1639680
655.81726 885.39294 3147.5198 1705472
671.14044 881.02527 3131.9929 1573888
688.94983 880.0686 3128.592 1508096
707.26825 879.79529 3127.6204 1310720
725.48462 879.41217 3126.2585 1376512
742.61096 877.75983 3120.3843 1508096
766.29724 883.75311 3141.6899 1179648
778.98126 877.0744 3117.9478 1376768
800.82941 880.7843 3131.136 1836544
815.49207 876.60205 3116.2686 1836288
830.92859 873.41864 3104.9517 1770240
848.9574 873.03876 3103.6013 1507584
866.52777 872.21362 3100.6682 1573120
883.98944 871.31586 3097.4763 1573120
902.16852 871.14709 3096.8765 1638656
920.04352 870.6972 3095.2773 1507584
939.89093 872.09521 3100.2471 1572864
954.94769 869.07977 3089.5273 1310720
972.22339 868.15918 3086.2546 1376256
991.10394 868.67914 3088.103 1770240
1006.2204 865.94098 3078.3689 1901568
1025.0529 866.44122 3080.1472 1967360
1042.9395 866.13855 3079.0713 1769984
1056.6292 862.42072 3065.8547 1835776
1073.2178 861.1546 3061.3538 2229760
1089.6465 859.80444 3056.5542 1901056
1103.2565 856.31073 3044.134 1901056
1125.2643 859.34265 3054.9124 1967104
1142.7358 858.86908 3053.229 1769728
1152.7528 852.8949 3031.991 2164224
1168.7717 851.47662 3026.949 2493186
1195.4354 857.73883 3049.2109 2163968
1214.4492 858.40747 3051.5879 2492416
1231.7988 857.89752 3049.7751 2558210
1248.4226 856.90399 3046.2432 2689536
1266.7131 857.06665 3046.8215 2624000
1286.8851 858.4798 3051.845 2755329
1309.4341 861.41736 3062.2881 2820608
1330.2338 863.13983 3068.4111 2754560
1347.6188 862.62994 3066.5986 2688768
1368.7281 864.4859 3073.1963 2885376
1380.921 860.73547 3059.8638 2950144
1392.2719 856.56421 3045.0352 4067587
1417.8689 861.1521 3061.345 6236686
1439.4895 863.23956 3068.7656 8538408
1470.7434 870.9798 3096.2817 8867625
1465.4591 857.15784 3047.1455 8801830
1482.3794 856.50189 3044.8137 8866852
1495.4333 853.65466 3034.6919 8472351
1512.9785 853.40839 3033.8164 8472351
1528.5366 852.06024 3029.0239 8736292
1542.3398 849.77649 3020.9053 8473120
1575.5989 858.14166 3050.6431 8736036
1591.9369 857.20569 3047.3157 8867623
1600.6295 852.22003 3029.592 8275487
1614.8236 850.24164 3022.5588 7946779
1621.5336 844.40936 3001.8254 8407330
1656.1788 853.09302 3032.6953 8275743
1672.4142 852.20911 3029.5532 8143902
1687.6816 850.85602 3024.7429 8539429
1715.4924 855.78882 3042.2786 7025677
1729.3492 853.7301 3034.9602 8343080
1753.8499 856.91437 3046.28 7552277
1758.4149 850.3927 3023.0959 8144156
1768.1354 846.47064 3009.1531 8670245
1798.5825 852.45038 3030.4109 8801829
1824.1377 856.0163 3043.0874 8209693
1844.6316 857.16052 3047.155 8736292
1864.9739 858.21277 3050.8958 8275487
1887.332 860.16364 3057.8308 8472866
1901.616 858.43237 3051.6765 8341536
1921.8588 859.3985 3055.1108 8341280
1949.2881 863.53009 3069.7986 8012572
1954.5239 857.84454 3049.5867 8275744
1967.8826 855.79565 3042.303 8538146
1985.2667 855.51874 3041.3186 8341023
2003.8567 855.76166 3042.1824 8340766
2023.3065 856.36432 3044.3245 8341536
2052.0801 860.86761 3060.3335 8144157
2065.8081 859.03558 3053.8206 8604452
2093.1345 862.84088 3067.3484 8802087
2113.147 863.5918 3070.0178 8144158
2107.4607 853.91693 3035.6243 8341025
2091.2195 840.16541 2986.7383 8209695
2141.47 853.13397 3032.8408 9064748
2149.6934 849.28302 3019.1509 8012060
2184.52 855.91907 3042.7419 8077853
2208.1738 858.10474 3050.5117 7354386
2222.4802 856.65198 3045.3472 9130541
2243.8752 857.93286 3049.9006 8538662
2278.7563 864.30841 3072.5654 5381893
2290.0078 861.69153 3063.2625 7617303
2342.6006 874.54938 3108.9714 8472868
2338.8918 866.35187 3079.8298 8604199
2328.6841 855.89276 3042.6484 8143905
2355.2095 858.99158 3053.6643 7946525
2338.8091 846.50665 3009.2812 7814940
2370.8772 851.62054 3027.4609 7223059
2390.061 852.06439 3029.0388 7091218
2402.8853 850.25122 3022.593 8143905
2412.4619 847.32434 3012.188 7486231
2420.6797 843.96661 3000.2515 8341797
2417.8945 836.84967 2974.9512 7815196
2415.3987 829.93518 2950.3706 8407335
2438.5474 831.86823 2957.2424 8341799
2486.6475 842.22473 2994.0591 8013091
2493.4585 838.54901 2980.9922 8736558
2527.3662 843.97339 3000.2756 8736811
2514.8235 833.91907 2964.5332 7750172
2518.4392 829.3252 2948.2021 8013345
2548.4558 833.42865 2962.7896 8013345
2552.0083 828.88037 2946.6208 8342053
2569.1724 828.78497 2946.2817 7619101
2582.4102 827.4328 2941.4749 8145188
2604.9021 829.04407 2947.2026 8078627
2612.7078 825.99078 2936.3486 8737583
2631.9888 826.58185 2938.4497 7750689
2629.6807 820.4295 2916.5786 8671534
2680.4268 830.80188 2953.4517 8474415
2722.1228 838.25269 2979.9387 7950128
2730.3743 835.37488 2969.7085 5583902
2792.1758 848.81293 3017.48 721152
2762.991 834.59662 2966.9417 2695434
2685.8252 806.1582 2865.845 13354918
2728.8206 813.9173 2893.4282 13420451
2743.5413 813.19885 2890.874 13617573
2768.0557 815.37421 2898.6072 13485989
0 0 0 0
0 0 0 0
0 0 0 0
0 0 0 0
0 0 0 0
0 0 0 0
0 0 0 0
-2870.5125 922.4801 3211.7095 1280
-2851.7434 922.56476 3212.0042 1280
-2833.0557 922.67694 3212.3948 1024
-2814.573 922.85797 3213.0251 1024
-2797.0889 923.37109 3214.8115 1024
-2779.6479 923.90564 3216.6726 1280
-2787.1194 932.78516 3247.5874 1280
-2767.9624 932.81415 3247.6885 1024
-2723.6965 924.32263 3218.1245 1024
-2704.5864 924.30847 3218.0752 1024
-2683.8828 923.74567 3216.1157 1024
-2666.0774 924.1795 3217.626 1024
-2647.1799 924.23822 3217.8306 1024
-2637.9719 927.70532 3229.9016 1024
-2610.969 924.91937 3220.2019 1024
-2592.0522 924.97803 3220.4062 768
-2573.699 925.23999 3221.3184 768
-2554.9397 925.35895 3221.7324 768
-2536.1841 925.48108 3222.1575 768
-2517.6689 925.69336 3222.8967 1024
-2498.6875 925.73602 3223.0454 1024
-2479.4922 925.69977 3222.9189 1280
-2460.4373 925.71558 3222.9741 1024
-2440.0557 925.2287 3221.2788 1024
-2420.437 925.02557 3220.5718 1024
-2402.1167 925.31952 3221.595 1024
-2382.0002 924.92065 3220.2063 1024
-2362.2458 924.65698 3219.2886 1024
-2412.2227 951.90631 3314.1599 1280
-2384.6304 948.74158 3303.1416 1280
-2365.584 948.95258 3303.8762 1024
-2345.4836 948.74084 3303.1389 1280
-2325.9822 948.76978 3303.2395 1280
-2304.1499 947.84039 3300.0039 1280
-2296.0588 952.59619 3316.5615 1280
-2266.7253 948.54468 3302.4561 1280
-2246.9058 948.43866 3302.0869 1024
-2227.8052 948.6369 3302.7771 1280
-2208.0334 948.55042 3302.4758 1280
-2188.3264 948.49036 3302.2666 1280
-2168.562 948.40411 3301.9666 1280
-2148.7393 948.29065 3301.5713 1280
-2129.6145 948.4859 3302.2512 1280
-2109.6133 948.29071 3301.5718 1280
-2089.9075 948.22601 3301.3464 1280
-2070.2249 948.17065 3301.1536 1280
-2044.3223 945.23828 3290.9446 1280
-2024.8473 945.25012 3290.9856 1280
-2006.3376 945.71704 3292.6113 1280
-1986.2482 945.44122 3291.6511 1280
-1967.4879 945.79901 3292.8965 1280
-1947.9443 945.78351 3292.8428 1280
-1928.7328 945.93066 3293.355 1280
-1909.0933 945.86871 3293.1392 1280
-1894.931 948.54718 3302.4646 1280
-1869.756 945.71143 3292.5916 1280
-1850.9253 946.05853 3293.8 1280
-1832.67 946.71039 3296.0696 1280
-1813.3501 946.82031 3296.4524 1280
-1794.7765 947.32666 3298.2151 1280
-1774.6907 947.03711 3297.2073 1280
-1755.2689 947.09943 3297.4243 1280
-1734.9868 946.6936 3296.0115 1280
-1716.7416 947.40283 3298.4805 1280
-1697.4596 947.54956 3298.9915 1024
-1672.2198 944.33521 3287.8003 1280
-1653.792 944.93732 3289.8965 1280
-1635.6431 945.7149 3292.604 1280
-1617.399 946.45581 3295.1831 1280
-1598.3806 946.75592 3296.2283 1280
-1577.233 945.78693 3292.8545 1280
-1557.8851 945.88623 3293.2002 1280
-1536.4114 944.68097 3289.0039 1280
-1519.1332 946.0575 3293.7966 1280
-1498.9838 945.65863 3292.4077 1280
-1479.9658 945.97241 3293.5002 1280
-1460.6541 946.10425 3293.9592 1280
-1436.7732 943.23993 3283.9871 1024
-1422.0198 946.37164 3294.8904 1280
-1402.501 946.37488 3294.9014 1280
-1383.2001 946.52728 3295.4321 1280
-1363.7637 946.58997 3295.6504 1280
-1344.4683 946.75378 3296.2207 1280
-1325.403 947.08685 3297.3804 1280
-1305.1992 946.60431 3295.7002 1280
-1285.96 946.81708 3296.4409 1280
-1261.8088 943.36432 3284.4199 1280
-1241.8816 943.01062 3283.1885 1280
-1222.2238 942.85339 3282.6414 1280
-1201.7672 942.06525 3279.897 1280
-1181.7207 941.57782 3278.2 1280
-1161.0428 940.5625 3274.6653 1280
-1140.9722 940.013 3272.7522 1280
-1119.483 938.25568 3266.6338 1280
-1099.8132 937.98822 3265.7024 1280
-1077.3102 935.25153 3256.1743 1280
-1057.9395 935.18365 3255.9382 1280
-1037.9327 934.54089 3253.7004 1280
-1018.6256 934.51544 3253.6118 1024
-1000.5853 935.67377 3257.6445 768
-984.88477 939.10864 3269.6035 768
-962.20886 935.89673 3258.4209 512
-942.18762 935.18835 3255.9546 66048
-925.85638 938.18939 3266.4031 328448
-907.1485 938.85889 3268.7336 524800
-879.67883 930.29156 3238.906 721664
-863.04407 933.05615 3248.531 852480
-843.34991 932.56366 3246.8164 852480
-825.00623 933.57654 3250.3428 852224
-806.43707 934.3764 3253.1277 983808
-786.89008 934.05493 3252.0083 983552
-767.96594 934.4751 3253.4712 1049344
-750.58746 936.84619 3261.7263 1114880
-732.15155 937.98773 3265.7009 983808
-713.83337 939.34631 3270.4309 1180416
-693.53503 938.10236 3266.0999 1246208
-671.88416 934.90479 3254.9673 2298893
-641.82672 919.47522 3201.2476 1180416
-629.52307 929.31415 3235.5029 1311232
-607.58075 925.09552 3220.8154 851968
-590.39056 928.07361 3231.1838 1377280
-571.04736 927.75336 3230.0688 1245696
-551.59991 927.23553 3228.2661 1377280
-531.40637 925.38135 3221.8105 1442816
-512.35742 925.45654 3222.0723 1311488
-492.1395 923.34424 3214.718 1443072
-472.17413 921.55475 3208.4878 1311488
-452.72119 920.65717 3205.3625 1377280
-432.31891 917.66595 3194.9482 1311488
-413.5853 918.10486 3196.4766 1377280
-394.38965 917.51093 3194.4089 1179904
-375.01242 916.41364 3190.5884 1114112
-356.11111 916.42444 3190.6262 1179904
-336.95615 915.74719 3188.2681 1179648
-318.02515 915.63428 3187.8748 1048576
-298.06891 912.36877 3176.5059 1311488
-279.19089 912.18597 3175.8694 1245696
-259.90512 910.54834 3170.1677 1311488
-241.07991 910.39465 3169.6326 1048576
-222.41205 910.8595 3171.251 1114368
-203.26315 909.25818 3165.6758 1048576
-184.45355 909.00323 3164.7886 1048576
-165.68433 908.91235 3164.4719 1048576
-146.81674 908.1897 3161.9561 983040
-128.23579 909.28827 3165.7805 1179904
-109.34005 908.14844 3161.8123 1048576
-90.478699 906.88208 3157.4033 1377280
-71.903069 908.56592 3163.2656 1311488
-53.102673 907.5954 3159.887 1245696
-34.379173 907.59821 3159.8965 1245696
-15.630071 906.1228 3154.7598 1310976
3.0599427 905.1745 3151.4583 1114112
21.734255 905.20184 3151.5535 851968
40.401489 905.04535 3151.0085 917504
59.070316 905.01221 3150.8933 1114368
77.721939 904.79474 3150.136 1048576
96.18589 902.89984 3143.5386 1114112
114.57958 901.06714 3137.158 983040
133.0083 899.98315 3133.3838 1245696
152.0735 902.94379 3143.6919 1180160
170.68918 902.88055 3143.4717 1048576
188.50259 899.00366 3129.9739 1179648
206.907 898.38727 3127.8279 1179648
225.31978 897.9057 3126.1511 1310720
244.11552 898.90747 3129.6389 1442560
261.88864 896.26801 3120.4495 1376768
280.93704 898.05322 3126.6648 1508352
299.19681 897.25262 3123.8774 1639936
317.31845 896.15521 3120.0566 1574144
335.47812 895.28015 3117.0098 1639936
352.35303 891.24658 3102.9668 1508096
370.62851 890.98022 3102.0393 1376512
389.45984 892.01196 3105.6316 1639424
407.69189 891.64008 3104.3367 1507840
426.01254 891.48566 3103.7991 1310976
443.89572 890.46637 3100.2505 1310720
462.336 890.60138 3100.7202 1376256
482.13156 893.23688 3109.896 1507840
498.94965 890.36511 3099.8977 1573632
517.50067 890.67999 3100.9939 1573632
535.83405 890.61139 3100.7551 1179648
553.56781 889.58368 3097.1772 1442048
571.97668 889.67218 3097.4854 1573632
587.80969 885.87311 3084.2583 1836802
608.40588 889.26508 3096.0679 1705216
623.84357 885.13934 3081.7039 1573888
641.8833 884.83533 3080.6453 1771264
659.70929 884.26147 3078.6475 1705472
679.41449 886.16974 3085.2913 1639680
697.52515 885.95264 3084.5354 1376512
713.80237 883.47729 3075.9172 1179648
730.26965 881.35468 3068.5271 1639680
750.96167 884.31018 3078.8169 1573888
768.65668 883.67987 3076.6223 1508096
782.19635 878.41235 3058.283 1442304
803.4624 881.86371 3070.2993 1573376
816.90015 876.76019 3052.531 1638912
834.94141 876.71167 3052.3621 1573120
852.36047 876.02582 3049.9741 1573120
869.30011 874.8858 3046.0051 1573120
888.11353 875.63971 3048.6299 1704704
906.31219 875.76947 3049.0815 1638912
922.69092 874.16998 3043.5127 1770496
938.21863 871.841 3035.4041 1638912
957.57526 873.0907 3039.7551 1507328
972.82019 870.61462 3031.1343 1704704
988.96942 869.02283 3025.5923 1901312
1008.4095 870.32788 3030.1362 1901568
1021.9956 866.62341 3017.2385 1769984
1038.7635 865.69794 3014.0166 1769984
1054.5101 863.96704 3007.9902 1966848
1068.0767 860.53729 2996.0491 1966592
1084.2766 859.30658 2991.7642 2032640
1110.0734 865.59875 3013.6714 1769984
1118.3751 858.26575 2988.1404 1245184
1133.4072 856.24573 2981.1077 1704192
1145.6388 852.20459 2967.0378 2427393
1166.4701 854.58594 2975.3289 2427136
1182.808 853.65326 2972.0818 2295296
1200.2417 853.5274 2971.6436 2295553
1220.1488 855.13861 2977.2532 2492673
1239.6699 856.43726 2981.7744 2624001
1255.5103 855.19208 2977.4395 2689793
1269.5646 852.78192 2969.0481 2492416
1289.326 854.21869 2974.0503 2754816
1304.1562 852.39374 2967.6965 2754816
1332.8213 859.53943 2992.575 2886657
1341.6062 853.84497 2972.7493 2754560
1351.7999 849.18317 2956.5188 2951424
1386.2616 859.69049 2993.1011 3870721
