# .PCD v0.7 - Point Cloud Data file format
VERSION 0.7
FIELDS x y z rgb
SIZE 4 4 4 4
TYPE F F F U
COUNT 1 1 1 1
WIDTH 1365
HEIGHT 1
VIEWPOINT 0 0 0 1 0 0 0
POINTS 1365
DATA ascii
-933.79523 1137.8297 2724.7998 1247747
-920.76886 1141.6973 2734.0618 1445126
-903.83105 1140.7666 2731.8328 1445126
-887.93317 1141.1384 2732.7234 1312771
-870.88959 1140.0242 2730.0552 1049600
-849.77191 1133.434 2714.2732 1115136
-836.27045 1136.9437 2722.6782 1378306
-813.36841 1127.5599 2700.2065 1246720
-796.13934 1125.8218 2696.0439 1049344
-781.29022 1127.4465 2699.9348 1049344
-764.71521 1126.5968 2697.8999 720896
-750.276 1128.9244 2703.4741 917760
-730.81201 1123.6279 2690.7905 917760
-713.66705 1121.7405 2686.2703 1246208
-697.16339 1120.7976 2684.0125 1114624
-679.00775 1117.093 2675.1409 1180416
-663.7132 1118.0306 2677.3865 1114368
-647.17896 1116.8751 2674.6191 1114624
-630.1875 1114.8525 2669.7756 1048832
-612.85126 1112.1002 2663.1846 786432
-597.08826 1112.1328 2663.2625 1114368
-580.3623 1110.3247 2658.9326 983040
-564.57343 1110.2585 2658.7742 983040
-548.44019 1109.4921 2656.9385 851968
-530.72314 1105.3813 2647.0947 786432
-514.97589 1105.2479 2646.7751 983040
-498.93164 1104.4487 2644.8613 851968
-483.54324 1105.0966 2646.4126 851968
-466.93628 1102.9095 2641.1753 851968
-450.47491 1100.9268 2636.427 851968
-433.66284 1097.9135 2629.2112 917504
-419.16013 1100.7402 2635.9805 983040
-405.71841 1106.6799 2650.2043 1311232
-387.5235 1099.6105 2633.2749 1245952
-371.85199 1099.4087 2632.7915 1245952
-356.1937 1099.2297 2632.3633 1312000
-339.53754 1095.8141 2624.1836 1246208
-324.14392 1096.3408 2625.4448 786432
-308.48596 1095.9814 2624.5845 786432
-292.84012 1095.6294 2623.7412 655360
-277.28128 1095.5813 2623.6262 851968
-261.55576 1094.8301 2621.8271 786432
-245.51212 1092.5682 2616.4106 1048576
-229.45644 1089.9443 2610.127 851968
-214.9778 1094.9738 2622.1711 851968
-199.04167 1092.7845 2616.9287 851968
-183.25214 1091.0985 2612.8911 851968
-166.68829 1084.0654 2596.0488 917504
-152.07204 1089.5564 2609.1982 1574146
-136.29234 1087.0111 2603.1028 1048576
-120.85019 1086.8516 2602.7207 1114112
-105.58326 1088.4519 2606.5532 1311232
-89.970016 1086.4188 2601.6846 1114368
-74.614922 1087.3068 2603.8108 1311488
-59.083717 1085.4222 2599.2979 1377280
-43.566895 1082.5662 2592.4583 1245696
-28.261101 1084.6989 2597.5654 1245696
-12.870493 1084.7838 2597.769 1114112
2.5210776 1084.2444 2596.4771 1245696
17.846481 1080.6255 2587.811 1245440
33.363224 1086.5829 2602.0774 1114112
48.650002 1083.6521 2595.0588 983040
63.989147 1083.0155 2593.5342 917504
79.419937 1083.876 2595.595 1048576
94.59684 1081.5546 2590.0359 1179648
109.91357 1081.2568 2589.3228 1311232
125.02552 1079.2642 2584.551 1311232
140.4769 1080.3168 2587.0718 1442816
155.74226 1079.8726 2586.0081 1245440
170.79294 1078.1526 2581.8892 1114112
185.61536 1075.3929 2575.2805 1442816
200.37268 1072.7042 2568.8416 1114368
215.50456 1072.2587 2567.7747 1114112
231.83391 1077.4371 2580.1758 1179904
246.88269 1076.3917 2577.6721 983040
261.90109 1075.3434 2575.1616 1048576
277.86557 1078.0809 2581.7175 1114368
290.93326 1069.8802 2562.0789 1376512
305.67764 1068.353 2558.4216 1245184
321.30774 1069.9194 2562.1729 1048576
336.71182 1070.626 2563.8647 1245184
350.74466 1067.0996 2555.4199 851968
365.87805 1067.0747 2555.3606 917504
380.48053 1065.5652 2551.7454 1048576
396.06985 1066.829 2554.772 983040
411.78564 1068.3279 2558.3613 983040
424.75073 1062.8373 2545.2129 1310720
438.79358 1060.3275 2539.2029 1179648
452.48154 1057.1553 2531.606 1048576
466.70657 1055.4009 2527.4048 1048576
483.96875 1060.4104 2539.4011 1179648
496.90289 1055.9205 2528.6492 1245184
511.44455 1055.0096 2526.468 1179648
526.56989 1055.3202 2527.2117 851968
541.35229 1054.9456 2526.3142 1048576
559.9469 1061.8198 2542.7764 1114112
579.69043 1070.4557 2563.4568 1377024
586.1748 1054.7911 2525.9446 917504
602.11249 1056.4939 2530.0222 851968
616.23523 1055.0067 2526.4609 1245184
630.92987 1054.546 2525.3577 1508096
647.95764 1057.9159 2533.4275 917504
662.76959 1057.5974 2532.6648 983040
678.55328 1058.8093 2535.5669 1376512
693.27826 1058.3524 2534.4727 1376256
706.46411 1055.6151 2527.9177 917504
719.78674 1053.1917 2522.1143 1179648
732.71649 1050.3036 2515.198 1376256
749.26324 1052.6121 2520.7261 1310720
759.88574 1046.67 2506.4968 1245184
774.03705 1045.7235 2504.23 1310976
786.98212 1043.2135 2498.2192 1245184
802.57599 1044.2426 2500.6836 1508096
818.74438 1045.9683 2504.8162 1376512
832.90619 1045.1147 2502.7722 1376512
846.38556 1043.4497 2498.7849 1376768
860.91681 1043.1165 2497.9868 1573888
874.41895 1041.5686 2494.28 1179648
889.36584 1041.7646 2494.7495 1507840
907.04388 1045.1011 2502.7393 1114112
923.38409 1046.8135 2506.8401 1574144
935.56805 1043.8344 2499.7058 1770496
948.73773 1042.0308 2495.3867 1441792
962.87396 1041.3279 2493.7036 1310720
980.21002 1044.0543 2500.2329 1507328
995.72131 1044.7852 2501.9829 1901569
1011.0824 1045.3391 2503.3096 1836032
1024.2238 1043.6154 2499.1814 1770240
1041.3466 1045.9397 2504.7478 1966848
1056.132 1045.8842 2504.6145 1441792
1068.2444 1043.2195 2498.2336 1179648
1083.2899 1043.4531 2498.793 1441792
1100.0487 1045.3083 2503.2358 1507328
1109.3849 1040.1549 2490.8945 1179648
1122.1571 1038.316 2486.491 1769984
1127.8245 1030.036 2466.6626 1966848
1151.4363 1038.1467 2486.0857 2098432
1166.626 1038.5551 2487.0635 2295040
1171.4738 1029.8613 2466.2444 2426625
1188.2875 1031.7717 2470.8193 2361090
1204.1609 1032.8292 2473.3516 2558208
1212.4478 1027.4324 2460.4275 2426112
1231.0117 1030.7692 2468.4182 2425856
1250.6785 1034.9401 2478.4065 2885120
1275.1077 1042.9093 2497.4907 3147264
1278.8781 1033.9928 2476.1382 5119757
1294.7825 1034.9779 2478.4971 6566168
1290.9025 1020.3037 2443.3562 7223323
1306.1663 1020.9179 2444.8271 7157270
1335.9269 1032.7253 2473.1028 8144419
1333.557 1019.7079 2441.9294 7749405
1346.9954 1018.928 2440.0618 7881247
1357.3026 1015.8213 2432.6221 7947040
1398.0162 1035.2971 2479.2615 8407589
1407.558 1031.5237 2470.2253 8078369
1417.1084 1027.8345 2461.3904 8341541
1432.0508 1028.0912 2462.0054 8144163
1443.9937 1026.2112 2457.5029 7815200
1447.5089 1018.439 2438.8909 7881505
1472.1433 1025.5328 2455.8787 7816224
1478.6174 1019.9606 2442.5347 8145189
1506.1371 1028.873 2463.8774 8540724
1519.9927 1028.3698 2462.6724 6304793
1514.9795 1015.2314 2431.2097 1245184
1523.3221 1011.2066 2421.5713 1381135
1540.7822 1013.2526 2426.4709 13091751
1525.4515 993.8963 2380.1177 13419943
1532.2496 989.18042 2368.8242 13223077
1546.468 989.29688 2369.1033 13025699
1573.3556 997.44305 2388.6111 12959137
1589.0754 998.42731 2390.968 12827807
1605.1562 999.61884 2393.8215 12761758
1627.0668 1004.3882 2405.2429 8748383
1591.0813 973.64581 2331.623 1445898
1668.9834 1012.5251 2424.7288 2760727
1691.5431 1017.4528 2436.5291 3024930
1702.6577 1015.4709 2431.7832 2433309
1720.3048 1017.3859 2436.3689 1776150
1729.876 1014.5325 2429.5356 1512978
1734.5939 1008.9033 2416.0554 1447185
1749.8793 1009.4625 2417.3945 1118219
1759.4623 1006.7498 2410.8982 197120
1769.0549 1004.0861 2404.5195 65536
1786.0692 1005.6438 2408.2498 2038292
1828.7452 1021.5112 2446.2478 2367257
1838.7122 1019.0017 2440.2383 2893599
1836.3737 1009.765 2418.1189 3419688
1837.4774 1002.5495 2400.8398 3879726
1859.9548 1007.0171 2411.5383 4273717
1819.1487 977.41461 2340.6484 4208951
1815.558 968.10461 2318.3533 4275001
0 0 0 0
0 0 0 0
0 0 0 0
0 0 0 0
0 0 0 0
0 0 0 0
0 0 0 0
0 0 0 0
0 0 0 0
0 0 0 0
0 0 0 0
0 0 0 0
0 0 0 0
0 0 0 0
892.16321 427.23611 1023.1171 327681
894.90051 425.6546 1019.3297 65536
895.54425 423.10516 1013.2244 196608
897.85779 421.37326 1009.077 131072
901.89581 420.46829 1006.9099 65536
904.43054 418.879 1003.1039 65536
907.18353 417.41083 999.58807 256
910.26947 416.11392 996.4823 768
908.91705 412.8179 988.58923 512
0 0 0 0
0 0 0 0
878.82373 391.57901 937.72766 13422768
884.84973 391.7869 938.22559 13488304
890.70758 391.91824 938.5401 13422512
895.33765 391.51105 937.56494 13487791
0 0 0 0
0 0 0 0
0 0 0 0
0 0 0 0
0 0 0 0
0 0 0 0
0 0 0 0
0 0 0 0
0 0 0 0
-2325.1589 1116.576 2636.4919 1250827
-2317.3484 1120.3528 2645.4097 725255
-2312.0347 1125.3962 2657.3184 66817
-2277.481 1116.1786 2635.5532 512
-2212.8755 1092.0038 2578.4709 768
-2272.8672 1129.4061 2666.7866 768
-2257.5876 1129.6675 2667.4036 768
-2166.5696 1091.7666 2577.9111 768
-2153.6528 1092.9635 2580.7373 768
-2126.0308 1086.6614 2565.8564 768
-2117.4458 1090.0687 2573.9019 768
-2099.9915 1088.9264 2571.2046 1280
-2084.531 1088.8088 2570.927 1280
-2142.0896 1127.1104 2661.3657 1280
-2051.9797 1087.7043 2568.3191 1280
-2041.0894 1090.0156 2573.7766 1280
-2021.8414 1087.865 2568.6982 1280
-2006.3352 1087.7101 2568.3325 1280
-1990.8566 1087.5679 2567.9968 1280
-1975.7145 1087.6086 2568.0933 1280
-1960.0596 1087.3658 2567.5198 1280
-1948.3737 1089.3383 2572.177 1280
-1933.5004 1089.5454 2572.6663 1280
-1917.6566 1089.2048 2571.8621 1280
-1898.4652 1086.9421 2566.5193 1280
-1882.8488 1086.7062 2565.9622 1280
-1868.1765 1087.0159 2566.6934 1280
-1853.4788 1087.3156 2567.4011 1280
-1837.8455 1087.0669 2566.814 1280
-1822.4824 1086.9752 2566.5974 1280
-1807.6028 1087.1727 2567.064 1280
-1792.7563 1087.3939 2567.5859 1280
-1774.7424 1085.6809 2563.5415 1280
-1767.0538 1090.3096 2574.4705 1280
-1752.1499 1090.528 2574.9863 1280
-1736.4395 1090.2437 2574.3152 1024
-1718.8016 1088.7336 2570.7495 768
-1706.2644 1090.4563 2574.8171 768
-1690.0504 1089.8391 2573.3599 768
-1673.9885 1089.3096 2572.1094 768
-1659.954 1090.1018 2573.98 768
-1646.8779 1091.5438 2577.385 768
-1631.0155 1091.1489 2576.4524 768
-1615.8385 1091.2094 2576.5952 768
-1604.0925 1093.6101 2582.2639 768
-1589.7277 1094.2545 2583.7854 768
-1575.8993 1095.2842 2586.2168 768
-1556.9465 1092.7375 2580.2036 1024
-1542.9336 1093.6418 2582.3389 1024
-1529.0719 1094.6726 2584.7727 1024
-1513.2689 1094.3202 2583.9407 1024
-1497.5378 1094.0134 2583.2161 1024
-1483.8524 1095.2098 2586.0413 1024
-1471.9655 1097.7727 2592.0928 1024
-1455.6626 1097.0614 2590.4133 1024
-1439.864 1096.7191 2589.6052 1024
-1431.1366 1101.8136 2601.6343 1024
-1415.5493 1101.6801 2601.3191 768
-1399.1013 1100.8663 2599.3977 768
-1384.2151 1101.2771 2600.3674 768
-1369.455 1101.7985 2601.5986 1024
-1355.4357 1102.9346 2604.2812 1280
-1340.327 1103.2003 2604.9087 1280
-1325.6589 1103.839 2606.4167 1280
-1310.5369 1104.1102 2607.0571 1280
-1296.2322 1105.0848 2609.3584 1024
-1281.976 1106.1248 2611.814 1024
-1268.0428 1107.4724 2614.9961 1024
-1252.9764 1107.8513 2615.8906 1024
-1238.3226 1108.6089 2617.6797 1024
-1221.0107 1106.9761 2613.8242 1024
-1206.236 1107.631 2615.3704 1024
-1192.71 1109.4646 2619.7 1024
-1178.6736 1110.8654 2623.0076 1024
-1163.9984 1111.6936 2624.9634 1024
-1148.8868 1112.1219 2625.9746 1024
-1134.7251 1113.4939 2629.2141 1024
-1119.2174 1113.5651 2629.3821 1024
-1106.7079 1116.6633 2636.6978 1024
-1091.8881 1117.4857 2638.6399 1024
-1074.9716 1116.1552 2635.498 768
-1065.8741 1123.0237 2651.7161 768
-1044.9261 1117.4249 2638.4961 512
-1032.4827 1120.8889 2646.6753 512
-1020.8271 1125.3281 2657.1575 66048
-1004.7757 1124.9847 2656.3467 196864
-996.06897 1132.9846 2675.2363 525568
-975.51007 1127.5441 2662.3896 787712
-960.92535 1128.9432 2665.6936 985088
-951.58545 1136.6541 2683.9006 656128
-935.97717 1137.0125 2684.7468 787712
-918.51398 1135.0908 2680.2095 1050369
-905.15247 1138.2595 2687.6914 1050112
-889.78772 1138.9774 2689.3867 1246978
-873.83557 1138.9561 2689.3362 1247234
-852.26447 1131.474 2671.6694 1246978
-841.30359 1138.0616 2687.2244 1378820
-819.47583 1129.9198 2667.9995 1378820
-808.22845 1136.3333 2683.1431 1246977
-784.02759 1124.4265 2655.0286 1312514
-774.98047 1134.2102 2678.1301 1180928
-753.27423 1125.4886 2657.5364 1049344
-736.56708 1124.0234 2654.0767 983552
-719.38263 1121.7499 2648.7085 1114880
-702.53925 1119.9187 2644.3845 1180416
-685.93481 1118.3937 2640.7834 1180416
-669.49133 1117.0658 2637.6482 1246208
-653.92657 1117.1758 2637.908 1180416
-637.55927 1115.8865 2634.8635 1180416
-621.26587 1114.665 2631.9795 1048832
-604.81055 1113.0828 2628.2432 917504
-587.16467 1109.1677 2618.999 786432
-570.66785 1107.2697 2614.5173 917504
-556.72449 1110.3585 2621.8108 786432
-540.10834 1108.1409 2616.5745 786432
-523.74731 1106.3312 2612.3013 851968
-507.51001 1104.6805 2608.4036 1048832
-491.99161 1104.5399 2608.0718 1114624
-476.78638 1105.1163 2609.4326 786432
-460.65036 1103.5015 2605.6199 983040
-444.37125 1101.42 2600.7051 1048832
-429.7767 1103.5144 2605.6501 1180416
-412.35092 1098.2242 2593.1592 1180416
-396.18869 1096.0204 2587.9551 1114368
-381.68787 1098.4199 2593.6211 917760
-366.13672 1097.8716 2592.3262 917504
-351.25626 1099.3741 2595.8743 1114880
-334.69717 1095.5201 2586.7739 1048832
-319.24319 1095.0869 2585.751 983296
-303.29852 1092.8419 2580.45 983040
-288.46335 1094.5684 2584.5266 917504
-272.6712 1092.6538 2580.0061 1048832
-257.47269 1093.0319 2580.8987 1245184
-242.04832 1092.4385 2579.4973 851968
-226.40408 1090.7056 2575.4058 851968
-211.12576 1090.6125 2575.186 1048576
-196.19098 1092.4178 2579.4487 983040
-180.53954 1090.2008 2574.2136 983040
-165.40326 1090.9723 2576.0354 1048576
-149.9071 1089.2856 2572.053 1179648
-134.45709 1087.5906 2568.0505 1377280
-119.12556 1086.5433 2565.5779 1311488
-103.93501 1086.6641 2565.8625 1245696
-88.63591 1085.4965 2563.1057 1311488
-73.450714 1085.5295 2563.1838 1311488
-58.108608 1082.6562 2556.3994 1311232
-42.966377 1082.7939 2556.7244 1377024
-27.878542 1085.199 2562.4033 1245440
-12.690285 1084.7723 2561.396 1377280
2.4847889 1083.8013 2559.103 1114112
17.625202 1082.3705 2555.7246 786432
32.680908 1079.4642 2548.8623 1048576
47.842972 1080.7977 2552.011 1311232
63.140079 1083.8088 2559.1208 1114112
78.229233 1082.7753 2556.6804 1114112
93.200142 1080.7062 2551.7947 1179648
108.01495 1077.6571 2544.5952 1377024
123.10674 1077.78 2544.8855 1245440
138.14391 1077.4502 2544.1067 1311232
153.24707 1077.6493 2544.5767 1311232
168.20741 1076.8983 2542.8035 1114112
182.94066 1074.9364 2538.1709 1114112
197.77238 1073.8073 2535.5049 983040
212.18446 1070.72 2528.2151 1179904
228.42474 1076.657 2542.2336 1245696
242.72572 1073.2841 2534.2695 1311232
256.81876 1069.4385 2525.189 1114112
273.06976 1074.5076 2537.1584 1377280
286.60339 1068.913 2523.9482 1639936
301.461 1068.5663 2523.1296 1639680
317.03375 1070.6676 2528.0913 1573888
331.43015 1068.7856 2523.6477 1508352
345.31454 1065.4865 2515.8577 1245440
360.19394 1065.4034 2515.6616 851968
375.70981 1067.1349 2519.7498 983296
390.64514 1067.1479 2519.7808 1376512
405.5325 1067.0338 2519.5112 983040
419.92224 1065.665 2516.2793 1048576
431.38461 1057.2159 2496.3289 1114112
446.91782 1058.9728 2500.4773 1048576
460.8725 1056.9966 2495.811 1048576
475.50732 1056.6547 2495.0037 983040
489.47836 1054.9028 2490.8672 1114112
504.52133 1055.4961 2492.2681 1245184
518.22858 1053.3408 2487.1787 1179648
533.32965 1054.0592 2488.8752 917504
546.65393 1051.322 2482.4119 917504
562.66217 1053.7545 2488.1558 917504
577.93506 1054.7211 2490.438 1179648
593.66388 1056.4508 2494.5222 1245184
607.06317 1054.0515 2488.8572 983040
626.25256 1061.5812 2506.6362 1245184
634.43384 1050.5339 2480.5513 1310720
650.52045 1052.7808 2485.8567 1048576
664.95862 1052.3195 2484.7673 1179648
681.31781 1054.8524 2490.748 1179648
691.39484 1047.7577 2473.9958 1507840
705.45068 1046.8619 2471.8809 1048576
722.21545 1049.9409 2479.1509 1442048
736.05896 1048.7349 2476.3032 1376256
749.43768 1046.9268 2472.0339 1376512
763.8175 1046.5596 2471.1667 1442560
775.06262 1041.9919 2460.3816 1310720
789.77002 1042.1616 2460.7825 1442304
809.58234 1048.9395 2476.7864 1639680
822.60968 1046.8416 2471.8325 1705472
838.26129 1048.0981 2474.7996 1639680
851.79187 1046.705 2471.5103 1245440
864.88007 1044.8247 2467.0706 1442304
877.54529 1042.5044 2461.5918 1442048
893.12854 1043.6699 2464.3438 1179648
905.3396 1040.9207 2457.8521 1442048
917.94806 1038.7081 2452.6277 1639424
932.4624 1038.6875 2452.5791 1573120
949.00104 1040.8879 2457.7747 1573120
964.73944 1042.1572 2460.772 1245184
981.45093 1044.4244 2466.1252 1376256
994.32239 1042.5986 2461.814 1704192
1007.5867 1041.2314 2458.5859 2033153
1025.0564 1044.1873 2465.5652 1245184
1041.7297 1046.2601 2470.4597 1704704
1058.7355 1048.6047 2475.9958 2033665
1072.1288 1047.3562 2473.0479 1507328
1079.4536 1040.2931 2456.3704 1179648
1094.7413 1040.9899 2458.0156 1114112
1106.694 1038.5387 2452.2275 1114112
1115.0847 1032.8518 2438.7996 1442304
1126.2029 1029.8043 2431.604 1901568
1142.2592 1031.2922 2435.1172 1901312
1150.2885 1025.5863 2421.644 1901568
1176.4617 1035.9987 2446.23 2361602
1191.7555 1036.6935 2447.8708 2361345
1195.6571 1027.5811 2426.3542 2492417
1213.8441 1030.8165 2433.9939 2492416
1232.5746 1034.4321 2442.531 2622976
1247.8851 1035.1267 2444.1714 2623232
1273.2729 1044.0688 2465.2856 2885376
1281.1299 1038.5959 2452.363 3870721
1281.731 1027.4296 2425.9966 5514256
1286.9977 1020.2095 2408.9482 6565911
1308.0452 1025.52 2421.4875 7617822
1318.2939 1022.3408 2413.9807 7355416
1333.8905 1023.3325 2416.3225 9000242
1348.2767 1023.3845 2416.4453 8803120
1356.8911 1019.1006 2406.3298 7815454
1383.1812 1028.043 2427.4448 8407590
1395.6383 1026.6259 2424.0986 8802348
1415.7987 1030.8463 2434.0645 8341540
1415.9238 1020.5412 2409.7314 7683097
1434.4546 1023.5754 2416.896 6433548
1460.1946 1031.6429 2435.9453 7683615
1465.9703 1025.5857 2421.6428 7552284
1476.0184 1022.6059 2414.6067 7882793
1490.5494 1022.7592 2414.9688 7620649
1501.3167 1020.3516 2409.2839 1114368
1512.0604 1017.9736 2403.6689 328194
0 0 0 0
1495.209 988.01562 2332.9312 13486247
1509.5104 988.32849 2333.6699 13354918
1527.8351 991.24591 2340.5586 13354408
1542.2975 991.62762 2341.46 13222566
1564.8491 997.1571 2354.5164 13091236
1579.7311 997.74487 2355.9041 12893860
1616.976 1012.3228 2390.3259 12762018
1653.5646 1026.2402 2423.1882 12565156
1644.4086 1011.7723 2389.0261 11841432
1685.1075 1027.9642 2427.259 8289127
1685.0081 1019.2047 2406.5757 2762783
1741.9153 1044.7842 2466.9746 460550
1735.1301 1032.0537 2436.915 1446670
1735.6066 1023.8168 2417.4661 2499358
1750.1426 1023.9406 2417.7583 2762530
1764.5793 1024.0049 2417.9099 2630944
1783.7354 1026.7844 2424.4731 2565665
1799.6661 1027.6781 2426.5833 2631458
1815.6506 1028.5879 2428.7314 2499872
1802.5388 1013.1296 2392.231 2762530
1810.4124 1009.6155 2383.9333 2828323
1795.972 993.80835 2346.6091 3090982
1803.5565 990.33801 2338.4148 3222569
1807.8173 985.10931 2326.0686 3485484
1795.5409 971.01666 2292.7927 3551534
0 0 0 0
1741.045 927.50989 2190.0632 196608
0 0 0 0
0 0 0 0
0 0 0 0
0 0 0 0
0 0 0 0
0 0 0 0
0 0 0 0
0 0 0 0
0 0 0 0
0 0 0 0
0 0 0 0
0 0 0 0
0 0 0 0
895.74304 432.10098 1020.2894 65536
897.02728 429.81952 1014.9023 65536
898.58374 427.698 1009.8929 65536
902.27142 426.61224 1007.3293 65536
904.96954 425.07596 1003.7017 65536
907.23645 423.35852 999.64642 256
908.79938 421.33698 994.87305 512
910.9491 419.61172 990.79938 512
0 0 0 0
882.7431 401.4447 947.90289 13488819
882.95215 399.00104 942.13281 13423281
885.99115 397.85883 939.43579 13357743
891.81842 397.97519 939.71057 13488563
896.06702 397.38998 938.32874 13619123
0 0 0 0
0 0 0 0
0 0 0 0
0 0 0 0
0 0 0 0
0 0 0 0
0 0 0 0
0 0 0 0
0 0 0 0
-2260.0127 1100.4766 2562.623 768
-2269.0205 1112.3364 2590.2402 768
-2258.5017 1114.72 2595.7908 768
-2198.334 1092.4633 2543.9626 768
-2177.1489 1089.4054 2536.842 768
-2162.3311 1089.5132 2537.093 768
-2147.6479 1089.6909 2537.5068 768
-2128.8035 1087.7446 2532.9749 768
-2114.3538 1088.0325 2533.645 768
-2094.9978 1085.7815 2528.4033 1024
-2087.0869 1089.4725 2536.9985 1024
-2071.7971 1089.3374 2536.6838 1280
-2055.1123 1088.4614 2534.6438 1280
-2039.9298 1088.3741 2534.4407 1280
-2025.1671 1088.5111 2534.7595 1280
-2015.1787 1091.2355 2541.1038 1280
-1994.592 1088.2185 2534.0784 1280
-1980.9604 1088.9792 2535.8499 1280
-1960.0349 1085.7113 2528.24 1280
-1944.6591 1085.4908 2527.7266 1280
-1929.7883 1085.5511 2527.8669 1280
-1914.563 1085.4113 2527.5413 1280
-1899.2362 1085.2113 2527.0754 1280
-1886.7151 1086.6239 2530.365 1280
-1871.7562 1086.6439 2530.4116 1280
-1856.3083 1086.3782 2529.7927 1280
-1841.4315 1086.4449 2529.9482 1280
-1827.025 1086.7926 2530.7578 1280
-1811.6572 1086.5695 2530.2383 1280
-1797.1223 1086.8462 2530.8828 1280
-1779.4037 1085.1862 2527.0171 1280
-1764.9044 1085.4778 2527.6963 1024
-1750.3726 1085.7545 2528.3403 768
-1738.2656 1087.5529 2532.5281 1024
-1726.8013 1089.7881 2537.7334 1024
-1711.2825 1089.4814 2537.0193 1024
-1694.7599 1088.5247 2534.791 768
-1680.5511 1089.0502 2536.0149 768
-1662.976 1087.3839 2532.1348 768
-1652.1041 1090.1104 2538.4839 768
-1637.3533 1090.3038 2538.9343 768
-1621.1564 1089.5292 2537.1304 768
-1606.391 1089.7111 2537.554 768
-1591.8068 1090.0205 2538.2744 768
-1576.8938 1090.1085 2538.4795 768
-1565.894 1092.9294 2545.0483 768
-1551.701 1093.5549 2546.5049 768
-1537.6146 1094.2684 2548.1665 1024
-1523.5305 1094.9978 2549.865 1024
-1509.0675 1095.4667 2550.9568 1024
-1494.6135 1095.9518 2552.0862 1024
-1480.0291 1096.35 2553.0137 1024
-1465.4963 1096.7953 2554.0505 1024
-1449.4683 1096.119 2552.4758 1024
-1434.7094 1096.3983 2553.1262 1024
-1420.7268 1097.2832 2555.1868 1024
-1409.7899 1100.5648 2562.8286 1024
-1394.4866 1100.472 2562.6125 1024
-1380.5768 1101.4891 2564.981 1024
-1365.7642 1101.8004 2565.7058 1024
-1351.6221 1102.6659 2567.7209 1024
-1337.5254 1103.5885 2569.8694 1280
-1323.5991 1104.6743 2572.3982 1280
-1310.114 1106.1581 2575.8533 1280
-1291.3169 1103.1389 2568.8228 1280
-1277.1982 1104.0923 2571.0427 1024
-1262.5704 1104.623 2572.2786 1024
-1249.2697 1106.3419 2576.2812 1024
-1233.5575 1105.9415 2575.3489 1024
-1218.6665 1106.2765 2576.1289 1024
-1204.599 1107.377 2578.6917 1024
-1193.8016 1111.5505 2588.4104 768
-1175.6388 1108.8855 2582.2043 768
-1163.1213 1111.5453 2588.3979 768
-1148.781 1112.5107 2590.6462 768
-1132.6545 1111.7491 2588.8728 768
-1118.4288 1112.8579 2591.4548 1024
-1103.7747 1113.5654 2593.1023 1024
-1090.6123 1115.8192 2598.3506 1024
-1075.8002 1116.4254 2599.7622 1024
-1060.6946 1116.7402 2600.4954 768
-1045.2092 1116.6586 2600.3052 768
-1034.0093 1121.2216 2610.9307 512
-1017.7288 1120.3301 2608.855 512
-1013.7176 1133.126 2638.6519 65792
-996.69604 1131.5518 2634.9863 196864
-988.47791 1140.0812 2654.8481 459776
-971.51172 1138.6335 2651.4773 262144
-952.77234 1135.026 2643.0764 524800
-935.30963 1132.8441 2637.9956 787200
-917.09467 1129.6615 2630.5845 918784
-907.93817 1137.7197 2649.3494 1050368
-888.09576 1132.4357 2637.0447 984576
-871.12872 1130.6946 2632.99 1050369
-854.85724 1129.809 2630.928 1116161
-839.60999 1130.2695 2632.0002 1049600
-828.45782 1136.3645 2646.1934 984064
-805.89227 1126.7372 2623.7749 852480
-790.81982 1127.4137 2625.3501 1049856
-773.14581 1124.334 2618.1785 1246464
-756.4093 1122.5194 2613.9531 1049344
-742.65631 1125.1492 2620.0767 917760
-726.7243 1124.5193 2618.6101 1246464
-710.24731 1123.0004 2615.073 1180672
-691.64655 1117.9808 2603.3843 1114624
-676.05505 1117.7073 2602.7473 1312000
-659.69202 1116.1157 2599.041 1180416
-647.16772 1121.098 2610.6431 1114624
-626.89252 1112.5684 2590.7805 1049088
-611.18488 1111.9204 2589.2717 917504
-594.83032 1110.0317 2584.8735 917504
-578.72064 1108.5122 2581.3352 851968
-562.62769 1106.9431 2577.6814 1114624
-547.48914 1107.2167 2578.3184 983040
-531.10065 1104.9055 2572.9365 1114624
-515.52722 1104.2037 2571.302 983040
-499.61328 1102.7073 2567.8174 1180160
-484.11148 1102.0551 2566.2988 1180416
-468.7901 1101.7848 2565.6694 1310976
-453.2785 1101.0342 2563.9216 1311232
-437.71552 1100.1025 2561.752 1179648
-422.26425 1099.3948 2560.1038 1114112
-406.99847 1099.1351 2559.4993 1245696
-392.74844 1101.7047 2565.4829 1442816
-376.14542 1097.615 2555.9595 983296
-360.66727 1096.6024 2553.6013 1180416
-345.19223 1095.5109 2551.0596 1048832
-329.3645 1093.1487 2545.5591 917504
-315.10928 1096.0297 2552.2678 983296
-299.13452 1092.9183 2545.0227 851968
-284.41544 1094.3081 2548.259 917504
-269.05179 1093.2347 2545.7593 851968
-254.19531 1094.2169 2548.0464 1179648
-238.28746 1090.5116 2539.418 851968
-222.94531 1089.0702 2536.0615 851968
-207.77988 1088.3459 2534.375 851968
-192.80957 1088.6107 2534.9915 983040
-177.83321 1088.8829 2535.6257 786432
-162.70201 1088.17 2533.9656 1245440
-147.72754 1088.4669 2534.6567 1245440
-132.44707 1086.3212 2529.6602 1377280
-117.39243 1085.7164 2528.2517 1311488
-102.46284 1086.2605 2529.5188 1179904
-87.318275 1084.3214 2525.0034 1180160
-72.482368 1086.2059 2529.3916 1311488
-57.409191 1084.5905 2525.6296 1311488
-42.446342 1084.6548 2525.7795 1245696
-27.51355 1085.9757 2528.8555 1311488
-12.506915 1084.0558 2524.3848 1245696
2.4512749 1084.1426 2524.5869 917504
17.349007 1080.3156 2515.675 983040
32.255394 1080.3156 2515.675 1048832
47.147514 1079.9889 2514.9143 1114112
62.125446 1081.3125 2517.9968 786432
76.985558 1080.4701 2516.0349 851968
91.756775 1078.8557 2512.2756 983040
106.46029 1077.0071 2507.9709 983040
120.9842 1074.0171 2501.0081 917504
135.98163 1075.4243 2504.2852 1245696
151.04498 1077.0249 2508.0122 1377024
165.8578 1076.7123 2507.2842 1377280
180.28337 1074.1438 2501.3032 1179904
194.70987 1071.9706 2496.2427 1245696
209.03564 1069.589 2490.6965 1048576
223.7025 1069.1515 2489.678 1311488
238.61757 1069.8811 2491.377 1377280
253.29442 1069.5198 2490.5356 1574656
267.78668 1068.4618 2488.072 1311744
283.78568 1073.2124 2499.1343 1442560
296.50891 1065.7179 2481.6824 1508352
311.82538 1067.812 2486.5586 1442560
326.7305 1068.3719 2487.8625 1442304
340.46878 1065.2329 2480.553 1179648
354.9863 1064.6908 2479.2905 1310976
370.44797 1066.911 2484.4604 983040
385.15482 1066.8706 2484.3665 1048832
398.0968 1062.1246 2473.3147 1048576
410.80502 1057.114 2461.6467 917504
424.68549 1055.36 2457.5623 1114112
439.10095 1055.0079 2456.7424 983040
453.42236 1054.4596 2455.4656 851968
468.05243 1054.6409 2455.8877 917504
482.16733 1053.6854 2453.6628 1245184
497.00635 1054.3219 2455.145 1114112
513.76178 1058.8721 2465.7407 1245184
525.14478 1052.4041 2450.679 1048576
538.87213 1050.8558 2447.0737 1048576
554.46051 1052.923 2451.8872 851968
569.52185 1053.9091 2454.1836 1179648
588.09192 1061.1775 2471.1091 1442304
603.70618 1062.8887 2475.094 1310976
611.3313 1050.7866 2446.9126 1245184
625.1167 1049.5885 2444.1226 1179648
641.05109 1051.9713 2449.6711 1179648
657.61005 1055.2507 2457.3079 1048576
669.2052 1050.5952 2446.467 983040
684.50171 1051.8248 2449.3303 1114112
696.20795 1047.6011 2439.4946 1310720
710.64783 1047.5787 2439.4426 983040
726.77789 1049.9994 2445.0793 1573632
739.64008 1047.6963 2439.7163 1376512
752.63226 1045.6622 2434.9795 1376512
765.12567 1043.0245 2428.8374 1441792
779.21503 1042.6199 2427.895 1376256
798.11243 1048.5465 2441.696 1114112
817.17157 1054.4707 2455.4917 1639425
822.63361 1042.9492 2428.6619 1507584
834.82593 1040.21 2422.2832 1376256
848.69159 1039.6129 2420.8928 1376256
868.25995 1045.9053 2435.5454 1573632
879.02081 1041.5558 2425.4172 1507840
891.41925 1039.2555 2420.0605 1114112
906.2121 1039.7753 2421.271 1245184
919.6936 1038.7976 2418.9944 1836288
932.62286 1037.2358 2415.3577 1770496
949.81085 1040.3862 2422.6936 1573120
962.75006 1038.858 2419.135 1902080
977.50665 1039.3069 2420.1804 2033152
992.69806 1040.1985 2422.2566 1967616
1004.3304 1037.3884 2415.7129 1638656
1022.8328 1041.6538 2425.6455 1507328
1037.6868 1042.137 2426.7705 1639168
1047.8087 1037.9194 2416.9495 1836288
1057.6522 1033.5436 2406.7598 1638912
1073.8749 1035.4352 2411.1643 1638912
1090.8124 1037.9569 2417.0369 1245184
1106.7388 1039.464 2420.5461 1114112
1120.0719 1038.528 2418.3665 1507584
1135.9662 1039.9602 2421.7017 1245184
1144.8081 1034.981 2410.1067 1179648
1156.8949 1033.0217 2405.5444 2033153
1163.4634 1026.2429 2389.7588 2427395
1180.3379 1028.6083 2395.2668 2230016
1198.5306 1032.0524 2403.2871 2163712
1215.2457 1034.1583 2408.1912 2426624
1223.2656 1028.9017 2395.9504 2360576
1247.0947 1036.9105 2414.5999 2622976
1264.7977 1039.7017 2421.0996 2294528
1280.2531 1040.6033 2423.1992 2294016
1279.6854 1028.6058 2395.2612 2753536
1294.0549 1028.7463 2395.5884 4067845
1309.0343 1029.3632 2397.0249 6369049
1316.8252 1024.3749 2385.4089 7289890
1334.3433 1026.979 2391.4731 8078375
1348.8162 1027.2094 2392.0095 7815456
1346.2483 1014.5922 2362.6287 7880989
1365.7617 1018.705 2372.2058 8604712
1409.5496 1040.6555 2423.3208 9262898
1414.3785 1033.6904 2407.1016 8538918
1420.2549 1027.6223 2392.9709 7683867
1433.3374 1026.8365 2391.1414 8013093
1453.7665 1031.2777 2401.4832 6631697
1467.5057 1030.9331 2400.6807 6961177
1484.7346 1033.0231 2405.5476 8081712
1495.2819 1030.4688 2399.5994 3017730
1472.2035 1005.0078 2340.3098 327680
0 0 0 0
1481.2683 992.49847 2311.1799 13420713
1490.446 989.49963 2304.1968 13420456
1502.948 988.74231 2302.4331 13354151
1523.8846 993.49738 2313.5061 13090979
1537.0089 993.12 2312.6272 13090979
1551.452 993.59375 2313.7305 13090978
1573.6512 998.98309 2326.2803 12959136
1594.9703 1003.7249 2337.3223 12828320
1610.8616 1004.9986 2340.2883 12696735
1624.1761 1004.6569 2339.4924 12696991
1659.1754 1017.6206 2369.6807 12631713
1681.7378 1022.8031 2381.7488 12829093
1702.2142 1026.6411 2390.686 12237215
1726.3419 1032.5996 2404.5615 9144948
1754.0261 1040.5707 2423.1233 3749929
1807.2614 1063.4473 2476.3948 328964
1793.6815 1046.9559 2437.9922 1578514
1798.3333 1041.2848 2424.7861 2631201
1816.3313 1043.3701 2429.6421 2959654
1802.5743 1027.3248 2392.2783 2828324
1789.3391 1011.8248 2356.1843 2762531
1798.0616 1008.8854 2349.3394 2762018
1788.9115 996.03979 2319.4265 2630432
1748.5741 966.15802 2249.8423 2827811
1745.1737 956.98309 2228.4771 2893604
1760.2487 958.00098 2230.8474 2235931
0 0 0 0
0 0 0 0
0 0 0 0
0 0 0 0
0 0 0 0
0 0 0 0
0 0 0 0
0 0 0 0
0 0 0 0
0 0 0 0
0 0 0 0
0 0 0 0
0 0 0 0
0 0 0 0
897.0448 438.78336 1021.7721 196608
897.97601 436.29413 1015.9756 0
900.55457 434.63315 1012.1078 65536
904.47498 433.63751 1009.7893 65536
906.24359 431.6301 1005.1147 65536
909.30743 430.26169 1001.9282 0
911.70276 428.59683 998.05139 768
914.29651 427.04611 994.44025 1024
0 0 0 0
890.33722 410.56335 956.05762 13619891
886.06116 406.00809 945.45013 13356975
891.55756 405.95999 945.33807 13357232
893.8208 404.44943 941.8205 13488307
899.46429 404.47769 941.88629 13619125
0 0 0 0
0 0 0 0
0 0 0 0
0 0 0 0
0 0 0 0
0 0 0 0
0 0 0 0
0 0 0 0
0 0 0 0
-2199.7361 1085.9054 2494.2754 768
-2185.78 1086.3147 2495.2156 768
-2177.2461 1089.4426 2502.4001 768
-2157.48 1086.9546 2496.6855 768
-2136.0112 1083.5686 2488.9077 768
-2121.1064 1083.4884 2488.7236 768
-2107.8789 1084.2698 2490.5186 768
-2091.5356 1083.4482 2488.6316 768
-2078.3708 1084.2732 2490.5264 768
-2068.4541 1086.8167 2496.3687 768
-2053.5105 1086.7363 2496.1841 768
-2040.0336 1087.4368 2497.793 1280
-2026.0011 1087.8491 2498.74 1280
-2007.0986 1085.6334 2493.6506 1280
-1990.3389 1084.5524 2491.1675 1280
-1982.4425 1088.321 2499.824 1280
-1963.3973 1085.9799 2494.4465 1280
-1948.9683 1086.1758 2494.8965 1280
-1933.4071 1085.7388 2493.8928 1280
-1918.3108 1085.5583 2493.4783 1280
-1903.5468 1085.5645 2493.4924 1024
-1888.6423 1085.4901 2493.3215 1024
-1876.6898 1087.1245 2497.0757 1024
-1861.3553 1086.8102 2496.3538 1024
-1846.3665 1086.6943 2496.0874 1024
-1828.6676 1084.9688 2492.1238 1280
-1814.1769 1085.1337 2492.5029 1280
-1803.0424 1087.3256 2497.5374 1280
-1784.2939 1084.9242 2492.0215 1280
-1770.3702 1085.4407 2493.208 1280
-1755.8073 1085.5707 2493.5066 1280
-1742.1881 1086.2915 2495.1621 1024
-1723.7681 1084.0054 2489.9111 1280
-1716.1781 1088.5493 2500.3484 1280
-1701.573 1088.6838 2500.6575 1024
-1686.6078 1088.5886 2500.4385 1024
-1669.3857 1087.022 2496.8401 768
-1654.7413 1087.1207 2497.0669 768
-1640.8983 1087.7524 2498.5181 768
-1626.4299 1087.9775 2499.0349 768
-1612.6182 1088.6499 2500.5793 768
-1597.9902 1088.7787 2500.8752 768
-1583.9366 1089.3048 2502.0837 768
-1570.2173 1090.073 2503.8481 768
-1554.1106 1089.1827 2501.8032 768
-1544.7118 1093.0216 2510.6211 768
-1530.5096 1093.5033 2511.7275 768
-1516.0977 1093.8431 2512.5081 1024
-1500.5179 1093.3389 2511.3499 1024
-1485.3208 1093.1061 2510.8149 1024
-1471.1764 1093.6511 2512.0669 1024
-1459.1912 1095.8287 2517.0688 1024
-1444.8263 1096.246 2518.0271 1024
-1432.1241 1097.9465 2521.9333 1024
-1415.9464 1096.9902 2519.7368 1024
-1401.7495 1097.5646 2521.0562 1024
-1392.951 1102.4238 2532.2175 1024
-1377.1227 1101.7646 2530.7034 1024
-1363.0824 1102.5371 2532.4778 1024
-1345.6769 1100.5747 2527.9702 1024
-1332.274 1101.8785 2530.9648 1024
-1318.9958 1103.3163 2534.2673 1280
-1304.969 1104.1536 2536.1907 1280
-1291.2145 1105.2437 2538.6946 1280
-1276.7609 1105.754 2539.8667 1280
-1261.8588 1105.8833 2540.1636 1024
-1248.1788 1107.0999 2542.958 1024
-1235.75 1109.4694 2548.4006 1024
-1221.0443 1109.828 2549.2246 1024
-1205.3966 1109.3287 2548.0776 768
-1188.9205 1108.0447 2545.1284 768
-1175.0934 1109.2281 2547.8467 768
-1160.7338 1109.9333 2549.4666 768
-1147.62 1111.8641 2553.9014 768
-1133.0298 1112.397 2555.1252 768
-1118.9186 1113.4208 2557.4771 768
-1103.8535 1113.5106 2557.6833 1024
-1090.4371 1115.2892 2561.7686 1024
-1076.3057 1116.3762 2564.2654 1024
-1064.1626 1119.5863 2571.6389 1024
-1048.5236 1119.1583 2570.6558 768
-1033.7617 1119.6677 2571.8259 768
-1019.7095 1120.9724 2574.8228 768
-1006.9014 1123.7052 2581.0999 512
-990.35059 1122.281 2577.8286 131328
-979.21863 1127.0492 2588.7808 460032
-963.50214 1126.6084 2587.7686 328192
-945.29663 1123.196 2579.9304 327680
-932.57898 1126.2992 2587.0581 656128
-916.76477 1125.704 2585.6909 590080
-905.35248 1130.5853 2596.9031 918784
-891.91522 1133.0631 2602.5947 852992
-877.21552 1133.9961 2604.7375 1181953
-857.21527 1127.9875 2590.9363 852992
-841.50598 1127.5094 2589.8379 655616
-828.98322 1131.3621 2598.6875 786944
-814.04779 1132.0059 2600.166 852480
-793.72449 1125.0375 2584.1599 720896
-777.90143 1124.2991 2582.4639 524288
-761.40601 1122.5398 2578.4229 655360
-744.62689 1120.2816 2573.2361 1049344
-731.58411 1123.6678 2581.0142 1049344
-717.63043 1125.7698 2585.842 1246720
-697.37897 1117.8684 2567.6929 1180672
-682.08032 1117.7306 2567.3765 1246208
-665.68256 1115.7444 2562.8142 1245952
-649.935 1114.7808 2560.6006 1114624
-634.84338 1114.923 2560.9272 655360
-618.92267 1113.5803 2557.8435 786432
-602.94714 1112.0693 2554.3726 1048832
-585.51361 1107.722 2544.3872 917504
-570.34082 1107.535 2543.9578 1048832
-553.00323 1103.02 2533.5869 917504
-538.27466 1103.6023 2534.9243 917504
-523.38739 1103.8831 2535.5693 655360
-508.12439 1103.3646 2534.3787 917504
-492.36472 1101.7035 2530.5627 1114624
-476.28485 1099.1987 2524.8096 1048832
-461.22202 1098.9548 2524.2495 1180160
-446.78867 1100.245 2527.2126 1246208
-431.31729 1098.9796 2524.3062 1376768
-415.62619 1097.0433 2519.8586 1179904
-400.4216 1096.2948 2518.1392 1048576
-385.30124 1095.7278 2516.8369 1179648
-370.21381 1095.2124 2515.6533 917504
-354.93268 1094.0569 2512.999 1180416
-339.97696 1093.8472 2512.5173 1114624
-325.51056 1095.2646 2515.7732 983040
-309.57373 1091.6332 2507.4316 1114368
-294.58884 1091.1615 2506.3484 1180160
-280.18298 1092.8983 2510.3376 851968
-264.7623 1090.6494 2505.1721 786432
-250.22763 1092 2508.2744 851968
-234.47128 1087.8531 2498.7493 851968
-219.81094 1088.5748 2500.407 917504
-204.59013 1086.4248 2495.4685 851968
-190.18776 1088.6244 2500.5208 1114112
-175.21751 1087.6705 2498.3298 983040
-160.45261 1087.933 2498.9326 1114112
-145.54901 1087.2128 2497.2783 1048576
-130.51512 1085.2461 2492.761 1179904
-115.60403 1083.929 2489.7356 1311232
-101.07691 1086.3533 2495.3042 1179648
-86.341324 1086.9839 2496.7527 1179648
-71.524002 1086.6335 2495.948 1311232
-56.71603 1086.2797 2495.135 1377024
-41.829578 1083.6429 2489.0789 1311488
-27.147594 1086.3164 2495.2195 1311488
-12.351611 1085.3668 2493.0383 1179648
2.4251091 1087.3695 2497.6384 1245440
17.134966 1081.7098 2484.6384 1179648
31.869429 1082.1167 2485.5728 851968
46.578396 1081.6743 2484.5566 1048576
61.317623 1081.9783 2485.2551 851968
76.092102 1082.6663 2486.8352 851968
90.72142 1081.4005 2483.928 786432
105.30994 1080.0698 2480.8713 851968
119.68825 1077.1732 2474.218 983040
133.89217 1073.5106 2465.8052 983040
148.71106 1075.0143 2469.2588 1048576
163.52556 1076.2196 2472.0276 1179904
177.74234 1073.6163 2466.0481 1377280
191.79578 1070.4971 2458.8831 1048576
205.89481 1068.0547 2453.2729 1114368
220.50755 1068.4233 2454.1199 1179904
235.87251 1072.1658 2462.7161 851968
249.80309 1069.3319 2456.2068 1114368
264.92334 1071.6224 2461.468 1180160
278.08484 1066.1641 2448.9304 1311232
292.19775 1064.7139 2445.5994 1442304
306.98251 1065.7332 2447.9407 1442560
320.90628 1063.8063 2443.5146 1376768
335.26849 1063.4364 2442.6653 1508352
349.76468 1063.5046 2442.8218 1442816
365.42068 1066.9537 2450.7444 1246724
377.05328 1058.8407 2432.1091 917504
392.5661 1061.8204 2438.9531 1245440
405.93695 1059.0004 2432.4758 851968
419.40811 1056.6267 2427.0234 1245184
433.69952 1056.4082 2426.5217 1245184
448.24298 1056.798 2427.417 983040
461.53995 1054.3162 2421.7163 983040
476.01627 1054.5968 2422.3611 983040
491.32816 1056.658 2427.0955 1245184
504.52698 1054.1869 2421.4194 1114112
519.00836 1054.4581 2422.0422 1310720
533.29987 1054.3392 2421.7695 1376768
548.28131 1055.5551 2424.562 917504
564.19055 1058.4493 2431.21 1310976
576.85944 1055.2719 2423.9114 1179648
590.44843 1053.8909 2420.7395 1442560
602.86157 1050.5264 2413.0115 1245184
616.95398 1050.1764 2412.2075 1114112
631.22546 1050.14 2412.124 1310720
647.41937 1053.2328 2419.228 1179648
660.67035 1051.5078 2415.2656 983040
679.69904 1058.8564 2432.145 983040
688.15381 1049.7695 2411.2729 1179648
701.039 1047.6735 2406.4585 1179648
716.13531 1048.8995 2409.2747 983040
733.2818 1053.0219 2418.7434 1704960
744.8844 1049.1775 2409.9128 1114112
758.59308 1048.3883 2408.1001 1310720
767.03442 1040.4832 2389.9424 1310720
781.84137 1041.3429 2391.9175 983040
798.38934 1044.4498 2399.0537 983040
816.1897 1049.0576 2409.6377 1376256
825.26428 1042.4845 2394.5396 1245184
836.60785 1038.9512 2386.4238 1310720
850.41736 1038.547 2385.4954 1245184
865.72375 1039.9542 2388.7275 1310720
878.48096 1038.3031 2384.9351 1310720
892.58655 1038.2728 2384.8655 1179648
905.65784 1037.0588 2382.0771 1114112
920.43872 1037.8101 2383.8025 1507584
935.07062 1038.3729 2385.0955 1573120
951.64709 1041.0463 2391.2361 1967872
963.69879 1038.764 2385.9939 1967874
976.54468 1037.3915 2382.8411 1638912
990.19672 1036.9022 2381.7173 1770496
1004.8376 1037.4475 2382.97 1836288
1019.4774 1037.9767 2384.1853 1638912
1034.7506 1039.1276 2386.8289 1442048
1046.6115 1036.8667 2381.6357 1507584
1061.8762 1037.9933 2384.2236 1573632
1074.2443 1036.2961 2380.3252 1573632
1086.6384 1034.6677 2376.5847 1639424
1110.3427 1043.7124 2397.3599 1573376
1116.0768 1035.8501 2379.3005 1376256
1131.4836 1037.0494 2382.0554 1114112
1142.4861 1034.2321 2375.5842 1179648
1152.7316 1030.8065 2367.7156 1114112
1164.0424 1028.4044 2362.1982 2361346
1172.4448 1023.5206 2350.9802 2295809
1194.4739 1030.5074 2367.0288 2558210
1209.0168 1030.9486 2368.042 2492673
1224.7968 1032.4222 2371.427 2229248
1232.4296 1027.0729 2359.1399 2426624
1252.3342 1031.9559 2370.356 2294784
1266.1584 1031.7759 2369.9421 2229504
1278.9584 1030.7742 2367.6414 2491392
1304.3741 1039.8514 2388.4915 3081985
1318.225 1039.6133 2387.9446 4593417
1321.54 1031.1595 2368.5266 5710608
1320.9366 1019.8581 2342.5676 5841673
1341.972 1025.3246 2355.124 7946786
1354.4653 1024.2192 2352.585 7946784
1373.8657 1028.3063 2361.9727 8473126
1389.6771 1029.6515 2365.0627 8538919
1403.7968 1029.729 2365.2407 7880989
1415.9031 1028.3428 2362.0566 6895380
1432.4993 1030.2128 2366.3518 7224092
1447.176 1030.6793 2367.4236 7553314
1455.9016 1026.9392 2358.8328 6634528
1467.9073 1025.5619 2355.6692 5451028
1450.141 1003.6062 2305.2378 262144
1495.3402 1025.2303 2354.9075 10592393
1457.6151 990.12598 2274.2744 13617578
1478.3151 994.98816 2285.4426 13486250
1487.01 991.75531 2278.0168 13223078
1500.6882 991.87433 2278.2903 13222564
1517.8328 994.26172 2283.7742 13222565
1536.4241 997.54645 2291.3188 13156772
1556.7925 1001.9172 2301.3584 12827806
1573.1821 1003.6738 2305.3931 12959393
1592.5573 1007.2884 2313.6956 13025186
1606.9478 1007.7154 2314.6765 12894113
1622.761 1009.0198 2317.6726 13091492
1641.1814 1011.9099 2324.311 13157028
1657.4209 1013.4183 2327.7759 12960163
1710.9575 1037.5187 2383.1333 12697251
1738.738 1045.7339 2402.0032 12566180
1735.4479 1035.2805 2377.9924 12631974
1749.285 1035.1306 2377.6479 12171677
1794.9504 1053.6669 2420.2249 9605753
1807.4237 1052.5792 2417.7268 4671030
1827.8239 1056.0886 2425.7878 920840
1803.4386 1033.8691 2374.7505 855052
1801.3136 1024.656 2353.5884 2038551
1802.5616 1017.4885 2337.1248 2564639
1789.8496 1002.6102 2302.9502 2432796
1756.4514 976.45721 2242.8779 2169881
1791.6426 988.5412 2270.6343 1972502
1721.7681 942.90704 2165.8147 65536
1751.9976 952.36334 2187.5354 393728
0 0 0 0
0 0 0 0
0 0 0 0
0 0 0 0
0 0 0 0
0 0 0 0
0 0 0 0
0 0 0 0
0 0 0 0
0 0 0 0
0 0 0 0
893.79352 446.23721 1024.9867 196610
896.71674 444.67508 1021.3985 196609
899.60181 443.11505 1017.8151 196608
902.02008 441.34738 1013.7549 131072
905.13989 439.94418 1010.5317 65536
907.34033 438.11539 1006.3312 0
910.15491 436.60507 1002.8621 256
912.02484 434.66422 998.40399 768
914.64886 433.10544 994.82349 1280
0 0 0 0
883.81445 413.17899 949.05334 13685683
886.94409 412.02045 946.39227 13357230
893.05634 412.25333 946.92719 13357489
895.5152 410.80734 943.60583 13422257
900.6554 410.60172 943.13354 13553330
0 0 0 0
0 0 0 0
0 0 0 0
0 0 0 0
0 0 0 0
0 0 0 0
0 0 0 0
0 0 0 0
0 0 0 0
-2176.9976 1089.3073 2468.4922 768
-2151.1973 1083.6786 2455.7368 768
-2149.8552 1090.3782 2470.9189 768
-2156.4463 1101.2206 2495.4893 768
-2112.4724 1086.213 2461.4802 768
-2091.4854 1082.8982 2453.9688 768
-2077.272 1083.069 2454.3555 768
-2059.8872 1081.5769 2450.9744 768
-2059.4722 1089.0371 2467.8801 768
-2031.4282 1081.8895 2451.6829 768
-2020.1495 1083.6321 2455.6316 512
-2008.6644 1085.2885 2459.385 1280
-1993.0366 1084.7142 2458.0837 1280
-1978.6233 1084.7975 2458.2725 1280
-1961.0503 1083.1368 2454.5093 1280
-1951.0928 1085.6888 2460.2925 1280
-1935.4999 1085.12 2459.0034 1280
-1924.1403 1086.9338 2463.1138 1280
-1908.2506 1086.1969 2461.4436 1280
-1888.3344 1083.1389 2454.5142 1280
-1874.9159 1083.7896 2455.9885 1024
-1857.5714 1082.1631 2452.3027 1024
-1847.0145 1084.4966 2457.5906 1024
-1833.4761 1085.1024 2458.9636 1024
-1820.1273 1085.8312 2460.615 1280
-1803.6636 1084.6984 2458.0479 1280
-1789.3811 1084.8696 2458.436 1280
-1771.9482 1083.1179 2454.4666 1280
-1760.7085 1085.1543 2459.0811 1280
-1746.531 1085.3988 2459.6353 1280
-1732.8525 1085.9602 2460.9075 1280
-1714.8676 1083.8093 2456.0334 1024
-1701.2148 1084.3833 2457.334 768
-1690.7013 1086.9854 2463.2305 768
-1675.9524 1086.8859 2463.0051 768
-1661.6143 1087.0535 2463.385 768
-1647.297 1087.2379 2463.8027 768
-1633.1326 1087.5271 2464.4583 768
-1616.6808 1086.285 2461.6433 768
-1605.5466 1088.6255 2466.9473 768
-1591.954 1089.3269 2468.5366 768
-1577.7644 1089.629 2469.2214 768
-1561.1187 1088.2247 2466.0391 768
-1547.7719 1089.1152 2468.0569 768
-1533.4984 1089.3644 2468.6216 768
-1523.283 1092.5289 2475.7927 768
-1509.0142 1092.8195 2476.4512 768
-1495.0765 1093.3579 2477.6714 1024
-1481.425 1094.1184 2479.3948 1024
-1467.3082 1094.547 2480.3662 1024
-1453.7571 1095.4105 2482.323 1024
-1439.6616 1095.8773 2483.3809 1024
-1425.7986 1096.5326 2484.8657 1024
-1410.0698 1095.7517 2483.0962 1024
-1395.473 1095.8433 2483.3035 1024
-1381.9044 1096.7528 2485.3645 1024
-1370.3983 1099.3364 2491.2195 1024
-1356.6012 1100.1185 2492.9917 1024
-1342.6882 1100.8226 2494.5874 1024
-1328.5713 1101.3737 2495.8359 1024
-1314.7493 1102.1841 2497.6724 1024
-1299.099 1101.4629 2496.0383 1280
-1287.5358 1104.2303 2502.3096 1280
-1273.9833 1105.3363 2504.8157 1024
-1257.8586 1104.2103 2502.2642 768
-1245.574 1106.4686 2507.3818 768
-1232.1028 1107.7147 2510.2056 768
-1218.8643 1109.203 2513.5784 768
-1204.1266 1109.3472 2513.9048 768
-1189.5958 1109.6876 2514.6765 768
-1174.8351 1109.8197 2514.9758 768
-1160.7351 1110.5874 2516.7153 768
-1144.8391 1109.634 2514.5549 768
-1133.0372 1112.6763 2521.449 768
-1119.6562 1114.2284 2524.9663 768
-1103.1251 1112.645 2521.3782 768
-1088.2461 1112.7076 2521.52 768
-1073.931 1113.3566 2522.9907 768
-1061.4419 1115.9436 2528.853 768
-1047.0291 1116.5531 2530.2341 768
-1034.3634 1119.0707 2535.9395 768
-1020.0274 1119.8287 2537.6572 768
-1009.4688 1124.8184 2548.9644 768
-1000.4262 1131.6747 2564.5015 512
-976.61115 1121.774 2542.0657 66048
-971.87921 1133.8263 2569.3774 197120
-944.50232 1119.4236 2536.739 393984
-935.09363 1126.1949 2552.084 722944
-923.08582 1130.0074 2560.7234 525056
-905.93842 1127.5505 2555.1558 458752
-891.46313 1128.3923 2557.0632 524800
-881.79504 1135.4531 2573.064 1116161
-860.16925 1127.0941 2554.1216 984576
-846.57831 1129.1526 2558.7861 984576
-830.27332 1127.6 2555.2678 655872
-818.90466 1132.8185 2567.0935 984064
-801.64703 1129.9337 2560.5564 852480
-781.07581 1122.1771 2542.979 918272
-765.3136 1121.1604 2540.675 852480
-749.03394 1119.3296 2536.5261 983552
-733.27435 1118.2169 2534.0046 1049344
-718.88641 1119.1931 2536.2168 1115136
-702.78204 1117.4818 2532.3389 1115136
-687.64056 1117.2603 2531.8369 1246208
-671.17383 1114.8275 2526.324 1180416
-656.0531 1114.5706 2525.7417 1048832
-639.33978 1111.5328 2518.8579 983040
-624.70471 1112.0493 2520.0283 720896
-609.10742 1110.8364 2517.2798 720896
-594.09943 1110.6642 2516.8894 851968
-579.22504 1110.7394 2517.0598 917760
-562.13556 1106.4584 2507.3586 1048832
-545.69275 1103.2527 2500.094 720896
-532.50989 1106.6426 2507.7759 786432
-515.82434 1102.739 2498.9299 917504
-500.85239 1102.3762 2498.1079 851968
-486.30905 1102.9636 2499.439 917504
-469.9978 1099.4521 2491.4817 851968
-455.25116 1099.4917 2491.5713 1048832
-440.38535 1099.2365 2490.9929 1114880
-425.17484 1098.0732 2488.3569 1245440
-410.77515 1098.9958 2490.4475 1311232
-395.1716 1096.6464 2485.1235 1311488
-380.3226 1096.2899 2484.3157 1179904
-364.69717 1093.5765 2478.167 851968
-350.03226 1093.6367 2478.3032 983040
-335.0332 1092.6123 2475.9817 1048832
-320.43729 1092.869 2476.5635 917504
-305.34827 1091.3879 2473.2073 851968
-290.04425 1088.9502 2467.6831 720896
-275.5137 1089.3119 2468.5027 655360
-261.17917 1090.5323 2471.2686 720896
-246.19579 1089.028 2467.8594 786432
-231.34377 1087.9512 2465.4192 786432
-216.42583 1086.3984 2461.9004 720896
-202.22484 1088.4801 2466.6179 983040
-187.79622 1089.5657 2469.0776 983040
-172.81793 1087.3759 2464.1155 917504
-158.24593 1087.5743 2464.5652 917504
-143.44057 1086.0463 2461.1025 1114112
-128.71193 1084.819 2458.3213 1114112
-114.01372 1083.5675 2455.4854 1311232
-99.647827 1085.5704 2460.0242 1114112
-85.131454 1086.3394 2461.7666 1179648
-70.561462 1086.6006 2462.3586 1377024
-55.956436 1086.318 2461.718 1442816
-41.258385 1083.3931 2455.0898 1377024
-26.745613 1084.7974 2458.2722 1310976
-12.168241 1083.8066 2456.0271 1048832
2.3859789 1084.3851 2457.3381 1180929
16.853279 1078.4076 2443.7925 1049088
31.46817 1083.0347 2454.2778 786432
45.990452 1082.5569 2453.1951 851968
60.46994 1081.5431 2450.8977 851968
75.020447 1081.9462 2451.8113 851968
89.337891 1079.4026 2446.0471 851968
103.74317 1078.4823 2443.9617 851968
117.97243 1076.1818 2438.7483 786432
132.31238 1075.2828 2436.7112 1114112
146.86407 1076.1123 2438.5908 983040
161.25691 1075.7333 2437.7322 1048576
174.96347 1071.215 2427.4932 1048576
189.00247 1069.264 2423.072 1048576
203.0249 1067.5012 2419.0774 1048576
218.05705 1070.9301 2426.8474 1180160
232.01125 1068.968 2422.4011 917504
245.81136 1066.5659 2416.9578 786432
260.05093 1066.2302 2416.1973 1114368
274.29132 1065.9329 2415.5232 1114112
288.27283 1064.7086 2412.749 1376768
302.75272 1065.354 2414.2114 1245440
317.68311 1067.4547 2418.9719 1442560
331.22122 1064.8979 2413.178 1508352
347.30511 1070.3988 2425.6436 1245696
362.63089 1073.2189 2432.0342 917504
374.79416 1066.8215 2417.5371 851968
