# .PCD v0.7 - Point Cloud Data file format
VERSION 0.7
FIELDS x y z rgb
SIZE 4 4 4 4
TYPE F F F U
COUNT 1 1 1 1
WIDTH 1321
HEIGHT 1
VIEWPOINT 0 0 0 1 0 0 0
POINTS 1321
DATA ascii
394.93643 1278.6903 2648.6958 1508352
411.05988 1280.0258 2651.4619 1442560
426.71542 1279.8596 2651.1177 1573888
443.10599 1281.8314 2655.2021 1310976
456.9455 1276.5413 2644.2441 917504
470.91251 1271.9463 2634.7261 1114112
486.25897 1271.2526 2633.2891 1245184
502.03363 1271.6868 2634.1882 1179648
517.59454 1271.5695 2633.9453 1310976
533.04767 1271.202 2633.1843 1310976
548.33844 1270.4794 2631.6873 1114112
563.00293 1268.3857 2627.3506 1310976
579.13696 1269.6263 2629.9204 1310976
595.02032 1270.267 2631.2473 1310976
610.29572 1269.61 2629.8865 1310976
625.49634 1268.8341 2628.2793 1442560
641.66663 1270.015 2630.7256 1574144
656.35522 1268.2769 2627.125 1573376
670.83942 1266.2335 2622.8923 1245184
687.16443 1267.6786 2625.8857 1310720
701.94025 1266.265 2622.9575 1376256
717.36011 1266.0493 2622.5107 1310720
733.52356 1267.1272 2624.7437 1245184
748.3233 1265.8536 2622.1055 1245184
764.18036 1266.3839 2623.2041 1310720
779.62408 1266.2218 2622.8682 1442048
792.9928 1262.7618 2615.7012 1573632
809.76373 1264.7483 2619.8159 1376256
817.07245 1252.1592 2593.7388 1902595
832.74677 1252.6185 2594.6902 1376256
855.31244 1263.2394 2616.6904 1245184
871.46649 1264.181 2618.6409 1507840
882.27283 1257.4678 2604.7351 1507840
900.51587 1261.4025 2612.8853 1114112
915.55304 1260.7893 2611.6152 1114112
926.86707 1255.1547 2599.9436 1573120
946.66833 1261.0098 2612.072 1507328
966.48126 1266.6918 2623.8418 1769984
986.34363 1272.2578 2635.3711 1507840
1001.298 1271.4181 2633.6318 1441792
1013.9575 1267.735 2626.0024 1573120
1026.3363 1263.8175 2617.8879 1704448
1038.7522 1260.0618 2610.1082 1245184
1053.8519 1259.624 2609.2014 1901824
1069.6117 1259.9763 2609.9314 1967360
1081.5862 1255.9235 2601.5361 1638400
1093.1643 1251.5305 2592.4365 1376256
1103.453 1245.8036 2580.5737 1967360
1124.6222 1252.3495 2594.1328 2296325
1144.4019 1257.1924 2604.1646 2295811
1147.3306 1243.6409 2576.0938 2295299
1162.8204 1243.8822 2576.5935 1901312
1178.4055 1244.2175 2577.2883 1835264
1202.0776 1252.9739 2595.4263 2097920
1211.7153 1247.0651 2583.1868 2163969
1224.8224 1244.8298 2578.5566 2164224
1254.6176 1259.4014 2608.7402 2295809
1264.1864 1253.5619 2596.6443 2229504
1282.2092 1256.1449 2601.9949 2492416
1301.1458 1259.5511 2609.0505 2689795
1315.4421 1258.4384 2606.7454 2755845
1330.8835 1258.434 2606.7363 2624259
1346.4421 1258.5392 2606.9543 2689795
1364.5105 1260.9614 2611.9717 2557952
1384.4781 1265.0647 2620.4714 2492416
1393.854 1259.5062 2608.9575 2689796
1408.5571 1258.8306 2607.5579 2624002
1426.6086 1261.1296 2612.3201 2886918
1442.3302 1261.3417 2612.7595 3215369
1460.8744 1263.9913 2618.248 3148806
1471.1538 1259.5099 2608.9648 3148290
1485.9769 1258.9709 2607.8486 3541760
1499.9359 1257.7185 2605.2544 4856074
1508.0316 1251.6254 2592.6328 6828309
1521.7489 1250.2737 2589.833 8736299
1543.5078 1255.4901 2600.6384 7880473
1556.804 1253.7877 2597.1121 7814938
1586.345 1265.0739 2620.4902 9722934
1608.6619 1270.4357 2631.5969 9393970
1619.9083 1267.0359 2624.5544 9196591
1620.4879 1255.4366 2600.5276 9130797
1634.2056 1254.1384 2597.8386 9262129
1648.9147 1253.6183 2596.7612 9985852
1651.7427 1244.1586 2577.166 8472870
1672.4366 1248.2062 2585.5503 8735786
1686.9216 1247.5883 2584.2705 8472613
1714.7096 1256.7314 2603.2097 9459764
1722.7924 1251.3982 2592.1624 8538406
1754.8751 1263.4381 2617.1021 8604199
1760.1907 1256.1648 2602.0359 8341284
1773.4955 1254.6697 2598.939 8538663
1784.6173 1251.6692 2592.7239 9130543
1808.9583 1257.9124 2605.656 9591094
1844.4796 1271.7585 2634.3372 8867371
1845.8765 1262.0414 2614.2087 9130543
1861.9777 1262.4556 2615.0669 9196593
1878.0901 1262.8706 2615.9263 9328176
1899.1359 1266.569 2623.5872 9525555
1912.4576 1265.0977 2620.5396 9196590
1935.8085 1270.2311 2631.1729 8933162
1940.399 1263.0707 2616.3408 9262385
1965.1805 1269.0625 2628.7524 8341284
1971.2318 1262.9598 2616.1113 8012575
1987.666 1263.5527 2617.3394 8801835
2025.3446 1277.5369 2646.3064 9196593
2026.7524 1268.6031 2627.801 9196334
2039.368 1266.7676 2623.9988 9130800
2053.8301 1266.098 2622.6118 8275234
2063.2761 1262.3695 2614.8884 8406820
2056.8191 1249.0392 2587.2759 9920059
2103.4814 1267.9252 2626.3965 8933164
2115.8186 1265.9954 2622.3992 9196593
2142.1313 1272.3949 2635.6553 8736298
2140.0383 1261.9514 2614.0225 8999469
2137.1145 1251.1715 2591.6929 9196336
2140.5161 1244.2223 2577.2981 8538662
2151.8567 1241.9535 2572.5986 8604456
2167.1003 1241.9535 2572.5986 8538407
2193.9688 1248.5691 2586.302 8012320
2184.99 1234.834 2557.8511 8275490
2199.4092 1234.4203 2556.9941 8143648
2213.8198 1234.0074 2556.1389 9459765
2263.8801 1253.3367 2596.1777 9262385
2279.3975 1253.4105 2596.3306 8802091
2305.2002 1259.1011 2608.1182 8672047
2330.7554 1264.5814 2619.4702 8474671
2334.3179 1258.1359 2606.1189 7621420
2296.4656 1229.6003 2547.01 1835520
2286.769 1216.4143 2519.6963 1250317
2284.1453 1207.1372 2500.4797 12961193
0 0 0 0
2314.3953 1207.4592 2501.1467 13488050
2277.4285 1180.613 2445.5371 13488052
2285.1157 1177.1084 2438.2776 13619125
2248.446 1150.9423 2384.0767 13488309
2452.749 1247.6825 2584.4658 13422517
2469.8259 1248.5737 2586.3118 13422773
0 0 0 0
0 0 0 0
0 0 0 0
0 0 0 0
0 0 0 0
0 0 0 0
0 0 0 0
0 0 0 0
-2311.0918 1272.0795 2603.052 1024
-2292.7729 1270.4755 2599.7698 768
-2276.2625 1269.8585 2598.5073 768
-2260.0142 1269.3805 2597.5293 768
-2290.6104 1295.3873 2650.7468 768
-2267.7913 1291.3374 2642.4595 768
-2249.5854 1289.8763 2639.4697 768
-2232.1306 1288.8285 2637.3254 768
-2216.1643 1288.6312 2636.9219 768
-2198.8962 1287.6689 2634.9526 768
-2189.366 1291.2565 2642.2939 1024
-2176.2144 1292.7446 2645.3391 768
-2153.9387 1288.795 2637.2571 1024
-2092.1064 1260.9463 2580.2703 1024
-2083.3044 1264.885 2588.3301 1024
-2067.6069 1264.6643 2587.8784 1024
-2048.551 1262.371 2583.1855 1024
-2035.1019 1263.524 2585.5452 1024
-2026.8525 1267.9475 2594.5969 1024
-2007.1769 1265.236 2589.0481 1024
-1996.2944 1268.0681 2594.8438 1024
-1983.6733 1269.8314 2598.4519 768
-1969.9958 1270.9406 2600.7217 768
-1946.9784 1265.9943 2590.5999 768
-1920.0428 1258.4014 2575.0625 768
-1897.3832 1253.5116 2565.0566 768
-1886.5854 1256.4427 2571.0547 768
-1871.8662 1256.7886 2571.7625 1024
-1857.5454 1257.4102 2573.0342 1024
-1839.3291 1255.3829 2568.886 1024
-1811.6123 1246.7836 2551.2891 1024
-1797.9333 1247.7819 2553.3318 768
-1785.9247 1249.9662 2557.8018 1024
-1765.7495 1246.4231 2550.5515 1024
-1751.2155 1246.8353 2551.395 1280
-1734.9595 1246.0182 2549.7229 1280
-1702.7402 1233.6213 2524.3552 1280
-1704.7697 1246.0375 2549.7625 1280
-1695.3203 1250.2107 2558.302 1280
-1681.2936 1251.0532 2560.0261 1280
-1665.7295 1250.7566 2559.4192 1280
-1653.7308 1253.1565 2564.3301 1024
-1638.525 1253.1479 2564.3127 1024
-1623.803 1253.5128 2565.0591 1024
-1608.1505 1253.1594 2564.3359 1024
-1594.0303 1254.0046 2566.0657 768
-1580.5215 1255.3519 2568.8225 1024
-1565.8228 1255.771 2569.6802 1024
-1550.7041 1255.8583 2569.8586 1024
-1535.0444 1255.5048 2569.1353 1280
-1518.9646 1254.797 2567.687 1280
-1506.6915 1257.2515 2572.7097 1280
-1490.252 1256.244 2570.6479 1280
-1476.9214 1257.8635 2573.9619 1024
-1461.928 1258.0859 2574.417 768
-1449.1958 1260.2793 2578.9055 768
-1435.2845 1261.4833 2581.3691 768
-1420.2644 1261.728 2581.8699 768
-1402.9644 1259.9307 2578.1919 768
-1387.9788 1260.1949 2578.7329 768
-1375.9351 1263.1661 2584.8127 768
-1361.7511 1264.2172 2586.9634 768
-1346.4504 1264.2435 2587.0173 768
-1331.853 1264.9386 2588.4397 768
-1317.028 1265.4309 2589.447 768
-1300.8176 1264.5881 2587.7227 768
-1287.1499 1266.2268 2591.0757 1024
-1272.339 1266.7666 2592.1804 1024
-1258.267 1268.0643 2594.8359 1024
-1243.7296 1268.9194 2596.5857 1024
-1227.796 1268.3535 2595.4277 1024
-1213.5247 1269.5122 2597.7986 1024
-1202.7383 1274.3933 2607.7869 1024
-1187.4071 1274.5232 2608.0527 1024
-1171.6853 1274.2317 2607.4561 1024
-1155.9911 1273.9628 2606.906 1024
-1142.3937 1276.0287 2611.1333 1024
-1127.3995 1276.5697 2612.2405 1024
-1111.9406 1276.5923 2612.2866 1024
-1095.1482 1275.063 2609.1572 1280
-1080.4508 1275.9639 2611.0007 1024
-1067.1781 1278.598 2616.3911 1024
-1053.2611 1280.5264 2620.3369 1024
-1039.8624 1283.1521 2625.71 1024
-1023.9417 1282.6982 2624.7812 1024
-1008.6307 1283.0059 2625.4106 1024
-993.54645 1283.6162 2626.6597 1024
-977.67023 1283.2063 2625.821 1024
-960.48859 1281.0424 2621.3928 1024
-943.76428 1279.427 2618.0872 1024
-929.32721 1280.9103 2621.1226 1024
-913.46484 1280.446 2620.1726 768
-897.30548 1279.5424 2618.3232 768
-883.39166 1281.8651 2623.0764 768
-866.99976 1280.611 2620.51 768
-851.2616 1280.2943 2619.8621 768
-835.43652 1279.8325 2618.9172 1024
-819.88782 1279.7849 2618.8196 1024
-803.94165 1279.1029 2617.4241 1024
-789.24634 1280.4236 2620.1265 1024
-774.30975 1281.3978 2622.1201 1024
-758.30487 1280.6079 2620.5037 1024
-742.883 1280.79 2620.8765 768
-723.88989 1274.6914 2608.3967 512
-711.63617 1280.4529 2620.1865 256
-698.0542 1284.0282 2627.5027 65792
-682.03308 1283.1776 2625.7622 328192
-668.15619 1286.4156 2632.3882 525568
-652.2511 1285.8102 2631.1492 852992
-637.8739 1288.2609 2636.1641 918784
-621.8689 1287.4644 2634.5342 984064
-606.76465 1288.5399 2636.7349 984064
-590.8269 1287.8553 2635.3342 1313027
-574.35919 1285.9471 2631.4294 1378563
-560.13586 1289.0975 2637.8762 786688
-544.54285 1289.1863 2638.0576 1115136
-529.90601 1291.6108 2643.019 1049344
-512.51874 1287.2748 2634.1462 983808
-498.38983 1291.1075 2641.9893 1115648
-480.71002 1285.6917 2630.9065 1115392
-464.5018 1283.9805 2627.405 1180930
-447.16449 1278.9215 2617.0527 851968
-432.39932 1281.1196 2621.5508 1048576
-416.91531 1281.2723 2621.8635 786432
-400.7182 1279.1608 2617.5425 720896
-385.24881 1279.2955 2617.8181 1048832
-369.90668 1279.882 2619.0183 983296
-354.7269 1281.1061 2621.5232 1180416
-339.11325 1280.8038 2620.9045 983040
-323.49054 1280.4364 2620.1528 851968
-307.85236 1279.9677 2619.1936 720896
-292.23529 1279.5416 2618.322 720896
-276.28418 1277.5233 2614.1919 720896
-260.71509 1277.1367 2613.4006 1179648
-245.17708 1276.8628 2612.8403 1245440
-229.67371 1276.7448 2612.5986 1311488
-213.86993 1274.8191 2608.658 1377280
-199.0722 1279.057 2617.3301 1311744
-183.89618 1281.3754 2622.0742 1114624
-168.53229 1282.6917 2624.7678 1179648
-152.73462 1280.6385 2620.5664 983040
-137.32469 1281.7397 2622.8198 1245440
-121.6547 1280.3849 2620.0474 1179648
-106.1208 1280.2754 2619.8235 1376768
-90.297058 1276.0327 2611.1416 1114112
-75.180954 1282.103 2623.5632 1114112
-59.439571 1277.8954 2614.9531 1048576
-43.798817 1273.6466 2606.259 1048576
-28.408148 1276.0031 2611.0808 851968
-12.925462 1274.9197 2608.864 851968
2.5375111 1277.1373 2613.4021 851968
18.024509 1277.2466 2613.6255 851968
33.588245 1280.1797 2619.6274 1310976
49.124126 1280.5325 2620.3496 917504
64.491707 1277.3823 2613.9033 1048576
79.835442 1275.0714 2609.1746 1245440
95.349449 1275.7886 2610.6421 1245440
110.7328 1274.8014 2608.6218 1245184
125.94219 1272.2986 2603.5005 1245184
141.19159 1270.7023 2600.2339 1114112
156.54564 1270.269 2599.3474 1114112
171.98785 1270.5648 2599.9526 1179648
187.55817 1271.6804 2602.2356 1376768
203.31439 1273.7915 2606.5554 1442304
219.27133 1276.7731 2612.6565 1442304
234.73314 1276.6685 2612.4424 1573888
250.45282 1277.8925 2614.9473 1245440
265.64511 1276.4398 2611.9746 1245184
280.73248 1274.6708 2608.3547 1245440
295.93103 1273.5647 2606.0913 1245184
311.37921 1273.5895 2606.1418 1179648
326.47055 1272.2213 2603.3423 1245184
341.80646 1271.8866 2602.6575 1310976
357.07156 1271.3287 2601.5159 1245184
372.59808 1271.7092 2602.2944 1376768
388.56973 1273.5184 2605.9966 1376768
404.32227 1274.4987 2608.0024 1442560
419.25479 1272.917 2604.7659 1442304
434.81232 1273.2778 2605.5044 1179648
448.78076 1269.1202 2596.9966 1245184
465.28845 1272.1809 2603.2598 1245440
482.73618 1277.5331 2614.2117 1311232
494.32349 1267.5251 2593.7327 1376768
509.22263 1266.3571 2591.3423 1376768
524.88068 1267.0892 2592.8406 1376512
539.74384 1265.9155 2590.4387 1310976
555.3161 1266.4237 2591.4788 1376768
570.13776 1265.2389 2589.0542 1048576
585.93958 1266.2344 2591.0913 1376768
603.7085 1271.3214 2601.5007 1574144
618.29681 1269.6239 2598.0273 1442560
632.67682 1267.5917 2593.8689 1442560
647.46222 1266.4487 2591.53 1376768
661.31152 1263.5702 2585.6396 1376512
676.91437 1264.0967 2586.7168 1245440
691.64771 1263.0121 2584.4973 1376768
708.09961 1265.0446 2588.6565 1245184
723.66357 1265.4382 2589.4622 1048576
736.64294 1261.3898 2581.1777 1442048
752.79938 1262.8357 2584.1365 1376512
768.40161 1263.3127 2585.1128 1245184
784.19855 1264.0851 2586.6931 1376512
797.58569 1261.0178 2580.4165 1573888
806.69678 1251.4324 2560.802 1902851
821.91193 1251.4952 2560.9307 1310720
843.31665 1260.8099 2579.9912 1310720
854.47223 1254.7424 2567.5754 1639424
871.19061 1256.913 2572.0168 1639424
886.69244 1257.2841 2572.7761 1376512
904.86597 1261.3666 2581.1304 1179648
918.9635 1259.7261 2577.7734 1572864
931.62256 1256.1997 2570.5574 1507328
952.72931 1263.9943 2586.5073 1638912
964.68585 1259.5946 2577.5044 1770496
984.04749 1264.8503 2588.259 1704704
999.78516 1265.358 2589.2981 1376256
1013.6542 1263.5214 2585.5396 1310720
1020.6965 1253.3563 2564.739 1836288
1040.9214 1259.4396 2577.187 1967873
1052.6859 1255.2584 2568.6313 1836288
1062.7944 1249.25 2556.3362 1573120
1077.7698 1249.0508 2555.9285 1902080
1097.049 1253.7756 2565.5969 1572864
1105.2244 1245.8547 2549.3884 1704704
1114.7384 1239.6361 2536.6633 1902081
1123.823 1233.1116 2523.3123 2164739
1146.2938 1241.2538 2539.9736 1967360
1164.871 1245.0232 2547.687 2164996
1185.9502 1251.3362 2560.6052 2098946
1191.5375 1241.3502 2540.1709 2296068
1207.1444 1241.9216 2541.3401 2164483
1234.2699 1254.1833 2566.4314 2098176
1250.5793 1255.2898 2568.6953 2163712
1263.1283 1252.6404 2563.2739 2163456
1277.3956 1251.7377 2561.4268 2426626
1296.448 1255.4902 2569.1055 2624004
1309.0342 1252.9663 2563.9409 2624261
1327.5503 1256.1113 2570.3765 2426369
1341.5408 1254.9513 2568.0027 2360832
1358.5461 1256.606 2571.3887 2426368
1372.2417 1255.1964 2568.5044 2755588
1389.6543 1257.1805 2572.5645 2821381
1405.4027 1257.6323 2573.489 2426626
1412.885 1250.757 2559.4199 2951940
1432.8743 1254.9817 2568.0649 2689026
1451.359 1257.8138 2573.8604 2622464
1470.2897 1260.9695 2580.3179 3017473
1486.1489 1261.4532 2581.3076 3608326
1497.0231 1257.7388 2573.7068 3870467
1497.3525 1245.3295 2548.3135 5579279
1507.3438 1241.123 2539.7061 7222813
1539.7362 1255.2623 2568.6392 8012066
1537.6465 1241.2887 2540.0449 8209698
1573.974 1258.2981 2574.8513 9196592
1577.9998 1249.4055 2556.6545 8867371
1593.5343 1249.7078 2557.2729 9064749
1605.0948 1246.9171 2551.5623 9393712
1622.8416 1248.9393 2555.7004 8932908
1614.052 1230.6907 2518.3584 8142878
1657.9459 1252.5787 2563.1479 7616791
1666.8461 1247.8716 2553.5156 9196333
1677.2795 1244.3868 2546.3848 8407074
1704.1859 1253.0767 2564.1665 8538661
1722.1709 1255.1108 2568.3293 8275491
1728.7485 1248.8685 2555.5557 8670249
1738.5947 1245.0757 2547.7942 9262385
1753.3331 1244.8213 2547.2737 9525557
1785.2439 1256.6591 2571.4973 9525557
1792.8236 1251.3146 2560.5608 8933164
1812.1475 1254.1877 2566.4402 8670248
1833.7092 1258.5491 2575.365 9065007
1850.5459 1259.6223 2577.561 9393713
1868.5812 1261.4871 2581.377 9262383
1883.6716 1261.3497 2581.0957 9393970
1892.6144 1257.1309 2572.4629 9262383
1919.6309 1264.8888 2588.3379 9196333
1920.1761 1255.2196 2568.5518 8999211
1939.6339 1257.9683 2574.1763 9393713
1963.9308 1263.7878 2586.085 9196593
1983.3602 1266.4095 2591.4497 9262385
1991.4758 1261.8223 2582.063 8406820
1994.5591 1254.1407 2566.3442 8735785
2005.2305 1251.3108 2560.5532 8472613
2028.4729 1256.309 2570.7808 8341284
2042.9133 1255.8217 2569.7837 8078112
2081.512 1270.0824 2598.9656 9459765
2099.5991 1271.7102 2602.2964 9459508
2102.7097 1264.3088 2587.1511 9196336
2131.5093 1272.3491 2603.604 7814683
2119.4583 1256.0647 2570.281 7683354
2127.8083 1252.0165 2561.9973 9130543
2131.3911 1245.2404 2548.1313 8735785
2149.8879 1247.2118 2552.1653 8867371
2148.4504 1237.672 2532.644 8735785
2153.1592 1231.7804 2520.5884 9064750
2168.323 1231.9102 2520.8538 7946270
2205.8154 1244.6371 2546.8967 9393971
2233.8208 1251.8744 2561.7065 9591351
2264.9363 1260.7451 2579.8586 8670249
2271.0876 1255.6941 2569.5227 8144420
2271.2148 1247.402 2552.5544 7749920
2300.8779 1255.3336 2568.7852 8146736
2273.6743 1232.3395 2521.7322 4333069
2268.1157 1221.3004 2499.1431 0
2282.3701 1221.0039 2498.5364 10329217
2299.6758 1222.3334 2501.2566 13619377
2226.979 1176.1134 2406.677 13553330
2194.4275 1151.5483 2356.4094 13553331
2271.8625 1184.6454 2424.136 13488309
2150.8342 1114.4897 2280.5767 13619386
2384.2263 1227.7122 2512.2634 13488055
2399.1128 1227.7122 2512.2634 13488058
0 0 0 0
0 0 0 0
0 0 0 0
0 0 0 0
0 0 0 0
0 0 0 0
0 0 0 0
0 0 0 0
-2279.4312 1269.8656 2567.3918 768
-2266.1914 1270.972 2569.6289 768
-2249.8125 1270.3212 2568.313 768
-2238.3728 1272.4691 2572.6558 768
-2250.2771 1288.0082 2604.0723 768
-2240.0054 1290.9812 2610.083 768
-2222.8936 1290.026 2608.1519 768
-2213.2661 1293.4312 2615.0364 768
-2198.3184 1293.7534 2615.688 768
-2180.9404 1292.6398 2613.4363 768
-2163.3711 1291.396 2610.9216 768
-2146.4204 1290.5062 2609.1226 768
-2134.7903 1292.8256 2613.812 768
-2069.2476 1262.2909 2552.0774 768
-2065.0513 1269.0049 2565.6519 768
-2049.2214 1268.6166 2564.8667 1024
-2031.853 1267.2628 2562.1296 1024
-2014.1527 1265.6802 2558.9297 1024
-2000.4155 1266.5828 2560.7546 1024
-1985.9136 1267.0112 2561.6208 1024
-1971.8898 1267.7535 2563.1218 1024
-1956.2557 1267.4644 2562.5371 768
-1943.3577 1268.957 2565.5549 768
-1919.2468 1263.0939 2553.7009 768
-1890.3623 1253.9709 2535.2563 768
-1876.9408 1255.0414 2537.4207 768
-1852.9747 1249.0214 2525.2495 768
-1839.4052 1249.9685 2527.1643 1024
-1798.6713 1232.3199 2491.4827 1024
-1776.2722 1227.0452 2480.8181 768
-1785.7339 1243.8749 2514.8445 1024
-1774.1729 1246.2214 2519.5884 1024
-1759.4039 1246.3352 2519.8186 1024
-1745.1111 1246.7913 2520.7405 1024
-1738.2753 1252.6285 2532.5422 1024
-1716.9303 1248.021 2523.2268 1024
-1704.3403 1249.7523 2526.7273 1024
-1684.1725 1245.9084 2518.9558 1280
-1669.049 1245.7611 2518.6577 1280
-1658.3171 1248.9183 2525.041 1024
-1645.921 1250.8682 2528.9832 1024
-1632.0344 1251.7109 2530.687 1024
-1616.928 1251.6249 2530.5132 1024
-1600.9324 1250.8425 2528.9314 1024
-1586.5302 1251.3021 2529.8606 1024
-1574.9602 1254.0255 2535.3667 1280
-1559.3478 1253.5516 2534.4087 1280
-1545.7582 1254.7107 2536.752 1280
-1533.5901 1257.0576 2541.4971 1280
-1518.3953 1256.9456 2541.2703 1280
-1501.8584 1255.7091 2538.7705 1280
-1489.5131 1257.9877 2543.3772 1280
-1473.2894 1257.0039 2541.3882 1280
-1459.2274 1257.863 2543.1252 1024
-1443.7008 1257.4645 2542.3196 768
-1430.1893 1258.8311 2545.0825 768
-1414.8793 1258.6271 2544.6699 768
-1399.7627 1258.5927 2544.6003 768
-1384.4292 1258.3601 2544.1304 768
-1369.6163 1258.6011 2544.6174 768
-1356.2216 1260.1649 2547.7793 768
-1343.3197 1262.2272 2551.9487 768
-1328.3417 1262.3634 2552.2241 768
-1313.4713 1262.6062 2552.7148 768
-1298.2566 1262.5199 2552.5403 768
-1284.5717 1263.9365 2555.4045 768
-1270.0682 1264.5721 2556.6897 1024
-1255.1177 1264.7726 2557.095 1024
-1240.4452 1265.2615 2558.0833 1024
-1225.972 1265.9684 2559.5125 1024
-1212.3347 1267.5668 2562.7441 1024
-1196.8285 1267.2269 2562.0571 1024
-1183.6207 1269.3433 2566.3359 1024
-1169.7073 1270.748 2569.176 1024
-1154.5198 1270.7876 2569.2561 768
-1141.3312 1273.0579 2573.8459 768
-1127.5955 1274.771 2577.3096 768
-1114.2172 1276.9407 2581.6963 768
-1099.2196 1277.2894 2582.4011 1024
-1081.9856 1275.0126 2577.7979 1280
-1068.658 1277.3395 2582.5024 1280
-1052.4319 1276.2194 2580.2378 1280
-1041.7356 1281.8707 2591.6636 1280
-1024.9022 1280.0262 2587.9346 1024
-1010.812 1281.6039 2591.1243 1024
-994.11304 1279.8717 2587.6221 1024
-978.79285 1279.8882 2587.6553 1024
-963.26874 1279.634 2587.1416 1024
-947.30939 1278.7843 2585.4236 1024
-930.87347 1277.2526 2582.3269 1024
-916.3681 1278.363 2584.572 1024
-900.96936 1278.2438 2584.3306 768
-886.49695 1279.4572 2586.7839 1024
-871.96448 1280.6252 2589.1455 1024
-856.3891 1280.276 2588.4395 1024
-841.1012 1280.3516 2588.592 1024
-824.01691 1277.6445 2583.1191 1024
-807.9931 1276.5106 2580.8267 1024
-792.55737 1276.2798 2580.3599 1024
-778.08002 1277.6136 2583.0569 1024
-763.48163 1278.7982 2585.4517 768
-748.38538 1279.1804 2586.2244 768
-732.85828 1278.8268 2585.5093 768
-716.60431 1277.1626 2582.1448 512
-701.96649 1278.3689 2584.5837 512
-685.89752 1276.9647 2581.7446 197376
-672.23248 1280.0739 2588.0308 393984
-656.38995 1279.0852 2586.0317 525312
-642.11011 1281.1671 2590.241 787456
-626.0274 1279.6658 2587.2056 1116160
-611.75079 1281.8735 2591.6692 1050112
-597.77576 1284.843 2597.6731 1181698
-582.37994 1284.8352 2597.6572 1181441
-566.49408 1283.7164 2595.3953 918272
-551.51245 1284.6415 2597.2656 918528
-535.97748 1284.2937 2596.5625 983552
-520.79852 1284.8037 2597.5935 1049088
-505.54739 1285.1613 2598.3164 1049088
-489.40698 1283.2096 2594.3706 1115137
-474.54797 1284.6001 2597.1819 1049600
-458.81796 1283.6471 2595.2551 1246721
-440.53436 1275.2357 2578.2493 918016
-426.96545 1280.3586 2588.6064 1048832
-410.87521 1278.0204 2583.8789 1048832
-394.85593 1275.7305 2579.2493 917504
-379.01349 1273.8505 2575.4482 917504
-363.55115 1273.1438 2574.0198 1180416
-348.63705 1274.3793 2576.5176 1048832
-333.9798 1276.7098 2581.2295 1114624
-318.73749 1276.9203 2581.6548 917504
-303.66629 1277.8719 2583.5789 983040
-288.81207 1279.8862 2587.6514 786432
-273.08029 1278.0193 2583.877 983040
-257.64651 1277.4081 2582.6411 917504
-242.24532 1276.8915 2581.5967 1179648
-226.79243 1276.0143 2579.8232 1245440
-211.42982 1275.5552 2578.895 1245440
-196.11024 1275.3042 2578.3875 1245184
-181.18878 1277.8185 2583.4709 983040
-165.92174 1278.1348 2584.1104 786432
-150.24629 1275.0496 2577.8728 1245184
-134.87553 1274.1442 2576.0422 1114368
-119.79918 1276.144 2580.0854 1443074
-104.70628 1278.5269 2584.9031 1245696
-89.296852 1277.199 2582.2185 917504
-73.833542 1274.392 2576.5432 1048576
-58.55418 1274.1241 2576.0017 983040
-43.228024 1272.29 2572.2937 917504
-27.96105 1271.149 2569.9868 1048576
-12.728475 1270.7124 2569.104 983040
2.4950819 1271.0093 2569.7041 1179904
17.724802 1271.238 2570.1667 1048576
32.941315 1270.746 2569.1719 917504
48.264019 1273.3667 2574.4702 1179904
63.516232 1273.3153 2574.3665 1114112
78.742256 1272.8607 2573.4473 1114112
93.933365 1272.0806 2571.8701 1245440
109.09734 1271.2021 2570.094 1245440
124.44492 1272.4161 2572.5486 917504
139.75566 1273.0298 2573.7891 1114112
154.84979 1271.7437 2571.189 917504
170.00977 1271.1803 2570.0498 1245440
185.22833 1271.1115 2569.9109 1179648
200.13826 1269.0962 2565.8364 1245184
215.15358 1267.9865 2563.5928 1179648
231.07585 1272.0157 2571.739 1508096
246.26196 1271.7448 2571.1912 1508352
261.21173 1270.3558 2568.3831 1114112
276.55545 1270.9305 2569.5449 1179648
291.59464 1270.1185 2567.9033 917504
306.73749 1269.8163 2567.2922 1310720
321.95474 1269.8362 2567.3323 1376768
336.91254 1268.8768 2565.3928 1508352
352.19873 1269.1841 2566.0139 1311232
367.02438 1267.8746 2563.3667 1179648
381.4541 1265.3561 2558.2747 1442560
397.90179 1269.4683 2566.5884 1376768
412.56915 1267.8066 2563.229 1310976
427.91101 1268.2622 2564.1501 1179648
443.76758 1270.1597 2567.9863 1114112
459.5192 1271.6409 2570.9812 851968
473.84201 1269.2 2566.0461 2100747
489.3486 1269.983 2567.6294 786432
505.62534 1272.6575 2573.0364 917760
518.97192 1268.0159 2563.6521 1311232
533.46991 1266.3716 2560.3276 1377282
550.30884 1270.2216 2568.1116 1508608
564.17267 1267.1819 2561.9661 1179904
579.72308 1267.9907 2563.6013 1377025
594.34369 1266.7764 2561.146 983040
608.05469 1263.7319 2554.991 1442304
624.1203 1265.6101 2558.7883 1442560
638.01379 1263.0991 2553.7117 1048576
654.16772 1265.0759 2557.7083 1179648
669.33905 1265.106 2557.769 1048576
683.61279 1263.4757 2554.4729 1639937
697.81354 1261.7841 2551.0527 1442560
711.46063 1259.1843 2545.7966 1376768
727.18243 1260.2883 2548.0286 1310976
741.23846 1258.5189 2544.4514 1245184
755.63922 1257.3937 2542.1765 1179648
772.07819 1259.6379 2546.7139 1574144
786.98529 1259.3447 2546.1211 1442304
798.53815 1253.7961 2534.9028 1376512
813.89789 1254.3192 2535.9604 1573632
825.02789 1248.423 2524.0396 1639424
843.97504 1254.3549 2536.0325 1771010
855.62347 1249.4213 2526.0579 1771010
874.09943 1254.4559 2536.2368 1376256
889.99298 1255.6769 2538.7053 1245184
907.7981 1259.5093 2546.4536 1245184
922.56799 1259.0741 2545.5737 1114112
938.18872 1259.7954 2547.0322 1507584
949.42859 1254.7045 2536.7393 1639168
966.01959 1256.7336 2540.8418 1638656
979.19342 1254.3232 2535.9688 1441792
995.8468 1256.3756 2540.1179 1114112
1007.3322 1251.9438 2531.158 1441792
1019.8126 1248.8607 2524.9246 1507328
1039.2975 1254.3203 2535.9626 1638656
1052.1517 1251.7358 2530.7373 1573120
1056.0338 1238.7 2504.3816 1638656
1080.8071 1250.1906 2527.6133 1638656
1095.084 1249.3916 2525.998 1310720
1108.5325 1247.6819 2522.5413 1376512
1115.563 1238.8901 2504.7661 1507328
1134.1174 1242.9592 2512.9929 1704704
1150.5697 1244.6487 2516.4087 1638912
1168.4681 1247.8394 2522.8596 2098690
1174.8739 1238.8311 2504.6467 2032896
1187.6163 1236.6458 2500.2285 1310720
1212.7598 1247.2682 2521.7048 2097920
1231.4922 1251.1189 2529.4902 2163969
1239.2424 1243.8541 2514.8022 2163969
1261.1853 1250.8379 2528.9221 2229761
1277.1556 1251.8038 2530.875 2164225
1290.3389 1250.0472 2527.3235 2098432
1301.9966 1246.87 2520.8999 2360834
1317.3801 1247.2925 2521.7539 2229760
1338.3721 1252.9559 2533.2041 1769728
1357.0248 1256.3281 2540.022 2229760
1358.7755 1244.1501 2515.4009 2426881
1381.8116 1251.5148 2530.2905 2558466
1393.9615 1248.9674 2525.1404 2689026
1407.4916 1247.6975 2522.573 2754561
1439.734 1262.868 2553.2444 2162944
1453.9545 1262.0795 2551.6501 2294528
1470.5472 1263.3451 2554.209 2688512
1476.3282 1255.3912 2538.1279 2491392
1485.8691 1250.7627 2528.77 3476742
1487.4417 1239.5862 2506.1733 4593675
1506.8031 1243.3085 2513.6992 5447950
1511.8148 1235.2336 2497.3735 7156762
1534.9979 1242.0183 2511.0908 8736302
1547.7745 1240.3333 2507.6841 8867628
1568.0295 1244.6165 2516.3435 8999726
1589.675 1249.912 2527.05 8933677
1598.3612 1245.0143 2517.1479 9065263
1618.5264 1249.0659 2525.3396 8670505
1653.4824 1264.3534 2556.2473 7617817
1659.774 1257.6437 2542.6819 9591096
1666.4912 1251.3743 2530.0063 10380871
1683.376 1252.7833 2532.8552 7485721
1684.9392 1242.866 2512.8044 6630668
1709.509 1249.944 2527.1147 8210211
1722.9769 1248.8523 2524.9075 9197106
1746.9279 1255.312 2537.9678 8933678
1743.5073 1242.1611 2511.3794 8933678
1754.3457 1239.3053 2505.6055 8275747
1773.015 1241.9829 2511.0193 9262385
1794.1355 1246.3187 2519.7854 9131313
1824.3173 1256.8257 2541.0281 9854778
1847.0415 1262.0649 2551.6206 9723448
1843.8826 1249.6769 2526.5747 9788728
1866.4355 1254.7743 2536.8804 9591092
1882.132 1255.2173 2537.7761 9393970
1895.3865 1254.0377 2535.3914 9328179
1897.2943 1245.4285 2517.9854 9327922
1916.5095 1248.226 2523.6411 9328178
1943.3606 1255.9147 2539.1863 9196336
1935.6798 1241.3405 2509.7202 9196337
1974.7405 1256.7349 2540.8442 9065006
1999.9075 1263.121 2553.7559 9525557
2016.9286 1264.3052 2556.1499 8867628
2033.8807 1265.429 2558.4219 9262129
2045.0455 1262.9618 2553.4338 8669992
2068.4463 1268.0321 2563.6848 7814940
2084.7175 1268.6895 2565.0139 8999214
2091.0105 1263.309 2554.1357 10380866
2085.4131 1250.8735 2528.9941 9130799
2088.1685 1243.5902 2514.2688 8604456
2100.5781 1242.1187 2511.2937 8933420
2118.5461 1243.9316 2514.959 8867628
2126.8435 1240.0807 2507.1731 8735783
2138.1724 1238.0383 2503.0439 9130798
2166.0823 1245.5587 2518.2488 9328177
2188.8279 1250.0271 2527.2827 8999211
2200.8491 1248.3514 2523.895 8604453
2233.1614 1258.1304 2543.6658 9196335
2253.3682 1261.0035 2549.4749 9065777
2244.335 1247.5847 2522.3447 7421983
2250.905 1242.9596 2512.9937 8014634
2244.8687 1231.4795 2489.7837 6174233
2217.4792 1208.5123 2443.3489 458752
2254.6282 1220.7878 2468.1672 6512459
2290.5679 1232.2545 2491.3503 13421482
2220.4531 1186.8856 2399.6245 13487277
2187.864 1162.0249 2349.3613 13684402
2247.5493 1186.1777 2398.1931 13553586
2144.6401 1124.7544 2274.0088 13422516
2119.9397 1104.8588 2233.7839 13488054
2359.8606 1222.2682 2471.1602 13422520
0 0 0 0
0 0 0 0
0 0 0 0
0 0 0 0
0 0 0 0
0 0 0 0
0 0 0 0
0 0 0 0
-2249.1877 1268.0278 2533.3274 768
-2238.853 1270.6819 2538.6299 768
-2224.2634 1270.9408 2539.147 768
-2209.0591 1270.8494 2538.9644 768
-2231.2124 1292.3955 2582.0103 768
-2213.9968 1291.278 2579.7776 768
-2197.0869 1290.3245 2577.8726 768
-2180.5952 1289.6047 2576.4348 768
-2164.1768 1288.9186 2575.064 768
-2147.0347 1287.7887 2572.8066 768
-2130.5913 1287.0648 2571.3604 768
-2115.1072 1286.9139 2571.0591 768
-2101.9917 1288.2126 2573.6536 1024
-2051.2615 1266.3096 2529.8945 1024
-2035.1141 1265.5903 2528.4575 1024
-2011.4564 1260.1552 2517.5989 1024
-1992.1393 1257.3784 2512.0513 1024
-1988.8859 1264.7751 2526.8289 1024
-1970.2954 1262.4569 2522.1975 1024
-1957.6857 1263.9646 2525.2097 1024
-1952.6748 1270.4396 2538.1458 1024
-1931.5563 1266.4539 2530.1829 768
-1915.8162 1265.9597 2529.1956 768
-1896.6183 1263.1549 2523.592 768
-1867.4812 1253.6334 2504.5696 768
-1854.998 1255.2285 2507.7563 768
-1805.5604 1231.6416 2460.6331 768
-1787.1504 1229.0077 2455.3711 1024
-1770.592 1227.6146 2452.5879 1024
-1743.4617 1218.8079 2434.9934 1024
-1741.1693 1227.3625 2452.0842 1024
-1724.3424 1225.7297 2448.822 1024
-1716.9464 1230.8296 2459.011 1024
-1704.2889 1232.2128 2461.7744 1024
-1703.3156 1242.1405 2481.6084 1024
-1696.2858 1247.786 2492.8875 1280
-1666.5044 1236.6478 2470.6348 1024
-1663.0385 1245.0126 2487.3464 1024
-1655.2762 1250.2821 2497.874 1024
-1640.4896 1250.2931 2497.896 1024
-1626.9623 1251.2726 2499.853 1024
-1618.2325 1255.9938 2509.2852 1024
-1600.1262 1253.4575 2504.218 1024
-1584.5546 1252.8777 2503.0598 1024
-1571.5562 1254.3408 2505.9829 1024
-1554.6823 1252.7094 2502.7234 1024
-1541.2197 1253.8215 2504.9453 1280
-1524.1082 1251.9579 2501.2222 1280
-1509.623 1252.2363 2501.7783 1280
-1493.4489 1251.1052 2499.5186 1280
-1481.0475 1253.1438 2503.5913 1024
-1468.0839 1254.743 2506.7864 1024
-1453.9521 1255.3665 2508.0317 1024
-1439.0038 1255.2903 2507.8796 1024
-1424.5123 1255.6152 2508.5291 768
-1410.3562 1256.2458 2509.7888 768
-1395.7437 1256.479 2510.2546 768
-1381.1035 1256.692 2510.6802 768
-1367.8347 1258.171 2513.635 768
-1352.5089 1257.7699 2512.8335 768
-1338.4615 1258.5616 2514.4155 768
-1324.7134 1259.6559 2516.6016 768
-1309.8013 1259.6556 2516.6011 768
-1295.0432 1259.8054 2516.9001 768
-1281.8468 1261.4954 2520.2764 768
-1267.6477 1262.2268 2521.7378 768
-1254.9752 1264.5138 2526.3069 1024
-1241.8564 1266.4011 2530.0774 1024
-1228.6989 1268.2942 2533.8596 1024
-1214.2715 1268.9073 2535.0845 1024
-1199.822 1269.5125 2536.2935 1024
-1184.75 1269.4659 2536.2004 768
-1171.7587 1271.6764 2540.6167 1024
-1156.9261 1271.9199 2541.1033 768
-1141.3457 1271.3369 2539.9385 768
-1129.1198 1274.5249 2546.3076 1024
-1114.4354 1274.9866 2547.23 768
-1099.6045 1275.291 2547.8381 512
-1084.123 1274.8389 2546.9348 1024
-1067.4287 1272.9275 2543.1162 1280
-1052.8358 1273.5034 2544.2668 1280
-1039.0964 1275.1436 2547.5435 1280
-1025.6903 1277.2468 2551.7456 1280
-1011.9308 1278.9664 2555.1812 1024
-997.45264 1279.8163 2556.8789 1024
-982.42786 1279.9801 2557.2063 1024
-966.05444 1278.3644 2553.9783 1024
-951.17853 1278.7104 2554.6697 1024
-935.95831 1278.5974 2554.4438 1024
-917.73535 1274.3113 2545.8809 1024
-902.3255 1273.8531 2544.9656 1024
-887.53906 1274.2745 2545.8074 768
-872.38049 1274.167 2545.5925 1024
-859.11194 1276.8647 2550.9822 1024
-845.93237 1279.7937 2556.8337 1024
-831.26947 1280.5444 2558.3337 1024
-816.23871 1280.7458 2558.7361 1024
-801.46057 1281.3589 2559.9609 1024
-785.75372 1280.4821 2558.209 768
-770.58276 1280.4612 2558.1675 1024
-754.9447 1279.6478 2556.5422 768
-738.23566 1276.9486 2551.1497 768
-724.19409 1278.847 2554.9424 768
-708.53094 1277.9017 2553.054 512
-692.23035 1275.7404 2548.7358 256
-672.45508 1266.9363 2531.1467 131840
-663.10883 1277.8275 2552.9055 657152
-647.36176 1276.6047 2550.4626 788480
-633.5755 1279.2826 2555.8127 787456
-619.83081 1282.1776 2561.5964 722176
-603.53766 1279.814 2556.8743 918784
-588.0509 1279.0825 2555.4131 1313540
-575.979 1285.9366 2569.1064 1379333
-561.67883 1288.053 2573.3345 1313796
-544.81116 1284.2351 2565.707 1181441
-530.05914 1285.3282 2567.8909 918272
-514.53461 1284.5574 2566.3508 786432
-498.34705 1282.0339 2561.3096 983808
-482.23584 1279.5547 2556.3562 983552
-466.61987 1278.271 2553.7917 918016
-450.87015 1276.5228 2550.2991 983296
-436.25287 1277.9708 2553.1919 655360
-420.99609 1277.5819 2552.415 786432
-405.37445 1276.016 2549.2864 983552
-390.71158 1277.4631 2552.1777 1049088
-375.34482 1276.6331 2550.5193 1114880
-360.3363 1277.0028 2551.2581 1180416
-345.65945 1278.6317 2554.5125 1180416
-329.98044 1276.5332 2550.3198 1114624
-314.6329 1275.5769 2548.4092 917760
-297.42154 1266.587 2530.4487 1114624
-283.57361 1271.7264 2540.7166 1114624
-268.48557 1271.5687 2540.4016 983296
-253.46069 1271.7094 2540.6826 1114624
-238.67177 1273.1263 2543.5134 1048832
-223.04799 1269.981 2537.2295 1509380
-207.50198 1266.8556 2530.9854 1443330
-194.11467 1277.4495 2552.1504 983296
-178.67328 1275.1737 2547.6038 720896
-163.50233 1274.5862 2546.4299 720896
-148.17963 1272.5757 2542.4133 851968
-133.36552 1274.9728 2547.2021 917504
-118.06214 1272.7068 2542.6753 1245696
-102.77928 1270.0317 2537.3308 786432
-87.731735 1269.8458 2536.9595 983040
-72.828362 1272.1014 2541.4658 983040
-57.722492 1271.0739 2539.4128 983040
-42.703201 1271.9003 2541.064 786432
-27.594915 1269.5328 2536.3342 851968
-12.564869 1269.4067 2536.0823 851968
2.4628866 1269.6388 2536.5459 851968
17.49102 1269.4995 2536.2676 851968
32.546192 1270.5444 2538.3552 1048576
47.610779 1271.1803 2539.6255 1048576
62.5672 1269.3164 2535.9016 1114112
77.770935 1272.22 2541.7026 1245440
92.646225 1269.6803 2536.6287 1245440
107.49534 1267.5409 2532.3545 1245440
122.63274 1268.9087 2535.0872 917504
137.50125 1267.4993 2532.2712 1114112
152.45419 1267.0688 2531.4114 1179648
167.52902 1267.6377 2532.5481 917504
182.17848 1265.1593 2527.5964 1114112
197.14209 1265.0731 2527.4243 1114112
212.18007 1265.4427 2528.1628 1179648
226.99918 1264.5444 2526.3679 1311232
241.9037 1264.2035 2525.687 1114112
256.94839 1264.5923 2526.4636 851968
271.46097 1262.4634 2522.2104 983040
286.78955 1264.1538 2525.5876 983040
301.79065 1264.3046 2525.8889 917504
316.44147 1263.0428 2523.3682 1245184
331.90012 1264.974 2527.2263 1376768
347.01889 1265.4989 2528.2749 1310976
361.72922 1264.5525 2526.3843 1245184
376.85629 1265.0803 2527.4387 1179648
391.15607 1262.8969 2523.0764 1245184
406.12531 1262.9561 2523.1946 1048576
420.95117 1262.5808 2522.4451 1114112
437.02438 1265.8444 2528.9651 720896
451.34149 1263.9735 2525.2275 2890261
463.50769 1256.3925 2510.0815 983296
479.3067 1258.8239 2514.9392 1114624
495.09753 1261.0878 2519.4622 786432
510.95645 1263.3875 2524.0566 983553
524.95496 1261.0872 2519.4609 720896
540.74902 1263.1083 2523.4988 1180674
557.09558 1266.2766 2529.8286 1312002
570.62451 1263.0419 2523.3662 1245440
584.60242 1260.941 2519.1689 1114112
598.80518 1259.4175 2516.1252 1048576
614.22467 1260.4651 2518.218 1245184
628.54047 1259.2516 2515.7937 1245184
643.84235 1260.0243 2517.3374 1179648
656.77106 1256.2227 2509.7424 1114112
672.62866 1258.0675 2513.4282 1179648
688.66406 1260.1578 2517.6042 1508352
702.83325 1258.817 2514.9255 1311232
714.80676 1253.6808 2504.6643 1245184
731.33105 1256.5729 2510.4421 1310976
745.03308 1254.597 2506.4946 1376768
760.15912 1255.0494 2507.3987 1442560
774.31885 1253.9198 2505.1416 1573888
789.60797 1254.6272 2506.5549 1573632
804.17169 1254.177 2505.6555 1507840
817.33508 1251.5988 2500.5046 1507840
827.52289 1244.637 2486.5959 1245440
847.96875 1253.0775 2503.459 1310720
860.95038 1250.3873 2498.0842 1114112
873.50842 1247.1832 2491.6831 1114112
888.59125 1247.6305 2492.5767 1573889
908.52368 1254.761 2506.8223 1179648
922.81738 1253.9998 2505.3015 983040
938.13837 1254.6364 2506.5732 1507840
950.12219 1250.8599 2499.0283 1376256
967.12842 1253.7097 2504.7219 1376512
981.5083 1253.1204 2503.5447 1441792
997.2464 1254.2568 2505.8149 1310720
1008.9361 1250.343 2497.9956 1376512
1021.7963 1247.9719 2493.2585 1441792
1035.6234 1246.8322 2490.9817 1245184
1051.1168 1247.7028 2492.7209 1442048
1059.2776 1239.9657 2477.2634 1836802
1076.2395 1242.6018 2482.53 1639424
1094.2936 1246.4108 2490.1399 1573888
1106.6233 1243.6851 2484.6941 1310720
1110.9799 1232.1879 2461.7244 1376256
1131.9506 1239.1765 2475.6868 1507328
1142.5985 1234.8303 2467.0039 1638656
1162.8295 1240.8198 2478.97 1835776
1173.4823 1236.5669 2470.4731 2033153
1189.1676 1237.6564 2472.6497 2164739
1207.5046 1241.4454 2480.2197 2032640
1221.6055 1240.8407 2479.0115 2163713
1235.1077 1239.6493 2476.6313 2163969
1247.3038 1237.1904 2471.719 2098177
1260.0487 1235.3268 2467.9956 1966592
1283.2538 1243.6431 2484.6104 2163712
1302.0375 1247.5345 2492.3848 2361089
1310.9825 1242.0176 2481.3628 2295297
1325.4877 1241.832 2480.9922 2360833
1340.4475 1242.0719 2481.4714 1835008
1355.0328 1241.9634 2481.2546 2558467
1377.6031 1249.0974 2495.5073 2295296
1399.0815 1255.1003 2507.5002 2558468
1412.8696 1254.1506 2505.6028 2953226
1421.5417 1248.7267 2494.7666 2360834
1449.7159 1260.3693 2518.0269 2360833
1457.3625 1254.11 2505.5217 2032384
1474.1622 1255.774 2508.8462 1769472
1486.2467 1253.4285 2504.1599 2294784
1483.5835 1238.8145 2474.9634 3148290
1500.7029 1240.8438 2479.0176 4397062
1509.6105 1236.1096 2469.5596 5580047
1525.795 1237.3678 2472.0732 8604716
1565.8979 1257.8145 2512.9226 9394226
1568.8345 1248.3032 2493.9207 9197104
1584.4821 1248.989 2495.2908 9526071
1600.3849 1249.8616 2497.0339 8473126
1610.7632 1246.4431 2490.2043 9262898
1637.9587 1255.9822 2509.262 8604969
1645.0116 1250.0432 2497.3967 8736301
1669.5654 1257.3904 2512.0754 8539434
1678.3589 1252.8433 2502.991 7815198
1691.4471 1251.5536 2500.4143 7683612
1698.7493 1246.0421 2489.4033 8341795
1717.4794 1248.9359 2495.1846 9591607
1727.9336 1245.8136 2488.9465 7815711
1716.4299 1227.0468 2451.4534 6499340
1745.3438 1237.2461 2471.8301 8868394
1755.4404 1234.0476 2465.4399 8604968
1791.1118 1248.7321 2494.7773 8735785
1790.1821 1237.8676 2473.0715 9130799
1809.8204 1241.2859 2479.9011 9262386
1833.8594 1247.6434 2492.6025 8604712
1842.4764 1243.4911 2484.3066 9131056
1857.0835 1243.415 2484.1548 9459508
1869.8121 1242.0925 2481.5125 9130800
1887.0648 1243.7723 2484.8687 9196593
1900.5154 1242.9396 2483.2048 8933421
1915.2548 1242.9562 2483.238 9788730
1937.0923 1247.5438 2492.4033 9130799
1964.8789 1255.8644 2509.0266 9393715
1984.6376 1258.9674 2515.2261 8669992
2008.3302 1264.5012 2526.2817 8801578
2018.9373 1261.775 2520.8352 9328178
2037.0894 1263.7695 2524.8201 8801578
2062.0386 1269.9213 2537.1101 7617560
2054.1599 1255.9127 2509.1233 8933164
2057.7178 1249.0476 2495.4077 9393972
2071.6772 1248.5493 2494.4124 8736042
2068.46 1237.7793 2472.8955 8933164
2081.4072 1236.7659 2470.8708 8933420
2093.2908 1235.1389 2467.6204 8998957
2110.8369 1236.8525 2471.0439 9130800
2131.2729 1240.2244 2477.7803 9262128
2152.9155 1244.2471 2485.8171 9722678
2153.7612 1236.2777 2469.8955 9459506
2163.4648 1233.4662 2464.2783 9985851
2189.0957 1239.7119 2476.7566 9921086
2206.1001 1241.022 2479.3738 8606256
2219.2671 1240.17 2477.6719 7028255
2205.8945 1224.5961 2446.5574 7094560
2220.1194 1224.4462 2446.2578 1640960
2230.978 1222.4536 2442.2769 1446664
2267.2947 1234.3464 2466.0371 12828834
2242.7317 1213.1554 2423.7007 13421740
2164.8035 1163.5511 2324.5986 13552813
2181.7874 1165.2653 2328.0234 13422254
2210.707 1173.2927 2344.061 13356721
2104.8 1110.1099 2217.8313 13356721
2321.126 1216.6082 2430.5986 13422262
0 0 0 0
0 0 0 0
0 0 0 0
0 0 0 0
0 0 0 0
0 0 0 0
0 0 0 0
0 0 0 0
0 0 0 0
-2211.3574 1269.9343 2507.4529 768
-2195.8711 1269.5708 2506.7351 768
-2184.6482 1271.6841 2510.9077 768
-2195.5408 1286.7881 2540.7302 768
-2178.7029 1285.7358 2538.6526 768
-2162.4004 1284.9873 2537.1746 768
-2146.3228 1284.3627 2535.9412 768
-2130.6667 1283.9833 2535.1921 768
-2113.635 1282.7634 2532.7837 768
-2097.5356 1282.0963 2531.4663 768
-2084.6584 1283.4031 2534.0466 1024
-2069.2307 1283.1473 2533.5415 1024
-2021.6215 1262.7859 2493.3386 1024
-2008.1367 1263.5973 2494.9404 1024
-1990.1229 1261.5494 2490.8972 768
-1975.6409 1261.7268 2491.2473 768
-1958.9294 1260.4722 2488.77 1024
-1943.2806 1259.8875 2487.6155 1024
-1928.3472 1259.7611 2487.3662 1024
-1915.8638 1261.2458 2490.2976 768
-1903.9025 1263.0999 2493.9585 768
-1886.1082 1261.0829 2489.9761 768
-1871.6494 1261.2819 2490.3689 768
-1816.0042 1233.5085 2435.531 768
-1795.8531 1229.5924 2427.7988 768
-1773.2974 1223.9532 2416.6646 768
-1763.587 1227.1608 2422.9976 1024
-1744.5421 1223.8721 2416.5042 1024
-1729.2441 1223.1796 2415.1367 1024
-1714.7441 1223.0443 2414.8699 1024
-1710.839 1230.5275 2429.645 768
-1715.8839 1244.6296 2457.4893 1024
-1703.558 1246.2651 2460.7185 1024
-1694.5088 1250.3467 2468.7776 1024
-1680.1908 1250.5778 2469.2339 1024
-1663.6648 1249.1552 2466.4248 1024
-1648.2614 1248.5576 2465.2451 1024
-1635.0659 1249.6367 2467.3757 1024
-1619.6676 1249.0367 2466.1912 1024
-1603.1271 1247.5369 2463.2297 1024
-1590.6583 1249.2073 2466.5278 1024
-1577.1891 1250.1155 2468.321 1024
-1563.5853 1250.9331 2469.9355 768
-1548.6129 1250.661 2469.3982 768
-1534.2964 1250.9183 2469.9062 768
-1521.6791 1252.5792 2473.1858 1280
-1505.4884 1251.3026 2470.665 1280
-1491.1738 1251.5754 2471.2039 1024
-1476.9214 1251.9065 2471.8574 1024
-1461.0059 1250.8202 2469.7124 1024
-1448.74 1252.8682 2473.7563 768
-1434.4574 1253.1962 2474.4038 768
-1420.1317 1253.4929 2474.9897 768
-1404.2897 1252.4435 2472.9175 768
-1392.1034 1254.6666 2477.3071 768
-1376.6078 1253.9229 2475.8386 768
-1363.1252 1255.0164 2477.9978 768
-1349.4536 1255.9579 2479.8567 768
-1336.5758 1257.667 2483.2312 768
-1324.5243 1260.2002 2488.2332 768
-1311.3835 1261.7426 2491.2786 768
-1297.1222 1262.2295 2492.24 768
-1282.9875 1262.8527 2493.4702 768
-1268.686 1263.3239 2494.4006 768
-1254.2617 1263.6825 2495.1089 1024
-1239.9264 1264.1405 2496.0132 1024
-1225.3599 1264.3708 2496.468 1024
-1210.4548 1264.2535 2496.2363 1024
-1196.2001 1264.8208 2497.3562 1024
-1181.8854 1265.3379 2498.3774 768
-1168.3301 1266.6918 2501.0505 768
-1154.4772 1267.7534 2503.1467 768
-1141.1123 1269.3857 2506.3696 768
-1126.0328 1269.1283 2505.8616 768
-1112.9175 1271.1077 2509.7695 768
-1101.0355 1274.5681 2516.6023 768
-1085.5061 1273.8435 2515.1714 768
-1071.2296 1274.5895 2516.6443 1024
-1054.0873 1271.8983 2511.3308 1280
-1040.9816 1274.0707 2515.6201 1280
-1026.8944 1275.0874 2517.6277 1280
-1014.5379 1278.3149 2524.0002 1024
-999.55731 1278.2831 2523.9373 1024
-984.0296 1277.54 2522.4702 1024
-969.11145 1277.5776 2522.5444 1024
-954.33154 1277.8015 2522.9863 1024
-940.23163 1278.9573 2525.2686 1024
-924.6131 1278.0516 2523.4802 1024
-909.73737 1278.1597 2523.6936 1024
-895.62451 1279.3611 2526.0657 1024
-882.2832 1281.7241 2530.7317 768
-866.34601 1280.3326 2527.9841 1024
-853.07666 1282.9041 2533.0613 1024
-837.85651 1282.5815 2532.4246 1024
-822.30939 1281.7374 2530.7578 1024
-806.74341 1280.8322 2528.9705 1024
-791.08276 1279.7395 2526.813 768
-776.04926 1279.6387 2526.6138 768
-760.65674 1278.9303 2525.2153 768
-745.51617 1278.6256 2524.6135 768
-730.09399 1277.8156 2523.0142 768
-715.45807 1278.3765 2524.1218 768
-699.55475 1276.6486 2520.71 512
-682.82458 1273.3032 2514.1047 256
-668.15698 1273.7407 2514.9685 131328
-650.75201 1268.8607 2505.333 591104
-636.22345 1269.4923 2506.5801 853760
-624.46472 1275.813 2519.0601 524544
-609.79077 1276.3416 2520.1038 853504
-595.75775 1278.2717 2523.9148 1116161
-580.3183 1277.2061 2521.8108 1181953
-567.40607 1281.7931 2530.8677 1379333
-552.17151 1281.2404 2529.7764 1247747
-537.07062 1280.9757 2529.2539 1182210
-522.69464 1282.4745 2532.2131 1115649
-503.67807 1272.3395 2512.2017 852480
-491.17566 1278.5435 2524.4514 1443842
-474.98618 1275.238 2517.925 1312512
-460.8674 1277.4584 2522.3088 918016
-445.13394 1275.2015 2517.8528 917504
-430.4906 1276.0195 2519.468 589824
-415.05179 1274.4537 2516.3762 655360
-400.38776 1275.2388 2517.9263 852224
-385.82422 1276.417 2520.2529 1115136
-369.49677 1271.6199 2510.781 983296
-355.63873 1275.2751 2517.9983 1312001
-339.86176 1272.0681 2511.666 1114624
-325.65457 1274.7122 2516.8865 1114624
-310.37384 1273.2058 2513.9124 983296
-293.26038 1263.6505 2495.0457 1048832
-280.1102 1271.0652 2509.6858 917504
-264.85205 1269.2094 2506.0215 1114368
-250.13637 1269.8871 2507.3596 1114112
-235.34973 1270.2675 2508.1106 917504
-220.31653 1269.2786 2506.1582 983040
-206.43129 1275.2384 2517.9258 1048832
-191.49225 1275.1097 2517.6716 851968
-176.20999 1272.481 2512.4812 786432
-161.16483 1271.2369 2510.0249 851968
-146.58972 1273.8248 2515.1345 851968
-131.52701 1272.2816 2512.0874 851968
-116.63676 1272.2257 2511.9773 917504
-101.48468 1268.8799 2505.3708 1048576
-86.635086 1268.8174 2505.2476 1179648
-71.764595 1268.3597 2504.344 1114112
-56.896736 1267.7222 2503.085 1179648
-42.07391 1267.9921 2503.6179 1114112
-27.2306 1267.6024 2502.8486 983040
-12.421004 1269.7275 2507.0447 851968
2.4343624 1269.7903 2507.1685 851968
17.269451 1268.256 2504.1392 851968
32.139896 1269.5365 2506.6672 851968
46.911938 1267.349 2502.3484 917504
61.69075 1266.3513 2500.3782 983040
76.476685 1265.8579 2499.4041 1179904
91.180443 1264.385 2496.4958 1179648
106.01331 1264.8638 2497.4412 983040
121.13779 1268.2783 2504.1831 851968
135.35089 1262.447 2492.6694 1114112
150.0571 1261.91 2491.6091 1114112
164.84496 1262.0942 2491.9729 1048576
179.66022 1262.4409 2492.6572 1114112
194.19983 1260.9449 2489.7036 1310976
209.2868 1262.9635 2493.6892 1179648
223.77362 1261.3329 2490.4695 1114112
238.27351 1259.973 2487.7847 1245184
253.14459 1260.6202 2489.0625 1048576
268.18073 1261.9729 2491.7332 1310720
282.48566 1259.9231 2487.6858 983040
297.06528 1259.241 2486.3391 1114112
312.03204 1260.1868 2488.2065 851968
326.08417 1257.5201 2482.9414 1245440
341.00171 1258.2769 2484.4355 1114112
355.67932 1258.1226 2484.1309 917504
370.59744 1258.7972 2485.4629 1048576
385.66595 1259.9117 2487.6636 983040
401.00208 1261.7861 2491.3645 983040
415.74362 1261.723 2491.24 917504
430.41928 1261.4712 2490.7427 983040
445.43546 1262.2008 2492.1833 983040
459.38583 1259.9607 2487.7603 983040
474.10526 1259.9036 2487.6472 983040
488.69461 1259.5144 2486.8789 851968
503.16608 1258.853 2485.5732 786432
519 1261.5411 2490.8809 917504
531.9267 1257.2096 2482.3281 786432
547.67285 1259.5953 2487.0388 1114368
562.51483 1259.8311 2487.5042 1310976
577.76343 1260.9424 2489.6985 1442560
592.57471 1261.0674 2489.9453 1442560
605.99701 1258.3025 2484.4861 1310976
620.59998 1258.062 2484.0112 1179648
634.57776 1256.5947 2481.1143 1245184
649.0694 1256.1882 2480.3118 1574145
665.94287 1260.3076 2488.4453 983040
679.16705 1257.4917 2482.8853 1310976
689.74451 1249.9988 2468.0906 1442560
707.638 1255.8 2479.5452 1376768
722.1814 1255.5413 2479.0342 1245184
734.47229 1251.4547 2470.9653 1310976
748.17413 1249.885 2467.866 1310976
764.08899 1252.0016 2472.0452 1442560
777.33362 1249.7455 2467.5906 1376768
792.71649 1250.947 2469.9631 1508096
807.39374 1251.0118 2470.0908 1310976
816.61432 1242.7699 2453.8174 1705729
832.69983 1245.0811 2458.3806 1442304
850.75928 1250.2133 2468.5142 917504
866.01642 1251.1238 2470.312 1048576
879.45892 1249.426 2466.9597 1048576
899.31909 1256.7521 2481.4248 1245184
910.44177 1251.8286 2471.7036 1376256
924.01361 1250.3752 2468.834 1114112
939.90601 1252.0585 2472.1575 1639168
952.96796 1249.9774 2468.0486 1507840
