# .PCD v0.7 - Point Cloud Data file format
VERSION 0.7
FIELDS x y z rgb
SIZE 4 4 4 4
TYPE F F F U
COUNT 1 1 1 1
WIDTH 1294
HEIGHT 1
VIEWPOINT 0 0 0 1 0 0 0
POINTS 1294
DATA ascii
-23.989876 1218.618 4842.0957 2230530
4.734489 1227.1727 4876.0869 2164738
33.549622 1224.3392 4864.8286 2230273
62.168602 1220.2745 4848.6777 2230530
89.910942 1207.0107 4795.9751 2230016
119.00996 1213.9568 4823.5742 2230016
147.04999 1209.5021 4805.874 2361602
174.18869 1200.2821 4769.2393 2493188
204.74152 1213.8779 4823.2612 2361344
232.47443 1209.472 4805.7549 2295552
261.95105 1214.1097 4824.1826 2426881
293.13425 1224.9663 4867.3203 2689795
323.21222 1229.6731 4886.022 2821381
352.63492 1231.318 4892.5581 2755587
379.76166 1225.3049 4868.6655 2887172
409.61496 1228.3171 4880.6343 2886658
438.50531 1228.2349 4880.3076 3083524
470.29288 1235.7758 4910.2705 3017988
498.96243 1234.722 4906.084 3017988
534.09961 1248.908 4962.4507 3017731
562.78693 1247.3184 4956.1348 3083266
586.61261 1235.646 4909.7554 3280646
616.36237 1236.9655 4914.998 3215109
645.31079 1236.6304 4913.6665 3280646
682.99969 1252.3507 4976.1299 3346436
707.67767 1243.9001 4942.5527 3346949
738.3432 1246.2277 4951.8008 3609865
772.48206 1254.0156 4982.7456 3675144
808.11176 1263.5613 5020.6743 3806214
839.30249 1265.7349 5029.311 3936771
861.73145 1254.9989 4986.6523 4922376
854.01129 1202.5221 4778.1396 4987913
927.78284 1264.4785 5024.3193 9394737
972.6817 1284.4552 5103.6953 10315580
999.19055 1279.6748 5084.7007 10117688
1021.4918 1269.9434 5046.0332 11433032
1062.3864 1283.2236 5098.8013 10445623
1086.5526 1276.1226 5070.5859 10445879
1111.293 1270.0597 5046.4956 10511416
1149.6832 1279.5059 5084.0293 10708538
1175.7422 1275.0963 5066.5083 10840381
1187.8383 1256.1406 4991.189 10510901
1228.5259 1267.6069 5036.75 10642487
1263.3329 1272.6056 5056.6118 10840124
1281.9392 1261.4313 5012.2109 10708537
1295.8639 1246.2603 4951.9302 10445365
1333.0183 1253.6072 4981.1226 10445366
1363.2343 1254.252 4983.6846 10181937
1403.7335 1264.1301 5022.9346 10445364
1433.0128 1263.7035 5021.2397 10445108
1454.1316 1256.2444 4991.6016 10247986
1476.0719 1249.7783 4965.9087 11103038
1520.019 1261.8339 5013.8105 10839866
1531.5394 1247.0243 4954.9658 10181936
1546.8556 1235.8042 4910.3838 10313522
1605.2102 1258.7478 5001.5483 10445108
1630.8535 1255.6735 4989.333 10379315
1678.821 1269.5911 5044.6338 10511157
1699.5072 1262.7515 5017.4565 10511158
1732.6874 1265.2705 5027.4663 10576695
1754.6058 1259.6199 5005.0137 10576951
1774.7816 1252.9266 4978.4185 10642487
1797.6407 1248.3157 4960.0972 10511157
1823.9855 1246.2345 4951.8281 10313522
1865.775 1254.6051 4985.0879 10971708
1905.5861 1261.4048 5012.106 10379315
1883.3263 1227.5388 4877.5415 10313778
1945.8582 1249.1274 4963.3228 10379571
1979.8226 1252.0078 4974.7676 10313523
1982.4834 1235.2982 4908.373 10116144
2004.1447 1230.7397 4890.2607 10313523
2046.2484 1238.6862 4921.835 10181937
2066.5276 1233.3834 4900.7651 10181937
2120.9255 1248.3088 4960.0703 10247986
2157.085 1252.2384 4975.6841 10247986
2168.4956 1241.8887 4934.5601 10116400
2179.5618 1231.6194 4893.7559 10379315
2224.9319 1240.7498 4930.0347 10051376
2225.219 1224.8284 4866.772 10182962
2191.6199 1190.901 4731.9639 9459240
2279.606 1223.0642 4859.7622 10051121
2305.9995 1221.7913 4854.7041 10643259
2338.9102 1223.9601 4863.3218 10379830
2377.54 1229.0326 4883.4775 10182708
2425.8474 1238.9257 4922.7866 10445623
2479.6777 1251.3708 4972.2368 10511672
2512.282 1252.9376 4978.4624 10314037
2546.2725 1255.1515 4987.2588 10248500
2493.439 1215.0067 4827.7466 10050865
2557.4541 1232.0652 4895.5269 10314293
2591.6873 1234.5542 4905.417 10445625
2640.3281 1243.775 4942.0552 10445882
2633.7629 1227.073 4875.6909 10511675
2655.0103 1223.5507 4861.6953 10445881
2698.313 1230.1591 4887.9531 10511674
2726.3367 1229.7354 4886.2695 10380088
2786.1895 1243.5265 4941.0674 10248502
2778.7358 1227.3031 4876.605 10445881
2822.7498 1233.9116 4902.8638 10314295
2806.5303 1214.324 4825.0332 10051124
2904.2439 1243.9304 4942.6729 10314295
2926.2527 1240.844 4930.4092 10116917
2984.5676 1253.0616 4978.9551 9919794
2971.0833 1235.1906 4907.9453 9919796
2980.6892 1227.1724 4876.0854 10314552
3025.9424 1233.8433 4902.5923 10249016
3062.6848 1236.9502 4914.937 10577724
3092.8191 1237.3547 4916.5449 10314808
3076.6802 1219.4119 4845.25 9985587
3141.4121 1233.5568 4901.4536 10051637
3175.6797 1235.5896 4909.5312 10182966
3206.5767 1236.286 4912.2979 10183223
3251.1257 1242.1858 4935.7407 10512188
3279.4839 1241.8495 4934.4043 10446394
3315.0029 1244.2068 4943.771 9985587
3385.3862 1259.4938 5004.5127 9919794
3418.6438 1260.8228 5009.7935 9854001
3453.5188 1262.7203 5017.3335 9788464
3487.6909 1264.3309 5023.7329 10116917
3488.5039 1253.9233 4982.3789 10051637
3541.3943 1262.2522 5015.4731 9985587
3585.3157 1267.2723 5035.4204 9656878
3585.1121 1256.7417 4993.5776 9919795
3632.0437 1262.7714 5017.5361 9787954
3635.012 1253.5422 4980.8647 9064231
3671.6877 1255.9923 4990.5996 9590575
3689.2246 1251.9084 4974.373 9656112
3741.9448 1259.7339 5005.4668 9656624
3748.0225 1251.8574 4974.1704 9853747
3796.3896 1258.1187 4999.0488 9920310
3776.3987 1241.8047 4934.2261 9854517
3828.2478 1249.183 4963.5435 9723188
3836.0906 1242.1987 4935.792 9854774
3861.8608 1241.0815 4931.353 9723188
3879.1516 1237.2766 4916.2344 9722934
3912.2031 1238.5179 4921.1665 9854776
3969.9053 1247.4869 4956.8042 9788983
3952.7375 1232.9702 4899.123 9789240
3984.74 1233.8907 4902.7808 9328947
3949.0847 1213.9993 4823.7432 9065775
4026.8201 1229.0009 4883.3511 8539950
4043.0222 1225.1422 4868.019 8015153
4130.4126 1242.7573 4938.0117 5517083
4137.187 1236.0396 4911.3188 1376768
4192.6191 1243.8513 4942.3584 4469537
4266.8022 1257.0789 4994.917 4404773
4290.9546 1255.4858 4988.5874 2628881
4345.9448 1262.8759 5017.9512 1643787
4328.2129 1249.1766 4963.5186 196608
4310.2397 1235.5934 4909.5459 196608
4250.8892 1210.4103 4809.4829 327680
4131.9482 1168.7075 4643.7798 196608
4137.7197 1162.5979 4619.5034 131072
4157.8345 1160.5719 4611.4536 196864
4081.3315 1131.7799 4497.0503 512
4025.3359 1109.0114 4406.5811 66048
4068.634 1113.7161 4425.2749 66048
4055.915 1103.1251 4383.1924 658176
4043.0459 1092.6282 4341.4839 66048
4003.127 1075.0001 4271.4399 66304
4010.1038 1070.108 4252.001 66048
3951.0051 1047.7544 4163.1807 768
3949.7295 1040.917 4136.0127 66048
0 0 0 0
0 0 0 0
0 0 0 0
0 0 0 0
0 0 0 0
-4121.5015 1172.337 4551.0503 1536
-4080.583 1168.3424 4535.543 1536
-4057.0769 1169.3132 4539.312 1536
-4029.7859 1169.1991 4538.8687 1536
-4001.3811 1168.7578 4537.1562 1536
-3972.1882 1168.0791 4534.521 1536
-3951.5051 1169.9105 4541.6309 1536
-3926.5596 1170.4965 4543.9053 1536
-3904.7708 1172.0378 4549.8892 1536
-3892.4941 1176.4757 4567.1172 1536
-3858.9067 1174.4896 4559.4072 1536
-3835.9966 1175.7483 4564.293 1536
-3800.0205 1172.9916 4553.5913 1536
-3782.2891 1175.8673 4564.7554 1536
-3742.3628 1171.8348 4549.1011 1536
-3696.1799 1165.7705 4525.5591 1536
-3709.3896 1178.4867 4574.9238 1536
-3661.9333 1171.9745 4549.6431 1536
-3650.1697 1176.8734 4568.6611 1536
-3568.2483 1159.0568 4499.4961 1536
-3603.873 1179.441 4578.6289 1536
-3563.9934 1175.2371 4562.3086 1536
-3493.6316 1160.8402 4506.4194 1536
-3451.1516 1155.5573 4485.9111 1536
-3289.9729 1110.1398 4309.5986 1536
-3220.1663 1095.0847 4251.1543 1536
-3179.0127 1089.6132 4229.9136 1536
-3191.4006 1102.5516 4280.1416 1536
-3224.4995 1122.9102 4359.1738 1536
-3237.8701 1136.6718 4412.5967 1536
-3245.2852 1148.5497 4458.707 1536
-3213.1975 1146.5272 4450.856 1536
-3187.5239 1146.7788 4451.8325 1536
-3170.9382 1150.3315 4465.6245 1536
-3130.7278 1145.3015 4446.0977 1536
-3114.5347 1149.0469 4460.6372 1536
-3091.1252 1150.1711 4465.002 1536
-3057.5425 1147.4968 4454.6201 1536
-3027.1865 1145.9974 4448.7993 1536
-3000.2314 1145.7705 4447.9185 1536
-2971.9539 1145.03 4445.0439 1536
-2943.4592 1144.192 4441.7905 1536
-2935.3926 1151.3513 4469.583 1536
-2902.7783 1148.9249 4460.1641 1536
-2874.155 1148.0481 4456.7603 1536
-2843.6919 1146.4133 4450.4141 1536
-2816.5518 1146.1003 4449.1987 1536
-2795.6633 1148.3491 4457.9287 1536
-2775.7888 1151.0613 4468.4575 1280
-2757.0056 1154.2827 4480.9629 1536
-2735.0664 1156.2325 4488.5322 1536
-2699.8044 1152.5332 4474.1714 1536
-2669.02 1150.6909 4467.0195 1536
-2645.4353 1151.9468 4471.895 1536
-2617.6409 1151.3766 4469.6812 1536
-2588.8418 1150.348 4465.6885 1536
-2583.8564 1159.9893 4503.1162 1536
-2564.5691 1163.344 4516.1392 1536
-2531.3679 1160.3914 4504.6768 1536
-2504.5571 1160.3362 4504.4629 1536
-2478.9543 1160.8457 4506.4409 1536
-2452.9382 1161.1705 4507.7021 1536
-2426.5989 1161.348 4508.3911 1536
-2401.4639 1162.1122 4511.3574 1536
-2374.0464 1161.7765 4510.0542 1536
-2350.9993 1163.5962 4517.1182 1536
-2322.4109 1162.6838 4513.5762 1536
-2295.5679 1162.6339 4513.3828 1536
-2266.6245 1161.5068 4509.0073 1536
-2228.0789 1155.3733 4485.1968 1536
-2206.9055 1158.2092 4496.2056 1536
-2197.3772 1167.3002 4531.4971 1536
-2168.7109 1166.324 4527.7075 1536
-2140.6499 1165.6527 4525.1016 1536
-2113.988 1165.736 4525.4253 1280
-2094.0474 1169.5756 4540.3306 1280
-2065.9851 1168.9198 4537.7847 1280
-2045.399 1172.5325 4551.8091 1280
-2021.2524 1174.1733 4558.1792 1536
-1992.1018 1172.9125 4553.2847 1024
-1963.8262 1172.1393 4550.2827 1280
-1931.3876 1168.8251 4537.417 1280
-1905.3733 1169.36 4539.4937 1280
-1883.6332 1172.571 4551.959 1280
-1855.5411 1171.8638 4549.2134 1280
-1829.1683 1172.2374 4550.6641 1280
-1802.2415 1172.262 4550.7593 1536
-1776.2271 1172.8898 4553.1963 1280
-1748.8739 1172.6392 4552.2236 1280
-1726.9327 1176.0665 4565.5283 1280
-1704.9283 1179.5591 4579.0869 1536
-1686.1021 1185.399 4601.7573 1536
-1659.8213 1186.1039 4604.4941 1536
-1635.5542 1188.2954 4613.0015 1536
-1605.8242 1186.5251 4606.1289 1536
-1593.0242 1197.4189 4648.4194 1536
-1570.6613 1201.3816 4663.8027 1536
-1545.7942 1203.5367 4672.1689 1280
-1506.7542 1194.5342 4637.2207 1024
-1494.0037 1206.4263 4683.3862 768
-1466.9823 1207.0266 4685.7168 263680
-1438.524 1206.4451 4683.459 1051649
-1424.4261 1218.1211 4728.7856 1642758
-1394.5763 1216.5248 4722.5889 1641475
-1374.3008 1223.3861 4749.2246 1574656
-1344.468 1221.8486 4743.2563 1574656
-1316.9406 1222.3854 4745.3398 1443072
-1289.6476 1223.168 4748.3779 1640448
-1274.7129 1235.9681 4798.0684 1771521
-1241.2113 1230.939 4778.5449 1968643
-1209.8003 1227.7968 4766.3467 1837314
-1185.9298 1232.3397 4783.9829 1968900
-1148.5551 1222.729 4746.6738 1902850
-1111.8943 1213.4148 4710.5161 1705472
-1082.1039 1211.3119 4702.3521 1836801
-1046.9969 1202.9891 4670.043 1837057
-1029.6141 1215.132 4717.1821 1902337
-1000.0297 1213.1506 4709.4902 2033409
-975.5163 1217.384 4725.9243 2099202
-950.3996 1221.0924 4740.3203 1902850
-922.66113 1221.5555 4742.1182 1771265
-898.55225 1227.0042 4763.27 1771264
-870.3653 1227.0566 4763.4741 1705472
-843.49194 1229.0269 4771.1226 1639680
-812.68445 1225.2026 4756.2769 1902593
-782.75623 1222.4767 4745.6943 1837057
-754.34589 1222.0067 4743.8696 1902850
-726.07501 1221.7349 4742.8145 1968643
-692.9538 1212.9512 4708.7158 2099459
-660.65851 1204.9366 4677.603 2165252
-633.48407 1205.9689 4681.6108 1967616
-604.08447 1202.6656 4668.7871 2099202
-577.57788 1205.0815 4678.1655 1902080
-548.3429 1201.7612 4665.2764 1770496
-520.39014 1201.0477 4662.5063 1836032
-494.42517 1205.0994 4678.2349 2033666
-468.49948 1209.7336 4696.2251 2230788
-441.76202 1212.7246 4707.8364 2164994
-413.02582 1210.2621 4698.2769 2033666
-385.1474 1210.1388 4697.7983 2165250
-356.59229 1207.7045 4688.3481 2230788
-328.62604 1207.0216 4685.6973 2231044
-303.11624 1216.0679 4720.8149 2165251
-273.29993 1207.9196 4689.1831 2165251
-244.56558 1203.2504 4671.0571 2230532
-218.78262 1213.7631 4711.8677 2296323
-190.506 1211.4933 4703.0562 2230274
-163.07195 1214.7219 4715.5903 2230531
-133.97307 1204.3204 4675.2114 2361859
-106.36327 1205.371 4679.2896 2296323
-79.30571 1215.6273 4719.105 2230530
-51.995846 1231.0817 4779.0991 2296066
-23.331448 1213.0756 4709.1992 2164737
4.5906472 1217.9039 4727.9429 2362116
32.399498 1210.2054 4698.0566 2098944
60.496441 1215.4102 4718.2617 2098944
88.675667 1218.4556 4730.084 2295553
116.23858 1213.6034 4711.248 2295809
142.74988 1201.7772 4665.3384 2361602
171.01892 1206.1855 4682.4517 2361602
198.42352 1204.1176 4674.4233 2295808
227.01955 1208.9004 4692.9907 2427136
255.26614 1210.9818 4701.0708 2492673
281.31711 1203.2625 4671.104 2492673
308.97107 1203.1681 4670.7378 2558209
337.58224 1206.5105 4683.7129 2689539
366.61295 1210.7303 4700.0947 2689795
397.05634 1218.6904 4730.9961 2820868
425.14465 1218.8488 4731.6108 2886402
453.00763 1218.3817 4729.7974 3017988
483.78149 1225.3417 4756.8164 3017731
511.14587 1223.3751 4749.1821 2886402
541.87183 1229.2395 4771.9478 2886657
568.77765 1226.286 4760.4824 3084036
595.37384 1222.9757 4747.6313 3149829
621.96698 1219.958 4735.9165 3149573
653.03613 1225.6014 4757.8247 3215107
683.80084 1230.23 4775.7925 3280643
713.50928 1232.6658 4785.2485 3346436
743.9032 1236.0544 4798.4033 3609094
772.88068 1236.9266 4801.7896 3543558
811.01794 1251.8759 4859.8228 3543558
833.52808 1242.5052 4823.4458 3543557
854.80225 1231.9744 4782.5649 3870980
868.3299 1211.3134 4702.3579 4133633
832.44641 1125.1519 4367.876 6302992
965.90137 1266.1661 4915.2983 8999213
987.91406 1257.1156 4880.1636 10380344
1025.2698 1267.5485 4920.6646 10315061
1051.1865 1263.6534 4905.5439 10248500
1081.7314 1265.382 4912.2539 9853742
1098.8215 1251.693 4859.1133 9458727
1116.3887 1239.2329 4810.7427 9458471
1148.3761 1243.0016 4825.3726 9919278
1189.2999 1256.025 4875.9302 10050608
1204.5076 1241.9159 4821.1577 10116400
1227.9409 1236.745 4801.0845 10050864
1256.6401 1236.9921 4802.0435 10248244
1291.8254 1243.4713 4827.1963 10511158
1300.3826 1224.5936 4753.9126 10511415
1347.2284 1241.8092 4820.7437 10576951
1366.9858 1233.8595 4789.8828 10774073
1404.7357 1242.1432 4822.04 10313522
1434.8805 1243.5057 4827.3296 10642487
1456.9794 1237.9784 4805.8726 10511158
1469.9065 1225.0194 4755.5654 10050607
1501.6719 1227.9524 4766.9512 10313778
1539.459 1235.6102 4796.6792 10379315
1564.7438 1233.1377 4787.0806 10313522
1610.0864 1246.2789 4838.0952 10379571
1670.3722 1270.3246 4931.4414 10445108
1681.9391 1257.1296 4880.2183 10379315
1723.5538 1266.4596 4916.4375 10379571
1729.502 1249.7075 4851.4053 10247729
1741.3517 1237.6978 4804.7832 10774072
1756.4844 1228.3704 4768.5737 10247729
1787.7253 1230.425 4776.5498 10708280
1801.6608 1220.6906 4738.7603 10445364
1829.1552 1220.3004 4737.2461 10445364
1878.446 1234.2437 4791.374 10313522
1877.1045 1214.9987 4716.6646 10445366
1904.8359 1214.8605 4716.1279 10313780
1934.3029 1215.8171 4719.8418 10511159
1976.2714 1224.4924 4753.5195 10445109
1990.2632 1215.8333 4719.9043 10510902
2012.92 1212.634 4707.4849 10379316
2090.4487 1242.1267 4821.9766 10379573
2112.2505 1238.1581 4806.5703 10445365
2134.9868 1234.8356 4793.6719 10313523
2158.5315 1232.0618 4782.9038 10051121
2191.6475 1234.7521 4793.3477 9919279
2193.5623 1220.0201 4736.1577 9919279
2209.458 1213.338 4710.2178 10248500
2261.7009 1226.5339 4761.4448 10182451
2272.7783 1217.3555 4725.8135 10248501
2290.0476 1211.6765 4703.7676 10314294
2344.4919 1225.5671 4757.6919 10511672
2336.6985 1206.98 4685.5356 10182451
2413.5283 1232.0265 4782.7671 9985329
2417.0579 1219.5088 4734.1729 9787693
2439.7554 1216.8383 4723.8057 9985329
2523.4253 1244.2936 4830.3882 10182707
2544.8586 1240.7887 4816.7822 9985330
2573.4036 1240.7904 4816.7886 9985330
2598.0117 1238.9147 4809.5073 10182453
2613.8779 1232.9563 4786.3765 10314295
2652.6692 1237.8232 4805.27 10248246
2649.239 1223.0941 4748.0913 10380089
2685.1814 1226.6611 4761.9385 10314039
2682.9429 1212.8932 4708.4907 10380345
2758.3799 1234.1624 4791.0586 10643517
2758.459 1221.625 4742.3882 10577467
2808.3762 1231.1895 4779.5176 10446651
2828.45 1227.6101 4765.6226 9985844
2855.1033 1226.9291 4762.9785 10314808
2885.5706 1227.8842 4766.6865 10249015
2942.8635 1240.1252 4814.2065 10314808
2960.8149 1235.7119 4797.0737 10380601
2977.2354 1230.7495 4777.8096 10314552
3023.9395 1238.2815 4807.0493 10380602
3034.1892 1230.8846 4778.334 10248759
3064.7629 1231.7931 4781.8608 10249016
3109.5059 1238.3275 4807.228 10249015
3120.8901 1231.5792 4781.0308 9985587
3166.3357 1238.2728 4807.0156 9985843
3191.6936 1237.0614 4802.3125 10051127
3247.5273 1247.5791 4843.1426 10117429
3282.2346 1249.8677 4852.0269 10314552
3274.3118 1236.0238 4798.2847 10248759
3311.1626 1239.1746 4810.5161 9985844
3443.7361 1277.7892 4960.4189 9853488
3407.958 1253.8125 4867.3408 9985844
3436.6123 1253.7444 4867.0762 10051380
3467.8054 1254.5959 4870.3823 10117430
3465.7192 1243.4928 4827.2798 10182966
3489.3516 1241.7238 4820.4121 10249015
3517.4668 1241.5658 4819.7988 9985842
3501.3645 1225.9286 4759.0947 10314298
3558.8977 1236.1169 4798.6465 9590832
3604.9724 1242.1957 4822.2441 9656625
3611.3933 1234.6222 4792.8438 9787955
3624.134 1229.3108 4772.2246 9460015
3635.4373 1223.5977 4750.0459 9657649
3700.5876 1235.9569 4798.0249 9591345
3701.2798 1226.7633 4762.335 9525552
3732.9934 1227.9127 4766.7974 9657396
3793.3699 1238.4026 4807.519 9986104
3756.1284 1217.1046 4724.8398 9723446
3805.8406 1224.0891 4751.9536 9921080
3881.9053 1239.3846 4811.3315 9854778
3871.5679 1227.0724 4763.5352 9591862
3907.4094 1229.4688 4772.8374 9000497
3938.5144 1230.3508 4776.2622 8737582
3950.2944 1225.2268 4756.3701 6831389
3996.5264 1230.785 4777.9473 6240029
4009.4771 1226.0876 4759.7124 1311488
4090.4902 1242.1241 4821.9663 1312256
4201.2446 1266.9065 4918.1724 2496776
4231.2808 1267.1743 4919.2119 2892052
4267.8315 1269.3761 4927.7593 8419425
4274.7681 1262.7996 4902.229 5195311
4256.7925 1249.0022 4848.6675 3814434
4240.8501 1235.9825 4798.1245 3156509
4215.9482 1220.5424 4738.1851 986115
4107.8584 1181.3824 4586.165 1315337
4106.4282 1173.2098 4554.439 591361
4102.5903 1164.4607 4520.4746 131072
4068.439 1147.2769 4453.7661 196864
4026.5774 1128.1543 4379.5317 196864
3933.0056 1094.8813 4250.3652 460288
3895.2019 1077.4579 4182.7266 592129
3908.0032 1074.1642 4169.9404 1316356
3851.717 1052.0416 4084.0598 2369038
3902.7495 1059.3248 4112.3335 197632
3912.4131 1055.3586 4096.9365 66304
0 0 0 0
0 0 0 0
0 0 0 0
0 0 0 0
0 0 0 0
-4010.0759 1166.8804 4428.0117 1536
-3977.5276 1165.032 4420.9976 1536
-3943.9385 1162.8521 4412.7256 1536
-3917.0205 1162.6233 4411.8574 1536
-3898.7703 1164.9816 4420.8062 1536
-3874.575 1165.583 4423.0889 1536
-3868.4556 1171.6676 4446.1782 1536
-3852.5891 1174.8633 4458.3047 1536
-3826.6626 1175.0139 4458.8765 1536
-3788.625 1171.4221 4445.2466 1536
-3769.0417 1173.5258 4453.2295 1536
-3741.679 1173.2198 4452.0684 1536
-3730.5884 1178.048 4470.3901 1536
-3694.1602 1174.8868 4458.3945 1280
-3665.3115 1174.1083 4455.4399 1536
-3635.7471 1173.0874 4451.5659 1536
-3590.4177 1166.9276 4428.1914 1536
-3516.5645 1151.3385 4369.0342 1280
-3522.3545 1161.7871 4408.6841 1280
-3510.1516 1166.4127 4426.2373 1280
-3476.1782 1163.8193 4416.396 1280
-3213.1746 1083.926 4113.2212 1280
-3284.3438 1116.4021 4236.46 1280
-3357.0256 1149.8967 4363.563 1280
-3324.4341 1147.5717 4354.7402 1280
-3299.3728 1147.83 4355.7202 1280
-3256.9644 1142.0096 4333.6338 1280
-3238.2463 1144.4697 4342.9692 1280
-3090.6101 1101.0415 4178.1699 1280
-3189.1062 1145.3055 4346.1411 1536
-3170.7449 1147.9817 4356.2959 1280
-3136.8408 1145.0282 4345.0884 1280
-3093.0068 1138.371 4319.8262 1280
-3071.1189 1139.7474 4325.0493 1280
-3038.804 1137.2448 4315.5522 1280
-3019.1819 1139.4901 4324.0728 1280
-2988.8718 1137.7056 4317.3008 1280
-2955.0217 1134.5311 4305.2544 1280
-2939.1826 1138.2765 4319.4673 1536
-2925.6885 1143.0039 4337.4067 1536
-2900.0151 1143.0146 4337.4478 1536
-2876.9148 1144.049 4341.3726 1536
-2852.2791 1144.4858 4343.0303 1536
-2835.9766 1148.3047 4357.522 1536
-2817.4441 1151.2827 4368.8228 1280
-2792.1658 1151.5337 4369.7754 1280
-2766.4702 1151.6157 4370.0864 1280
-2739.7378 1151.2637 4368.7505 1024
-2696.4253 1143.8713 4340.6982 1536
-2668.7354 1143.0277 4337.4971 1280
-2640.6204 1141.9839 4333.5361 1536
-2610.7349 1140.1464 4326.5635 1536
-2598.1511 1145.9033 4348.4092 1536
-2566.0388 1143.0763 4337.6816 1536
-2543.8979 1144.679 4343.7632 1536
-2532.0571 1150.9963 4367.7363 1536
-2506.6536 1151.2156 4368.5679 1536
-2498.8284 1159.5966 4400.3716 1536
-2477.0103 1161.5923 4407.9448 1536
-2453.0703 1162.625 4411.8638 1536
-2430.1353 1164.1614 4417.6938 1536
-2399.1882 1161.8512 4408.9272 1536
-2355.5696 1153.286 4376.4248 1536
-2329.5022 1153.2191 4376.1709 1536
-2315.0356 1158.9584 4397.9497 1536
-2294.4514 1161.7306 4408.4697 1536
-2258.5415 1156.7177 4389.4468 1536
-2242.6267 1161.9479 4409.2939 1536
-2213.5527 1160.4028 4403.4312 1536
-2178.8562 1155.8383 4386.1099 1536
-2164.5054 1162.0869 4409.8218 1536
-2151.1331 1169.0199 4436.1309 1536
-2127.592 1170.5302 4441.8618 1536
-2103.9312 1172.0112 4447.4824 1280
-2071.1543 1168.3876 4433.731 1280
-2036.7952 1163.7665 4416.1953 1280
-2009.8844 1163.3364 4414.5635 1280
-1975.6233 1158.5845 4396.5312 1280
-1950.9155 1159.3828 4399.5605 1280
-1923.9915 1158.8679 4397.6064 1536
-1890.7634 1154.4897 4380.9927 1280
-1865.3396 1154.8212 4382.25 1280
-1845.1893 1158.4729 4396.1074 1280
-1822.0253 1160.3098 4403.0781 1280
-1799.1339 1162.3763 4410.9204 1280
-1776.5789 1164.7245 4419.8306 1280
-1758.2235 1169.9371 4439.6113 1280
-1739.4276 1175.0105 4458.8638 1280
-1718.8453 1179.0153 4474.0605 1536
-1694.8219 1180.748 4480.6362 1536
-1668.4299 1180.8596 4481.0596 1536
-1641.1133 1180.3097 4478.9727 1536
-1611.2628 1177.8895 4469.7886 1536
-1584.1465 1177.4204 4468.0088 1536
-1559.8522 1179.0686 4474.2632 1536
-1537.8289 1182.52 4487.3604 1536
-1510.7697 1182.1525 4485.9653 1536
-1482.3612 1180.697 4480.4424 1280
-1459.8263 1183.952 4492.7944 1024
-1436.6409 1186.7905 4503.5659 263680
-1420.9692 1196.0612 4538.7456 1117953
-1386.9791 1189.9729 4515.6421 919808
-1373.4067 1201.5073 4559.4121 1116672
-1365.2047 1218.2971 4623.125 1575425
-1328.0542 1209.4121 4589.4087 1443072
-1312.7368 1220.4537 4631.3091 1574656
-1288.4679 1223.4672 4642.7441 1574656
-1261.4314 1223.9268 4644.4883 1640192
-1232.7407 1222.7661 4640.0835 1771266
-1199.1106 1216.541 4616.4614 1771522
-1166.2928 1210.8688 4594.9365 1639680
-1137.1238 1208.8042 4587.1021 1705729
-1114.1753 1213.413 4604.5913 1836802
-1090.4835 1217.4235 4619.8101 1639424
-1058.4751 1212.1166 4599.6719 1705217
-1025.9869 1205.9655 4576.3296 1902339
-1006.1247 1214.7238 4609.5649 1771010
-975.58618 1210.7214 4594.3774 1639680
-950.42981 1213.3604 4604.3916 1771008
-932.42609 1225.5569 4650.6738 1837057
-896.46863 1214.1793 4607.499 1968386
-867.98669 1212.5302 4601.2407 1771264
-842.84229 1215.5873 4612.8418 1771264
-809.05878 1205.972 4576.355 1705472
-777.90875 1199.7517 4552.75 1705472
-754.953 1206.1763 4577.1294 1705472
-727.23358 1205.1851 4573.3682 1771264
-700.06006 1205.0569 4572.8818 1968643
-670.75995 1201.1102 4557.9053 1902850
-640.22095 1194.521 4532.9009 1968130
-618.26556 1204.0713 4569.1421 1770752
-592.94873 1207.6501 4582.7227 1836544
-564.55859 1205.0127 4572.7144 1902337
-537.07971 1204.1525 4569.4497 1836544
-509.76474 1203.5879 4567.3071 1836544
-482.3537 1202.7203 4564.0151 1837057
-454.81976 1201.425 4559.1001 1837057
-426.50101 1197.7622 4545.2007 1903107
-398.86615 1195.6558 4537.207 1903106
-372.76395 1198.1711 4546.7524 1902850
-345.98105 1198.7201 4548.8354 1968643
-321.64383 1208.5511 4586.1421 1902594
-292.2601 1199.4852 4551.7388 1968386
-265.05234 1198.4139 4547.6738 2099459
-237.33545 1194.5381 4532.9658 2164996
-211.46074 1200.1279 4554.1777 2164739
-185.00665 1203.5841 4567.293 2164482
-157.73366 1201.9841 4561.2217 2033153
-131.3924 1208.2909 4585.1543 2098945
-103.28389 1197.3977 4543.8169 2230532
-76.554794 1200.4529 4555.4111 2098947
-49.583351 1200.9663 4557.3594 2098690
-22.609743 1202.5927 4563.5308 2098689
4.4787531 1215.5504 4612.7021 2098946
31.437021 1201.2651 4558.4932 2361859
58.381744 1199.9049 4553.3315 2296066
86.169281 1211.2518 4596.3901 2296066
112.57991 1202.442 4562.959 2164737
138.64967 1194.1086 4531.3359 2164737
167.15868 1206.0786 4576.7593 2098945
193.89749 1203.7177 4567.7998 2230273
221.5665 1207.0023 4580.2642 2230274
248.91341 1208.007 4584.0767 2427395
276.4086 1209.4626 4589.6006 2427139
304.23077 1211.9603 4599.0786 2361089
331.75894 1212.9722 4602.9185 2361089
356.22827 1203.4963 4566.96 2558467
383.42816 1203.9321 4568.6138 2558209
411.75861 1207.6263 4582.6323 2492161
439.88391 1210.299 4592.7739 2689795
464.87943 1204.5505 4570.9604 2624002
496.56772 1215.822 4613.7329 2689795
521.53119 1210.3109 4592.8198 2887172
552.60193 1218.8168 4625.0972 2952708
578.38116 1215.3992 4612.1284 2887172
607.06763 1218.1235 4622.4668 3083781
641.05261 1230.7858 4670.5161 3018244
665.01648 1223.9559 4644.5991 3215621
693.50916 1225.673 4651.1147 3281415
721.63605 1226.6371 4654.7734 3346695
751.97406 1231.1503 4671.8999 3478025
780.12292 1231.8861 4674.6919 3412745
809.5332 1234.4951 4684.5923 3346695
837.93262 1235.4407 4688.1807 3280903
864.81421 1234.1595 4683.3188 3411715
882.14996 1219.7589 4628.6724 3476737
908.28082 1218.0211 4622.0776 3869952
933.60822 1215.339 4611.8999 5381897
977.69153 1236.531 4692.3184 7946273
1015.7474 1249.1387 4740.1611 9920055
1034.7886 1238.3132 4699.0811 10051125
1054.4368 1228.7626 4662.8389 10577465
1077.6854 1223.7882 4643.9624 9985329
1120.9102 1241.1809 4709.9634 10050865
1143.87 1235.8345 4689.6748 10248243
1160.0455 1223.5858 4643.1943 10051122
1184.8025 1220.7462 4632.4189 10116401
1212.7363 1221.2347 4634.2725 10247987
1240.705 1221.7355 4636.1729 10511158
1275.252 1228.5522 4662.0405 10247987
1308.115 1233.4919 4680.7856 10379830
1335.4573 1233.1288 4679.4077 10445879
1348.7147 1220.0394 4629.7368 10511416
1389.0529 1231.4807 4673.1533 10445879
1418.3365 1232.8655 4678.4087 10511927
1432.4342 1221.2504 4634.332 10774330
1449.8434 1212.8422 4602.4253 10839866
1484.427 1218.8464 4625.2095 10839867
1538.558 1240.392 4706.9697 10708280
1542.2517 1221.2317 4634.2612 10511158
1589.297 1236.469 4692.083 10247729
1608.4131 1229.8271 4666.8789 10445108
1623.0862 1220.0702 4629.8535 10379315
1657.8955 1225.5223 4650.543 10379315
1691.5137 1229.9298 4667.2686 10247985
1693.3654 1211.4695 4597.2158 10182193
1715.103 1207.595 4582.5132 9787435
1769.4852 1226.4679 4654.1313 10116143
1789.9977 1221.6461 4635.834 10182193
1830.3556 1230.3097 4668.7095 10511157
1839.9298 1218.3312 4623.2544 10379316
1876.1896 1224.1152 4645.2031 10642744
1901.3903 1222.6208 4639.5327 10247730
1924.6274 1219.9246 4629.3008 10576695
1965.2467 1228.1667 4660.5776 10576695
1982.2211 1221.6085 4635.6914 10445109
2013.7122 1224.054 4644.9707 10379572
2011.2163 1206.0525 4576.6597 9853228
2066.1382 1222.5034 4639.0869 10247730
2083.8801 1216.812 4617.4897 10116658
2090.8176 1205.0414 4572.8228 9656363
2111.1975 1201.2202 4558.3228 10116914
2143.1919 1204.0204 4568.9487 9919279
2172.1035 1205.0405 4572.8198 10248244
2222.1086 1217.5935 4620.4551 10050865
2254.7874 1220.4626 4631.3428 10379830
2304.4927 1232.368 4676.521 10379830
2315.4514 1223.5162 4642.9307 10577209
2305.0898 1203.7388 4567.8799 10380087
2349.7783 1212.8344 4602.3955 9919536
2351.4133 1199.7542 4552.7593 9985329
2433.4319 1227.5193 4658.1211 9919279
2447.5649 1220.8016 4632.6294 10643004
2465.6843 1216.1992 4615.1641 9722159
2517.8 1228.2826 4661.0176 9919281
2514.2957 1213.2644 4604.0273 9787695
2571.7327 1227.66 4658.6548 10182710
2597.0291 1226.5699 4654.5186 10379832
2597.2869 1213.8014 4606.0649 9985331
2621.1533 1212.2167 4600.0518 9919537
2652.7627 1214.2089 4607.6113 10379832
2678.5132 1213.506 4604.9438 10116660
2722.7561 1221.1107 4633.8022 10182710
2765.4446 1227.8735 4659.4653 10643260
2787.8853 1225.6014 4650.8433 10116917
2815.1052 1225.4542 4650.2847 9919795
2849.6035 1228.4476 4661.6436 10051123
2873.5579 1226.8815 4655.7007 10116660
2905.1121 1228.5592 4662.0674 9590573
2927.5315 1226.3788 4653.793 10380088
2966.5269 1231.118 4671.7773 10051637
3002.5059 1234.5294 4684.7227 10249015
3041.7078 1239.1914 4702.4136 10380345
3034.8042 1225.1558 4649.1519 10512188
3074.3784 1229.967 4667.4097 10314553
3101.6704 1229.8225 4666.8613 10182969
3129.6985 1229.9701 4667.4209 10183222
3157.9087 1230.1857 4668.2393 10183222
3211.1113 1240.0492 4705.6689 10183223
3241.3313 1240.9438 4709.064 10314552
3277.1216 1243.9377 4720.4248 10313782
3296.3501 1240.6476 4707.9395 9854258
3306.9385 1234.1879 4683.4268 9985843
3350.3606 1239.9879 4705.436 10117430
3378.5522 1240.1017 4705.8677 9985587
3387.6655 1233.2682 4679.9365 10380345
3395.5718 1226.1099 4652.7725 10051382
3421.8027 1225.6304 4650.9531 9853747
3437.5022 1221.4165 4634.9624 9656368
3442.9788 1213.6659 4605.5508 9919796
3469.4905 1213.3937 4604.5181 9919541
3500.979 1214.8529 4610.0552 9722931
3528.0745 1214.7769 4609.7666 9920310
3610.8535 1233.7274 4681.6792 9262381
3608.8328 1223.6362 4643.3857 8999211
3608.7969 1214.3657 4608.2065 8670502
3633.199 1213.396 4604.5269 9854776
3634.8091 1204.8856 4572.2319 9460017
3700.6333 1217.6296 4620.5923 9723190
3675.8972 1200.6082 4556 9591860
3766.0115 1221.0731 4633.6597 9131311
3782.752 1217.6238 4620.5703 9065261
3816.2859 1219.5909 4628.0352 8671789
3882.5938 1231.929 4674.8545 8474925
3864.4236 1217.4775 4620.0151 8080944
3921.7473 1226.8463 4655.5674 7620655
3941.9985 1224.5679 4646.9209 1836290
3922.1536 1209.9514 4591.4556 3414798
3975.0679 1217.8275 4621.3433 2035720
3986.3938 1212.9418 4602.8032 3022612
4208.6499 1271.8661 4826.4058 2233097
4147.9819 1245.0715 4724.7275 2891281
4142.6201 1235.126 4686.9863 2035972
4134.5742 1224.5179 4646.7314 2956304
4141.729 1218.5222 4623.9795 3549727
4155.7661 1214.6171 4609.1602 4405293
4030.7166 1170.377 4441.2803 2432527
3954.6697 1140.8469 4329.2217 327680
3945.0439 1130.7354 4290.8511 460034
3878.5808 1104.567 4191.5488 1776137
3804.4851 1076.5718 4085.3137 2170890
3833.3418 1077.8792 4090.2749 2039050
3916.9578 1094.4708 4153.2363 2368268
3763.5481 1045.0394 3965.657 131328
3896.2812 1075.183 4080.0437 132096
0 0 0 0
0 0 0 0
0 0 0 0
0 0 0 0
0 0 0 0
-3907.0161 1162.4547 4314.2109 1536
-3881.7466 1162.5427 4314.5376 1536
-3852.8994 1161.5533 4310.8657 1536
-3825.7258 1161.0586 4309.0298 1536
-3811.613 1164.5477 4321.979 1536
-3791.0349 1166.0953 4327.7222 1536
-3761.3276 1164.8368 4323.0518 1280
-3743.9512 1167.406 4332.5864 1280
-3717.3596 1167.1173 4331.5151 1280
-3687.561 1165.8108 4326.6665 1280
-3670.1763 1168.4381 4336.417 1280
-3641.7925 1167.576 4333.2178 1280
-3618.6123 1168.3818 4336.2085 1280
-3589.1223 1167.1475 4331.627 1280
-3561.8826 1166.6322 4329.7148 1280
-3508.4287 1157.4613 4295.6787 1280
-3473.9329 1154.4563 4284.5264 1280
-3447.5728 1154.1306 4283.3179 1280
-3456.0967 1165.5649 4325.7539 1280
-3431.292 1165.8459 4326.7969 1280
-3392.2129 1161.2448 4309.7202 1280
-3371.0232 1162.7441 4315.2852 1280
-3360.3096 1167.9076 4334.4482 1280
-3298.2437 1155.165 4287.1567 1280
-3256.2219 1149.2994 4265.3877 1280
-3223.0776 1146.4999 4254.998 1536
-3145.731 1127.8087 4185.6294 1536
-3054.5244 1103.812 4096.5708 1536
-3126.2026 1138.7639 4226.2871 1536
-3091.5576 1135.2377 4213.2007 1536
-2942.0479 1089.1318 4042.0881 1280
-3032.0671 1131.6694 4199.9575 1280
-3023.3838 1137.767 4222.5874 1280
-2998.3752 1137.7715 4222.6045 1280
-2978.2749 1139.6543 4229.5918 1536
-2964.9517 1144.1844 4246.4043 1280
-2936.0574 1142.7317 4241.0127 1280
-2903.5693 1139.8429 4230.292 1280
-2873.1545 1137.725 4222.4316 1280
-2849.3049 1138.1924 4224.166 1280
-2827.8076 1139.616 4229.4497 1536
-2801.959 1139.2958 4228.2612 1280
-2779.72 1140.4508 4232.5479 1280
-2755.2649 1140.7094 4233.5073 1280
-2728.2534 1139.9045 4230.5205 1280
-2707.918 1141.9 4237.9263 1280
-2690.6462 1145.2369 4250.3105 1280
-2658.9961 1142.4589 4240.0005 1280
-2632.5718 1141.8949 4237.9072 1280
-2612.1106 1143.9313 4245.4648 1280
-2581.6108 1141.5684 4236.6953 1280
-2559.1587 1142.7526 4241.0903 1536
-2536.3687 1143.8079 4245.0068 1280
-2510.665 1143.5573 4244.0767 1536
-2483.3582 1142.5638 4240.3901 1536
-2457.8733 1142.3971 4239.771 1536
-2433.9458 1142.9583 4241.8535 1536
-2413.4824 1145.1747 4250.0796 1536
-2395.8157 1148.7788 4263.4556 1536
-2384.5767 1155.5748 4288.6777 1536
-2349.3142 1150.7499 4270.771 1536
-2325.178 1151.3291 4272.9204 1536
-2305.4521 1154.129 4283.3115 1536
-2280.1921 1154.1899 4283.5376 1536
-2262.814 1158.2866 4298.7422 1536
-2234.2185 1156.6696 4292.7402 1536
-2208.8462 1156.703 4292.8647 1536
-2178.4556 1154.0787 4283.125 1536
-2151.3818 1153.1704 4279.7544 1536
-2123.4546 1151.7776 4274.585 1536
-2106.322 1156.277 4291.2832 1536
-2081.7058 1156.7277 4292.9561 1536
-2055.6855 1156.3998 4291.7393 1280
-2029.1891 1155.7926 4289.4858 1280
-2010.2635 1159.5369 4303.3818 1280
-1983.6021 1158.8578 4300.8618 1280
-1957.9723 1158.7719 4300.5425 1280
-1932.5248 1158.7927 4300.6201 1280
-1901.1356 1155.2039 4287.3008 1280
-1874.0417 1154.1631 4283.4385 1280
-1846.9329 1153.0845 4279.4351 1536
-1824.2351 1154.7679 4285.6831 1536
-1807.577 1160.3762 4306.4971 1536
-1782.1846 1160.4578 4306.7998 1280
-1756.9584 1160.6516 4307.519 1536
-1738.2777 1165.2389 4324.5435 1280
-1713.5092 1165.8213 4326.7051 1280
-1689.061 1166.6428 4329.7539 1536
-1664.3508 1167.3059 4332.2148 1536
-1646.8794 1173.1461 4353.8896 1536
-1622.4596 1174.1439 4357.5928 1536
-1596.9589 1174.3789 4358.4653 1536
-1568.5138 1172.421 4351.1987 1536
-1538.7262 1169.3773 4339.9028 1280
-1512.6445 1169.0945 4338.853 1280
-1484.8073 1167.4215 4332.644 1280
-1456.9847 1165.7014 4326.2603 1280
-1441.3635 1173.8567 4356.5269 1280
-1422.1879 1179.3617 4376.9575 1024
-1396.5586 1179.6201 4377.9165 132096
-1373.1027 1181.7588 4385.854 986112
-1359.6814 1192.783 4426.7681 1117185
-1341.3151 1199.8174 4452.875 1116160
-1315.7201 1200.5383 4455.5503 1509889
-1299.8719 1210.3645 4492.0181 1377793
-1263.1378 1200.7471 4456.3252 1706242
-1233.9229 1198.0194 4446.2017 1771778
-1218.1558 1208.514 4485.1509 1706242
-1193.592 1210.5552 4492.7261 1639936
-1166.6376 1210.2096 4491.4434 1508352
-1140.8779 1211.1161 4494.8076 1574144
-1112.1268 1208.8143 4486.2651 1574144
-1090.0139 1213.792 4504.7388 1639424
-1061.0968 1211.2524 4495.3135 1705216
-1040.092 1217.8468 4519.7871 1771009
-1009.9243 1213.777 4504.6831 1771009
-983.93707 1214.6472 4507.9126 1836545
-955.84088 1212.8896 4501.3901 1705473
-920.67371 1201.8013 4460.2373 1705472
-902.66791 1213.1211 4502.2485 1705472
-865.93506 1199.1959 4450.5684 1771008
-846.12964 1208.5746 4485.375 1837057
-812.45123 1198.1033 4446.5132 1902593
-782.06116 1191.9418 4423.646 1837057
-758.17224 1195.605 4437.2412 1837057
-732.90002 1197.2716 4443.4268 1837057
-706.27533 1196.7706 4441.5674 1771265
-679.45795 1195.892 4438.3062 1968643
-656.86823 1202.6829 4463.5093 1902850
-628.06403 1198.1879 4446.8271 1837057
-600.68683 1196.141 4439.2305 1837057
-578.9754 1205.7054 4474.7271 1902593
-550.45105 1201.3192 4458.4482 1902080
-524.88666 1203.2762 4465.7114 1902081
-495.68286 1196.655 4441.1382 1967873
-469.05478 1195.8583 4438.1812 1902081
-442.78522 1195.9349 4438.4658 2033666
-414.52869 1190.3159 4417.6123 2033666
-387.87863 1188.8634 4412.2212 1967873
-361.23215 1187.2124 4406.0942 1968643
-335.93723 1190.0924 4416.7827 1837058
-310.36292 1192.3857 4425.2935 2034436
-285.40732 1197.6986 4445.0112 1968130
-258.48892 1195.0177 4435.0615 1967873
-231.77345 1192.774 4426.7349 1967873
-206.27429 1197.0164 4442.479 1967873
-180.15802 1198.3944 4447.5938 2033666
-153.72182 1197.7522 4445.2104 2164482
-127.49638 1198.8262 4449.1963 2164739
-101.077 1198.161 4446.7275 2033153
-74.832176 1199.8258 4452.9062 2164739
-48.168163 1192.9224 4427.2852 2164739
-21.90107 1191.092 4420.4927 2164483
4.2936382 1191.5121 4422.0513 2098946
30.380569 1186.9995 4405.3037 2361861
56.288612 1182.8984 4390.0835 2428165
82.848251 1190.755 4419.2417 2362116
109.08894 1191.3546 4421.4668 2559238
134.52147 1184.6052 4396.418 2427652
159.32646 1175.4164 4362.3154 2493702
187.38943 1189.4731 4414.4844 2164481
215.50169 1200.3608 4454.8916 2427652
242.65529 1204.115 4468.8247 2493188
269.62607 1206.3127 4476.981 2427395
296.34515 1207.0916 4479.8711 2492675
321.20071 1200.7755 4456.4307 2624004
346.69989 1197.6423 4444.8027 2558466
370.5372 1189.6165 4415.0161 2558209
398.65527 1195.4861 4436.7998 2492416
425.90768 1198.1941 4446.8501 2821381
453.46243 1201.3876 4458.7021 2624002
482.32959 1207.515 4481.4429 2558209
509.28036 1208.4557 4484.9341 2624001
537.15356 1211.3833 4495.7993 2755329
563.55237 1210.8663 4493.8804 2821379
592.06097 1214.7247 4508.2002 3017989
620.22882 1217.5808 4518.8003 3084036
646.16492 1216.0007 4512.936 3083779
678.04724 1225.2917 4547.4175 3347208
699.79004 1216.2496 4513.8599 3280902
724.78558 1213.3186 4502.9819 3280902
752.83966 1215.5341 4511.2041 3346695
781.5578 1218.6329 4522.7046 3412488
808.26715 1218.498 4522.2041 3478281
833.97723 1216.9137 4516.3242 3412487
858.69141 1214.0199 4505.5845 3478279
893.3905 1224.9915 4546.3032 3609351
907.37665 1207.7512 4482.3198 3608836
940.17383 1215.8176 4512.2563 3870465
958.80865 1205.6299 4474.4468 4724742
1015.2073 1242.1978 4610.1606 7223578
1041.6588 1241.1665 4606.3335 9919795
1054.5142 1224.4012 4544.1128 9853998
1073.2528 1215.132 4509.7114 10379831
1092.2043 1206.5481 4477.8545 10314293
1120.0448 1207.9581 4483.0874 10709051
1149.7963 1211.316 4495.5498 10643002
1175.7986 1210.6616 4493.1206 10182708
1199.5684 1207.7883 4482.457 10577465
1228.2065 1209.8348 4490.0527 10182451
1259.3297 1214.1908 4506.2188 10182451
1291.8629 1219.6971 4526.6543 10314293
1306.4908 1208.4182 4484.7949 10445879
1350.8593 1224.5485 4544.6592 10314037
1374.5898 1221.7058 4534.1094 9853486
1393.2532 1214.5551 4507.5703 10709051
1417.2234 1212.2122 4498.8755 10709051
1453.1173 1219.9666 4527.6543 10314293
1484.5266 1223.7429 4541.6694 10445364
1516.5031 1227.844 4556.8896 10445364
1545.4017 1229.3534 4562.4912 10445108
1555.4485 1216.0719 4513.2002 10510901
1586.6891 1219.5292 4526.0308 10510901
1615.4985 1221.0339 4531.6157 10379314
1620.7506 1204.9755 4472.0176 10511158
1671.679 1222.8458 4538.3403 10116657
1676.2346 1206.7659 4478.6626 9984814
1685.1902 1194.3051 4432.417 10116401
1750.2208 1221.3578 4532.8174 9918764
1761.1947 1210.4404 4492.2998 9984558
1803.2906 1220.9193 4531.1899 10445109
1825.5249 1217.8406 4519.7642 10247987
1844.2178 1212.5225 4500.0273 10576695
1858.882 1204.7451 4471.1631 10379316
1871.1461 1195.6527 4437.4185 10379572
1919.7882 1209.7356 4489.6841 9984814
1947.9393 1210.6976 4493.2544 9984558
1962.214 1203.1254 4465.1519 10050607
1995.0303 1206.9723 4479.4287 9919021
2036.3959 1215.8223 4512.2739 10182451
2064.012 1216.3403 4514.1963 10445879
2048.1084 1191.5267 4422.106 10511673
2066.5076 1187.0442 4405.4697 10643002
2098.4143 1190.3357 4417.6855 10182451
2154.0225 1206.8253 4478.8833 10050865
2210.52 1223.4056 4540.4175 10116658
2244.7583 1227.416 4555.3013 10248244
2255.158 1218.4513 4522.0308 10182451
2272.762 1213.5439 4503.8179 10379830
2262.4314 1194.0076 4431.313 10182451
2302.3254 1201.1219 4457.7163 10248501
2314.9238 1193.9963 4431.271 9919535
2388.8213 1218.2927 4521.4424 10116917
2376.5112 1198.5723 4448.2539 9853488
2414.4434 1204.3457 4469.6807 10116917
2458.2046 1212.8699 4501.3164 9787951
2457.8098 1199.6586 4452.2852 9656365
2471.5999 1193.5779 4429.7183 9656109
2502.5051 1195.8033 4437.9775 10248246
2557.0994 1209.1846 4487.6392 10051124
2602.7578 1218.1083 4520.7573 10050867
2622.3608 1214.7802 4508.4058 9656109
2667.8752 1223.4014 4540.4019 9919537
2647.9841 1202.157 4461.5576 10182453
2691.5049 1209.8364 4490.0581 9919537
2747.3396 1222.8464 4538.3423 9722158
2762.4612 1217.6583 4519.0879 9787951
2783.8572 1215.3091 4510.3691 10051380
2798.8215 1210.2235 4491.4946 9525293
2852.9243 1221.9977 4535.1924 9590829
2862.5146 1214.6642 4507.9756 9788464
2893.022 1216.26 4513.8979 10182966
2897.3804 1206.9338 4479.2861 9788464
2940.5325 1213.7904 4504.7329 9854001
2991.4487 1223.6997 4541.5088 9985587
3026.3652 1226.9456 4553.5552 9854004
3029.9614 1217.5483 4518.6797 9919794
3074.5149 1224.6298 4544.9609 10183222
3085.2388 1218.2305 4521.2109 9722671
3135.5015 1227.4189 4555.3125 10117173
3162.428 1227.3936 4555.2178 10182196
3184.3767 1225.4529 4548.0156 10183222
3207.1062 1223.8428 4542.04 9985586
3238.1382 1225.4015 4547.8247 10183222
3258.6116 1222.9716 4538.8066 10249015
3267.1631 1216.1438 4513.4668 9985844
3294.7725 1216.4634 4514.6528 10117173
3329.929 1219.5416 4526.0771 9920052
3342.7734 1214.4646 4507.2349 10051381
3357.9141 1210.2957 4491.7627 9853747
3372.6655 1206.0532 4476.0176 9787954
3369.7874 1195.6217 4437.3032 8736292
3442.238 1211.8719 4497.6128 9328172
3448.4277 1204.724 4471.085 10117945
3487.178 1208.9736 4486.856 9657394
3484.9431 1199.057 4450.0527 9723187
3494.8237 1193.4268 4429.1572 9526324
3519.0974 1192.7588 4426.6782 9460274
3630.9502 1221.5649 4533.5864 9263152
3643.198 1216.684 4515.4717 8736551
3699.3938 1226.444 4551.6938 9657653
3660.0349 1204.6133 4470.6738 9591606
3688.5728 1205.2823 4473.1567 9263669
3746.1047 1215.3481 4510.5142 9395511
3721.2542 1198.7336 4448.8525 9132600
3699.8616 1183.4587 4392.1631 8080429
3686.6963 1171.0106 4345.9644 7488812
3788.2422 1194.9183 4434.6929 917504
3857.4236 1208.3583 4484.5723 2890505
3832.2419 1192.2567 4424.8149 4996395
4006.4451 1237.9836 4594.521 4273701
4033.6211 1237.9688 4594.4658 3287323
4159.7095 1268.1082 4706.3218 1709067
4128.3027 1250.1525 4639.6831 985603
4094.9514 1231.8495 4571.7554 1050881
4032.3748 1205.0532 4472.3066 1379588
3925.3633 1165.4146 4325.1958 65536
3886.2124 1146.3068 4254.2808 591616
3881.3118 1137.4828 4221.5327 1577736
3903.2341 1136.5825 4218.1914 2301970
3869.3979 1119.5605 4155.0181 131584
3855.9417 1108.6133 4114.3896 3354913
3888.5959 1110.9774 4123.1636 1710608
3955.2559 1122.9668 4167.6597 512
3894.9546 1098.9846 4078.6545 66048
0 0 0 0
0 0 0 0
0 0 0 0
0 0 0 0
0 0 0 0
-3804.2544 1156.7711 4200.7393 1536
-3774.4224 1155.2587 4195.2471 1536
-3765.2031 1160.0774 4212.7456 1536
-3742.3748 1160.7391 4215.1489 1536
-3713.3977 1159.49 4210.6128 1536
-3687.3132 1159.1333 4209.3174 1536
-3661.9482 1158.9991 4208.8306 1536
-3658.6555 1165.8973 4233.8804 1536
-3623.5679 1162.6885 4222.228 1280
-3592.0466 1160.5875 4214.5981 1280
-3562.7029 1159.1654 4209.4341 1280
-3538.2566 1159.328 4210.0244 1280
-3517.9038 1160.8438 4215.5288 1280
-3459.4382 1149.7146 4175.1143 1280
-3438.2007 1150.8867 4179.3706 1280
-3413.8958 1151.0417 4179.9336 1280
-3396.3787 1153.5043 4188.876 1280
-3368.6057 1152.4943 4185.208 1280
-3343.5793 1152.416 4184.9238 1280
-3307.1777 1148.3865 4170.291 1280
-3288.259 1150.4127 4177.6494 1280
-3208.1345 1130.8944 4106.7695 1280
-3186.1628 1131.7335 4109.8169 1280
-3159.7859 1131.0088 4107.1851 1536
-3134.856 1130.7948 4106.4082 1280
-3108.1794 1129.9425 4103.313 1280
-3081.8711 1129.2118 4100.6592 1280
-3058.7595 1129.6499 4102.2505 1280
-3047.6797 1134.5742 4120.1328 1280
-3021.21 1133.8025 4117.3306 1280
-2998.1685 1134.3153 4119.1924 1280
-2980.6301 1136.9355 4128.708 1280
-2951.4138 1135.108 4122.0713 1280
-2931.8298 1136.9854 4128.8887 1280
-2910.7017 1138.2905 4133.6279 1280
-2881.6936 1136.5099 4127.1621 1280
-2841.8572 1130.3917 4104.9443 1024
-2825.1526 1133.4484 4116.0444 1280
-2808.5547 1136.6014 4127.4946 1536
-2781.7371 1135.6378 4123.9951 1536
-2769.1201 1140.5057 4141.6729 1280
-2726.7061 1133.0789 4114.7021 1280
-2701.6011 1132.7753 4113.6001 1280
-2690.1619 1138.2484 4133.4756 1280
-2661.3923 1136.4222 4126.8438 1280
-2646.5144 1140.5488 4141.8291 1280
-2619.7236 1139.5707 4138.2769 1280
-2602.844 1142.9259 4150.4614 1280
-2574.2979 1141.1736 4144.0977 1280
-2549.0203 1140.8505 4142.9243 1280
-2525.8706 1141.4825 4145.2197 1280
-2505.4299 1143.3634 4152.0498 1280
-2482.7241 1144.2375 4155.2246 1280
-2449.5244 1140.2444 4140.7236 1536
-2431.0637 1143.1007 4151.0962 1536
-2405.1379 1142.4695 4148.8037 1536
-2380.8726 1142.6221 4149.3579 1536
-2359.2825 1144.0752 4154.6348 1536
-2330.9797 1142.2695 4148.0776 1536
-2311.7124 1144.9001 4157.6309 1536
-2288.5918 1145.6586 4160.3848 1536
-2269.4104 1148.4268 4170.4375 1536
-2244.5811 1148.3666 4170.2188 1536
-2224.1472 1150.5789 4178.2524 1536
-2200.0308 1150.9144 4179.4712 1536
-2174.4092 1150.4612 4177.8252 1536
-2150.8923 1151.124 4180.2319 1536
-2125.7153 1150.9034 4179.4312 1536
-2100.6472 1150.7373 4178.8276 1536
-2072.7617 1149.0054 4172.5386 1536
-2046.6781 1148.2426 4169.7686 1280
-2020.5638 1147.4436 4166.8672 1280
-1993.8168 1146.2611 4162.5732 1280
-1966.3291 1144.618 4156.6064 1280
-1941.2169 1144.3335 4155.5732 1280
-1930.3903 1152.5713 4185.4878 1280
-1910.515 1155.5503 4196.3062 1280
-1892.7083 1159.8755 4212.0127 1280
-1868.8331 1160.548 4214.4546 1280
-1840.4084 1158.3749 4206.5635 1280
-1812.4839 1156.4614 4199.6147 1280
-1797.4241 1162.8174 4222.6958 1280
-1765.2881 1158.1495 4205.7451 1280
-1739.6082 1157.6443 4203.9102 1280
-1709.583 1154.1908 4191.3691 1280
-1681.2494 1151.7943 4182.6665 1280
-1656.4224 1151.7644 4182.5576 1280
-1638.3147 1156.4767 4199.6704 1536
-1613.851 1156.7784 4200.7661 1536
-1588.4159 1156.3827 4199.3286 1536
-1566.6206 1158.666 4207.6206 1536
-1548.0398 1163.4392 4224.9541 1536
-1523.8539 1164.0874 4227.3081 1536
-1503.5913 1167.8046 4240.8066 1536
-1476.2462 1166.0537 4234.4487 1536
-1451.9309 1166.6769 4236.7114 1536
-1430.2328 1169.4619 4246.8252 1536
-1403.5288 1168.1804 4242.1714 1280
-1379.2811 1168.9336 4244.9067 768
-1360.5863 1174.5083 4265.1509 789760
-1326.267 1166.5513 4236.2554 1117698
-1296.9968 1162.8138 4222.6831 1445892
-1309.1846 1196.8295 4346.2085 1445122
-1281.6713 1195.188 4340.2476 1312256
-1255.6799 1194.9275 4339.3018 1180416
-1228.6045 1193.603 4334.4922 1180160
-1204.8962 1195.5631 4341.6099 1311488
-1190.2269 1206.7732 4382.3188 1443072
-1172.2448 1215.0496 4412.374 1705729
-1139.6376 1208.1989 4387.4956 1574144
-1115.9285 1210.6818 4396.5122 1574144
-1086.7075 1207.1605 4383.7251 1771522
-1053.1996 1198.588 4352.5947 1771522
-1033.9271 1206.1925 4380.21 1639424
-996.30585 1192.2314 4329.5112 1639424
-981.53839 1205.6033 4378.0703 1639168
-952.09637 1201.1874 4362.0342 1639424
-923.61597 1197.772 4349.6313 1639680
-897.96893 1197.9406 4350.2437 1573888
-872.68445 1198.6169 4352.6997 1771008
-842.02393 1191.7257 4327.6743 1573888
-818.15387 1194.3141 4337.0742 1639680
-780.44165 1176.2089 4271.3262 1573888
-766.23206 1193.4979 4334.1104 1705472
-744.9527 1200.5923 4359.873 1705472
-716.12207 1195.5892 4341.7051 1837057
-689.69501 1194.3757 4337.2983 1837057
-658.65674 1184.7739 4302.4297 1705472
-634.62427 1187.5079 4312.3584 1705472
-608.33307 1186.0677 4307.1279 1771264
-586.28503 1193.1364 4332.7974 2034436
-559.33722 1190.4244 4322.9492 1837057
-534.40485 1191.9475 4328.48 1968643
-504.29648 1181.4974 4290.5312 1837313
-480.89743 1186.4915 4308.6665 2033666
-454.47891 1184.1777 4300.2646 1967617
-428.69229 1183.3336 4297.1992 1771264
-402.39954 1180.8975 4288.3525 1705472
-378.51111 1185.6643 4305.6631 1771264
-354.30228 1190.0441 4321.5679 1902593
-329.29156 1192.2029 4329.4077 1902850
-302.46396 1187.5929 4312.6665 1968387
-275.85162 1183.0552 4296.1885 1771008
-251.75275 1189.4703 4319.4844 1771265
-226.93318 1193.547 4334.2886 1836032
-200.34576 1188.1797 4314.7974 1967873
-174.19742 1184.2269 4300.4434 2099459
-149.00761 1186.5525 4308.8887 2165252
-123.32403 1185.0948 4303.5952 2099202
-98.379028 1191.8248 4328.0347 1967360
-72.466743 1187.4508 4312.1509 2033153
-46.844559 1185.6548 4305.6284 2033410
-21.349617 1186.635 4309.188 2231043
4.1944766 1189.5913 4319.9238 2165250
29.75264 1188.0292 4314.251 2165250
55.208195 1185.7072 4305.8188 2033665
79.156944 1162.7198 4222.3418 2099457
105.50603 1177.5643 4276.2485 2099458
131.40092 1182.5718 4294.4326 2362372
154.99547 1168.6107 4243.7339 2296323
181.99425 1180.6312 4287.3857 2361859
209.0441 1189.9976 4321.3989 2296323
234.49277 1189.1995 4318.501 2362116
262.46674 1200.1052 4358.1045 2361859
288.633 1201.532 4363.2856 2493188
312.70294 1194.715 4338.5303 2493188
