# .PCD v0.7 - Point Cloud Data file format
VERSION 0.7
FIELDS x y z rgb
SIZE 4 4 4 4
TYPE F F F U
COUNT 1 1 1 1
WIDTH 1289
HEIGHT 1
VIEWPOINT 0 0 0 1 0 0 0
POINTS 1289
DATA ascii
-1189.6819 1230.3993 4197.1743 1902850
-1169.48 1235.33 4213.9941 1771265
-1143.1531 1233.8651 4208.9971 1639680
-1116.7797 1232.2833 4203.6016 1771264
-1088.4919 1228.469 4190.5898 1771265
-1063.0718 1227.7885 4188.2686 1705472
-1040.2501 1230.1483 4196.3184 1705216
-1015.1653 1229.882 4195.4097 1705216
-986.62952 1225.3162 4179.835 1573632
-959.22473 1221.9562 4168.373 1770753
-930.41083 1216.5759 4150.02 2034179
-905.56628 1216.2347 4148.856 1968130
-882.31055 1218.068 4155.1099 1967873
-856.70605 1216.6709 4150.3438 1967873
-844.21521 1234.3652 4210.7031 1967873
-822.35767 1239.0247 4226.5977 2099459
-798.68774 1241.1604 4233.8833 1967873
-773.33752 1240.7389 4232.4453 2033666
-748.60199 1241.3083 4234.3877 1967873
-723.71576 1241.6587 4235.583 2165252
-696.71338 1238.2732 4224.0342 1967873
-671.46332 1237.8658 4222.6445 1902081
-638.80298 1223.2372 4172.7427 1901824
-617.46448 1229.9833 4195.7554 1836544
-598.37976 1241.9734 4236.6562 1639168
-572.19037 1239.6217 4228.6343 1771008
-546.25818 1237.6373 4221.8652 1836801
-518.68079 1231.5562 4201.1211 2362374
-497.17841 1240.0135 4229.9712 2099458
-475.6619 1249.3319 4261.7578 2164993
-446.46545 1238.3926 4224.4414 2165250
-419.60837 1233.0281 4206.1421 2099459
-400.26865 1250.4709 4265.6436 2231044
-375.33881 1251.624 4269.5771 2033410
-341.61798 1221.5104 4166.8525 2099201
-323.43463 1246.5894 4252.4028 2230530
-296.09906 1237.6514 4221.9131 2296323
-272.12589 1242.4149 4238.1626 2296323
-247.89374 1246.8445 4253.2729 2427909
-222.61717 1246.429 4251.8555 2427909
-197.89108 1249.3828 4261.9316 2493445
-171.61021 1241.9489 4236.5728 2427909
-146.85304 1244.8838 4246.5845 2427909
-122.42147 1252.3634 4272.0991 2296323
-96.395172 1243.1758 4240.7583 1967360
-71.040039 1239.2172 4227.2544 1901568
-46.136559 1243.116 4240.5537 2164994
-21.129152 1250.1914 4264.6899 2492930
4.1219025 1244.4717 4245.1787 2361600
29.375225 1248.6771 4259.5244 2230016
55.020931 1257.9668 4291.2139 2164224
80.344261 1256.3433 4285.6753 2426624
106.30072 1263.022 4308.458 2558466
132.65154 1270.8922 4335.3052 2558466
158.31612 1270.7008 4334.6523 2558466
183.93034 1270.2152 4332.9956 2690049
210.08385 1273.1165 4342.8926 2690306
236.94612 1279.2111 4363.6826 2624513
262.57782 1278.1166 4359.9492 2690049
288.69315 1279.3612 4364.1948 2689793
312.02921 1269.0974 4329.1826 2886914
340.57867 1279.9863 4366.3271 3215879
365.99371 1278.3893 4360.8794 3347208
388.97141 1269.0509 4329.0239 3347208
419.19064 1283.0325 4376.7183 3412744
445.62875 1284.4861 4381.6768 3281415
466.51544 1270.6591 4334.5098 3149316
500.57553 1292.2834 4408.2754 3478022
529.51837 1299.2074 4431.895 3675143
555.75348 1299.1476 4431.6904 3740423
573.55304 1280.2635 4367.2729 3806215
607.13708 1296.7223 4423.4175 3805958
634.43353 1298.9457 4431.002 3871747
661.71881 1300.9703 4437.9087 3804928
697.01654 1317.9911 4495.9702 6040334
718.33118 1308.2913 4462.8818 8604711
738.38727 1297.0693 4424.6016 9789236
771.51013 1308.7836 4464.561 10051379
791.37866 1297.9819 4427.7144 9459240
820.21112 1302.1038 4441.7749 9853743
838.00146 1288.9849 4397.0234 10314806
876.62964 1307.7426 4461.0103 10775101
907.75208 1314.5331 4484.1743 10511928
929.04938 1307.114 4458.8657 10511928
956.81415 1308.9529 4465.1387 10840381
981.69214 1306.8499 4457.9648 10577209
1005.6843 1303.7087 4447.25 10709051
1037.8574 1311.0626 4472.3354 10511673
1080.078 1330.4266 4538.3906 10643002
1101.4335 1323.7726 4515.6924 10445880
1116.1692 1309.667 4467.5747 10577465
1153.0079 1321.5488 4508.1064 10446134
1178.4608 1320.1379 4503.2939 10248756
1204.8026 1319.7633 4502.0156 10182706
1228.5056 1316.577 4491.1465 10314548
1252.7498 1314.0933 4482.6738 10380085
1265.2942 1299.6949 4433.5581 10445878
1306.608 1314.8328 4485.1968 10577464
1341.0632 1322.603 4511.7026 10380341
1375.0005 1329.5687 4535.4644 10380342
1411.0375 1338.2587 4565.1074 10314549
1405.9253 1308.329 4463.0107 10248755
1433.3461 1309.2201 4466.0503 9919791
1469.689 1318.0807 4496.2759 10117169
1497.6138 1319.2104 4500.1299 10116913
1513.1042 1309.5393 4467.1392 10051376
1539.4097 1309.3995 4466.6626 10117170
1574.1237 1316.296 4490.188 10314548
1583.9128 1302.4672 4443.0146 10380341
1604.8434 1298.1025 4428.126 10248756
1641.4128 1306.3245 4456.1729 10445878
1693.6238 1326.5375 4525.124 10445879
1694.1539 1306.272 4455.9937 10445879
1720.6338 1306.33 4456.1914 10380086
1756.72 1313.5691 4480.8857 10511416
1790.5583 1318.9371 4499.1973 10050864
1801.1417 1307.2689 4459.3945 9853229
1820.3351 1302.097 4441.752 10379830
1854.9425 1307.9412 4461.6875 10445623
1887.4508 1312.1617 4476.085 10380087
1914.7944 1312.7246 4478.0054 10182707
1961.9877 1326.6943 4525.6592 9919536
1976.564 1318.5293 4497.8062 9919536
2011.4506 1323.9498 4516.2969 10248500
2031.0099 1319.2719 4500.3394 9853742
2079.7329 1333.4135 4548.5796 10314293
2092.9207 1324.7013 4518.8604 10577209
2083.8853 1302.321 4442.5161 10511672
2152.0479 1328.1421 4530.5977 10380086
2187.8352 1333.5924 4549.1899 9919279
2210.6802 1331.1172 4540.7466 10445623
2230.9033 1327.1418 4527.1855 9985072
2253.8057 1324.8357 4519.3188 10248244
2282.6208 1326.0188 4523.3545 10249014
2311.7556 1327.3578 4527.9224 10117171
2364.5879 1342.1165 4578.2676 10446136
2378.1021 1334.4771 4552.2075 10511929
2391.7073 1327.0596 4526.9048 10511931
2444.8733 1341.5135 4576.2109 10512187
2439.0161 1323.6196 4515.1704 10446138
2467.4834 1324.5393 4518.3076 10051380
2488.1951 1321.3207 4507.3281 10117430
2543.0303 1336.0986 4557.7393 10380602
2534.5034 1317.6256 4494.7236 10577724
2574.2039 1324.3485 4517.6567 10512187
2610.0403 1328.9655 4533.4062 10511931
2661.394 1341.3088 4575.5122 10775359
2681.3098 1337.7186 4563.2656 10380602
2698.4468 1332.8278 4546.5815 10511931
2701.7642 1321.2753 4507.1733 10248759
2733.0095 1323.473 4514.6704 9854257
2789.4827 1337.7266 4563.2925 9920308
2778.1606 1319.5065 4501.1396 10118199
2813.4927 1323.5809 4515.0386 10381371
2877.1201 1340.7646 4573.6558 9986357
2935.3086 1355.1166 4622.6138 10183992
2929.8005 1340.069 4571.2827 9723185
2962.3384 1342.5393 4579.71 9657393
2988.1978 1341.9658 4577.7534 9657650
2984.8018 1328.3824 4531.4175 9920566
3054.5254 1347.293 4595.9258 9986358
3071.9519 1343.0057 4581.3013 9855027
3089.4866 1338.8408 4567.0933 9592112
3123.9199 1342.0074 4577.8955 9723698
3159.2 1345.4803 4589.7422 9788979
3192.2075 1347.9342 4598.1128 9723188
3238.3494 1355.8457 4625.1011 9525552
3271.0447 1358.0419 4632.5928 9262636
3321.1016 1367.3496 4664.3433 9524782
3356.9966 1370.7209 4675.8438 9919539
3364.2874 1362.4531 4647.6406 9919538
3394.698 1363.6066 4651.5752 9854258
3431.3223 1367.2173 4663.8921 9722671
3472.9531 1372.7491 4682.7627 10248759
3479.6113 1364.4795 4654.5527 9920820
3513.6895 1367.0076 4663.1768 10117943
3522.3801 1359.6962 4638.2358 9986357
3527.7256 1351.2167 4609.3105 9789234
3593.6401 1365.8889 4659.3608 9986357
3610.5542 1361.8551 4645.6006 9920564
3663.7681 1371.4705 4678.4009 9986357
3708.4429 1377.7692 4699.8872 9920820
3717.3381 1370.78 4676.0454 9920565
3702.2893 1355.1301 4622.6602 9854774
3743.7996 1360.2601 4640.1597 9788724
3796.6697 1369.4127 4671.3813 10117945
3815.4795 1366.2365 4660.5464 10052154
3854.354 1370.2393 4674.2007 10249277
3916.8904 1382.5365 4716.1494 9920312
3955.1133 1386.1385 4728.437 9788982
3961.5332 1378.6223 4702.7974 9723189
3977.7825 1374.608 4689.1035 9460017
4003.3369 1373.8427 4686.4927 9262384
4006.7554 1365.5435 4658.1826 8999728
4093.9609 1385.7183 4727.0034 7618074
4113.5088 1382.8738 4717.2998 8013090
4149.1943 1385.4559 4726.1084 7619102
4158.187 1379.1505 4704.5991 7554341
4166.3789 1372.6652 4682.4761 7227183
4311.3813 1411.0413 4813.3857 3544837
4297.0059 1397.0941 4765.8091 919040
4374.1362 1412.8865 4819.6802 4865582
4448.625 1427.626 4869.96 6248265
4455.4497 1420.6014 4845.9976 6379595
4427.3286 1402.5956 4784.5757 7169879
4406.6704 1387.1682 4731.9492 5327168
4437.7949 1388.1334 4735.2417 328962
4510.8706 1402.1263 4782.9746 65536
4527.623 1398.5468 4770.7642 131072
4490.127 1378.3585 4701.8975 131072
0 0 0 0
0 0 0 0
0 0 0 0
0 0 0 0
0 0 0 0
-3292.3579 1087.2842 3635.4919 1280
-3511.3142 1167.2305 3902.804 1280
-3517.1436 1176.9196 3935.2009 1280
-3471.8943 1169.5317 3910.4985 1280
-3424.1836 1161.21 3882.6736 1280
-3377.3652 1153.0802 3855.4905 1280
-3343.7104 1149.3646 3843.0669 1280
-3332.769 1153.459 3856.7573 1280
-3304.1128 1151.4365 3849.9949 1280
-3287.0122 1153.441 3856.697 1536
-3276.3057 1157.7329 3871.0476 1536
-3228.8828 1149.0197 3841.9138 1536
-3203.3003 1148.0099 3838.5374 1536
-3177.9055 1147.0533 3835.3391 1536
-3151.4685 1145.7042 3830.8281 1536
-3139.7224 1149.7152 3844.2393 1536
-3119.4773 1150.6497 3847.3638 1536
-3106.8132 1154.4149 3859.9534 1536
-3089.0786 1156.3379 3866.3831 1536
-3078.6543 1161.0464 3882.127 1280
-3046.2258 1157.4652 3870.1523 1280
-3028.7139 1159.5403 3877.0908 1280
-3002.7595 1158.3903 3873.2456 1280
-2986.5911 1161.0269 3882.0613 1536
-2956.249 1158.1516 3872.4475 1536
-2937.8381 1159.942 3878.4343 1536
-2913.103 1159.2441 3876.1006 1536
-2892.1138 1160.0375 3878.7537 1536
-2868.0576 1159.6036 3877.303 1536
-2841.7441 1158.2429 3872.7529 1536
-2822.0742 1159.5897 3877.2561 1536
-2788.7117 1155.2861 3862.8665 1536
-2767.6125 1156.0338 3865.3665 1536
-2743.5457 1155.5439 3863.7285 1536
-2737.3708 1162.6451 3887.4724 1536
-2735.0688 1171.5258 3917.166 1536
-2702.7505 1167.5912 3904.0105 1536
-2678.2817 1167.0092 3902.0642 1536
-2668.0134 1172.6583 3920.9531 1536
-2633.5906 1167.6969 3904.364 1536
-2602.1997 1164.004 3892.0161 1536
-2575.269 1162.2579 3886.1777 1536
-2561.6833 1166.5575 3900.554 1536
-2537.2061 1165.9303 3898.4565 1536
-2525.2947 1171.119 3915.8059 1536
-2500.4507 1170.3508 3913.2375 1536
-2476.8357 1170.1488 3912.562 1536
-2453.8438 1170.2402 3912.8677 1536
-2424.9673 1167.5001 3903.7058 1536
-2403.8762 1168.4918 3907.0215 1536
-2369.1069 1162.7892 3887.9543 1536
-2357.2734 1168.3424 3906.522 1536
-2339.2344 1170.8994 3915.072 1536
-2313.6104 1169.6732 3910.9719 1536
-2289.3625 1169.1248 3909.1382 1536
-2264.4907 1168.2434 3906.1909 1536
-2238.9873 1167.0144 3902.0818 1536
-2222.3201 1170.4137 3913.4475 1280
-2199.8367 1170.7891 3914.7029 1280
-2180.2129 1172.7107 3921.1279 1280
-2156.927 1172.6826 3921.0342 1280
-2127.0591 1169.0364 3908.8425 1280
-2103.8787 1169.0258 3908.8071 1280
-2081.2493 1169.3247 3909.8064 1280
-2061.1423 1171.0632 3915.6196 1280
-2038.1824 1171.2023 3916.0845 1280
-2013.7473 1170.4869 3913.6924 1280
-1990.375 1170.3799 3913.3345 1536
-1969.8003 1171.9346 3918.5332 1536
-1948.9221 1173.3439 3923.2451 1536
-1929.8435 1175.8835 3931.7371 1536
-1903.0496 1173.7269 3924.5259 1536
-1880.3147 1174.0513 3925.6106 1536
-1861.0801 1176.5967 3934.1216 1536
-1842.5009 1179.6263 3944.2515 1536
-1824.672 1183.2203 3956.2686 1536
-1799.8339 1182.3035 3953.2031 1536
-1779.757 1184.5312 3960.6521 1536
-1756.9208 1184.9579 3962.0784 1536
-1730.5531 1182.9817 3955.4707 1280
-1721.181 1192.7288 3988.0615 1536
-1700.7098 1194.9489 3995.4846 1280
-1682.2604 1198.6721 4007.9341 1280
-1653.912 1195.3478 3996.8184 1024
-1633.7607 1197.9373 4005.4766 132096
-1612.3955 1199.6996 4011.3694 460544
-1618.9656 1222.6112 4087.9775 1249283
-1590.9814 1219.7275 4078.3357 1774601
-1556.5222 1211.7145 4051.5427 1379329
-1524.4849 1205.3651 4030.3127 1313025
-1496.9681 1202.4448 4020.5483 1575683
-1471.7865 1201.3362 4016.8416 1246464
-1462.5229 1213.3977 4057.1709 1508864
-1449.8754 1223.0078 4089.3037 1640448
-1430.4104 1227.0962 4102.9736 1640449
-1388.2579 1211.5266 4050.9146 1706241
-1356.563 1204.696 4028.0759 1705728
-1359.1593 1228.6185 4108.064 1837057
-1337.4603 1231.0513 4116.1982 1837314
-1307.6917 1226.0087 4099.3374 1771265
-1287.5352 1229.9574 4112.541 1639936
-1247.4738 1214.6771 4061.449 1837057
-1233.2012 1224.4004 4093.96 1771264
-1209.1737 1224.6342 4094.7417 1771265
-1177.4602 1216.934 4068.9951 1902593
-1160.7018 1224.6914 4094.9329 1968386
-1137.449 1225.781 4098.5767 1902594
-1113.8583 1226.5465 4101.1357 1705472
-1091.5063 1228.7405 4108.4717 1705472
-1067.6639 1229.3185 4110.4043 1639424
-1039.5992 1224.9484 4095.7922 1902339
-1025.0367 1236.6589 4134.9482 1704960
-998.71924 1234.4141 4127.4419 1639424
-976.94409 1237.8116 4138.8027 1770752
-952.43109 1237.826 4138.8506 1771009
-905.94208 1208.5251 4040.8789 1573632
-899.88214 1233.03 4122.8145 2099459
-869.19788 1224.2202 4093.3577 2099459
-847.92914 1228.5466 4107.8237 2033409
-820.6059 1224.0973 4092.9468 2033666
-793.71674 1220.0442 4079.3945 2033666
-770.40881 1221.4142 4083.9753 2099202
-749.13849 1226.2083 4100.0049 2033666
-723.27545 1223.5541 4091.1306 1836800
-700.47638 1226.0792 4099.5732 1771521
-675.18243 1224.2617 4093.4961 1771521
-650.22156 1222.9351 4089.0608 1771264
-626.24011 1223.4194 4090.6802 1771264
-600.10364 1219.5631 4077.7859 1837057
-576.31165 1220.3478 4080.4094 2034435
-555.97406 1228.8361 4108.7915 1967873
-533.0083 1232.0271 4119.4609 2165250
-507.01639 1228.1937 4106.6436 2165250
-484.65787 1233.2191 4123.4468 2165250
-460.56729 1234.1368 4126.5156 2165250
-435.64563 1232.8057 4122.0645 2296836
-410.9072 1231.8658 4118.9219 2165250
-387.18732 1234.0533 4126.2363 2165251
-363.37601 1236.225 4133.4971 2164994
-340.6431 1242.6444 4154.9614 2099202
-315.02533 1238.7203 4141.8408 2033666
-289.15396 1233.0516 4122.8867 2165251
-263.8815 1229.1266 4109.7627 2296579
-241.45975 1239.0314 4142.8809 2230531
-216.30695 1235.578 4131.334 2164738
-193.01509 1243.2297 4156.9185 2230531
-168.88574 1246.9366 4169.313 2164738
-144.69298 1251.3652 4184.1211 2099201
-120.02068 1252.621 4188.3198 2164993
-95.133385 1251.7021 4185.2476 2164993
-70.086006 1247.2869 4170.4844 2033153
-45.22562 1243.2023 4156.8267 1835776
-20.696623 1249.3517 4177.3882 1967104
4.0358467 1243.1194 4156.5498 2098945
28.726521 1245.7842 4165.46 2296323
53.602589 1250.3104 4180.5938 1967616
78.788292 1256.9149 4202.6772 2295810
103.45786 1254.0908 4193.2344 2295809
128.44649 1255.479 4197.876 2492930
155.02417 1269.4291 4244.52 2624259
180.39186 1270.9594 4249.6367 2624259
206.3629 1275.8451 4265.9727 2821381
230.48134 1269.4604 4244.625 2689795
257.30579 1277.7701 4272.4097 2689795
281.4292 1272.3795 4254.3853 2953221
307.48959 1275.9126 4266.1987 2886915
330.55713 1267.4336 4237.8477 2887172
356.52097 1270.4728 4248.0098 2821122
379.51819 1263.2368 4223.8154 2887172
413.33481 1290.6808 4315.5781 2887173
437.32993 1286.045 4300.0781 3084036
455.29468 1265.1627 4230.2549 3084036
480.6521 1265.9304 4232.8218 3084036
515.87909 1291.3271 4317.7393 3215366
536.30933 1279.0352 4276.6392 3149827
563.51886 1283.2906 4290.8682 3478535
593.45312 1293.1161 4323.7207 3609349
616.33234 1287.3915 4304.5801 3675142
644.1731 1292.0739 4320.2358 3806728
669.07214 1290.7233 4315.7202 3871745
682.67676 1268.4858 4241.3662 4791305
717.2066 1285.3284 4297.6816 5974800
734.9245 1271.9198 4252.8481 9723704
773.91626 1294.9979 4330.0132 10250040
806.10016 1305.5688 4365.3584 10314807
824.32269 1293.5735 4325.2505 10577722
842.8631 1282.7854 4289.1787 10577722
860.28876 1270.9819 4249.7119 10182451
899.88684 1291.6754 4318.9038 10314293
928.63348 1296.0793 4333.6289 10248500
957.92609 1300.9878 4350.041 10380342
984.6499 1302.2416 4354.2334 10709307
1014.3367 1307.25 4370.98 10643515
1044.3861 1312.4648 4388.416 10446136
1076.1046 1319.4727 4411.8481 10446136
1095.5667 1311.4764 4385.1113 11037760
1119.6313 1309.2325 4377.6089 10314292
1145.0117 1308.594 4375.4736 10182706
1174.5367 1312.6156 4388.9204 9919791
1195.4221 1307.017 4370.2007 9525032
1222.3231 1308.0933 4373.7993 10051376
1240.9669 1300.4719 4348.3159 10182962
1276.0333 1310.0205 4380.2432 10248499
1295.8922 1303.8871 4359.7354 10116658
1309.6544 1291.979 4319.9189 10379830
1343.7074 1300.1606 4347.2754 10643258
1358.9965 1290.2202 4314.0381 10380086
1384.6986 1290.3505 4314.4736 9919279
1408.921 1289.1221 4310.3662 10446134
1447.5239 1300.8608 4349.6167 10116913
1460.897 1289.9119 4313.0073 10445878
1505.0461 1306.0465 4366.9556 10248499
1536.9458 1311.1853 4384.1382 10314292
1537.3741 1289.7511 4312.4697 10314037
1570.828 1296.271 4334.2695 10116401
1593.7595 1294.0375 4326.8018 9326884
1625.9281 1299.256 4344.2505 10247986
1646.6428 1295.3019 4331.0293 10314037
1687.2375 1306.8672 4369.6997 10380086
1713.3757 1307.0549 4370.3276 10577465
1730.1417 1300.1937 4347.3862 10906174
1715.4917 1270.2712 4247.3359 10050865
1800.302 1313.7968 4392.8696 10314294
1808.2797 1300.8109 4349.4497 10182708
1833.8113 1300.6401 4348.8789 10248501
1874.9711 1311.4052 4384.873 10314037
1900.9677 1311.415 4384.9062 10182451
1904.1361 1295.8888 4332.9917 10379830
1968.5736 1321.9183 4420.0254 10116915
1976.7225 1309.9623 4380.0488 10445623
2002.9384 1310.1339 4380.6226 10379830
2052.0376 1325.0778 4430.5894 10511416
2054.708 1310.042 4380.3149 10511672
2089.4431 1315.5699 4398.7988 10314293
2121.7708 1319.4648 4411.8218 10116914
2155.1448 1323.9076 4426.6768 10643258
2180.4419 1323.3414 4424.7837 10379830
2201.5603 1320.2828 4414.5571 10511674
2211.2896 1310.5461 4382.001 9985844
2240.9341 1312.7014 4389.2075 8472348
2270.5098 1314.7676 4396.1157 10446394
2297.8884 1315.5289 4398.6616 10446137
2324.0132 1315.5634 4398.7769 10709566
2391.427 1338.7106 4476.1729 10643774
2391.8179 1324.2423 4427.7959 10512187
2397.1663 1312.803 4389.5469 10117173
2446.1841 1325.2679 4431.2256 10051637
2467.7405 1322.7485 4422.8013 10249016
2498.4214 1325.1216 4430.7358 10182966
2515.1665 1320.1306 4414.0479 10249016
2544.6541 1321.8618 4419.8364 10643774
2576.8379 1324.944 4430.1421 10249015
2600.8003 1323.7795 4426.2485 10249015
2621.2966 1320.8915 4416.5923 10248759
2652.7249 1323.515 4425.3643 10183222
2668.925 1318.5637 4408.8091 9985844
2682.0144 1312.1865 4387.4858 9920050
2741.3237 1328.328 4441.457 10643517
2782.4155 1335.4188 4465.1665 10446138
2808.688 1335.3307 4464.8716 10183223
2881.0076 1356.932 4537.0986 10117173
2859.6172 1334.4053 4461.7773 9657392
2879.1868 1331.2297 4451.1592 10052407
2904.1526 1330.5842 4449.001 10315579
2929.6077 1330.1722 4447.6235 10118456
2939.6135 1322.8157 4423.0259 9855027
2978.0049 1328.2496 4441.1948 9920308
3016.6406 1333.6964 4459.4072 10446908
3084.9343 1352.0469 4520.7646 10118199
3080.5762 1338.5143 4475.5161 10117943
3127.4917 1347.3009 4504.8955 9854518
3158.9341 1349.3293 4511.6782 9854517
3185.8325 1349.3992 4511.9116 10117689
3231.5278 1357.3632 4538.5405 9788980
3262.812 1359.1926 4544.6572 9525809
3298.6963 1362.8926 4557.0288 9591345
3308.8076 1355.9707 4533.8843 9723187
3334.7312 1355.5879 4532.6045 9920307
3345.438 1349.075 4510.8276 9854514
3358.251 1343.5079 4492.2134 10052150
3381.6936 1342.2476 4487.999 9920820
3345.6562 1317.5823 4405.5273 9525806
3417.4543 1335.438 4465.2305 9854770
3454.1311 1339.4005 4478.4795 9789234
3511.3074 1351.191 4517.9028 9855027
3548.9026 1355.3248 4531.7251 9789234
3534.7947 1339.7998 4479.8145 9591602
3614.8845 1359.9437 4547.1689 9788724
3524.7107 1316.2094 4400.9365 9723440
3650.2207 1353.0671 4524.1758 9723441
3698.6082 1361.0081 4550.7275 10052406
3669.3508 1340.4691 4482.0527 10381119
3770.209 1367.4171 4572.1572 9394224
3760.9976 1354.3444 4528.4463 9459761
3783.7859 1352.8982 4523.6108 9328431
3796.2344 1347.8013 4506.5688 9722933
3859.0618 1360.5371 4549.1528 9657140
3868.4143 1354.374 4528.5459 9525810
3919.0754 1362.6589 4556.2476 9526068
3949.9302 1363.9908 4560.7012 9329203
3933.6074 1349.124 4510.9917 9066289
4015.1855 1367.8087 4573.4668 9067062
4033.5322 1364.847 4563.564 8804405
3975.1787 1336.144 4467.5913 5187346
4176.5674 1394.5483 4662.8745 12491649
4204.8701 1394.7716 4663.6211 4267789
4161.5806 1371.3998 4585.4736 1180160
4193.7993 1373.0524 4590.9995 3086862
4242.228 1379.9568 4614.0854 1773836
4167.9829 1347.1237 4504.3032 1970181
4297.9429 1380.2888 4615.1958 1643788
4356.3828 1390.2113 4648.373 3551263
4368.4028 1385.2887 4631.9136 4867637
4333.1948 1365.5441 4565.8945 5986377
4246.4087 1329.8914 4446.6846 5921096
0 0 0 0
0 0 0 0
0 0 0 0
0 0 0 0
0 0 0 0
-3441.9209 1159.1969 3800.6428 1280
-3424.4551 1160.9105 3806.261 1280
-3387.2185 1155.8998 3789.8325 1280
-3358.0251 1153.5854 3782.2444 1280
-3323.7537 1149.4836 3768.7961 1280
-3301.0981 1149.371 3768.4265 1536
-3269.2234 1146.0248 3757.4556 1536
-3265.0471 1152.4091 3778.3875 1536
-3232.7795 1148.8982 3766.8762 1536
-3198.1963 1144.5096 3752.4878 1536
-3178.0869 1145.2756 3754.9995 1280
-3142.8855 1140.5757 3739.5894 1536
-3135.884 1146.1151 3757.7517 1536
-3110.2407 1144.8721 3753.6763 1536
-3101.1965 1149.7651 3769.719 1536
-3080.4236 1150.3492 3771.634 1536
-3068.978 1154.4506 3785.0811 1536
-3054.8694 1157.6031 3795.4172 1280
-3032.3669 1157.5981 3795.4009 1280
-3014.0784 1159.2137 3800.698 1280
-2990.4912 1158.8005 3799.343 1280
-2970.5425 1159.8015 3802.6252 1280
-2947.5942 1159.6378 3802.0884 1280
-2912.5588 1154.6797 3785.832 1280
-2888.0327 1153.8431 3783.0896 1536
-2859.0232 1151.1884 3774.3855 1536
-2834.1689 1150.1781 3771.073 1536
-2808.0212 1148.6227 3765.9731 1536
-2786.2744 1148.8569 3766.7412 1536
-2773.979 1153.0236 3780.4021 1536
-2748.4744 1151.7227 3776.1372 1536
-2727.7605 1152.4246 3778.4382 1536
-2710.9214 1154.7886 3786.1892 1536
-2687.9712 1154.5671 3785.4631 1536
-2671.2932 1157.0588 3793.6326 1536
-2660.4062 1162.1223 3810.2341 1536
-2644.199 1164.9287 3819.4353 1536
-2622.5593 1165.3695 3820.8806 1536
-2604.3445 1167.353 3827.3843 1536
-2582.8025 1167.8672 3829.0698 1536
-2549.6389 1163.0887 3813.4028 1536
-2523.5059 1161.4607 3808.0652 1536
-2495.0095 1158.7059 3799.033 1536
-2482.3362 1163.3162 3814.1484 1536
-2459.0537 1162.9934 3813.0903 1536
-2435.199 1162.3917 3811.1174 1536
-2413.5569 1162.8447 3812.6028 1536
-2383.8115 1159.3652 3801.1948 1536
-2361.825 1159.6289 3802.0593 1536
-2337.1599 1158.5699 3798.5872 1536
-2319.3071 1160.9003 3806.2275 1536
-2303.103 1164.1095 3816.7495 1280
-2287.3171 1167.5958 3828.1802 1280
-2264.2256 1167.3856 3827.4907 1280
-2243.7661 1168.5416 3831.2812 1536
-2214.8616 1165.2783 3820.582 1536
-2192.7527 1165.5598 3821.5046 1280
-2165.1802 1162.9127 3812.8259 1280
-2141.5229 1162.3348 3810.9309 1280
-2123.0352 1164.5803 3818.2932 1280
-2098.884 1163.7341 3815.519 1280
-2075.4509 1163.272 3814.0037 1280
-2054.2708 1164.0762 3816.6404 1280
-2021.7328 1158.3906 3797.9993 1280
-2007.1708 1162.9928 3813.0884 1280
-1984.0465 1162.6821 3812.0696 1280
-1963.504 1163.8947 3816.0452 1280
-1939.4445 1163.0265 3813.1985 1280
-1917.0289 1163.1351 3813.5549 1280
-1906.5598 1170.5812 3837.9683 1280
-1888.2021 1173.3053 3846.8997 1536
-1867.2838 1174.4854 3850.7688 1536
-1851.2036 1178.7753 3864.8342 1536
-1829.0541 1179.2595 3866.4219 1536
-1803.7091 1177.6698 3861.2097 1536
-1781.0587 1177.821 3861.7056 1536
-1762.991 1181.0464 3872.2805 1536
-1739.5044 1180.6786 3871.0745 1536
-1714.3442 1179.15 3866.0627 1280
-1695.7853 1182.1819 3876.0032 1280
-1677.6323 1185.5839 3887.1572 1280
-1666.4153 1194.0504 3914.9165 1280
-1638.6465 1190.7285 3904.0251 1024
-1617.4054 1192.123 3908.5972 67072
-1577.199 1179.3762 3866.8044 132096
-1585.2742 1202.8893 3943.8962 591872
-1573.8783 1212.1105 3974.1296 854016
-1548.6013 1210.7589 3969.6982 1313794
-1530.4639 1215.0338 3983.7144 1641988
-1501.6929 1210.8682 3970.0569 1641218
-1468.9451 1203.3127 3945.2844 1509633
-1439.5242 1198.282 3928.7903 1443840
-1413.7051 1196.1333 3921.7456 1508864
-1420.2037 1221.7137 4005.616 1574656
-1395.8909 1221.2081 4003.9583 1706243
-1369.4365 1218.7791 3995.9941 1706242
-1350.2987 1222.8909 4009.4751 1837315
-1319.5861 1216.4792 3988.4539 1771522
-1291.2986 1212.1105 3974.1299 1771522
-1270.6664 1214.8986 3983.271 1705729
-1248.2098 1216.015 3986.9314 1639936
-1214.796 1206.2938 3955.0588 1903107
-1200.4161 1215.4628 3985.1211 1771521
-1180.1466 1218.9165 3996.4446 1639936
-1152.6454 1214.8896 3983.2417 1705216
-1131.7385 1217.7899 3992.751 1770753
-1104.2072 1213.5339 3978.7966 1836802
-1078.222 1210.8284 3969.9263 1704960
-1063.5658 1221.0081 4003.3022 1836546
-1044.5195 1226.4974 4021.3003 1639424
-1013.666 1218.0551 3993.6204 1771009
-984.83508 1211.6979 3972.7769 1442048
-961.13727 1211.4993 3972.1257 1705216
-947.67975 1224.5225 4014.8247 1836802
-911.49463 1208.0933 3960.9587 1836801
-889.8833 1210.6223 3969.2505 1902850
-869.77301 1215.386 3984.8691 1968643
-848.01996 1218.0562 3993.6235 2165252
-825.8587 1220.2761 4000.9026 2230788
-801.86987 1219.8474 3999.4968 2033409
-777.23438 1218.3789 3994.6816 1836288
-753.11615 1217.6543 3992.3062 2033923
-729.58716 1217.8663 3993.0012 1639680
-704.50739 1215.4171 3984.9712 1639680
-679.99841 1213.8169 3979.7249 1573888
-656.8537 1214.6246 3982.373 1837057
-632.50476 1213.1826 3977.645 2296325
-609.35638 1214.021 3980.3938 2230788
-589.53387 1221.8197 4005.9634 2033666
-562.35706 1214.3914 3981.6079 2033667
-546.63531 1232.1327 4039.7761 2165252
-522.76849 1232.2987 4040.3208 2033923
-496.72906 1227.1136 4023.3203 2033923
-472.28815 1225.5537 4018.2058 2099459
-449.75815 1229.0502 4029.6699 2099713
-426.81873 1231.757 4038.5447 2164995
-401.21066 1226.6266 4021.7236 2099458
-376.98013 1225.3259 4017.459 2296838
-353.33975 1225.8972 4019.3323 2033666
-326.4682 1214.5305 3982.0642 2099459
-306.40399 1228.6906 4028.4905 2164483
-282.93195 1230.423 4034.1707 2164738
-259.01184 1230.3469 4033.9211 2230531
-235.6588 1233.2228 4043.3501 2164481
-213.99655 1246.599 4087.2065 2098945
-188.53658 1238.4431 4060.4661 2033153
-165.59137 1246.8362 4087.9846 2230532
-140.25255 1236.9944 4055.7163 2296068
-115.14771 1225.5729 4018.269 1835776
-92.353607 1239.2024 4062.9556 2098689
-68.339272 1240.297 4066.5444 2098945
-44.243362 1240.297 4066.5444 2033153
-20.127079 1239.0427 4062.4321 2033152
3.9701138 1247.1005 4088.8508 2164737
28.120428 1243.661 4077.5742 2098945
52.310047 1244.3356 4079.7856 1967616
76.651062 1247.0466 4088.6746 2295809
100.96649 1248.1394 4092.2573 2230016
125.95111 1255.4794 4116.3228 2295809
150.13797 1253.7756 4110.7368 2361345
174.23271 1251.8857 4104.5405 2361601
200.71822 1265.5327 4149.2847 2624259
224.95541 1263.5726 4142.8579 2426881
248.92459 1260.6406 4133.2451 2624259
272.19363 1255.006 4114.7705 2755330
296.83856 1256.12 4118.4233 2821379
323.6004 1265.3423 4148.6602 2821379
348.3176 1265.8319 4150.2656 2821122
374.09006 1269.8389 4163.4033 2755586
397.04407 1264.375 4145.4888 2821379
423.83514 1271.0547 4167.3896 2821379
446.49808 1265.3007 4148.5234 2952452
468.95776 1259.6011 4129.8364 3215622
494.35117 1261.9558 4137.5571 3084036
521.4436 1268.2205 4158.0967 3149570
548.83221 1274.6075 4179.0381 3215106
574.57666 1276.7896 4186.1924 3543558
601.22284 1280.7119 4199.0522 3543558
627.21967 1282.9941 4206.5352 3280386
652.12323 1282.9513 4206.3945 3346179
676.13599 1281.2235 4200.7295 3740421
694.64764 1269.5643 4162.5029 4133891
735.94934 1298.9285 4258.7788 4856837
749.5686 1279.1068 4193.7896 7552797
775.17383 1280.3542 4197.8799 9328428
800.43951 1280.981 4199.9346 10117428
822.48053 1276.5649 4185.4556 10577722
851.87054 1283.4796 4208.127 10183220
881.21655 1289.9368 4229.2979 10249013
901.87122 1283.6661 4208.7383 10183221
926.87689 1283.7592 4209.0435 10117172
964.00793 1300.2013 4262.9521 10116916
976.64374 1283.6099 4208.5537 10117172
1009.7332 1294.0573 4242.8076 10182707
1041.5531 1302.4098 4270.1929 10248501
1065.2186 1300.4113 4263.6401 10248501
1096.0492 1307.0497 4285.4058 10248756
1128.2584 1314.9944 4311.4536 10314292
1144.5845 1304.4851 4276.9971 10248500
1177.7511 1313.2087 4305.5991 10511672
1203.4407 1313.402 4306.2329 9656107
1209.5138 1292.623 4238.105 10051122
1234.6759 1292.6749 4238.2754 10248501
1258.7874 1291.6469 4234.9043 9985329
1279.6816 1287.4222 4221.0532 10116914
1314.6599 1297.257 4253.2983 10577465
1331.7286 1289.382 4227.4785 10248244
1344.8187 1278.0166 4190.2153 9919279
1368.4321 1276.8826 4186.4971 9985072
1397.01 1280.3389 4197.8291 10445623
1423.5867 1281.8722 4202.8564 9919279
1466.7384 1298.0212 4255.8042 10248501
1482.3276 1289.6445 4228.3398 10248244
1496.6531 1280.4653 4198.2437 10379831
1537.1273 1293.5919 4241.2817 10380087
1566.4597 1297.0706 4252.687 10314294
1588.1991 1294.2513 4243.4438 10511416
1601.3374 1284.62 4211.8657 10314037
1658.9541 1310.4183 4296.4502 10182707
1667.2681 1297.0804 4252.7197 10708795
1671.8854 1281.307 4201.0034 10511416
1690.2463 1276.3748 4184.832 9853742
1746.2047 1299.5659 4260.8687 10116913
1772.059 1300.0111 4262.3281 10051121
1787.807 1293.1338 4239.7798 9919279
1802.3077 1285.5576 4214.9399 9656363
1813.8871 1276.1332 4184.04 9919536
1872.0862 1299.3193 4260.0601 9853742
1875.6194 1284.4524 4211.3159 9656363
1898.8013 1283.2548 4207.3896 10116915
1936.4604 1291.7457 4235.229 9985072
1960.991 1291.3737 4234.0088 9985072
2016.0334 1310.8503 4297.8667 10050865
2012.3752 1292.1493 4236.5518 9853742
2040.1769 1293.8606 4242.1626 9919279
2085.4202 1306.4569 4283.4619 9919536
2114.7776 1308.9178 4291.5308 9195812
2099.9197 1284.2792 4210.748 9722156
2145.4651 1296.7268 4251.5601 10380858
2162.8789 1292.08 4236.3247 10775103
2218.0735 1309.8508 4294.5898 9985843
2222.5007 1297.5786 4254.353 10248758
2244.5881 1295.7766 4248.4448 10314551
2316.9934 1322.7406 4336.8511 10248759
2320.7036 1310.326 4296.1475 10248759
2357.4692 1316.6422 4316.8564 10249016
2381.1704 1315.6045 4313.4541 9985587
2405.0906 1314.7086 4310.5171 10117173
2437.0229 1318.1654 4321.8506 10249016
2462.4446 1318.0653 4321.5225 10183222
2477.5645 1312.5098 4303.3076 10314809
2496.0298 1308.8217 4291.2153 10446138
2529.7737 1313.1387 4305.3696 10446395
2557.8555 1314.4598 4309.7012 10446394
2587.8865 1316.7465 4317.1982 10380345
2624.8464 1322.4795 4335.9951 10249015
2638.5471 1316.4963 4316.3779 10117429
2672.3318 1320.5526 4329.6772 10051637
2689.7336 1316.5129 4316.4326 9854001
2770.926 1343.478 4404.8428 10051380
2751.4402 1321.5819 4333.0522 10182965
2815.147 1339.6807 4392.3921 9919539
2859.3396 1348.2462 4420.4761 9591599
2861.4158 1336.9777 4383.5303 10118199
2879.1638 1333.1688 4371.042 10315322
2875.9443 1319.8053 4327.2275 9920820
2930.4197 1332.921 4370.2295 10249785
2955.1873 1332.4126 4368.5625 10381115
3003.031 1342.2269 4400.7407 9985589
3027.0674 1341.3231 4397.7773 9788209
3049.1521 1339.5771 4392.0532 10182967
3076.949 1340.3492 4394.5845 9985590
3117.8848 1346.7838 4415.6812 9986103
3142.7629 1346.2325 4413.874 10117946
3153.3284 1339.6102 4392.1616 10381116
3147.896 1326.3556 4348.7036 9920566
3207.7998 1340.6219 4395.4785 9788979
3237.2253 1342.0233 4400.0732 9855028
3270.9539 1345.1721 4410.397 9854772
3255.8218 1328.3363 4355.1978 9788979
3316.6147 1342.4982 4401.6299 9788981
3309.7305 1329.2584 4358.2212 9459246
3385.7141 1349.2476 4423.7593 9590831
3372.3521 1333.5978 4372.4482 9656369
3423.573 1343.5312 4405.0171 9722931
3469.0293 1351.0692 4429.7319 9788725
3466.1772 1339.821 4392.8525 9657396
3491.3176 1339.4799 4391.7339 9591604
3531.0505 1344.7009 4408.8521 9591604
3552.9055 1343.087 4403.561 9460018
3499.0229 1313.0748 4305.1602 9657139
3632.6755 1353.3638 4437.2549 9788982
3634.2854 1344.2341 4407.3218 9920310
3665.9167 1346.2599 4413.9634 9722931
3686.5708 1344.2543 4407.3877 9788726
3684.6401 1334.0996 4374.0938 9591604
3726.0588 1339.6726 4392.3657 9525554
3745.9485 1337.4813 4385.1816 9394225
3766.5801 1335.5835 4378.959 9196848
3822.874 1346.2706 4413.9985 9526325
3825.1711 1337.9259 4386.6392 9394738
3840.8269 1334.3347 4374.8647 9394738
3866.7305 1334.3282 4374.8433 9066032
3797.2905 1301.6398 4267.668 9263927
3893.167 1325.676 4346.4756 7487519
3938.5588 1332.3188 4368.2554 7620396
4028.9316 1353.9917 4439.3135 6569003
4117.4937 1374.7786 4507.4673 1573633
4160.2939 1380.1167 4524.9692 3350034
4082.5898 1345.667 4412.0195 2628367
4187.1426 1371.3473 4496.2173 3220249
4200.9771 1367.1792 4482.5513 2299406
4330.3994 1400.4443 4591.6172 2497809
4335.0107 1393.1825 4567.8081 4405290
4203.6733 1342.5907 4401.9336 5194805
0 0 0 0
0 0 0 0
0 0 0 0
0 0 0 0
0 0 0 0
-3168.0466 1087.6877 3498.2249 1280
-3163.5737 1093.3055 3516.293 1280
-3267.2339 1136.6155 3655.5864 1536
-3283.2949 1149.8258 3698.0735 1536
-3260.6277 1149.5598 3697.2178 1536
-3240.4888 1150.1876 3699.2368 1280
-3212.4189 1147.9896 3692.168 1024
-3177.0444 1143.1333 3676.5491 1280
-3175.595 1150.5007 3700.2441 1280
-3142.6589 1146.4839 3687.3252 1280
-3120.2139 1146.265 3686.6211 1280
-3103.1167 1148.0212 3692.2698 1280
-3079.7749 1147.476 3690.5159 1536
-3065.6028 1150.3638 3699.8037 1536
-3053.051 1153.9055 3711.1948 1536
-3030.4475 1153.6721 3710.4441 1280
-3014.5935 1156.0237 3718.0068 1536
-2991.0835 1155.4521 3716.1687 1280
-2964.3948 1153.6351 3710.325 1280
-2950.7427 1156.9023 3720.833 1280
-2920.1987 1153.5459 3710.0381 1280
-2892.366 1151.2179 3702.5505 1280
-2879.4302 1154.8287 3714.1638 1280
-2856.022 1154.2628 3712.3435 1536
-2829.4329 1152.3926 3706.3286 1536
-2807.6523 1152.4668 3706.5674 1536
-2779.45 1149.8855 3698.2654 1536
-2755.9688 1149.2318 3696.1631 1536
-2741.4163 1152.3208 3706.0979 1536
-2714.187 1150.0881 3698.917 1536
-2695.7004 1151.5538 3703.6311 1536
-2675.2214 1152.1853 3705.6621 1536
-2658.6494 1154.524 3713.1838 1536
-2639.3889 1155.7245 3717.0449 1536
-2615.854 1155.0577 3714.9004 1536
-2602.6479 1158.9792 3727.5127 1536
-2580.4343 1158.9224 3727.3298 1536
-2556.1135 1157.91 3724.074 1536
-2527.0574 1154.7162 3713.8018 1536
-2514.1104 1158.8918 3727.2317 1536
-2485.0693 1155.6572 3716.8284 1536
-2463.9609 1156.0867 3718.2097 1536
-2445.5725 1157.8116 3723.7573 1536
-2427.2622 1159.6052 3729.5261 1536
-2394.5425 1154.4847 3713.0574 1536
-2377.5837 1156.9384 3720.949 1536
-2350.7231 1154.5747 3713.3467 1536
-2333.4973 1156.9434 3720.9648 1536
-2303.7007 1153.0649 3708.4915 1536
-2290.6028 1157.5505 3722.9177 1536
-2270.8264 1158.7158 3726.6655 1280
-2252.9033 1160.8589 3733.5579 1280
-2231.8311 1161.4054 3735.3157 1280
-2212.9502 1163.1149 3740.8137 1280
-2196.1748 1165.9767 3750.0181 1280
-2171.2432 1164.5225 3745.3408 1280
-2149.1736 1164.5892 3745.5557 1280
-2128.8997 1165.6405 3748.9365 1280
-2103.9817 1164.1443 3744.1248 1280
-2071.5786 1158.4305 3725.748 1280
-2047.915 1157.5336 3722.8633 1280
-2017.4154 1152.7109 3707.3528 1280
-1993.4794 1151.5739 3703.6956 1280
-1976.2319 1154.3184 3712.5222 1280
-1958.8866 1157.0667 3721.3613 1280
-1938.0316 1157.7809 3723.6587 1280
-1921.0885 1160.8754 3733.6113 1280
-1898.2944 1160.4653 3732.2922 1280
-1884.1882 1165.4191 3748.2246 1280
-1864.3043 1166.8749 3752.9067 1280
-1840.9916 1166.1937 3750.7161 1280
-1825.9064 1170.7715 3765.439 1536
-1812.1207 1176.306 3783.2393 1536
-1790.741 1176.988 3785.4324 1536
-1771.3695 1179.0238 3791.9802 1280
-1746.3602 1177.3113 3786.4724 1536
-1722.8522 1176.5793 3784.1182 1536
-1698.3186 1175.1187 3779.4202 1536
-1676.0176 1175.1842 3779.6313 1536
-1660.6758 1180.1973 3795.7544 1280
-1627.8306 1172.738 3771.7639 1280
-1615.6375 1180.1567 3795.6238 1024
-1583.8234 1173.2501 3773.4109 768
-1559.0239 1171.4164 3767.5132 197888
-1583.0488 1206.7478 3881.1462 1118723
-1554.9198 1202.7783 3868.3796 985856
-1522.6592 1195.4464 3844.7986 1116416
-1519.7863 1211.3145 3895.8335 1445123
-1495.2723 1210.1576 3892.1125 1378816
-1461.9514 1201.725 3864.9917 1246720
-1441.0436 1203.39 3870.3467 1443840
-1423.8665 1208.2745 3886.0566 1377792
-1393.9281 1202.3129 3866.8826 1443072
-1380.0973 1210.2773 3892.4978 1508864
-1348.8024 1202.937 3868.8901 1574656
-1339.0115 1214.8531 3907.2146 1574657
-1304.6492 1204.5032 3873.9268 1574144
-1295.2622 1217.2537 3914.9351 1705729
-1270.9886 1216.224 3911.6235 1771522
-1246.7208 1215.1616 3908.2068 1639680
-1223.5093 1215.1082 3908.0349 1705729
-1206.1372 1220.9639 3926.8679 1771522
-1182.7317 1220.8223 3926.4124 1639936
-1153.0148 1214.0295 3904.5657 1639937
-1133.0957 1217.4861 3915.6826 1771265
-1117.1622 1225.4594 3941.3262 1639936
-1092.9641 1224.5135 3938.2842 1837058
-1067.8044 1222.4257 3931.5693 1771009
-1045.2257 1223.2653 3934.2695 1902595
-1012.6459 1212.1715 3898.5898 1771009
-997.87958 1222.381 3931.4255 1705216
-971.84723 1218.9481 3920.3845 1639424
-948.47626 1218.7667 3919.8013 1705216
-919.28827 1210.9138 3894.5452 1573632
-897.00684 1211.9884 3898.001 1902339
-880.11798 1220.5985 3925.6926 1705216
-854.55273 1217.3165 3915.1372 1837057
-834.56384 1222.0166 3930.2537 2034180
-807.31818 1216.0558 3911.0825 1968387
-781.28613 1211.6246 3896.8311 1837057
-757.66809 1210.7812 3894.1184 1639424
-736.32129 1213.6284 3903.2756 1836802
-712.78949 1212.942 3901.0681 1836802
-695.05853 1222.4119 3931.5249 1573632
-672.39343 1223.5596 3935.2163 1704960
-644.42798 1214.7982 3907.0381 1705217
-619.64935 1211.6152 3896.8008 1705217
-594.7934 1208.0288 3885.2664 1508096
-577.58807 1220.3179 3924.79 1705472
-552.22754 1215.6847 3909.8889 1837058
-528.92804 1215.3816 3908.9143 1771264
-498.52728 1197.9865 3852.9675 2034436
-482.41693 1214.9099 3907.3972 1968643
-461.65793 1221.2427 3927.7646 1968642
-438.9964 1222.9476 3933.248 1903106
-410.83859 1208.6742 3887.3416 1968641
-388.1254 1209.6741 3890.5576 2099457
-368.38321 1220.6449 3925.842 2033665
-346.40121 1225.1727 3940.4045 2099457
-323.7543 1227.8335 3948.9619 2099456
-299.03659 1222.4434 3931.6265 1967617
-274.05896 1214.9902 3907.6555 2033666
-253.56349 1227.8661 3949.0669 2033666
-228.47781 1218.8724 3920.1414 2099459
-206.47771 1226.1666 3943.6013 1967873
-182.80786 1224.1416 3937.0881 2033666
-159.74284 1226.1665 3943.6006 2033666
-136.71458 1229.2161 3953.4084 2165252
-112.79652 1223.8718 3936.2205 2033666
-89.651039 1226.3096 3944.0605 2033666
-66.508453 1230.5198 3957.6013 2033666
-43.228161 1235.3802 3973.2339 1967873
-19.643194 1232.7471 3964.7651 1967360
3.8480721 1232.2477 3963.1589 2033410
27.302168 1230.9307 3958.9231 2098945
51.115448 1239.541 3986.616 2098945
74.97435 1243.4652 3999.2366 2098944
98.781464 1244.8518 4003.6963 2362116
122.32348 1243.0074 3997.7646 2427909
146.43124 1246.5779 4009.2478 2230530
170.65862 1250.0276 4020.3428 2295809
194.26431 1248.6364 4015.8682 2230016
217.36879 1244.6788 4003.1401 2624774
241.79384 1248.3176 4014.843 2558981
265.22351 1246.626 4009.4026 2492929
289.23871 1247.7385 4012.9807 2558466
311.85049 1243.0878 3998.0229 2755845
337.83932 1251.6046 4025.4148 2689795
363.41873 1257.5815 4044.6377 2755331
388.57651 1261.4501 4057.0798 2689795
412.47623 1261.0219 4055.7024 2821379
437.85715 1264.9197 4068.2385 3018758
460.19733 1260.0847 4052.6885 3018245
484.84213 1261.7268 4057.9697 2952452
511.70889 1268.7228 4080.4702 3149830
535.04919 1266.7384 4074.0881 3215365
561.44165 1271.8396 4090.4946 3018243
584.29364 1268.8302 4080.8157 3281415
611.56787 1275.2815 4101.5645 3215622
629.57959 1262.6631 4060.981 3215366
660.74091 1276.3752 4105.082 3346693
685.60144 1277.3745 4108.2959 3346693
701.04498 1261.3616 4056.7949 3674886
726.43695 1263.7166 4064.3694 3739649
749.25775 1261.5912 4057.5337 4856838
759.01184 1238.2806 3982.562 7552801
794.35242 1256.8597 4042.3162 9394481
830.39661 1275.432 4102.0483 10315321
853.46954 1273.5917 4096.1294 10117942
886.81873 1286.7637 4138.4932 10052150
911.03967 1286.3383 4137.125 9656879
934.08624 1284.3203 4130.6353 8998948
958.59131 1284.3596 4130.7617 9196328
983.22968 1284.5713 4131.4424 9920050
1017.3734 1296.8895 4171.0601 10182708
1041.9017 1296.657 4170.312 9919536
1060.754 1289.5349 4147.4062 10050865
1086.2733 1290.6569 4151.0146 9985071
1105.3716 1284.2688 4130.4697 9787948
1135.1765 1290.3276 4149.9556 10182962
1150.7587 1280.3055 4117.7227 10248500
1161.4811 1265.405 4069.7998 10445623
1192.5057 1272.7795 4093.5176 10182451
1212.514 1268.3367 4079.2285 10116658
1241.5455 1273.3214 4095.2603 10314037
1262.2338 1269.7224 4083.6851 10379830
1287.9106 1271.1825 4088.3813 10116658
1302.8462 1262.1827 4059.4363 9919279
1329.9128 1265.0487 4068.6536 9919536
1352.6357 1263.7543 4064.4905 10182451
1374.6838 1261.8855 4058.4805 9985072
1424.4252 1285.0651 4133.0303 10182451
1431.196 1269.3499 4082.4871 10116915
1478.5243 1289.53 4147.3906 10051122
1480.1539 1269.845 4084.0793 9853487
1518.7229 1281.9741 4123.0894 10116915
1543.1538 1281.9741 4123.0894 10116915
1566.4109 1281.014 4120.0015 10643002
1598.2975 1287.0325 4139.3579 10379830
1621.4993 1285.9813 4135.9771 10380086
1645.0853 1285.2615 4133.6621 10643002
1679.0903 1292.5834 4157.2109 10248244
1695.7155 1286.5079 4137.6709 9919535
1739.4088 1300.849 4183.7949 9985329
1754.2408 1293.506 4160.1782 9853486
1776.491 1291.7604 4154.564 9787693
1803.222 1293.2762 4159.4395 10445879
1818.8424 1286.89 4138.8999 10182708
1818.1923 1269.3151 4082.3752 10116658
1859.4181 1281.0522 4120.124 10116914
1896.5985 1289.7341 4148.0469 9985328
1916.6053 1286.6648 4138.1753 10051122
1947.9832 1291.2102 4152.7944 10116658
1969.0667 1288.9038 4145.3765 10182708
1973.9489 1276.1799 4104.4541 9853743
2007.3926 1282.0063 4123.1929 9656363
2040.6423 1287.5703 4141.0879 9853486
2056.0654 1281.8878 4122.8115 9853742
2082.6973 1283.2449 4127.1763 9853742
2129.4102 1296.7998 4170.7715 9787949
2157.6462 1298.9203 4177.5918 9919793
2153.4053 1281.6631 4122.0889 9656620
2190.9998 1289.4135 4147.0156 10182966
2209.542 1285.9038 4135.728 9788465
2245.4382 1292.46 4156.814 9920051
2298.4993 1308.6467 4208.874 9788208
2300.3699 1295.6537 4167.0854 9722671
2332.7971 1299.9642 4180.9492 10117430
2357.4058 1299.8732 4180.6562 10380601
2386.8989 1302.4493 4188.9419 10248759
2419.8132 1306.8201 4202.999 10117430
2460.21 1315.1014 4229.6333 10051636
2469.2212 1306.6079 4202.3164 10249015
2486.856 1302.8016 4190.0747 10314809
2517.9065 1306.0293 4200.4556 10643773
2555.3469 1312.4758 4221.189 10775360
2549.729 1296.896 4171.0811 10380602
2596.8496 1308.1829 4207.3818 10249015
2626.5547 1310.5652 4215.0439 10446395
2689.2976 1329.2323 4275.0811 9985843
2714.6252 1329.2303 4275.0747 10249015
2767.0386 1342.3684 4317.3296 9525037
2798.1106 1345.0074 4325.8174 10314808
2833.9595 1349.8739 4341.4688 10117172
2846.1599 1343.4899 4320.9365 9261864
2863.4998 1339.6239 4308.5029 10116917
2857.0447 1324.793 4260.8032 10183223
2884.0088 1325.5823 4263.3418 10248760
2915.3665 1328.3596 4272.2744 10052406
2946.7546 1331.1029 4281.0977 9788464
2961.9468 1326.5459 4266.4414 9722414
2974.2578 1320.7865 4247.918 9985334
3025.3708 1332.2102 4284.6587 9919540
3042.6111 1328.6521 4273.2153 10446141
3069.6309 1329.3881 4275.582 10248504
3099.1699 1331.1941 4281.3906 10182966
3115.3462 1327.2775 4268.7939 9591345
3148.6621 1330.6675 4279.6973 9722931
3132.0518 1313.0725 4223.1079 9460016
3185.8792 1325.0524 4261.6377 9131050
3200.4136 1320.6299 4247.4141 9591856
3264.3481 1336.502 4298.4619 9920310
3276.0935 1330.9263 4280.5293 9788980
3313.3916 1335.7374 4296.0029 9591602
3326.8582 1330.941 4280.5767 9393966
3329.3225 1321.849 4251.335 9722675
3389.3667 1335.583 4295.5063 9854003
3427.771 1340.6488 4311.7988 8274715
3448.8818 1338.9255 4306.2568 9525039
3471.7554 1337.9072 4302.9814 9393454
3499.3533 1338.7109 4305.5664 9065001
3533.8054 1342.1062 4316.4863 9327660
3550.3621 1338.7051 4305.5474 9393711
3589.686 1343.8759 4322.1777 9460018
3610.9016 1342.2422 4316.9233 9328432
3599.4636 1328.5789 4272.9795 9657140
3604.9573 1321.3121 4249.6084 9591603
3618.1772 1316.9587 4235.6069 9591347
3664.7939 1324.7374 4260.6245 9460530
3691.1125 1325.1226 4261.8633 9855032
3683.6772 1313.4669 4224.3765 9723702
3723.6296 1318.7515 4241.3726 9592117
3749.6216 1319.0538 4242.3452 9263410
3746.2104 1309.0779 4210.2603 8803116
3742.4236 1299.1033 4178.1802 8803375
3777.5854 1302.6912 4189.7197 8342570
3792.208 1299.1958 4178.4775 7751724
3866.616 1316.095 4232.8286 6766634
3990.9646 1349.6652 4340.7974 1376769
4010.8235 1347.6954 4334.4624 1706753
4072.5908 1359.7429 4373.2095 4668976
4121.2344 1367.2842 4397.4639 4207913
4124.5938 1359.8013 4373.397 1576713
4141.603 1356.8838 4364.0142 327937
4087.6301 1330.8915 4280.4175 393216
0 0 0 0
0 0 0 0
0 0 0 0
0 0 0 0
0 0 0 0
0 0 0 0
-3145.7117 1107.8503 3496.4392 1280
-3258.9143 1155.3269 3646.2778 1280
-3247.9077 1159.1095 3658.2158 1280
-3216.9604 1155.7787 3647.7036 1536
-3199.6201 1157.3246 3652.5825 1536
-3182.1328 1158.8378 3657.3586 1536
-3147.6621 1154.1448 3642.5471 1536
-3128.0754 1154.882 3644.8738 1536
-3111.7222 1156.8315 3651.0266 1536
-3089.238 1156.5133 3650.0222 1280
-3063.5452 1154.9807 3645.1853 1280
-3031.2542 1150.9213 3632.3733 1280
-3018.0095 1154.0869 3642.3643 1280
-2986.8206 1150.387 3630.687 1280
-2965.459 1150.4458 3630.8728 1280
-2946.9587 1151.6237 3634.5903 1280
-2928.6299 1152.8864 3638.5754 1280
-2905.8467 1152.4011 3637.0442 1280
-2881.0266 1151.0952 3632.9224 1280
-2863.1584 1152.5679 3637.5701 1280
-2841.0688 1152.3506 3636.8845 1280
-2821.6399 1153.2175 3639.6204 1280
-2804.6204 1155.09 3645.5303 1536
-2769.7061 1149.5645 3628.0913 1536
-2754.5913 1152.2346 3636.5183 1536
-2736.9241 1153.8706 3641.6816 1536
-2723.4551 1157.3165 3652.5574 1280
-2702.7703 1157.7269 3653.8525 1280
-2679.9224 1157.21 3652.2207 1280
-2649.1116 1153.2181 3639.6226 1280
-2624.6152 1151.932 3635.5635 1536
-2609.116 1154.6062 3644.0034 1536
-2589.7683 1155.6078 3647.1643 1536
-2571.4744 1157.1003 3651.8748 1536
-2556.7649 1160.2449 3661.7991 1536
-2539.5022 1162.2745 3668.2051 1536
-2515.4561 1161.208 3664.8389 1536
-2494.8381 1161.7191 3666.4521 1536
-2469.8584 1160.1903 3661.627 1536
-2452.8315 1162.4034 3668.6118 1536
-2423.0647 1158.5645 3656.4956 1536
-2417.8237 1166.4888 3681.5056 1536
-2395.7415 1166.3585 3681.0942 1536
-2373.6543 1166.2233 3680.6675 1536
-2354.4641 1167.5221 3684.7664 1536
-2329.0623 1165.7361 3679.1299 1536
-2296.7524 1160.4263 3662.3718 1280
-2280.1479 1163.0258 3670.5759 1280
-2259.0498 1163.3613 3671.635 1280
-2245.2708 1167.5092 3684.7258 1280
-2220.6707 1166.0565 3680.1411 1280
-2197.5908 1165.381 3678.0093 1024
-2173.9795 1164.4075 3674.9368 1280
-2159.4458 1168.3256 3687.3022 1280
-2129.3979 1163.8442 3673.1592 1280
-2114.8196 1167.8126 3685.6838 1280
-2090.064 1166.1854 3680.5481 1280
-2068.1147 1166.1062 3680.2981 1280
-2039.6414 1162.3075 3668.3091 1280
-2016.5632 1161.5345 3665.8694 1280
-1992.6168 1160.2391 3661.7812 1280
-1971.2852 1160.4546 3662.4609 1280
-1953.3297 1162.6843 3669.4983 1280
-1932.7871 1163.4071 3671.7793 1280
-1911.4639 1163.671 3672.6123 1280
-1888.22 1162.7582 3669.7314 1280
-1874.4519 1167.7274 3685.4146 1280
-1855.7839 1169.7253 3691.72 1536
-1832.6213 1168.9039 3689.1279 1536
-1813.6052 1170.7395 3694.9209 1536
-1793.3521 1171.8115 3698.3044 1536
-1773.8069 1173.3785 3703.25 1280
-1755.015 1175.4893 3709.9114 1280
-1735.2365 1176.9843 3714.6296 1280
-1711.074 1175.5061 3709.9644 1536
-1688.4634 1175.0692 3708.5857 1536
-1660.125 1170.5823 3694.4246 1536
-1639.7012 1171.6306 3697.7332 1280
-1616.0913 1170.3999 3693.8491 1280
-1588.772 1166.4121 3681.2634 1280
-1574.5048 1172.0289 3698.9905 1024
-1565.9443 1182.1125 3730.8149 768
-1539.8466 1179.0564 3721.1697 658176
-1557.292 1209.7368 3817.9988 986625
-1511.7997 1191.7097 3761.1042 1248514
-1495.2931 1196.3336 3775.6975 985088
-1493.5455 1213.0857 3828.5679 1575939
-1461.219 1205.1345 3803.4736 1312512
-1437.8042 1204.3993 3801.1533 1311744
-1419.2729 1207.7965 3811.875 1640963
-1396.3934 1207.5435 3811.0764 1640963
-1372.3549 1206.2633 3807.0361 1574656
-1358.8977 1214.3966 3832.7053 1508864
-1334.3912 1212.7642 3827.5532 1574656
-1312.2657 1213.2767 3829.1707 1377280
-1299.8977 1222.9873 3859.8181 1639936
-1274.9883 1221.0352 3853.657 1640449
-1251.1478 1220.0542 3850.5608 1508864
-1223.9135 1215.6656 3836.7104 1574144
-1209.7789 1224.369 3864.1785 1574144
-1186.8761 1224.3627 3864.1587 1639936
-1158.4017 1218.4957 3845.6423 1639936
-1139.8513 1223.0414 3859.9888 1639680
-1115.8232 1221.7756 3855.9937 1574144
-1094.0571 1222.9854 3859.8118 1705729
-1067.1237 1218.347 3845.1733 1771265
-1045.8777 1220.1416 3850.8367 1574144
-1017.5186 1213.5328 3829.979 1705216
-996.97003 1216.15 3838.2393 1639424
-974.586 1216.5984 3839.6541 1704960
-951.67255 1216.3914 3839.0007 1771009
-923.55719 1209.3624 3816.8171 1705217
-903.37689 1212.6323 3827.137 1705217
