# .PCD v0.7 - Point Cloud Data file format
VERSION 0.7
FIELDS x y z rgb
SIZE 4 4 4 4
TYPE F F F U
COUNT 1 1 1 1
WIDTH 1323
HEIGHT 1
VIEWPOINT 0 0 0 1 0 0 0
POINTS 1323
DATA ascii
-94.906906 1186.7611 3311.9329 1639424
-75.380272 1188.3044 3316.2397 1442048
-55.603413 1185.6006 3308.6941 1507840
-35.992992 1185.4332 3308.2273 1442048
-16.462955 1190.6797 3322.8687 1639424
3.2073922 1183.6742 3303.3181 1573632
22.865372 1188.0643 3315.5698 1705216
42.33997 1183.2719 3302.1953 1705216
62.337036 1191.4952 3325.1445 1639425
81.007469 1176.5015 3283.301 1968388
100.67866 1179.0348 3290.3708 1705216
120.75457 1184.7166 3306.2273 1771008
140.30765 1184.3988 3305.3403 1639424
160.28354 1187.2909 3313.4114 1639424
179.65112 1185.5374 3308.5178 1705216
199.9651 1189.7599 3320.3018 1705217
219.57697 1189.4226 3319.3606 1508096
239.61966 1191.2828 3324.5518 1573888
258.8403 1189.0839 3318.415 1639680
279.27972 1192.3992 3327.6672 1639680
298.42728 1190.125 3321.3208 1639680
316.72028 1184.9354 3306.8379 1837057
335.10538 1180.6749 3294.948 1705472
358.29074 1192.8651 3328.9675 1771265
377.96729 1192.7107 3328.5366 1837057
396.31686 1188.5919 3317.0425 1968643
416.14804 1189.0958 3318.4485 1968643
434.60583 1185.8073 3309.2708 1836800
455.50455 1189.1748 3318.6689 1639936
475.44785 1189.8726 3320.6162 1573888
495.90237 1191.7437 3325.8379 1508096
514.06165 1188.1664 3315.855 1508352
535.85742 1192.9484 3329.2 1574144
553.99573 1189.5376 3319.6814 1836800
574.59021 1191.4536 3325.0286 1704960
594.77588 1192.423 3327.7339 1836288
614.42273 1192.2847 3327.3479 1770496
633.60876 1191.2883 3324.5674 1770240
652.36047 1189.5603 3319.7449 1967617
673.4704 1192.1078 3326.854 1902081
692.01013 1190.0902 3321.2234 1901824
703.8338 1176.9534 3284.5623 1704704
728.11603 1184.7964 3306.45 1704704
747.84985 1185.021 3307.0767 1638656
767.29846 1184.7938 3306.4429 1704704
789.28925 1188.4055 3316.522 1704704
808.0448 1187.089 3312.8479 1770496
833.61798 1195.613 3336.6362 1704448
848.2807 1188.4563 3316.6638 1770240
867.0517 1187.2491 3313.2952 1835520
888.66553 1189.902 3320.6985 1769984
906.48071 1187.4639 3313.894 1901568
928.18988 1190.1219 3321.312 2098688
945.71509 1187.4163 3313.7612 2098688
965.96436 1188.1713 3315.8684 1966848
982.19196 1184.0482 3304.3621 1638400
1002.2935 1184.6649 3306.083 2163968
1017.1888 1179.2225 3290.895 2426882
1036.308 1178.7896 3289.6865 2558466
1055.5902 1178.5546 3289.0308 2558466
1075.2136 1178.7021 3289.4426 2690052
1101.9711 1186.5259 3311.2764 2755588
1116.9259 1181.5898 3297.5015 2821124
1138.1302 1183.3214 3302.3337 3018759
1158.5834 1184.2264 3304.8594 2689793
1175.7599 1181.8079 3298.1099 3018757
1195.1461 1181.6533 3297.6785 2952965
1214.6862 1181.6533 3297.6785 2821635
1238.5369 1185.7803 3309.1958 2886402
1255.67 1183.4475 3302.6855 2886657
1276.1133 1184.2581 3304.9478 3083522
1288.4121 1177.6003 3286.3677 2820352
1313.7382 1182.8702 3301.0747 3016961
1324.4976 1175.0624 3279.2852 3345923
1336.2931 1168.3862 3260.6536 3345152
1360.335 1172.4556 3272.0098 4067328
1362.1586 1157.5297 3230.3557 6237455
1397.9288 1171.4648 3269.2451 8802348
1436.2909 1187.1614 3313.0498 9459501
1452.2576 1184.1733 3304.7112 9854256
1476.1644 1187.6532 3314.4224 9920049
1493.5447 1185.8595 3309.4167 9787950
1498.2065 1174.1448 3276.7244 9656363
1537.3318 1189.3936 3319.2793 9656107
1539.7662 1176.2288 3282.54 9656363
1587.7828 1197.7783 3342.679 9656363
1574.2755 1172.9568 3273.4087 9590571
1600.6465 1178.0902 3287.7349 9327400
1590.2391 1156.3564 3227.0818 9590573
1638.0073 1176.9395 3284.5234 9524780
1664.3301 1181.8112 3298.1189 9590572
1691.5688 1187.2125 3313.1929 9787951
1700.1512 1179.5465 3291.7988 9590572
1729.4032 1186.2319 3310.4563 9787695
1751.0182 1187.5879 3314.2402 9655852
1799.6068 1207.005 3368.4285 10577467
1785.0424 1184.1039 3304.5173 10511675
1797.3484 1179.3306 3291.1963 10445882
1795.1537 1165.2474 3251.894 9656366
1843.2904 1183.7867 3303.6323 9787951
1862.8604 1183.7833 3303.6228 9787693
1906.2875 1198.7826 3345.4819 8998433
1908.8402 1188.0337 3315.4844 9853742
1931.693 1190.0095 3320.9983 10182451
1954.4022 1191.8579 3326.1567 10050865
1958.5631 1182.4711 3299.9604 9787949
1968.3304 1176.621 3283.6345 10248500
2004.7675 1186.6719 3311.6841 9130020
2022.9246 1185.8126 3309.2859 9458984
2082.0994 1208.783 3373.3901 9853486
2074.0525 1192.6614 3328.3992 9524777
2098.3926 1195.2919 3335.7402 9722156
2115.0803 1193.5552 3330.8933 9524521
2140.7117 1196.8506 3340.0901 9590570
2153.6755 1193.0684 3329.5349 9787693
2179.5706 1196.4532 3338.9812 9787693
2208.4138 1201.3811 3352.7334 9919279
2238.7898 1207.0475 3368.5466 10380087
2260.1299 1207.7849 3370.6047 10511416
2280.4961 1207.9938 3371.1875 10116658
2309.8879 1212.9382 3384.9863 10050865
2311.4343 1203.3015 3358.093 9919279
2348.145 1211.9794 3382.3103 9985072
2356.1992 1205.8445 3365.1897 10248246
2367.3699 1201.3943 3352.77 10248246
2393.6143 1204.604 3361.7275 10380089
2404.7939 1200.2417 3349.554 10182709
2434.4375 1205.0911 3363.0869 9985074
2450.5469 1203.2162 3357.8547 9853488
2475.6038 1205.7295 3364.8687 9854258
2493.3818 1204.6858 3361.9561 10051377
2497.7656 1197.2385 3341.1726 9459754
2564.5398 1219.5784 3403.5171 10842181
2529.7439 1193.6444 3331.1423 11960662
2547.967 1192.9349 3329.1624 9263150
2567.2759 1192.7407 3328.6206 9393966
2580.6379 1189.808 3320.4358 9458990
2608.1143 1193.3776 3330.3977 10051126
2611.1824 1185.8091 3309.2761 9327660
2624.9756 1183.1877 3301.9609 9459246
2651.7881 1186.4302 3311.0095 9590575
2676.001 1188.4703 3316.7031 9590575
2699.4592 1190.1482 3321.3855 9722161
2727.4548 1193.7877 3331.5422 9656368
2755.9399 1197.5874 3342.1462 9130025
2775.845 1197.6312 3342.2686 9261867
2796.0903 1197.8202 3342.7959 9327660
2806.801 1193.9507 3331.9971 9524782
2813.6045 1188.4847 3316.7432 9524782
2822.4148 1183.9365 3304.0503 9656624
2824.2544 1176.5469 3283.428 9393455
2868.5439 1186.8218 3312.1021 10051128
2868.1787 1178.6071 3289.177 9524784
2887.6685 1178.6071 3289.177 8932647
2937.7937 1191.0272 3323.8384 9262125
2930.1399 1180.0133 3293.1016 9393968
2948.4214 1179.5206 3291.7268 9065260
2951.886 1173.1459 3273.9365 9460018
2948.7932 1164.2653 3249.1533 9262895
3010.6272 1180.9686 3295.7678 8999980
3029.7336 1180.8041 3295.3083 9657653
3031.9272 1174.0922 3276.5774 9921082
3046.717 1172.3125 3271.6108 9460276
3078.5076 1177.0554 3284.8472 9526068
3086.6255 1172.7445 3272.8167 9394996
3100.4749 1170.6516 3266.9756 9592118
3071.1536 1152.3856 3216.0002 9000237
0 0 0 0
0 0 0 0
0 0 0 0
0 0 0 0
0 0 0 0
0 0 0 0
0 0 0 0
-2962.0806 1207.1974 3314.1616 1280
-2942.4707 1207.2089 3314.1931 1280
-2923.0757 1207.3091 3314.4683 1280
-2904.002 1207.5444 3315.1143 1280
-2885.2119 1207.9017 3316.0952 1280
-2863.2119 1206.9106 3313.3745 1280
-2758.7942 1170.9254 3214.5825 1280
0 0 0 0
0 0 0 0
0 0 0 0
0 0 0 0
0 0 0 0
-2537.855 1123.7019 3084.9385 1280
-2661.1414 1186.8386 3258.27 1280
-2534.4065 1138.5767 3125.7747 1024
-2479.072 1121.9169 3080.0378 1280
-2445.4541 1114.9106 3060.8035 1024
-2400.8691 1102.7623 3027.4521 1024
-2385.5256 1103.9634 3030.7495 1024
-2368.248 1104.2809 3031.6211 1024
-2383.2993 1119.7928 3074.2068 1024
-2469.4521 1169.2083 3209.8687 1024
-2476.6692 1181.7269 3244.2366 1024
-2454.8101 1180.4595 3240.7571 1024
-2448.5308 1186.723 3257.9526 1024
-2429.9612 1187.0822 3258.9385 1024
-2408.4651 1186.006 3255.9839 1024
-2380.0928 1181.4989 3243.6104 1024
-2362.3862 1182.2561 3245.6895 1280
-2350.5754 1186.0005 3255.969 1280
-2330.125 1185.4116 3254.3525 1280
-2309.887 1184.922 3253.0081 1280
-2271.5364 1175.0544 3225.9185 1280
-2249.9592 1173.7699 3222.3918 1280
-2231.0005 1173.8411 3222.5874 1280
-2204.1091 1169.7037 3211.2288 1280
-2184.6868 1169.4927 3210.6492 1280
-2167.5183 1170.4948 3213.4004 1280
-2149.2197 1170.899 3214.5105 1280
-2132.0898 1171.953 3217.4038 1280
-2113.6458 1172.297 3218.3481 1280
-2102.1572 1176.5403 3229.9973 1280
-2083.4731 1176.7972 3230.7029 1280
-2064.7595 1177.042 3231.375 1280
-2048.791 1178.8711 3236.3962 1280
-2026.135 1176.8503 3230.8486 1280
-2001.1503 1173.4257 3221.4465 1280
-1979.9625 1172.1826 3218.0344 1280
-1956.4884 1169.5488 3210.8035 1280
-1937.4167 1169.5209 3210.7268 1280
-1925.5996 1173.9149 3222.79 1280
-1906.0641 1173.6445 3222.0476 1280
-1888.9521 1174.876 3225.4285 1280
-1873.2548 1177.0215 3231.3186 1280
-1853.1385 1176.4061 3229.6292 1280
-1838.3884 1179.2198 3237.354 1536
-1815.1401 1176.5845 3230.1189 1536
-1797.6337 1177.6545 3233.0566 1536
-1776.8735 1176.593 3230.1423 1536
-1750.0273 1171.4347 3215.981 1536
-1732.3438 1172.3634 3218.5305 1536
-1712.12 1171.5746 3216.365 1536
-1691.354 1170.3929 3213.1208 1536
-1675.8055 1172.8358 3219.8276 1536
-1662.5349 1176.9475 3231.1155 1536
-1642.5619 1176.355 3229.4888 1536
-1627.985 1179.6587 3238.5586 1536
-1612.7097 1182.5289 3246.4382 1280
-1593.1913 1182.3196 3245.8638 1280
-1577.7598 1185.1753 3253.7036 1280
-1555.3168 1182.7695 3247.0989 1280
-1531.391 1179.1617 3237.1943 1280
-1513.4451 1180.1254 3239.8398 1280
-1492.9326 1179.0868 3236.9885 1280
-1472.2024 1177.8469 3233.5845 1280
-1453.8882 1178.5327 3235.4673 1280
-1433.915 1177.8741 3233.6594 1280
-1412.5485 1176.0377 3228.6177 1280
-1399.173 1180.8951 3241.9529 1280
-1382.0681 1182.6965 3246.8984 1280
-1362.1033 1182.0667 3245.1694 1280
-1342.526 1181.7601 3244.3276 1280
-1322.5759 1181.1116 3242.5474 1280
-1298.7131 1176.8983 3230.9805 1280
-1278.9918 1176.3682 3229.5249 1280
-1257.9662 1174.6039 3224.6816 1280
-1239.201 1174.9286 3225.573 1280
-1218.6748 1173.5675 3221.8359 1280
-1199.0951 1173.0891 3220.5227 1280
-1184.12 1177.1727 3231.7339 1280
-1163.064 1175.246 3226.4443 1280
-1145.9407 1177.2954 3232.0703 1280
-1130.5907 1181.2671 3242.9741 1280
-1114.8484 1184.9591 3253.1101 1280
-1094.2847 1183.5663 3249.2861 1280
-1075.332 1183.8975 3250.1953 1280
-1056.2302 1184.0732 3250.678 1280
-1034.8706 1181.6775 3244.1008 1280
-1013.7369 1179.4541 3237.9971 768
-991.37402 1175.6871 3227.655 1024
-970.54236 1173.6235 3221.99 1024
-957.88904 1181.5652 3243.7925 1024
-936.51965 1178.8606 3236.3674 768
-917.56519 1179.1462 3237.1516 256
-897.65698 1178.1923 3234.5327 723968
-872.8985 1170.6918 3213.9414 854785
-863.2536 1183.5785 3249.3198 1249028
-848.84515 1190.373 3267.9729 1248259
-833.54681 1196.2075 3283.9907 852992
-814.97919 1197.5172 3287.5864 1049856
-793.54364 1194.5739 3279.5056 1115136
-772.20984 1191.6396 3271.4502 1049344
-753.70258 1193.0284 3275.2632 1115136
-732.19238 1189.6118 3265.8831 1312256
-718.92834 1199.771 3293.7737 1377792
-697.97382 1197.3051 3287.0037 1180416
-679.67853 1199.39 3292.7275 1180416
-655.19073 1190.3477 3267.9033 983296
-638.74384 1195.8081 3282.8943 1179904
-621.44208 1199.9611 3294.2954 1179904
-601.85187 1199.8212 3293.9111 1245952
-575.83124 1186.4229 3257.1284 1443072
-564.12659 1202.6143 3301.5791 1377024
-543.58923 1200.4629 3295.6731 1574656
-521.80322 1195.2909 3281.4741 1443072
-502.00378 1194.4452 3279.1526 1245696
-485.84964 1202.5542 3301.4146 1179904
-463.53244 1195.4492 3281.9089 1114112
-445.29453 1198.7029 3290.8413 917504
-421.87646 1187.6715 3260.5564 1048576
-404.83279 1194.3877 3278.9946 1442816
-384.93988 1192.9512 3275.051 1442560
-366.25156 1195.2933 3281.481 1508352
-347.75101 1198.5453 3290.4087 1508352
-326.52847 1192.2449 3273.1118 1376768
-307.25815 1192.7268 3274.4351 1310976
-287.00424 1189.1985 3264.7485 1310976
-267.48325 1188.4163 3262.6011 1508352
-249.92249 1196.8999 3285.8916 1573888
-230.52415 1197.2734 3286.917 1442560
-210.66608 1195.1075 3280.9709 1377024
-190.21327 1188.7844 3263.6118 1310976
-170.8586 1188.6699 3263.2974 1245184
-151.61812 1189.422 3265.3621 1376768
-132.0282 1187.2518 3259.4043 1376512
-112.09485 1180.7205 3241.4734 2099973
-92.786781 1179.436 3237.9475 1902338
-73.319313 1174.928 3225.571 1705216
-54.265789 1176.2128 3229.0984 1639424
-35.285091 1181.3356 3243.1621 1639424
-16.051554 1180.1224 3239.8315 1442048
3.1510823 1182.1229 3245.3237 1507840
22.338541 1179.8842 3239.1775 1442048
41.583298 1181.3424 3243.1809 1639424
60.808502 1181.499 3243.6106 1507840
79.73848 1177.2216 3231.8679 1573632
99.11853 1179.9589 3239.3826 1771009
119.18421 1188.6459 3263.2314 1507840
138.74393 1190.5659 3268.5027 1704960
158.17509 1191.0477 3269.8254 1639424
177.78223 1192.6047 3274.0999 1573632
196.90073 1190.9 3269.4197 1704960
215.63603 1187.3906 3259.7854 1573888
234.41197 1184.6637 3252.2988 1639680
252.32922 1178.3409 3234.9409 1508096
272.71442 1183.6224 3249.4402 1507840
292.30081 1184.969 3253.137 1442304
311.04343 1182.9398 3247.5664 1573632
328.91104 1178.0134 3234.0417 1836801
347.75964 1176.9492 3231.1204 1902850
367.53531 1178.9702 3236.6685 1968643
384.52365 1172.2928 3218.3369 1902850
408.05283 1185.2454 3253.8958 2034179
425.31805 1179.6554 3238.5496 1771264
446.17673 1184.0847 3250.7092 1705216
467.63217 1189.6654 3266.0305 1837057
484.53586 1183.683 3249.6067 1573632
508.10934 1193.8291 3277.4609 1771009
525.48505 1189.202 3264.7581 1573632
542.78046 1184.7283 3252.4763 1639168
563.35596 1187.4755 3260.0183 1573376
584.06427 1190.311 3267.803 1573888
602.04309 1187.5807 3260.3071 1705472
621.92102 1188.6497 3263.2417 1573632
642.23724 1190.4666 3268.2297 1901824
660.93054 1189.2568 3264.9087 1901824
676.69965 1183.0039 3247.7424 1770496
695.9353 1182.9895 3247.7026 1967616
713.2428 1179.7864 3238.9089 1770752
735.87433 1185.3269 3254.1196 1770752
755.19574 1185.3889 3254.2898 1770496
776.39722 1188.3252 3262.3511 1573632
793.24463 1184.6166 3252.1697 1704960
810.63879 1181.8812 3244.6602 1704704
830.95917 1183.4399 3248.9392 1573120
852.091 1186.0575 3256.1255 1836288
868.59399 1182.2588 3245.6968 1836288
889.88763 1185.004 3253.2334 1836288
907.92694 1183.3914 3248.8059 1638656
929.08618 1185.8275 3255.4939 1704448
952.06067 1190.4343 3268.1414 1836032
965.74609 1183.4744 3249.0337 2098946
979.76184 1177.1831 3231.762 1901568
994.41516 1171.8845 3217.2158 2098944
1010.2191 1168.1158 3206.8694 2164481
1033.2274 1172.6626 3219.3521 2558724
1050.9825 1171.1908 3215.3113 2492930
1070.8575 1172.0917 3217.7844 2558466
1093.7629 1176.2197 3229.1174 2558210
1109.1869 1172.2987 3218.353 2755589
1137.1232 1181.5111 3243.644 2821381
1146.9053 1171.8679 3217.1702 2294784
1176.6173 1182.5709 3246.5535 2426624
1186.1523 1172.9764 3220.2136 2492416
1211.6001 1179.1727 3237.2246 2886915
1223.7433 1172.4292 3218.7112 2623232
1241.0958 1170.807 3214.2578 2754304
1260.4841 1171.1252 3215.1313 2820096
1275.3976 1167.3384 3204.7351 2688000
1286.6124 1160.3269 3185.4863 2885888
1313.0153 1167.0175 3203.8542 2885376
1334.0106 1168.7797 3208.6919 3214080
1343.8688 1160.8716 3186.9814 3936514
1354.3492 1153.7128 3167.3284 4724483
1368.1656 1149.5527 3155.9075 6434063
1400.2821 1160.6735 3186.4375 8209436
1421.7854 1162.8181 3192.3254 9130276
1446.9142 1167.8326 3206.0923 9590570
1486.1799 1183.9796 3250.4211 9458727
1475.7108 1160.5986 3186.2324 9195299
1516.3284 1177.4788 3232.574 9656107
1518.6074 1164.5382 3197.0476 9656107
1543.153 1168.7809 3208.6953 10050865
1547.6658 1157.9324 3178.9124 9721900
1568.7352 1159.583 3183.4441 9458984
1597.0874 1166.5137 3202.4712 10314040
1613.5945 1164.7317 3197.5789 9656109
1643.0487 1172.228 3218.1589 9985842
1680.4961 1185.1897 3253.7429 9854000
1696.6145 1182.9855 3247.6917 9789236
1708.5175 1177.9243 3233.7971 12292460
1714.0151 1168.6084 3208.2217 12224607
1718.7419 1158.9769 3181.78 9130280
1759.498 1173.5861 3221.8872 9327657
1770.5452 1168.2784 3207.3159 9787951
1801.2839 1175.9388 3228.3462 9261351
1808.234 1168.0714 3206.7476 9985330
1852.3561 1184.13 3250.834 9656363
1886.475 1193.5294 3276.6382 9787949
1898.2544 1188.7474 3263.5103 9985329
1913.3718 1186.1312 3256.3279 11103811
1923.0078 1180.2032 3240.0535 9853744
1935.7417 1176.2749 3229.2688 9853488
1967.9103 1184.1176 3250.7996 9656364
1963.7207 1170.1431 3212.4348 9195814
2026.7107 1196.0835 3283.6501 9130020
2032.0494 1187.8308 3260.9937 9261349
2056.0754 1190.5542 3268.4702 9458985
2071.3733 1188.2198 3262.0618 9919279
2098.7632 1192.8011 3274.6392 9393192
2120.3557 1194.0339 3278.0232 9458986
2147.9382 1198.5868 3290.5225 9853743
2164.0317 1196.7043 3285.3545 10051123
2174.6155 1191.8357 3271.9883 10116658
2220.4038 1206.177 3311.3601 10182451
2232.0967 1201.908 3299.6401 10050865
2233.4673 1192.203 3272.9968 10248500
2264.0835 1198.1418 3289.301 10050865
2284.8977 1198.8363 3291.2075 10050865
2325.1609 1209.6373 3320.8599 10182451
2343.9236 1209.1653 3319.5642 10182708
2362.8267 1208.7731 3318.4875 10116660
2372.9099 1203.9126 3305.1438 10248502
2395.8225 1205.5875 3309.7417 9985330
2405.1313 1200.4452 3295.6243 10116660
2412.3323 1194.342 3278.8694 9393450
2432.6587 1194.7831 3280.0801 9393193
2454.3232 1195.869 3283.0613 9326888
2468.936 1193.5291 3276.6372 9590573
2482.7571 1190.8456 3269.2705 9854000
2503.2539 1191.3811 3270.7405 9130277
2500.2996 1180.8328 3241.782 9656878
2485.8577 1165.0616 3198.4846 9261864
2551.4634 1186.7615 3258.0581 9591085
2531.5847 1168.6727 3208.3984 9196328
2573.8228 1179.3153 3237.6157 9261867
2598.8154 1181.957 3244.8682 9722161
2617.9138 1181.8988 3244.7085 9656625
2639.373 1182.8997 3247.4561 9656368
2683.6809 1194.052 3278.073 8472094
2718.0237 1200.6422 3296.1653 9788211
2717.4995 1191.8463 3272.0176 9656624
2733.0786 1190.1875 3267.4639 9327659
2750.6042 1189.3939 3265.2849 9656368
2765.8301 1187.6238 3260.4255 9590832
2782.2971 1186.4076 3257.0867 9656625
2791.5396 1182.1487 3245.3945 9590578
2797.5229 1176.5773 3230.0991 9328431
2852.5691 1191.5762 3271.2761 9459505
2847.7544 1181.5364 3243.7134 9130540
2837.5635 1169.4154 3210.4373 8998697
2855.7322 1169.0657 3209.4771 9986362
2869.4558 1166.9127 3203.5667 8868393
2878.001 1162.6962 3191.9907 9591603
2908.6157 1167.3925 3204.8835 9591347
2922.145 1165.2148 3198.9053 9525811
2942.0632 1165.5964 3199.9531 9328432
2967.0366 1167.9633 3206.4507 8802087
3005.5977 1175.6146 3227.4561 9196590
3025.085 1175.7557 3227.8438 9065517
3030.7202 1170.5452 3213.5391 9657655
3075.0847 1180.2645 3240.2219 9723191
3035.6335 1157.8932 3178.8049 9065261
0 0 0 0
0 0 0 0
0 0 0 0
0 0 0 0
0 0 0 0
0 0 0 0
0 0 0 0
-2899.3845 1200.8677 3244.0134 1280
-2857.5046 1191.4207 3218.4932 1280
-2861.3469 1201.0383 3244.4744 1280
-2843.1509 1201.473 3245.6487 1280
-2801.1824 1191.7996 3219.5166 1280
-2805.4211 1201.7875 3246.498 1280
0 0 0 0
0 0 0 0
0 0 0 0
0 0 0 0
0 0 0 0
0 0 0 0
-2611.7808 1175.2465 3174.8003 1280
-2676.4758 1213.0955 3277.0452 1024
-2495.2349 1139.2142 3077.4631 768
-2447.4539 1125.6256 3040.7549 1024
-2364.9858 1095.7639 2960.0867 1024
-2356.9373 1100.1942 2972.0549 1024
-2358.9404 1109.4188 2996.9739 1024
-2363.5469 1120.0166 3025.603 1024
-2338.1162 1116.4342 3015.9255 1024
-2405.8298 1157.6149 3127.1704 1024
-2427.9536 1177.3279 3180.4231 1024
-2418.0874 1181.7159 3192.2771 1024
-2405.4998 1184.8329 3200.6968 1024
-2387.8394 1185.4806 3202.4468 1280
-2362.3391 1182.2155 3193.6265 1280
-2340.8989 1180.9459 3190.1968 1280
-2319.2351 1179.5419 3186.4041 1280
-2291.3816 1174.9409 3173.9751 1280
-2268.6465 1172.9102 3168.489 1280
-2245.5005 1170.6311 3162.3325 1280
-2239.9551 1177.5668 3181.0684 1280
-2200.0342 1166.3951 3150.8894 1280
-2183.708 1167.6486 3154.2754 1280
-2166.9678 1168.7003 3157.1165 1280
-2155.3596 1172.5623 3167.5493 1280
-2136.8352 1172.6965 3167.9119 1280
-2118.2747 1172.8131 3168.2268 1280
-2092.3931 1168.8422 3157.4998 1280
-2072.5596 1168.2086 3155.7883 1280
-2053.9751 1168.2739 3155.9648 1280
-2038.3859 1170.0598 3160.7891 1280
-2016.7865 1168.3969 3156.2969 1280
-1996.9882 1167.7559 3154.5652 1280
-1981.6992 1169.7648 3159.9919 1280
-1962.3409 1169.3868 3158.9712 1280
-1950.2748 1173.3892 3169.783 1280
-1932.0155 1173.7068 3170.6411 1280
-1916.3279 1175.6083 3175.7778 1280
-1891.5798 1171.9342 3165.8525 1280
-1868.1021 1168.9813 3157.8757 1280
-1849.1638 1168.838 3157.4888 1280
-1832.5895 1170.2014 3161.1719 1280
-1812.5463 1169.3551 3158.8855 1280
-1793.1841 1168.9349 3157.7505 1280
-1774.6844 1169.0741 3158.1265 1280
-1761.1849 1172.5452 3167.5032 1280
-1740.5951 1171.3196 3164.1924 1280
-1724.7404 1173.2887 3169.5115 1280
-1706.1309 1173.4062 3169.8293 1536
-1687.8964 1173.7875 3170.8589 1280
-1669.1542 1173.8201 3170.947 1536
-1648.6152 1172.5754 3167.585 1536
-1630.9271 1173.3533 3169.6863 1536
-1610.0925 1171.8591 3165.6499 1536
-1593.0226 1173.1022 3169.0076 1536
-1573.2847 1172.3865 3167.0745 1280
-1552.4554 1170.8306 3162.8713 1280
-1536.5417 1172.9893 3168.7026 1280
-1524.5099 1178.2012 3182.7822 1280
-1501.4482 1174.9127 3173.8987 1280
-1481.3971 1173.9265 3171.2346 1280
-1469.5709 1179.5166 3186.3354 1280
-1441.7196 1172.2224 3166.6313 1280
-1420.0391 1169.8195 3160.1399 1280
-1399.7594 1168.5217 3156.634 1280
-1381.5591 1168.9481 3157.7861 1280
-1363.8751 1169.8292 3160.1663 1280
-1346.218 1170.7581 3162.6755 1280
-1328.9683 1172.0726 3166.2263 1280
-1309.7246 1171.641 3165.0605 1280
-1290.3674 1171.0938 3163.5823 1280
-1275.4749 1174.6421 3173.1677 1280
-1258.5701 1176.4158 3177.959 1280
-1242.0229 1178.5826 3183.8127 1280
-1223.1982 1178.6218 3183.9185 1280
-1202.9514 1177.2705 3180.2678 1280
-1182.3513 1175.5248 3175.5522 1280
-1160.285 1172.2415 3166.6826 1280
-1143.3523 1174.1219 3171.7625 1280
-1124.8074 1174.382 3172.4648 1280
-1108.9512 1177.5057 3180.9036 1280
-1088.7295 1176.0221 3176.8955 1280
-1069.5687 1175.6523 3175.8967 1280
-1050.5029 1175.3755 3175.1489 1280
-1031.7574 1175.4537 3175.3604 1280
-1015.0063 1177.8489 3181.8306 1280
-998.4259 1180.5369 3189.0918 1280
-977.7179 1178.3539 3183.1946 1024
-957.88782 1177.1637 3179.9795 1024
-938.86395 1176.9366 3179.366 1024
-915.45813 1171.0945 3163.5842 768
-900.93964 1176.615 3178.4971 256
-879.78815 1173.5236 3170.146 1052674
-865.25873 1179.323 3185.8125 985856
-847.20856 1180.4753 3188.9255 1116672
-832.4032 1186.3046 3204.6726 919296
-813.2688 1186.0925 3204.0999 1115904
-797.09375 1190.2894 3215.4373 1181697
-774.74011 1185.2395 3201.7957 1115136
-760.53711 1192.7184 3221.999 1312256
-740.4787 1191.1633 3217.7979 1115136
-724.51282 1196.2833 3231.6292 1246208
-700.90875 1188.7272 3211.2168 1377536
-681.7486 1188.4963 3210.5933 1443584
-662.62695 1188.3213 3210.1206 1312000
-646.00775 1192.7562 3222.1011 1377792
-621.63855 1182.7164 3194.9797 1640449
-602.15771 1181.6385 3192.0676 1574656
-584.71893 1184.6279 3200.1433 1377280
-568.31238 1189.9789 3214.5984 1311488
-545.42078 1181.6512 3192.1023 1311488
-531.13672 1192.0436 3220.176 1311744
-511.66501 1191.1335 3217.7178 1574400
-493.93878 1194.3739 3226.4712 1377280
-476.02057 1197.3923 3234.6248 1377280
-455.5564 1193.991 3225.4368 1245696
-437.12897 1195.8638 3230.4958 983040
-415.38495 1188.4193 3210.3855 1048576
-397.45163 1191.686 3219.21 1179648
-378.16904 1191.0326 3217.4448 1377280
-358.54834 1189.1884 3212.4629 1376768
-339.44281 1188.9418 3211.7966 1376768
-319.91232 1187.089 3206.7917 1376768
-301.14417 1188.0096 3209.2788 1310976
-281.93448 1187.1952 3207.0786 1310976
-262.52332 1185.3533 3202.1028 1574144
-243.06677 1183.0034 3195.7551 1114112
-224.49084 1184.9048 3200.8911 1114112
-205.4818 1184.6598 3200.2295 1442560
-187.09286 1188.3036 3210.073 1508352
-166.9749 1180.5477 3189.1211 1574144
-148.26675 1182.052 3193.1846 1508096
-129.16498 1180.399 3188.7195 1836801
-110.24485 1180.1241 3187.9768 1771009
-90.975922 1175.2295 3174.7546 1573632
-72.601112 1182.3445 3193.9749 1705216
-53.433964 1177.0234 3179.6006 1639424
-34.700035 1180.6465 3189.3877 1639168
-15.82508 1182.3983 3194.1204 1573632
3.1034913 1183.2087 3196.3096 1507840
22.002048 1181.0155 3190.3848 1573632
40.956505 1182.4633 3194.2957 1573632
59.622177 1177.2935 3180.3303 1639424
78.418503 1176.5673 3178.3684 1573632
97.190346 1175.826 3176.366 1507840
115.77258 1173.4034 3169.8218 1573632
134.77287 1175.3032 3174.9536 1639424
154.34927 1181.146 3190.7373 1704960
173.00822 1179.459 3186.1799 1442048
192.40955 1182.6671 3194.8464 1376512
211.46075 1183.3412 3196.6675 1573632
230.19913 1182.2977 3193.8484 1639680
248.27258 1178.2572 3182.9336 1705216
266.27133 1174.4579 3172.6699 1639168
286.26578 1179.3815 3185.9707 1507840
304.68057 1177.5906 3181.1326 1705472
322.94583 1175.464 3175.3882 2034436
339.84946 1168.8885 3157.625 1771265
360.49197 1175.1877 3174.6418 1902594
380.27203 1178.1902 3182.7524 1902850
401.16861 1184.2046 3198.9998 1771265
416.89325 1175.098 3174.3994 1771264
439.7608 1186.0426 3203.9648 1837057
459.94675 1189.1481 3212.3538 1836801
475.88672 1181.4653 3191.6001 1705473
498.82211 1191.0734 3217.5552 1508096
516.43317 1187.7288 3208.52 1639680
534.26001 1185.1005 3201.4199 1639424
555.60669 1190.1923 3215.1748 1705472
567.21405 1174.7753 3173.5273 1508096
591.13757 1185.0374 3201.2493 1573888
607.95636 1180.8616 3189.9688 1705216
626.72424 1180.609 3189.2866 1573888
645.55786 1180.4917 3188.9697 1508096
662.6662 1177.3158 3180.3904 1704960
685.89447 1184.8878 3200.8455 1639680
700.5954 1177.7177 3181.4758 1705472
719.87848 1178.4241 3183.3843 1639680
738.80865 1178.5315 3183.6743 1639424
757.42651 1178.1478 3182.6379 1836288
776.47345 1178.4338 3183.4109 1770496
795.96863 1179.3706 3185.9414 1573376
819.13226 1185.5734 3202.6973 1573120
837.12872 1184.1859 3198.9495 1638912
853.70612 1180.897 3190.0647 1967616
871.91626 1179.9603 3187.5342 2033154
891.99957 1181.5443 3191.8132 1967361
910.4809 1180.9846 3190.3015 1835776
930.69281 1182.647 3194.7917 2164738
942.64539 1173.9568 3171.3164 1967360
959.38892 1171.4563 3164.5618 1769984
979.35834 1172.9152 3168.5027 1769728
996.2312 1170.6804 3162.4656 1441792
1006.8656 1161.3326 3137.2136 2032640
1027.6873 1163.8607 3144.043 2295809
1052.5927 1170.8414 3162.9006 2361088
1070.0005 1169.384 3158.9636 2295296
1086.449 1166.9462 3152.3779 2690052
1112.6937 1174.9351 3173.959 2689538
1121.8232 1164.886 3146.8127 2821381
1145.7168 1170.246 3161.292 2821381
1167.7388 1173.5524 3170.2239 2887173
1187.5155 1174.5333 3172.874 2821123
1199.8881 1168.2747 3155.9668 2755586
1214.3662 1164.2268 3145.032 2624000
1235.6567 1166.7336 3151.804 2952708
1258.8162 1170.9043 3163.0703 3149574
1270.8413 1164.7478 3146.4392 3544587
1289.5485 1164.8049 3146.5935 3215108
1302.3822 1159.6307 3132.6162 3609351
1320.9443 1159.6307 3132.6162 3345666
1345.1708 1164.5345 3145.8633 3608323
1367.2332 1167.4565 3153.7566 4133891
1370.3882 1154.3726 3118.4119 5251084
1392.2153 1157.1564 3125.9319 6829590
1415.2893 1160.8898 3136.0173 8407584
1428.5442 1156.5768 3124.3662 9261605
1441.4054 1152.0594 3112.1631 9393447
1482.3545 1169.8221 3160.147 9656363
1503.9728 1172.0768 3166.238 9129763
1513.1428 1164.6943 3146.2949 9524521
1528.1487 1161.9287 3138.824 9656107
1545.4812 1160.9775 3136.2544 9985072
1579.3566 1172.3282 3166.9172 9590570
1589.6807 1166.1361 3150.1899 9853488
1608.8621 1166.5099 3151.1992 9524780
1644.8507 1178.9213 3184.7273 10380601
1662.4346 1178.0093 3182.2637 9985587
1672.6688 1171.9681 3165.9443 10511675
1692.6082 1172.7856 3168.1528 10380345
1697.4033 1163.2072 3142.2776 9130279
1725.2942 1169.4919 3159.2551 9722416
1739.4818 1166.4528 3151.0449 9788464
1773.4779 1176.62 3178.511 9787951
1798.8416 1180.9067 3190.0908 9590571
1808.3203 1174.7844 3173.5522 9327398
1828.2521 1175.5093 3175.5103 9196070
1865.0599 1186.9595 3206.4419 10643261
1866.338 1175.795 3176.2822 9261608
1903.8965 1187.4819 3207.8533 9392937
1907.5807 1178.0189 3182.2898 9195558
1925.7838 1177.6194 3181.2107 9524780
1930.3838 1168.99 3157.8992 9656108
1971.0317 1182.1464 3193.4397 9524779
1988.0667 1181.0253 3190.4109 9195558
1991.4971 1171.9193 3165.8125 9458729
2029.7986 1183.3121 3196.5889 9853487
2050.3989 1184.2705 3199.1777 9524522
2070.9187 1185.1652 3201.5945 9392935
2103.9885 1193.1606 3223.1936 9458728
2117.0803 1189.7849 3214.0745 9458728
2124.3267 1183.2135 3196.3223 9787693
2165.7253 1195.6123 3229.8164 9327142
2179.7952 1192.8389 3222.3245 10050865
2192.9307 1189.6068 3213.593 9787693
2211.2256 1189.2051 3212.5081 9919535
2247.8872 1198.6035 3237.897 9919279
2284.7922 1207.9717 3263.2041 9787950
2298.7107 1205.1316 3255.5317 9853744
2301.5059 1196.5557 3232.365 10116660
2326.2729 1199.4504 3240.1848 9656109
2326.1335 1189.5608 3213.469 9524779
2352.3477 1193.1991 3223.2976 9393450
2348.7515 1181.7798 3192.4495 9262121
2380.0605 1187.9655 3209.1592 9920050
2387.0857 1182.028 3193.1199 9459500
2404.1587 1181.1204 3190.6682 9985843
2426.6533 1182.8696 3195.3933 9393450
2453.6675 1186.7778 3205.9512 9327913
2460.1194 1180.7568 3189.686 9920050
2470.5071 1176.7024 3178.7334 9130535
2507.6201 1185.3423 3202.073 9130278
2497.7964 1171.8322 3165.5769 9985588
2522.2476 1174.4834 3172.739 9590575
2560.9797 1183.6964 3197.6267 9722161
2577.9443 1182.7866 3195.1692 9919540
2589.9915 1179.6505 3186.6975 9722418
2609.2883 1179.8379 3187.2036 9722161
2652.3206 1190.678 3216.4868 9656625
2681.4392 1195.1615 3228.5989 9590575
2684.6169 1188.1014 3209.5266 9919540
2690.6182 1182.3815 3194.0747 9722161
2723.2197 1188.349 3210.1956 9393452
2744.5562 1189.3522 3212.9053 9722417
2732.2617 1175.8679 3176.479 8866854
2753.3179 1176.8228 3179.0586 9131052
2771.2507 1176.4388 3178.0215 8999466
2788.7458 1175.8756 3176.5 8867624
2794.2932 1170.3159 3161.481 8801574
2805.4109 1167.1476 3152.9221 9590834
2829.2803 1169.2914 3158.7134 9854006
2871.2747 1178.8484 3184.5305 8932904
2862.9739 1167.7659 3154.5925 8670245
2894.2915 1172.8823 3168.4138 8670245
2886.0466 1162.0037 3139.0264 9196590
2929.0244 1171.756 3165.3713 8604452
2946.5598 1171.2708 3164.0605 8604197
2943.3408 1162.5939 3140.6208 8143903
3002.2502 1178.412 3183.3518 7946780
3016.1292 1176.468 3178.1003 9065517
2939.7554 1139.5627 3078.4048 7683865
0 0 0 0
0 0 0 0
0 0 0 0
0 0 0 0
0 0 0 0
0 0 0 0
0 0 0 0
-2843.8462 1196.7188 3181.8735 1280
-2825.2346 1196.8213 3182.1465 1280
-2806.7764 1196.9906 3182.5967 1024
-2784.9561 1195.7189 3179.2153 1024
-2769.6653 1197.2524 3183.2925 1024
-2751.47 1197.5426 3184.0642 768
0 0 0 0
0 0 0 0
0 0 0 0
0 0 0 0
0 0 0 0
-2642.6633 1199.5375 3189.3682 1024
-2583.6047 1181.1768 3140.5503 1024
-2584.9609 1190.3707 3164.9956 768
-2568.8645 1191.6035 3168.2732 1024
-2563.4509 1197.8462 3184.8713 1024
-2528.1575 1190.1157 3164.3174 1024
-2332.0078 1105.9818 2940.6196 1024
-2320.0305 1108.5846 2947.5398 1024
-2320.5566 1117.2468 2970.571 1024
-2277.9434 1105.1128 2938.3088 1024
-2285.3503 1117.2454 2970.5674 1024
-2376.0308 1170.5925 3112.4084 1024
-2375.6558 1179.5632 3136.26 1024
-2366.853 1184.4579 3149.2742 1024
-2348.2373 1184.4806 3149.3347 1024
-2328.7256 1184.0482 3148.1848 1280
-2306.1416 1182.0339 3142.8291 1280
-2280.3042 1178.3058 3132.9167 1280
-2258.8284 1176.7887 3128.8831 1280
-2237.0557 1175.0906 3124.3679 1280
-2211.4365 1171.3267 3114.3606 1280
-2182.7273 1165.8491 3099.7966 1280
-2165.0688 1166.2312 3100.8123 1280
-2150.5879 1168.3457 3106.4346 1280
-2130.2344 1167.2791 3103.5984 1280
-2111.3342 1166.9971 3102.8489 1280
-2096.7439 1169.1134 3108.4756 1280
-2077.2185 1168.491 3106.8208 1280
-2058.0347 1168.0511 3105.6514 1280
-2038.3181 1167.2986 3103.6504 1280
-2019.9065 1167.2863 3103.6177 1280
-2003.7913 1168.613 3107.1453 1280
-1981.2162 1166.1621 3100.6287 1280
-1962.913 1166.2032 3100.738 1280
-1943.5219 1165.5927 3099.1147 1280
-1926.6844 1166.5167 3101.5715 1280
-1906.3491 1165.3202 3098.3904 1280
-1887.3259 1164.9104 3097.3008 1280
-1870.3831 1165.7891 3099.637 1280
-1856.7615 1168.776 3107.5786 1280
-1834.6918 1166.4515 3101.3982 1280
-1820.5695 1169.1841 3108.6636 1280
-1802.437 1169.3706 3109.1597 1280
-1786.1163 1170.7487 3112.8237 1280
-1766.8466 1170.2023 3111.3708 1280
-1745.9121 1168.5302 3106.9248 1280
-1726.9636 1168.1656 3105.9558 1280
-1710.8074 1169.7025 3110.042 1280
-1698.1635 1173.7003 3120.6716 1280
-1681.6416 1175.0765 3124.3306 1280
-1661.3385 1173.8116 3120.9678 1280
-1640.2531 1171.9594 3116.0427 1280
-1619.9868 1170.6569 3112.5796 1024
-1602.0626 1171.0364 3113.5886 1536
-1583.6979 1171.0988 3113.7544 1536
-1567.0264 1172.4296 3117.293 1024
-1546.3262 1170.7421 3112.8059 1280
-1525.2466 1168.723 3107.4377 1280
-1505.9882 1168.0671 3105.6938 1280
-1486.64 1167.3247 3103.7197 1280
-1471.0613 1169.5603 3109.6641 1280
-1452.535 1169.4796 3109.4495 1280
-1433.077 1168.637 3107.209 1280
-1413.0131 1167.2719 3103.5793 1280
-1393.6954 1166.4955 3101.5151 1280
-1378.3502 1169.0676 3108.3538 1280
-1360.2283 1169.3223 3109.031 1280
-1344.4899 1171.661 3115.2495 1280
-1325.4125 1171.1147 3113.7969 1280
-1306.6788 1170.861 3113.1223 1280
-1287.8127 1170.4796 3112.1084 1280
-1268.4448 1169.6246 3109.835 1280
-1249.4285 1169.0731 3108.3687 1280
-1231.2289 1169.2808 3108.9207 1280
-1212.7686 1169.2435 3108.8215 1280
-1192.6569 1167.5884 3104.4209 1280
-1173.4742 1166.8051 3102.3384 1280
-1156.67 1168.3997 3106.5779 1280
-1137.7513 1167.8751 3105.1831 1280
-1118.8237 1167.324 3103.7178 1280
-1100.6558 1167.5604 3104.3464 1280
-1086.8475 1172.5081 3117.5017 1280
-1076.2719 1181.1747 3140.5444 1280
-1049.2898 1171.8237 3115.6819 1280
-1031.4506 1172.5312 3117.5632 1280
-1012.2228 1171.6575 3115.24 1280
-991.34863 1168.8099 3107.6689 1024
-971.48035 1167.063 3103.0242 1024
-957.20557 1172.0981 3116.4116 768
-940.57587 1174.3909 3122.5076 768
-922.95734 1175.5162 3125.4998 768
-905.09686 1176.3732 3127.7783 512
-885.10297 1174.4352 3122.6255 512
-869.22131 1177.9874 3132.0703 328448
-842.33917 1166.4614 3101.4246 1051906
-834.58264 1181.4967 3141.4009 1116672
-817.90399 1184.2993 3148.8523 1379331
-799.76422 1185.0675 3150.8948 1510661
-779.36975 1182.4514 3143.9395 1181952
-764.14886 1187.749 3158.0249 1707270
-743.80591 1185.1512 3151.1177 851968
-723.44934 1182.3975 3143.7957 852480
-707.07666 1186.1813 3153.8564 918272
-687.82758 1185.2142 3151.2852 1246208
-665.89294 1179.4365 3135.9233 1443328
-649.74438 1183.8698 3147.7104 1048832
-630.77594 1183.2751 3146.1294 1180160
-610.5459 1180.2056 3137.968 1179904
-593.47943 1183.2505 3146.0637 1245696
-576.41351 1186.4941 3154.688 1443072
-559.78918 1190.8947 3166.3882 1377280
-535.92786 1179.6703 3136.5447 1311232
-522.16724 1190.6719 3165.7959 1377024
-499.09238 1180.4628 3138.6519 1443072
-487.05347 1196.5764 3181.4954 1508864
-467.60312 1195.0463 3177.427 1377280
-448.35751 1193.933 3174.4668 1311488
-428.51703 1191.0687 3166.8513 1245696
-409.34583 1189.8876 3163.7107 1377024
-390.06003 1188.2439 3159.3406 1114112
-369.43457 1182.1479 3143.1323 1114112
-350.80487 1182.1298 3143.084 1310720
-332.29181 1182.5248 3144.1343 1508352
-313.75916 1182.8927 3145.1125 1376768
-295.68561 1185.1472 3151.1069 1376768
-276.07092 1181.1124 3140.3792 1508352
-257.18875 1179.8546 3137.0349 1442560
-238.82799 1180.9792 3140.0251 1508608
-220.31648 1181.4856 3141.3711 1508608
-201.50041 1180.3013 3138.2224 1376768
-183.15535 1181.9156 3142.5146 1442560
-164.93498 1184.7911 3150.1602 1574144
-146.19795 1184.2153 3148.6294 1508096
-127.3905 1182.8175 3144.9126 1573632
-108.7149 1182.3744 3143.7344 1639424
-90.002235 1181.2618 3140.7764 1704960
-71.359093 1180.7194 3139.3342 1639424
-52.745415 1180.4539 3138.6282 1508096
-34.042664 1176.8202 3128.9668 1310720
-15.45677 1173.3654 3119.781 1376256
3.0363691 1176.1481 3127.1797 1442048
21.525871 1173.9507 3121.3372 1376512
39.999744 1173.3257 3119.6755 1376256
58.817509 1179.995 3137.4082 1376256
77.395271 1179.8025 3136.896 1507840
95.118057 1169.175 3108.6396 1442304
114.37886 1177.8339 3131.6621 1507840
132.4451 1173.4915 3120.1162 1442048
150.9288 1173.4584 3120.0283 1639424
169.56372 1174.4801 3122.7449 1573632
188.42645 1176.7235 3128.7095 1836802
206.46864 1173.8997 3121.2014 1639424
224.43199 1171.1285 3113.8337 1639168
244.79146 1180.3322 3138.3044 1507840
262.24329 1175.2061 3124.675 1573632
280.77185 1175.2629 3124.8264 1573632
299.52002 1176.1753 3127.252 1508096
316.47302 1170.3424 3111.7437 1771010
334.66422 1169.479 3109.4478 1968387
352.97922 1169.1155 3108.4814 1902850
372.94037 1173.97 3121.3884 1902850
388.70346 1165.7753 3099.6001 1705472
408.46539 1169.7719 3110.2263 1771265
428.90732 1175.2866 3124.8894 1771009
446.01358 1171.583 3115.042 1705216
464.52835 1171.7264 3115.4236 1705217
484.82877 1176.191 3127.2939 1705217
502.99591 1175.342 3125.0366 1507840
523.01697 1178.7316 3134.0486 1639424
541.33118 1178.1738 3132.5657 1507840
553.16022 1164.0062 3094.8967 1902594
575.74701 1172.6591 3117.9031 1837057
593.67206 1171.5741 3115.0183 1771264
613.30957 1173.8322 3121.022 1639680
634.52924 1178.8975 3134.4897 1771265
649.86005 1173.0448 3118.9287 1837057
669.26215 1174.6616 3123.2275 1837057
686.45905 1172.4253 3117.2812 1771008
708.24396 1177.9366 3131.9351 1771264
724.0611 1173.4944 3120.124 1705472
741.76477 1172.255 3116.8286 1508096
760.74243 1173.0402 3118.9163 1573888
779.95282 1174.1384 3121.8364 1639680
801.85126 1179.1387 3135.1311 1704704
818.19 1175.9219 3126.5784 1770496
840.49811 1181.2369 3140.7102 1638912
856.65375 1177.8623 3131.7375 1967873
870.68036 1171.7656 3115.5273 2098946
889.89709 1172.7618 3118.1763 2164739
907.08435 1171.0975 3113.751 1901568
929.23285 1175.777 3126.1931 1901568
943.21423 1170.1415 3111.2092 1967360
958.79425 1166.6674 3101.9719 1835520
984.93903 1175.9374 3126.6194 1967360
992.94568 1163.6095 3093.8416 1901568
1015.7243 1168.7255 3107.4443 2295553
1036.8169 1171.754 3115.4966 2361089
1045.3715 1160.7546 3086.2512 2558723
1060.8154 1157.6519 3078.0015 2558467
1079.4393 1158.0654 3079.1011 2163712
1099.4458 1159.9237 3084.042 2492672
1120.8761 1163.1992 3092.7507 2624002
1149.6387 1173.8557 3121.0847 2755331
1155.5093 1161.1708 3087.3577 2426625
1176.0793 1163.4226 3093.3447 2887171
1191.437 1160.5281 3085.6487 2952965
1212.6693 1163.3566 3093.1694 2952452
1225.4961 1158.1575 3079.3459 2623488
1244.0914 1158.4824 3080.2097 3018243
1263.7502 1159.7742 3083.644 3280901
1277.7471 1155.9066 3073.3611 3477766
1302.4004 1161.6528 3088.6394 3346180
1318.4453 1159.6681 3083.3623 3345925
1335.0663 1158.2373 3079.5581 2951680
1349.8959 1155.312 3071.7803 3345152
1367.8823 1155.1304 3071.2971 3541504
1379.0999 1149.3125 3055.8284 5250825
1398.2596 1150.1783 3058.1309 8144163
1424.2666 1156.5826 3075.1584 9130534
1449.8711 1162.5022 3090.8977 9459498
1459.0593 1155.2759 3071.6838 9853742
1474.486 1153.1062 3065.9153 9327399
1500.0242 1158.8008 3081.0562 9524521
1512.2489 1154.1971 3068.8159 9195812
1535.6017 1158.0953 3079.1804 9064228
1562.3889 1164.4615 3096.1074 8603421
1582.8776 1166.0402 3100.3044 10446395
1608.561 1171.3655 3114.4636 9854257
1631.6488 1174.7013 3123.3328 9854001
1641.677 1168.6654 3107.2844 10248759
1657.8485 1167.0883 3103.0911 9788209
1668.1752 1161.4762 3088.1697 10249015
1629.7937 1122.4404 2984.3804 10117430
1713.7556 1167.5964 3104.4424 8801569
1733.3286 1168.3905 3106.5537 9196071
1748.4543 1166.2017 3100.7336 9458986
1781.5607 1175.9263 3126.5898 9130020
1781.5149 1163.7938 3094.332 9392937
1806.9644 1168.3939 3106.5627 9721902
1812.1367 1159.9222 3084.0381 9590828
1848.6978 1171.5106 3114.8494 9327912
1870.0048 1173.2988 3119.6042 9591084
1907.6934 1185.23 3151.3271 9327655
1913.991 1177.616 3131.0825 10051378
1909.8011 1163.7574 3094.2349 9656364
1948.345 1175.955 3126.6663 9327398
1977.0447 1182.0371 3142.8379 9129763
1996.0791 1182.281 3143.4863 9656107
2025.634 1188.6943 3160.5381 9590572
2021.8827 1175.624 3125.7864 9656109
2064.2319 1189.3528 3162.2888 9392936
2065.5583 1179.4111 3135.8555 9458728
2088.5369 1181.8995 3142.4717 9590571
2110.9009 1183.9993 3148.0547 9327142
2113.0974 1174.8495 3123.7271 9722158
2163.6562 1192.5137 3170.6934 9458986
2170.8879 1186.1993 3153.9045 9656108
2199.4639 1191.5562 3168.1472 9656109
2220.1465 1192.5822 3170.8752 9721902
2242.1912 1194.3165 3175.4866 9919537
2270.8464 1199.5138 3189.3054 9853745
2276.5259 1192.5892 3170.8938 9985332
2286.845 1188.1884 3159.1929 9656623
2306.1299 1188.48 3159.968 9459499
2316.6201 1184.2706 3148.7761 10051379
2323.4387 1178.2667 3132.813 9854257
2342.6121 1178.5739 3133.6294 10117173
2351.0491 1173.5168 3120.1838 10051380
2368.6663 1173.0856 3119.0369 9590829
2405.5068 1182.1074 3143.0247 9393707
2418.6064 1179.4135 3135.8621 9722671
2435.3828 1178.5403 3133.54 9656879
2424.5481 1164.4193 3095.9951 10051636
2467.8816 1176.3303 3127.6643 10380858
2481.1172 1173.8242 3121.0012 9854004
2497.8811 1173.0122 3118.842 10380091
2510.1499 1170.1167 3111.1433 10116919
2538.0015 1174.4744 3122.7295 9788210
2559.127 1175.6788 3125.9321 9722417
2584.2014 1178.6674 3133.8782 9919540
2612.4563 1183.0533 3145.5398 9787954
2646.2205 1189.8545 3163.6228 9327403
2640.7603 1179.047 3134.8875 9064230
2650.707 1175.2213 3124.7158 9327660
2694.8894 1186.5223 3154.7632 9327405
2700.3813 1180.75 3139.4155 9525041
2728.9075 1185.0594 3150.8738 8736551
2726.7266 1176.0662 3126.9619 8999466
2749.7688 1177.9999 3132.1035 9393968
2772.5134 1179.781 3136.8391 9065259
2751.8362 1163.1843 3092.7112 9657140
2804.2583 1177.5013 3130.7778 9657140
2839.6545 1184.5281 3149.4607 9591604
2844.7974 1178.9255 3134.5647 8670245
2876.1633 1184.1926 3148.5688 8407073
2896.4336 1184.8527 3150.3237 8736039
2883.5044 1172.0103 3116.178 8670245
2885.0784 1165.1887 3098.0408 8933161
2912.7083 1168.91 3107.9351 9065261
2898.7556 1156.0018 3073.6143 9262897
2927.7285 1160.2661 3084.9524 9196847
2902.9187 1143.2957 3039.8308 8473124
0 0 0 0
0 0 0 0
0 0 0 0
0 0 0 0
0 0 0 0
0 0 0 0
0 0 0 0
-2785.5002 1190.6333 3116.5925 1024
-2767.1711 1190.6927 3116.748 1024
-2749.387 1190.9888 3117.5232 1024
-2731.2009 1191.1138 3117.8503 1024
-2713.5208 1191.4626 3118.7634 768
-2681.7175 1185.5724 3103.3452 768
0 0 0 0
0 0 0 0
0 0 0 0
0 0 0 0
0 0 0 0
-2586.594 1192.5842 3121.6995 1024
-2405.9824 1117.3009 2924.6382 1024
-2528.7786 1182.8451 3096.2065 768
-2519.9006 1187.3063 3107.884 1024
-2500.5847 1186.8789 3106.7654 1024
-2478.1812 1184.969 3101.7656 1024
-2453.5254 1181.9453 3093.8511 1024
-2284.4426 1108.7771 2902.3264 1024
-2298.481 1124.0526 2942.3115 1024
-2243.314 1105.4589 2893.6406 1024
-2268.3577 1126.4091 2948.4797 1024
-2349.1687 1175.5923 3077.2214 1024
-2336.0232 1178.1586 3083.9387 1024
-2318.4592 1178.5192 3084.8828 1024
-2294.7129 1175.718 3077.5505 1280
-2277.3691 1176.1788 3078.7566 1280
-2260.4243 1176.8545 3080.5254 1280
-2246.438 1179.0941 3086.3877 1280
-2225.1609 1177.5123 3082.2476 1280
-2208.8152 1178.5358 3084.9263 1280
-2176.3628 1170.9104 3064.9663 1280
-2154.3735 1168.8335 3059.5298 1280
-2135.4211 1168.3829 3058.3503 1280
-2114.3831 1166.7738 3054.1382 1280
-2095.8625 1166.5381 3053.5212 1280
-2075.6455 1165.3458 3050.4004 1280
-2060.2954 1166.889 3054.4399 1280
-2044.5753 1168.2482 3057.9976 1280
-2031.2172 1170.9933 3065.1831 1280
-2011.6898 1170.1993 3063.1047 1280
-1991.3728 1168.9274 3059.7754 1280
-1972.8931 1168.7203 3059.2336 1280
-1954.3385 1168.465 3058.5649 1280
-1936.6858 1168.7489 3059.3081 1280
-1917.9686 1168.3896 3058.3679 1280
-1898.4552 1167.5339 3056.1279 1280
-1879.6931 1167.1284 3055.0664 1280
-1865.5117 1169.5867 3061.5012 1280
-1849.5491 1170.9657 3065.1108 1280
-1832.2643 1171.5265 3066.5789 1280
-1817.4246 1173.6775 3072.2095 1280
-1800.1085 1174.2568 3073.7258 1280
-1780.6475 1173.4344 3071.573 1280
-1763.6511 1174.2361 3073.6714 1280
-1740.3291 1170.799 3064.6743 1280
-1726.0917 1173.4652 3071.6536 1280
-1706.9795 1172.8389 3070.0142 1280
-1687.1702 1171.7151 3067.0725 1280
-1667.986 1171.0055 3065.2153 1280
-1648.9904 1170.4144 3063.6677 1280
-1632.7795 1171.8086 3067.3174 1280
-1617.6339 1174.0072 3073.0725 1280
-1596.8829 1172.1416 3068.1887 1536
-1578.5166 1172.0034 3067.8271 1280
-1564.1832 1174.8912 3075.3862 1280
-1545.0322 1174.1859 3073.54 1280
-1524.0602 1172.0632 3067.9839 1280
-1505.8684 1172.0535 3067.958 1280
-1488.9431 1173.0409 3070.543 1280
-1467.9484 1170.8074 3064.6963 1280
-1449.8604 1170.8651 3064.8477 1280
-1433.4303 1172.2803 3068.5518 1280
-1415.7188 1172.6702 3069.5728 1280
-1397.3191 1172.4929 3069.1086 1280
-1381.0791 1174.1472 3073.4387 1280
-1360.5558 1172.1554 3068.2251 1280
-1342.5538 1172.3113 3068.6331 1280
-1327.2998 1174.9038 3075.4192 1280
-1306.6204 1172.6992 3069.6484 1280
-1287.5297 1171.8785 3067.5002 1280
-1269.0565 1171.6042 3066.7825 1280
-1249.8696 1170.6537 3064.2939 1280
-1229.5234 1168.5731 3058.8481 1280
-1211.5635 1168.7323 3059.2649 1280
-1195.8427 1171.089 3065.4336 1280
-1177.4777 1170.889 3064.9102 1280
-1158.2677 1169.8295 3062.1367 1280
-1141.1331 1170.8654 3064.8484 1280
-1122.303 1170.1674 3063.0212 1280
-1104.4194 1170.4492 3063.759 1280
-1089.5658 1174.0055 3073.0679 1280
-1070.9308 1173.5387 3071.8462 1280
-1057.3195 1178.6561 3085.2412 1280
-1037.6273 1177.0558 3081.0522 1280
-1019.3214 1176.9987 3080.9026 1280
-1000.7821 1176.665 3080.0295 1280
-981.80505 1175.7949 3077.752 1024
-964.82788 1177.332 3081.7754 1024
-947.10895 1178.006 3083.5396 768
-928.81207 1177.9734 3083.4543 768
-911.81378 1179.6196 3087.7632 768
-890.38507 1175.4843 3076.9385 512
-871.54688 1174.6672 3074.8 526592
-854.77167 1176.6553 3080.0039 657408
-839.62207 1181.0167 3091.4204 327936
-821.4762 1181.264 3092.0679 1576454
-805.76416 1185.1023 3102.115 1116160
-789.61719 1188.4652 3110.9175 1050112
-770.48981 1187.3958 3108.1182 1050112
-751.33771 1186.235 3105.0798 1444098
-733.85602 1187.7195 3108.9653 1180928
-715.95612 1188.5859 3111.2334 1049344
-699.9281 1192.688 3121.9709 1180928
-681.24591 1192.3672 3121.1313 1180672
-663.27875 1193.3151 3123.6123 1509377
-639.61304 1183.7705 3098.6287 1246208
-622.52466 1186.1947 3104.9741 1114368
-606.33734 1190.5358 3116.3374 1048576
-586.99207 1188.7543 3111.6741 1508864
-567.82861 1187.2373 3107.7034 1377280
-553.21179 1195.4434 3129.1836 1245696
-532.78284 1191.2239 3118.1384 1179904
-515.13007 1193.131 3123.1306 1442816
-494.47745 1187.9733 3109.6299 1377280
-477.99283 1192.8175 3122.3101 1245696
-459.31976 1192.3707 3121.1406 1443072
-441.43488 1194.0182 3125.4531 1377280
-420.746 1187.8937 3109.4214 1508864
-402.57803 1188.6512 3111.4045 1245696
-383.68817 1187.2479 3107.7312 1245440
-366.27151 1190.4915 3116.2212 1311232
-346.85419 1187.2312 3107.6875 1443072
-327.44888 1183.649 3098.3108 1377280
-308.89337 1182.8953 3096.3379 1311488
-290.5972 1183.1027 3096.8804 1377280
-272.86874 1185.8048 3103.9536 1443072
-254.0209 1183.6815 3098.3955 1443072
-235.16391 1181.1813 3091.8513 1574145
-217.61017 1185.3577 3102.7832 1705729
-197.78394 1176.7841 3080.3408 1310976
-179.93437 1179.4235 3087.25 1573888
-162.15025 1183.1382 3096.9734 1442304
-143.13083 1177.6368 3082.5735 1639936
-125.50356 1183.6561 3098.3293 1508352
-107.25616 1184.8873 3101.552 1508352
-88.593895 1181.0969 3091.6301 1442560
-69.99424 1176.3823 3079.2896 1508352
-51.760536 1176.6625 3080.0227 1508352
-33.571133 1178.8033 3085.6267 1310976
-15.212626 1173.0256 3070.5029 1310976
2.9867394 1175.1508 3076.0657 1442304
21.198839 1174.3295 3073.916 1376768
39.567791 1178.9408 3085.9863 1508352
57.633579 1174.4592 3074.2556 1442560
75.718605 1172.4282 3068.9392 1639424
94.053139 1174.299 3073.8359 1770752
112.49723 1176.7087 3080.1438 1836802
130.07529 1170.6515 3064.2886 1639424
149.27248 1178.8652 3085.7886 1639424
167.89848 1181.2676 3092.0771 1705216
185.83545 1178.8265 3085.6873 1376256
204.1951 1179.2638 3086.832 1442048
222.01973 1176.7932 3080.3652 1771009
241.08527 1180.7759 3090.79 1836802
259.7576 1182.4061 3095.0574 1573632
276.63092 1176.1725 3078.7402 1507840
295.11215 1177.1237 3081.23 1048576
313.10403 1176.1257 3078.6179 1573888
328.99472 1167.7797 3056.771 1771265
347.06638 1167.6418 3056.4104 1836801
366.21179 1170.951 3065.0725 1639680
383.7027 1168.9073 3059.7229 1639424
402.30255 1170.2738 3063.2998 1771008
421.83215 1174.1102 3073.342 1639169
436.18658 1163.8208 3046.4084 1639424
459.36536 1176.9585 3080.7974 1705473
477.57983 1176.8586 3080.5361 1639424
495.45316 1175.9564 3078.1746 1639424
513.85187 1176.321 3079.1292 1705472
531.8562 1175.7888 3077.7358 1639424
549.86395 1175.2992 3076.4543 1245184
566.51843 1172.0414 3067.9265 1508352
584.07153 1170.7874 3064.644 1968642
603.54022 1173.333 3071.3076 1968642
623.18549 1176.0629 3078.4534 1771264
642.91943 1178.8002 3085.6182 1705472
658.5802 1174.1241 3073.3784 1705472
681.39728 1182.115 3094.2952 1573888
