# .PCD v0.7 - Point Cloud Data file format
VERSION 0.7
FIELDS x y z rgb
SIZE 4 4 4 4
TYPE F F F U
COUNT 1 1 1 1
WIDTH 1342
HEIGHT 1
VIEWPOINT 0 0 0 1 0 0 0
POINTS 1342
DATA ascii
5088.0859 1268.0282 9965.7842 7949094
5203.5898 1281.9357 10075.087 8080935
5294.7363 1289.5951 10135.284 8474922
5344.0884 1287.0173 10115.024 8409128
5310.3979 1264.7195 9939.7793 7619865
5405.6797 1273.2897 10007.136 12159834
5463.1016 1272.853 10003.703 13277804
5562.1035 1282.0094 10075.666 10382912
5679.2266 1295.1038 10178.578 9133361
5772.9604 1302.6454 10237.85 8409640
5906.6602 1318.9543 10366.026 8475950
5864.042 1295.9609 10185.315 8607023
6005.8765 1313.7853 10325.401 9989962
5921.6064 1282.2885 10077.859 10253393
6022.6387 1291.1461 10147.474 9989705
6346.0371 1347.0286 10586.67 10120776
6469.3662 1359.7656 10686.773 10449995
6549.4277 1363.2498 10714.156 8673068
6408.0049 1321.0079 10382.166 8475689
6391.0117 1304.9766 10256.171 8343078
6492.6484 1313.2421 10321.133 7553820
6563.646 1315.2141 10336.631 7356184
6550.2617 1300.3975 10220.183 8475178
6594.293 1297.1464 10194.632 8540199
6839.7598 1333.2185 10478.133 11237452
6968.9351 1346.1779 10579.983 13013859
6888.1045 1318.7014 10364.038 13277030
6991.5391 1326.6754 10426.709 13737582
7035.4375 1323.3116 10400.271 9327913
7364.2158 1373.1245 10791.765 8605739
7726.1792 1428.2142 11224.73 3148802
8280.2676 1517.5757 11927.047 4660234
8258.4111 1500.7606 11794.893 11105858
7988.313 1439.495 11313.389 11829058
8011.0474 1431.5782 11251.169 12223302
7759.2251 1375.1335 10807.555 12420423
7667.4688 1347.7487 10592.329 11697220
7854.7817 1369.4635 10762.992 10513466
7774.3223 1344.5192 10566.947 8475690
7850.9541 1346.9242 10585.849 8146725
7949.0234 1352.9397 10633.127 8146982
8180.2495 1381.3459 10856.38 9396793
7808.7622 1308.327 10282.503 9462072
8446.4678 1404.2156 11036.118 9001521
8505.5781 1403.1791 11027.972 9922110
8565.5586 1402.3008 11021.068 9856832
8631.6699 1402.4318 11022.099 8935728
8699.3291 1402.8105 11025.076 8870191
8555.3418 1369.3091 10761.778 8935984
8420.168 1337.7035 10513.381 8936495
8707.9023 1373.2554 10792.794 11502165
8337.8955 1305.3182 10258.856 11699286
8284.1562 1287.5184 10118.963 11765081
8402.9395 1296.5952 10190.3 11830620
8539.7383 1308.3025 10282.311 10121803
0 0 0 0
0 0 0 0
0 0 0 0
0 0 0 0
15027.956 2223.0081 17471.234 10458496
15229.704 2237.4385 17584.646 9862481
14458.09 2109.645 16580.283 9270333
14448.92 2094.0774 16457.934 8419663
14383.413 2070.6086 16273.484 5196348
14619.795 2090.6221 16430.775 3223076
15028.804 2134.8928 16778.713 2104846
14856.955 2096.6113 16477.848 3027213
15597.197 2186.7036 17185.908 2239236
16314.875 2272.4839 17860.078 4345367
14699.685 2034.3098 15988.202 4346389
15178.924 2087.1809 16403.73 3821327
14097.674 1926.1692 15138.295 4018964
15396.971 2090.3918 16428.967 4347673
12487.231 1684.6952 13240.485 4019221
14903.473 1998.1249 15703.814 3755792
15008.337 1999.6987 15716.185 3624721
0 0 0 0
0 0 0 0
0 0 0 0
-6698.7656 972.27722 7301.375 1536
-6655.3154 972.25006 7301.1709 1536
-6606.7041 971.46356 7295.2646 1536
-6729.4541 996.02991 7479.7471 1536
-6523.7051 971.97833 7299.1304 1536
-6470.9761 970.5567 7288.4546 1536
-6418.501 969.15424 7277.9229 1536
-6364.0967 967.43958 7265.0459 1536
-6701.6982 1025.6981 7702.5425 1536
-6630.1392 1021.7042 7672.5498 1536
-6512.1084 1010.4443 7587.9927 1280
-6167.147 963.57159 7235.999 1280
-6100.0972 959.76819 7207.4375 1280
-6050.7866 958.7218 7199.5801 1280
-5984.5562 954.96069 7171.3354 1280
-5878.9434 944.81665 7095.1582 1280
-5839.2954 945.20416 7098.0679 1280
-5790.7686 944.1496 7090.1484 1280
-5722.9126 939.90509 7058.2744 1024
-5734.8496 948.79938 7125.0664 1280
-5664.5239 944.11481 7089.8872 1280
-5623.3442 944.25421 7090.9346 1280
-5552.2578 939.33624 7054.0024 1280
-5504.0337 938.24078 7045.7759 1280
-5281.8433 907.24683 6813.0254 1280
-5306.0986 918.43292 6897.0273 1536
-5273.9272 919.94977 6908.4189 1280
-5277.3535 927.74835 6966.9829 1536
-5154.8657 913.36011 6858.9331 1536
-5214.4902 931.26685 6993.4048 1536
-5301.5649 954.40222 7167.1416 1536
-5329.1167 967.10913 7262.5649 1536
-5075.4077 928.56543 6973.1182 1536
-5150.7358 950.08148 7134.6948 1536
-5009.2944 931.63849 6996.1958 1536
-4652.0078 872.40936 6551.4111 1536
-4773.73 902.76971 6779.4043 1536
-4769.5752 909.63855 6830.9863 1536
-4519.0728 869.24023 6527.6123 1536
-4440.9468 861.5871 6470.1406 1536
-4399.7227 861.02222 6465.8989 1536
-4323.334 853.50555 6409.4517 1536
-4234.3667 843.35016 6333.1895 1536
-4074.1658 818.69891 6148.0693 1536
-4112.1982 833.79706 6261.4497 1536
-4227.6558 865.0119 6495.8589 1536
-4079.5234 842.37213 6325.8447 1792
-4041.5615 842.2724 6325.0957 1792
-3983.0132 837.84033 6291.8125 1536
-3916.5242 831.63837 6245.2388 1536
-3562.5325 763.68726 5734.9556 1536
-3611.457 781.63074 5869.7036 1536
-3579.4194 782.2301 5874.2046 1536
-3538.2046 780.81598 5863.5854 1536
-3495.1362 778.96082 5849.6533 1792
-3450.2688 776.66339 5832.4009 1536
-3397.231 772.46179 5800.8486 1536
-3345.885 768.56293 5771.5698 1536
-3296.9482 765.14264 5745.8848 1536
-3259.189 764.27197 5739.3467 1536
-3244.8384 768.93018 5774.3276 1536
-3230.8167 773.76642 5810.646 1536
-3194.8464 773.39374 5807.8472 1536
-3145.3843 769.71112 5780.1924 1536
-3103.821 767.90179 5766.6055 1536
-3060.7297 765.66992 5749.8447 1536
-3027.9827 766.00464 5752.3584 1536
-2851.7859 729.64453 5479.3101 1536
-2827.3367 731.71967 5494.8931 1536
-2778.2119 727.38257 5462.3237 1536
-2742.8508 726.58929 5456.3662 1536
-2709.5952 726.34149 5454.5054 1536
-2678.2397 726.60321 5456.4707 1536
-2647.3315 726.99414 5459.4067 1536
-2625.4246 729.89716 5481.207 1792
-2596.1741 730.80573 5488.0303 1536
-2569.24 732.39783 5499.9858 1536
-2538.1506 732.83093 5503.2383 1536
-2514.3857 735.41766 5522.6636 1536
-2489.4355 737.72144 5539.9639 1536
-2459.4265 738.56744 5546.3169 1536
-2437.1387 741.78656 5570.4912 1536
-2411.4189 744.03516 5587.377 1536
-2382.1213 745.22699 5596.3276 1536
-2356.2253 747.53174 5613.6353 1536
-2332.4197 750.57513 5636.4897 1536
-2308.5586 753.6889 5659.8726 1536
-2280.3635 755.45856 5673.1621 1536
-2264.5999 761.46124 5718.2393 1536
-2241.6375 765.18896 5746.2329 1536
-2220.5168 769.6701 5779.8843 1536
-2192.7366 771.94708 5796.9834 1536
-2160.7454 772.79059 5803.3179 1536
-2092.6704 760.54712 5711.375 1536
-2107.5911 778.56055 5846.6479 1536
-2086.8916 783.79779 5885.9771 1792
-2068.9453 790.26459 5934.54 1792
-2043.1362 793.89984 5961.8394 1792
-2025.0056 800.69916 6012.8989 1792
-2003.9548 806.56671 6056.9614 1792
-1979.7637 811.36108 6092.9653 1536
-1956.3484 816.65753 6132.7397 1536
-1933.5085 822.39929 6175.8574 1536
-1906.0902 826.3775 6205.7324 1536
-1879.6459 830.94287 6240.0161 1536
-1848.701 833.66199 6260.4351 1536
-1817.6976 836.46552 6281.4883 1536
-1789.3448 840.63147 6312.7729 1792
-1764.8207 846.81238 6359.189 1792
-1734.0948 850.22247 6384.7969 1792
-1711.4226 857.82123 6441.8604 1792
-1998.3578 1024.4923 7693.4868 1792
-1967.7051 1032.3274 7752.3247 1792
-1927.1224 1035.2028 7773.918 1536
-1586.8501 873.29095 6558.0312 1536
-1568.4895 884.85492 6644.8721 1536
-1546.259 894.77515 6719.3682 1536
-1522.991 904.60339 6793.1743 1536
-1517.8657 926.03406 6954.1089 1536
-1469.0211 921.24377 6918.1357 1536
-1444.1829 931.66522 6996.3965 1536
-1420.175 943.25433 7083.4258 1536
-1390.2147 951.47522 7145.1611 1536
-1360.0759 960.08679 7209.8301 1280
-1334.3159 972.448 7302.6572 1280
-1334.1307 1004.9014 7546.3687 1280
-1383.4709 1078.2034 8096.8335 1647637
-1377.9752 1112.5004 8354.3887 1317905
-1347.0239 1128.0361 8471.0557 1119761
-1379.8203 1200.2249 9013.1621 1052943
-1326.3213 1200.1414 9012.5342 790027
-1284.8237 1211.366 9096.8262 1053967
-1218.8888 1199.5245 9007.9023 1186835
-1197.2294 1232.1661 9253.0264 2042397
-1156.4851 1247.3563 9367.0986 1280
-1101.0576 1247.4427 9367.7471 1536
-1081.4093 1290.2264 9689.0342 1536
-1019.393 1284.4244 9645.4639 1536
-972.87445 1298.62 9752.0654 1536
-866.60907 1229.8204 9235.4111 1536
-813.15015 1231.736 9249.7959 1536
-761.133 1236.2703 9283.8467 1536
-696.54065 1219.4945 9157.8682 1536
-646.7027 1227.8983 9220.9766 1536
-587.61139 1218.6625 9151.6201 1536
-538.47522 1230.2939 9238.9668 1536
-484.16568 1231.4005 9247.2764 1536
-427.31876 1225.5123 9203.0596 1536
-380.85324 1252.0298 9402.1934 1536
-343.06564 1321.0508 9920.5107 1536
-282.29648 1311.8213 9851.2012 1536
-225.05858 1318.467 9901.1084 1536
-166.21869 1317.1052 9890.8818 1280
-108.41522 1326.9456 9964.7783 1280
-49.511654 1330.7556 9993.3896 1280
9.8453789 1350.2562 10139.831 1280
69.438095 1340.7976 10068.801 1280
129.4868 1344.817 10098.985 1280
190.02843 1349.797 10136.382 1280
253.98456 1370.8137 10294.209 1280
320.08621 1393.0281 10461.028 1280
387.30249 1412.0981 10604.237 1280
457.54071 1435.3245 10778.656 1280
522.58215 1438.5551 10802.917 768
596.95331 1463.9607 10993.701 512
678.82996 1500.9624 11271.568 256
754.25275 1518.3435 11402.093 131840
773.48328 1429.0487 10731.528 1315591
818.64069 1397.583 10495.234 1709322
874.7135 1387.8795 10422.365 590849
977.92584 1449.318 10883.742 2759696
1154.8247 1605.6046 12057.385 3021581
1193.5421 1562.7532 11735.59 3218189
1319.7911 1632.9191 12262.505 3414540
1415.6644 1660.1406 12466.928 3808007
1653.5005 1842.885 13839.257 4136194
1662.5486 1765.416 13257.499 7424036
1666.6112 1689.8823 12690.274 10120771
1710.4814 1659.4915 12462.053 10120511
1793.9747 1668.467 12529.454 10251585
1889.6464 1687.6053 12673.174 10317377
1951.9448 1676.615 12590.642 10317378
2037.2372 1685.4572 12657.043 10317377
2104.8682 1679.5786 12612.897 10448963
2197.8997 1693.6764 12718.767 10580548
2263.9585 1686.7439 12666.706 10580546
2338.3796 1686.2867 12663.272 10646081
2410.269 1684.0887 12646.767 10711618
2477.5098 1678.8733 12607.602 10711619
2526.7366 1662.1135 12481.742 10777668
2585.5032 1652.4036 12408.825 10712133
2515.0862 1562.9523 11737.085 10711879
2597.7861 1570.906 11796.814 10777417
2732.062 1608.8141 12081.487 10711882
2792.4045 1602.3613 12033.03 10777420
2856.4714 1598.314 12002.636 10711627
2894.959 1580.4979 11868.846 10711884
2910.6248 1551.3633 11650.057 10711884
2914.1311 1517.2477 11393.863 10448713
2863.7593 1457.2603 10943.384 10580300
2784.4939 1385.5521 10404.888 10251848
2796.967 1361.6104 10225.096 10054725
2689.5239 1281.5446 9623.8369 8741183
2473.8816 1154.3175 8668.417 7099454
2536.5271 1159.4745 8707.1436 7626573
2593.8352 1162.0347 8726.3701 7626825
2869.4568 1260.3873 9464.9551 1838080
2771.4702 1194.0105 8966.4941 1705728
2743.105 1159.5609 8707.793 1311232
2816.2695 1168.5095 8774.9932 4468499
3009.0442 1225.8619 9205.6846 9333314
3001.6526 1201.0778 9019.5664 7686948
3281.4133 1290.0515 9687.7197 7949349
3449.5698 1332.8442 10009.074 8343854
3490.8518 1325.9971 9957.6553 8343596
3543.9919 1323.807 9941.209 8475182
3631.5908 1334.3497 10020.381 9001782
3698.8013 1337.1824 10041.652 9330491
3742.0659 1331.4058 9998.2725 8935990
3796.688 1329.787 9986.1162 8936503
3895.1672 1343.3431 10087.917 9397053
3917.229 1330.5333 9991.7207 9265469
4027.8757 1347.746 10120.98 9265727
4075.1768 1343.5688 10089.612 9265728
4161.1499 1352.0781 10153.513 9463620
4168.3643 1335.1187 10026.154 9529413
4248.0771 1341.5304 10074.305 9791815
4312.9185 1343.1334 10086.342 9463105
4293.1694 1318.7094 9902.9277 9199933
4334.2197 1313.3674 9862.8125 8739124
4380.9092 1309.8538 9836.4268 8936503
4462.8193 1316.8248 9888.7754 9002296
4527.7979 1318.684 9902.7373 10186572
4558.1064 1310.5275 9841.4854 9659971
4526.8848 1285.1096 9650.6084 8804662
4650.252 1303.6636 9789.9404 8475954
4680.7256 1296.0393 9732.6855 8541746
4729.083 1293.4921 9713.5566 8475953
4802.2827 1297.7194 9745.3018 8409903
4860.2456 1297.7776 9745.7393 8212265
4915.9248 1297.2316 9741.6396 8475436
5011.1411 1307.0107 9815.0762 8146214
5081.0103 1310.0302 9837.751 7948835
5183.3335 1321.2538 9922.0352 8014368
5302.374 1336.4391 10036.07 8936492
5326.9272 1327.7366 9970.7188 11634768
5385.4087 1327.5889 9969.6094 13938031
5365.4316 1308.3131 9824.8564 13674858
5429.7212 1309.778 9835.8574 13805933
5779.8369 1379.4279 10358.897 12752479
5602.6211 1323.0823 9935.7666 8606761
5767.6694 1347.8953 10122.102 8014625
5859.8188 1355.3363 10177.98 6896666
6057.5508 1386.7976 10414.241 8608565
5799.0796 1314.2358 9869.334 8411443
5866.6685 1316.2797 9884.6816 8213805
5945.311 1320.7385 9918.166 7818789
6021.0488 1324.4712 9946.1973 8081192
6179.52 1346.1543 10109.027 8212521
6199.2378 1337.4849 10043.924 8080935
6290.4917 1344.2676 10094.858 7817763
6326.9048 1339.3135 10057.656 7685150
6402.9932 1342.7723 10083.63 7422235
6550.3413 1360.9727 10220.307 7554845
6462.7949 1330.4824 9991.3389 8935215
6628.5776 1352.2247 10154.613 11171915
6947.3657 1404.5081 10547.238 12882014
6816.9058 1365.8467 10256.909 13209948
7022.814 1394.6687 10473.35 13604451
7070.4883 1391.8372 10452.086 13407072
7068.7368 1379.4097 10358.761 7619357
7288.6963 1410.0889 10589.148 8013860
7631.0649 1463.7238 10991.923 6104836
7586.6323 1442.886 10835.44 6105346
7946.4746 1498.641 11254.136 7486733
7877.3071 1473.2334 11063.336 6763529
7809.5112 1448.4996 10877.597 10512420
7607.5327 1399.4866 10509.529 10776364
7511.1895 1370.5443 10292.186 11105589
7521.9224 1361.4489 10223.883 7355923
7678.7021 1378.7216 10353.593 8014110
7570.3174 1348.4872 10126.546 7685147
7941.3408 1403.4528 10539.313 10447928
8289.7461 1453.5947 10915.857 11171139
8452.1621 1470.5996 11043.557 12485719
8436.7383 1456.6387 10938.717 12748893
8524.7754 1460.6172 10968.594 12617052
8513.46 1447.6416 10871.152 12485982
8575.9297 1447.3131 10868.686 11565393
8659.96 1450.6013 10893.378 8999980
8488.2256 1411.3151 10598.356 9066029
8267.8818 1364.5834 10247.422 8605478
8248.8105 1351.5101 10149.247 10315582
8097.0967 1317.0509 9890.4736 10776131
8257.584 1333.5035 10014.026 9920823
8603.2812 1379.4175 10358.819 10118461
0 0 0 0
0 0 0 0
0 0 0 0
0 0 0 0
0 0 0 0
0 0 0 0
11064.51 1689.6573 12688.585 10845250
11031.471 1673.2421 12565.313 11109972
0 0 0 0
15608.821 2335.9973 17542.314 12364429
16319.113 2426.1421 18219.262 13750197
0 0 0 0
0 0 0 0
0 0 0 0
0 0 0 0
0 0 0 0
0 0 0 0
17517.762 2489.0808 18691.904 2039563
16616.951 2346.2515 17619.318 1514761
15675.558 2199.511 16517.361 2370573
15237.034 2124.7139 15955.667 2635022
0 0 0 0
0 0 0 0
0 0 0 0
-6393.6729 969.28851 6968.8369 1536
-6382.228 973.8429 7001.5815 1536
-6294.8481 966.79443 6950.9062 1536
-6243.7749 965.26605 6939.9175 1536
-6197.9033 964.52686 6934.603 1536
-6161.9058 965.32477 6940.3394 1536
-6118.1123 964.90381 6937.3125 1536
-6058.1978 961.91748 6915.8423 1536
-5994.3872 958.26764 6889.6011 1536
-6072.166 977.35742 7026.8501 1536
-6018.0972 975.34259 7012.3643 1536
-5840.1245 953.07935 6852.2993 1536
-5697.6475 936.33752 6731.9316 1536
-5639.6362 933.33844 6710.3691 1536
-5547.564 924.61975 6647.6851 1536
-5482.96 920.38727 6617.2549 1536
-5443.2397 920.30096 6616.6348 1536
-5395.0542 918.77173 6605.6401 1536
-5352.7017 918.22089 6601.6797 1536
-5313.708 918.24225 6601.8335 1536
-5229.7676 910.43945 6545.7334 1536
-5252.3286 921.19897 6623.0908 1536
-5178.1313 915.02246 6578.6841 1536
-5097.0215 907.52155 6524.7549 1536
-4944.2812 887.05475 6377.606 1536
-5021.5317 907.85321 6527.1392 1536
-4992.8662 909.67688 6540.2515 1536
-4940.6938 907.21295 6522.5366 1536
-4875.6504 902.32819 6487.4165 1536
-4852.623 905.20325 6508.0874 1536
-4807.3789 903.94702 6499.0557 1536
-4761.3755 902.52655 6488.8428 1536
-4772.3774 911.97632 6556.7832 1536
-4682.7681 902.1972 6486.4746 1536
-4590.7104 891.78052 6411.583 1536
-4403.7217 862.59515 6201.7505 1536
-4445.7231 878.15033 6313.5864 1536
-4524.7847 901.35193 6480.3975 1536
-4365.2739 877.01953 6305.4565 1536
-4252.9541 861.82996 6196.2485 1536
-4298.7891 878.70374 6317.5654 1536
-4244.4229 875.21234 6292.4639 1536
-4031.6936 838.71478 6030.0586 1536
-4103.8721 861.36377 6192.897 1536
-4010.1804 849.29291 6106.1118 1536
-4007.9846 856.55597 6158.3306 1536
-3941.9749 850.18939 6112.5571 1536
-3886.186 845.92957 6081.9312 1536
-3866.6482 849.55481 6107.9951 1536
-3808.052 844.58594 6072.2705 1536
-3488.7791 781.15533 5616.2271 1536
-3552.5054 803.08441 5773.8892 1536
-3506.5542 800.40491 5754.6245 1536
-3466.231 798.97015 5744.3091 1536
-3425.1003 797.31879 5732.437 1536
-3381.5242 795.05957 5716.1934 1536
-3342.6572 793.87299 5707.6626 1536
-3302.1511 792.26886 5696.1299 1536
-3266.2014 791.73615 5692.2993 1536
-3226.927 790.37793 5682.5342 1536
-3172.3948 785.2146 5645.4116 1536
-3165.9924 791.98083 5694.0591 1536
-3134.7283 792.60669 5698.5586 1536
-3099.0764 792.12482 5695.0938 1536
-3062.6401 791.42957 5690.0952 1536
-3023.4607 790.00201 5679.832 1536
-2986.3279 789.08313 5673.2256 1536
-2933.1985 783.86841 5635.7334 1536
-2895.479 782.69916 5627.3267 1536
-2755.3584 753.49933 5417.3906 1536
-2722.1406 753.19012 5415.1675 1792
-2687.3401 752.43036 5409.7051 1792
-2654.8296 752.30121 5408.7764 1792
-2627.6165 753.68835 5418.7495 1792
-2593.7485 753.17737 5415.0757 1792
-2562.6477 753.46716 5417.1592 1792
-2531.6118 753.78369 5419.4351 1792
-2504.4941 755.28992 5430.2642 1792
-2477.2969 756.8111 5441.2007 1792
-2458.4443 760.95532 5470.9961 1792
-2426.5352 761.11481 5472.1431 1792
-2403.9724 764.25 5494.6841 1792
-2383.6768 768.2019 5523.0967 1536
-2359.6167 771.03387 5543.4575 1536
-2327.5105 771.27936 5545.2227 1536
-2307.9758 775.75751 5577.4189 1536
-2279.9966 777.48621 5589.8472 1536
-2248.8591 778.17291 5594.7847 1536
-2223.0364 780.74677 5613.2896 1536
-2202.2603 785.19812 5645.2935 1536
-2185.7593 791.33459 5689.4126 1536
-2163.9294 795.70386 5720.8257 1792
-2139.5046 799.24268 5746.269 1792
-2109.8691 800.91809 5758.3145 1792
-2089.0059 806.03333 5795.0908 1792
-2071.8235 812.76343 5843.478 1792
-2049.6687 817.73846 5879.2471 1792
-2021.7543 820.54803 5899.4468 1792
-1999.6765 825.867 5937.6885 1792
-1974.2695 829.97693 5967.2373 1792
-1952.615 835.84296 6009.4121 1792
-1935.0847 843.72522 6066.0825 1792
-1909.2751 848.22754 6098.4526 1792
-1880.8831 851.73419 6123.6641 1536
-1854.7627 856.4278 6157.4097 1536
-1820.9095 857.66754 6166.3223 1536
-1780.181 855.6532 6151.8403 1536
-1749.769 858.61719 6173.1504 1792
-1722.1633 863.11407 6205.4814 1792
-1697.9847 869.56238 6251.8423 1792
-1681.7662 880.46558 6330.2324 1792
-1968.9476 1054.3306 7580.2598 1792
-1631.0513 893.78333 6425.9819 1792
-1608.2638 902.36169 6487.6577 1536
-1572.4742 903.88641 6498.6196 1536
-1554.6107 916.05042 6586.0747 1536
-1527.6375 923.33478 6638.4468 1536
-1494.6891 927.29736 6666.936 1536
-1492.759 951.24103 6839.0825 1536
-1460.3926 956.58459 6877.501 1536
-1420.5986 957.2301 6882.1421 1536
-1403.0839 973.36963 6998.1792 1536
-1365.8369 976.38647 7019.8691 1536
-1333.6141 983.29718 7069.5547 1536
-1304.2941 992.86566 7138.3486 1280
-1303.5537 1025.5605 7373.4131 1280
-1401.5121 1140.8662 8202.4199 330754
-1403.2832 1183.345 8507.8262 988684
-1363.0272 1192.2284 8571.6953 1120272
-1314.1482 1193.9653 8584.1836 1580824
-1301.5167 1230.1008 8843.9844 1976096
-1240.8333 1221.9474 8785.3643 2568747
-1206.9335 1240.6111 8919.5498 2569260
-1182.7408 1271.4192 9141.0488 2437413
-1149.2247 1294.6809 9308.292 1280
-1045.7557 1237.5083 8897.2422 1536
-1023.2296 1275.1353 9167.7656 1536
-962.35181 1266.5083 9105.7412 1536
-910.14789 1268.95 9123.2959 1536
-837.72931 1241.7365 8927.6406 1536
-803.37781 1271.0831 9138.6328 1536
-739.57581 1254.7084 9020.9043 1536
-688.07568 1258.2787 9046.5732 1536
-603.31299 1196.4862 8602.3076 1536
-597.49927 1294.3087 9305.6162 1536
-544.0437 1298.3274 9334.5088 1536
-485.15411 1288.8199 9266.1543 1536
-442.15628 1324.4902 9522.6113 1536
-381.7254 1310.7362 9423.7246 1536
-328.87616 1322.7628 9510.1904 1536
-274.4317 1332.0199 9576.7461 1536
-220.09811 1346.782 9682.8799 1536
-161.72427 1338.5146 9623.4414 1536
-105.6182 1350.2335 9707.6963 1280
-47.934418 1345.6917 9675.041 1280
9.4286337 1350.6406 9710.6221 1280
66.372787 1338.6366 9624.3184 1280
124.02871 1345.4489 9673.2959 1024
184.28098 1367.2175 9829.8047 1024
246.90163 1391.8818 10007.132 1024
309.58765 1407.2905 10117.915 66560
373.74136 1423.2888 10232.938 262912
439.2348 1439.2106 10347.408 1643524
489.91339 1408.635 10127.582 1905671
538.82495 1380.2063 9923.1895 2167816
605.63544 1398.709 10056.217 2496267
663.88635 1395.8994 10036.018 2495755
736.26514 1420.8153 10215.153 2495755
806.48578 1438.0972 10339.404 2627598
862.55627 1429.4884 10277.51 852480
951.83173 1473.4155 10593.33 3021840
1089.4396 1582.0963 11374.706 3086604
1131.4569 1547.3833 11125.132 3217676
1217.3129 1573.1456 11310.354 3348748
1329.7399 1628.7655 11710.241 3611147
1479.281 1722.0741 12381.097 3873033
1623.8914 1801.0963 12949.238 4266756
1650.5836 1748.1027 12568.233 6370584
1579.879 1600.9868 11510.522 9726273
1612.7527 1566.6656 11263.765 10251844
1707.8011 1593.0702 11453.604 10382914
1767.1602 1585.4369 11398.724 10382914
1844.9027 1594.2515 11462.098 10317121
1973.8673 1645.1316 11827.908 10448706
2033.1045 1636.4005 11765.134 10514498
2100.4089 1634.5259 11751.656 10580033
2155.0225 1623.2126 11670.318 10448703
2207.2593 1610.8684 11581.567 10580033
2282.519 1615.5642 11615.328 10645828
2332.978 1602.9449 11524.601 10514500
2398.9143 1601.3751 11513.313 10514757
2429.9727 1577.2535 11339.889 10580294
2492.718 1574.444 11319.688 10646343
2523.8777 1552.3545 11160.873 10777162
2608.3696 1563.3583 11239.986 10777419
2633.7124 1539.2452 11066.622 10711625
2708.0645 1544.2506 11102.609 10645576
2757.7542 1535.2888 11038.177 10580296
2802.9978 1524.3242 10959.346 10382917
2820.8398 1499.2924 10779.375 10448712
2816.7068 1463.9476 10525.259 10449226
2849.8049 1449.0652 10418.26 10252360
2654.7002 1321.2379 9499.2275 8937780
2653.5361 1293.2385 9297.9219 8215856
2740.3286 1308.373 9406.7334 8020023
2836.5234 1327.3037 9542.8389 1772546
2642.4424 1212.3196 8716.1436 1181184
2684.5613 1208.0322 8685.3193 655360
2747.991 1213.3154 8723.3037 1180416
2826.782 1225.0608 8807.748 5192733
2895.5356 1232.1091 8858.4238 7951150
3073.9814 1284.7518 9236.9053 8410155
3206.0134 1316.4934 9465.1162 8278314
3298.554 1331.2061 9570.8955 8540715
3389.0364 1344.6047 9667.2266 8540716
3471.8621 1354.5708 9738.8789 8606508
3573.2461 1371.333 9859.3936 9330232
3659.7712 1381.9454 9935.6924 9198389
3685.8821 1369.7701 9848.1562 8935987
3780.551 1383.0552 9943.6719 8935987
3873.0288 1395.1433 10030.581 9067573
3911.5886 1387.7372 9977.334 9067574
3969.0547 1387.1593 9973.1787 8738609
4026.6311 1386.6364 9969.4189 8738353
4065.0176 1379.6158 9918.9434 8804147
4150.3848 1388.5126 9982.9082 8738352
4206.5947 1387.542 9975.9297 9067317
4260.1987 1385.7504 9963.0488 8804145
4296.6196 1378.4951 9910.8867 8935217
4329.8506 1370.4257 9852.8701 8869681
4344.2246 1356.6821 9754.0586 8540974
4419.8218 1362.1682 9793.502 8540975
4482.6113 1363.616 9803.9102 8804147
4530.2217 1360.4683 9781.2793 8804403
4556.8232 1351.1704 9714.4316 8541232
4577.1519 1340.2678 9636.0459 8278312
4575.897 1323.3918 9514.7139 8278056
4654.2705 1329.6758 9559.8926 8277287
4738.0986 1337.3479 9615.0527 8015141
4798.5474 1338.3173 9622.0225 8211751
4825.3696 1329.9955 9562.1914 8343078
4981.5586 1357.1099 9757.1348 8277542
5116.3691 1377.845 9906.2119 8080418
5170.7607 1376.6982 9897.9678 7619609
5212.7383 1372.3092 9866.4121 10054974
4874.6807 1269.0789 9124.2227 13542259
5304.9512 1365.9462 9820.6641 13938813
5323.4907 1355.8473 9748.0566 14136193
5457.6914 1375.1067 9886.5254 13214066
5463.9102 1362.0537 9792.6787 13279345
5558.6392 1371.1071 9857.7686 13674102
5584.8589 1363.2491 9801.2734 13344113
5620.8828 1357.9216 9762.9707 7751198
5884.2446 1407.0647 10116.291 7555101
5792.2051 1371.0883 9857.6338 8213032
5781.1846 1354.8171 9740.6504 8081189
5881.0972 1364.6079 9811.043 8081190
5938.3584 1364.4075 9809.6006 7817763
6032.0864 1372.5081 9867.8418 7751970
6102.9131 1375.2925 9887.8604 8080934
6143.96 1371.3768 9859.708 8014629
6226.4463 1376.6974 9897.9609 8211750
6299.1958 1379.7858 9920.166 7948322
6426.0234 1394.553 10026.337 7553305
6738.0571 1448.8743 10416.888 8210721
7003.7241 1492.3298 10729.317 10250555
6789.8569 1433.745 10308.113 13013342
6884.7876 1440.8292 10359.047 13276765
6797.8999 1410.074 10137.928 13407837
6993.519 1437.9443 10338.305 13407582
7206.9497 1468.9608 10561.303 11038010
7040.9082 1422.7631 10229.157 8277542
7161.5693 1434.7936 10315.652 7815706
7223.354 1434.9249 10316.597 7486740
7303.5381 1438.6781 10343.581 7815448
7362.9336 1438.3082 10340.921 7684374
7435.3213 1440.4612 10356.4 7882008
7457.626 1432.9557 10302.438 8737058
7448.2734 1419.5387 10205.976 7553044
7403.5054 1399.6426 10062.929 7881494
7573.481 1420.3374 10211.718 8607529
7722.3101 1436.7698 10329.86 9198641
8054.6519 1486.8186 10689.693 8737832
8219.2773 1505.369 10823.064 10973767
8171.1733 1484.9723 10676.419 11894096
7914.436 1427.2646 10261.521 12090966
8103.9126 1450.2921 10427.081 12747869
8269.0918 1468.6558 10559.109 12025173
8180.6621 1442.0389 10367.744 11104328
8224.0312 1438.8785 10345.021 10643779
8015.6929 1392.0518 10008.354 10249790
7833.5718 1350.4326 9709.127 8473636
7740.9062 1324.729 9524.3271 8473894
7813.0273 1327.3938 9543.4863 8473894
7963.7236 1343.274 9657.6602 8408617
8021.2109 1343.318 9657.9756 9000754
8197.8936 1363.1814 9800.7861 9066549
0 0 0 0
0 0 0 0
0 0 0 0
0 0 0 0
9384.2607 1507.0754 10835.333 12027741
9857.9033 1572.3829 11304.87 9461810
9596.0986 1520.2932 10930.364 9658677
0 0 0 0
0 0 0 0
0 0 0 0
0 0 0 0
0 0 0 0
0 0 0 0
0 0 0 0
0 0 0 0
0 0 0 0
0 0 0 0
0 0 0 0
0 0 0 0
0 0 0 0
0 0 0 0
0 0 0 0
0 0 0 0
0 0 0 0
-5977.3838 950.92462 6557.4502 1536
-5933.4644 950.11371 6551.8584 1536
-5900.2104 951.01129 6558.0479 1536
-5859.4224 950.6983 6555.8896 1536
-5819.5205 950.52588 6554.7007 1536
-5780.147 950.43805 6554.0947 1536
-5731.2993 948.78058 6542.6655 1536
-5686.0688 947.70343 6535.2378 1536
-5645.4248 947.38129 6533.0156 1536
-5620.8594 949.7713 6549.4976 1280
-5574.0137 948.40393 6540.0679 1280
-5483.5156 939.5379 6478.9287 1280
-5379.5967 928.23108 6400.959 1280
-5233.6479 909.46014 6271.5171 1536
-5375.835 940.84869 6487.9683 1536
-5318.3018 937.48383 6464.7642 1536
-5279.5059 937.39685 6464.1646 1536
-5237.4575 936.72693 6459.5449 1536
-4918.7896 886.20911 6111.1807 1536
-4826.7593 876.07776 6041.3159 1536
-4886.1074 893.47601 6161.2925 1536
-4991.6514 919.64734 6341.7661 1536
-4699.7954 872.44446 6016.2617 1536
-4653.7603 870.50159 6002.8638 1536
-4689.2939 883.90417 6095.2861 1536
-4729.6572 898.43219 6195.4692 1280
-4633.269 887.00726 6116.6846 1536
-4550.4604 878.02246 6054.7266 1536
-4529.1602 880.85742 6074.2759 1536
-4490.3203 880.29926 6070.4268 1536
-4447.9771 879.03961 6061.7407 1536
-4394.1978 875.48102 6037.2017 1536
-4395.8086 882.9903 6088.9844 1536
-4316.5801 874.25122 6028.7207 1536
-4249.229 867.79193 5984.1782 1536
-4207.8535 866.57349 5975.7759 1536
-4247.6328 882.18927 6083.46 1536
-4135.7188 866.29761 5973.8735 1536
-4100.3213 866.29761 5973.8735 1536
-4132.6816 880.73792 6073.4517 1536
-4059.6353 872.77075 6018.5112 1536
-3976.3655 862.44501 5947.3062 1536
-3945.6589 863.43713 5954.1479 1536
-3910.6426 863.49536 5954.5498 1536
-3834.7288 854.44226 5892.1206 1536
-3825.5566 860.23053 5932.0356 1536
-3788.8252 859.8714 5929.5596 1536
-3765.5571 862.58984 5948.3057 1536
-3720.0557 860.21844 5931.9526 1536
-3470.0881 810.07043 5586.1387 1536
-3498.1633 824.48901 5685.5669 1536
-3445.3359 819.93439 5654.1592 1536
-3406.3616 818.61957 5645.0923 1536
-3365.3152 816.77576 5632.3774 1536
-3328.0474 815.82123 5625.7954 1536
-3302.6897 817.79663 5639.417 1536
-3244.3381 811.55902 5596.4038 1792
-3206.1877 810.29803 5587.708 1792
-3169.4714 809.37701 5581.3564 1792
-3131.0874 808.0061 5571.9028 1536
-3097.5964 807.88214 5571.0483 1536
-3076.2388 810.95404 5592.2319 1536
-3031.1343 807.76465 5570.2383 1536
-2981.7437 803.35022 5539.7969 1536
-2878.3142 784.11627 5407.1616 1536
-2841.3235 782.7522 5397.7559 1536
-2798.2795 779.67065 5376.5054 1536
-2763.5718 778.86749 5370.9668 1536
-2729.2266 778.14893 5366.0122 1536
-2695.4314 777.57214 5362.0347 1792
-2663.2046 777.43945 5361.1196 1792
-2631.5464 777.47156 5361.3408 1792
-2605.0857 779.05865 5372.2856 1792
-2571.894 778.6474 5369.4492 1792
-2540.8269 778.87701 5371.0327 1792
-2509.8652 779.14514 5372.8818 1792
-2479.3467 779.55951 5375.7393 1792
-2451.1658 780.72925 5383.8057 1792
-2426.856 783.17914 5400.6997 1792
-2388.4951 781.09943 5386.3579 1792
-2362.804 783.16284 5400.5869 1792
-2340.3799 786.38062 5422.7764 1536
-2319.2761 790.1377 5448.6851 1536
-2295.9036 793.2171 5469.9204 1536
-2273.2725 796.64453 5493.5552 1536
-2249.6497 799.81897 5515.4458 1536
-2223.0293 802.00562 5530.5244 1536
-2205.0547 807.42334 5567.8848 1536
-2181.2234 810.82874 5591.3677 1536
-2158.1838 814.63794 5617.6353 1536
-2131.6384 817.22229 5635.457 1792
-2103.9983 819.46265 5650.9062 1792
-2078.0596 822.44897 5671.499 1792
-2053.4565 826.07068 5696.4741 1792
-2035.6844 832.60736 5741.5498 1792
-2024.4507 842.08575 5806.9121 1792
-1999.4979 846.08691 5834.5034 1792
-1978.3564 851.86987 5874.3823 1792
-1956.6141 857.59668 5913.8735 1792
-1927.0797 860.05475 5930.8237 1792
-1907.2917 867.03485 5978.9575 1792
-1880.5908 871.07697 6006.8315 1792
-1854.0913 875.3703 6036.4375 1536
-1828.5175 880.27802 6070.2808 1536
-1790.438 879.24164 6063.1338 1536
-1762.5905 883.29028 6091.0527 1536
-1724.6692 882.35431 6084.5986 1792
-1703.7579 890.26678 6139.1616 1792
-1666.3286 889.7049 6135.2871 1792
-1646.6066 898.78314 6197.8896 1792
-1630.7668 910.4433 6278.2964 1792
-1608.2301 918.82153 6336.0718 1792
-1586.1376 927.86029 6398.4019 1536
-1561.3402 935.72052 6452.605 1536
-1533.9772 942.39941 6498.6611 1536
-1512.1189 952.89105 6571.0103 1792
-1483.1437 959.3338 6615.439 1792
-1475.3898 980.22546 6759.5049 1792
-1453.225 992.44165 6843.7461 1792
-1430.1901 1004.7479 6928.6084 1536
-1389.2716 1004.8464 6929.2881 1536
-1349.9176 1006.117 6938.0498 1536
-1335.5659 1026.6875 7079.9009 1280
-1293.4893 1026.588 7079.2148 1280
-1268.1481 1040.2092 7173.145 1280
-1410.8209 1197.3693 8256.9004 198658
-1379.137 1212.5278 8361.4316 857100
-1363.0272 1243.019 8571.6953 792078
-1306.6384 1237.7164 8535.1289 1318422
-1284.2637 1265.5039 8726.7471 1647644
-1244.7305 1278.0057 8812.958 1779230
-1201.7676 1287.9269 8881.373 792590
-1156.0848 1295.7083 8935.0322 463623
-1096.2563 1287.6215 8879.2676 1536
-1010.2508 1246.4229 8595.167 1536
-991.0061 1287.5907 8879.0547 1536
-937.38556 1286.2068 8869.5117 1792
-872.98553 1268.9891 8750.7812 1792
-822.62573 1271.295 8766.6826 1792
-772.16119 1273.739 8783.5361 1536
-718.43524 1270.7676 8763.0449 1536
-674.48181 1285.9653 8867.8467 1536
-625.07019 1292.4453 8912.5312 1536
-571.7616 1291.3199 8904.7715 1536
-492.9498 1226.5111 8457.8584 1536
-459.67923 1273.1682 8779.5996 1536
-420.50739 1313.3031 9056.3643 1536
-369.39944 1322.4489 9119.4316 1536
-313.72592 1315.5831 9072.0869 1536
-265.2941 1342.5251 9257.875 1280
-210.16795 1340.8055 9246.0176 1280
-155.86301 1344.9598 9274.665 1280
-101.42052 1351.8059 9321.875 1024
-46.102043 1349.3873 9305.1963 1024
9.0837975 1356.6781 9355.4727 1024
65.197502 1370.951 9453.8975 768
121.86676 1378.3153 9504.6797 592384
177.67188 1374.34 9477.2666 1511941
232.06975 1364.0027 9405.9824 1839877
292.4895 1386.2092 9559.1152 2036743
348.99731 1385.678 9555.4521 2102536
407.87085 1393.377 9608.543 2036230
473.11087 1418.2749 9780.2363 2298889
535.6853 1430.6202 9865.3682 2363912
594.92932 1432.5171 9878.4482 2429192
652.5639 1430.5459 9864.8555 2429705
719.80609 1448.2291 9986.7959 2429705
776.61176 1443.8228 9956.4102 2232326
836.23572 1444.9082 9963.8955 786432
949.73566 1532.8024 10570.002 2889740
1047.1216 1585.4232 10932.869 3021068
1069.5192 1524.9893 10516.124 3217932
1160.5532 1563.6879 10782.985 3348748
1255.0602 1602.7832 11052.58 3545611
1299.674 1577.444 10877.845 3742477
1339.8325 1549.3475 10684.096 3807497
1443.8425 1594.2911 10994.021 4135174
1670.6499 1765.0936 12171.853 5319183
1555.5123 1575.4347 10863.988 9265469
1611.7383 1567.5105 10809.346 10119744
1580.6855 1478.553 10195.905 10251069
1763.2903 1588.6401 10955.053 10316608
1847.0099 1604.9824 11067.746 10448194
1917.2915 1608.9271 11094.948 10579780
1983.353 1609.1863 11096.736 10711622
2029.1743 1593.5339 10988.8 10580035
2059.262 1566.8834 10805.021 10514243
2118.0945 1563.0522 10778.602 10580035
2143.1074 1535.2186 10586.665 10448450
2211.8293 1539.3887 10615.421 10514243
2294.3059 1552.6364 10706.775 10580039
2360.8362 1554.6702 10720.8 10514245
2411.219 1546.2426 10662.684 10580039
2467.8877 1542.1732 10634.622 10777162
2522.2639 1536.9098 10598.326 10579783
2572.8582 1529.6532 10548.286 10514246
2601.9194 1510.2427 10414.434 10580042
2638.4468 1495.9647 10315.975 10382663
2680.6448 1485.4755 10243.643 10251848
2679.3423 1451.8789 10011.965 10251847
2687.1169 1424.5499 9823.5078 10054980
2664.2273 1382.4683 9533.3184 8740658
2654.7715 1348.9602 9302.251 8215856
2742.4504 1365.168 9414.0176 7230513
2547.1667 1242.681 8569.3643 1049600
2641.1807 1263.3628 8711.9824 1509376
2705.3733 1269.2605 8752.6523 1575680
2747.6982 1264.8698 8722.374 1575168
2817.1858 1272.9143 8777.8486 4929818
3001.3704 1331.5522 9182.208 8739895
3081.9514 1342.957 9260.8535 9001778
3173.4399 1358.6326 9368.9502 9198388
3253.1892 1368.8296 9439.2676 9330231
3339.8411 1381.5372 9526.8975 9264437
3416.271 1389.6643 9582.9404 9132851
3527.6812 1411.5221 9733.6699 9198644
3593.113 1414.5757 9754.7266 9132853
3638.3562 1409.7102 9721.1748 9133623
3709.342 1414.8149 9756.377 9199159
3765.6895 1414.2655 9752.5879 9068087
3839.47 1420.181 9793.3799 9067830
3912.2812 1425.5671 9830.5225 8935474
3950.2141 1418.2726 9780.2207 8869424
4044.9905 1431.3029 9870.0752 8737839
4161.8394 1451.6608 10010.46 9001267
4167.022 1433.0442 9882.083 8935218
4201.3979 1424.8441 9825.5361 8803888
4229.1963 1414.668 9755.3633 8738094
4311.0981 1422.6199 9810.1982 8606252
4300.1011 1400.1122 9654.9883 8737838
4346.6333 1396.6814 9631.3301 8672045
4378.3428 1388.6381 9575.8643 8606252
4437.4868 1389.3906 9581.0537 8540202
4466.3921 1380.7759 9521.6475 8408876
4492.1372 1371.411 9457.0693 8343593
4542.709 1369.7632 9445.7051 8343850
4590.0103 1367.1813 9427.9014 8541229
4679.5078 1377.0787 9496.1533 8475435
4745.6738 1379.9569 9516 9658938
4856.9619 1395.734 9624.7969 8409126
4821.6558 1369.5072 9443.9404 8343588
5014.9458 1408.0662 9709.8379 8672549
5062.0303 1405.1653 9689.834 11961937
5007.5942 1374.4646 9478.126 13079902
5038.9365 1367.7278 9431.6699 12882531
5142.6855 1380.5767 9520.2744 12948323
5275.5215 1400.8706 9660.2188 13672304
5505.0503 1446.1292 9972.3154 13475183
5467.3784 1420.9806 9798.8945 13540976
5650.1895 1453.0623 10020.125 13145192
5624.6377 1431.4492 9871.084 12158042
5639.0669 1420.3513 9794.5547 11566421
5651.8496 1409.069 9716.7529 8540199
5675.1758 1400.6163 9658.4648 8474919
5734.8975 1401.225 9662.6621 9198900
5759.2217 1393.2584 9607.7256 8606761
5873.0063 1406.8782 9701.6455 9133107
5936.2637 1408.2472 9711.0859 8738349
5998.689 1409.3944 9718.9971 8606507
6093.5728 1418.0736 9778.8477 8080678
6210.812 1431.7428 9873.1084 7882786
6285.6992 1435.4845 9898.9111 8211492
6275.1016 1419.8153 9790.8584 8277540
6567.9697 1472.4668 10153.937 8014365
6843.0454 1520.2098 10483.166 8474655
6796.5225 1496.2921 10318.232 10907959
6853.9536 1495.483 10312.653 13078100
6902.8315 1492.8384 10294.416 13472342
6944.9883 1488.7993 10266.562 12748877
6937.9814 1474.3827 10167.147 11696196
6456.188 1360.1864 9379.665 7881491
6988.0571 1459.6746 10065.723 6696969
7170.873 1485.1852 10241.641 7091465
7289.8647 1497.1598 10324.216 7552272
7290.6978 1484.8702 10239.469 9197096
7290.1045 1472.4954 10154.133 8868388
7244.731 1451.3522 10008.332 10513471
7310.5508 1452.647 10017.262 10973763
7352.0762 1449.1324 9993.0254 9263656
7335.4902 1434.3115 9890.8223 6697485
8115.1128 1574.1744 10855.299 10253391
8161.9326 1570.8062 10832.071 10911063
8163.4458 1558.8387 10749.546 10713425
8096.9302 1534.1671 10579.413 10909775
7970.439 1498.5979 10334.133 8737578
7685.4961 1434.0061 9888.7168 8735781
7292.1606 1350.3203 9311.6299 8867110
7467.2676 1372.3618 9463.625 8801574
7549.3594 1377.1074 9496.3506 8538401
7589.4297 1374.1744 9476.125 8012826
7617.8071 1369.1827 9441.7031 8276769
7527.8374 1343.1479 9262.1699 8277284
7614.7344 1348.8187 9301.2754 9066802
7578.5977 1332.7714 9190.6152 10843729
7616.4653 1329.8746 9170.6396 10778192
7961.4468 1380.2627 9518.1084 9132598
8153.3584 1403.5911 9678.9785 8934963
8202.8887 1402.2542 9669.7588 8869424
8324.4912 1413.1704 9745.0361 9264693
9116.9541 1537.0378 10599.209 9922881
9387.21 1571.7729 10838.738 11831134
9473.8828 1575.5061 10864.481 11962976
9293.627 1535.0983 10585.835 12489065
9105.1494 1493.8835 10301.623 11633759
0 0 0 0
8860.8779 1434.5712 9892.6123 9396544
0 0 0 0
0 0 0 0
0 0 0 0
0 0 0 0
0 0 0 0
0 0 0 0
0 0 0 0
0 0 0 0
0 0 0 0
0 0 0 0
0 0 0 0
0 0 0 0
0 0 0 0
0 0 0 0
-5647.4863 935.15326 6195.5386 1536
-5605.9268 934.34509 6190.1841 1536
-5579.8955 936.13153 6202.0195 1536
-5519.1914 932.08594 6175.2173 1536
-5486.5742 932.76154 6179.6929 1536
-5446.7056 932.20508 6176.0063 1536
-5379.4189 926.91669 6140.9697 1536
-5341.8159 926.70587 6139.5732 1536
-5314.354 928.26349 6149.8926 1536
-5278.1846 928.31116 6150.209 1280
-5225.8281 925.4928 6131.5366 1536
-5119.3335 912.98004 6048.6372 1536
-5071.3618 910.80133 6034.2031 1536
-5052.3237 913.82489 6054.2349 1536
-5082.9683 925.94232 6134.5146 1536
-5029.9741 922.88831 6114.2817 1536
-4996.8076 923.45441 6118.0317 1536
-4948.1987 921.15405 6102.7915 1536
-4781.2007 896.61835 5940.2383 1536
-4793.4297 905.57837 5999.6001 1536
-4757.8799 905.57837 5999.6001 1536
-4656.1763 892.8924 5915.5537 1536
-4682.3047 904.71375 5993.8716 1536
-4618.7236 899.24951 5957.6704 1536
-4489.3574 880.79449 5835.4028 1536
-4561.5737 901.90942 5975.293 1280
-4440.0273 884.74469 5861.5737 1536
-4453.7856 894.48334 5926.0938 1536
-4432.5566 897.29419 5944.7163 1536
-4291.0928 875.61566 5801.0928 1536
-4261.7778 876.65631 5807.9868 1536
-4220.5 875.23303 5798.5576 1536
-4279.7329 894.80109 5928.1992 1536
-4201.3369 885.67957 5867.7676 1536
-4167.5811 885.89496 5869.1943 1536
-4106.0312 880.15601 5831.1729 1536
-4107.2695 887.89301 5882.4321 1536
-4066.9663 886.70532 5874.5635 1536
-4004.5249 880.62872 5834.3052 1536
-3989.0273 884.85968 5862.3354 1536
-3999.7754 895.03784 5929.7676 1536
-3886.7854 877.46191 5813.3242 1536
-3826.0767 871.48004 5773.6934 1536
-3784.6318 869.81757 5762.6792 1536
-3673.115 851.87372 5643.7983 1536
-3715.6809 869.66339 5761.6582 1536
-3669.6702 866.85931 5743.0806 1536
-3622.4006 863.70258 5722.1665 1792
-3581.6443 862.05389 5711.2437 1792
-3424.491 832.09125 5512.7363 1536
-3405.3147 835.40033 5534.6597 1536
-3376.1509 836.29987 5540.6191 1536
-3337.9128 834.9472 5531.6577 1536
-3319.2781 838.5199 5555.3271 1536
-3275.2202 835.67743 5536.4956 1536
-3235.8174 833.97723 5525.2314 1536
-3186.1221 829.56244 5495.9824 1536
-3149.6252 828.52832 5489.1318 1536
-3116.0776 828.25659 5487.3311 1536
-3080.9968 827.56732 5482.7646 1536
-3037.2839 824.52008 5462.5762 1536
-3018.8945 828.35559 5487.9873 1536
-2976.3315 825.56952 5469.5288 1536
-2882.5732 808.36523 5355.5479 1536
-2831.6387 802.92078 5319.4775 1536
-2811.7937 806.26855 5341.6567 1536
-2782.1218 806.84265 5345.4604 1536
-2747.8484 806.08014 5340.4087 1536
-2706.6892 803.25635 5321.7007 1536
-2673.4102 802.73212 5318.2275 1792
-2641.7502 802.68738 5317.9312 1792
-2600.6785 799.74731 5298.4526 1792
-2568.29 799.43823 5296.4048 1792
-2536.833 799.41492 5296.2505 1792
-2507.1328 799.95172 5299.8066 1792
-2476.1616 800.09143 5300.7324 1792
-2448.6331 801.36139 5309.146 1792
-2422.5996 803.15997 5321.062 1792
-2395.1143 804.51843 5330.062 1792
-2366.8281 805.64056 5337.4961 1792
-2337.3127 806.36902 5342.3223 1792
-2311.6687 808.47144 5356.251 1536
-2289.3318 811.80499 5378.3369 1536
-2266.0833 814.90491 5398.874 1536
-2241.6953 817.67804 5417.2466 1536
-2220.345 821.6557 5443.5996 1536
-2192.4929 823.30927 5454.5547 1536
-2168.0654 826.31763 5474.4849 1536
-2153.0161 833.04584 5519.0605 1536
-2134.9553 838.79834 5557.1724 1536
-2108.0234 841.19128 5573.0259 1792
-2081.8916 843.98474 5591.5327 1792
-2057.5962 847.625 5615.6499 1792
-2032.6033 851.09283 5638.625 1792
-2022.6603 861.08368 5704.8159 1792
-1998.5774 865.29211 5732.6978 1792
-1974.2788 869.55121 5760.9146 1792
-1957.1112 877.15607 5811.2983 1792
-1930.2755 880.62274 5834.2651 1792
-1903.433 884.21259 5858.0483 1792
-1875.446 887.39435 5879.1279 1792
-1850.1809 892.00867 5909.6987 1792
-1820.2991 894.53241 5926.4189 1536
-1802.2432 903.08112 5983.0557 1536
-1767.7156 903.55377 5986.1865 1536
-1736.7739 905.91595 6001.8369 1536
-1699.0358 904.75787 5994.1646 1792
-1670.3707 908.48499 6018.8569 1792
-1644.3354 913.83618 6054.3096 1792
-1616.8621 918.60907 6085.9307 1792
-1597.7273 928.44525 6151.0972 1792
-1573.9231 935.96405 6200.9102 1792
-1555.9338 947.38275 6276.561 1792
-1526.5355 952.24396 6308.7671 1792
-1512.476 967.15747 6407.5718 1792
-1503.9545 986.47168 6535.5312 1536
-1465.0911 986.37903 6534.917 1536
-1446.4253 1000.2485 6626.8047 1536
-1412.1249 1003.7785 6650.1914 1536
-1388.547 1015.3517 6726.8662 1536
-1328.9473 1000.4904 6628.4077 1536
-1332.3524 1033.6011 6847.7715 1536
-1321.3401 1057.2561 7004.4893 1280
-1463.4041 1208.8997 8009.1519 1280
-1261.8945 1077.3738 7137.7725 1280
-1294.231 1143.3011 7574.5513 1024
-1319.0302 1207.0679 7997.0161 1024
-1258.6848 1194.7664 7915.5161 1024
-1201.83 1184.9537 7850.5063 768
-1206.3774 1237.3287 8197.499 1024
-1188.9204 1270.5825 8417.8105 1024
-1133.2379 1264.1088 8374.9209 1280
-1054.7604 1230.45 8151.9263 1536
-1033.9551 1264.068 8374.6504 1536
-985.1731 1265.1482 8381.8076 1536
-942.83997 1275.0643 8447.5039 1536
-892.0647 1274.0354 8440.6865 1536
-849.79242 1285.7495 8518.2939 1536
-800.65649 1287.9025 8532.5576 1536
-756.10376 1298.2148 8600.8789 1280
-706.76422 1301.2048 8620.6885 1536
-658.42096 1306.6379 8656.6836 1536
-607.37079 1307.1635 8660.165 1536
-544.67072 1280.3994 8482.8496 1536
-497.41489 1288.1907 8534.4678 1536
-450.64355 1299.1422 8607.0234 1536
-401.80811 1306.179 8653.6426 1536
-353.99893 1319.0985 8739.2363 1536
-303.51602 1324.7751 8776.8457 1280
-257.42609 1355.9385 8983.3076 1280
-202.3835 1343.9004 8903.5527 1024
-150.90187 1355.3566 8979.4521 768
-96.976059 1345.3822 8913.3701 66048
-44.820972 1365.4958 9046.626 986626
8.5782223 1333.5194 8834.7773 1643012
62.515457 1368.2677 9064.9902 2036743
114.7941 1351.3739 8953.0664 2036744
170.8011 1375.1776 9110.7695 2102023
226.79378 1387.4602 9192.1436 2233352
283.36539 1397.8416 9260.9219 2233353
344.36771 1423.1653 9428.6953 2364169
400.65176 1424.6418 9438.4775 2364169
455.58279 1421.5347 9417.8926 2429962
513.33118 1426.9374 9453.6865 2495755
574.75183 1440.4807 9543.4131 2626571
632.72589 1443.7333 9564.9619 2626827
688.92676 1442.7379 9558.3672 2692620
751.43689 1454.1027 9633.6602 2823949
825.72369 1485.0426 9838.6426 2757899
898.69019 1509.684 10001.896 2955020
999.71411 1575.4934 10437.894 3020298
988.99963 1467.8004 9724.4102 3086602
1041.3127 1460.3564 9675.0928 3348491
1137.1697 1511.5696 10014.388 3348233
1177.5487 1487.6168 9855.6973 3479562
1242.3083 1495.2726 9906.418 3676171
1305.2927 1500.1974 9939.0449 3873291
1369.3164 1505.8397 9976.4268 4069638
1524.8926 1607.5288 10650.134 5055242
1487.0101 1505.2982 9972.8389 9067830
1587.8079 1545.9022 10241.847 10251070
1609.2915 1509.1384 9998.2812 10185532
1678.8644 1518.481 10060.177 10448705
1790.5929 1564.0037 10361.771 10382911
1845.021 1558.1179 10322.777 10448449
1876.8656 1534.1499 10163.986 10513987
1952.3545 1546.2383 10244.073 10448194
2015.6266 1548.2137 10257.161 10448450
2034.1115 1516.6791 10048.239 10316608
2084.1121 1509.7687 10002.457 10316864
2146.4717 1511.946 10016.882 10448450
2200.2969 1508.1565 9991.7754 10514246
2258.5178 1507.4993 9987.4219 10579783
2339.5557 1521.7167 10081.614 10513990
2380.7825 1509.9764 10003.833 10382661
2427.9053 1502.4552 9954.0039 10448453
2469.8992 1492.1923 9886.0098 10316869
2496.1689 1473.125 9759.6865 10185028
2534.9875 1462.1593 9687.0371 10185541
2606.1953 1469.9474 9738.6348 9922625
2662.9009 1469.3958 9734.9795 8870706
2669.377 1441.7384 9551.7451 8675380
2722.3877 1439.8412 9539.1758 8216114
2715.0146 1406.7345 9319.8389 8217659
2612.5884 1326.6793 8789.4609 1247745
2679.1021 1333.8649 8837.0664 853505
2761.9204 1348.7372 8935.5977 787200
2790.9954 1337.299 8859.8174 1115648
2860.156 1345.1354 8911.7354 4271894
3016.7378 1393.0568 9229.2217 9989449
3098.6274 1405.3947 9310.9629 10054722
3152.9893 1405.0341 9308.5732 10185281
3223.0422 1411.5577 9351.7939 10119487
3265.8176 1406.1166 9315.7451 10185024
3354.0327 1420.0955 9408.3574 9987902
3413.1187 1421.4855 9417.5664 9856315
3477.8789 1425.1559 9441.8838 10053696
3535.5813 1425.8639 9446.5742 9856574
3616.9072 1435.9285 9513.2539 10053954
3699.5901 1446.2145 9581.4004 9987905
3771.7803 1452.1499 9620.7236 9856318
3880.3123 1471.692 9750.1924 9790781
3941.8416 1473.0955 9759.4912 9659194
3985.4302 1467.8507 9724.7441 9593402
4066.2029 1476.2554 9780.4258 9593658
4116.6279 1473.5607 9762.5732 9659194
4169.0562 1471.6479 9749.9004 9527608
4248.3564 1479.1433 9799.5586 9461816
4289.8745 1473.4595 9761.9023 9396022
4297.8569 1456.5613 9649.9492 9329974
4274.4482 1429.6082 9471.3809 9264181
4292.938 1417.1852 9389.0762 9067057
4356.252 1419.6881 9405.6582 9198386
4394.5498 1414.0779 9368.4902 9066803
4442.3271 1411.6201 9352.207 8935471
4456.4995 1398.676 9266.4502 9066801
4482.3506 1389.6675 9206.7676 9067312
4569.2036 1399.5609 9272.3125 9001263
4631.5361 1401.7977 9287.1318 9000749
4704.0947 1407.0406 9321.8672 9066541
4748.1934 1403.748 9300.0527 8407841
4862.2686 1420.9814 9414.2275 7552534
5033.688 1454.3925 9635.5801 11169851
4874.9404 1392.7281 9227.0449 10444845
4952.2065 1399.111 9269.332 10575917
4994.3579 1395.5417 9245.6855 10576435
5139.9438 1420.6388 9411.957 11695432
5335.5713 1458.8793 9665.3066 12485977
5412.918 1464.3103 9701.2881 10250300
5214.1636 1395.7207 9246.8711 8934697
5149.1431 1363.9832 9036.6045 9329714
5392.7529 1413.812 9366.7285 8868908
5446.4004 1413.3311 9363.542 8935214
5446.1455 1399.0129 9268.6826 7553306
5707.7983 1451.5884 9617.0029 10777932
5745.9932 1446.8571 9585.6572 12225121
5772.1694 1439.2218 9535.0723 13014377
5602.7544 1383.4387 9165.501 10843712
5758.6548 1408.283 9330.0977 10185784
5961.7178 1444.0785 9567.249 8803878
6148.2583 1475.2355 9773.6689 8540454
6143.1777 1460.2615 9674.4639 8869420
6330.2739 1490.8235 9876.9424 10119226
6498.1929 1516.3506 10046.063 10843201
6502.0107 1503.4689 9960.7197 13079901
6627.0283 1518.592 10060.913 9066014
6736.4165 1529.896 10135.804 9328681
6916.8115 1556.9839 10315.265 8407580
6723.126 1500.1287 9938.5898 8736032
6622.6479 1464.8779 9705.0479 8999200
6317.5923 1385.3722 9178.3105 5182469
6712.7451 1459.4608 9669.1592 11764816
6837.3921 1473.9805 9765.3545 12553801
6815.3623 1456.9019 9652.2061 13343561
6767.4175 1434.6138 9504.5439 13342796
6639.6582 1395.9137 9248.1494 13408339
6636.4526 1383.8186 9168.0176 13409115
6691.8086 1384.0321 9169.4316 13737317
6891.7197 1413.8988 9367.3037 13869679
7623.0996 1551.4529 10278.621 7685406
7913.5493 1597.7996 10585.675 6766362
7966.9771 1595.9373 10573.337 8476721
7866.4897 1563.5123 10358.518 10187082
7795.3755 1537.3826 10185.403 10515788
7962.7637 1558.3297 10324.181 11042132
7500.3081 1456.6355 9650.4404 8672041
7328.4434 1412.4886 9357.9609 10317123
7273.54 1391.3789 9218.1055 9001007
7374.5024 1400.1775 9276.3975 8869168
7457.0884 1405.3828 9310.8838 9198649
7474.8979 1398.3933 9264.5771 8870198
7367.2749 1368.2111 9064.6152 11173980
7268.7529 1340.1438 8878.665 11173979
7402.4814 1354.9922 8977.0381 11634016
7353.8931 1336.4946 8854.4883 10910036
7633.689 1377.5167 9126.2666 10383177
8094.6206 1450.4181 9609.25 8935476
8220.8779 1462.7521 9690.9639 9132082
8216.874 1451.8982 9619.0557 9395508
8331.627 1462.0333 9686.2021 9329201
8414.4668 1466.4678 9715.5811 9395765
8416.0889 1456.7837 9651.4229 10382659
