# .PCD v0.7 - Point Cloud Data file format
VERSION 0.7
FIELDS x y z rgb
SIZE 4 4 4 4
TYPE F F F U
COUNT 1 1 1 1
WIDTH 1481
HEIGHT 1
VIEWPOINT 0 0 0 1 0 0 0
POINTS 1481
DATA ascii
-3372.1504 395.64322 4955.7637 1536
-3355.5684 397.15616 4974.7144 1536
-3332.5276 397.92474 4984.3413 1536
-3314.532 399.31479 5001.7529 1536
-3308.1099 402.13687 5037.1021 1536
-3285.5525 403.0311 5048.3027 1536
-3274.3096 405.34238 5077.2534 1536
-3256.9595 406.93347 5097.1836 1536
-3236.6421 408.18011 5112.7988 1536
-3223.1033 410.31326 5139.5186 1536
-3214.0122 413.05878 5173.9082 1536
-3179.3787 412.54285 5167.4458 1536
-3186.0991 417.43506 5228.7246 1536
-3164.6138 418.69153 5244.4629 1536
-3142.1934 419.84799 5258.9487 1536
-3135.5071 423.15097 5300.3213 1536
-3135.0378 427.36835 5353.1475 1536
-3149.4736 433.72458 5432.7646 1536
-3091.6877 430.16345 5388.1587 1536
-3057.2036 429.80402 5383.6558 1536
-3045.1643 432.62564 5418.9995 1792
-3040.3081 436.53882 5468.0151 1792
-3029.427 439.6619 5507.1343 1792
-3020.1519 443.08856 5550.0562 1792
-3014.7314 447.16248 5601.0854 1536
-3008.5103 451.20697 5651.7461 1536
-3003.3799 455.50797 5705.6196 1536
-2984.6313 457.81796 5734.5542 1536
-2973.9011 461.42529 5779.7393 1536
-2950.5574 463.13678 5801.1772 1536
-2949.1558 468.37338 5866.7695 1536
-3896.1934 626.159 7843.167 1536
-3887.2629 632.26544 7919.6558 1536
-3846.9478 633.35406 7933.291 1536
-3798.7656 633.15833 7930.8398 1536
-3755.2073 633.73804 7938.1011 1536
-3711.8342 634.36407 7945.9429 1536
-3703.801 641.1236 8030.6113 1536
-4055.894 711.2077 8908.4736 1536
-3485.3208 619.2157 7756.1963 1536
-3459.4856 622.83862 7801.5767 1536
-3437.4614 627.25513 7856.8975 1536
-3399.2256 628.79401 7876.1733 1280
-3528.2734 661.75104 8288.9873 1280
-3486.1362 663.07837 8305.6133 1280
-3805.3643 734.16119 9195.9854 1280
-3680.021 720.29297 9022.2744 1280
-3402.6204 675.81494 8465.1494 1536
-3342.6194 673.83099 8440.2988 1536
-3332.9678 682.0907 8543.7588 1536
-3319.2808 689.76672 8639.9072 1536
-3256.53 687.3277 8609.3564 1536
-3238.6243 694.42676 8698.2783 1536
-3196.0203 696.37396 8722.6689 1536
-3285.4707 727.63129 9114.1924 1280
-3259.7822 734.00739 9194.0586 1280
-3123.8435 715.35315 8960.3984 768
-3119.0166 726.59729 9101.2412 512
-3062.2026 725.91333 9092.6738 256
-3032.2954 731.69739 9165.124 256
-3011.322 739.88751 9267.7129 512
-3056.0391 764.82202 9580.0381 1280
-3066.5535 781.97858 9794.9385 1280
-3059.7046 795.284 9961.5996 1280
-2994.2444 793.57886 9940.2412 1536
-2943.2405 795.71356 9966.9805 2048
-2917.6418 804.9447 10082.608 1280
-2892.6509 814.73297 10205.215 1536
-2883.2559 829.42578 10389.254 1280
-2846.967 836.85419 10482.302 1536
-2793.0732 839.32367 10513.234 1536
-2774.5405 852.77441 10681.716 1792
-2740.4258 861.95209 10796.674 2048
-2672.489 860.67609 10780.69 2048
-2635.1094 869.41943 10890.209 67840
-2470.9878 835.73541 10468.287 67840
-2495.0481 865.60199 10842.393 265216
-2537.2378 903.5033 11317.138 265216
-2438.604 891.95422 11172.476 199424
-2370.7122 891.31873 11164.516 199424
-2298.1978 888.85883 11133.703 133376
-2195.1799 874.1073 10948.928 133632
-2278.7275 935.00885 11711.771 2048
-2301.6221 974.06744 12201.013 1792
-2163.6248 945.36035 11841.432 1536
-2157.95 974.48273 12206.215 1536
-2064.7925 964.74982 12084.302 1536
-2013.3618 974.51434 12206.61 2048
-1974.0144 991.07306 12414.022 1792
-1932.1638 1007.6083 12621.141 1792
-1884.0824 1022.0949 12802.597 1792
-1818.6555 1027.9926 12876.47 2560
-1655.1998 976.56952 12232.354 2560
-2008.8506 1239.502 15525.803 2304
-1711.0431 1106.4176 13858.811 1792
-1695.7389 1151.8004 14427.268 67840
-2052.8945 1468.4197 18393.189 133376
0 0 0 0
0 0 0 0
-990.05042 842.33234 10550.92 1024
-918.94537 834.53436 10453.244 199424
-896.70905 873.19672 10937.522 331264
-956.60376 1004.0911 12577.085 1056000
-1022.0144 1163.3822 14572.339 3424785
-969.51123 1205.4626 15099.433 3162378
-884.711 1211.8594 15179.557 3162632
-806.01782 1229.0162 15394.46 2109697
-721.91754 1241.255 15547.761 1846272
-628.49139 1238.6938 15515.681 1780224
-540.55865 1247.9374 15631.463 1845504
-444.77411 1239.1285 15521.126 2896896
-329.55716 1157.4763 14498.363 3421444
-246.3913 1170.5061 14661.572 9532974
-157.82903 1158.1302 14506.554 9531174
-72.201241 1163.4377 14573.035 9727782
14.102765 1159.5667 14524.546 9925163
100.40344 1162.3092 14558.898 10056749
186.52469 1161.3997 14547.506 10188334
271.20905 1154.9462 14466.67 10451510
365.38058 1182.2906 14809.184 9595949
463.6853 1209.8287 15154.12 10582609
563.33234 1231.3655 15423.887 10582355
641.84143 1207.1348 15120.377 10582613
746.758 1232.422 15437.121 10582613
850.22534 1250.0597 15658.048 10516820
908.3786 1204.1578 15083.087 10451542
1004.5479 1212.3596 15185.821 10451542
1103.5414 1222.3411 15310.849 10517593
1225.5411 1254.3531 15711.827 10583130
1358.7412 1292.4994 16189.641 10385751
1280.3743 1137.6335 14249.816 10451800
1553.9108 1295.2579 16224.193 10254680
1402.7377 1101.1254 13792.52 10254936
1727.5063 1281.406 16050.687 10123097
1613.8099 1134.6049 14211.879 9925716
1696.673 1133.7042 14200.598 9793618
1738.0504 1106.478 13859.566 9332809
1744.8004 1060.6587 13285.64 7622190
1882.5973 1095.0193 13716.036 7556396
1761.5487 982.20837 12302.984 7621675
1811.0889 969.70087 12146.317 7686953
1859.4465 957.54065 11994 7555625
1936.5229 960.52008 12031.32 7555112
2119.3811 1013.8931 12699.863 7292197
2157.0532 996.5318 12482.397 7555879
2168.7859 968.73511 12134.221 7357987
2245.5244 970.82703 12160.424 7226915
2297.9238 962.59326 12057.288 7687466
2350.8101 955.05371 11962.85 8740156
2361.8813 931.46478 11667.379 9924687
2403.7468 921.01672 11536.508 9596235
2480.2119 924.03687 11574.338 9728080
2516.3721 912.28253 11427.104 9465165
2564.4961 905.36792 11340.493 9662802
2642.3669 909.03992 11386.488 9597009
2733.8157 917.08405 11487.247 9728338
2807.1104 918.79517 11508.681 9794132
2903.5757 927.82941 11621.842 9728852
2958.666 923.52997 11567.988 9926230
3068.5627 936.14539 11726.007 10847333
3141.4602 937.16449 11738.772 10123609
3210.488 937.01007 11736.838 11504746
3258.3262 930.8089 11659.163 9333320
3343.979 935.44354 11717.216 9530185
3307.4465 906.40479 11353.481 9924945
3382.2615 908.43018 11378.851 9924431
3383.2202 890.92737 11159.613 9463622
3491.647 901.85333 11296.471 9923658
3599.4714 912.21576 11426.269 9199930
3603.9666 896.49213 11229.316 8870450
3737.2786 912.80115 11433.601 8804913
3772.822 905.07526 11336.828 8278570
3811.6675 898.39801 11253.189 8475949
3863.6067 894.9834 11210.419 10647118
4041.7288 920.41986 11529.031 9659964
4038.9185 904.492 11329.521 9528378
4144.5283 912.96802 11435.691 9396792
4098.791 888.36841 11127.561 8935984
4125.3877 879.97723 11022.453 8739118
4191.0493 880.05066 11023.373 9067827
4380.4248 905.70087 11344.664 8870702
4353.1465 886.45721 11103.621 9265460
4496.7119 902.05859 11299.042 8739373
4588.0371 906.8764 11359.389 9857340
4848.2388 944.45251 11830.061 12027995
4787.5347 919.33502 11515.443 10515014
4776.2798 904.28552 11326.936 9133363
4872.3838 909.69763 11394.727 8870448
5000.9419 920.93829 11535.525 8804655
5134.064 932.70496 11682.913 8739121
5167.5181 926.29272 11602.595 9133879
5279.4868 933.93811 11698.359 8146984
5456.9258 952.81689 11934.832 8870452
5520.4971 951.58484 11919.399 8804659
5722.4463 973.9353 12199.357 9002039
5804.8086 975.62885 12220.57 8870453
5884.7939 976.88605 12236.318 8738867
6058.6274 993.50208 12444.447 8870710
6028.1108 976.61176 12232.882 10515275
5945.917 951.8501 11922.722 12291941
6012.3379 951.18146 11914.347 12950896
0 0 0 0
0 0 0 0
0 0 0 0
9139.1543 1380.9962 17298.137 6053184
10100.407 1509.3213 18905.518 6118724
0 0 0 0
0 0 0 0
0 0 0 0
0 0 0 0
0 0 0 0
0 0 0 0
0 0 0 0
0 0 0 0
0 0 0 0
0 0 0 0
0 0 0 0
0 0 0 0
0 0 0 0
0 0 0 0
0 0 0 0
0 0 0 0
0 0 0 0
0 0 0 0
0 0 0 0
0 0 0 0
0 0 0 0
0 0 0 0
0 0 0 0
0 0 0 0
0 0 0 0
0 0 0 0
0 0 0 0
0 0 0 0
0 0 0 0
0 0 0 0
0 0 0 0
0 0 0 0
0 0 0 0
0 0 0 0
0 0 0 0
0 0 0 0
0 0 0 0
0 0 0 0
0 0 0 0
0 0 0 0
0 0 0 0
0 0 0 0
0 0 0 0
0 0 0 0
0 0 0 0
0 0 0 0
0 0 0 0
0 0 0 0
0 0 0 0
0 0 0 0
0 0 0 0
0 0 0 0
0 0 0 0
0 0 0 0
0 0 0 0
0 0 0 0
0 0 0 0
0 0 0 0
0 0 0 0
0 0 0 0
0 0 0 0
0 0 0 0
0 0 0 0
0 0 0 0
0 0 0 0
0 0 0 0
0 0 0 0
0 0 0 0
0 0 0 0
0 0 0 0
0 0 0 0
0 0 0 0
0 0 0 0
0 0 0 0
0 0 0 0
0 0 0 0
-4364.5444 413.31552 4819.4233 1536
-4337.2188 413.43289 4820.792 1536
-4307.9268 413.36313 4819.9785 1536
-4279.4087 413.36722 4820.0264 1536
-4250.1401 413.29837 4819.2236 1536
-4229.895 414.112 4828.7109 1536
-4199.7295 413.95886 4826.9253 1536
-4167.2285 413.57187 4822.4126 1536
-4136.0142 413.30811 4819.3369 1536
-4099.7842 412.53598 4810.3335 1536
-4071.53 412.56122 4810.6279 1536
-4045.1702 412.78009 4813.1802 1536
-4017.5803 412.87567 4814.2949 1536
-3981.2622 412.06924 4804.8911 1536
-3957.7161 412.58264 4810.8779 1536
-3936.5371 413.35208 4819.8496 1536
-3907.5562 413.3075 4819.3296 1536
-3886.6243 414.11987 4828.8027 1536
-3863.5586 414.7153 4835.7451 1536
-3836.3054 414.86676 4837.5112 1536
-3817.0608 415.89307 4849.4785 1536
-3755.2874 412.26605 4807.186 1536
-3740.2461 413.75314 4824.5264 1536
-3655.584 407.50226 4751.6387 1536
-3636.4512 408.5159 4763.4575 1536
-3601.3391 407.73615 4754.3657 1536
-3553.7625 405.52185 4728.5459 1536
-3525.7439 405.52185 4728.5459 1536
-3521.7358 408.30557 4761.0054 1536
-3517.7324 411.13483 4793.9956 1536
-3492.6108 411.52188 4798.5088 1536
-3468.8833 412.08084 4805.0264 1536
-3461.7988 414.64258 4834.897 1536
-3438.0039 415.22876 4841.7324 1536
-3415.5776 415.99158 4850.627 1536
-3393.2163 416.77524 4859.7651 1536
-3369.2612 417.37491 4866.7573 1536
-3351.4456 418.75208 4882.8154 1536
-3340.5286 421.02264 4909.2915 1536
-3318.5066 421.92123 4919.7695 1536
-3301.0391 423.41995 4937.2446 1536
-3282.4502 424.80032 4953.3408 1536
-3260.4966 425.7662 4964.6035 1536
-3239.1355 426.82782 4976.9824 1536
-3223.7239 428.70007 4998.8135 1536
-3206.2412 430.3291 5017.8081 1536
-3195.7739 432.93906 5048.2412 1536
-3182.9939 435.28198 5075.561 1536
-3173.6973 438.15057 5109.0098 1536
-3158.3516 440.23123 5133.271 1536
-3154.1924 443.9267 5176.3618 1536
-3140.198 446.297 5204.0005 1536
-3114.8777 447.08862 5213.2314 1536
-3101.4419 449.61911 5242.7373 1536
-3082.4736 451.39056 5263.3936 1536
-3054.7566 451.90393 5269.3799 1536
-3030.9312 453.00967 5282.2729 1536
-3010.0017 454.57574 5300.5342 1536
-3005.9004 458.74316 5349.1274 1792
-2995.8879 462.08759 5388.125 1792
-2982.9395 465.0463 5422.625 1792
-2978.1631 469.35745 5472.8945 1792
-2972.9187 473.6889 5523.4009 1536
-2959.7542 476.84085 5560.1538 1536
-2961.0164 482.41412 5625.1401 1536
-2943.6414 485.04333 5655.7979 1536
-2930.2815 488.40228 5694.9648 1536
-2912.9307 491.16663 5727.1982 1536
-2901.426 494.99347 5771.8208 1536
-3800.6726 656.14233 7650.8804 1536
-3754.5171 655.9989 7649.208 1536
-3701.5847 654.65338 7633.519 1536
-3700.3318 662.52759 7725.335 1536
-3659.7576 663.47052 7736.3306 1536
-3618.021 664.22406 7745.1167 1536
-3574.7808 664.71735 7750.8682 1536
-3409.6582 642.26495 7489.0645 1792
-3388.1614 646.63135 7539.9785 1536
-3367.8721 651.34802 7594.9766 1536
-3345.4058 655.76575 7646.4888 1536
-3313.6172 658.45227 7677.8149 1280
-3417.9067 688.63025 8029.7026 1280
-3366.4622 687.84045 8020.4937 1280
-3360.2385 696.40002 8120.3008 1280
-3727.5417 783.74518 9138.7803 1536
-3323.7251 709.14142 8268.8711 1536
-3919.5947 848.7868 9897.1924 1536
-3509.6694 771.56183 8996.7178 1536
-3132.7461 699.32153 8154.3672 1536
-3131.5115 709.99664 8278.8428 1536
-3124.2749 719.62903 8391.1602 1536
-3112.4219 728.49231 8494.5098 1536
-3170.6924 754.32996 8795.7871 1280
-3089.1741 747.21863 8712.8662 1024
-3109.2888 764.86676 8918.6504 1024
-3074.842 769.47125 8972.3408 256
-3018.915 768.76782 8964.1387 256
-2986.1484 774.0426 9025.6445 256
-2970.0574 783.91119 9140.7158 512
-3004.7117 807.7887 9419.1377 512
-2976.6694 815.39569 9507.8379 1280
-2962.8347 827.26306 9646.2168 1280
-2907.0522 827.6546 9650.7822 1792
-2887.4597 838.57208 9778.084 1792
-2854.4663 845.96515 9864.29 1280
-2840.3083 859.36615 10020.551 1536
-2780.6121 859.26709 10019.396 1536
-2747.0151 867.40503 10114.287 2048
-2686.3772 867.17676 10111.626 1792
-2685.4641 886.65765 10338.78 1792
-2599.4033 878.2785 10241.076 1536
-2541.2493 879.15314 10251.275 1280
-2474.3538 876.9726 10225.849 1280
-2378.1648 864.03949 10075.044 1280
-2339.6721 871.94244 10167.196 1280
-2301.6899 880.45856 10266.497 1280
-2289.7021 899.65039 10490.281 1280
-2259.4167 912.52344 10640.386 1280
-2198.1799 913.27612 10649.163 1280
-2131.7544 911.85394 10632.579 1280
-2085.9346 919.42743 10720.89 1280
-2056.1636 934.77301 10899.825 1280
-1991.7603 934.85864 10900.824 1280
-2014.0972 977.02722 11392.526 1280
-1966.1765 986.85724 11507.147 1280
-1926.3756 1001.6151 11679.23 330752
-1863.9717 1005.2826 11721.995 1536
-1814.3008 1016.367 11851.243 1280
-1754.973 1022.7166 11925.281 1536
-1665.5594 1011.3306 11792.517 1536
-1630.6384 1033.4844 12050.839 1536
-1548.2734 1026.2207 11966.141 1536
-1539.6428 1069.4775 12470.533 1792
-1427.4364 1041.5223 12144.563 199424
-1218.8634 936.55231 10920.572 1186307
-1148.7512 932.16772 10869.446 1317893
-1059.6066 910.90076 10621.465 1712909
-975.04529 891.1369 10391.011 1185283
-908.73383 886.51227 10337.086 133632
-897.31616 938.64099 10944.928 1536
-859.98499 969.67328 11306.776 1536
-897.3559 1097.2955 12794.902 397824
-895.62183 1196.2421 13948.658 1779971
-815.94727 1200.6223 13999.733 1911296
-753.47736 1234.1748 14390.969 2041856
-685.883 1266.8259 14771.694 1646336
-613.96411 1299.8738 15157.045 3551496
-534.33917 1325.1361 15451.613 6772773
-442.95438 1325.6514 15457.622 8415284
-335.45584 1265.6401 14757.867 3939585
-244.4176 1247.3097 14544.127 10254642
-156.93436 1237.0352 14424.322 9990953
-71.277878 1233.8057 14386.664 9990951
13.996514 1236.2458 14415.118 10254127
99.389389 1235.9661 14411.856 10385712
183.77342 1229.1973 14332.929 10517298
268.38309 1227.7394 14315.93 10451256
353.50049 1228.7466 14327.673 9990199
450.41403 1262.426 14720.39 10581580
543.73694 1276.7463 14887.37 10581842
617.80499 1248.1677 14554.132 10582101
722.24329 1280.4323 14930.349 10516821
810.98877 1280.87 14935.453 10582613
893.22076 1271.9463 14831.4 10516821
981.81311 1272.8673 14842.139 10450773
1064.7777 1266.9404 14773.03 10450773
1147.2124 1261.3318 14707.63 10319441
1224.0305 1250.7755 14584.54 10253391
1273.6085 1215.6118 14174.518 10318929
1402.1113 1255.4695 14639.273 10121805
1176.0704 991.71558 11563.798 9134907
1265.804 1008.6188 11760.896 8806198
1374.1428 1037.8096 12101.271 8543026
1344.9807 965.40857 11257.048 8279855
1384.8508 947.05872 11043.081 7950634
1441.7103 941.45898 10977.786 7753257
1506.9976 941.60852 10979.53 7753001
1616.6337 968.3092 11290.87 7621416
1696.0244 975.49182 11374.622 7621159
1731.9598 958.08667 11171.672 7555623
1796.149 957.01709 11159.199 7424037
1863.4757 957.63574 11166.413 7424293
1974.6077 979.9516 11426.625 7424293
2040.4274 979.04578 11416.063 7555622
2135.3647 991.72125 11563.864 7753000
2183.1426 982.38733 11455.026 7884845
2220.2451 968.95721 11298.427 9464133
2277.7161 964.9425 11251.613 9792844
2320.9197 955.28363 11138.987 9266756
2407.6643 963.58484 11235.782 9529672
2463.3308 959.33594 11186.238 8938304
2529.7747 959.39697 11186.95 8938564
2574.8875 951.57184 11095.706 9201736
2725.3577 982.1026 11451.707 9201735
2707.9551 952.12549 11102.161 9135429
2882.9727 989.62115 11539.376 8674878
2980.9678 999.55304 11655.186 8806464
3075.3772 1007.8599 11752.047 9135429
3125.2578 1001.5292 11678.229 9266758
3153.3892 988.65381 11528.097 9397573
3181.2556 976.24316 11383.384 9594696
3206.9802 963.70435 11237.176 8872508
3247.8044 956.12067 11148.747 9727562
3319.2471 957.6734 11166.853 9529412
3400.6914 961.99487 11217.242 8674359
3437.6096 953.79633 11121.645 9463106
3545.823 965.31567 11255.965 10384717
3593.1199 960.13196 11195.521 10449483
3640.5229 955.164 11137.592 9002292
3736.5513 962.90356 11227.839 9068342
3790.3169 959.67194 11190.156 7818535
3894.127 969.00433 11298.976 10056268
3967.9956 970.69659 11318.708 11832679
4002.2415 962.80072 11226.64 9857861
4051.8625 958.80133 11180.005 9726274
4136.9399 963.18579 11231.129 9923137
4151.4043 951.2511 11091.966 8805168
4230.8091 954.33691 11127.948 8673326
4358.1489 967.97491 11286.972 11700316
4402.3662 963.01746 11229.167 12423268
4412.7412 950.91486 11088.045 9857084
4609.3779 978.71661 11412.226 8936240
4754.3452 994.90204 11600.953 8739375
4923.2495 1015.5637 11841.877 10712139
4724.8091 960.93414 11204.874 8080676
4760.6333 954.8031 11133.384 8409897
4900.4185 969.40533 11303.651 8804398
4948.272 965.67297 11260.131 8738605
5063.7456 975.06067 11369.595 10842694
5069.4263 963.33801 11232.904 13145965
5220.647 979.21759 11418.066 11238484
5318.0933 984.73358 11482.386 10975056
5455.1885 997.35925 11629.605 11041366
5605.9595 1012.139 11801.943 8870709
5743.1665 1024.1359 11941.831 8541743
5802.5308 1022.1284 11918.424 4989448
5906.272 1027.8923 11985.634 10384201
5756.2764 989.88507 11542.454 10252869
5697.77 968.31897 11290.983 12489825
5843.1768 981.50537 11444.743 11700565
0 0 0 0
6440.4131 1057.2848 12328.36 6972200
6813.8472 1106.0439 12896.912 4868879
7285.9688 1169.5631 13637.57 5133079
0 0 0 0
0 0 0 0
0 0 0 0
0 0 0 0
0 0 0 0
10700.381 1610.483 18778.873 4215572
0 0 0 0
11336.892 1671.5186 19490.57 3952915
0 0 0 0
0 0 0 0
11951.953 1709.9457 19938.646 3690770
11855.814 1679.5886 19584.672 3756821
12071.681 1693.5928 19747.965 3953431
12180.147 1692.405 19734.115 4085274
11967.059 1646.9854 19204.504 4216603
11679.469 1592.2645 18566.438 4150552
0 0 0 0
0 0 0 0
0 0 0 0
0 0 0 0
0 0 0 0
0 0 0 0
0 0 0 0
0 0 0 0
0 0 0 0
0 0 0 0
0 0 0 0
0 0 0 0
0 0 0 0
0 0 0 0
0 0 0 0
0 0 0 0
0 0 0 0
0 0 0 0
0 0 0 0
0 0 0 0
0 0 0 0
0 0 0 0
0 0 0 0
0 0 0 0
0 0 0 0
0 0 0 0
0 0 0 0
0 0 0 0
0 0 0 0
0 0 0 0
0 0 0 0
0 0 0 0
0 0 0 0
0 0 0 0
0 0 0 0
0 0 0 0
0 0 0 0
0 0 0 0
0 0 0 0
0 0 0 0
0 0 0 0
0 0 0 0
0 0 0 0
0 0 0 0
0 0 0 0
0 0 0 0
0 0 0 0
0 0 0 0
0 0 0 0
0 0 0 0
0 0 0 0
0 0 0 0
0 0 0 0
0 0 0 0
0 0 0 0
0 0 0 0
0 0 0 0
0 0 0 0
0 0 0 0
0 0 0 0
-4286.4316 433.96432 4733.1699 1536
-4291.2432 437.31274 4769.6904 1536
-4261.0288 437.11249 4767.5063 1536
-4234.6621 437.30692 4769.627 1536
-4208.5093 437.52618 4772.0186 1536
-4178.9785 437.3949 4770.5864 1536
-4149.5337 437.27084 4769.2334 1536
-4117.8682 436.90948 4765.292 1536
-4087.1047 436.63947 4762.3472 1536
-4053.3118 436.03979 4755.8066 1536
-4024.2517 435.94449 4754.7671 1536
-3997.2888 436.0766 4756.208 1536
-3969.9949 436.17422 4757.2729 1536
-3935.3657 435.46155 4749.5 1536
-3895.2119 434.12292 4734.8999 1536
-3888.5056 436.51962 4761.04 1536
-3859.7422 436.45715 4760.3589 1536
-3834.5762 436.80356 4764.1372 1536
-3809.8792 437.20895 4768.5586 1536
-3782.7183 437.33551 4769.939 1536
-3754.436 437.33337 4769.9155 1536
-3725.6577 437.27298 4769.2568 1536
-3674.1223 434.52026 4739.2334 1792
-3638.1548 433.58047 4728.9834 1536
-3608.1296 433.33981 4726.3584 1536
-3580.6128 433.39896 4727.0034 1536
-3547.5017 432.77655 4720.2153 1536
-3525.21 433.4747 4727.8296 1536
-3499.3267 433.73883 4730.7104 1536
-3473.8555 434.05878 4734.1997 1536
-3454.0828 435.10168 4745.5747 1536
-3428.554 435.43069 4749.1631 1536
-3416.825 437.53226 4772.0845 1536
-3395.9094 438.48267 4782.4507 1536
-3375.022 439.45282 4793.0317 1536
-3354.5254 440.49069 4804.3521 1536
-3330.259 441.04709 4810.4204 1536
-3311.2903 442.3208 4824.3125 1536
-3298.9099 444.50436 4848.1284 1792
-3276.9822 445.42859 4858.2085 1536
-3264.2673 447.63257 4882.2471 1536
-3248.9421 449.5148 4902.7759 1536
-3236.0415 451.76941 4927.3667 1536
-3209.5952 452.15692 4931.5933 1536
-3187.3613 453.15033 4942.4282 1536
-3177.6292 455.95615 4973.0303 1536
-3166.2288 458.57281 5001.5698 1536
-3142.5879 459.44931 5011.1299 1536
-3123.6106 461.03088 5028.3799 1536
-3114.8972 464.17245 5062.6445 1536
-3111.425 468.1637 5106.1763 1536
-3094.4316 470.17889 5128.1558 1536
-3080.0137 472.62924 5154.8809 1536
-3065.2905 475.08142 5181.6265 1536
-3052.854 477.94119 5212.8174 1792
-2956.4246 467.57538 5099.7598 1792
-2992.5034 478.16898 5215.3018 1792
-2985.6013 482.04398 5257.5659 1792
-2978.6487 485.99249 5300.6318 1792
-2963.5815 488.68716 5330.022 1792
-2958.1206 493.04095 5377.5078 1792
-2948.6855 496.81992 5418.7246 1792
-2938.6384 500.57788 5459.7119 1792
-2927.0747 504.15826 5498.7622 1792
-2918.6816 508.37149 5544.7153 1792
-2911.3562 512.86877 5593.7666 1792
-2900.0054 516.75238 5636.124 1536
-2888.0979 520.62604 5678.3735 1536
-2871.2266 523.68573 5711.7451 1536
-3678.5989 678.94617 7405.1421 1536
-3677.8835 687.00879 7493.0796 1536
-3628.5847 686.08246 7482.9766 1536
-3582.0535 685.66296 7478.4009 1536
-3540.4548 686.1889 7484.1377 1536
-3501.7639 687.29889 7496.2441 1536
-3356.0959 667.17108 7276.7139 1536
-3312.8936 667.15399 7276.5273 1792
-3288.4282 670.95953 7318.0337 1536
-3270.4702 676.21222 7375.3232 1536
-3213.3157 673.39294 7344.5742 1536
-3357.5811 713.28607 7779.6812 1536
-3310.1545 712.99994 7776.5601 1536
-3281.9478 716.90393 7819.1406 1536
-3610.5884 799.98511 8725.292 1536
-3956.4473 889.35077 9699.9863 1536
-3860.2837 880.52618 9603.7383 1536
-3810.666 882.21362 9622.1426 1536
-3182.6099 748.00281 8158.3301 1536
-3075.8323 734.05682 8006.2241 1536
-3344.4634 810.66986 8841.8281 1536
-3262.6394 803.42206 8762.7783 1536
-3184.3972 796.83606 8690.9463 1280
-3198.4084 813.49792 8872.6738 1024
-3204.2834 828.61267 9037.5273 768
-3029.7485 796.79504 8690.498 512
-3045.1772 814.69946 8885.7793 256
-2957.3784 805.13086 8781.416 256
-2942.5588 815.44366 8893.8955 256
-2922.9568 824.78296 8995.7578 512
-2911.2456 836.73724 9126.1406 512
-2884.5662 844.7605 9213.6494 1024
-2853.0469 851.64862 9288.7764 1280
-2806.6865 854.29041 9317.5898 1280
-2732.2092 848.30835 9252.3447 1280
-2714.437 860.04785 9380.3857 1280
-2669.0376 863.34174 9416.3115 1280
-2613.4797 863.42029 9417.168 1280
-2576.7195 869.84784 9487.2725 1280
-2565.542 885.39099 9656.7988 1280
-2515.0225 887.75629 9682.5957 1280
-2459.5945 888.45898 9690.2598 1280
-2385.8652 882.42645 9624.4648 1280
-2372.645 899.02606 9805.5137 1280
-2317.5459 900.19226 9818.2334 1280
-2233.7207 889.97339 9706.7773 1280
-2209.8325 903.72589 9856.7734 1280
-2207.4614 927.26361 10113.495 1280
-2007.4801 866.79059 9453.9277 1536
-2089.3506 928.03741 10121.935 1536
-2019.1085 923.3429 10070.733 1536
-1988.3167 936.95264 10219.172 1536
-1940.0566 942.92731 10284.336 1280
-1902.9207 954.8714 10414.608 1280
-1854.7239 961.87988 10491.049 1280
-1782.3022 956.37555 10431.014 1280
-1729.9357 961.6236 10488.254 1280
-1724.3115 994.21405 10843.712 1280
-1681.2308 1006.8944 10982.014 1280
-1570.6608 978.54889 10672.854 1280
-1524.2655 989.48431 10792.125 1280
-1473.8834 998.67609 10892.378 1280
-1440.7438 1020.9281 11135.076 1280
-1409.2184 1046.5145 11414.144 1280
-1365.0238 1064.7982 11613.56 1280
-1203.7074 988.81091 10784.78 1536
-1130.4176 980.66858 10695.974 462336
-1043.5348 959.06635 10460.362 1448711
-940.69037 919.13989 10024.892 396032
-915.99493 955.33667 10419.683 1024
-896.6413 1002.7394 10936.696 1280
-852.61023 1027.7804 11209.814 1024
-855.43085 1118.302 12197.117 131840
-828.09857 1182.4744 12897.032 2695946
-767.84039 1207.8988 13174.333 6903341
-715.18268 1252.3876 13659.563 9400645
-673.60675 1330.1133 14507.304 10319179
-557.30988 1261.4504 13758.41 10318150
-461.18576 1222.7416 13336.219 10186563
-389.84894 1247.3318 13604.421 10647113
-312.37494 1259.9878 13742.457 10515524
-238.04745 1298.7354 14165.07 10384194
-152.1862 1282.4918 13987.904 10252862
-69.227493 1281.1084 13972.816 10384447
13.525458 1277.1803 13929.973 10121529
95.949081 1275.624 13912.999 9989942
176.43719 1261.6658 13760.759 10121271
259.92053 1271.1797 13864.524 9988917
335.91098 1248.2793 13614.756 10186557
429.07925 1285.7214 14023.129 10581320
506.7803 1272.1866 13875.508 10581070
586.69684 1267.2157 13821.291 10449742
681.47766 1291.6355 14087.634 10449744
769.51141 1299.3335 14171.593 10449743
854.19904 1300.4221 14183.468 10383951
929.07721 1287.72 14044.927 10318158
1007.5701 1281.7042 13979.315 10120779
1091.2632 1282.7152 13990.341 10054986
1162.4122 1269.8796 13850.347 9791812
1170.0687 1193.9486 13022.18 9594686
1053.9257 1008.902 11003.91 9266750
1065.4426 960.50391 10476.041 7886638
1068.2725 910.03473 9925.583 7491901
1100.0814 888.23096 9687.7734 7557442
1166.1274 894.86267 9760.1045 7952172
1254.3118 917.05347 10002.136 7687973
1356.854 947.26569 10331.654 7621926
1436.392 959.5025 10465.119 7424547
1470.6284 941.71759 10271.143 7884841
1607.9401 988.7276 10783.872 7686951
1678.0371 992.39331 10823.853 7489315
1743.2893 993.02924 10830.789 7489315
1810.5879 994.74445 10849.497 7554852
1886.6729 1001.0037 10917.766 7686438
1985.9288 1018.7341 11111.147 7949865
2047.6038 1016.6672 11088.604 8541747
2129.2847 1024.353 11172.433 8871740
2155.2583 1005.584 10967.722 9398085
2213.3503 1002.4608 10933.656 9135172
2280.2988 1003.412 10944.032 9332552
2344.7356 1003.2362 10942.115 9200709
2422.9133 1008.7909 11002.699 9529928
2446.6997 992.00195 10819.584 8871744
2551.7527 1008.178 10996.014 8740415
2638.6726 1016.5626 11087.464 8740414
2675.9871 1005.8936 10971.098 8806208
2784.1335 1021.7246 11143.764 9332551
2886.4434 1034.7296 11285.607 9595724
2932.6357 1027.4844 11206.585 9858896
2986.7117 1023.2609 11160.52 9200966
3059.8164 1025.5985 11186.016 9134401
3113.6401 1021.5113 11141.438 8937021
3143.2886 1009.8272 11014.002 9397830
3229.491 1016.4177 11085.883 9858635
3277.4763 1010.9571 11026.325 8674360
3327.2742 1006.2582 10975.074 8345395
3405.2739 1010.1048 11017.029 8410932
3469.3479 1009.7537 11013.2 8542773
3503.1985 1000.7816 10915.342 8739896
3548.4202 995.32404 10855.818 9924167
3675.0122 1012.4788 11042.922 8871221
3757.5093 1017.0977 11093.299 8739380
3874.189 1030.6512 11241.125 8937015
3865.1995 1010.8798 11025.482 9002807
3918.7595 1007.8526 10992.465 9462588
3984.2456 1007.9415 10993.435 8541997
4107.3911 1022.3796 11150.908 9133363
4195.2769 1027.723 11209.188 9857087
4206.0171 1014.2959 11062.74 8673069
4293.0063 1019.3865 11118.263 9265205
4381.9136 1024.7716 11176.997 9133620
4429.7617 1020.5372 11130.813 8870448
4554.4575 1033.8717 11276.25 8804655
4594.9604 1027.9847 11212.043 8607276
4691.6567 1034.6582 11284.828 8673069
4792.6167 1042.071 11365.679 8541227
4897.1406 1050.0426 11452.624 8344104
4965.9707 1050.2476 11454.859 9264693
4921.2881 1026.7639 11198.727 9132594
5041.0811 1037.7643 11318.706 10909262
5125.8726 1041.365 11357.979 9922367
5122.0146 1027.0958 11202.348 10448712
5285.9771 1046.4136 11413.043 9725502
5371.373 1049.8868 11450.924 10054724
5381.4727 1038.7395 11329.343 9134134
5456.5015 1040.2451 11345.765 9199670
5602.3589 1055.0529 11507.27 9134131
5600.7754 1042.0719 11365.688 9331511
5657.084 1040.0426 11343.555 10253125
5738.019 1042.5353 11370.743 8541737
5845.7368 1049.7799 11449.758 9528889
5887.772 1045.1981 11399.786 9660733
6133.8999 1076.5402 11741.627 8740145
6584.0298 1142.5812 12461.925 8608816
6780.2881 1163.5895 12691.059 8740915
6943.2744 1178.4896 12853.571 10517071
7535.0571 1265.0568 13797.744 10846547
8157.6753 1354.887 14777.505 8744251
8729.4805 1434.4595 15645.388 5525525
9706.6348 1578.2681 17213.883 4216084
10206.197 1642.2384 17911.596 3689998
10227.237 1628.6871 17763.795 3559182
10477.021 1651.4686 18012.268 3690768
10405.14 1623.5984 17708.291 3559439
10502.461 1622.4233 17695.475 3624976
11027.788 1686.7361 18396.924 3690770
11122.863 1684.6257 18373.906 3822355
10332.211 1549.7078 16902.381 3756563
10664.63 1584.2103 17278.693 3690770
10999.731 1618.4515 17652.156 3624722
11032.424 1607.9716 17537.854 3559186
11523.242 1663.8359 18147.154 3558930
11038.864 1579.1608 17223.619 3427600
11450.903 1623.099 17702.846 3493136
11205.281 1573.866 17165.869 3690772
0 0 0 0
0 0 0 0
0 0 0 0
0 0 0 0
0 0 0 0
0 0 0 0
11540.219 1524.0686 16622.738 3690002
0 0 0 0
0 0 0 0
0 0 0 0
0 0 0 0
0 0 0 0
0 0 0 0
0 0 0 0
0 0 0 0
0 0 0 0
0 0 0 0
0 0 0 0
0 0 0 0
0 0 0 0
0 0 0 0
0 0 0 0
0 0 0 0
0 0 0 0
0 0 0 0
0 0 0 0
0 0 0 0
0 0 0 0
0 0 0 0
0 0 0 0
0 0 0 0
0 0 0 0
0 0 0 0
0 0 0 0
0 0 0 0
0 0 0 0
0 0 0 0
0 0 0 0
0 0 0 0
0 0 0 0
0 0 0 0
0 0 0 0
0 0 0 0
0 0 0 0
0 0 0 0
0 0 0 0
0 0 0 0
0 0 0 0
0 0 0 0
0 0 0 0
0 0 0 0
0 0 0 0
0 0 0 0
0 0 0 0
0 0 0 0
0 0 0 0
-4279.0913 461.21909 4725.0645 1536
-4247.0596 460.7814 4720.5806 1536
-4217.7515 460.63541 4719.085 1536
-4191.4858 460.82196 4720.9961 1536
-4163.1948 460.78687 4720.6367 1536
-4136.5391 460.93347 4722.1387 1536
-4107.938 460.86386 4721.4253 1536
-4079.6365 460.82715 4721.0493 1536
-4051.0452 460.75696 4720.3301 1536
-4019.314 460.32617 4715.917 1536
-3989.6162 460.12387 4713.8442 1536
-3961.2031 460.06793 4713.2715 1536
-3932.3787 459.9631 4712.1973 1536
-3903.6956 459.87338 4711.2783 1536
-3876.5725 459.9675 4712.2422 1536
-3848.334 459.92963 4711.8545 1536
-3820.7312 459.96777 4712.2451 1536
-3793.8655 460.09592 4713.5576 1536
-3767.9744 460.34497 4716.1094 1536
-3736.9399 459.96466 4712.2134 1536
-3709.0181 459.96466 4712.2134 1536
-3685.5984 460.52716 4717.9761 1536
-3627.687 456.75555 4679.3369 1792
-3611.396 458.20654 4694.2017 1792
-3577.7319 457.45868 4686.54 1536
-3550.5017 457.52817 4687.252 1792
-3507.8445 455.59509 4667.4482 1792
-3497.5068 457.86237 4690.6758 1792
-3470.3252 457.94315 4691.5034 1792
-3444.0901 458.15121 4693.6353 1792
-3420.0823 458.66132 4698.8608 1792
-3401.9919 459.97998 4712.3701 1792
-3376.2075 460.27148 4715.3564 1792
-3353.8091 461.03326 4723.1611 1792
-3330.6196 461.69827 4729.9736 1536
-3310.1924 462.76071 4740.8579 1536
-3287.9429 463.58438 4749.2964 1536
-3269.8726 465.01663 4763.9692 1536
-3259.7183 467.60938 4790.5312 1536
-3237.2354 468.46359 4799.2827 1536
-3216.1892 469.54269 4810.3379 1536
-3204.1716 471.97101 4835.2153 1536
-3191.7893 474.38895 4859.9863 1536
-3170.2505 475.4776 4871.1392 1536
-3155.1453 477.56006 4892.4731 1792
-3142.7385 480.09335 4918.4263 1536
-3132.4001 482.99301 4948.1323 1536
-3109.8833 484.05185 4958.98 1536
-3093.2068 486.04861 4979.436 1536
-3070.8987 487.19037 4991.1333 1536
-3065.7073 491.09631 5031.1484 1536
-3046.1946 492.76233 5048.2163 1536
-3037.9077 496.29526 5084.4102 1536
-3028.8655 499.77435 5120.0527 1536
-3015.4424 502.59366 5148.936 1792
-2982.8281 502.23926 5145.3052 1792
-2972.4568 505.66141 5180.3643 1792
-2960.1621 508.82443 5212.7681 1792
-2950.7083 512.54755 5250.9106 1792
-2946.7537 517.31549 5299.7568 1792
-2930.4446 519.99384 5327.1958 1792
-2914.7334 522.83783 5356.3315 1792
-2904.6614 526.76703 5396.5854 1536
-2894.8259 530.82715 5438.1802 1536
-2886.1421 535.1922 5482.8994 1536
-2872.6379 538.75262 5519.375 1536
-2863.8796 543.29541 5565.9141 1536
-2849.5168 546.86835 5602.5181 1536
-2827.3867 549.01733 5624.5337 1536
-3591.6992 705.74933 7230.2104 1536
-3548.4216 705.6626 7229.3223 1536
-3503.8992 705.3233 7225.8462 1536
-3495.675 712.37268 7298.0649 1536
-3457.3503 713.3877 7308.4639 1536
-3421.8691 715.02258 7325.2129 1536
-3260.3892 690.03308 7069.2021 1536
-3231.5195 692.8241 7097.7954 1792
-3218.5481 699.14227 7162.5229 1536
-3788.3748 833.91797 8543.2637 1536
-3729.4307 832.06128 8524.2422 1536
-3648.4509 825.16986 8453.6416 1536
-3608.0388 827.38947 8476.3809 1536
-3249.3118 755.64575 7741.3862 1536
-3872.3796 913.43878 9357.9326 1536
-3446.0317 824.67822 8448.6045 1536
-3765.0747 914.31158 9366.874 1536
-3684.9905 908.25287 9304.8047 1536
-3068.6194 767.82178 7866.126 1536
-3019.7754 767.25421 7860.311 1536
-3198.9243 825.50391 8457.0635 1536
-3185.1311 835.02521 8554.6064 1536
-3150.7307 839.36469 8599.0635 67840
-2881.2068 780.1795 7992.7275 2897701
-2834.1309 780.25781 7993.5293 1186576
-2937.3335 822.41461 8425.415 396038
-2928.7561 834.19135 8546.0645 66561
-2890.2056 837.69495 8581.958 65792
-2873.9766 847.90979 8686.6055 132611
-2910.4805 874.33844 8957.3604 132865
-2913.4497 891.48779 9133.0508 2633764
-2848.2651 888.03705 9097.6992 528133
-2918.3748 927.44934 9501.4668 1536
-2886.8428 935.47534 9583.6914 1536
-2917.6145 964.41791 9880.2002 1536
-2798.4287 943.9624 9670.6387 1536
-2713.9358 934.59875 9574.7109 1536
-2445.1328 860.00934 8810.5625 1536
-2402.1284 863.31628 8844.4414 1280
-2359.3137 866.8407 8880.5479 1280
-2329.4089 875.37714 8968.002 1280
-2280.0093 876.81512 8982.7334 1280
-2230.2163 878.16711 8996.584 1280
-2193.2366 884.75403 9064.0654 1280
-2287.3362 945.87677 9690.251 1280
-2084.9258 884.37482 9060.1797 1536
-2036.1471 886.51099 9082.0645 1536
-1985.5057 887.93024 9096.6045 1536
-1945.6664 894.3941 9162.8252 1536
-1897.0286 897.0686 9190.2246 1536
-1984.0455 965.94543 9895.8496 1536
-1944.2655 975.40564 9992.7666 1280
-1863.0632 964.02655 9876.1904 1280
-1816.7842 970.56616 9943.1875 1280
-1768.0691 976.1991 10000.895 1280
-1725.5564 985.76599 10098.905 1280
-1676.5637 992.18542 10164.671 1280
-1629.5177 1000.2783 10247.579 1280
-1574.3851 1003.8414 10284.084 1280
-1530.9314 1015.4381 10402.888 1280
-1488.5017 1028.7153 10538.91 1280
-1437.6045 1037.0474 10624.269 1280
-1399.6248 1055.8873 10817.279 1280
-1376.9623 1088.6458 11152.881 1280
-1323.4524 1099.0894 11259.872 1280
-1284.4141 1123.298 11507.884 1280
-1246.9822 1151.7048 11798.904 1280
-1144.4912 1119.8292 11472.347 768
-1081.1459 1124.6486 11521.72 512
-887.8255 985.79944 10099.248 2368792
-903.65588 1075.8954 11022.256 1709577
-860.90894 1104.8534 11318.923 2629132
-873.39569 1215.578 12453.267 3481612
-827.94385 1258.6593 12894.624 4269068
-734.55383 1230.2146 12603.215 8675394
-660.42993 1231.2495 12613.818 9923915
-597.25031 1255.5562 12862.833 10055240
-524.64984 1264.2723 12952.127 10186824
-460.79187 1300.6521 13324.828 10317894
-384.17645 1308.6213 13406.471 10317893
-305.89316 1313.583 13457.302 10383685
-226.72392 1316.8976 13491.26 10449478
-147.9532 1327.3983 13598.837 10383940
-67.448936 1328.8624 13613.835 10449476
13.198344 1326.8361 13593.076 10449475
94.08902 1331.7368 13643.282 10383940
174.24933 1326.5476 13590.121 10449989
255.51303 1330.3838 13629.422 10581318
336.17264 1329.9875 13625.361 10449221
416.09976 1327.4078 13598.934 10646859
496.49362 1326.9127 13593.86 10581069
574.36865 1320.7637 13530.866 10449742
655.95703 1323.6141 13560.067 10449743
731.47021 1314.9213 13471.012 10581328
807.09216 1308.1154 13401.287 10383950
886.70728 1308.421 13404.418 10383693
952.65771 1290.1704 13217.446 10120264
1006.812 1259.931 12907.651 9988421
1063.42 1236.8153 12670.837 9922373
1121.6492 1218.5094 12483.299 9397312
1011.1613 1030.5214 10557.411 9528643
991.37897 951.49457 9747.8047 9077876
1030.4609 934.55536 9574.2666 13619139
1113.0559 956.78784 9802.0322 11907751
1139.6489 931.06299 9538.4883 6374194
1227.7794 955.66821 9790.5615 7558183
1306.1283 970.7829 9945.4072 7819814
1363.8619 969.93158 9936.6865 7424803
1397.6721 952.84143 9761.6025 7620898
1522.5055 996.69727 10210.894 7226141
1606.5801 1011.5381 10362.934 7554851
1709.0264 1036.4275 10617.919 7818023
1782.6754 1042.7057 10682.237 8015402
1845.2308 1042.2871 10677.949 8213292
1911.7982 1044.0873 10696.392 8476464
1993.5779 1053.8131 10796.03 8476210
2049.5361 1049.7095 10753.989 9069118
2123.396 1054.7454 10805.58 9661255
2173.4697 1048.017 10736.65 9792844
2243.4456 1050.995 10767.159 9464137
2325.5625 1059.339 10852.641 9332295
2410.4463 1068.4602 10946.085 9200964
2479.3931 1070.2242 10964.157 9595467
2509.137 1055.4084 10812.374 8740412
2562.7952 1051.139 10768.635 8674620
2649.748 1060.4011 10863.521 9398086
2738.2622 1069.834 10960.159 9003328
2796.261 1067.1836 10933.007 8806207
2862.6265 1067.774 10939.056 8871488
2912.6577 1062.3805 10883.801 9134916
3012.1882 1074.8843 11011.897 9332037
3022.1775 1055.5829 10814.16 9134658
3099.3452 1060.0598 10860.025 8937276
3181.9458 1066.175 10922.674 8740154
3253.0181 1068.2606 10944.041 8805689
3298.2551 1061.9465 10879.354 8213295
3368.9031 1063.8993 10899.359 7358242
3445.2737 1067.5518 10936.778 10187598
3490.157 1061.4929 10874.707 9924169
3550.6865 1060.3259 10862.752 9792584
3598.1868 1055.379 10812.072 8937530
3698.3997 1065.7958 10918.789 8871224
3821.0955 1082.222 11087.072 8805430
3887.343 1082.3757 11088.646 8607794
3979.1472 1089.522 11161.857 8541742
4032.4392 1086.062 11126.411 8607277
4098.4302 1086.0787 11126.582 8673070
4107.9067 1071.3556 10975.747 9725500
4222.8564 1084.1704 11107.031 9857343
4286.4185 1083.6012 11101.2 8475690
4367.9521 1087.5238 11141.386 8541482
4450.7358 1091.6361 11183.516 8475433
4606.1797 1113.1877 11404.307 8607019
4705.4033 1120.7257 11481.531 8475434
4796.9375 1126.2435 11538.06 8475434
4727.1943 1094.2729 11210.53 8146726
4779.9868 1091.1605 11178.645 8475432
4903.0186 1103.9481 11309.649 9067566
4945.3345 1098.4619 11253.445 8738089
5015.0347 1099.1238 11260.225 9132336
5111.5869 1105.5758 11326.324 9527094
5200.0503 1110.1338 11373.02 9396280
5267.7271 1110.1942 11373.639 10515274
5289.1133 1100.6206 11275.56 9856833
5362.7881 1102.0308 11290.007 8739122
5455.437 1107.2573 11343.551 8673072
5595.605 1121.8839 11493.397 8739119
5575.5347 1104.4183 11314.467 9331513
5646.2568 1105.1384 11321.844 9068598
5677.7759 1098.2585 11251.361 9594941
5692.9902 1088.4213 11150.581 9134391
5781.6465 1092.6896 11194.309 9134390
6015.0972 1123.9158 11514.212 8739633
6263.9858 1157.2938 11856.161 8804912
6389.2725 1167.3488 11959.172 8739376
6665.2109 1204.4059 12338.812 8541995
6828.5913 1220.5405 12504.106 9331767
6810.8408 1204.3008 12337.735 12293218
6865.3423 1201.046 12304.391 9663291
8399.5635 1454.0066 14895.903 4808223
8915.7158 1527.3059 15646.835 3493387
9567.9951 1622.1759 16618.752 3822610
9869.2383 1656.2036 16967.357 3888403
10077.868 1674.1602 17151.316 3822611
9610.2568 1580.5405 16192.21 3625231
10083.751 1642.0199 16822.049 3493902
9863.9844 1590.5115 16294.358 3493645
10163.865 1622.9794 16626.984 3625233
10151.606 1605.4598 16447.5 3756819
10139.846 1588.3511 16272.228 3559441
10253.035 1590.9532 16298.886 3427855
10276.166 1579.6632 16183.221 3559441
10403.688 1584.4803 16232.571 3625233
10357.613 1563.0128 16012.642 3756820
10650.884 1592.6788 16316.562 3691027
10567.816 1566.042 16043.675 3691283
10407.295 1528.5043 15659.112 3691027
10549.072 1535.6359 15732.173 3625234
11076.2 1598.2471 16373.607 3691027
11405.53 1631.4771 16714.041 3625490
11550.81 1638.0349 16781.223 3690514
10939.335 1538.0802 15757.215 3559184
10960.396 1528 15653.945 3624977
11038.703 1526.0023 15633.48 3558927
11174.229 1531.8823 15693.719 3361548
11302.415 1536.6674 15742.74 3493134
11171.658 1506.4565 15433.239 3558927
11375.649 1521.5094 15587.451 3558927
11454.95 1519.7765 15569.698 3427341
11443.323 1506.1039 15429.626 3427341
11726.839 1531.1852 15686.577 3362060
12005.229 1555.2079 15932.685 3428108
12147.098 1561.3083 15995.181 3493902
11998.521 1530.2715 15677.216 3493902
12416.119 1571.3654 16098.212 3691535
12120.295 1522.2316 15594.85 3954708
12335.72 1537.5651 15751.938 5402149
13864.895 1715.1887 17571.645 5205026
14095.908 1730.7697 17731.266 4744476
14602.029 1779.649 18232.021 3428108
14988.067 1813.2827 18576.59 3230216
0 0 0 0
0 0 0 0
0 0 0 0
0 0 0 0
16513.822 1927.1069 19742.688 3229451
0 0 0 0
0 0 0 0
0 0 0 0
0 0 0 0
0 0 0 0
0 0 0 0
0 0 0 0
0 0 0 0
0 0 0 0
0 0 0 0
0 0 0 0
0 0 0 0
0 0 0 0
0 0 0 0
0 0 0 0
0 0 0 0
0 0 0 0
0 0 0 0
0 0 0 0
0 0 0 0
0 0 0 0
0 0 0 0
0 0 0 0
0 0 0 0
0 0 0 0
-4235.377 484.21924 4676.7939 1536
-4202.437 483.61758 4670.9829 1536
-4173.5024 483.47198 4669.5767 1536
-4146.4307 483.54156 4670.249 1536
-4118.2764 483.48514 4669.7036 1536
-4085.3674 482.86588 4663.7227 1536
-4057.4888 482.83682 4663.4419 1536
-4032.6516 483.17178 4666.6772 1536
-4003.5498 482.99686 4664.9878 1536
-3972.741 482.61212 4661.272 1792
-3945.1804 482.61942 4661.3423 1792
-3914.1289 482.19669 4657.2593 1792
-3888.4207 482.43091 4659.522 1792
-3859.2971 482.24173 4657.6943 1792
-3831.8469 482.26044 4657.875 1536
-3804.8015 482.33069 4658.5537 1536
-3776.6628 482.26236 4657.894 1536
-3748.946 482.24738 4657.749 1536
-3720.2959 482.11118 4656.4336 1536
-3692.2087 482.04642 4655.8081 1536
-3648.9944 479.99084 4635.9546 1792
-3635.7668 481.87851 4654.1865 1792
-3581.6172 478.3298 4619.9116 1536
-3570.1848 480.47534 4640.6343 1536
-3543.3943 480.57123 4641.5601 1536
-3516.5759 480.66489 4642.4644 1792
-3490.1094 480.80838 4643.8506 1792
-3463.5776 480.94513 4645.1714 1792
-3439.2046 481.38629 4649.4321 1792
-3416.6072 482.08502 4656.1812 1792
-3390.3369 482.27274 4657.9941 1792
-3372.9397 483.73608 4672.1274 1792
-3348.1948 484.1611 4676.2324 1792
-3325.2412 484.85446 4682.9292 1792
-3301.6826 485.47046 4688.8789 1536
-3277.459 485.99829 4693.9771 1792
-3254.4624 486.71878 4700.9355 1792
-3234.8696 487.96506 4712.9727 1792
-3217.7371 489.60742 4728.8354 1536
-3197.6719 490.82846 4740.6289 1536
-3183.2266 492.94144 4761.0366 1536
-3163.249 494.22784 4773.4614 1536
-3144.8311 495.78336 4788.4854 1536
-3130.0308 497.94275 4809.3413 1536
-3118.5366 500.67249 4835.7065 1536
-3103.2825 502.84366 4856.6768 1536
-3089.7922 505.34399 4880.8257 1536
-3075.9026 507.82562 4904.7944 1536
-3061.5137 510.27136 4928.4165 1536
-3040.709 511.68457 4942.0659 1536
-3030.7971 514.97614 4973.8574 1536
-3014.4924 517.23547 4995.6787 1536
-2999.3523 519.74139 5019.8818 1536
-2985.6816 522.55463 5047.0537 1536
-2965.7754 524.32251 5064.1284 1792
-2950.0305 526.86969 5088.7305 1792
-2933.2939 529.29053 5112.1118 1536
-2922.45 532.8363 5146.3579 1536
-2921.7151 538.31934 5199.3159 1536
-2913.5271 542.53149 5239.9985 1536
-2897.6177 545.38104 5267.5205 1536
-2882.0603 548.35962 5296.2891 1536
-2869.1714 551.91711 5330.6484 1536
-2851.3931 554.60278 5356.5879 1536
-2838.3564 558.28149 5392.1191 1536
-2826.6895 562.31659 5431.0913 1536
-2816.7297 566.78802 5474.2783 1536
-2803.5669 570.71167 5512.1748 1536
-2794.0186 575.47229 5558.1543 1536
-3496.4524 728.73956 7038.4751 1536
-3480.0735 734.08203 7090.0747 1536
-3434.2512 733.26837 7082.2163 1536
-3390.7395 732.93402 7078.9868 1536
-3352.6367 733.77509 7087.1104 1536
-3266.6477 724.02405 6992.9302 1536
-3203.1394 719.06903 6945.0728 1536
-3229.4783 734.41724 7093.312 1792
-3704.0388 853.44458 8242.9287 1792
-3600.1375 840.58905 8118.7642 1536
-3578.9263 846.95392 8180.2393 1536
-3527.3948 846.21985 8173.1489 1536
-3463.1785 842.3797 8136.0596 1536
-3094.7617 763.39331 7373.1753 1536
-3064.7354 766.81177 7406.1924 1536
-3315.5798 841.62579 8128.7778 1536
-3628.4097 934.61176 9026.875 1536
-3359.8057 878.37262 8483.6943 1536
-3206.5144 851.02997 8219.6074 1536
-3288.6182 886.2829 8560.0947 1536
-3120.0872 854.03589 8248.6396 1536
-3110.3748 864.92651 8353.8262 1280
-3067.0024 866.65802 8370.5498 1024
-2856.3396 820.39734 7923.7441 265219
-3039.6921 887.65063 8573.3047 857099
-2966.0784 880.87537 8507.8672 1054479
-2960.5198 894.42657 8638.75 1317652
-2918.1079 897.12469 8664.8096 2041120
-2859.7522 894.92999 8643.6123 2568491
-2856.6367 910.2572 8791.6494 2963247
-2774.4648 900.49512 8697.3623 2437413
-2790.9309 922.9837 8914.5664 462854
-2777.2988 936.19427 9042.1602 1536
-2686.6753 923.46124 8919.1787 1536
-2739.5654 960.53528 9277.2559 1536
-2595.2329 928.56226 8968.4473 1536
-2561.4192 935.62231 9036.6357 1536
-2400.1199 895.42224 8648.3662 1536
-2366.0276 901.96112 8711.5215 1536
-2330.2461 908.13336 8771.1357 1792
-2257.1614 899.7179 8689.8555 1536
-2193.2891 894.6673 8641.0752 1536
-2155.0513 900.08191 8693.3721 1536
-2146.0381 918.2666 8869.0068 1536
-2095.1453 918.99451 8876.0371 1536
-2085.9922 938.53973 9064.8135 1536
-2057.3628 950.1236 9176.6953 1536
-2001.9663 949.6394 9172.0186 1536
-1960.582 955.96021 9233.0684 1536
-1922.8854 964.49371 9315.4883 1536
-1892.7853 977.45459 9440.6699 1536
-1835.9961 977.0025 9436.3037 1536
-1790.5769 982.76257 9491.9365 1536
-1736.4409 983.95691 9503.4717 1536
-1712.8519 1003.1208 9688.5654 1536
-1660.057 1005.9164 9715.5664 1536
-1610.182 1010.7459 9762.2119 1280
-1553.7458 1011.6633 9771.0723 1280
-1516.0293 1025.312 9902.8965 1280
-1495.1268 1051.8893 10159.591 1280
-1462.4236 1072.0458 10354.271 1024
-1423.4568 1089.175 10519.713 1024
-1369.8662 1096.1711 10587.284 66816
-1325.4391 1111.5234 10735.562 132096
-1242.4731 1094.4752 10570.905 526080
-1140.7004 1058.1709 10220.262 723202
-1064.9038 1043.2433 10076.085 1643784
-1000.3534 1038.2145 10027.514 2235152
-937.90552 1034.8702 9995.2139 1182211
-882.66949 1039.569 10040.597 2628625
-887.77374 1121.1494 10828.535 2956047
-859.19696 1169.5922 11296.415 3217933
-811.63464 1198.1926 11572.65 3414537
-769.79871 1241.3057 11989.055 3677447
-728.38971 1293.9434 12497.452 4201731
-654.12231 1293.5183 12493.347 7884335
-573.84955 1279.5936 12358.856 10054984
-505.73975 1292.6841 12485.289 9989186
-436.50272 1306.8855 12622.453 10054465
-362.23123 1308.7703 12640.656 10251586
-289.58286 1319.0306 12739.756 10251587
-214.83409 1323.5859 12783.753 10317891
-142.20184 1353.245 13070.212 10383941
-64.735542 1352.8258 13066.164 10383684
12.70947 1355.2502 13089.58 10383941
89.742203 1347.319 13012.977 10383940
168.72856 1362.494 13159.544 10449734
238.41022 1316.6885 12717.134 9857597
304.28186 1276.8961 12332.802 10581066
373.34433 1263.3123 12201.604 10646603
439.14203 1244.8813 12023.59 10581069
507.82806 1238.6407 11963.316 10515532
593.16132 1269.5594 12261.942 10646861
675.99744 1288.9689 12449.406 10581071
744.85046 1280.5197 12367.8 10647121
797.987 1248.985 12063.226 10646864
863.78198 1240.8193 11984.358 10515021
940.40936 1248.2729 12056.348 10448972
913.10364 1126.4562 10879.79 10186056
1001.7782 1154.3506 11149.205 9857607
968.13092 1046.5619 10108.137 9463108
976.67169 994.28192 9603.1953 9403504
1061.9121 1021.5423 9866.4873 12302258
1078.0552 982.95563 9493.8008 12826803
1119.936 970.49976 9373.4971 6178094
1274.941 1052.6188 10166.638 2890506
1282.828 1011.3441 9767.9893 1377024
1343.9866 1013.8178 9791.8809 1180160
1401.3306 1013.3284 9787.1543 10255699
1474.8962 1024.142 9891.5957 8806968
1571.0557 1049.2178 10133.789 7949863
1651.5457 1062.3682 10260.801 8146985
1728.0991 1072.1422 10355.203 8344365
1800.5986 1078.8171 10419.672 8607537
1850.5796 1072.005 10353.877 8804917
1927.3794 1080.6671 10437.539 9200188
2015.0367 1094.689 10572.969 9265727
2078.4048 1095.0679 10576.628 9331521
2134.8982 1091.9083 10546.112 9397829
2219.0491 1102.672 10650.072 9595465
2253.5605 1088.856 10516.631 9529929
2381.1333 1119.538 10812.971 9464138
2468.7964 1130.3395 10917.297 9858638
2499.0588 1114.9796 10768.945 9200451
2507.5066 1090.8942 10536.316 8937279
2587.6924 1098.4303 10609.104 9397830
2685.1963 1112.7859 10747.757 9200194
2746.5193 1111.83 10738.523 9529159
2844.1086 1125.2657 10868.293 9529415
2901.3223 1122.4858 10841.443 8805436
2969.4307 1123.9501 10855.585 8739640
3021.2495 1119.3174 10810.84 8739641
3025.3169 1097.5531 10600.632 8607797
3068.8228 1090.6912 10534.356 8607540
3141.9204 1094.4104 10570.278 8541746
3199.092 1092.545 10552.263 8278316
3290.1804 1102.1125 10644.669 8015400
3402.8618 1118.417 10802.145 8344107
3449.0815 1112.6787 10746.722 8409900
3431.9045 1087.0675 10499.357 8015138
3561.7419 1108.1064 10702.56 11304530
3643.5977 1113.7427 10756.997 11831131
3758.2161 1129.0275 10904.624 8673071
3870.293 1143.0449 11040.012 8739379
3950.7659 1147.4178 11082.246 8542001
3956.8794 1130.4045 10917.926 8673330
4030.9026 1133.0271 10943.255 9791555
4051.0227 1120.6552 10823.761 10318157
4169.2349 1135.3816 10965.995 10450000
4274.6045 1146.2124 11070.604 10252103
4339.2749 1145.9675 11068.238 8409897
4404.377 1145.8422 11067.028 8212518
4470.8154 1146.0631 11069.162 8145956
4542.1479 1147.5142 11083.177 7488025
4602.5786 1146.2087 11070.568 8277798
4663.9229 1145.1643 11060.481 10383427
4592.5605 1112.0161 10740.322 13475694
4791.5913 1144.3506 11052.622 13541486
4887.9478 1151.6227 11122.858 13542770
4961.9507 1153.5046 11141.036 9394987
5056.7461 1160.1073 11204.807 8079906
5193.2944 1175.9937 11358.244 11698517
5310.749 1187.2051 11466.528 12224863
5335.4951 1177.6704 11374.438 12027739
5377.3921 1172.1118 11320.752 10317120
5404.8623 1163.5845 11238.391 9329972
5370.6069 1142.1378 11031.25 8278311
5473.3813 1149.9979 11107.166 8870192
5594.3208 1161.4424 11217.702 8805168
5617.2109 1152.5011 11131.343 9002547
