# .PCD v0.7 - Point Cloud Data file format
VERSION 0.7
FIELDS x y z rgb
SIZE 4 4 4 4
TYPE F F F U
COUNT 1 1 1 1
WIDTH 1385
HEIGHT 1
VIEWPOINT 0 0 0 1 0 0 0
POINTS 1385
DATA ascii
-480.49921 1316.7106 10348.393 8675137
-419.99512 1319.2686 10368.496 8609344
-357.85129 1316.6696 10348.07 8740928
-296.30472 1315.6481 10340.042 8675136
-235.68651 1319.2903 10368.667 8872258
-174.60287 1321.9774 10389.785 8608828
-112.69723 1317.9777 10358.351 8476984
-51.412209 1320.35 10376.995 8280118
10.002056 1310.7052 10301.194 8214327
73.006187 1346.9672 10586.188 9201736
135.46597 1344.3115 10565.315 8214841
197.72711 1341.9862 10547.04 8017459
261.26376 1347.3558 10589.242 8017203
324.99612 1351.4595 10621.493 7885104
388.50381 1353.449 10637.129 8016689
453.7211 1360.0076 10688.675 8148016
519.08997 1365.358 10730.726 7950636
576.87872 1351.7786 10624.001 7621668
640.1828 1352.5234 10629.855 8411949
700.1532 1346.7227 10584.266 13676415
794.61536 1402.7654 11024.721 13874308
855.54547 1395.595 10968.366 13412731
924.58142 1401.7258 11016.55 13017973
996.11804 1410.5894 11086.211 13675648
1058.9792 1406.8309 11056.673 7753771
1153.4479 1443.054 11341.359 7359526
1247.7516 1475.0935 11593.167 8017460
1299.1122 1455.671 11440.521 7754286
1359.7946 1448.1022 11381.035 7096356
1447.2289 1468.3917 11540.496 7819563
1529.4148 1481.7655 11645.604 7950380
1599.8212 1483.0648 11655.815 8147758
1710.0481 1519.6431 11943.295 7620898
1818.1714 1551.519 12193.817 7817761
1859.4794 1526.1216 11994.211 12883303
1911.8269 1511.3209 11877.889 13607020
1972.4382 1503.8719 11819.345 13278055
2001.3971 1473.6281 11581.649 10909768
2113.4177 1504.5203 11824.44 7752484
2256.2708 1554.6748 12218.619 7291931
2324.4487 1551.856 12196.465 7686430
2455.3191 1589.8 12494.678 7488792
2446.7161 1537.858 12086.451 7225108
2544.7781 1554.0071 12213.371 7159830
2628.7795 1560.9141 12267.655 10056012
2747.9519 1587.7714 12478.733 10450258
2826.0596 1590.1152 12497.155 11238744
2828.8911 1551.0664 12190.259 10909521
2908.4668 1554.9924 12221.115 9461561
2939.8999 1533.6139 12053.096 9527354
3008.3904 1532.1223 12041.372 8145959
2937.9844 1461.6011 11487.126 8278316
3007.9033 1462.502 11494.207 8278575
3188.3789 1515.9277 11914.095 9265726
3300.0491 1535.0337 12064.254 9332289
3489.0054 1588.517 12484.595 8805945
3640.6782 1623.1575 12756.843 11701092
3812.0972 1665.0131 13085.797 12490350
3953.4395 1692.3248 13300.449 12489838
3948.9407 1657.3604 13025.652 9265984
4044.9895 1665.1267 13086.691 9726280
4580.3267 1850.0333 14539.923 10187345
4645.9985 1841.9127 14476.102 9003846
4517.8208 1758.6279 13821.543 8018503
5255.7905 2009.4663 15792.95 5653047
5134.7627 1928.8501 15159.365 5131334
5189.2319 1915.797 15056.777 9078913
5318.2451 1930.2408 15170.296 12698300
5238.0562 1869.537 14693.208 14475481
5312.1836 1864.9955 14657.516 13489354
5145.9087 1777.5577 13970.317 11909032
5257.6904 1787.4174 14047.807 8355953
5269.7266 1763.5884 13860.528 2566428
5373.123 1770.5967 13915.607 1579785
5428.0327 1761.6565 13845.346 1515271
5503.0737 1759.4191 13827.761 3030026
5478.7622 1725.9487 13564.708 3426057
5619.7358 1744.7625 13712.57 4084755
5609.0527 1716.6261 13491.438 3822865
5566.4517 1679.6492 13200.827 4349467
5574.5625 1658.7872 13036.867 4547358
5714.2061 1677.1 13180.791 4547869
5767.7192 1669.9806 13124.839 5469484
5856.7188 1673.1888 13150.053 6193462
6170.4434 1739.6707 13672.553 5666863
6321.0815 1759.0454 13824.824 4482077
6613.2422 1816.8041 14278.765 4153114
6698.5186 1816.9854 14280.189 4152858
6844.2246 1833.3496 14408.801 3626515
7014.3369 1855.7675 14584.989 3494929
7252.9116 1895.5322 14897.512 3166220
7306.0767 1886.4672 14826.266 3165707
7381.1558 1883.2084 14800.654 3494672
7234.2607 1824.0573 14335.77 3494416
7303.2783 1820.0878 14304.572 3560209
7155.9341 1762.9075 13855.177 3560465
7219.5132 1758.3972 13819.729 3889429
7167.4414 1726.1356 13566.177 4020501
7563.7515 1801.3761 14157.513 4283415
7639.8008 1799.5297 14143 4415001
7709.6045 1796.2679 14117.365 4546328
8138.1123 1875.7538 14742.067 4678171
8271.8115 1886.3228 14825.132 4678172
10084.901 2275.6174 17884.705 4743962
10302.102 2300.4541 18079.904 4875549
0 0 0 0
0 0 0 0
11412.537 2471.3169 19422.762 6454323
0 0 0 0
0 0 0 0
0 0 0 0
0 0 0 0
0 0 0 0
0 0 0 0
0 0 0 0
0 0 0 0
9499.3438 1885.8671 14821.55 4150802
9460.5146 1860.9535 14625.747 3690507
9330.5146 1818.7211 14293.831 3493386
9660.5918 1866.1208 14666.359 3427595
9523.6348 1823.2634 14329.531 3164680
10375.671 1968.8293 15473.573 4875038
10381.949 1952.7648 15347.317 4809500
11852.986 2210.0962 17369.758 4480790
11043.041 2041.3491 16043.526 3954447
0 0 0 0
0 0 0 0
0 0 0 0
0 0 0 0
13511.676 2394.6152 18819.943 2703623
0 0 0 0
0 0 0 0
0 0 0 0
0 0 0 0
0 0 0 0
0 0 0 0
0 0 0 0
0 0 0 0
0 0 0 0
0 0 0 0
0 0 0 0
0 0 0 0
0 0 0 0
0 0 0 0
0 0 0 0
0 0 0 0
0 0 0 0
0 0 0 0
0 0 0 0
0 0 0 0
0 0 0 0
0 0 0 0
0 0 0 0
0 0 0 0
0 0 0 0
0 0 0 0
0 0 0 0
0 0 0 0
0 0 0 0
0 0 0 0
0 0 0 0
0 0 0 0
0 0 0 0
0 0 0 0
0 0 0 0
0 0 0 0
0 0 0 0
0 0 0 0
0 0 0 0
0 0 0 0
0 0 0 0
0 0 0 0
0 0 0 0
0 0 0 0
-5469.248 798.98187 6000.0029 1536
-5428.7319 798.25208 5994.522 1536
-5386.0835 797.19696 5986.5986 1536
-5360.5444 798.677 5997.7134 1536
-5318.0747 797.63745 5989.9067 1536
-5298.561 800.05023 6008.0254 1536
-5264.4121 800.27075 6009.6816 1536
-5230.48 800.52747 6011.6099 1536
-5196.9482 800.84961 6014.0283 1536
-5165.1167 801.4397 6018.4604 1536
-5135.4771 802.38068 6025.5264 1536
-5112.3423 804.35828 6040.377 1536
-5093.9775 807.11938 6061.1123 1536
-5586.7837 891.48785 6694.6821 1536
-5576.2275 896.16663 6729.8174 1536
-5534.6147 895.88556 6727.707 1792
-5494.5581 895.85425 6727.4722 1792
-5450.3647 895.14301 6722.1309 1536
-5405.6353 894.33264 6716.0454 1536
-5398.5234 899.78009 6756.9531 1536
-5369.0596 901.5556 6770.2861 1536
-5371.8389 908.81274 6824.7847 1536
-5321.8076 907.1778 6812.5063 1536
-5282.8936 907.42731 6814.3804 1536
-5949.9043 1029.8693 7733.8652 1792
-5975.6592 1042.3555 7827.6313 1536
-5258.0752 924.35931 6941.5322 1536
-5920.8613 1049.0823 7878.147 1536
-5764.3389 1029.4656 7730.834 1536
-5343.4668 961.9455 7223.7881 1536
-5184.2446 940.8183 7065.1323 1280
-5100.1006 933.08301 7007.0435 1280
-5061.2427 933.57397 7010.7305 1280
-5117.0791 951.68451 7146.7324 1280
-5150.1675 965.83118 7252.9683 1280
-5409.1963 1022.9441 7681.8608 1280
-4955.4297 945.08417 7097.167 2048
-4904.5562 943.3877 7084.4272 1516309
-4979.9438 966.15771 7255.4204 1976609
-4926.3384 964.08051 7239.8213 396039
-4875.2783 962.46948 7227.7227 460807
-4867.1851 969.38727 7279.6729 395271
-4828.9453 970.37097 7287.0601 395015
-4791.248 971.48248 7295.4062 461064
-4810.771 984.32178 7391.8242 461321
-4817.6284 994.78186 7470.375 1053457
-4785.939 997.40265 7490.0562 1779231
-4789.1016 1007.4037 7565.1592 2173987
-4867.5635 1033.583 7761.7544 528648
-4583.5488 982.55872 7378.5845 1536
-4470.2021 967.48969 7265.4224 1536
-4637.8213 1013.5284 7611.1538 1536
-4556.771 1005.5946 7551.5742 1536
-4532.1357 1010.0768 7585.2334 1536
-4479.6929 1008.3892 7572.5596 1536
-4432.0527 1007.7593 7567.8301 1536
-4415.6382 1014.2893 7616.8672 1536
-4394.8872 1019.9478 7659.3599 1536
-4363.751 1023.2891 7684.4517 1536
-4359.4263 1033.0544 7757.7847 1536
-4238.7339 1015.1582 7623.3921 1536
-4226.458 1023.1215 7683.1929 1536
-4145.9941 1014.5718 7618.9883 1536
-4133.3701 1022.6177 7679.4102 1536
-4135.625 1034.5649 7769.1279 1536
-4103.8286 1038.1671 7796.1787 1536
-4061.3916 1039.1287 7803.3999 1536
-4011.0369 1038.0634 7795.3994 1536
-4063.9751 1064.0171 7990.3003 1536
-4082.8384 1081.5559 8122.0098 1536
-4014.5989 1076.1643 8081.521 1536
-4010.281 1087.9844 8170.2847 1536
-4011.5818 1101.6361 8272.8037 1536
-3990.2581 1109.3361 8330.626 1536
-3979.8601 1120.3042 8412.9922 1536
-3942.0989 1123.7505 8438.8721 1536
-3950.7952 1140.6986 8566.1455 1536
-3928.365 1148.984 8628.3652 1536
-3897.415 1154.9633 8673.2666 1536
-3869.6709 1162.0648 8726.5967 1536
-3861.3115 1175.2589 8825.6787 1536
-3889.7058 1200.1555 9012.6406 1536
-3904.49 1221.4875 9172.835 1280
-3935.3733 1248.5293 9375.9062 1280
-3858.0129 1241.5127 9323.2148 768
-3909.0381 1276.207 9583.7539 658689
-3848.5557 1274.9829 9574.5615 1184005
-3775.2881 1269.4232 9532.8105 1577735
-3742.948 1277.6654 9594.7061 2037770
-3694.1709 1280.4645 9615.7256 2234637
-3681.7922 1296.1653 9733.6318 2365197
-3663.6599 1310.308 9839.8369 2430990
-3585.8704 1303.2266 9786.6592 2496784
-3388.4575 1251.7225 9399.8867 1247747
-3332.5667 1251.6501 9399.3428 2825487
-3623.2356 1383.9491 10392.85 2890767
-3652.146 1419.1116 10656.904 3021324
-3462.9001 1369.2511 10282.475 3545615
-3609.7188 1452.8665 10910.389 3611406
-3622.0664 1484.4215 11147.354 4004876
-3665.4224 1530.093 11490.326 4333065
-3572.2053 1519.4032 11410.051 6437921
-3360.5857 1456.968 10941.189 9134912
-3325.5742 1470.1505 11040.185 9924168
-3296.7419 1486.6483 11164.076 10055496
-3253.2668 1497.0836 11242.44 10055493
-3224.8965 1515.0514 11377.37 10121030
-3171.884 1521.9624 11429.27 9989957
-3071.0986 1505.7521 11307.536 10054980
-3025.3892 1516.4243 11387.681 10120773
-2958.0713 1516.5057 11388.292 10121032
-2918.4287 1531.1104 11497.966 10055239
-2792.5151 1500.0704 11264.87 10121290
-2724.9529 1499.6228 11261.509 10121035
-2666.9666 1504.5551 11298.547 10121292
-2558.927 1480.7766 11119.982 10056013
-2493.877 1481.2758 11123.73 10056014
-2421.8589 1477.5508 11095.758 10253393
-2331.7363 1462.2645 10980.964 10384208
-2270.3599 1464.645 10998.841 10318416
-2180.1931 1448.0444 10874.178 10450001
-2115.1956 1447.6587 10871.28 10318416
-2042.5996 1441.8848 10827.922 10186829
-1968.4382 1434.5957 10773.184 10186828
-1889.5974 1423.2932 10688.307 10186829
-1796.1864 1399.8517 10512.271 10186829
-1718.1393 1387.1298 10416.735 10186829
-1620.5305 1357.0782 10191.062 9924171
-1496.5409 1301.7533 9775.5957 9465159
-1367.5889 1237.4829 9292.9531 8347704
-1280.3099 1207.1104 9064.8682 8019767
-1219.5537 1200.1788 9012.8164 8021570
-1182.6045 1217.1145 9139.9951 1246976
-1098.2953 1184.5942 8895.7822 721920
-1058.2581 1198.9531 9003.6113 721664
-1005.7533 1199.9615 9011.1846 786688
-956.84595 1205.616 9053.6455 6046248
-898.62372 1199.5081 9007.7783 7820849
-866.65479 1229.8854 9235.8984 8214579
-833.72095 1262.8959 9483.7939 8411701
-789.06842 1281.6444 9624.5859 8477494
-754.04376 1320.1702 9913.8984 8937275
-700.4292 1329.9093 9987.0342 8739896
-645.45282 1338.6212 10052.458 8805690
-590.19977 1348.4728 10126.438 8805690
-535.10077 1360.9459 10220.105 8674104
-475.84207 1364.6729 10248.094 8476725
-414.93204 1364.0615 10243.503 8476725
-356.34064 1372.1692 10304.388 8476981
-295.39133 1372.6724 10308.167 8476725
-235.03889 1376.9351 10340.177 8410933
-172.7502 1368.8605 10279.541 8410932
-111.17336 1360.7036 10218.287 8279346
-50.585888 1359.6283 10210.211 8410932
9.9666567 1366.889 10264.736 8345395
71.139206 1373.6447 10315.468 8213553
132.41388 1375.217 10327.275 8213552
193.81911 1376.7227 10338.582 8082479
255.70065 1380.0759 10363.764 8148273
320.16534 1393.3723 10463.614 8214066
387.05759 1411.2053 10597.532 8279859
446.47174 1400.6006 10517.896 8148015
511.23718 1407.3247 10568.391 8148523
566.47028 1389.2045 10432.315 7885090
644.20654 1424.4066 10696.668 11831894
707.55182 1424.3325 10696.111 13081450
795.90857 1470.4805 11042.663 12752744
861.9967 1471.6003 11051.072 13081713
916.89368 1454.8053 10924.949 13213557
997.35406 1478.1113 11099.967 12292458
1056.5977 1469.035 11031.808 10582354
1132.6147 1482.9784 11136.517 8148273
1188.1228 1470.0117 11039.142 7621929
1276.1028 1496.4777 11237.89 9398852
1352.2145 1507.0911 11317.592 9464386
1415.866 1503.4703 11290.401 9201215
1487.8503 1508.6256 11329.115 8805430
1574.4492 1527.5144 11470.962 8081707
1647.1746 1531.9371 11504.175 8081962
1710.2235 1527.3665 11469.851 7752225
1840.0557 1580.5081 11868.922 8146210
1902.7017 1574.1526 11821.194 11106121
1955.2996 1560.2302 11716.645 11763795
1991.5687 1534.6802 11524.774 9856828
2032.2257 1514.0934 11370.176 7883810
2125.3193 1532.6414 11509.464 8936237
2242.8855 1567.1356 11768.5 10186552
2335.1626 1582.4124 11883.222 11436872
2332.5061 1534.3466 11522.269 13279341
2270.738 1451.2365 10898.147 13740665
2433.5557 1512.2866 11356.608 7819304
2727.3567 1649.2587 12385.208 9859916
2673.4958 1574.3267 11822.502 10781276
2682.6038 1539.3546 11559.877 10845785
2650.1455 1482.866 11135.672 8608053
2671.1418 1458.3055 10951.233 9462335
2721.6179 1450.6226 10893.538 8936249
2879.8657 1499.4072 11259.89 8345138
2902.0947 1476.7677 11089.877 10582873
3033.7192 1509.5654 11336.174 11043426
3103.1619 1510.6713 11344.478 10780251
3252.3293 1549.7185 11637.705 9069113
3486.3447 1626.7346 12216.062 9002550
3555.3601 1625.1943 12204.495 9133622
3677.9456 1647.7147 12373.613 9988675
3775.8826 1658.5281 12454.817 9462848
3923.3003 1690.2443 12692.992 9726277
4040.6685 1708.0648 12826.816 9858118
4094.7202 1698.9567 12758.418 5452045
4236.0439 1725.7324 12959.492 10845003
4191.6489 1677.2413 12595.347 11306075
4262.6909 1675.8301 12584.747 9662289
4511.147 1743.0161 13089.286 9992801
4591.4619 1744.0629 13097.146 9730657
4583.7637 1712.1987 12857.86 9928042
4675.4399 1717.8896 12900.597 4796437
5616.3403 2030.407 15247.465 8613977
5876.5518 2090.8438 15701.317 8419692
5972.3994 2091.8281 15708.711 10394770
6047.6274 2085.6714 15662.476 12172210
6010.0806 2041.3953 15329.982 14014416
5731.8911 1917.9177 14402.719 12830138
5482.3833 1807.5189 13573.674 10922143
6067.4766 1971.4989 14805.09 8684928
6398.3726 2049.3857 15389.986 4934724
5767.9819 1821.5121 13678.756 3224351
5678.3296 1768.3511 13279.54 2304267
5643.6733 1733.536 13018.095 3357968
5640.7632 1709.2799 12835.941 5069596
5730.7495 1713.4445 12867.215 5926438
5819.3965 1717.1041 12894.698 7176760
5855.8682 1705.4735 12807.357 7439931
6069.9893 1745.2177 13105.817 6452526
6212.2993 1763.5715 13243.647 5926696
6316.6372 1770.8224 13298.098 5401380
6517.8818 1804.7266 13552.704 4020758
6688.5815 1829.4513 13738.376 3560464
6700.4561 1810.6619 13597.275 3560722
6782.9004 1811.1627 13601.036 3626258
6873.5112 1813.8065 13620.891 3691794
6843.2974 1784.8756 13403.631 2902279
6864.8745 1769.9615 13291.634 3297294
6852.1343 1746.6382 13116.485 3626002
6910.2568 1741.6985 13079.391 2902279
6988.4082 1741.8607 13080.608 2836229
7090.6421 1747.9561 13126.382 3362828
7430.1157 1811.7681 13605.582 3954450
7783.3838 1877.5376 14099.482 3954192
8237.0889 1965.8806 14762.9 4217619
7759.5986 1832.4615 13760.981 4743964
7992.772 1867.8982 14027.095 5138721
0 0 0 0
8505.2109 1947.1577 14622.299 5401121
8654.0664 1961.2566 14728.176 5532450
8990.0303 2017.0552 15147.198 5466913
8295.0811 1842.7352 13838.132 5401120
8385.5205 1844.5925 13852.079 5203740
9061.3008 1973.9249 14823.31 5532449
8272.5859 1784.8094 13403.136 5663779
7777.2954 1661.9951 12480.854 5532194
8198.7852 1735.5632 13033.318 5136922
7767.3862 1628.8992 12232.317 5005336
7870.4829 1635.2603 12280.086 5137178
7956.1284 1637.9121 12300 5136665
7991.6152 1630.2833 12242.711 5267995
8209.2031 1659.6063 12462.914 5530398
8363.7988 1675.785 12584.409 5793825
8597.167 1707.3212 12821.232 5596700
8899.4727 1751.8757 13155.816 5662494
9000.2803 1756.3354 13189.308 5728541
9281.3818 1795.5985 13484.156 5793821
9882.4033 1895.5558 14234.791 5662748
10166.717 1933.587 14520.389 5728285
10885.122 2052.8462 15415.973 5399835
10668.438 1995.2377 14983.358 5268506
10473.06 1942.5316 14587.56 5465629
10263.604 1888.0992 14178.796 4676627
10543.219 1923.7898 14446.815 4808472
11517.2 2084.584 15654.309 4150289
12247.308 2199.0208 16513.68 3492619
12941.243 2305.2004 17311.043 3163658
0 0 0 0
0 0 0 0
0 0 0 0
0 0 0 0
0 0 0 0
0 0 0 0
0 0 0 0
0 0 0 0
0 0 0 0
0 0 0 0
0 0 0 0
0 0 0 0
0 0 0 0
0 0 0 0
0 0 0 0
0 0 0 0
0 0 0 0
0 0 0 0
0 0 0 0
0 0 0 0
0 0 0 0
0 0 0 0
0 0 0 0
0 0 0 0
0 0 0 0
0 0 0 0
0 0 0 0
0 0 0 0
0 0 0 0
0 0 0 0
0 0 0 0
0 0 0 0
0 0 0 0
0 0 0 0
0 0 0 0
0 0 0 0
0 0 0 0
0 0 0 0
0 0 0 0
-5333.8008 813.86688 5851.4111 1536
-5293.5259 813.00641 5845.2246 1536
-5259.7588 813.14056 5846.1895 1536
-5227.3018 813.48041 5848.6333 1536
-5194.4126 813.75714 5850.6226 1536
-5164.229 814.46423 5855.7065 1536
-5131.9399 814.84668 5858.4561 1536
-5101.6616 815.55573 5863.5537 1536
-5071.0923 816.22766 5868.3848 1536
-5041.2134 817.02075 5874.0869 1536
-5017.4058 818.81567 5886.9917 1536
-4991.7144 820.32623 5897.8516 1536
-4981.8149 824.4715 5927.6548 1536
-5520.2568 920.06842 6614.9624 1536
-5408.0728 907.81653 6526.8755 1536
-5371.4185 908.15808 6529.3311 1792
-5381.0767 916.39148 6588.5269 1792
-5643.5635 968.11639 6960.4102 1792
-5594.2378 966.71967 6950.3682 1792
-5580.1543 971.43744 6984.2876 1792
-5451.6128 956.15125 6874.3848 1792
-5404.1978 954.97052 6865.896 1536
-5449.8691 970.34589 6976.4395 1536
-5416.5015 971.77576 6986.7202 1792
-5900.1128 1066.6936 7669.145 1536
-5891.8071 1073.4597 7717.7915 1536
-5832.0078 1070.8766 7699.2192 1536
-5778.6313 1069.4412 7688.8994 1536
-5728.3091 1068.5529 7682.5127 1536
-5610.0215 1054.8705 7584.1416 1536
-5212.0103 987.94507 7102.9717 1280
-5048.1084 964.66711 6935.6113 1280
-5476.1777 1055.058 7585.4897 1280
-5009.835 973.19867 6996.9502 1280
-5411.061 1059.9114 7620.3838 1280
-4941.1143 976.00336 7017.1147 1280
-5284.1841 1052.6267 7568.0098 1024
-4823.7666 969.13452 6967.73 1280
-4889.5244 990.82623 7123.686 528392
-4849.7129 991.31665 7127.2114 462346
-4913.373 1013.1519 7284.1992 593677
-4977.7612 1035.5256 7445.0581 791056
-4981.3862 1045.5457 7517.0991 1317400
-4942.9976 1046.8489 7526.4683 1712158
-4984.6826 1065.2885 7659.0425 2239528
-4937.3979 1064.8783 7656.0933 2700336
-4928.7407 1072.8688 7713.5425 2832433
-4904.1782 1077.5143 7746.9419 2306087
-4785.8599 1061.4534 7631.4702 660235
-4618.2002 1034.0385 7434.3662 1536
-4331.4019 979.16278 7039.8301 1536
-4553.8032 1039.4497 7473.271 1536
-4494.6514 1036.0221 7448.6284 1792
-4465.8525 1039.5924 7474.2979 1792
-4401.5811 1034.8939 7440.5171 1536
-4377.2573 1039.5879 7474.2651 1536
-4345.9297 1042.6975 7496.6216 1536
-4294.9531 1041.1083 7485.1958 1536
-4254.1318 1041.9733 7491.4146 1536
-4219.9023 1044.4882 7509.4961 1536
-4176.814 1044.8403 7512.0278 1536
-3942.0786 996.74298 7166.2251 1536
-3953.0557 1010.4022 7264.4302 1536
-4145.4424 1071.2411 7701.8394 1536
-4080.075 1066.0854 7664.7729 1536
-4066.3149 1074.4502 7724.9126 1792
-4036.7732 1078.7878 7756.0986 1792
-4011.8877 1084.4841 7797.0527 1792
-3924.6396 1073.2592 7716.3491 1536
-3921.3159 1084.9904 7800.6924 1792
-3949.8794 1105.9297 7951.2388 1536
-3952.3633 1119.9844 8052.2866 1536
-3930.6958 1127.4551 8105.9985 1536
-3901.7932 1133.0098 8145.9346 1536
-3871.2737 1138.2281 8183.4531 1536
-3834.9255 1141.8434 8209.4453 1536
-3826.6313 1154.012 8296.9326 1536
-3813.5891 1165.0468 8376.2686 1536
-3795.0942 1174.6847 8445.5625 1280
-3716.2693 1165.657 8380.6562 1024
-3763.3606 1196.4149 8601.7949 1280
-3780.2561 1218.2861 8759.041 512
-3817.6396 1247.4608 8968.7969 263424
-3801.4651 1259.7115 9056.875 1249541
-3740.6665 1257.314 9039.6367 1774857
-3756.4307 1280.9548 9209.6064 1840138
-3738.3704 1293.5885 9300.4385 2168076
-3693.075 1297.0353 9325.2188 2233611
-3640.9382 1298.1471 9333.2129 2102025
-3607.6238 1306.1079 9390.4482 2364939
-3554.7783 1307.1364 9397.8428 2430475
-3480.4631 1300.1771 9347.8076 2430734
-3401.2876 1291.1478 9282.8906 2496527
-3230.9482 1246.6465 8962.9414 1115392
-3370.9192 1322.3906 9507.5146 3021841
-3418.687 1363.924 9806.125 2955276
-3287.6406 1334.3199 9593.2832 3086093
-3248.7659 1341.7415 9646.6406 3282443
-3198.7415 1344.7412 9668.208 3414029
-3227.1104 1381.4078 9931.8281 3545102
-3342.1616 1457.2313 10476.972 3610893
-3366.8435 1495.7769 10754.101 3873290
-3230.6262 1462.9485 10518.076 4069381
-3173.2566 1465.2362 10534.523 6503456
-2968.1814 1398.0447 10051.44 9594436
-2932.1396 1409.3481 10132.709 9989447
-2942.1472 1443.7209 10379.837 9923396
-2940.3259 1473.6331 10594.895 9989189
-2838.686 1453.7318 10451.812 9989189
-2772.489 1451.4985 10435.755 10120517
-2743.6433 1469.1642 10562.765 10121290
-2637.1016 1445.0787 10389.599 10252619
-2579.6992 1447.413 10406.381 10252875
-2548.3701 1464.8489 10531.739 10187081
-2436.3721 1435.6261 10321.638 10186828
-2386.0015 1442.1473 10368.523 10121036
-2322.0747 1440.6031 10357.421 10186828
-2264.4912 1443.0172 10374.777 10186828
-2211.2952 1448.4399 10413.765 10186573
-2139.8909 1441.9048 10366.779 10186829
-2075.4124 1439.7881 10351.562 10318158
-2021.2482 1444.9159 10388.428 10186572
-1952.6619 1439.7319 10351.157 10121036
-1867.0166 1421.2262 10218.107 10121036
-1794.9336 1412.1497 10152.851 10054987
-1700.176 1383.9861 9950.3652 10121036
-1623.2756 1368.8575 9841.5957 9990220
-1533.3417 1341.2012 9642.7559 9858890
-1462.8232 1329.0436 9555.3477 9662537
-1308.6733 1236.8647 8892.6143 8347959
-1274.2058 1254.812 9021.6494 8020023
-1215.8456 1249.7719 8985.4121 6837297
-1125.244 1209.6113 8696.6729 918528
-1098.3446 1237.361 8896.1826 2037772
-1057.4709 1251.3717 8996.9141 1576967
-1012.8773 1262.2344 9075.0127 1640960
-938.70026 1235.3815 8881.9512 5915686
-886.07227 1235.3831 8881.9619 8806718
-856.75574 1269.9386 9130.4043 8806715
-836.70074 1323.8059 9517.6904 9003581
-790.52692 1341.1483 9642.376 9003838
-737.52979 1348.715 9696.7783 8805946
-691.47925 1371.337 9859.4219 8937532
-638.47247 1383.0653 9943.7441 8937533
-582.68341 1390.5387 9997.4756 9200705
-528.03491 1402.7338 10085.153 9069120
-473.12967 1417.2719 10189.678 9003327
-411.14337 1411.7493 10149.972 8937277
-351.81601 1415.0283 10173.547 8674617
-291.27838 1413.7894 10164.64 8937019
-231.26979 1415.1415 10174.361 9003326
-170.34241 1409.8428 10136.265 8937533
-110.01944 1406.4994 10112.228 8674361
-50.261509 1411.0214 10144.738 8608567
9.8163929 1406.1866 10109.979 8674361
69.722618 1406.1975 10110.057 8476982
129.76135 1407.6359 10120.397 8411189
190.40617 1412.6616 10156.531 8411187
252.23233 1421.9331 10223.189 8542773
313.19101 1423.6703 10235.68 8608566
376.94412 1435.4857 10320.628 8806458
443.53644 1453.3054 10448.746 8477493
497.49426 1430.4321 10284.295 8476464
565.4884 1448.505 10414.232 6501392
634.3197 1464.955 10532.502 10974019
700.27454 1472.4098 10586.1 10315318
757.26868 1461.347 10506.562 10709307
823.38739 1468.2356 10556.089 10315322
878.02686 1455.1272 10461.844 11039563
935.03302 1447.4115 10406.37 9526839
1011.0546 1468.2646 10556.298 9132854
1077.1365 1473.0944 10591.021 8936503
1166.6534 1507.6779 10839.664 4988935
1231.015 1507.8397 10840.828 10383950
1301.5739 1515.2002 10893.747 11502172
1340.9866 1487.3199 10693.298 12752751
1396.1862 1478.6753 10631.146 9068340
1528.0917 1548.5076 11133.215 9199672
1602.8159 1557.0129 11194.365 9725757
1663.4219 1551.6724 11155.969 11765594
1709.4003 1533.6166 11026.154 13804916
1762.1759 1522.7643 10948.13 8606761
1810.8243 1509.2426 10850.914 9067828
1900.6128 1529.7609 10998.433 9199672
1917.9001 1492.4987 10730.531 8803631
2015.2256 1517.9144 10913.262 2753792
2057.7424 1501.7505 10797.048 9593136
2103.9126 1489.1469 10706.433 13409114
2138.4021 1469.2555 10563.421 12883285
2265.3948 1512.2452 10872.502 13080420
2375.509 1541.9022 11085.725 10515269
2436.6572 1539.0352 11065.111 9725760
2532.3328 1557.5549 11198.263 9726021
2586.5806 1550.2988 11146.094 9397055
2620.2222 1531.361 11009.938 8673844
2638.7 1504.6962 10818.227 9989446
2692.3025 1498.8507 10776.2 9857860
2784.1128 1514.0543 10885.509 7489827
2906.4019 1544.7689 11106.336 8871484
2963.1072 1540.0372 11072.316 7490602
3094.6018 1573.5393 11313.184 10319444
3119.5696 1552.6023 11162.655 10056012
3347.7834 1631.5898 11730.547 10056011
3317.0657 1583.7369 11386.501 10516045
3381.2686 1582.2081 11375.511 11042133
3452.0942 1583.7778 11386.795 10252361
3531.6687 1589.224 11425.952 11371612
3815.689 1684.734 12112.635 12555628
3745.6619 1623.2815 11670.813 12489575
4095.6309 1742.7739 12529.921 11568216
3995.0898 1669.7234 12004.713 10317639
4007.304 1645.5294 11830.768 9067580
3937.8037 1589.1897 11425.705 2885888
3859.8062 1531.3833 11010.098 3412481
4224.9951 1648.4106 11851.482 9729628
4164.4419 1598.2209 11490.637 9664348
4369.5967 1649.9784 11862.755 10320221
4477.7891 1664.0635 11964.021 10253657
4719.9297 1726.7122 12414.442 9989971
4744.4097 1709.0325 12287.331 9200195
4952.9468 1757.1862 12633.539 5582611
5219.4043 1824.1484 13114.975 10123098
4939.4243 1700.9717 12229.378 10453095
5019.6226 1703.5964 12248.249 8545880
5043.4922 1687.302 12131.097 7166796
5257.6475 1734.2308 12468.498 13156530
5650.0327 1837.8333 13213.363 14013643
6097.5947 1956.3063 14065.142 14145490
6313.9878 1998.4182 14367.911 13816522
5923.79 1849.9734 13300.646 11445147
5956.8457 1835.8716 13199.26 8615782
6121.2319 1862.0863 13387.734 6181434
6393.5903 1920.0553 13804.511 4735260
6598.3716 1956.5221 14066.693 1973763
6500.918 1903.5793 13686.054 5397282
6438.8145 1862.1648 13388.299 5267228
6376.6211 1821.7327 13097.606 3821070
6372.7437 1798.733 12932.247 3756303
6367.7173 1775.9595 12768.513 4151575
6154.6963 1696.392 12196.451 4085782
6638.0312 1808.3774 13001.586 3954197
6670.0498 1796.2531 12914.417 3888660
6640.8525 1768.1053 12712.045 3297293
6716.8457 1768.2815 12713.312 3165709
6791.1733 1768.0203 12711.433 2968331
6891.4248 1774.4397 12757.586 2441988
6920.2637 1762.5316 12671.972 2836744
7006.5918 1765.3641 12692.336 3362832
7117.5923 1774.2867 12756.486 3494671
7353.4521 1813.8198 13040.716 3428622
7370.5996 1799.1438 12935.199 3428620
7935.7949 1917.1698 13783.765 3625486
7399.5605 1769.4132 12721.447 5204514
7767.1729 1838.5883 13218.791 5401892
7379.9683 1729.4912 12434.423 5466915
7447.1934 1727.9939 12423.657 5466401
7297.1011 1676.5944 12054.113 5663779
7114.123 1618.7087 11637.937 5137691
7046.7358 1587.983 11417.029 5269021
7082.5327 1580.873 11365.911 5334815
7149.8799 1580.873 11365.911 5400095
7164.5327 1569.3308 11282.926 5334302
7469.7666 1621.0625 11654.859 4939546
7492.4385 1611.0878 11583.145 4873753
7628.521 1625.4595 11686.472 4742167
7664.5879 1618.4531 11636.099 5071130
7669.7085 1605.0953 11540.062 4742165
8020.9971 1663.7786 11961.972 4742164
8210.8613 1688.2432 12137.864 5267738
8461.624 1724.6956 12399.943 5334041
8812.4766 1780.7456 12802.923 5530650
8992.9385 1801.7017 12953.59 5596956
9033.7793 1794.5673 12902.296 5596957
9172.6465 1806.8622 12990.692 5662493
9587.1504 1872.7965 13464.736 5794335
9480.5996 1836.6975 13205.197 5663006
9434.7588 1812.8546 13033.775 5860127
9532.6348 1816.7894 13062.065 5663004
9815.5947 1855.6511 13341.468 5794589
9708.0176 1820.6501 13089.823 5531677
10479.999 1949.8501 14018.724 4742931
11027.004 2035.4889 14634.437 3953419
0 0 0 0
0 0 0 0
0 0 0 0
0 0 0 0
0 0 0 0
0 0 0 0
0 0 0 0
0 0 0 0
0 0 0 0
0 0 0 0
0 0 0 0
0 0 0 0
0 0 0 0
0 0 0 0
0 0 0 0
0 0 0 0
0 0 0 0
0 0 0 0
0 0 0 0
0 0 0 0
0 0 0 0
0 0 0 0
0 0 0 0
13916.883 2161.0703 15537.322 1453568
15868.601 2447.947 17599.863 1519360
15591.715 2389.5303 17179.867 1913602
16310.056 2483.4062 17854.803 2176774
17154.434 2595.1396 18658.125 2110980
17886.117 2688.5029 19329.373 2242311
0 0 0 0
0 0 0 0
0 0 0 0
18429.445 2700.988 19419.137 2111240
0 0 0 0
0 0 0 0
0 0 0 0
0 0 0 0
0 0 0 0
-5215.335 829.69238 5721.4492 1536
-5176.3462 828.87793 5715.8325 1536
-5143.9707 829.11859 5717.4917 1536
-5111.8037 829.39624 5719.4067 1536
-5078.8091 829.54242 5720.415 1536
-5048.4595 830.12561 5724.436 1536
-5016.4053 830.43439 5726.5654 1536
-4988.439 831.42871 5733.4224 1536
-4959.814 832.32617 5739.6108 1536
-4935.0303 833.88501 5750.3608 1536
-4911.0786 835.60718 5762.2363 1536
-4883.1714 836.67566 5769.605 1536
-5676.5088 979.46228 6754.2422 1536
-5292.8188 919.74243 6342.4219 1536
-5260.9009 920.73364 6349.2573 1536
-5270.1499 928.99573 6406.2319 1792
-5489.0024 974.59375 6720.6694 1792
-5444.2852 973.71838 6714.6328 1792
-5385.1362 970.22998 6690.5776 1792
-5386.9468 977.75421 6742.4639 1792
-5259.8247 961.81427 6632.5435 1536
-5288.4648 974.33136 6718.8599 1536
-5228.7773 970.64178 6693.417 1792
-5720.8271 1070.1001 7379.2686 1792
-5150.8247 970.90002 6695.1978 1792
-5082.3574 965.43011 6657.478 1536
-5544.7778 1061.5093 7320.0278 1536
-5623.1426 1084.9991 7482.0107 1536
-5494.5205 1068.6063 7368.9673 1536
-5013.0791 982.78278 6777.1396 1536
-5383.8916 1064.0015 7337.2134 1536
-5069.8223 1010.0896 6965.4438 1536
-5030.6123 1010.504 6968.3018 1280
-5311.1802 1075.6909 7417.8223 1280
-4878.019 996.20563 6869.7021 1280
-4884.5361 1005.9307 6936.7651 1024
-4924.416 1022.7501 7052.7495 1024
-4866.9927 1019.4755 7030.168 67841
-4694.5962 991.85345 6839.6899 594442
-4738.7334 1009.8967 6964.1143 857361
-4759.7876 1023.2947 7056.5049 988435
-4769.1543 1034.3951 7133.0518 1120790
-4902.9624 1072.9258 7398.7544 1450269
-5000.5576 1104.1558 7614.1118 1778979
-4962.689 1105.7708 7625.249 1780262
-4938.5898 1110.5116 7657.9414 2306606
-4869.8857 1105.2175 7621.4336 2372397
-4823.0967 1104.8442 7618.8599 2043685
-4671.2246 1080.1649 7448.6738 331527
-4815.1421 1124.0649 7751.4028 1536
-4384.998 1033.5088 7126.9399 1792
-4346.5942 1034.4194 7133.2192 1536
-4304.9644 1034.5725 7134.2749 1536
-4291.7275 1041.6199 7182.8726 1536
-4264.8979 1045.4763 7209.4658 1536
-4238.9272 1049.6234 7238.064 1536
-4212.0571 1053.6302 7265.6948 1536
-4199.1714 1061.2543 7318.2686 1536
-4141.7329 1057.6599 7293.4829 1536
-4111.6753 1061.0559 7316.9014 1536
-4084.3127 1065.2271 7345.6646 1536
-3868.0559 1019.6919 7031.6602 1536
-4009.3733 1068.455 7367.9233 1536
-3997.9214 1077.132 7427.7593 1536
-3945.7908 1074.9203 7412.5083 1536
-3793.8064 1045.1505 7207.2192 1536
-3813.8933 1062.646 7327.8657 1536
-3851.344 1085.4382 7485.0381 1536
-3838.311 1094.3678 7546.6152 1536
-3837.7573 1107.1079 7634.4692 1536
-3817.708 1114.4607 7685.1733 1536
-3797.8647 1122.0519 7737.5215 1536
-3794.1177 1134.6423 7824.3428 1536
-3760.7065 1138.5634 7851.3818 1536
-3757.283 1151.7751 7942.4888 1280
-3765.0325 1168.7905 8059.8247 1024
-3736.4043 1174.8052 8101.3013 1536
-3723.2612 1185.9088 8177.8701 768
-3746.1782 1208.9421 8336.7051 527104
-3777.0613 1235.1963 8517.75 1184004
-3710.731 1229.9397 8481.501 1577735
-3706.4749 1245.396 8588.0859 1839624
-3648.7305 1243.0601 8571.9775 1971210
-3675.6807 1269.9196 8757.1973 2036233
-3696.7917 1295.5021 8933.6104 2036490
-3589.0339 1276.0109 8799.2021 2036490
-3607.1411 1301.3538 8973.9629 2101769
-3554.9839 1301.726 8976.5303 2036233
-3500.4443 1301.2242 8973.0703 2233355
-3452.1848 1303.0775 8985.8496 2298376
-3413.0535 1308.4882 9023.1611 2495498
-3311.8613 1289.8998 8894.9785 2364169
-3277.6626 1297.2246 8945.4893 2298635
-3197.5051 1286.3019 8870.168 1509378
-3168.7402 1296.0341 8937.2793 2100740
-3221.7148 1340.097 9241.1318 2889484
-3148.4888 1332.282 9187.2402 3020556
-3088.7268 1329.9896 9171.4326 3282443
-3000.3794 1315.0858 9068.6582 3414285
-2965.3958 1323.4548 9126.3691 3545358
-2904.1636 1320.2024 9103.9404 3479822
-2883.0903 1335.4281 9208.9355 3479565
-2875.4141 1357.5664 9361.5977 3610892
-2870.9517 1382.1229 9530.9365 3938825
-2810.9043 1380.3683 9518.8369 4398344
-2837.5618 1421.9927 9805.873 7621679
-2700.7217 1381.7104 9528.0928 9726534
-2700.4602 1411.0747 9730.584 9923398
-2630.1738 1404.3319 9684.0869 9989190
-2558.876 1396.7361 9631.707 10186312
-2517.563 1405.5341 9692.377 10121033
-2458.5532 1404.6321 9686.1572 10120777
-2416.2227 1413.4442 9746.9248 10186570
-2349.916 1408.319 9711.5811 10121032
-2282.374 1402.1772 9669.2285 10120779
-2225.199 1402.2523 9669.7461 10186571
-2173.1746 1405.6626 9693.2637 9989192
-2113.6331 1404.264 9683.6191 10054985
-2071.8909 1414.9431 9757.2607 10186572
-2018.1483 1417.8047 9776.9932 10186828
-1974.1855 1427.9089 9846.6709 10186572
-1905.8434 1420.4583 9795.292 10186829
-1840.1127 1414.547 9754.5283 10120779
-1775.5245 1409.1592 9717.375 9924169
-1696.5499 1391.6095 9596.3545 9792327
-1638.2012 1390.3478 9587.6543 9792841
-1572.1809 1382.2507 9531.8184 9530182
-1506.0116 1373.4144 9470.8848 7096102
-1413.266 1338.7197 9231.6338 6241566
-1326.0658 1306.6953 9010.7979 8413239
-1249.2836 1282.6804 8845.1943 8085559
-1200.6425 1286.7209 8873.0576 7823929
-1123.9213 1259.6602 8686.4502 3877393
-1093.5289 1284.418 8857.1768 2694931
-1075.3018 1326.6812 9148.6182 985089
-1031.1461 1339.7435 9238.6943 327680
-974.82245 1337.5747 9223.7383 6178090
-871.6322 1267.022 8737.2158 9858893
-850.11041 1313.7703 9059.5859 9924426
-816.10266 1346.2239 9283.3818 10121549
-766.15125 1355.1675 9345.0557 10055242
-715.47314 1364.1193 9406.7861 9989193
-675.49957 1396.717 9631.5762 9989193
-617.27924 1394.1212 9613.6758 10252621
-566.42834 1409.3335 9718.5771 10252365
-508.40427 1408.1215 9710.2188 10252623
-451.05966 1408.722 9714.3613 10318159
-399.46359 1430.0781 9861.6299 10120780
-338.46976 1419.3444 9787.6104 10251853
-280.39987 1418.968 9785.0156 10120523
-224.82245 1434.2966 9890.7197 10317903
-164.85196 1422.5265 9809.5547 10252110
-106.53356 1419.9561 9791.8291 10186060
-48.926765 1432.0656 9875.335 10186317
9.7127028 1450.6061 10003.188 10383696
68.580795 1442.0939 9944.4883 10252109
127.22546 1438.9224 9922.6182 10317903
185.74681 1436.8016 9907.9941 10252365
244.78873 1438.7594 9921.4941 10318157
303.314 1437.5103 9912.8799 10383950
363.17236 1441.9594 9943.5605 10317901
425.13309 1452.3485 10015.203 10383691
481.9718 1444.838 9963.4111 10646347
559.77716 1494.9609 10309.053 10053438
612.66339 1475.2186 10172.912 10316353
679.34277 1489.2505 10269.674 10184507
731.54761 1471.8527 10149.701 9986615
795.01465 1478.036 10192.341 9197100
836.14832 1444.7572 9962.8545 9527093
904.03174 1459.0397 10061.345 10317381
948.33221 1435.8485 9901.4209 10252104
1028.4291 1466.4005 10112.104 10317896
1109.6263 1495.0709 10309.812 7949095
1202.3274 1535.4403 10588.193 10449224
1234.4612 1498.2937 10332.035 11961949
1311.5162 1516.6034 10458.296 11895900
1377.8214 1521.3906 10491.309 12488293
1461.9796 1544.627 10651.543 10317125
1552.7272 1572.6138 10844.536 10645835
1613.5068 1569.2307 10821.207 10580299
1679.762 1571.2278 10834.979 10514249
1754.7186 1580.9175 10901.798 10580298
1772.5209 1540.2543 10621.39 10251077
1790.1985 1502.2748 10359.488 10777419
1848.0358 1499.3972 10339.645 10316869
2047.861 1608.209 11089.996 5120780
2134.9312 1624.4597 11202.06 6106633
1948.3768 1437.8087 9914.9385 11304275
2120.4612 1518.996 10474.795 11699283
2180.7205 1517.7375 10466.117 10317636
2287.6741 1548.1484 10675.827 10383431
2355.8589 1551.3926 10698.198 9988418
2484.1379 1593.0033 10985.14 10317385
2477.1326 1547.9502 10674.46 6698771
2458.6582 1498.1522 10331.06 7751713
2580.4968 1534.1947 10579.604 7883041
2661.9658 1545.0956 10654.774 11107153
2752.3843 1560.5656 10761.454 10515020
2810.3315 1557.3413 10739.219 10383435
2877.676 1559.3517 10753.083 10054727
2968.1909 1573.5587 10851.053 9857345
3051.6589 1583.5067 10919.652 10515531
3036.0964 1542.7216 10638.403 11107670
3194.3677 1590.1284 10965.314 10844498
3172.4026 1547.7136 10672.828 10975572
3228.854 1544.4661 10650.434 7421981
3304.5088 1550.3524 10691.025 6303507
3376.6404 1554.3958 10718.907 3148292
3491.1736 1577.4482 10877.874 8146214
3616.2119 1604.3254 11063.216 10844235
3663.8794 1596.5315 11009.47 11633498
3835.4937 1642.0748 11323.531 9396536
3766.6921 1584.8938 10929.218 8343848
3701.4492 1531.1177 10558.385 10844497
3764.3518 1531.2559 10559.338 5714960
3942.177 1577.3734 10877.358 11702380
4141.0684 1630.3005 11242.337 9728591
4129.5449 1600.025 11033.562 10319187
4176.4199 1592.9675 10984.894 10318159
4211.6577 1581.7561 10907.581 9988937
4772.0708 1765.1406 12172.176 7686698
4376.1895 1594.6072 10996.2 7686445
4446.3696 1596.4108 11008.638 11568489
4477.0034 1584.1689 10924.219 2098689
4415.3286 1540.0785 10620.177 7096631
4510.2593 1551.084 10696.069 7427136
4933.3511 1673.0757 11537.308 8743765
4928.6323 1648.6296 11368.731 7364169
5120.4673 1689.7036 11651.973 9667184
5477.8452 1783.5854 12299.37 12629153
5491.0967 1764.4259 12167.247 12827554
5390.5972 1709.6854 11789.764 13683636
5465.061 1711.1273 11799.707 13354929
5761.6499 1781.2018 12282.933 13816520
6983.4946 2132.0012 14701.998 14605780
6561.7993 1978.5796 13644.022 13157817
6612.1577 1969.4985 13581.4 5921097
6834.4775 2011.2404 13869.247 1842450
7048.8579 2049.6814 14134.332 592385
6742.5576 1937.5931 13361.386 593152
6598.6611 1874.2347 12924.475 2436358
6438.271 1807.6987 12465.651 4279315
6466.7974 1795.1135 12378.865 4542997
6526.6328 1791.4043 12353.286 4806683
6601.835 1791.9481 12357.037 4807453
6761.1274 1815.0546 12516.376 4479256
6861.229 1821.9419 12563.87 4216598
6901.353 1812.9259 12501.696 3954194
7020.3921 1824.6115 12582.279 3888658
7109.4604 1828.3438 12608.017 3560208
7136.8101 1816.2915 12524.905 2968071
7249.1978 1825.9062 12591.207 3231243
7277.7617 1814.4269 12512.048 2968326
7145.5234 1763.4935 12160.818 3363338
6704.7163 1638.1837 11296.698 3494924
6625.9736 1602.9413 11053.671 4284438
6598.8159 1580.7457 10900.613 4218130
6686.2075 1586.1548 10937.913 4612375
6749.5532 1585.8104 10935.538 4677398
6787.4409 1579.548 10892.354 4940314
6814.4561 1570.8973 10832.7 5005850
6878.293 1570.8169 10832.146 5136923
7041.9775 1593.33 10987.393 5268509
7112.9712 1594.6501 10996.497 5137179
7179.9707 1595.0592 10999.317 4807958
7267.7251 1600.03 11033.596 4939547
7551.2168 1647.6208 11361.775 4742166
7478.147 1617.2589 11152.403 4347408
7700.5425 1650.7676 11383.476 4347406
7925.9814 1684.3413 11614.995 4544785
8109.7559 1708.5592 11781.998 4873494
7888.1011 1647.677 11362.162 4808213
7935.689 1643.589 11333.973 5005335
8076.5073 1658.7172 11438.293 5268508
8164.9033 1662.9165 11467.253 5663265
8173.7583 1650.9806 11384.943 5531423
8479.4209 1698.7001 11714.011 5596959
8572.1113 1703.3262 11745.911 5728545
8556.7725 1686.5842 11630.462 5531166
8824.6543 1725.4884 11898.74 5794082
8910.709 1728.5046 11919.539 6254889
9183.6592 1767.4426 12188.051 6255146
9338.8916 1783.2942 12297.361 6518062
9605.5205 1820.0074 12550.53 5991975
9897.5615 1860.9344 12832.757 5794596
10039.193 1873.1731 12917.153 5465373
10417.104 1928.9792 13301.985 5531166
10819.359 1988.4215 13711.892 5005079
10199.135 1860.463 12829.507 4281356
11312.785 2048.3408 14125.087 4149258
0 0 0 0
0 0 0 0
0 0 0 0
0 0 0 0
0 0 0 0
0 0 0 0
0 0 0 0
0 0 0 0
0 0 0 0
0 0 0 0
0 0 0 0
0 0 0 0
0 0 0 0
0 0 0 0
13930.078 2270.2903 15655.622 2572037
12816.121 2074.9226 14308.392 2703881
13981.697 2248.7524 15507.1 2045441
13978.888 2233.6216 15402.759 1913857
15548.977 2468.3826 17021.641 1913602
16137.065 2545.2312 17551.578 1847809
17001.336 2664.3774 18373.195 1584640
17274.203 2689.9155 18549.301 1518848
0 0 0 0
16797.914 2582.8796 17811.195 1321472
0 0 0 0
0 0 0 0
0 0 0 0
0 0 0 0
0 0 0 0
0 0 0 0
-5161.2998 854.64679 5662.1704 1536
-5083.2056 847.2226 5612.9844 1536
-5051.3428 847.45685 5614.5361 1536
-5022.1548 848.14606 5619.1021 1536
-4989.311 848.2229 5619.6108 1536
-4959.7705 848.86609 5623.8721 1536
-4928.5566 849.22955 5626.2803 1536
-4897.6782 849.65619 5629.1069 1536
-4867.1021 850.14154 5632.3223 1536
-4837.7949 850.85675 5637.061 1536
-4812.0557 852.21387 5646.0518 1536
-4793.5376 854.87769 5663.7002 1536
-5496.1519 987.09229 6539.6431 1536
-5169.479 935.01501 6194.623 1536
-5137.1221 935.80731 6199.8716 1536
-5419.1152 994.28711 6587.3096 1536
-5365.0205 991.50348 6568.8677 1536
-5319.8184 990.33447 6561.123 1536
-5284.3672 990.97711 6565.3804 1536
-5243.4473 990.59595 6562.855 1536
-4942.6904 940.75372 6232.6426 1536
-5135.4907 984.80823 6524.5103 1536
-5609.5601 1083.8777 7180.8613 1536
-5600.7344 1090.4436 7224.3618 1536
-4949.4785 971.06842 6433.4819 1536
-4912.3677 971.26801 6434.8047 1536
-4913.5132 979.09412 6486.6533 1536
-4894.7363 983.04236 6512.8115 1536
-4941.5601 1000.3331 6627.3652 1536
-4869.9839 993.74084 6583.6904 1536
-4851.583 997.98041 6611.7783 1280
-4820.4526 999.64923 6622.8345 1280
-4755.4336 994.26001 6587.1299 1280
-4740.127 999.26129 6620.2646 1280
-4734.5439 1006.4131 6667.6465 1280
-4819.9609 1033.1918 6845.0591 1024
-4965.8315 1073.4935 7112.0649 1024
-4714.6162 1027.91 6810.0669 768
-4642.6602 1020.9601 6764.0225 791821
-4587.7979 1017.681 6742.2974 528395
-4688.1401 1049.0746 6950.2852 659471
-4652.0352 1050.2212 6957.8813 725519
-4722.5444 1075.672 7126.4971 989205
-4924.7515 1131.85 7498.6855 1252891
-4863.208 1127.8817 7472.395 924182
-4893.6401 1145.3676 7588.2417 1056023
-4795.8452 1132.8876 7505.5591 397577
-4498.4609 1072.585 7106.0454 1536
-4478.062 1077.8096 7140.6597 1536
-4311.4722 1047.6122 6940.5967 1792
-4314.4883 1058.4412 7012.3403 1536
-4274.7754 1058.8965 7015.3569 1536
-4191.7637 1048.53 6946.6772 1536
-4223.9966 1067.0709 7069.5142 1536
-4179.832 1066.4905 7065.6689 1536
-4172.3462 1075.3517 7124.3755 1536
-4115.6309 1071.5762 7099.3623 1536
-3884.2249 1021.7693 6769.3833 1536
-4079.1958 1084.2544 7183.3574 1536
-4051.2161 1088.1719 7209.311 1536
-4011.6357 1089.0237 7214.9546 1792
-3979.0564 1091.8148 7233.4458 1792
-3960.6621 1098.6014 7278.4082 1792
-3909.8684 1096.4515 7264.165 1536
-3735.7947 1059.2972 7018.0122 1536
-3701.6357 1061.4266 7032.1196 1536
-3703.7573 1074.1261 7116.2554 1536
-3708.3074 1087.8303 7207.0483 1536
-3729.1619 1106.6926 7332.0142 1536
-3728.98 1119.6831 7418.0781 1536
-3692.9302 1122.0852 7433.9917 1280
-3786.5701 1164.4266 7714.5107 1280
-3681.0864 1145.8212 7591.2471 1280
-3702.4897 1166.7406 7729.8408 1024
-3722.8594 1187.854 7869.7212 66048
-3676.2361 1187.8567 7869.7383 329216
-3624.8455 1186.2991 7859.4194 788739
-3566.9932 1182.5588 7834.6392 1708809
-3570.0366 1199.1747 7944.7217 1840137
-3643.8298 1240.3169 8217.2959 1970953
-3650.4736 1259.4072 8343.7725 1905161
-3637.9207 1272.3081 8429.2422 2102026
-3595.4937 1274.9745 8446.9082 2102026
-3581.8816 1288.0784 8533.7236 2167818
-3563.7996 1299.927 8612.2227 2167818
-3511.8647 1299.5925 8610.0068 2167562
-3478.8262 1306.344 8654.7363 2299148
-3424.8484 1305.317 8647.9316 2495500
-3401.8408 1316.2415 8720.3086 2429964
-3322.3237 1305.3014 8647.8281 2429964
-3268.3718 1304.2198 8640.6631 2429964
-3206.5522 1299.9146 8612.1396 2429965
-3165.9666 1304.2172 8640.6455 2495501
-3134.5378 1312.4956 8695.4912 2495244
-3098.8921 1319.2552 8740.2754 2692619
-2981.0859 1290.6731 8550.9141 2823693
-2911.5095 1282.3451 8495.7393 2889227
-2855.6592 1279.8756 8479.3789 3020299
-2820.8901 1286.9354 8526.1514 3019784
-2770.3142 1286.9098 8525.9814 3151114
-2740.4983 1296.7062 8590.8838 3216650
-2693.3711 1298.5273 8602.9492 3282443
-2657.2729 1305.8386 8651.3877 3544845
-2622.7307 1314.2172 8706.8965 3479309
-2596.6445 1327.254 8793.2686 3741708
-2549.7732 1329.9834 8811.3506 3938054
-2166.8037 1153.8503 7644.4409 5910293
-2432.0215 1322.7333 8763.3174 9134140
-2460.7666 1367.5662 9060.3428 9594177
-2384.4878 1354.7303 8975.3027 9988934
-2330.427 1354.2198 8971.9209 10054727
-2338.6201 1390.7061 9213.6475 9923399
-2274.1589 1384.6985 9173.8467 9923142
-2226.8843 1389.1174 9203.123 9989448
-2171.6711 1388.682 9200.2383 10120779
-2128.8857 1396.3757 9251.21 9923656
-2059.4097 1386.5065 9185.8252 9989450
-2001.5392 1384.1272 9170.0615 9989449
-1941.545 1380.1053 9143.417 9989450
-1886.7893 1379.6832 9140.6201 10120522
-1828.0626 1376.2466 9117.8516 10054986
-1772.1539 1374.7866 9108.1797 10120779
-1706.1146 1365.1294 9044.1982 9857864
-1644.0066 1358.0931 8997.582 9923400
-1593.8893 1360.8228 9015.666 9792071
-1542.8818 1362.9551 9029.793 9792070
-1490.5897 1364.0652 9037.1475 9661255
-1468.9611 1394.3643 9237.8838 9793097
-1397.1125 1377.4943 9126.1172 9333571
-1303.3043 1336.7426 8856.1309 7689002
-1253.8208 1339.9407 8877.3193 5320459
-1187.3672 1324.4891 8774.9502 4992009
-1127.3507 1315.1316 8712.9551 5649678
-1087.2345 1329.205 8806.1934 5452812
-1077.0974 1383.1964 9163.8955 5124107
-1032.892 1396.8475 9254.3369 5322514
-972.31055 1388.6416 9199.9707 7296047
-878.14868 1328.6531 8802.5371 9333576
-840.48541 1351.9696 8957.0127 9990733
-791.54034 1359.0586 9003.9785 10056012
-743.51794 1368.8712 9068.9883 10055243
-692.8277 1374.9183 9109.0518 10252108
-640.80627 1379.1222 9136.9033 10317901
-592.89355 1393.7607 9233.8857 10186572
-539.25488 1396.5468 9252.3438 10317901
-483.32751 1393.3656 9231.2676 10317645
-439.91367 1430.0507 9474.3125 10317902
-378.76395 1411.3798 9350.6143 10318158
-324.59348 1416.7732 9386.3467 10383950
-265.99698 1401.084 9282.4033 10252108
-211.27939 1402.9723 9294.9131 10383950
-156.68881 1407.333 9323.8047 10449487
-101.43975 1407.3085 9323.6416 10383950
-47.205437 1438.1399 9527.9043 10318159
9.1235895 1418.299 9396.4551 10252110
64.600197 1413.8961 9367.2861 10317902
120.61529 1419.9017 9407.0742 10318414
177.7881 1431.4324 9483.4658 10318157
235.43848 1440.3459 9542.5205 10383692
295.05728 1455.5175 9643.0342 10449485
352.14822 1455.3196 9641.7227 10383949
412.3703 1466.3107 9714.54 10318155
472.68689 1474.9038 9771.4717 10383689
529.30914 1471.3523 9747.9424 10514760
584.57458 1465.099 9706.5137 10317124
649.58301 1482.1975 9819.793 10514246
714.5611 1496.4209 9914.0254 11369557
755.70935 1462.3702 9688.4346 11567193
810.18231 1457.0919 9653.4648 11106385
854.99377 1436.2797 9515.5801 10843213
930.35785 1466.1918 9713.7529 10449225
996.28802 1478.6173 9796.0742 11172437
1062.7429 1490.4105 9874.2061 10383435
1134.2809 1507.7295 9988.9473 7225368
1210.1737 1528.8326 10128.758 10909007
1236.5366 1488.3256 9860.3926 11369813
1305.8694 1500.8601 9943.4365 11698267
1373.9009 1510.8813 10009.828 10646090
1441.9138 1520.0535 10070.595 10317127
1468.418 1486.4774 9848.1484 10317127
1535.3961 1494.8735 9903.7744 10251333
1640.1158 1538.0444 10189.788 10382918
1724.1578 1559.4474 10331.586 9659709
1782.5946 1557.0175 10315.487 11897187
1781.5131 1504.4854 9967.4541 11634015
1847.7866 1510.3809 10006.513 10383433
1928.3323 1527.213 10118.028 10054466
1979.1923 1520.2283 10071.753 10185537
2033.0488 1515.8868 10042.99 9988672
2138.886 1549.4481 10265.339 10120771
2214.658 1559.9755 10335.085 13214071
2211.9993 1516.1775 10044.916 13345658
2235.8823 1492.3907 9887.3252 12489836
2272.2715 1477.953 9791.6729 10252359
2318.6045 1470.5409 9742.5664 9791037
2371.7849 1467.7264 9723.9199 10842697
2449.3574 1479.782 9803.79 9855028
2524.8372 1490.0437 9871.7754 10381628
2543.7554 1467.2166 9720.542 11697489
2616.0615 1475.5122 9775.502 11435091
2686.197 1482.2507 9820.1455 11238482
2764.1731 1492.9381 9890.9512 10778446
2878.3657 1522.3362 10085.719 10581067
2928.0803 1517.1305 10051.229 10317897
2937.8074 1491.8263 9883.5859 9857348
3009.7112 1498.4679 9927.5869 9923398
3053.0081 1490.885 9877.3496 9988678
3150.1831 1509.403 10000.033 9725504
3202.5984 1506.1868 9978.7256 11830867
3159.72 1459.0825 9666.6533 12620642
3231.8677 1465.8264 9711.332 12818024
3258.6853 1452.1344 9620.6201 13738869
3305.4827 1447.6633 9590.999 12883562
3323.1277 1430.7919 9479.2227 12028257
3727.7563 1578.3298 10456.685 4528901
3726.5166 1552.0084 10282.302 4857863
4026.751 1650.0714 10931.984 11634533
3916.179 1579.3551 10463.478 11568736
3984.449 1581.8441 10479.968 10516048
3767.6125 1472.8053 9757.5684 10054983
3898.6484 1500.9946 9944.3271 10120777
3982.1035 1510.2987 10005.968 8345396
3945.916 1474.6182 9769.5791 10649440
4060.3276 1495.4358 9907.499 10978407
4142.2954 1503.8811 9963.4502 9267790
4371.5635 1564.8158 10367.152 9003843
4234.7051 1494.8215 9903.4297 10582358
4366.3179 1520.2139 10071.657 11701352
4361.2544 1497.9766 9924.332 10714968
4514.7832 1530.0785 10137.013 10650200
4574.4043 1529.9298 10136.027 11703657
4983.873 1645.2766 10900.219 13810314
5112.312 1666.0856 11038.08 13350280
5399.1157 1737.3271 11510.067 12032139
5807.5352 1845.4366 12226.311 12953756
6196.7607 1944.8583 12884.994 12494488
6375.6846 1976.6599 13095.685 12496289
6220.7471 1905.4338 12623.801 12761260
6352.4756 1922.6636 12737.95 13816774
6763.7524 2023.1045 13403.388 14014924
6849.002 2024.8276 13414.804 13027516
6859.5762 2004.6877 13281.374 10659475
6905.0166 1995.0789 13217.713 8159089
6885.0625 1967.0028 13031.705 4276275
6850.5996 1935.4504 12822.665 263424
6748.3931 1885.6609 12492.803 1317123
6813.251 1883.1272 12476.017 2502153
6865.9155 1877.3138 12437.502 4147731
6958.6611 1882.4669 12471.642 3950858
7040.6274 1884.6262 12485.947 5004316
7182.0029 1902.4779 12604.218 4150288
