# .PCD v0.7 - Point Cloud Data file format
VERSION 0.7
FIELDS x y z rgb
SIZE 4 4 4 4
TYPE F F F U
COUNT 1 1 1 1
WIDTH 1298
HEIGHT 1
VIEWPOINT 0 0 0 1 0 0 0
POINTS 1298
DATA ascii
-1239.1715 968.59503 2137.5405 1377794
-1224.2502 966.81378 2133.6096 1509379
-1215.1772 969.66199 2139.8953 1575172
-1203.6757 970.61206 2141.9919 1377793
-1192.2799 971.66876 2144.3237 1575172
-1180.8713 972.73737 2146.6821 1509379
-1170.0994 974.3595 2150.262 1575172
-1158.8102 975.58191 2152.9595 1640965
-1146.2043 975.71063 2153.2437 1509379
-1134.2676 976.41833 2154.8054 1904137
-1127.7499 981.86017 2166.8147 1575172
-1110.3718 977.86298 2157.9937 1706758
-1100.928 980.84143 2164.5667 1377794
-1093.0253 985.27936 2174.3604 1575172
-1080.889 985.96143 2175.8657 1640965
-1066.8232 984.8786 2173.4758 1904137
-1059.4019 989.97833 2184.7302 1904137
-1043.5951 987.27136 2178.7563 1838344
-1034.1852 990.62408 2186.1553 2166282
-1020.274 989.6955 2184.106 1903621
-1006.0587 988.44409 2181.3445 2035207
-993.49005 988.79919 2182.1279 2166536
-981.3476 989.59338 2183.8806 2166280
-972.37738 993.65033 2192.8337 2166280
-961.10229 995.42999 2196.7612 2034694
-945.01758 992.2088 2189.6526 1968901
-938.16168 998.72235 2204.0271 2232073
-926.53748 1000.2722 2207.4473 2166279
-914.73584 1001.6721 2210.5366 1968900
-903.53284 1003.7776 2215.1833 2231301
-892.11511 1005.7033 2219.4329 3020300
-884.69604 1012.2618 2233.9065 4400663
-875.25153 1016.6667 2243.6274 5912354
-851.61078 1004.4633 2216.6965 7029545
-828.91492 993.00952 2191.4197 7819570
-811.16266 987.20776 2178.616 8871484
-801.53223 991.26257 2187.5645 8345138
-791.78217 995.30035 2196.4751 9002552
-778.10382 994.45258 2194.6042 8936758
-772.10657 1003.5596 2214.7021 9067830
-759.25122 1003.9136 2215.4832 9067830
-747.99805 1006.4357 2221.0491 9133624
-734.50684 1005.9827 2220.0496 9002294
-721.05011 1005.5616 2219.1201 8475695
-708.43048 1006.3137 2220.78 8738867
-697.26324 1009.1966 2227.1421 8936501
-681.29681 1005.1106 2218.1248 9067830
-669.3924 1006.9741 2222.2373 9133879
-655.27063 1005.51 2219.0063 9264696
-644.10034 1008.6078 2225.8425 9199419
-628.00006 1003.9537 2215.5718 9265468
-616.01532 1005.8206 2219.6917 8936503
-603.54816 1006.9641 2222.2153 9133882
-590.19476 1006.647 2221.5156 9396797
-577.08636 1006.7429 2221.7273 9462847
-563.27203 1005.5831 2219.1677 9331260
-550.09192 1005.527 2219.0439 9396797
-535.52301 1002.8676 2213.1748 9397053
-525.26727 1008.3544 2225.2834 9397053
-510.52289 1005.2851 2218.51 9594176
-500.75253 1012.107 2233.5649 9068089
-489.05093 1015.29 2240.5891 8607537
-478.06183 1020.171 2251.3608 10186569
-462.47009 1015.2284 2240.4534 9331004
-449.34024 1015.5578 2241.1802 9397054
-436.15109 1015.7691 2241.6465 9330745
-423.77698 1017.9516 2246.4629 9594173
-407.53101 1010.6733 2230.4009 9330745
-394.6315 1011.4846 2232.1912 9331001
-383.79166 1017.8143 2246.1599 9133366
-369.79446 1015.9247 2241.99 9396795
-355.52206 1013.11 2235.7786 9264952
-340.66946 1008.3603 2225.2964 9133366
-327.92944 1009.7328 2228.3254 9594174
-316.58438 1015.6959 2241.4851 9396794
-302.84259 1014.1553 2238.085 9265209
-289.93961 1015.4109 2240.856 9462587
-275.2496 1010.2285 2229.4192 8804657
-263.15659 1014.5356 2238.9243 8935987
-252.2746 1024.2166 2260.2888 8607279
-239.785 1028.0905 2268.8379 8475693
-225.71646 1025.2526 2262.5752 9659453
-209.98247 1014.0139 2237.7729 9659197
-198.58888 1023.6329 2259.0007 9395768
-185.16093 1023.3981 2258.4827 9790783
-172.43314 1027.2982 2267.0894 9659198
-159.09354 1027.9043 2268.427 8738095
-145.52226 1026.9873 2266.4033 9198646
-131.61516 1023.2729 2258.2063 9461819
-118.44141 1025.0647 2262.1604 9396025
-105.22794 1026.926 2266.2681 9330231
-91.92614 1028.344 2269.3975 9132852
-78.412888 1027.4771 2267.4841 9922112
-65.284561 1032.3384 2278.2124 9264439
-51.743675 1031.5098 2276.3838 9067060
-38.606285 1040.9768 2297.2761 9001010
-24.802664 1033.0078 2279.6897 9395768
-11.310237 1034.4391 2282.8484 9198389
2.2325966 1041.9249 2299.3684 9856575
15.779997 1036.847 2288.1624 8935217
29.654118 1048.0092 2312.7954 10120004
43.180119 1043.7009 2303.2878 8804145
56.595444 1039.4293 2293.8611 9988163
70.468163 1043.5859 2303.0339 9330233
84.218582 1044.8765 2305.8821 9132598
97.905418 1045.1279 2306.437 9133622
112.50893 1053.9047 2325.8059 8672814
126.29948 1053.9816 2325.9756 9067572
140.56627 1057.6266 2334.0195 9330492
153.72955 1053.0594 2323.9407 9462334
168.15715 1057.192 2333.0605 11041109
181.54886 1054.6787 2327.5142 9199162
195.79327 1057.1244 2332.9114 8804403
210.64687 1062.3197 2344.3765 8936246
225.03404 1064.6653 2349.553 9264955
238.62657 1063.1971 2346.313 9067575
251.69373 1059.6787 2338.5483 9264698
265.71985 1060.3542 2340.0391 8738611
283.02411 1073.3954 2368.8188 8870196
296.22806 1070.3882 2362.1826 8935990
309.45602 1067.7351 2356.3276 9265211
325.24881 1073.7787 2369.6648 9199162
338.2438 1070.4675 2362.3577 9725759
351.73642 1068.9321 2358.969 8541232
365.3295 1067.8074 2356.4871 8146989
379.66385 1068.8525 2358.7935 8738869
394.40598 1070.9305 2363.3794 9331262
409.10236 1072.7462 2367.3862 8541490
421.56482 1068.778 2358.6289 8672818
436.59485 1071.3647 2364.3376 7883047
454.26688 1080.0726 2383.5544 8803636
466.80356 1076.4135 2375.4792 7027482
479.76782 1073.9257 2369.989 9199164
493.38425 1072.9977 2367.9412 9067322
509.73624 1077.9058 2378.7725 7949097
523.36633 1076.9487 2376.6604 9198907
537.7179 1077.4875 2377.8496 8607027
548.12201 1070.2908 2361.9675 8541233
563.63104 1073.1725 2368.3269 8541233
575.19727 1068.5892 2358.2124 8409648
590.18262 1070.4247 2362.2629 8409647
609.96423 1080.6725 2384.8784 9659714
622.42804 1077.785 2378.5063 9198907
634.24426 1073.929 2369.9963 8804405
646.12115 1070.3403 2362.0769 9067321
659.56458 1069.4438 2360.0986 8541235
675.2973 1072.2196 2366.2241 8804663
690.12531 1073.4752 2368.9951 8936249
713.17908 1087.2207 2399.3291 8475698
722.8595 1080.4399 2384.3652 8936249
734.22009 1076.3823 2375.4106 8607284
744.49542 1070.9164 2363.3481 9265470
754.86572 1065.7864 2352.0269 8804920
767.22552 1063.6003 2347.2026 9068350
784.66278 1068.4055 2357.8071 8475957
792.20691 1059.8077 2338.8333 9397057
808.13562 1062.5298 2344.8401 8409906
827.19696 1069.2087 2359.5796 8080941
835.59088 1062.1064 2343.906 9133372
860.89856 1076.3838 2375.4138 8409649
874.01257 1075.2013 2372.8042 8343856
884.17249 1070.4796 2362.3843 8738614
895.21753 1066.96 2354.6169 8540978
909.57916 1067.4407 2355.6777 8870200
920.37476 1063.7852 2347.6106 9198908
936.12909 1065.8845 2352.2437 9067579
950.94769 1066.8724 2354.4238 9199164
968.16663 1070.4858 2362.3979 9330751
984.82202 1073.3821 2368.7896 8804406
994.9162 1069.1461 2359.4414 9001786
1010.4699 1070.8132 2363.1204 9264957
1028.3657 1074.8827 2372.1011 9462337
1042.3483 1074.8073 2371.9346 8869943
1049.1783 1067.4568 2355.7134 8607028
1071.3424 1075.6957 2373.8953 8343856
1086.97 1077.2429 2377.3098 8146477
1101.1586 1077.3428 2377.5303 8344112
1119.0176 1080.9858 2385.5698 8541235
1134.9996 1082.7474 2389.4575 9001786
1144.3451 1078.2124 2379.4495 8410162
1157.5656 1077.3945 2377.6445 8476471
1177.3574 1082.6392 2389.2185 8280377
1195.8262 1086.5569 2397.8643 8412226
1189.3474 1067.9808 2356.8699 1312000
1191.2073 1057.2367 2333.1592 5132347
1217.1125 1067.8354 2356.5491 10329222
1229.1292 1066.1467 2352.8223 11185562
1245.7737 1068.4652 2357.9387 13158588
1254.2303 1063.7875 2347.6157 13750725
1274.4557 1069.0847 2359.3059 13619654
1285.1472 1066.3562 2353.2844 13488068
1310.35 1075.5978 2373.6792 13488065
1413.9503 1148.3121 2534.1487 13422273
1434.6516 1152.8809 2544.2312 13553859
1454.543 1156.7106 2552.6829 13619652
1464.0444 1152.2841 2542.9141 13619652
1396.9886 1088.3066 2401.7258 13619652
1404.0227 1082.7563 2389.4773 13619652
1418.1814 1082.7563 2389.4773 13553859
1458.0033 1102.1562 2432.2898 13619651
1467.9711 1098.8293 2424.9478 13553858
1550.5294 1149.377 2536.4985 13619651
1568.6823 1151.6698 2541.5586 13619651
1493.5814 1086.1066 2396.8706 13553859
1501.4196 1081.5222 2386.7534 13553857
1528.3016 1090.6133 2406.8162 13554112
1538.9524 1088.0605 2401.1826 13554112
1555.3357 1089.5706 2404.5149 13422526
1568.0674 1088.5181 2402.1924 13488575
1582.9263 1088.9479 2403.1409 13554111
1594.1984 1086.9247 2398.676 13488062
1602.2528 1082.7629 2389.4915 13553856
1618.0204 1083.8406 2391.8699 13619650
1637.1534 1087.1344 2399.1387 13488065
1652.8824 1088.1306 2401.3372 13356482
1668.1646 1088.818 2402.8542 13422532
1698.8669 1099.4734 2426.3691 13225669
1680.4553 1078.4313 2379.9324 13817547
1716.9321 1092.6708 2411.3567 10000787
1740.7169 1098.6646 2424.584 3223596
1765.8656 1105.4139 2439.479 6710367
1815.9663 1127.5468 2488.3228 328707
0 0 0 0
1866.0052 1140.1027 2516.0317 131072
1921.0526 1164.4326 2569.7241 196608
1924.5349 1157.3698 2554.1375 196608
1940.6108 1157.9316 2555.3774 131072
1896.1217 1122.6263 2477.4641 0
1867.8777 1097.4078 2421.8108 131328
1838.5131 1071.9207 2365.5642 65536
1835.0577 1061.8107 2343.2532 256
1844.7375 1059.3959 2337.9241 256
1865.7631 1063.4841 2346.9463 256
1851.8173 1047.7257 2312.1699 256
1842.8397 1034.989 2284.062 65792
1840.6647 1026.2307 2264.7339 512
1852.114 1025.1403 2262.3274 512
1855.6284 1019.7051 2250.3328 768
1891.3501 1031.9198 2277.2886 659201
1862.4578 1008.9578 2226.615 768
1870.67 1006.2781 2220.7014 768
1877.4281 1002.8592 2213.1565 1280
1883.7009 999.23029 2205.1479 1792
1878.0657 989.37817 2183.4058 1536
1884.842 986.15466 2176.292 4215336
1886.5303 980.33087 2163.4397 1847047
1907.441 984.50714 2172.6562 2048
1918.0912 983.36713 2170.1404 1280
1936.6779 986.28412 2176.5776 1911049
1922.962 972.82068 2146.866 1280
1906.5742 958.19135 2114.5813 1118982
1874.8507 936.09613 2065.8206 3685415
1903.3223 944.14746 2083.5886 658432
1928.2986 950.37238 2097.3259 1381889
1975.9861 967.6391 2135.4309 263424
1997.5092 971.95502 2144.9556 131584
2014.8602 974.19916 2149.908 512
2018.4003 969.7793 2140.1541 66048
2019.635 964.3139 2128.0928 1024
2027.698 962.15643 2123.3315 1024
0 0 0 0
0 0 0 0
0 0 0 0
0 0 0 0
0 0 0 0
0 0 0 0
0 0 0 0
0 0 0 0
0 0 0 0
0 0 0 0
-1836.0385 962.17365 2095.9619 918272
-2441.8542 1288.3655 2806.5256 1049857
-2422.8049 1287.0802 2803.7256 984064
-1787.4215 956.0979 2082.7266 1115650
-1773.0627 955.01105 2080.3591 1049857
-1756.8851 952.92242 2075.8093 1115650
-1743.0114 952.06281 2073.9368 1115393
-1728.6907 950.94519 2071.5022 1049857
-1716.5552 951.02216 2071.6699 1049857
-1706.0131 951.98944 2073.7771 984064
-1689.7728 949.76807 2068.938 1049857
-1668.2078 944.49927 2057.4607 984064
-1663.3956 948.70789 2066.6287 984064
-1655.0826 950.96753 2071.5508 1049857
-1641.3715 950.13599 2069.7395 1246209
-1629.9362 950.61938 2070.7925 1312259
-1622.6725 953.56146 2077.2014 1312002
-1610.3641 953.56146 2077.2014 1048832
-1598.0565 953.56183 2077.2021 1180417
-2020.6245 1215.067 2646.855 1180673
-1575.6211 954.88367 2080.0815 1312259
-1562.7828 954.57025 2079.3989 1180673
-1555.3953 957.60785 2086.0159 1049088
-1543.0348 957.60785 2086.0159 983296
-1532.5835 958.80219 2088.6177 1049088
-1522.95 960.53186 2092.3855 983296
-1514.3307 962.93488 2097.6201 1180673
-1500.7887 962.22144 2096.0659 1049088
-1490.1785 963.39148 2098.6147 983552
-1484.1497 967.56799 2107.7126 983296
-1468.3789 965.41034 2103.0125 851968
-1458.9425 967.41614 2107.3818 786432
-1445.8519 967.01239 2106.5024 917760
-1433.8392 967.32892 2107.1919 983296
-1422.1982 967.90399 2108.4446 851968
-1408.4822 967.06451 2106.616 1049088
-1396.076 967.11749 2106.7312 1180673
-1386.1956 968.93677 2110.6943 1049088
-1374.6327 969.60242 2112.1445 983296
-1360.4575 968.42096 2109.5708 1049088
-1340.2809 962.90588 2097.5569 1114624
-1333.5182 967.01471 2106.5073 1312002
-1320.984 966.97644 2106.4241 1443845
-1308.1079 966.68475 2105.7886 1246466
-1294.528 965.8623 2103.9971 1312259
-1282.2631 966.01459 2104.3289 1246466
-1268.274 964.85822 2101.8098 1378052
-1255.2809 964.44403 2100.9075 1246466
-1245.2391 966.31183 2104.9763 1443588
-1232.7662 966.31183 2104.9763 1377538
-1219.1957 965.44263 2103.0828 1180416
-1209.3826 967.56134 2107.6982 1377537
-1199.7438 969.86554 2112.7175 1246208
-1187.9 970.41693 2113.9187 1443586
-1176.2355 971.12793 2115.4675 1443586
-1167.1575 974.01288 2121.752 1443586
-1154.5852 974.01288 2121.752 1509379
-1141.4414 973.52533 2120.6899 1443586
-1132.9386 977.02936 2128.323 1377024
-1125.3372 981.39832 2137.8401 1574401
-1112.9117 981.61182 2138.3052 1574402
-1101.8541 983.05072 2141.4397 1640708
-1090.7426 984.47437 2144.5408 1377537
-1080.7878 986.98792 2150.0164 1443586
-1067.9784 986.92352 2149.876 1575172
-1054.9297 986.63379 2149.2449 1838087
-1045.9351 990.1748 2156.9585 1838344
-1033.6431 990.64337 2157.9792 1837574
-1022.0725 991.82379 2160.5505 2166538
-1007.4668 990.05127 2156.6895 2101000
-996.14941 991.50635 2159.8591 2166793
-987.56622 995.75616 2169.1167 2429965
-969.66132 990.59509 2157.874 1968901
-959.18188 992.98315 2163.0762 2100487
-949.10571 995.85919 2169.3411 2232073
-935.42017 994.97491 2167.4148 2495245
-926.65289 999.37024 2176.9895 2297866
-911.53247 996.94122 2171.6982 2034693
-903.32648 1002.1133 2182.9648 2231043
-893.12042 1005.1846 2189.6553 2493698
-876.29614 1000.788 2180.0779 3676940
-878.70056 1018.549 2218.7676 5320733
-848.32446 998.27454 2174.6025 6109216
-844.10907 1008.6345 2197.1702 8148023
-816.34369 990.73785 2158.1851 8542521
-805.01013 992.53113 2162.0916 8344625
-792.04596 992.33948 2161.6741 8015660
-778.2666 991.10358 2158.9817 8542000
-773.92596 1002.0472 2182.8208 8804916
-761.47314 1002.681 2184.2014 8870708
-749.28754 1003.6944 2186.4092 8607536
-736.36023 1003.7327 2186.4924 8409903
-723.67682 1004.1107 2187.3159 9199675
-709.41827 1002.2772 2183.3218 8804660
-694.53778 999.48047 2177.2295 8804660
-682.88214 1001.3065 2181.2073 9199675
-669.46301 1000.5672 2179.5969 9068089
-657.21698 1001.5867 2181.8176 9068088
-648.59613 1008.2827 2196.4038 9068089
-635.7395 1008.5331 2196.9497 9265468
-622.91101 1008.8398 2197.6177 9199675
-605.76794 1002.0226 2182.7673 9265468
-594.65753 1005.1045 2189.4807 9199418
-581.35986 1004.5444 2188.2607 9133881
-566.92041 1001.941 2182.5894 9462847
-553.6261 1001.2869 2181.1648 9331260
-540.00012 999.98755 2178.3342 9331260
-527.61365 1000.976 2180.4873 9528383
-518.7843 1008.9321 2197.8186 9396541
-508.72888 1014.8519 2210.7141 9791812
-494.99731 1013.5574 2207.8943 9397053
-483.81903 1017.5626 2216.6191 8870710
-468.67136 1013.2101 2207.1377 9199675
-456.23129 1014.6293 2210.2292 9265211
-444.61728 1018.0236 2217.6233 9067319
-428.58017 1011.189 2202.7349 9265209
-415.52805 1011.189 2202.7349 9462331
-404.74146 1016.8807 2215.1338 8936244
-390.71857 1014.5508 2210.0581 8738608
-376.31165 1011.0273 2202.3828 7817762
-364.19196 1013.6166 2208.0232 9067573
-350.44107 1011.6898 2203.8257 9199416
-336.8353 1010.0488 2200.2512 9133366
-325.13864 1014.2309 2209.3613 9462587
-311.80783 1013.4526 2207.666 9265209
-298.9892 1014.3438 2209.6072 9265209
-286.29022 1015.7411 2212.6511 9067830
-273.427 1016.6618 2214.6567 8804401
-261.53445 1021.4664 2225.123 8146727
-248.27328 1021.1522 2224.4385 8673071
-236.64383 1027.8901 2239.1162 9331001
-221.7157 1020.2493 2222.4717 9265209
-209.83163 1026.5356 2236.1655 9461561
-195.59084 1021.3627 2224.897 9658940
-182.48172 1021.7787 2225.8032 8738095
-169.64 1023.8734 2230.3662 9659196
-155.6981 1019.1208 2220.0134 9001267
-144.24557 1031.2891 2246.52 9132852
-130.02063 1024.0946 2230.8479 8935217
-117.34798 1028.882 2241.2766 9264438
-104.25806 1030.7659 2245.3804 8803888
-90.819687 1029.2517 2242.082 9067060
-77.378311 1027.1791 2237.5671 8935474
-64.647858 1035.6379 2255.9937 9659197
-51.097637 1031.951 2247.9624 9264695
-37.555531 1025.8861 2234.7507 9133365
-24.315144 1025.9456 2234.8801 8870451
-11.153728 1033.4644 2251.2588 9133623
2.1857741 1033.4124 2251.1455 9594173
15.73571 1047.4573 2281.7405 8607021
29.23007 1046.5311 2279.7229 9527610
42.535217 1041.5571 2268.8879 9198647
56.020157 1042.3176 2270.5444 9724736
69.469505 1042.2495 2270.396 9461820
83.526535 1049.8414 2286.9341 8277545
95.939308 1037.5322 2260.1199 9329978
110.51965 1048.8081 2284.6831 9461562
124.05628 1048.7993 2284.6638 9133623
138.50063 1055.7113 2299.7207 8870196
151.13013 1048.7905 2284.6448 9462589
164.8268 1049.8049 2286.8542 9857605
178.12973 1048.3477 2283.6799 9002038
192.27435 1051.7 2290.9827 7225885
206.53749 1055.2159 2298.6414 9923143
219.94205 1054.1814 2296.3879 8673074
234.4792 1058.3799 2305.5337 7357471
246.32167 1050.6224 2288.6353 9397053
262.42676 1060.9071 2311.0388 9199161
275.03067 1056.7194 2301.9165 8607025
290.58725 1063.7361 2317.2014 8080680
306.28891 1070.6267 2332.2119 9002036
321.40009 1074.9475 2341.624 8673074
334.18588 1071.4552 2334.0166 9463114
344.43536 1060.4318 2310.0034 11436133
357.95822 1059.9436 2308.9402 8804660
374.74878 1068.8112 2328.2568 9594174
385.90854 1061.5598 2312.4607 9264954
405.78302 1077.9562 2348.178 9462334
414.84 1065.4817 2321.0039 8936502
431.2373 1072.0555 2335.3245 8080424
446.16458 1074.6801 2341.0415 9396285
461.59555 1078.3228 2348.9766 9264956
474.94315 1077.0278 2346.1558 9199163
488.85562 1077.0511 2346.2065 7883304
505.92526 1083.8365 2360.9878 9791302
517.58051 1078.9698 2350.3862 8606772
531.26892 1078.4856 2349.3313 9001528
544.18622 1076.5006 2345.0073 8672820
558.98224 1078.2385 2348.793 9067835
576.10742 1084.2755 2361.9438 8870199
575.08331 1056.678 2301.8264 8343598
597.33392 1072.1343 2335.4958 9922886
614.42889 1077.8463 2347.9387 8738356
622.83551 1068.4017 2327.365 9922886
637.87677 1070.5006 2331.9373 8146476
654.54126 1075.1769 2342.1238 8673077
666.99799 1072.8907 2337.1438 8936504
684.08838 1077.9994 2348.272 8739126
696.45557 1075.6097 2343.0667 9133115
706.51276 1069.8157 2330.4451 7027996
726.76385 1079.3838 2351.2878 8146477
729.47064 1063.0253 2315.6531 8212782
747.12665 1068.6534 2327.9133 8738614
762.49872 1070.87 2332.7417 8278319
772.55182 1065.6704 2321.4153 9133373
785.31079 1064.3202 2318.4739 7291426
800.06177 1065.6696 2321.4133 8475442
815.26746 1067.5687 2325.5505 8080940
830.89746 1069.9513 2330.7405 8080940
839.26648 1063.0588 2315.7261 8738871
861.78534 1074.0226 2339.6091 8344113
872.51892 1070.184 2331.2473 9857352
879.4165 1061.8335 2313.0569 9133372
895.38037 1064.5181 2318.905 8869943
907.3045 1062.3914 2314.2722 8672564
915.25653 1055.746 2299.7961 9133115
934.70605 1062.3635 2314.2117 8869943
951.20868 1065.4888 2321.0195 8607028
967.00696 1067.7471 2325.939 8870200
976.61053 1063.198 2316.0295 8869943
984.40204 1056.8297 2302.157 9330494
1009.4457 1068.9038 2328.4587 8870200
1032.8088 1078.8966 2350.2268 8804407
1043.7739 1075.8448 2343.5789 8541235
1059.4862 1077.7019 2347.624 8015148
1071.8329 1076.1317 2344.2036 7422754
1085.8673 1076.2745 2344.5146 8739127
1105.5771 1081.9679 2356.917 7949867
1115.1648 1077.7367 2347.7 9002556
1126.4716 1075.2509 2342.2849 8805177
1146.5129 1081.0615 2354.9424 8674105
1156.1827 1077.0704 2346.2485 5714711
1170.6296 1077.5715 2347.3403 5254421
1168.7114 1063.1736 2315.9763 1512720
1180.2806 1061.2371 2311.7578 12436906
1191.8823 1059.3738 2307.6987 12634285
1217.5676 1069.9286 2330.6909 12567468
1219.5242 1059.629 2308.2549 11909026
1241.1937 1066.4963 2323.2144 12764341
1279.7802 1087.5894 2369.1626 13619653
1275.4408 1072.1411 2335.5107 13619655
1306.2721 1086.2716 2366.2922 13553859
1304.6074 1073.3661 2338.1792 13488066
1416.4338 1153.1252 2511.9236 13422272
1338.1801 1078.0898 2348.4692 13488321
1449.0934 1155.4307 2516.9456 13290940
1428.7009 1127.566 2456.2463 13554111
1428.3738 1115.9398 2430.9199 13488319
1400.9677 1083.6008 2360.4741 13553856
1415.2573 1083.8328 2360.9795 13027769
1482.8436 1124.4764 2449.5159 13422526
1497.5768 1124.6406 2449.8738 13488063
1512.1412 1124.6763 2449.9514 13488065
1526.0128 1124.2009 2448.9158 13554368
1526.4735 1113.9478 2426.5808 13488319
1498.0475 1083.0026 2359.1709 13488319
1512.8162 1083.5682 2360.4031 13488319
1537.4031 1091.0914 2376.7913 13356730
1544.5513 1086.2141 2366.167 13159352
1552.6688 1082.1002 2357.2053 12961973
1572.6287 1086.2394 2366.2217 13356732
1587.4371 1086.7784 2367.3962 13356733
1599.9109 1085.724 2365.0991 13488318
1614.9271 1086.3981 2366.5676 13356479
1630.3798 1087.3517 2368.6448 13224893
1642.7561 1086.2548 2366.2554 13224893
1659.8712 1088.2834 2370.6746 12962491
1674.5748 1088.7101 2371.604 13093821
1683.974 1085.7098 2365.0684 13291200
1682.6362 1075.8939 2343.6855 12829883
1755.4663 1113.2739 2425.1128 9869202
1765.9551 1110.8328 2419.7949 1907480
1797.97 1121.8622 2443.8213 1644051
1816.2363 1124.2056 2448.9258 196864
1930.4299 1185.4176 2582.2678 196608
1887.1997 1149.7579 2504.5884 196608
1896.0526 1146.1384 2496.7036 131072
1877.6407 1126.2214 2453.3171 65536
1838.394 1094.2095 2383.5835 65536
1833.2257 1082.8143 2358.761 65536
1826.2424 1070.528 2331.9966 65536
1827.2787 1063.0916 2315.7976 256
1848.2303 1067.2664 2324.8918 256
1842.2131 1055.9214 2300.1782 256
1842.2003 1048.1592 2283.2695 256
1834.7378 1036.3026 2257.4417 256
1841.391 1032.5327 2249.2292 512
1849.0334 1029.3678 2242.335 512
1853.7415 1024.6261 2232.0059 768
1860.5172 1021.0863 2224.2949 768
1871.9901 1020.1561 2222.2686 1280
1877.4281 1015.9731 2213.1565 1280
1885.4673 1013.246 2207.2158 1536
1893.0576 1010.3169 2200.8352 1536
1890.1226 1001.8489 2182.3889 397824
1898.6885 999.55072 2177.3826 332288
1905.2222 996.22083 2170.1289 68352
1906.4344 990.17181 2156.9519 1714180
1932.7448 997.15192 2172.1572 199936
1940.5602 994.56097 2166.5132 528384
1903.256 969.03168 2110.9011 198144
1864.1497 942.92413 2054.0295 526595
1926.3318 968.05676 2108.7773 329472
1952.3461 974.8067 2123.4812 2895896
1965.9415 975.30927 2124.5759 1120517
2003.7136 987.72314 2151.6179 1792
2021.6451 990.26166 2157.1477 1056261
2037.1635 991.59357 2160.0491 2963484
2044.433 988.91876 2154.2224 199168
2041.2943 981.27393 2137.5691 1792
0 0 0 0
0 0 0 0
0 0 0 0
0 0 0 0
0 0 0 0
0 0 0 0
0 0 0 0
0 0 0 0
0 0 0 0
0 0 0 0
0 0 0 0
-2384.0068 1274.0801 2740.0391 1115650
-2380.5889 1280.9771 2754.8721 1115650
-2360.9236 1279.1667 2750.9788 984065
-1751.8665 955.77386 2055.4893 1115650
-1738.1256 954.91608 2053.6445 1181443
-1720.103 951.67725 2046.6791 1181443
-1704.8086 949.9126 2042.884 1181443
-1692.7911 949.96179 2042.9897 1181186
-1678.1697 948.53955 2039.9313 1181443
-1667.1982 949.17499 2041.2977 1247236
-1655.2277 949.24677 2041.4519 1115650
-1645.3256 950.51434 2044.1781 1181443
-1633.2949 950.56207 2044.2808 984064
-2039.3047 1195.7239 2571.5261 1180416
-2140.272 1264.3719 2719.1611 1180673
-1602.5364 953.88409 2051.425 1114880
-2096.2429 1257.2917 2703.9343 1114880
-2074.6748 1253.9395 2696.7249 1180673
-1566.2092 953.96893 2051.6074 1114880
-1554.6945 954.36285 2052.4548 1312002
-1544.816 955.77563 2055.4929 1312259
-1534.1177 956.69934 2057.4795 983296
-1525.6555 959.04358 2062.521 1049088
-1811.8903 1148.1711 2469.2593 1114880
-1505.0437 961.49072 2067.7839 1246466
-1492.7327 961.45306 2067.7029 1114880
-1483.099 963.15338 2071.3596 1180673
-1471.1602 963.37274 2071.8313 851968
-1463.6874 966.54474 2078.6531 851968
-1451.4895 966.62402 2078.8235 983296
-1440.6685 967.62927 2080.9856 1049088
-1426.6213 966.46649 2078.4849 851968
-1416.2362 967.78583 2081.3223 655360
-1706.0165 1176.0485 2529.2122 917504
-1797.0131 1249.7559 2687.7275 983296
-1377.1798 966.34155 2078.2161 851968
-1369.0228 969.28485 2084.5461 917504
-1356.671 969.28485 2084.5461 1049088
-1340.7888 966.73944 2079.0718 1180673
-1329.5137 967.49921 2080.7058 1180673
-1317.251 967.54797 2080.8108 1114880
-1303.8237 966.73419 2079.0605 1049088
-1290.7299 966.1543 2077.8135 917504
-1275.1454 963.68109 2072.4946 1378053
-1261.8444 962.90228 2070.8196 1443845
-1249.4922 962.83923 2070.6841 1443588
-1239.0721 964.27856 2073.7795 1312259
-1227.777 965.05902 2075.458 1246466
-1214.0736 963.94312 2073.0581 1378052
-1202.9401 964.86572 2075.0422 1180416
-1193.8196 967.43854 2080.5754 983296
-1177.522 964.18835 2073.5854 1180674
-1171.1703 969.09943 2084.1472 1575172
-1161.1361 971.03564 2088.3113 1312001
-1151.3597 973.23145 2093.0337 1706758
-1141.8307 975.68646 2098.3132 1575172
-1131.9221 977.86761 2103.0042 1443586
-1121.7787 979.89215 2107.3582 1575172
-1105.167 976.2486 2099.5222 1640708
-1095.2158 978.47247 2104.3049 1443586
-1084.0311 979.63306 2106.8008 1509379
-1073.1881 981.13287 2110.0264 1509379
-1062.4143 982.73218 2113.4658 1246208
-1053.5491 986.15607 2120.8293 1443329
-1042.4115 987.50995 2123.741 1837831
-1033.3671 990.90417 2131.0405 1771268
-1021.0976 991.25153 2131.7876 1837318
-1004.6037 987.4552 2123.6233 2166793
-997.29163 992.70227 2134.9075 2166793
-986.26654 994.34064 2138.4309 2232586
-974.22534 994.98389 2139.8145 2035207
-958.92114 992.26764 2133.9729 1968901
-951.08582 997.31073 2144.8186 2166280
-934.6319 993.33063 2136.2588 2232073
-925.19366 996.79968 2143.7195 2297866
-916.91229 1001.6292 2154.106 2297866
-906.4848 1004.2175 2159.6724 2428937
-891.77203 1002.0648 2155.0425 2560519
-881.03796 1004.3851 2160.0327 2953734
-868.90137 1005.1515 2161.6809 4992798
-855.50598 1004.4628 2160.1997 5977889
-831.81409 991.48035 2132.2795 6701349
-823.79071 997.06146 2144.2825 8476985
-803.32001 987.51593 2123.7539 8871483
-796.16058 994.29065 2138.3235 9068348
-780.09131 989.97742 2129.0474 7752741
-770.71997 994.16205 2138.0469 8673587
-759.67017 996.28516 2142.613 8541488
-749.21112 999.26862 2149.0291 8936502
-735.03479 997.3114 2144.8198 8607281
-722.91699 998.12762 2146.5752 9002295
-714.6098 1004.3284 2159.9109 9133881
-698.50977 999.60358 2149.7495 8870453
-686.7561 1001.0386 2152.8357 8673074
-672.78271 999.23102 2148.9482 9067832
-661.05597 1000.7551 2152.2258 9068089
-651.4231 1005.5711 2162.5833 8541489
-639.2821 1006.631 2164.8628 9594178
-622.79932 1000.7578 2152.2319 8870712
-615.06726 1008.9942 2169.9451 9659971
-600.26208 1005.7314 2162.928 9331262
-586.56482 1004.223 2159.6841 9397054
-575.34845 1006.9894 2165.6335 9067832
-560.91339 1004.1203 2159.4631 8936503
-546.83978 1001.7791 2154.4282 9265211
-535.3786 1004.2263 2159.6912 9462847
-523.1001 1005.2228 2161.8342 9133625
-511.21454 1007.0432 2165.7493 9199675
-499.86652 1010.0438 2172.2021 9199675
-487.13953 1010.3427 2172.8452 9133882
-476.349 1014.7834 2182.3953 9133882
-463.12787 1014.1492 2181.0315 8870710
-448.96561 1011.3588 2175.0303 9265467
-438.84381 1017.774 2188.8269 9264955
-424.52841 1014.5579 2181.9104 9265208
-409.09485 1008.3837 2168.6321 9265208
-396.96533 1010.2173 2172.5754 8212520
-384.15259 1010.3767 2172.9182 8344107
-371.73318 1011.6177 2175.5872 8936244
-357.84326 1008.8023 2169.5322 8738610
-344.64023 1007.7855 2167.3457 9725505
-333.19647 1012.0338 2176.4819 9199162
-320.73657 1013.4133 2179.4487 8870196
-308.09235 1014.3018 2181.3596 9725505
-294.96191 1013.5974 2179.8445 9462333
-282.75604 1016.151 2185.3364 9528124
-270.95959 1020.4918 2194.6716 9002036
-256.12231 1013.2404 2179.0769 8541229
-245.34584 1022.1368 2198.2095 9001780
-232.93538 1024.8418 2204.0269 9133366
-218.0601 1016.3796 2185.8281 9395768
-206.41954 1022.8777 2199.803 9724989
-193.87996 1025.4967 2205.4353 9790782
-180.87613 1025.8612 2206.2192 9856575
-167.53073 1024.1943 2202.6343 9658940
-154.01964 1021.1472 2196.0811 9198646
-140.94435 1020.6935 2195.1057 9527354
-129.05365 1029.5986 2214.2568 9658940
-115.39477 1024.8159 2203.9712 9856576
-102.90118 1030.4823 2216.1575 9329975
-89.22789 1024.2644 2202.7852 9593403
-76.598946 1029.9581 2215.03 8935217
-63.550518 1031.1996 2217.7 9133109
-50.389805 1030.7915 2216.8225 9461818
-37.35939 1033.7009 2223.0793 9198646
-24.247335 1036.2902 2228.6477 9396025
-11.058459 1037.8628 2232.0298 8409900
2.164469 1036.5486 2229.2034 9462588
15.396128 1038.0813 2232.4998 8936244
28.728172 1041.838 2240.5789 9396025
42.130299 1044.9581 2247.2891 9067059
55.722134 1050.1549 2258.4653 9264182
68.61142 1042.6626 2242.3523 9395768
82.036331 1044.4204 2246.1326 8869681
94.825539 1038.7239 2233.8818 9264955
108.99913 1047.7301 2253.2505 9396540
122.57878 1049.6846 2257.4539 9264699
135.96785 1049.7831 2257.6655 8738864
150.13036 1055.3004 2269.5312 9462586
163.50673 1054.8391 2268.5393 9331780
175.89656 1048.5669 2255.05 8673586
190.717 1056.6467 2272.4265 8936244
204.1042 1056.2439 2271.5603 8081194
218.07489 1058.7236 2276.8933 9659969
231.3461 1057.7166 2274.7273 9199674
244.42929 1056.0078 2271.0527 9264698
258.46103 1058.3618 2276.115 8475439
273.45639 1064.2324 2288.7405 9528126
284.57178 1055.1617 2269.2329 8541231
299.64499 1060.9226 2281.6223 8738610
311.88696 1056.5946 2272.3145 8409905
326.75647 1061.1578 2282.1282 9002041
342.17862 1067.0817 2294.8682 7686694
354.32956 1062.7415 2285.5342 10318414
367.84717 1062.6691 2285.3782 8212782
381.08435 1061.8203 2283.553 9133628
397.45535 1069.4622 2299.9875 9988423
409.33188 1064.9048 2290.1863 8343598
421.66232 1061.7826 2283.4719 8278062
439.64401 1072.6427 2306.8276 8804149
458.01947 1083.7795 2330.7786 9067578
469.46646 1078.3501 2319.1018 9922887
484.82043 1081.9482 2326.8401 8080169
499.08508 1082.9836 2329.0669 7948583
508.67685 1074.0963 2309.9539 8540464
520.81726 1070.9153 2303.1128 9001785
534.2287 1070.4437 2302.0984 7356960
546.7923 1068.339 2297.572 8738612
566.06451 1079.1255 2320.7695 9133115
575.54852 1071.1831 2303.6885 9001528
591.59509 1075.5396 2313.0576 8738613
599.8833 1065.9132 2292.3552 9002041
616.08777 1070.468 2302.1506 8410161
630.72333 1072.1582 2305.7856 8804662
642.74512 1069.428 2299.9141 8475441
652.36884 1062.9041 2285.8835 9001786
669.79529 1069.0996 2299.208 8409906
681.66498 1066.356 2293.3071 8673077
703.29681 1078.6919 2319.8372 8804407
716.62439 1078.0626 2318.4836 7488804
725.16791 1070.3953 2301.9944 8607028
733.57233 1062.8096 2285.6804 8672821
745.46594 1060.4624 2280.6326 9001786
758.40149 1059.6547 2278.8955 9133629
778.57703 1068.8141 2298.5938 9593923
787.05908 1061.882 2283.6855 8344113
800.72571 1062.0609 2284.0703 8344113
814.92273 1062.9255 2285.9299 8212526
827.66705 1061.8982 2283.7205 8738614
841.29547 1062.02 2283.9824 8936251
860.52405 1069.0953 2299.1987 8607285
867.87073 1061.4186 2282.689 8409905
881.21667 1061.2018 2282.2229 8015148
898.07056 1065.1525 2290.719 9791559
908.70447 1061.7179 2283.3328 9067836
919.4856 1058.5536 2276.5276 8343599
936.62268 1062.6924 2285.4285 8869943
954.06458 1067.054 2294.8086 8738614
967.44476 1066.8143 2294.293 9001786
979.21112 1064.8262 2290.0173 8738357
992.6452 1064.6812 2289.7056 8738614
1012.9639 1071.8247 2305.0684 8541492
1034.5024 1080.0518 2322.7615 9594180
1037.791 1069.2594 2299.5515 8475698
1062.1248 1080.1492 2322.9709 9067579
1070.6439 1074.8829 2311.6455 9134141
1088.7632 1079.2662 2321.0723 8278833
1102.95 1079.6904 2321.9846 7357730
1104.6456 1068.0275 2296.9021 8344625
1129.0017 1078.2908 2318.9744 8081713
1136.6467 1072.5387 2306.604 7556146
1136.6445 1059.7932 2279.1936 394752
1144.1566 1054.271 2267.3174 12042407
1167.2314 1063.0507 2286.199 13488059
1169.002 1052.4486 2263.3982 13357242
1194.6104 1063.3049 2286.7456 13093044
1210.0021 1064.9259 2290.2319 13224631
1224.3711 1065.6208 2291.7263 12040360
1245.1147 1071.7877 2304.989 12303535
1255.8448 1069.2948 2299.6277 13290686
1309.9584 1103.3978 2372.9697 13685447
1294.6102 1078.8893 2320.2617 13685447
1308.2324 1078.7853 2320.0378 13619652
1324.2583 1080.6448 2324.0369 13488065
1444.2164 1166.4058 2508.4746 13422272
1348.8464 1078.2837 2318.959 13488319
1466.2585 1160.3239 2495.395 13422526
1390.3156 1089.2422 2342.5266 13488319
1393.577 1081.0051 2324.8118 13422524
1461.6467 1122.7091 2414.5005 13422524
1475.2346 1122.1622 2413.3245 13356731
1435.4009 1081.3799 2325.6177 13356731
1449.8912 1081.9097 2326.7573 13488317
1464.0421 1082.1788 2327.3359 13422521
1528.2678 1119.1112 2406.7629 13488314
1539.241 1116.7258 2401.6328 13488569
1542.3644 1108.7413 2384.4614 13356728
1522.6244 1084.6154 2332.5762 13159606
1538.8893 1086.3402 2336.2856 13028020
1640.2811 1147.5919 2468.0137 13290679
1580.1547 1095.7562 2356.5356 13290938
1572.6527 1081.0016 2324.8042 13356733
1593.4166 1085.7635 2335.0454 13356480
1609.0107 1086.9512 2337.5996 13356479
1613.7382 1080.8403 2324.4573 13356479
1634.8572 1085.7186 2334.9487 13422272
1646.1528 1084.0461 2331.3518 13422273
1662.8348 1085.9189 2335.3794 13356992
1673.4835 1083.8533 2330.937 13225407
1734.4838 1114.1653 2396.1262 13224893
0 0 0 0
0 0 0 0
1787.4994 1120.6992 2410.1782 591365
1795.8279 1116.9967 2402.2153 0
1858.1471 1146.6702 2466.0312 0
1836.2268 1124.3018 2417.9255 65792
1809.2847 1099.2286 2364.0034 0
1812.9543 1092.9961 2350.5996 0
2038.7006 1219.7235 2623.1399 0
2038.5302 1210.3934 2603.0747 0
1808.9868 1066.0343 2292.6155 0
1809.321 1058.2841 2275.9478 65536
1831.7694 1063.4874 2287.1382 65536
1832.6241 1056.1697 2271.4006 65536
1825.9897 1044.674 2246.678 256
1832.8702 1041.0209 2238.8215 512
1840.4983 1037.8417 2231.9844 512
1851.7117 1036.7152 2229.5618 768
1858.1318 1032.9401 2221.4431 768
1866.1783 1030.1158 2215.3694 1024
1873.3207 1026.8354 2208.3145 1280
1879.1901 1022.9077 2199.8674 1024
1889.6593 1021.5206 2196.8843 1536
1899.1747 1019.6404 2192.8408 1792
1895.1381 1010.5594 2173.311 923138
1916.1647 1014.8754 2182.593 3096095
1917.9332 1009.0019 2169.9617 2173967
1917.5406 1002.0775 2155.0698 1024
1918.3241 995.8551 2141.688 1024
1924.4429 992.46594 2134.3994 1024
1922.7926 985.14081 2118.6458 1024
1932.9276 983.90948 2115.9978 66560
1930.3029 976.24103 2099.5059 4278571
1943.7256 976.73456 2100.5674 4146984
1999.3285 998.28284 2146.9092 527616
2038.02 1011.168 2174.6201 1280
2046.7224 1009.1056 2170.1846 527616
2044.5201 1001.7262 2154.3145 1449730
2050.905 998.61938 2147.6331 462592
0 0 0 0
0 0 0 0
0 0 0 0
0 0 0 0
0 0 0 0
0 0 0 0
0 0 0 0
0 0 0 0
0 0 0 0
0 0 0 0
0 0 0 0
-2344.0564 1268.6931 2694.1223 984065
-2333.6604 1271.7273 2700.5654 1049857
-2322.5288 1274.3998 2706.2407 918272
-2302.4167 1272.1472 2701.4573 1115650
-2283.6582 1270.6166 2698.2068 1181443
-2266.9968 1270.2391 2697.4055 1049857
-2246.1514 1267.4955 2691.5791 1115650
-2217.0989 1260.048 2675.7642 1049857
-2212.0286 1266.2214 2688.8738 984064
-2182.5859 1258.4319 2672.3323 1049857
-2179.29 1265.7144 2687.7969 1049858
-1622.4866 949.26459 2015.8026 1378565
-1611.3102 949.71735 2016.764 1247493
-1599.6227 949.87323 2017.0951 1246209
-2092.0786 1251.651 2657.9326 1246466
-1578.965 951.8302 2021.2509 1246466
-1566.9293 951.79449 2021.175 1312002
-1555.2307 951.96448 2021.5359 1180673
-1542.7546 951.65747 2020.8839 1049088
-1531.4877 952.09735 2021.818 983296
-1520.0873 952.46063 2022.5895 1180673
-1511.1534 954.38733 2026.681 1180673
-1503.7098 957.2937 2032.8528 1180673
-1491.2831 957.04901 2032.3331 1246466
-1482.5953 959.21936 2036.9421 1114880
-1472.002 960.18243 2038.9872 1114624
-1460.7115 960.70294 2040.0924 851968
-1449.7911 961.47754 2041.7373 851968
-1441.8353 964.24774 2047.62 851968
-1430.2714 964.63147 2048.4348 917760
-1416.7816 963.71185 2046.4821 851968
-1409.1189 966.77429 2052.9851 851968
-1396.7766 966.65131 2052.7241 786432
-1383.3613 965.77722 2050.8679 917504
-1370.4124 965.21606 2049.6763 917504
-1360.3334 966.68439 2052.7942 917760
-1347.1516 965.95422 2051.2439 983296
-1335.7787 966.51984 2052.4448 983296
-1323.2531 966.25385 2051.8801 983296
-1311.1163 966.26978 2051.9138 1180673
-1299.571 966.72583 2052.8823 1180673
-1288.0776 967.22949 2053.9519 1246466
-1273.8923 965.70215 2050.7085 1180673
-1257.7172 962.62244 2044.1686 1246466
-1255.2245 970.05676 2059.9556 1246466
-1233.324 962.49115 2043.8898 1246723
-1219.4904 961.13336 2041.0065 1378052
-1212.3612 965.08545 2049.3989 1312259
-1201.9388 966.46936 2052.3376 1377795
-1190.2906 966.8858 2053.2222 1377537
-1180.0334 968.45251 2056.5491 1640965
-1170.7654 970.87213 2061.6873 1640965
-1164.624 975.96307 2072.498 1838344
-1149.4518 973.51385 2067.2969 1509379
-1137.0166 973.35486 2066.9595 1706501
-1123.951 972.64709 2065.4563 1575172
-1119.2585 979.24927 2079.4763 1706501
-1108.2656 980.4248 2081.9727 1772551
-1096.2908 980.74829 2082.6597 1574915
-1088.3378 984.71826 2091.0898 1509379
-1077.313 985.96814 2093.7441 1509379
-1066.1985 987.16412 2096.2839 1706501
-1056.7618 989.96021 2102.2214 1575172
-1045.8328 991.40808 2105.2961 1575172
-1034.7672 992.76013 2108.1672 1706758
-1023.2396 993.69635 2110.1553 1575172
-1005.506 988.55444 2099.2363 1640452
-995.90186 991.37628 2105.2285 2100743
-984.73566 992.69495 2108.0288 2101000
-974.14185 994.63196 2112.1421 2232329
-961.00275 993.98676 2110.772 2101000
-949.82855 995.38361 2113.7383 2100230
-935.48779 993.45514 2109.6431 1903108
-927.20935 997.99945 2119.2932 2034694
-916.26428 999.75909 2123.0298 2100487
-905.07159 1001.2935 2126.2883 2363657
-893.53998 1002.4913 2128.8318 2626311
-884.05957 1006.0576 2136.4048 3085319
-872.21411 1006.9968 2138.3994 3742988
-852.37134 998.5946 2120.5569 5320475
-842.4621 1001.7527 2127.2634 6109217
-824.99548 995.88391 2114.8008 8214327
-808.47644 990.99567 2104.4202 8476981
-801.99225 998.4472 2120.2439 9068604
-788.75897 997.59979 2118.4443 9199418
-779.83813 1002.2673 2128.3562 9134394
-757.69849 989.82019 2101.9241 8410415
-752.19995 999.05927 2121.5437 8673844
-742.15546 1002.4719 2128.7905 8870966
-728.46069 1000.9867 2125.6367 9002296
-717.42584 1003.1687 2130.2703 8870453
-699.43445 995.52716 2114.0432 9462591
-688.76398 998.21722 2119.7556 9857349
-675.58459 997.30353 2117.8152 8607282
-665.28375 1000.6849 2124.9958 8607282
-656.03436 1005.8088 2135.8767 9199674
-641.77625 1003.3042 2130.5579 9199418
-632.58069 1008.772 2142.1692 9397054
-615.37543 1001.4294 2126.5769 9199419
-608.62793 1011.1539 2147.2271 9462591
-594.48279 1008.7411 2142.1035 8870455
-580.3114 1006.1774 2136.6594 8936246
-566.00464 1003.2596 2130.4631 9462847
-551.41797 999.70099 2122.9065 8870196
-540.60883 1002.9847 2129.8796 9001783
-529.56403 1005.9777 2136.2354 8936246
-518.08612 1008.2745 2141.1125 9265468
-505.38339 1008.2431 2141.0459 9265467
-493.6969 1010.2897 2145.3918 9594432
-483.54568 1015.669 2156.8152 9265468
-469.30151 1012.5101 2150.1072 9002039
-456.98975 1013.4603 2152.125 8936246
-443.49924 1011.7759 2148.5481 9002039
-432.09418 1014.8904 2155.1616 9264955
-420.50537 1017.7498 2161.2336 8344107
-405.98837 1013.479 2152.1646 9002036
-394.83127 1017.5906 2160.8958 9002037
-379.24338 1010.1757 2145.1499 8672816
-365.79156 1008.1337 2140.8135 8672817
-354.37833 1011.7651 2148.5251 8869941
-340.5383 1008.4804 2141.5498 9528127
-328.81091 1011.4401 2147.8347 8870197
-316.58051 1013.0284 2151.2078 9067831
-304.79492 1016.2332 2158.0132 8804658
-292.32465 1017.3357 2160.3545 8278314
-278.23148 1012.6327 2150.3674 9001780
-265.23544 1011.663 2148.3081 9594174
-254.81985 1020.934 2167.9956 8409900
-242.47247 1023.0388 2172.4653 8936243
-229.00323 1020.3809 2166.821 9068086
-215.31039 1016.3518 2158.2651 9002037
-203.01559 1018.8298 2163.5273 8673071
-190.7307 1021.6949 2169.6116 9594430
-177.42369 1019.1035 2164.1084 9330746
-164.64859 1019.4014 2164.741 9396796
-152.38495 1023.1837 2172.7729 9396796
-140.30592 1029.0183 2185.1628 9330749
-127.31824 1028.6973 2184.4812 9725507
-114.51492 1029.9619 2187.1667 9396284
-101.56616 1030.0743 2187.4055 9462334
-88.689812 1031.0614 2189.5015 9067575
-76.375473 1040.0399 2208.5679 8869940
-62.925865 1034.0753 2195.9019 8935987
-49.650589 1028.6128 2184.3018 9199160
-36.926857 1034.7533 2197.3413 9462587
-23.891098 1034.0768 2195.9048 8541485
-10.903996 1036.4069 2200.853 8343595
2.1594582 1047.3273 2224.0427 8935218
15.347098 1047.9619 2225.3904 8672047
28.564434 1049.1005 2227.8083 9264182
41.709084 1047.6937 2224.8208 9067060
54.32444 1036.8601 2201.8154 9067059
67.617149 1040.6472 2209.8574 8409130
81.051979 1045.038 2219.1814 8672304
94.444901 1047.7379 2224.9148 8606769
107.34086 1044.9386 2218.9705 8870451
121.78136 1056.1453 2242.7681 9659966
135.10648 1056.4254 2243.363 9133622
148.25609 1055.4059 2241.198 9002037
161.98244 1058.322 2247.3906 9331002
174.79402 1055.2726 2240.915 9199417
188.04288 1055.1073 2240.564 8739380
200.96684 1053.261 2236.6433 8212780
214.37614 1054.0294 2238.2751 7228974
226.55869 1049.0281 2227.6545 10846814
241.23935 1055.5076 2241.4141 9528897
255.49332 1059.5414 2249.98 9199416
270.09344 1064.5394 2260.5935 9133369
282.90024 1062.3309 2255.9038 8409389
296.31229 1062.4921 2256.2458 8080681
310.17874 1064.1981 2259.8689 9067834
323.09952 1062.6528 2256.5872 8344367
335.32443 1059.0327 2248.8997 8804663
349.28058 1060.9478 2252.9666 8936248
360.84448 1055.723 2241.8716 8344111
377.06802 1064.0178 2259.4861 8607540
392.42935 1069.3944 2270.9031 9002041
405.8497 1069.3004 2270.7036 8804662
415.75174 1060.2401 2251.4639 8146217
432.72781 1069.2224 2270.5381 8738354
446.61038 1070.2499 2272.7197 8541235
461.10803 1072.6479 2277.8123 9133371
475.74609 1075.2269 2283.2888 8080426
490.94724 1078.9008 2291.0903 8804147
502.56696 1074.718 2282.2083 8804404
513.35382 1069.0203 2270.1089 9067321
525.46387 1066.2985 2264.3291 8212781
540.62872 1069.757 2271.6731 7949355
543.77686 1049.847 2229.3938 8738613
566.85791 1068.4526 2268.9033 9067577
580.15887 1068.189 2268.3435 8870198
592.52466 1066.2544 2264.2354 9528641
600.3338 1056.3873 2243.2822 7489059
619.22723 1066.0298 2263.7585 9528385
633.86365 1068.0902 2268.1338 8541492
645.61957 1065.3121 2262.2344 8475698
658.84753 1065.0264 2261.6277 8607285
674.93365 1069.2804 2270.6611 8344113
693.91547 1077.866 2288.8928 9331008
706.37189 1076.1805 2285.314 8475698
718.98041 1074.786 2282.3525 8212526
731.18414 1072.849 2278.2393 9133629
744.62048 1072.7581 2278.0461 8541492
752.87512 1065.3381 2262.2896 8015148
764.784 1063.2582 2257.8726 9857350
778.99237 1064.3916 2260.2795 9199421
787.22052 1057.4536 2245.5466 8409905
809.7688 1069.6626 2271.4727 7751976
812.70862 1055.994 2242.447 8146477
831.83148 1063.4543 2258.2893 9001529
850.79547 1070.4784 2273.2053 8541235
857.19385 1061.72 2254.6064 8146477
872.43365 1064.0133 2259.4763 9791301
890.71149 1069.8864 2271.948 8606770
899.21698 1064.0212 2259.4932 10120010
913.35193 1064.8917 2261.3416 8080684
925.23676 1063.1514 2257.646 8672821
940.59259 1065.3923 2262.4045 9001786
955.47876 1067.0455 2265.9155 8738357
971.90649 1070.351 2272.9346 9133371
982.5885 1067.3246 2266.5081 8278063
998.62781 1070.1207 2272.4458 8870456
1014.6388 1072.8126 2278.1619 8146733
1023.3673 1067.8347 2267.5913 8936249
1041.824 1073.0054 2278.5713 8541235
1062.283 1080.0795 2293.5933 8541492
1075.395 1079.5992 2292.5735 8804664
1090.4978 1081.1044 2295.7698 8475954
1105.5844 1082.5566 2298.8538 8410421
1111.5798 1075.1803 2283.1899 7490871
1119.3802 1069.7059 2271.5649 1967108
1106.0137 1044.3746 2217.7727 11054485
1119.59 1044.7806 2218.635 12961966
1133.6273 1045.6024 2220.3801 13356984
1157.1709 1055.073 2240.4912 13488571
1182.1091 1065.5859 2262.8157 13554110
1202.9646 1072.2239 2276.9116 13488316
1215.1945 1071.1116 2274.5498 13290938
1238.2186 1079.434 2292.2227 12172200
1250.0468 1077.9213 2289.0105 12106411
1261.2052 1075.8698 2284.6541 12830136
1308.8955 1104.6945 2345.8645 13553860
1291.5548 1078.6045 2290.4614 13619655
1307.1377 1080.2665 2293.9907 13488065
1318.1957 1078.1932 2289.5879 13553858
1352.3635 1094.8718 2325.0056 13422525
1349.1162 1081.2283 2296.033 13356732
1424.7207 1130.4208 2400.4954 13356732
1438.9537 1130.428 2400.5105 13356731
1450.52 1128.3605 2396.1204 13422524
1467.1748 1130.2532 2400.1394 13356731
1475.6874 1125.8972 2390.8894 13290939
1480.0647 1118.4991 2375.1792 13290936
1619.2488 1212.1554 2574.0623 13356729
1507.9734 1118.3219 2374.8027 13356727
1521.7129 1118.0778 2374.2844 13356983
1533.1176 1116.1383 2370.166 13356984
1599.9454 1154.2172 2451.0278 13356984
1513.5604 1082.0756 2297.8323 13291191
1525.2681 1080.7238 2294.9617 13290935
1537.8903 1080.038 2293.5054 13290936
1551.288 1079.9042 2293.2212 13290938
1562.7086 1078.4083 2290.0447 13422527
1581.3651 1081.8887 2297.4353 13356989
1592.7651 1080.3875 2294.2476 13422526
1614.2169 1085.6721 2305.4697 13356989
1622.5807 1082.1394 2297.9678 13290684
1631.8925 1079.2925 2291.9221 13224892
1659.2039 1088.2987 2311.0474 13225662
1674.5488 1089.3728 2313.3284 13225408
1664.8785 1074.2881 2281.2952 13356738
0 0 0 0
0 0 0 0
1723.3605 1085.582 2305.2783 3224112
1786.6956 1116.6276 2371.2048 65536
1794.0886 1112.4994 2362.4385 65536
1796.5941 1105.428 2347.4219 65536
0 0 0 0
1797.7085 1089.2474 2313.062 65536
1795.3251 1079.5726 2292.5171 0
1806.2841 1078.0059 2289.1902 0
1809.321 1071.7699 2275.9478 65536
1825.3267 1073.2515 2279.0938 65536
1826.021 1065.7747 2263.2166 65536
1825.9897 1057.9865 2246.678 256
1830.5483 1052.9512 2235.9854 256
1840.1072 1050.8436 2231.51 512
1853.2799 1050.8153 2231.45 512
1862.2937 1048.4462 2226.4187 256
1871.4116 1046.1683 2221.5818 768
1876.0803 1041.4525 2211.5676 1280
1880.4604 1036.6431 2201.3545 1280
1890.0835 1034.7703 2197.3774 200448
1903.8417 1035.1715 2198.2295 527621
1918.843 1036.2385 2200.4954 1536
1932.2833 1036.4539 2200.9526 1280
1924.4288 1025.3207 2177.3108 1024
1912.4602 1012.1583 2149.3601 1280
1914.3596 1006.4612 2137.262 1280
1924.3839 1005.0825 2134.3342 768
1926.0342 999.37659 2122.2175 768
1928.7188 994.27795 2111.3904 1536
1930.45 988.75665 2099.6658 3161113
1929.4718 981.92749 2085.1636 4017442
1968.1499 995.23804 2113.4292 1187844
2013.356 1011.6604 2148.3027 991232
2023.8502 1010.5443 2145.9326 398336
2026.1598 1005.3809 2134.968 3425799
2024.0853 998.11975 2119.5486 2832898
0 0 0 0
0 0 0 0
0 0 0 0
0 0 0 0
0 0 0 0
0 0 0 0
0 0 0 0
0 0 0 0
0 0 0 0
0 0 0 0
0 0 0 0
-2308.7695 1265.318 2653.5657 984064
-2283.3701 1259.9786 2642.3684 918272
-1721.799 956.65985 2006.2623 984065
-2241.9885 1254.3462 2630.5562 1049857
-2238.7434 1261.2997 2645.1387 1049857
-1677.1678 951.57208 1995.5925 918272
-1662.7893 950.11279 1992.5321 984064
-2181.7998 1255.589 2633.1626 918272
-1637.046 948.87817 1989.9429 1049856
-1622.4281 947.22772 1986.4818 918272
-1612.4064 948.25635 1988.6389 1181443
-2113.4207 1252.0529 2625.7468 1247236
-2089.9358 1247.3223 2615.8259 1313029
-1582.7401 951.67413 1995.8064 1246466
-1933.2504 1171.1807 2456.1455 1312259
-2047.634 1249.8845 2621.1995 1312259
-1916.3958 1178.717 2471.9502 1180673
-2007.876 1244.4956 2609.8979 1114880
-1992.1243 1244.3163 2609.522 1180674
-1512.9349 952.39838 1997.3254 1180673
-1956.3431 1241.2351 2603.0603 1246466
-1951.7715 1248.1754 2617.6152 1180673
-1925.2805 1241.097 2602.7708 1180673
-1763.3311 1145.8782 2403.0823 1180673
-1808.2812 1184.655 2484.4031 1180673
-1452.4802 959.37 2011.9459 917760
-1442.9648 960.97247 2015.3065 851968
-1430.5593 960.66089 2014.6532 1049088
-1424.04 964.33002 2022.3479 917504
-1410.4628 963.24152 2020.0651 918272
-1396.6982 962.00525 2017.4724 655360
-1387.7587 964.09967 2021.8647 589824
-1374.9451 963.51575 2020.6403 983296
-1365.1437 965.05096 2023.8599 851968
-1351.9896 964.22235 2022.1221 983040
-1340.7125 964.72955 2023.1857 851968
-1328.2938 964.41699 2022.5302 1049088
-1317.1598 965.03979 2023.8364 1114880
-1302.1936 962.84088 2019.2249 1180930
-1288.1952 961.32306 2016.0419 1114881
-1284.2615 967.35822 2028.6984 1114880
-1265.0703 961.90625 2017.2649 1246466
-1256.0972 964.19366 2022.0619 1114880
-1244.1156 964.19366 2022.0619 1114880
-1231.5344 963.72443 2021.0778 1180673
-1225.334 968.28809 2030.6486 1509638
-1208.3193 964.31207 2022.3102 1509638
-1196.6544 964.56836 2022.8477 1509638
-1185.6942 965.40375 2024.5996 1312002
-1178.1451 969.06201 2032.2716 1443586
-1168.4 970.97076 2036.2744 1443586
-1156.0945 970.76935 2035.8522 1509379
-1147.4531 973.67303 2041.9415 1443586
-1135.4062 973.71808 2042.036 1575172
-1127.0173 976.93475 2048.782 1640965
-1119.4391 980.93201 2057.1648 1575172
-1108.0106 981.60626 2058.5789 1640965
-1098.8992 984.37103 2064.377 1443586
-1086.1226 983.87793 2063.3428 1246208
-1077.7716 987.42834 2070.7886 1640965
-1065.5997 987.51935 2070.9795 1706758
-1055.4333 989.49298 2075.1184 1640965
-1043.4346 989.77484 2075.7095 1640708
-1032.3595 990.95001 2078.1741 1509379
-1022.452 993.28784 2083.0769 1509379
-1010.7242 993.89301 2084.3459 1640965
-999.55731 995.07123 2086.8169 1575428
