# .PCD v0.7 - Point Cloud Data file format
VERSION 0.7
FIELDS x y z rgb
SIZE 4 4 4 4
TYPE F F F U
COUNT 1 1 1 1
WIDTH 1392
HEIGHT 1
VIEWPOINT 0 0 0 1 0 0 0
POINTS 1392
DATA ascii
1181.3719 862.44769 2095.0615 5657670
1191.4302 860.74579 2090.9272 5789256
1197.2705 856.06293 2079.5518 6182984
1211.2598 857.24274 2082.4177 7301718
1222.5013 856.47382 2080.5498 8354145
1221.9668 847.55231 2058.8777 9801588
1226.3885 842.21094 2045.9023 10656639
1226.9022 834.31653 2026.7252 11577740
1241.9414 836.35699 2031.6819 11906706
1252.5574 835.40833 2029.3772 12038292
1263.3202 834.57458 2027.3519 12169878
1275.5293 834.70288 2027.6638 12301463
1284.4009 832.66522 2022.7139 12235671
1294.093 831.19226 2019.1357 12235671
1305.4574 830.81055 2018.2085 12169881
1315.4458 829.56799 2015.1901 12367516
1327.8013 829.82715 2015.8196 12367515
1340.1234 830.06097 2016.3877 12433051
1364.2327 837.52716 2034.5244 12498843
1361.9358 828.79321 2013.3079 12497816
1377.1121 830.75165 2018.0654 12497816
1389.0076 830.71448 2017.975 12497816
1392.703 825.81555 2006.0745 12563866
1409.8583 828.91302 2013.599 12498073
1419.3195 827.4729 2010.1006 12432280
1430.7887 827.21765 2009.4806 12432280
1441.2394 826.38269 2007.4523 12498073
1452.3196 825.91943 2006.3268 12432280
1468.1766 828.15802 2011.7649 12300694
1476.7697 826.29614 2007.2421 12695452
1482.4069 822.82349 1998.8062 12629658
1490.1531 820.56714 1993.325 12563866
1499.8627 819.41888 1990.5358 12432280
1508.4901 817.70197 1986.3651 12366486
1520.7323 817.95593 1986.9821 12432280
1535.792 819.7099 1991.2426 12563609
1546.507 819.13574 1989.8479 12366487
1551.6825 815.65845 1981.4009 12432793
1558.9215 813.30988 1975.6958 12433050
1566.7036 811.27759 1970.7589 12498845
1579.7567 811.98462 1972.4763 12433052
0 0 0 0
0 0 0 0
0 0 0 0
0 0 0 0
0 0 0 0
0 0 0 0
0 0 0 0
0 0 0 0
0 0 0 0
0 0 0 0
0 0 0 0
0 0 0 0
840.54443 394.12735 957.41583 327680
845.84729 393.9549 956.99689 262144
850.93896 393.68707 956.34625 65536
855.27228 393.07428 954.85767 65536
861.09991 393.15179 955.0459 0
865.45789 392.56161 953.61224 0
868.90173 391.56717 951.19653 0
957.62561 428.76895 1041.5674 0
960.14069 427.14224 1037.6157 0
884.08124 390.80276 949.33978 256
888.86774 390.43439 948.44482 512
894.48761 390.43439 948.44482 768
0 0 0 0
852.71973 367.5842 892.93707 12831408
0 0 0 0
0 0 0 0
0 0 0 0
0 0 0 0
0 0 0 0
0 0 0 0
0 0 0 0
0 0 0 0
0 0 0 0
0 0 0 0
-6345.5054 3024.896 7243.8223 768
-6193.895 2972.7319 7118.9033 768
-6216.2759 3003.9314 7193.6177 768
-6146.4492 2990.6958 7161.9219 768
-6200.3281 3037.8865 7274.9307 768
-6131.3887 3025.1409 7244.4087 768
-6135.2993 3048.4126 7300.1382 768
-6070.7925 3037.7791 7274.6733 768
-6083.1792 3065.7454 7341.6455 768
-5932.667 3011.4268 7211.5674 768
-5849.3052 2990.6531 7161.8198 768
-6009.0688 3094.7903 7411.2007 768
-5869.7222 3045.2791 7292.6343 768
-5826.5103 3045.2791 7292.6343 768
-5853.0825 3082.0247 7380.6304 768
-5975.3647 3170.1011 7591.5493 768
-5822.6875 3112.5327 7453.6885 768
-5719.8784 3080.9451 7378.0449 768
-5683.8506 3085.1191 7388.0405 768
-5667.478 3100.1094 7423.9385 768
-5605.229 3090.0435 7399.833 768
-5510.8262 3061.9536 7332.5654 768
-5487.9937 3073.499 7360.2139 768
-5469.3965 3087.6206 7394.0312 768
-5419.0923 3083.9265 7385.1846 768
-5467.2998 3136.6902 7511.5396 768
-5365.9854 3103.8323 7432.854 768
-5320.3154 3102.8833 7430.5811 768
-5275.3896 3102.356 7429.3179 768
-5276.3403 3129.0261 7493.186 768
-5224.0952 3124.334 7481.9497 768
-5192.7051 3132.1414 7500.6465 768
-5153.1753 3135.1311 7507.8062 768
-5093.7769 3125.98 7485.8921 768
-5073.0415 3140.604 7520.9116 768
-5086.4268 3176.7971 7607.5845 768
-1554.917 979.82819 2346.4282 768
-5109.6504 3248.8877 7780.2227 768
-1531.9135 982.91022 2353.8088 768
-5093.0337 3297.8303 7897.4277 768
-1503.8818 982.82062 2353.5942 768
-1492.355 984.41638 2357.4158 768
-1472.8945 980.75952 2348.6584 768
-1458.9348 980.73059 2348.5894 768
-1445.1193 980.79901 2348.7532 768
-1431.641 981.09991 2349.4736 768
-4686.7759 3243.3748 7767.0215 768
-4684.0669 3273.6467 7839.5137 768
-4641.1973 3276.1755 7845.5698 768
-4625.0938 3297.8403 7897.4517 768
-4548.5601 3276.4197 7846.1548 512
-4486.4995 3265.0891 7819.0215 512
-4472.3794 3288.7751 7875.7432 65792
-4423.3511 3287.0205 7871.5415 256
-4397.4106 3302.5681 7908.7729 131072
-4332.2578 3288.6833 7875.5234 393728
-1287.2938 987.84534 2365.6272 393728
-4238.2983 3288.1965 7874.3564 393216
-4225.6748 3314.896 7938.2949 393216
-4160.7832 3300.7324 7904.377 458752
-4134.0381 3316.8521 7942.9795 656128
-4074.5271 3306.7517 7918.7925 655872
-4034.1216 3312.1018 7931.604 721664
-3970.3843 3298.1963 7898.3042 721920
-3992.5581 3356.177 8037.1523 721920
-3935.5847 3348.2227 8018.1035 590336
-3857.6687 3322.0386 7955.3999 656128
-3776.2043 3292.1135 7883.7373 853504
-1123.0173 991.31531 2373.9368 853504
-1108.406 990.82825 2372.7705 656128
-3815.9016 3454.9421 8273.668 524288
-1084.0381 994.26904 2381.0103 458752
-3719.5354 3456.5063 8277.4141 458752
-3668.865 3454.978 8273.7539 655360
-3594.8826 3431.1572 8216.71 655360
-3544.0583 3429.0896 8211.7588 655360
-3482.6174 3416.5491 8181.7275 655360
-3405.7971 3388.3538 8114.2075 720896
-3334.4465 3364.8711 8057.9722 655360
-3287.9839 3366.1858 8061.1206 720896
-3220.6521 3345.8584 8012.4419 655360
-3148.8376 3320.1965 7950.9888 655360
-3078.2305 3295.0474 7890.7632 655360
-929.11194 1009.894 2418.4277 655360
-914.08154 1009.1209 2416.5764 655360
-2850.1724 3196.5872 7654.9766 655360
-2776.574 3164.4028 7577.9043 655360
-2698.4373 3125.9038 7485.709 655360
-859.12695 1011.8558 2423.126 655360
-2567.5725 3075.4128 7364.7969 655360
-2519.2651 3069.7251 7351.1758 720896
-2452.5059 3040.958 7282.2861 720896
-2403.3813 3033.4177 7264.2295 720896
-2348.0442 3017.6182 7226.3936 720896
-2305.3342 3017.7612 7226.7363 720896
-2253.3276 3005.51 7197.3979 720896
-2220.2578 3018.531 7228.5801 720896
-2164.2874 3000.3179 7184.9639 720896
-2130.1907 3012.3052 7213.6704 720896
-2071.3809 2989.1211 7158.1509 720896
-687.46387 1012.7881 2425.3586 720896
-1978.4873 2976.9878 7129.0952 720896
-1947.3988 2994.1377 7170.1641 720896
-1897.6578 2982.7346 7142.8569 720896
-1844.9675 2966.0696 7102.9487 720896
-1801.2456 2963.3813 7096.5107 720896
-1750.7773 2949.2 7062.5503 720896
-1708.9288 2949.2 7062.5503 720896
-568.14563 1005.0955 2406.9368 720896
-1616.9663 2934.2012 7026.6318 720896
-1574.6348 2932.9043 7023.5269 720896
-1544.2581 2954.4094 7075.0259 720896
-509.37378 1001.7061 2398.8198 720896
-1455.7048 2944.8843 7052.2153 720896
-1422.7522 2963.2849 7096.2798 720896
-463.5546 994.88684 2382.4897 720896
-1350.0585 2988.5264 7156.7271 720896
-1314.9673 3005.2449 7196.7627 720896
-1252.9164 2959.4048 7086.9883 720896
-401.52924 981.30713 2349.97 720896
-387.41464 980.82599 2348.8176 720896
-373.20572 980.06116 2346.9861 786432
-358.98239 979.19788 2344.9187 720896
-1044.8833 2964.8901 7100.1245 655360
-329.9931 975.6496 2336.4216 655360
-315.7496 974.41748 2333.4709 655360
-301.51389 973.0976 2330.3103 655360
-286.30838 968.37091 2318.991 655360
-832.67462 2958.3064 7084.3579 524288
-255.88411 957.36243 2292.6287 589824
-244.57437 966.35132 2314.1548 655360
-230.3616 964.25641 2309.1379 720896
-216.22295 962.22681 2304.2776 720896
-202.26245 960.76978 2300.7883 720896
-188.50494 960.13605 2299.2708 720896
-174.05794 955.61823 2288.4517 720896
-160.30006 954.44 2285.6301 720896
-146.64938 953.74152 2283.9575 720896
-133.10513 953.66345 2283.7708 720896
-119.03674 949.38745 2273.5308 720896
-105.68893 950.50061 2276.1965 720896
-92.366272 952.19873 2280.2629 720896
-78.603691 949.16656 2273.0017 720896
-65.294373 951.48535 2278.5547 720896
-51.786354 951.36292 2278.2615 720896
-38.260799 950.71826 2276.7178 720896
-24.751854 950.00916 2275.0195 655360
-11.268229 949.73779 2274.3696 851968
2.2052515 948.41656 2271.2056 851968
15.633834 946.64697 2266.968 851968
29.127863 948.64447 2271.7515 851968
42.306049 942.34412 2256.6638 851968
55.608318 941.17004 2253.8523 720896
68.718323 937.82672 2245.8459 720896
81.754196 934.7207 2238.4077 720896
94.632469 930.9314 2229.3335 720896
107.90118 931.44092 2230.5535 720896
122.72756 943.81824 2260.1938 720896
134.48633 932.48999 2233.0657 655360
147.3242 930.00317 2227.1106 851968
160.39064 929.24951 2225.3057 851968
174.00194 931.52722 2230.7603 851968
186.98883 930.37665 2228.0049 851968
200.28601 930.81976 2229.0659 851968
213.61787 931.35931 2230.3582 851968
226.27797 929.0777 2224.8943 851968
239.45033 929.03503 2224.792 851968
252.57111 928.80695 2224.2458 851968
265.58511 928.22839 2222.8604 851968
278.43277 927.15057 2220.2793 851968
289.48972 920.47607 2204.2957 786432
303.7413 924.09729 2212.9675 851968
314.99823 918.68494 2200.0063 851968
327.30234 916.63544 2195.0984 851968
339.29642 913.90753 2188.5657 851968
351.48856 911.89429 2183.7446 851968
363.85437 910.45868 2180.3066 851968
374.33044 904.55493 2166.1687 786432
387.10065 904.40259 2165.804 851968
399.93393 904.40259 2165.804 851968
409.51733 897.28198 2148.752 851968
420.33679 893.21735 2139.0183 851968
432.77448 892.72876 2137.8481 851968
450.21289 902.29016 2160.7451 983040
463.24097 902.72815 2161.7942 851968
473.84937 898.55426 2151.7988 851968
485.57996 896.67133 2147.2896 851968
495.62253 891.84711 2135.7368 851968
507.41574 890.33472 2132.1152 851968
523.05664 895.48315 2144.4443 851968
532.45703 889.95697 2131.2104 851968
547.70868 894.24023 2141.4678 786432
555.4223 886.30072 2122.4548 851968
566.8197 884.46106 2118.0493 720896
578.77393 883.55109 2115.8701 851968
590.76825 882.73969 2113.927 851968
604.43665 884.41144 2117.9304 851968
615.9115 882.87079 2114.241 851968
627.09747 880.98584 2109.7271 851968
640.1875 881.79724 2111.6702 851968
652.12433 881.01953 2109.8076 1377280
663.41748 879.41772 2105.9719 1048576
675.27625 878.61115 2104.0403 851968
686.72894 877.31494 2100.9363 1048576
697.65778 875.40765 2096.3687 917504
710.75031 876.2345 2098.3489 917504
723.48798 876.60297 2099.2312 917504
734.8244 875.28986 2096.0867 1179648
745.90369 873.71924 2092.3254 851968
757.95032 873.31445 2091.3562 851968
772.65967 875.94159 2097.6472 1048576
783.27179 873.91394 2092.7917 851968
792.50079 870.43048 2084.4497 917504
807.52667 873.32306 2091.3767 983040
819.14557 872.49927 2089.4041 1179648
825.52502 866.20251 2074.325 851968
841.06097 869.55713 2082.3584 1245440
849.39148 865.47296 2072.5779 917504
865.90625 869.72565 2082.7617 917504
877.75702 869.23993 2081.5986 851968
885.24445 864.50665 2070.2637 917504
895.57971 862.64569 2065.8074 917504
909.30432 864.05579 2069.1841 1310720
921.36023 863.86377 2068.7241 1442560
932.77698 863.08539 2066.8601 1442560
944.78729 862.8692 2066.3425 1442560
956.43414 862.33081 2065.0532 1442560
968.04602 861.77502 2063.7222 1310976
980.07068 861.59589 2063.2932 1310976
989.0885 858.81036 2056.6228 1376768
1001.8548 859.30786 2057.814 1310976
1014.7557 859.90753 2059.25 1376768
1027.6487 860.48615 2060.6357 1376768
1041.3199 861.69513 2063.531 1639680
1050.2266 858.97925 2057.0271 1245440
1059.3031 856.46301 2051.0015 1049088
1072.5739 857.35657 2053.1411 458752
1082.3433 855.46265 2048.6057 393216
1100.5049 860.1701 2059.8789 1117706
1100.9349 851.0672 2038.0797 5065540
1120.9448 857.13348 2052.6069 5395018
1128.6526 853.76373 2044.5372 5329223
1137.7605 851.51337 2039.1483 5395016
1153.6722 854.34882 2045.9386 5591625
1169.351 856.95465 2052.1787 5525830
1182.9382 857.98993 2054.658 5460549
1195.3685 858.17334 2055.0972 5394243
1214.749 863.29248 2067.3562 5525572
1221.2034 859.2149 2057.5913 6643535
1223.7477 852.49402 2041.4967 7893087
1212.4662 836.36755 2002.8782 9077870
1224.0569 836.17822 2002.4248 10261629
1235.5042 835.89545 2001.7476 11643536
1243.9727 833.62207 1996.3033 12038293
1253.9054 832.36322 1993.2888 12104085
1268.9771 834.50757 1998.424 12235670
1282.7206 835.74677 2001.3916 12235670
1291.8906 834.01093 1997.2345 12367258
1309.8915 837.95569 2006.6812 12433052
1314.8717 833.57495 1996.1904 12564637
1328.8644 834.93481 1999.447 12038293
1341.6477 835.51764 2000.8428 12301209
1353.2345 835.35156 2000.4449 12169880
1357.3567 830.62048 1989.1154 12301466
1369.3492 830.74567 1989.415 12433052
1383.2985 832.04553 1992.528 12433052
1393.5725 831.13153 1990.3392 12433052
1402.7235 829.56873 1986.5967 12367259
1418.0576 831.65814 1991.6003 12169365
1430.2404 831.88019 1992.1321 12169108
1432.1553 826.17529 1978.4705 12498073
1438.0637 822.84808 1970.5027 12629659
1449.5084 822.7168 1970.1882 12563866
1468.2848 826.71576 1979.7645 12234901
1478.7452 826.00604 1978.0652 12629659
1477.3776 818.75244 1960.6947 12629658
1489.0657 818.79114 1960.7874 12629659
1504.118 820.66479 1965.274 12629658
1512.2014 818.73633 1960.6561 12498586
1520.7745 817.10046 1956.7386 12367257
1532.8848 817.37555 1957.3972 12367257
1543.4323 816.8194 1956.0654 12104085
1557.3478 818.04077 1958.9902 12301465
1570.5023 818.84717 1960.9214 12498845
0 0 0 0
0 0 0 0
0 0 0 0
0 0 0 0
0 0 0 0
0 0 0 0
0 0 0 0
0 0 0 0
0 0 0 0
0 0 0 0
0 0 0 0
0 0 0 0
0 0 0 0
845.13593 399.28943 956.19208 393216
849.88922 398.86118 955.16656 131072
855.60846 398.88885 955.23291 65536
858.97577 397.82697 952.68994 65536
866.52332 398.70236 954.78619 0
868.19086 396.87845 950.4184 0
956.33362 434.35388 1040.1621 0
961.96924 434.11569 1039.5918 0
884.21881 396.48972 949.48755 0
889.04169 396.13184 948.63049 512
894.46472 396.04416 948.42053 768
0 0 0 0
0 0 0 0
0 0 0 0
0 0 0 0
0 0 0 0
0 0 0 0
0 0 0 0
0 0 0 0
0 0 0 0
0 0 0 0
0 0 0 0
0 0 0 0
-6172.9346 2984.3872 7046.8218 768
-6055.2744 2947.4402 6959.5811 768
-6048.6187 2964.3887 6999.6011 768
-5945.0435 2933.7439 6927.2412 768
-5973.4219 2968.2417 7008.6987 768
-5934.2231 2969.408 7011.4521 768
-5962.7793 3004.7334 7094.8638 768
-5941.4277 3015.2327 7119.6548 768
-5863.5991 2997.0154 7076.6396 768
-5857.8657 3015.6504 7120.6411 768
-5849.3052 3033.0898 7161.8198 768
-5823.833 3041.9509 7182.7427 768
-5776.0864 3039.2222 7176.2998 768
-5687.3296 3014.7146 7118.4316 768
-5631.769 3007.5686 7101.5581 768
-5689.291 3061.1599 7228.0996 768
-5651.4512 3063.8647 7234.4863 768
-5607.3296 3063.1797 7232.8687 768
-5510.0601 3033.2266 7162.1426 768
-5489.9312 3045.6033 7191.3667 768
-5508.9419 3080.0564 7272.7188 768
-5411.1636 3049.241 7199.9561 768
-5356.0078 3042.1453 7183.2017 768
-5307.9497 3038.999 7175.7729 768
-5256.7314 3033.9783 7163.918 768
-5242.6665 3050.4939 7202.915 768
-5197.0898 3048.7949 7198.9028 768
-5146.7153 3044.2297 7188.1235 768
-5115.1094 3050.7822 7203.5957 768
-5084.9248 3058.3 7221.3472 768
-5077.1084 3079.5129 7271.4355 768
-5044.1108 3085.6846 7286.0078 768
-5002.7075 3086.7764 7288.5859 768
-4997.0854 3110.157 7343.793 768
-5008.1606 3144.4321 7424.7241 768
-4944.9463 3132.2576 7395.9775 768
-1533.4532 980.01447 2314.0386 768
-1518.9719 979.51807 2312.8665 768
-1502.3652 977.6297 2308.4077 768
-4979.3687 3269.9814 7721.1748 768
-1477.7722 979.4613 2312.7324 512
-1466.7981 981.28741 2317.0444 768
-1450.7524 979.72333 2313.3511 768
-1437.2975 979.89545 2313.7576 768
-1422.7196 979.29803 2312.3469 768
-1422.6705 988.78687 2334.7522 768
-4646.0205 3260.7937 7699.4805 768
-4581.8745 3247.6641 7668.4785 768
-4520.9883 3236.605 7642.3657 768
-4528.2505 3274.604 7732.0898 768
-4482.7246 3274.8157 7732.5903 512
-4410.5493 3255.3623 7686.6558 512
-4393.7485 3276.8003 7737.2764 65792
-4357.0161 3283.6689 7753.4951 65792
-4322.9565 3292.7205 7774.8672 131328
-4264.645 3283.2949 7752.6113 262144
-4180.2349 3253.3528 7681.9116 327936
-4189.8315 3296.7195 7784.3096 196608
-4127.7588 3284.0315 7754.3511 262144
-4074.8542 3278.4343 7741.1348 393216
-4035.0718 3283.3877 7752.8301 458752
-3974.0479 3270.9712 7723.5122 393216
-3944.2805 3284.292 7754.9653 458752
-1175.6774 990.49292 2338.7805 656128
-3877.1028 3305.3704 7804.7368 590336
-3822.6792 3298.3147 7788.0767 590080
-3785.3572 3306.0227 7806.2769 524800
-1118.386 988.84961 2334.9004 327680
-1105.2051 989.43542 2336.2837 327680
-1093.8754 991.71436 2341.6648 458752
-3675.9399 3375.4465 7970.2026 524288
-3618.521 3365.9658 7947.8159 589824
-3580.3916 3374.4148 7967.7661 458752
-1045.4874 998.50806 2357.7061 589824
-1030.3469 997.37524 2355.0315 655360
-3412.3184 3348.4727 7906.5107 655360
-3363.7217 3346.7339 7902.4048 655360
-3285.7034 3315.26 7828.0879 655360
-3217.3201 3292.7456 7774.9263 720896
-965.77448 1002.7746 2367.7805 983552
-3099.1565 3265.3254 7710.1816 655360
-3044.3157 3255.5356 7687.0654 655360
-2978.0078 3232.999 7633.8516 655360
-2906.2161 3203.7224 7564.7227 655360
-2824.3748 3162.2764 7466.8589 655360
-2758.2612 3137.4014 7408.1226 655360
-2679.7744 3097.4189 7313.7158 655360
-2611.8884 3068.5776 7245.6143 655360
-2551.6477 3047.9041 7196.7993 655360
-2482.033 3015.1401 7119.4365 655360
-2424.0056 2995.563 7073.2104 720896
-2378.1333 2990.582 7061.4492 720896
-2321.4827 2971.6262 7016.6904 720896
-2278.0251 2969.175 7010.9023 720896
-2228.1946 2958.1711 6984.9199 655360
-2186.2004 2957.3521 6982.9854 655360
-2143.2463 2955.1775 6977.8506 851968
-2099.4705 2951.762 6969.7861 655360
-2055.1533 2947.4333 6959.5649 720896
-2004.7424 2934.0085 6927.8662 720896
-1961.7936 2931.1724 6921.1689 720896
-1920.4211 2930.6201 6919.8652 720896
-1875.4696 2924.4629 6905.3267 720896
-1827.2192 2912.7727 6877.7231 720896
-1784.2008 2909.0793 6869.0029 720896
-1728.5587 2884.1506 6810.1401 720896
-1690.8798 2888.7188 6820.9268 720896
-1648.2513 2884.8477 6811.7861 720896
-1617.9098 2902.8271 6854.2397 720896
-1562.6023 2875.7859 6790.3892 720896
-1519.9117 2871.1484 6779.4395 720896
-1497.4785 2905.5652 6860.7051 720896
-1442.5757 2877.1436 6793.5947 720896
-1396.7494 2865.7124 6766.6035 720896
-1353.2795 2858.5833 6749.77 720896
-1329.9141 2894.7805 6835.2397 720896
-1271.8102 2855.2625 6741.9287 720896
-1235.9414 2864.719 6764.2573 720896
-1196.2654 2865.6887 6766.5479 720896
-1161.7489 2879.5149 6799.1938 720896
-384.30295 986.75391 2329.9519 720896
-1096.5327 2920.4226 6895.7866 720896
-357.06024 987.77502 2332.363 720896
-1010.4509 2907.8723 6866.1523 655360
-326.48407 978.97186 2311.5769 655360
-312.57498 978.30823 2310.0098 655360
-297.86023 974.94653 2302.072 655360
-283.6644 973.04242 2297.5759 655360
-269.8494 972.3183 2295.8662 655360
-256.16339 972.00684 2295.1309 655360
-242.52597 971.85522 2294.7727 720896
-228.70398 970.90198 2292.522 720896
-214.96515 970.20367 2290.873 720896
-201.00392 968.33997 2286.4724 720896
-187.46613 968.39392 2286.5999 720896
-173.57246 966.47504 2282.0688 720896
-160.00626 966.20905 2281.4409 720896
-146.20976 964.37524 2277.1108 720896
-132.75772 964.67133 2277.8098 720896
-118.54079 958.84753 2264.0586 720896
-105.36044 960.99188 2269.1221 720896
-92.106415 962.99341 2273.8479 720896
-78.522324 961.63849 2270.6487 720896
-65.03949 961.21997 2269.6604 720896
-51.43148 958.25073 2262.6494 720896
-38.110794 960.42853 2267.7917 720896
-24.468925 952.47626 2249.0146 655360
-11.132108 951.57849 2246.8948 851968
2.1883445 954.49982 2253.7927 851968
15.433744 947.79218 2237.9543 851968
28.756947 949.85406 2242.823 851968
41.830986 944.98376 2231.3232 720896
54.957493 943.35345 2227.4736 786432
67.991112 941.06897 2222.0793 720896
81.231773 941.92639 2224.104 720896
94.495049 942.77008 2226.0962 720896
107.6438 942.40436 2225.2327 720896
121.14516 944.8689 2231.0518 720896
134.03812 942.56982 2225.6233 720896
146.95216 940.81775 2221.4863 655360
159.98157 940.03174 2219.6301 786432
172.90178 938.77209 2216.656 851968
185.57442 936.4411 2211.1519 851968
198.42284 935.24603 2208.3301 851968
211.173 933.7644 2204.8315 851968
223.50233 930.70294 2197.6028 851968
234.1487 921.35626 2175.5332 786432
247.43495 922.83081 2179.0149 851968
261.43918 926.70392 2188.1602 851968
273.79523 924.64496 2183.2986 851968
286.24609 923.07745 2179.5974 851968
298.10883 919.83081 2171.9312 851968
310.01263 916.97412 2165.186 851968
322.41418 915.7583 2162.3152 851968
336.77032 919.97498 2172.2717 851968
349.10794 918.57013 2168.9543 851968
361.66815 917.82977 2167.2063 851968
373.513 915.38702 2161.4385 851968
383.57178 908.87421 2146.0601 851968
397.58435 911.84717 2153.0801 851968
408.21176 907.11285 2141.9014 851968
421.41455 908.21472 2144.5029 851968
431.18024 902.0611 2129.9729 851968
444.01349 902.49255 2130.9917 851968
455.92535 901.07922 2127.6545 851968
465.28378 894.8313 2112.9016 851968
480.03275 899.0061 2122.7593 851968
491.97952 897.8537 2120.0383 851968
498.7262 887.505 2095.6025 851968
514.13531 892.69971 2107.8684 851968
526.81317 893.01819 2108.6206 851968
539.23712 892.90155 2108.345 851968
552.43262 894.03876 2111.0303 851968
563.19 891.26721 2104.4861 786432
575.7738 891.44354 2104.9023 851968
585.37189 887.08771 2094.6172 851968
599.21185 889.20758 2099.6228 851968
607.57758 883.28296 2085.6333 851968
618.2962 880.94678 2080.1172 851968
630.24054 880.41431 2078.8599 851968
646.27777 885.51013 2090.8923 851968
653.17725 878.12958 2073.4651 786432
665.66486 878.39545 2074.0928 1048576
675.07153 874.65985 2065.2722 1114112
687.72662 875.19116 2066.5269 851968
699.23181 874.26624 2064.3428 786432
711.69165 874.54614 2065.0037 917504
723.07904 873.52094 2062.583 917504
735.28241 873.49939 2062.532 917504
748.18433 874.29456 2064.4097 917504
759.03931 872.71082 2060.6702 851968
771.14453 872.59198 2060.3894 917504
782.02887 871.11682 2056.9062 917504
793.52679 870.35992 2055.1191 851968
803.17206 867.62463 2048.6604 1179648
814.23303 866.47723 2045.9512 1245184
827.31079 867.47821 2048.3147 851968
839.73413 867.77405 2049.0132 1442304
850.55548 866.4295 2045.8386 1048576
860.3905 864.13226 2040.4141 917504
875.76538 867.38538 2048.0955 917504
887.12189 866.62402 2046.2979 1310720
898.89331 866.28314 2045.493 1508352
908.47192 863.86621 2039.7861 1114368
922.83563 866.00317 2044.8319 1179648
927.78625 859.36578 2029.1594 1837316
938.18182 857.87708 2025.6443 1508352
956.3775 863.46851 2038.8468 1245184
967.71161 862.80243 2037.2743 1311232
979.56287 862.6084 2036.816 1376768
991.69421 862.66272 2036.9442 1245440
1003.1798 862.16077 2035.7589 1114112
1012.2759 859.64142 2029.8103 1574402
1029.0519 863.62665 2039.2202 1968899
1035.2471 858.74255 2027.6877 1048576
1047.375 858.83521 2027.9066 983296
1059.4679 858.8974 2028.0535 720896
1071.4902 858.90161 2028.0635 393216
1080.5094 856.52521 2022.4521 394241
1083.6941 849.62659 2006.163 3881009
1093.1287 847.72443 2001.6715 5197637
1095.6464 840.55664 1984.7468 5329221
1112.0366 844.07086 1993.0446 5263430
1137.2388 854.12939 2016.7953 5591368
1147.4508 852.8374 2013.7445 5657672
1160.8711 853.93201 2016.3291 5394245
1172.3232 853.57141 2015.4775 5394500
1183.7832 853.22357 2014.6562 5526086
1194.4203 852.29541 2012.4647 5723464
1206.6366 852.50153 2012.9514 5657670
1215.0396 850.03583 2007.1292 6183756
1220.3988 845.50897 1996.4404 6512719
1227.8064 842.47479 1989.2759 8156772
1233.936 838.6297 1980.1968 9999230
1248.9327 840.82654 1985.384 11051917
1254.8115 836.90131 1976.1156 11644564
1266.1322 836.64447 1975.5093 11906966
1276.5045 835.77148 1973.4479 12367260
1295.1737 840.2973 1984.1344 12301467
1299.754 835.68311 1973.2393 12367258
1312.5011 836.35535 1974.8264 12433052
1327.6873 838.55609 1980.0229 12301209
1331.4026 833.53687 1968.1715 12235673
1346.4121 835.61432 1973.0768 11906708
1353.6924 832.90039 1966.6685 12301466
1364.8883 832.62134 1966.0096 12498844
1379.7504 834.56458 1970.5981 12433051
1381.8297 828.80823 1957.0061 12433052
1388.9524 826.14746 1950.7233 12564638
1404.9209 828.74872 1956.8655 12564893
1410.1528 825.02582 1948.0748 12695451
1420.8494 824.53455 1946.9148 12695451
1430.6293 823.5235 1944.5276 12761244
1445.3384 825.34332 1948.8247 12629659
1450.8619 821.93066 1940.7667 12629658
1460.0576 820.63562 1937.7087 12760988
1471.8344 820.80023 1938.0973 12761245
1484.9407 821.69781 1940.2168 12695452
1495.7335 821.31146 1939.3046 12761245
1504.5508 819.85449 1935.8641 12498842
1509.6826 816.42639 1927.7697 12367256
1527.8076 820.02362 1936.2637 12433050
1543.911 822.4903 1942.088 12301464
1540.4744 814.58789 1923.4287 12367258
1550.7406 813.99438 1922.0271 12367259
0 0 0 0
0 0 0 0
0 0 0 0
0 0 0 0
0 0 0 0
0 0 0 0
0 0 0 0
0 0 0 0
0 0 0 0
0 0 0 0
0 0 0 0
0 0 0 0
847.07013 405.88205 958.38049 196608
851.08014 405.08777 956.50494 196608
854.35718 403.9574 953.83594 65536
859.63495 403.78171 953.42108 65536
867.76239 404.93805 956.15155 0
869.47882 403.10715 951.82831 0
875.46381 403.26611 952.20367 0
878.77258 402.19815 949.68195 0
884.66052 402.31668 949.96179 256
888.75513 401.62335 948.32477 512
894.18762 401.53952 948.12671 1024
0 0 0 0
0 0 0 0
0 0 0 0
0 0 0 0
0 0 0 0
0 0 0 0
0 0 0 0
0 0 0 0
0 0 0 0
0 0 0 0
0 0 0 0
0 0 0 0
-6061.1602 2971.3477 6919.2236 768
-5950.6792 2937.0537 6839.3652 768
-5701.0879 2833.1584 6597.4302 768
-5748.8511 2876.6196 6698.6357 768
-5726.1592 2885.1853 6718.582 768
-5701.5786 2892.9126 6736.5767 768
-5766.4468 2946.4543 6861.2559 768
-5733.7729 2950.5615 6870.8203 768
-5725.3413 2967.2917 6909.7793 768
-5740.2739 2996.4592 6977.7002 768
-5726.4272 3010.9182 7011.3696 768
-5689.2705 3013.2424 7016.7822 768
-5659.0039 3019.2773 7030.835 768
-5576.5254 2997.3376 6979.7456 768
-5499.8335 2978.2043 6935.1904 768
-5472.5327 2985.7292 6952.7139 768
-5523.4897 3036.3887 7070.6816 768
-5500.229 3046.7117 7094.7202 768
-5403.5713 3016.2241 7023.7251 768
-5348.5854 3008.7046 7006.2148 768
-5312.7158 3011.905 7013.6675 768
-5298.6758 3027.6287 7050.2827 768
-5236.5142 3015.8879 7022.9424 768
-5186.5435 3011.0364 7011.645 768
-5187.644 3035.9954 7069.7656 768
-5148.2334 3037.4585 7073.1729 768
-5111.249 3040.3894 7079.9976 768
-5077.3257 3045.2046 7091.2109 768
-5029.4858 3041.6841 7083.0127 768
-5030.5522 3067.9299 7144.1299 768
-4998.7505 3074.406 7159.2109 768
-4929.2793 3057.6272 7120.1387 768
-4916.1758 3075.825 7162.5151 768
-4881.144 3080.501 7173.4033 768
-4903.7588 3121.9592 7269.9458 768
-4848.5366 3114.1589 7251.7808 768
-1516.8025 982.93591 2288.9121 768
-1503.1371 982.86865 2288.7556 768
-1493.15 985.22742 2294.2483 768
-1474.2675 981.70599 2286.0481 768
-1461.2432 982.05652 2286.8643 768
-1454.7473 986.8421 2298.0083 768
-1441.5529 987.13129 2298.6816 768
-4651.2725 3215.4299 7487.606 768
-1414.8674 987.51917 2299.585 1024
-4590.6216 3235.2219 7533.6938 768
-4572.8252 3254.3254 7578.1797 768
-4523.0073 3250.7937 7569.9556 768
-4468.978 3244.1335 7554.4468 768
-4429.1572 3247.7578 7562.8862 768
-4325.4351 3204.1201 7461.2695 512
-4239.0151 3172.5308 7387.7085 512
-4243.7568 3209.2197 7473.1445 65792
-4213.1753 3219.6895 7497.5244 65536
-4166.0723 3217.6216 7492.7095 196608
-4123.1924 3218.8059 7495.4673 393728
-4082.2827 3221.5715 7501.9072 262144
-4055.498 3235.667 7534.731 327680
-3989.6406 3218.5557 7494.8843 393216
-3955.8743 3227.2388 7515.105 458752
-3943.25 3253.564 7576.4067 393216
-3859.4075 3221.0571 7500.7095 393216
-3813.4973 3219.8198 7497.8286 458752
-3813.658 3257.9106 7586.5283 524544
-3776.3018 3264.4778 7601.8208 393216
-3737.0718 3269.5647 7613.6665 327680
-3684.447 3262.9131 7598.1772 393216
-3650.313 3272.6748 7620.9087 458752
-1093.3392 992.50726 2311.2004 524288
-3629.063 3336.1643 7768.7539 524288
-3581.4856 3334.7268 7765.4058 524288
-3528.1956 3327.863 7749.4224 524288
-3472.1392 3318.1746 7726.8613 524288
-3411.6829 3303.9661 7693.7754 458752
-3349.1321 3287.3171 7655.0059 524288
-3294.5845 3278.1741 7633.7148 458752
-3229.7642 3258.4131 7587.6987 589824
-3156.1404 3229.0869 7519.4077 655360
-3097.825 3214.8074 7486.1562 720896
-3036.9353 3197.4031 7445.627 655360
-2965.9309 3168.679 7378.7388 589824
-2943.5747 3191.8464 7432.6885 655360
-2838.8364 3125.0308 7277.0981 655360
-2773 3099.6384 7217.9683 655360
-2707.854 3074.2344 7158.8105 655360
-2641.8909 3047.0789 7095.5752 655360
-2580.5015 3024.406 7042.7778 655360
-2518.8403 3000.6638 6987.4907 655360
-2448.9028 2966.1038 6907.0127 655360
-2396.4905 2951.9561 6874.0674 655360
-2333.707 2924.323 6809.7202 720896
-2280.6699 2908.1458 6772.0488 720896
-2255.8196 2927.9749 6818.2236 720896
-2187.9558 2891.6785 6733.7021 720896
-2142.2671 2883.8857 6715.5557 720896
-2101.5693 2882.6436 6712.6636 720896
-2055.373 2873.666 6691.7578 720896
-2011.0592 2867.0193 6676.2798 720896
-1969.0024 2863.3879 6667.8237 720896
-1931.4415 2866.2798 6674.5576 720896
-1884.9691 2855.7913 6650.1333 720896
-1846.7114 2857.5659 6654.2666 720896
-1805.9768 2855.5022 6649.4604 720896
-1759.6902 2844.3713 6623.541 720896
-1721.7025 2846.4536 6628.3896 720896
-1678.4541 2839.7327 6612.7388 720896
-1630.5718 2824.6631 6577.6475 720896
-1592.7461 2826.7031 6582.3975 720896
-1553.1106 2825.5532 6579.7197 720896
-1512.5503 2822.6179 6572.8848 720896
-1470.2695 2816.2322 6558.0146 720896
-1427.7615 2809.053 6541.2964 720896
-1385.9194 2802.8193 6526.7808 720896
-1341.5011 2790.8684 6498.9512 720896
-1313.0568 2812.4255 6549.1504 720896
-1268.9858 2800.8062 6522.0923 720896
-1232.4729 2805.6619 6533.3999 720896
-1198.3112 2816.3586 6558.3091 720896
-1160.9613 2820.0283 6566.854 720896
-1120.5439 2816.2432 6558.04 720896
-1085.7874 2826.9241 6582.9121 720896
-1047.405 2828.6094 6586.8364 720896
-1006.5859 2823.5896 6575.1475 720896
-964.633 2814.8572 6554.8125 655360
-924.47125 2810.8384 6545.4541 655360
-885.29785 2809.604 6542.5796 655360
-846.61194 2809.874 6543.209 720896
-798.50775 2777.4116 6467.6152 720896
-757.38928 2767.1987 6443.833 720896
-255.43301 982.79639 2288.5872 720896
-241.72949 982.21643 2287.2366 655360
-227.55008 979.51898 2280.9553 720896
-213.45042 976.84595 2274.7307 720896
-199.82437 976.12622 2273.0547 720896
-185.8718 973.59198 2267.1533 720896
-171.75165 969.7168 2258.1294 720896
-158.41556 969.98761 2258.76 720896
-144.88936 969.03693 2256.5464 720896
-130.88506 964.3703 2245.6794 720896
-117.66689 965.09528 2247.3674 720896
-104.58317 967.2486 2252.3818 720896
-90.485611 959.28381 2233.8347 720896
-77.261375 959.43445 2234.1855 720896
-64.235031 962.61304 2241.5874 720896
-50.794353 959.62103 2234.6199 720896
-37.637016 961.7594 2239.5996 720896
-24.22275 956.08594 2226.3879 655360
-11.023578 955.48529 2224.9893 851968
2.1631517 956.7124 2227.8467 851968
15.315813 953.70947 2220.854 851968
28.507677 954.79504 2223.3818 851968
41.526062 951.22052 2215.0581 720896
54.650078 951.20154 2215.0139 720896
67.703613 950.20062 2212.6831 720896
80.769371 949.66827 2211.4436 720896
93.842834 949.36249 2210.7314 851968
106.96852 949.59521 2211.2734 720896
120.07446 949.62097 2211.3333 720896
132.81758 947.0545 2205.3569 655360
145.36894 943.70319 2197.5527 851968
157.68893 939.52411 2187.8213 851968
170.88458 940.80109 2190.7949 851968
182.87602 935.73596 2179 851968
195.50436 934.38287 2175.8491 851968
208.15526 933.29834 2173.3237 851968
219.82188 928.18414 2161.4146 851968
232.6179 928.13934 2161.3103 851968
245.81662 929.62219 2164.7632 851968
259.19388 931.59961 2169.3679 851968
271.68262 930.34747 2166.4521 851968
284.42123 930.02545 2165.7024 851968
296.14084 926.54291 2157.5928 851968
307.77002 923.07758 2149.5232 851968
318.05246 916.00891 2133.0627 851968
333.81418 924.65808 2153.2036 851968
344.97379 920.39197 2143.2693 851968
356.14566 916.46039 2134.114 851968
367.43112 913.08069 2126.2439 851968
377.87473 907.90247 2114.1855 851968
390.96124 909.2027 2117.2134 851968
403.37186 908.89911 2116.5063 917504
415.99216 909.07208 2116.9092 851968
426.7627 905.31091 2108.1509 851968
438.92776 904.63782 2106.5835 786432
451.52139 904.86084 2107.1028 851968
461.78406 900.52612 2097.0088 851968
474.41876 900.92334 2097.9336 851968
487.2905 901.73865 2099.8323 851968
491.16574 886.27991 2063.8342 917504
507.22891 893.03021 2079.5535 851968
520.82239 895.21539 2084.6418 851968
532.35529 893.83954 2081.438 851968
543.32129 891.5957 2076.2129 851968
554.39905 889.63055 2071.6367 851968
567.07178 890.25446 2073.0896 851968
577.65747 887.64496 2067.0129 851968
590.45386 888.47034 2068.9351 851968
600.16425 884.71301 2060.1855 851968
611.59576 883.59192 2057.575 851968
623.82153 883.63995 2057.6868 851968
635.89417 883.47314 2057.2983 851968
646.43561 881.22546 2052.0642 851968
658.7829 881.47699 2052.6499 786432
671.61145 882.35162 2054.6868 1245696
685.58807 884.67664 2060.1008 786432
694.75452 880.8219 2051.1245 851968
705.61346 879.20856 2047.3676 851968
718.35443 879.9552 2049.1062 851968
732.50562 882.37573 2054.7427 1179648
740.69629 877.65436 2043.7485 786432
750.32587 874.76257 2037.0145 1048576
762.52203 874.90723 2037.3513 851968
775.09961 875.47809 2038.6807 851968
786.17139 874.35681 2036.0695 1048576
797.21637 873.24005 2033.4691 983040
810.37219 874.4342 2036.2499 917504
819.00244 870.78174 2027.7444 917504
830.48438 870.2229 2026.4432 983040
842.49194 870.2229 2026.4432 1310976
852.97961 868.67517 2022.8391 983040
865.05908 868.76898 2023.0575 1048576
875.28156 867.02057 2018.9862 917504
886.60913 866.39935 2017.5396 1114112
900.16388 867.94208 2021.132 1442816
912.34509 868.13733 2021.5867 1245184
923.09515 866.98346 2018.8997 1574144
932.95386 865.03253 2014.3566 1114112
944.32715 864.51758 2013.1573 1245184
956.57471 864.80566 2013.8284 1310976
967.75537 864.13416 2012.2646 1310976
980.65436 864.99463 2014.2683 1179648
991.90601 864.3988 2012.8809 917504
1003.1223 863.78662 2011.4553 917504
1017.7195 866.06616 2016.7634 983040
1030.2 866.51215 2017.802 1114112
1037.7439 862.84344 2009.259 720896
1048.0726 861.54712 2006.2404 458752
1058.9362 860.7146 2004.3016 393216
1073.4492 862.83411 2009.2373 196864
1075.5464 855.03662 1991.0797 2630685
1066.636 838.75256 1953.1598 5066053
1087.1232 845.68677 1969.3071 5197639
1106.0046 851.23792 1982.2339 5000515
1122.0935 854.54559 1989.9363 5328710
2902.5808 2187.5134 5093.9497 5394501
1141.5519 851.46967 1982.7734 5460293
1158.9036 855.6062 1992.4061 5328706
1166.5422 852.56073 1985.3142 5262914
1181.9825 855.22089 1991.5087 5328706
1198.6449 858.70386 1999.6193 5394500
1203.2721 853.58112 1987.6904 5656902
1220.9805 857.74744 1997.3921 5722951
1232.3468 857.42108 1996.6322 5986379
1238.542 853.53723 1987.5881 6775122
1245.9443 850.55078 1980.6335 7959395
1254.1536 848.16559 1975.0793 9538166
1264.976 847.57544 1973.7052 10722695
1271.7687 844.32086 1966.1263 11249037
1285.6506 845.78912 1969.5454 11906711
1291.2678 841.84283 1960.3558 11972501
1298.306 838.88495 1953.4681 12104086
1312.6489 840.65753 1957.5958 12367259
1323.0692 839.90894 1955.8525 12367259
1335.1876 840.242 1956.6282 12235673
1344.0442 838.53424 1952.6514 12433051
1349.4178 834.70123 1943.7257 11577743
1362.8716 835.88892 1946.4913 12367259
1366.6577 831.17694 1935.5187 12301465
1377.6337 830.8797 1934.8267 12169880
1389.699 831.23901 1935.6633 12433052
1389.7905 824.48907 1919.9451 12498845
1401.3738 824.61072 1920.2284 12498845
1414.0476 825.36694 1921.9895 12564637
1425.703 825.52148 1922.3494 12564893
1431.9886 822.58899 1915.5205 12695452
1442.2163 821.94922 1914.0306 12761245
1450.1409 820.01709 1909.5314 12827038
1461.7521 820.18341 1909.9188 12761245
1472.0371 819.60876 1908.5807 12892574
1485.2168 820.6424 1910.9875 12564636
1493.2914 818.8609 1906.8391 12498843
1503.6514 818.34998 1905.6493 12498845
1527.3557 825.05505 1921.2632 12433052
1533.2441 822.10828 1914.401 12235673
1535.1449 817.08234 1902.6974 11775379
0 0 0 0
0 0 0 0
0 0 0 0
0 0 0 0
0 0 0 0
0 0 0 0
0 0 0 0
0 0 0 0
0 0 0 0
0 0 0 0
0 0 0 0
0 0 0 0
846.78467 411.42215 958.05756 196608
851.56427 410.98911 957.04907 196608
852.73297 408.83057 952.02264 131072
856.20276 407.79642 949.61444 65536
861.13049 407.46558 948.84406 0
868.31476 408.19989 950.55402 0
872.13013 407.35123 948.57776 0
878.69 407.78705 949.59271 0
884.12872 407.70035 949.39075 256
889.40173 407.53885 949.01471 512
895.50763 407.75854 949.52631 512
0 0 0 0
0 0 0 0
0 0 0 0
0 0 0 0
0 0 0 0
0 0 0 0
0 0 0 0
0 0 0 0
0 0 0 0
0 0 0 0
0 0 0 0
0 0 0 0
-1913.3385 950.91345 2184.2051 768
-5812.5435 2908.46 6680.6001 768
-5750.8579 2897.3257 6655.0254 768
-5628.1787 2855.0962 6558.0264 768
-1869.1544 954.78802 2193.1047 768
-5572.2876 2866.3237 6583.8154 768
-5550.313 2875.1492 6604.0869 768
-5522.8965 2881.261 6618.1255 768
-5523.1797 2902.0144 6665.7954 768
-5538.6396 2931.0981 6732.5996 768
-5521.6821 2943.3242 6760.6821 768
-5478.2832 2941.5312 6756.5635 768
-5474.123 2960.936 6801.1357 768
-5447.2236 2968.2378 6817.9077 768
-5409.7285 2969.832 6821.5693 768
-5381.812 2976.748 6837.4551 768
-5371.3545 2993.4993 6875.9316 768
-5338.8696 2998.1365 6886.583 768
-5279.0991 2987.4045 6861.9326 768
-5184.915 2956.8804 6791.8198 768
-5169.6235 2971.2219 6824.7617 768
-5156.6235 2987.1167 6861.2715 768
-5118.2642 2988.4575 6864.3516 768
-5065.4775 2981.3286 6847.9766 768
-5079.7891 3013.8948 6922.7793 768
-5042.8481 3016.335 6928.3843 768
-5002.7856 3016.9324 6929.7568 768
-4973.1641 3023.8884 6945.7344 768
-4942.0239 3030.0295 6959.8403 768
-4946.2515 3058.1409 7024.4106 768
-4903.4399 3057.3997 7022.708 768
-4883.4014 3070.9663 7053.8701 768
-4845.4199 3073.3862 7059.4287 768
-4848.5508 3102.1526 7125.5039 768
-4827.8018 3116.0117 7157.3374 768
-4787.3911 3117.3137 7160.3281 768
-4769.6963 3133.5627 7197.6514 768
-4757.0234 3153.4338 7243.2944 768
-4738.8687 3169.9998 7281.3457 768
-4717.6479 3184.8003 7315.3423 768
-4698.1948 3201.0796 7352.7349 768
-4661.6128 3205.884 7363.77 768
-4650.8076 3228.6738 7416.1177 768
-4571.7974 3204.0977 7359.667 768
-4561.9902 3228.0154 7414.605 768
-4493.9766 3210.8118 7375.0889 768
-4419.4814 3188.5938 7324.0552 768
-4367.6606 3182.4565 7309.9585 768
-4330.2173 3186.7773 7319.8828 768
-4286.0698 3186.2017 7318.5605 768
-4198.9453 3153.3398 7243.0781 512
-4193.5117 3181.7803 7308.4048 512
-4147.5928 3179.7764 7303.8022 256
-4096.9858 3174.0986 7290.7607 196608
-4072.0947 3188.4348 7323.6904 262144
-4032.4077 3191.3701 7330.4321 458752
-3988.0337 3190.6196 7328.708 393216
-3949.6445 3194.6931 7338.0654 393216
-3879.4893 3172.8774 7287.9556 393216
-3847.3374 3182.0017 7308.9136 393216
-3804.0293 3182.0017 7308.9136 393216
-3753.3086 3175.73 7294.5078 524544
-3722.5161 3186.3704 7318.9478 458752
-3701.2021 3205.47 7362.8188 393216
-3666.6204 3213.3979 7381.0288 393216
-3680.7324 3264.707 7498.8838 393216
-3612.6304 3243.4575 7450.0747 393216
-3537.3718 3215.1777 7385.1172 458752
-1080.7611 994.6264 2284.6118 458752
-3474.7266 3238.3601 7438.3657 458752
-3430.6511 3238.3601 7438.3657 458752
-3431.8237 3281.6274 7537.749 458752
-3346.8572 3242.5808 7448.0605 458752
-3296.0879 3236.0652 7433.0947 655360
-3234.1531 3218.262 7392.2017 524288
-3171.6289 3199.3757 7348.8213 524288
-3111.5242 3182.4387 7309.917 524288
-3049.021 3162.5349 7264.1992 524288
-2980.7219 3135.9639 7203.167 524288
-2920.6111 3117.3608 7160.436 655360
-2863.5178 3101.4773 7123.9521 655360
-2812.2422 3091.5137 7101.0664 655360
-2754.2527 3073.7549 7060.2754 655360
-2697.3496 3056.6794 7021.0542 655360
-2637.9019 3036.1406 6973.877 655360
-2568.2329 3002.9958 6897.7451 655360
-2499.9702 2970.4504 6822.9897 655360
-2446.311 2954.4722 6786.2881 589824
-2377.0466 2918.7976 6704.3457 655360
-2310.2634 2885.0088 6626.7344 655360
-2271.2717 2885.3574 6627.5352 720896
-2194.4436 2836.8062 6516.0151 720896
-2182.311 2871.647 6596.043 720896
-2132.1562 2856.8142 6561.9727 720896
-2087.0288 2848.291 6542.395 720896
-2048.9758 2849.283 6544.6733 720896
-2007.9526 2846.1033 6537.3701 720896
-1970.3414 2847.7295 6541.1055 720896
-1919.3069 2829.6313 6499.5347 720896
-1878.3264 2825.918 6491.0054 720896
-1832.0792 2813.9602 6463.5391 720896
-1782.3702 2796.0613 6422.4258 720896
-1745.0677 2797.2683 6425.1982 720896
-1703.3374 2791.2729 6411.4272 720896
-1661.0732 2784.1096 6394.9731 720896
-1617.1582 2773.78 6371.2471 720896
-1574.8993 2765.8655 6353.0674 720896
-1534.4395 2760.8 6341.4321 720896
-1495.48 2758.2473 6335.5688 720896
-1455.0939 2752.8643 6323.2046 720896
-1417.0459 2751.7371 6320.6152 720896
-1379.5938 2751.7371 6320.6152 720896
-1339.2211 2745.7493 6306.8613 720896
-1299.5731 2740.9465 6295.8296 720896
-1264.542 2745.8845 6307.1724 720896
-1222.1139 2734.5725 6281.189 655360
-1191.4026 2749.5901 6315.6836 720896
-1149.7563 2739.5278 6292.5708 720896
-1111.139 2736.249 6285.0396 720896
-1071.2716 2729.5581 6269.6709 720896
-1034.8092 2731.3738 6273.8418 720896
-1000.3216 2738.7314 6290.7417 720896
-961.44391 2734.1741 6280.2739 720896
-920.83154 2724.1184 6257.1763 720896
-886.97272 2734.0359 6279.9561 720896
-847.4126 2726.4788 6262.5977 720896
-294.79071 991.89972 2278.3486 720896
-769.32935 2712.8445 6231.2808 720896
-725.69623 2687.9897 6174.1904 720896
-687.58594 2682.0383 6160.5205 720896
-239.76765 987.68762 2268.6736 720896
-224.53987 979.89801 2250.7812 720896
-211.20309 979.89801 2250.7812 720896
-197.82886 979.71259 2250.3552 720896
-184.27065 978.52332 2247.6235 720896
-170.09148 973.5943 2236.302 720896
-156.74835 973.0224 2234.9883 720896
-143.42834 972.50171 2233.7922 720896
-129.92683 970.51923 2229.2385 720896
-116.72272 970.56097 2229.3345 720896
-103.50371 970.47363 2229.134 720896
-89.942368 966.68152 2220.4236 720896
-76.709648 965.72705 2218.2312 720896
-63.700733 967.77795 2222.9421 720896
-50.432701 965.93536 2218.7097 720896
-37.255943 965.15771 2216.9236 720896
-24.086262 963.81665 2213.843 655360
-10.97333 964.25372 2214.8472 851968
2.1474555 962.87537 2211.6809 851968
15.23312 961.6485 2208.863 851968
28.142729 955.57776 2194.9187 851968
41.130814 955.16693 2193.9751 720896
54.03754 953.51776 2190.187 720896
66.938141 952.42023 2187.666 720896
79.840912 951.70465 2186.0225 720896
92.652153 950.25024 2182.6816 720896
106.10003 954.88171 2193.3198 720896
118.33029 948.73975 2179.2122 720896
130.99501 946.94696 2175.0942 655360
143.38013 943.63538 2167.4875 851968
156.15742 943.23706 2166.5728 851968
168.86111 942.48846 2164.8533 851968
181.49409 941.47882 2162.5342 851968
194.37204 941.78925 2163.2471 786432
205.73555 935.17731 2148.0598 786432
217.42859 930.74646 2137.8823 983040
229.09183 926.68292 2128.5486 720896
242.07501 928.10406 2131.813 851968
256.18768 933.49988 2144.2068 851968
268.71161 932.8703 2142.7607 851968
281.39954 932.84113 2142.6938 851968
291.51389 924.65143 2123.8823 851968
302.69525 920.38391 2114.0801 851968
315.13681 920.13507 2113.5085 851968
327.93445 920.90527 2115.2776 851968
340.14377 920.0274 2113.2612 851968
352.76562 920.28821 2113.8601 851968
364.55148 918.42487 2109.5801 851968
377.04004 918.39661 2109.5154 851968
388.3772 915.65576 2103.2197 851968
398.31915 909.89807 2089.9946 851968
409.99863 908.3371 2086.4092 851968
422.78625 909.25067 2088.5076 851968
435.26718 909.47156 2089.0149 851968
444.67615 903.43896 2075.1582 851968
454.94284 899.4267 2065.9424 851968
465.56635 896.31158 2058.7871 851968
477.62311 896.04449 2058.1736 851968
489.75885 895.93518 2057.9224 851968
502.62418 897.13348 2060.6748 851968
515.57843 898.42975 2063.6523 851968
526.30475 895.8736 2057.781 851968
538.2583 895.47504 2056.8655 851968
550.57007 895.67676 2057.3289 851968
562.46741 895.21014 2056.2571 851968
573.95117 894.11914 2053.751 851968
586.172 894.19769 2053.9316 786432
597.42474 892.82648 2050.7817 851968
606.08514 887.71277 2039.0358 851968
612.6712 879.82019 2020.907 851968
623.92596 878.80621 2018.5779 917504
639.99261 884.48041 2031.6113 851968
650.02588 881.76086 2025.3647 851968
662.02704 881.76086 2025.3647 1179904
673.18658 880.66003 2022.8361 1179904
685.54932 881.14404 2023.948 786432
696.29913 879.57404 2020.3417 851968
708.52264 879.88721 2021.061 917504
718.51587 877.46631 2015.5002 851968
729.73712 876.59967 2013.5096 851968
741.10529 875.93469 2011.9822 851968
753.04578 875.95636 2012.0321 917504
763.14185 873.86536 2007.2291 851968
775.65912 874.56854 2008.8442 851968
787.18402 874.1485 2007.8794 851968
800.39612 875.58661 2011.1827 786432
809.53882 872.59613 2004.3137 851968
820.31964 871.43225 2001.6404 1179904
832.18018 871.43225 2001.6404 851968
843.60907 870.98669 2000.6169 917504
854.96204 870.47614 1999.4441 917504
870.01141 873.69159 2006.8298 1048576
876.83417 868.67017 1995.2959 786432
891.37769 871.32959 2001.4045 851968
899.75873 867.97437 1993.6978 786432
912.35742 868.72211 1995.4152 1377280
922.96765 867.58148 1992.7952 983040
934.11298 866.96631 1991.3823 1179648
942.83313 864.14374 1984.8989 1508352
956.9704 866.29462 1989.8394 1310976
969.66644 867.10419 1991.699 2034435
984.53851 869.81689 1997.9299 1179904
993.70532 867.48456 1992.5726 1114368
1004.6641 866.75305 1990.8923 1114112
1014.9916 865.50006 1988.0143 1114112
1025.8135 864.69263 1986.1597 851968
1035.9454 863.32849 1983.0264 720896
1050.304 865.47784 1987.9633 458752
1063.1989 866.38678 1990.051 262144
1070.1456 862.48181 1981.0817 1709840
1052.9463 839.41229 1928.0919 5066053
1074.2543 847.20673 1945.9954 5066053
2771.187 2162.2771 4966.6523 5066051
2816.1641 2174.281 4994.2246 5131844
1119.3466 855.22913 1964.4225 5132100
1131.8248 855.86298 1965.8784 5197380
1148.8728 859.9043 1975.161 5394500
1156.4039 856.81268 1968.0598 5262914
1167.1219 856.12054 1966.4701 5065535
1178.8818 856.19897 1966.65 5131328
1190.7188 856.33099 1966.9534 5262914
1203.6484 857.23889 1969.0387 5328707
1215.0991 857.086 1968.6877 5526087
1222.8551 854.3548 1962.4142 5526085
1237.0857 856.15588 1966.5513 6051660
1246.2061 854.41974 1962.5635 6380364
1261.2738 856.75555 1967.9287 7564636
1271.6864 855.91553 1965.9993 8814699
1284.0762 856.40942 1967.1335 9801847
1288.8252 851.84424 1956.6475 10985351
1291.7463 846.16309 1943.5981 11643281
1300.4966 844.36707 1939.4727 11972502
1311.0026 843.73236 1938.0149 12235673
1319.7025 841.95654 1933.9358 12301465
1328.282 840.13489 1929.7517 12301466
1335.2249 837.31812 1923.2817 12235673
1343.1057 835.13239 1918.2611 12433052
1354.4919 835.14459 1918.2892 12367259
1363.2323 833.53876 1914.6007 12301466
1367.1936 829.06146 1904.3165 12301466
1372.1481 825.25464 1895.5725 12433051
1385.8544 826.73071 1898.963 12433052
1396.871 826.59137 1898.6428 12367259
1412.5601 829.19708 1904.6281 12564637
1410.3341 821.32831 1886.554 12433052
1416.2307 818.27649 1879.5439 12564638
1423.7216 816.18628 1874.7428 12630172
1436.9308 817.38116 1877.4874 12695709
1450.3662 818.68542 1880.4832 12827038
1463.2289 819.64886 1882.6963 12630428
1478.3115 821.83197 1887.7107 12564637
1484.8193 819.2511 1881.7826 12564636
1502.2061 822.66638 1889.6273 12433049
1502.4232 816.698 1875.9182 12301464
1516.8872 818.50482 1880.0684 12367769
0 0 0 0
0 0 0 0
0 0 0 0
0 0 0 0
0 0 0 0
0 0 0 0
0 0 0 0
0 0 0 0
0 0 0 0
0 0 0 0
0 0 0 0
0 0 0 0
848.21936 417.80573 959.68073 196608
852.05524 416.90018 957.60083 131072
855.8089 415.96677 955.45673 0
861.11621 415.79575 955.06396 65536
865.466 415.16766 953.62122 0
869.29901 414.30139 951.63153 0
874.18329 413.94412 950.81085 0
878.92621 413.52493 949.84796 0
885.37646 413.90915 950.73059 256
889.00208 412.97647 948.5882 512
895.6662 413.45813 949.69452 768
907.74792 416.41898 956.49554 1974299
0 0 0 0
0 0 0 0
0 0 0 0
0 0 0 0
0 0 0 0
0 0 0 0
0 0 0 0
0 0 0 0
0 0 0 0
0 0 0 0
0 0 0 0
-1901.9293 958.10828 2171.1807 768
-1880.6132 953.82214 2161.4678 768
-1869.3331 954.60217 2163.2354 768
-1862.269 957.56079 2169.9399 768
-1847.3566 956.49695 2167.5291 768
-1844.4091 961.65656 2179.2214 768
-5455.5054 2864.5007 6491.2793 768
-5416.6953 2864.3174 6490.8638 768
-5378.5542 2864.4878 6491.25 768
-5400.7495 2897.0259 6564.9849 768
-5366.2061 2899.3796 6570.3188 768
-5330.2026 2900.9736 6573.9312 768
-5332.4463 2923.5601 6625.1143 768
-5305.6055 2930.4175 6640.6543 768
-5273.9141 2934.6782 6650.3096 768
-5239.2251 2937.3228 6656.3022 768
-5204.6299 2940.0603 6662.5059 768
-5173.4976 2944.8108 6673.271 768
-5123.5356 2938.8337 6659.7261 768
-5098.8174 2947.3562 6679.0391 768
-5046.7861 2940.1001 6662.5962 768
-5030.0864 2953.4749 6692.9048 768
-5006.0771 2962.7363 6713.8921 768
-4929.3203 2940.6787 6663.9072 768
-4908.8354 2952.106 6689.8027 768
-4969.5645 3012.9578 6827.6997 768
-4902.8374 2996.8997 6791.3101 768
-4865.0962 2998.4407 6794.8022 768
-4871.2573 3027.2905 6860.1797 768
-4850.0557 3039.4785 6887.7983 768
-4822.7612 3048.022 6907.1592 768
-4801.7949 3060.7461 6935.9932 768
-4778.3311 3072.0837 6961.6855 768
-4763.9976 3089.54 7001.2437 768
-4745.291 3104.4417 7035.0127 768
