# .PCD v0.7 - Point Cloud Data file format
VERSION 0.7
FIELDS x y z rgb
SIZE 4 4 4 4
TYPE F F F U
COUNT 1 1 1 1
WIDTH 1311
HEIGHT 1
VIEWPOINT 0 0 0 1 0 0 0
POINTS 1311
DATA ascii
5732.3242 1105.4594 9112.4727 7620640
5798.7871 1107.8413 9132.1074 8278823
5821.8638 1101.967 9083.6846 9003054
5783.5186 1084.6809 8941.1924 12424287
5750.5698 1068.7115 8809.5547 13806449
5989.2563 1103.0573 9092.6709 13674862
6187.8545 1129.473 9310.4209 13806963
6377.8193 1153.8602 9511.4482 12818790
6405.7266 1148.7579 9469.3887 8541743
6443.0874 1145.4248 9441.9141 7949095
6484.3057 1142.8287 9420.5146 7752486
6527.6128 1140.6422 9402.4902 6699036
6441.2598 1116.0275 9199.5869 9464905
6353.0132 1091.5005 8997.4082 8149302
6661.1089 1134.9099 9355.2383 8149044
6899.2466 1165.782 9609.7207 7885871
7076.0425 1185.8683 9775.2959 7556906
7391.0933 1228.6104 10127.625 8280113
7104.3389 1171.4324 9656.2979 7951403
6933.9995 1134.2103 9349.4717 8081705
6928.79 1124.375 9268.3965 7949606
6995.0527 1126.2014 9283.4521 7423005
6938.0283 1108.3049 9135.9287 7225883
7000.6626 1109.6522 9147.0352 7225883
6978.7163 1097.6754 9048.3076 8476463
7443.3555 1161.8319 9577.1602 8410155
7590.1201 1175.7762 9692.1055 11501910
7583.3691 1165.9087 9610.7656 12093275
7624.167 1163.4442 9590.4512 13013350
7556.812 1144.6344 9435.3984 13539694
7527.9614 1131.8901 9330.3457 13473389
7513.2573 1121.4432 9244.2305 8275489
7958.2871 1179.2716 9720.9189 8933937
8389.4238 1234.2253 10173.91 4790019
8330.335 1216.7886 10030.177 2359552
8102.291 1175.0952 9686.4922 6699285
8681.3945 1250.2274 10305.818 11500856
8600.0527 1229.8622 10137.944 11500603
8448.8262 1199.8549 9890.5889 12223811
8435.4004 1189.6958 9806.8467 11828545
8363.8877 1171.5394 9657.1807 11237180
8228.4111 1144.7313 9436.1973 10908732
8060.5469 1113.8096 9181.3047 8277799
7864.4092 1079.4219 8897.8418 8080935
7837.7065 1068.5929 8808.5771 7555362
7955.9346 1077.5365 8882.2998 8673331
8127.6592 1093.5603 9014.3867 9659967
8111.4229 1084.2501 8937.6416 9594174
8103.1606 1076.1198 8870.6221 9527354
8105.7358 1069.5243 8816.2539 10909263
8201.8936 1075.2819 8863.7148 11303512
8243.8916 1073.9111 8852.415 11040852
8298.1436 1074.1438 8854.334 8541231
8463.8867 1088.7147 8974.4443 8673074
8459.7129 1081.3838 8914.0137 8542258
8398.3018 1066.8727 8794.3965 8410413
0 0 0 0
0 0 0 0
0 0 0 0
0 0 0 0
-5797.229 809.211 6359.8125 1536
-5805.9629 815.7326 6411.0684 1536
-5720.064 808.95703 6357.8164 1536
-5614.3228 799.2666 6281.6567 1536
-5559.5063 796.74493 6261.8389 1536
-5391.3867 777.84265 6113.2803 1536
-5443.6792 790.69977 6214.3276 1536
-5442.7886 795.95441 6255.6255 1536
-5405.7217 795.95441 6255.6255 1536
-5352.8691 793.61414 6237.2324 1536
-5294.3804 790.39966 6211.9697 1536
-5221.8779 785.03369 6169.7964 1536
-5177.3892 783.83313 6160.3608 1536
-5079.3877 774.45636 6086.6665 1536
-5015.2412 770.14417 6052.7759 1536
-4945.9292 764.97113 6012.1191 1536
-4975.2734 775.09247 6091.666 1536
-4911.376 770.72961 6057.377 1536
-4858.4482 768.03662 6036.2119 1536
-4843.1357 771.29407 6061.813 1536
-4797.2153 769.68939 6049.2017 1536
-4718.7681 762.80243 5995.0747 1536
-4707.7344 766.7912 6026.4238 1536
-4598.4194 754.71069 5931.48 1536
-4562.0439 754.50751 5929.8828 1536
-4362.3662 727.08313 5714.3472 1536
-4281.0586 719.1131 5651.7085 1536
-4261.3711 721.44965 5670.0718 1536
-4187.8237 714.63232 5616.4927 1536
-4149.9971 713.85028 5610.3462 1536
-4137.4868 717.44543 5638.6021 1536
-4131.9438 722.31708 5676.8896 1536
-4061.5144 715.8327 5625.9268 1536
-3995.76 710.07178 5580.6499 1536
-4074.2302 730.05811 5737.7285 1536
-3972.6125 717.83948 5641.6987 1536
-4023.6277 733.22784 5762.6401 1536
-3956.1907 727.10925 5714.5527 1536
-4015.0259 744.29303 5849.6045 1536
-3931.1929 735.09833 5777.3408 1536
-3873.3584 730.6463 5742.3511 1536
-3688.6721 701.97479 5517.0137 1536
-3760.324 722.00928 5674.4702 1536
-3569.7744 691.60651 5435.5264 1536
-3532.3682 690.59015 5427.5386 1536
-3504.4922 691.43542 5434.1821 1536
-3576.3406 712.15454 5597.019 1792
-3553.384 714.20624 5613.144 1536
-3505.9102 711.32239 5590.479 1792
-3472.8542 711.33667 5590.5913 1792
-3442.3992 711.8891 5594.9331 1536
-3261.1748 680.96997 5351.9312 1536
-3481.8867 734.19659 5770.2539 1792
-3462.4277 737.33386 5794.9106 1792
-3429.2339 737.57977 5796.8433 1792
-3394.1838 737.42737 5795.6455 1792
-3340.8052 733.24908 5762.8071 1792
-3281.7334 727.72198 5719.3682 1792
-3256.0188 729.55371 5733.7642 1792
-3210.5486 726.95087 5713.3076 1792
-3186.8723 729.27985 5731.6118 1792
-2892.908 669.14038 5258.959 1792
-2815.3376 658.28894 5173.6743 1792
-2744.1702 648.71216 5098.4082 1792
-2694.6055 644.08588 5062.0488 1792
-2662.3232 643.53296 5057.7031 1792
-2589.9678 633.17065 4976.2632 1792
-2534.688 626.7923 4926.1338 1792
-2532.219 633.47693 4978.6699 1792
-2499.5959 632.68652 4972.458 1792
-2458.8931 629.8078 4949.8335 1792
-2427.9302 629.38446 4946.5063 1792
-2397.9226 629.20148 4945.0679 1792
-2357.7261 626.30731 4922.3223 1792
-2325.5752 625.50464 4916.0137 1792
-2295.6274 625.28168 4914.2617 1792
-2266.1277 625.1767 4913.4365 1792
-2238.0229 625.4588 4915.6533 1792
-2219.0483 628.3335 4938.2466 1792
-2192.7368 629.17987 4944.8984 1792
-2167.02 630.22205 4953.0894 1792
-2139.7922 630.84753 4958.0049 1792
-2112.8577 631.57788 4963.7451 1792
-2085.7476 632.27576 4969.23 1792
-2055.1423 631.91888 4966.4253 1792
-2036.5159 635.28851 4992.9077 1792
-2020.4722 639.57489 5026.5957 1792
-1998.1433 641.97034 5045.4224 1792
-1988.0796 648.43896 5096.2607 1536
-1958.8928 648.77362 5098.8911 1792
-1930.5997 649.41943 5103.9668 1792
-1914.0751 654.1076 5140.812 1792
-1891.2377 656.755 5161.6191 1792
-1870.1783 660.11719 5188.0435 1792
-1841.146 660.73047 5192.8633 1792
-1816.7863 663.07001 5211.25 1792
-1791.7321 665.23248 5228.2456 1792
-1791.8479 676.98071 5320.5781 1792
-2007.9346 772.20721 6068.9897 1792
-1979.2128 775.04211 6091.27 1792
-1953.5103 779.18658 6123.8428 1792
-1924.3469 782.08142 6146.5942 1792
-1902.9628 788.31055 6195.5498 1792
-1869.8594 789.83447 6207.5269 1792
-1824.4294 786.10828 6178.2422 1792
-1706.4354 750.32294 5896.9951 1792
-1508.1205 676.98584 5320.6187 1536
-1481.3694 679.17542 5337.8271 1536
-1480.1539 693.42352 5449.8066 1536
-1385.2887 663.45544 5214.2798 1536
-1360.2668 666.33331 5236.8975 1792
-1334.0072 668.72498 5255.6943 1792
-1342.6221 689.1311 5416.0718 1792
-1331.9489 700.39423 5504.5918 1792
-1305.8085 703.88538 5532.0298 1792
-1293.8474 715.3963 5622.4971 1792
-1277.0073 724.74677 5695.9849 1792
-1269.6599 740.13849 5816.9526 1792
-1266.2537 758.75092 5963.2329 1792
-1249.6749 770.31213 6054.0962 1792
-1212.7964 769.67395 6049.0801 1792
-1184.8448 774.83478 6089.6406 1792
-1155.6696 779.49438 6126.2617 1536
-1128.7039 785.99487 6177.3511 1536
-1107.4374 797.03296 6264.1021 1536
-1074.9521 800.48224 6291.2109 1536
-1049.3726 809.50671 6362.1367 1536
-1005.3631 804.4566 6322.4463 1536
-979.50635 814.10303 6398.2607 1536
-964.81146 834.17682 6556.0259 1536
-933.17407 840.67181 6607.0718 1536
-913.12939 858.63654 6748.2617 1280
-889.79266 875.00934 6876.9399 1024
-951.38916 980.48438 7705.8975 1024
-920.67041 996.65942 7833.0215 67842
-864.867 985.95508 7748.8936 1537
-818.10846 984.93994 7740.915 67842
-764.60809 975.20544 7664.4092 1793
-723.19232 980.62787 7707.0254 1281
-706.66718 1022.8072 8038.5244 1024
-660.37885 1024.8917 8054.9072 1280
-631.62775 1056.6388 8304.416 1536
-560.19025 1016.3079 7987.4438 1536
-532.93768 1056.0918 8300.1172 1536
-485.62717 1060.1764 8332.2188 1536
-434.59039 1056.13 8300.418 1536
-390.41577 1069.8555 8408.2891 1536
-339.83044 1067.4591 8389.4561 1536
-290.32626 1068.2197 8395.4336 1536
-241.02969 1070.2166 8411.1279 1536
-192.41527 1077.0732 8465.0156 1536
-142.23964 1076.9443 8464.0029 1536
-91.027733 1064.5562 8366.6406 1536
-39.908802 1024.9236 8055.1577 1792
8.402215 1101.0564 8653.5059 1536
60.460571 1115.5001 8767.0234 1536
113.23719 1123.7217 8831.6387 1536
163.92352 1112.5592 8743.9102 1536
217.27679 1120.5118 8806.4121 1536
273.39975 1136.9019 8935.2256 1280
324.51175 1130.5168 8885.0439 1280
377.45526 1131.4042 8892.0186 1280
432.83331 1138.4778 8947.6113 1280
490.52103 1149.4198 9033.6074 512
539.70251 1140.2373 8961.4404 131584
602.73395 1159.34 9111.5723 1249028
656.09235 1158.2253 9102.8135 1708550
715.70789 1167.4871 9175.6035 1905416
781.30316 1184.5066 9309.3643 2102026
834.73755 1182.0605 9290.1396 2167560
904.07733 1201.0471 9439.3613 2299146
971.89197 1215.9132 9556.1982 1641218
1008.4609 1192.2037 9369.8584 2167559
1071.328 1200.436 9434.5586 2429961
1115.3772 1187.8119 9335.3418 2298376
1175.2227 1192.408 9371.4629 2364169
1260.167 1220.9061 9595.4385 2364171
1346.2024 1247.9552 9808.0244 2232583
1416.114 1258.437 9890.4043 786432
1469.3683 1253.8713 9854.5215 2692877
1526.928 1253.1884 9849.1533 2889486
1593.3983 1259.5995 9899.54 3086604
1683.9131 1283.8878 10090.429 3217420
1787.1783 1315.8987 10342.012 3283468
1855.6908 1321.0471 10382.474 3348491
1928.9473 1329.1339 10446.03 3545612
2048.0869 1367.3505 10746.385 3807499
2104.1433 1362.4165 10707.607 4135685
2100.7498 1320.4044 10377.423 5910806
2048.8083 1251.1356 9833.0205 9594174
2155.5779 1279.9369 10059.377 9988928
2226.6094 1286.5386 10111.262 10053951
2268.6509 1276.4829 10032.231 10119744
2369.1904 1299.0149 10209.316 10185794
2438.4636 1303.7084 10246.204 10317379
2524.054 1316.6859 10348.198 10448709
2597.8723 1323.0525 10398.234 10383172
2619.8618 1303.3401 10243.31 10317123
2672.6667 1299.5033 10213.155 10382916
2745.1018 1305.1699 10257.69 10317638
2794.0776 1299.6786 10214.533 10120516
2850.8269 1297.9595 10201.022 10383689
2897.9976 1292.0411 10154.508 10317640
2949.8933 1288.4275 10126.107 10252104
2963.2388 1268.4558 9969.1445 10382920
3053.1235 1281.3881 10070.783 10514506
3106.791 1278.9158 10051.353 10448712
3164.6353 1278.2235 10045.911 10448456
3175.4871 1258.9265 9894.251 10382663
3229.0813 1256.9672 9878.8525 10316870
3252.3411 1243.4799 9772.8516 10382663
3281.5 1232.6804 9687.9756 10382663
3201.7021 1182.0269 9289.876 10382920
3000.6562 1089.0789 8559.3721 9989442
3069.0256 1095.379 8608.8867 9463101
2890.4414 1014.7731 7975.3818 8149805
2962.2156 1023.2419 8041.9409 7953453
3064.615 1041.854 8188.2188 5849116
3047.0579 1019.741 8014.4258 1443328
3020.6272 995.38239 7822.9849 918016
3068.0686 995.73523 7825.7583 721408
3129.8542 1000.6636 7864.4917 721152
3161.0684 995.81659 7826.3975 1312768
3270.47 1015.3846 7980.188 8017713
3431.6431 1050.2394 8254.1211 8147498
3614.8242 1090.7552 8572.5469 8146985
3772.2056 1122.4712 8821.8115 8278572
3849.3506 1129.7711 8879.1836 8410158
3878.4568 1122.9652 8825.6934 8541488
3945.7827 1127.259 8859.4404 8607535
4016.9692 1132.5287 8900.8555 9199417
4132.061 1149.8798 9037.2227 8804915
4132.3086 1135.2367 8922.1387 8804917
4221.6147 1145.1208 8999.8203 8870453
4307.1616 1153.7512 9067.6494 8738867
4409.7222 1166.6704 9169.1855 8738867
4474.4165 1169.3788 9190.4707 8607280
4502.4175 1162.5477 9136.7832 8541744
4573.2637 1166.8102 9170.2832 8541745
4618.9985 1164.6411 9153.2363 8607283
4623.6333 1152.2795 9056.083 8541490
4672.2573 1151.0387 9046.3311 8738869
4744.5923 1155.6012 9082.1885 8541746
4741.9097 1141.9946 8975.251 8607539
4811.1167 1145.8112 9005.2461 8607541
4843.79 1140.9386 8966.9512 8410161
4841.3403 1127.9883 8865.1719 8344368
4915.0361 1132.8668 8903.5137 8344368
5055.9746 1152.976 9061.5566 8541747
5099.4722 1150.6754 9043.4756 8739383
5056.6938 1129.1572 8874.3584 8410418
5094.0835 1125.7992 8847.9668 8081196
5139.4189 1124.2477 8835.7734 8081196
5185.6167 1122.9143 8825.2939 8081195
5241.5112 1123.6863 8831.3613 7949610
5274.1338 1119.5033 8798.4863 7949609
5302.3638 1114.479 8758.998 7883814
5392.6538 1122.4696 8821.7988 8212779
5485.6714 1130.8691 8887.8135 8081194
5566.1299 1136.5446 8932.418 7949608
5612.0854 1135.1342 8921.333 7752225
5685.6138 1139.2751 8953.8779 7818786
5635.7314 1118.8395 8793.2686 10714444
5503.3184 1082.5436 8508.0088 13807996
5794.6924 1129.5121 8877.1475 13939068
5857.0312 1131.3932 8891.9316 13742201
6058.2271 1159.8245 9115.3809 13082217
6235.8423 1183.2786 9299.7139 12621665
6247.1055 1175.0323 9234.9043 13345131
6383.9268 1190.3408 9355.2178 13344880
6302.7305 1165.0842 9156.7188 9067828
6529.9326 1196.781 9405.832 7225630
6431.6338 1168.7894 9185.8389 7555364
6401.4829 1153.548 9066.0527 8148527
6526.0737 1166.2126 9165.5869 8016941
6680.0942 1183.8839 9304.4707 7687977
6701.1094 1177.887 9257.3389 8016940
6498.3027 1132.9646 8904.2812 7819304
6797.6802 1175.615 9239.4834 7819047
6749.4502 1157.9481 9100.6338 7950118
6820.9106 1160.9327 9124.0908 7817763
6824.2256 1152.363 9056.7393 7817506
6866.8086 1150.5065 9042.1475 7488541
6920.3877 1150.5065 9042.1475 6567952
7337.707 1210.5133 9513.7588 7686433
7431.2432 1216.5975 9561.5762 8804657
7509.3979 1220.0906 9589.0283 11764313
7533.4761 1214.811 9547.5352 12881504
7427.6221 1188.8138 9343.2168 13078624
7555.3716 1200.3141 9433.5996 13012828
7517.3091 1185.4963 9317.1426 13472612
7607.1528 1190.9187 9359.7588 12419153
7765.8794 1206.9681 9485.8965 7616531
7899.5952 1218.9279 9579.8906 7619870
8221.5098 1259.5493 9899.1455 7092499
7815.2778 1188.8322 9343.3604 5250049
8381.5527 1266.0037 9949.8721 6500870
8360.0996 1253.9427 9855.082 6369028
8387.252 1249.2891 9818.5078 6961159
8313.3818 1229.7559 9664.9902 10316338
8193.9541 1203.7968 9460.9717 10579509
7938.0366 1158.2748 9103.2012 10579764
7729.9194 1120.2949 8804.707 7157775
7922.9136 1140.5674 8964.0342 7947292
7798.8862 1115.2361 8764.9482 7816476
7923.3657 1125.5411 8845.9385 6698508
7993.3398 1128.019 8865.4131 9988149
8000.8237 1121.7034 8815.7773 10908230
8059.5483 1122.6071 8822.8789 12289625
8159.2075 1129.1641 8874.4121 12355419
8147.4873 1120.3219 8804.9189 12420189
8201.0439 1120.511 8806.4053 12288860
8250.8584 1120.1897 8803.8799 12289373
8267.5449 1115.4028 8766.2588 11039308
8331.4053 1117.0006 8778.8164 9131825
8314.6904 1107.8427 8706.8418 8671530
0 0 0 0
0 0 0 0
0 0 0 0
0 0 0 0
-5545.1797 810.0744 6083.3032 1280
-5496.9951 808.28961 6069.8994 1280
-5459.7334 808.09784 6068.46 1280
-5425.2202 808.31317 6070.0767 1280
-5369.9102 805.41205 6048.2905 1280
-5330.355 804.85089 6044.0767 1280
-5290.688 804.26501 6039.6772 1280
-5254.9004 804.26501 6039.6772 1280
-5221.187 804.58472 6042.0781 1280
-5180.5503 803.83453 6036.4443 1280
-5134.1226 802.16913 6023.9375 1280
-5088.5161 800.6095 6012.2256 1280
-5030.4438 797.0528 5985.5161 1536
-4912.8877 783.95367 5887.1479 1536
-4846.9165 778.95758 5849.6289 1536
-4724.1616 764.69794 5742.5454 1536
-4833.4858 788.07037 5918.0625 1280
-4786.4453 786.10394 5903.2954 1280
-4764.605 788.27777 5919.6196 1280
-4671.5972 778.62219 5847.1108 1280
-4581.9092 769.37976 5777.7041 1536
-4552.5049 770.19708 5783.8418 1536
-4496.5552 766.50177 5756.0913 1536
-4426.8667 760.39008 5710.1953 1280
-4372.6118 756.85559 5683.6533 1536
-4219.7993 736.07458 5527.5967 1536
-4160.9971 731.49512 5493.207 1536
-4130.0039 731.77087 5495.2778 1536
-4078.9224 728.46344 5470.4404 1536
-4043.6003 727.94 5466.5098 1536
-4013.2634 728.31274 5469.3091 1536
-3993.9663 730.71149 5487.3223 1536
-3958.9858 730.25665 5483.9067 1536
-3914.3804 728.00421 5466.9917 1536
-3877.5635 727.17474 5460.7632 1536
-4119.7222 779.08905 5850.6162 1536
-3807.8528 726.22186 5453.6074 1536
-4013.4844 771.99072 5797.311 1536
-3962.02 768.67065 5772.3789 1536
-3958.3904 774.65393 5817.311 1536
-3754.657 741.23822 5566.3735 1536
-3727.4468 742.38794 5575.0073 1536
-3676.4131 738.771 5547.8457 1536
-3675.6833 745.28839 5596.7886 1536
-3624.1553 741.53082 5568.5708 1536
-3587.665 740.80933 5563.1528 1536
-3533.7051 736.43365 5530.2935 1536
-3496.8132 735.56647 5523.7812 1536
-3468.6782 736.5423 5531.1094 1792
-3368.3137 722.05322 5422.3027 1536
-3398.3223 735.50171 5523.2949 1536
-3138.9148 685.96423 5151.29 1536
-3416.6169 753.98389 5662.0879 1536
-3391.0159 755.75549 5675.3916 1792
-3348.6428 753.78723 5660.6108 1792
-3306.6389 751.86298 5646.1606 1792
-3252.0854 747.01672 5609.7676 1792
-3201.3103 742.94733 5579.208 1792
-3167.825 742.84729 5578.4565 1792
-2866.1279 679.18707 5100.3965 1792
-3116.1162 746.29608 5604.356 1792
-3082.5679 746.21381 5603.7378 1792
-2716.9136 664.85956 4992.8032 1792
-2715.093 671.72845 5044.3857 1792
-2649.7725 662.86511 4977.8262 1792
-2560.1724 647.66022 4863.6436 1792
-2529.7703 647.25519 4860.6021 1792
-2499.9294 646.98615 4858.5815 1792
-2472.4026 647.31659 4861.063 1792
-2446.7876 648.16125 4867.4062 1792
-2406.4639 645.08331 4844.292 1536
-2393.1006 649.2453 4875.5469 1536
-2364.4614 649.31409 4876.0635 1792
-2339.9534 650.53302 4885.2173 1792
-2295.6423 646.20813 4852.7393 1792
-2268.2568 646.59833 4855.6694 1792
-2240.8665 646.99719 4858.6646 1792
-2211.624 646.86469 4857.6699 1792
-2194.4353 650.30078 4883.4731 1792
-2172.2607 652.33142 4898.7222 1792
-2145.0854 652.89502 4902.9546 1792
-2119.6487 654.01044 4911.3311 1792
-2090.9719 654.14331 4912.3291 1792
-2057.729 652.83136 4902.4766 1792
-2031.2827 653.66895 4908.7666 1792
-2010.6328 656.42328 4929.4502 1792
-1988.7552 658.85211 4947.6899 1792
-1970.8617 662.69318 4976.5347 1792
-1954.241 667.08539 5009.5186 1792
-1928.6105 668.49017 5020.0679 1792
-1907.6006 671.5658 5043.1641 1792
-1890.797 676.24347 5078.2915 1792
-1871.2609 680.07947 5107.0981 1792
-1847.2058 682.37219 5124.3154 1792
-1815.8995 682.01819 5121.6567 1792
-1835.9755 701.27832 5266.292 1792
-2024.4875 786.65363 5907.4229 1792
-1994.5814 788.66931 5922.5596 1792
-1967.2998 791.81348 5946.1714 1792
-1940.6514 795.33185 5972.5928 1792
-1912.71 798.44122 5995.9424 1792
-1880.6656 799.9231 6007.0708 1792
-1857.7506 805.4201 6048.3511 1536
-1823.9514 806.32178 6055.1226 1536
-1604.275 723.43933 5432.7119 1536
-1483.2979 682.58185 5125.8901 1536
-1477.2035 693.98792 5211.5444 1536
-1469.6447 705.17834 5295.5796 1536
-1443.4546 707.72217 5314.6826 1536
-1434.2787 718.90753 5398.6797 1792
-1426.2205 731.17627 5490.8125 1792
-1395.4241 732.0885 5497.6631 1792
-1428.2896 767.242 5761.6504 1792
-1311.981 722.02222 5422.0698 1792
-1291.891 728.81335 5473.0684 1792
-1305.0785 755.211 5671.3027 1792
-1276.6736 758.2995 5694.4961 1792
-1258.2303 767.63324 5764.5884 1792
-1233.7073 773.67517 5809.9604 1792
-1206.2539 778.17352 5843.7412 1792
-1188.3691 789.29303 5927.2441 1792
-1152.3013 788.6452 5922.3794 1792
-1134.3322 800.73273 6013.1509 1536
-1110.1841 809.10089 6075.9927 1536
-1092.0112 822.53094 6176.8457 1536
-1061.9966 827.66333 6215.3882 1536
-1065.8209 860.48431 6461.8594 1536
-1055.6743 884.05157 6638.8394 1536
-965.5387 839.86566 6307.022 1536
-979.18115 886.02643 6653.6694 1536
-906.34491 854.52606 6417.1152 1536
-904.51099 890.14124 6684.5693 1536
-877.20477 902.80267 6779.6519 1280
-859.40674 926.93494 6960.874 1536
-866.09485 981.24176 7368.6948 1536
-848.41669 1012.2437 7601.5054 1536
-797.05798 1004.2847 7541.7363 1536
-752.77405 1004.8237 7545.7847 1536
-742.90021 1054.2629 7917.0513 1536
-691.61993 1047.6455 7867.3579 1536
-651.8277 1058.7311 7950.6055 1536
-610.17566 1068.2877 8022.3716 1536
-563.70203 1070.3044 8037.5161 1536
-516.4964 1071.1753 8044.0562 1536
-470.17126 1074.235 8067.0322 1536
-420.3735 1069.1549 8028.8838 1536
-379.66278 1088.8392 8176.7041 1536
-330.2226 1085.5848 8152.2656 1536
-284.05936 1093.8339 8214.2119 1536
-235.28061 1093.3402 8210.5049 1536
-188.53439 1104.4963 8294.2822 1536
-140.22452 1111.1293 8344.0928 1536
-89.781853 1098.8829 8252.1279 1536
-41.073647 1103.9618 8290.2686 1536
8.1047201 1111.5315 8347.1133 1536
58.095131 1121.7734 8424.0254 1536
108.20222 1123.7607 8438.9492 1536
155.9559 1107.7753 8318.9053 1280
209.91522 1132.9612 8508.041 1024
259.65359 1130.0228 8485.9746 256
310.96384 1133.7688 8514.1055 591616
365.80206 1147.5364 8617.4941 1380355
413.41623 1138.0449 8546.2178 1708807
464.56912 1139.3033 8555.668 1905417
526.35669 1163.8284 8739.8398 1970697
582.07294 1171.738 8799.2383 2102280
640.80505 1183.9192 8890.7129 2167559
691.2644 1180.1263 8862.2305 2167560
743.43506 1179.5842 8858.1592 2364169
796.58801 1180.5695 8865.5586 2429962
869.13672 1208.3995 9074.5498 2298632
907.14813 1187.7659 8919.5996 2429962
959.18799 1186.7607 8912.0518 2561291
1014.8464 1190.104 8937.1582 2561291
1069.9434 1192.4899 8955.0752 2495498
1146.9951 1217.9635 9146.3711 2561291
1204.0095 1220.8213 9167.832 2627084
1312.4475 1273.3231 9562.0967 2692875
1372.4758 1276.4564 9585.627 2758155
1440.2488 1286.2573 9659.2275 2758155
1458.9486 1253.158 9410.665 2889226
1509.2421 1248.6337 9376.6904 3020555
1573.3291 1255.4373 9427.7822 3217420
1637.1906 1261.6003 9474.0645 3283469
1706.512 1271.423 9547.8281 3348491
1764.9235 1272.7474 9557.7744 3479819
1820.3702 1271.9182 9551.5469 3676427
1954.4004 1324.3906 9945.5918 3807754
1973.2583 1298.0297 9747.6328 4004100
2006.2677 1282.2124 9628.8516 5450514
2042.4048 1269.2134 9531.2354 9265980
2104.8826 1272.8425 9558.4883 9988672
2112.301 1243.859 9340.835 10185537
2170.46 1245.4718 9352.9463 10317380
2269.0308 1269.6166 9534.2627 10317123
2356.2622 1286.3973 9660.2793 10317380
2417.9995 1288.7939 9678.2764 10383173
2458.4243 1279.983 9612.1104 10383172
2514.4678 1279.5189 9608.625 10317125
2576.9893 1282.2987 9629.5 10251331
2621.5911 1276.2345 9583.96 10185539
2642.7598 1259.2617 9456.502 10185282
2705.3679 1262.3293 9479.5391 10316870
2770.2507 1266.312 9509.4473 10316870
2831.2957 1268.4165 9525.251 10317127
2889.7957 1269.321 9532.0439 10382920
2936.2729 1265.0111 9499.6777 10382663
2984.6899 1261.6833 9474.6875 10448456
3042.5457 1262.3947 9480.0293 10054470
3081.6814 1255.4537 9427.9062 10251849
3123.5332 1249.847 9385.8018 9988421
3157.512 1241.3409 9321.9258 9922885
3139.0286 1212.8573 9108.0254 10054469
2976.0103 1130.4348 8489.0693 9791809
3014.366 1125.9729 8455.5615 9200955
2943.4395 1081.5033 8121.6147 8215598
2960.1057 1070.131 8036.2134 8150319
3039.3789 1081.3937 8120.7915 3283977
2966.6201 1039.0564 7802.8569 1180672
3140.3721 1083.0336 8133.1069 1708552
3127.4915 1062.2896 7977.3286 1444867
3179.4724 1063.8663 7989.1685 1444352
3215.5842 1060.1648 7961.3716 1508864
3226.3489 1048.3342 7872.5298 8872254
3570.717 1143.6934 8588.6348 9067575
3580.0005 1130.5538 8489.9629 9067829
3655.0459 1138.2579 8547.8174 9395767
3808.4885 1169.8326 8784.9287 9396024
3815.7476 1156.2587 8682.9941 9067317
3947.5974 1180.2974 8863.5146 9067317
4044.5989 1193.4222 8962.0771 9001525
4121.2471 1200.2794 9013.5713 8870452
4173.8613 1200.0509 9011.8555 8936245
4218.2632 1197.4969 8992.6758 8936245
4309.9053 1208.2499 9073.4258 9002296
4332.9897 1199.7552 9009.6348 8936503
4430.7979 1211.9055 9100.8779 8870709
4453.6206 1203.5005 9037.7598 8607282
4512.3833 1204.8916 9048.207 8542002
4581.6875 1209.032 9079.2988 8475952
4643.3809 1211.0912 9094.7627 8607284
4669.3721 1203.8979 9040.7451 8541746
4686.6621 1194.65 8971.2969 8541747
4717.416 1189.0031 8928.8906 8409904
4721.4927 1176.832 8837.4912 8278318
4808.0308 1185.2561 8900.7529 8278575
4843.4497 1181.0323 8869.0342 8410161
4867.3994 1174.1327 8817.2207 8344367
4905.4453 1170.7438 8791.7715 8278574
4936.583 1165.7946 8754.6055 8212525
4969.0127 1161.2504 8720.4805 8081196
4975.6968 1150.845 8642.3398 8080939
5004.4141 1145.6957 8603.6709 8146986
5095.8447 1154.8629 8672.5127 8212779
5091.689 1142.4008 8578.9277 8212523
5159.3672 1146.1427 8607.0283 7883558
5255.5938 1156.0914 8681.7383 8015141
5301.2734 1154.8359 8672.3105 8146470
5366.3979 1157.7998 8694.5684 8146469
5434.4697 1161.3372 8721.1318 8278311
5504.9683 1165.3215 8751.0527 10646850
5634.2822 1181.5658 8873.04 11173450
5534.9697 1150.0077 8636.0527 12686690
5434.7529 1118.8416 8402.0088 13016172
5620.9331 1146.666 8610.958 13147758
5739.4253 1160.3058 8713.3867 13871481
5875.1299 1177.151 8839.8867 13345396
5956.5068 1182.9095 8883.1309 13410932
6122.2368 1205.1722 9050.3145 13279091
6370.0635 1243.0691 9334.9023 13212781
6458.8975 1249.554 9383.6016 13409904
6361.478 1220.2028 9163.1865 9132077
6400.4668 1217.2917 9141.3262 7752481
6373.7295 1202.0338 9026.7461 8015654
6438.8745 1204.2142 9043.1201 7950121
6572.999 1219.1527 9155.3018 7818023
6511.8354 1197.9215 8995.8643 7752486
6649.0059 1213.2244 9110.7812 7160348
6578.9312 1190.7698 8942.1582 7423262
6676.604 1198.7932 9002.4111 7686178
6686.3774 1191.0323 8944.1299 7620641
6705.9175 1185.1196 8899.7275 8081192
6766.0874 1186.4232 8909.5176 7883812
6894.21 1199.5302 9007.9443 7752226
7146.4023 1233.8567 9265.7217 7488798
7282.0088 1247.6842 9369.5605 7685920
7425.853 1262.7032 9482.3467 9725501
7431.6699 1254.2026 9418.5107 12816217
7330.4194 1227.8942 9220.9463 13540194
7368.8472 1225.199 9200.7061 13671008
7374.8311 1217.1886 9140.5518 13276253
7323.123 1199.8427 9010.291 13012572
7648.48 1244.0801 9342.4951 10117427
7687.2495 1241.4012 9322.3779 8278311
7735.0449 1240.2079 9313.416 7422231
7778.3472 1238.3159 9299.209 7093782
7809.9014 1234.5936 9271.2559 7619355
7789.584 1222.7806 9182.5449 7684890
7819.1475 1218.9072 9153.458 7487765
7972.7861 1234.2959 9269.0195 7619093
7624.0537 1172.2321 8802.9482 7619348
7477.4746 1141.8826 8575.0361 7290130
7508.1895 1138.8345 8552.1465 7553303
7641.4136 1151.2715 8645.543 7948318
7714.2935 1154.512 8669.877 9330228
7824.4922 1163.2576 8735.5527 9001775
7977.6646 1178.235 8848.0273 8606760
8109.6934 1189.9146 8935.7363 10513475
8023.4731 1169.6272 8783.3867 11631700
8125.667 1176.8906 8837.9316 11763542
8131.1367 1170.1416 8787.249 12158045
8240.2705 1178.3015 8848.5264 12223839
8226.208 1168.8535 8777.5762 11565909
8247.0742 1164.4562 8744.5537 10776392
8426.2236 1182.3229 8878.7256 11040079
8411.9766 1173.0001 8808.7158 11500629
0 0 0 0
0 0 0 0
0 0 0 0
0 0 0 0
-5393.7773 823.01849 5917.2085 1280
-5301.4663 814.22589 5853.9927 1280
-5278.4326 816.0274 5866.9453 1280
-5273.5312 820.67468 5900.3574 1280
-5186.5913 812.53192 5841.8135 1280
-5161.8345 814.08655 5852.9912 1280
-5112.4565 811.75305 5836.2144 1280
-5063.8169 809.50586 5820.0571 1280
-5036.7158 810.69458 5828.6035 1280
-4991.4907 808.96222 5816.1489 1280
-4935.8184 805.50104 5791.2642 1280
-4888.1982 803.31458 5775.5444 1280
-4826.5337 798.77301 5742.8921 1280
-4712.3892 785.42004 5646.8892 1280
-4650.0532 780.57288 5612.0396 1280
-4625.0913 781.97479 5622.1187 1280
-4645.2876 791.08728 5687.6348 1280
-4602.6851 789.56049 5676.6572 1280
-4559.5767 787.92371 5664.8892 1280
-4513.5923 785.76184 5649.3467 1280
-4447.9644 780.12262 5608.8022 1280
-4412.2319 779.68121 5605.6289 1280
-4382.2305 780.25336 5609.7427 1280
-4336.229 777.96393 5593.2822 1280
-4269.2671 771.84955 5549.3223 1280
-4138.1274 753.94757 5420.6128 1536
-4038.3931 741.53198 5331.3496 1536
-4008.3486 741.81812 5333.4067 1536
-3980.6436 742.5451 5338.6338 1536
-3943.6274 741.53302 5331.3569 1536
-3902.105 739.65045 5317.8218 1536
-3901.9795 745.64789 5360.9414 1536
-3824.1731 736.77747 5297.1665 1536
-3791.0872 736.44763 5294.7949 1536
-3778.6731 740.1615 5321.4961 1536
-3835.9661 757.70679 5447.6406 1280
-3691.5186 735.36255 5286.9937 1536
-3667.3389 736.79865 5297.3184 1536
-3951.95 800.83368 5757.7075 1536
-3950.9434 807.60168 5806.3667 1536
-3510.7498 723.92688 5204.7749 1536
-3447.0063 717.08203 5155.563 1536
-3399.8442 713.59497 5130.4927 1536
-3368.8779 713.47504 5129.6304 1536
-3309.4548 707.27148 5085.0288 1536
-3306.2659 713.08228 5126.8062 1536
-3252.3311 707.95459 5089.9399 1536
-3214.2063 706.20453 5077.3579 1536
-3244.3855 719.57056 5173.4551 1536
-3163.9692 708.42877 5093.3491 1536
-3115.5361 704.30243 5063.6826 1536
-3154.1121 719.95654 5176.23 1536
-3322.5542 765.85242 5506.2046 1536
-3298.0012 767.73187 5519.7173 1536
-3244.437 762.82782 5484.459 1536
-3206.3323 761.49615 5474.8848 1536
-3170.3247 760.64044 5468.7324 1536
-3130.0405 758.73029 5454.9995 1792
-3077.5996 753.80286 5419.5728 1792
-3059.6741 757.31445 5444.8198 1792
-3021.21 755.76318 5433.6665 1792
-2986.6895 755.1756 5429.4424 1792
-2665.4353 681.28601 4898.2026 1792
-2643.3928 683.09009 4911.1733 1792
-2578.3843 673.7077 4843.7173 1792
-2515.6707 664.72052 4779.1025 1792
-2492.8442 666.18811 4789.6538 1792
-2468.5962 667.30524 4797.6855 1792
-2438.1973 666.76624 4793.8105 1792
-2409.5381 666.69598 4793.3057 1792
-2387.1587 668.38232 4805.4297 1792
-2356.2793 667.70074 4800.5293 1792
-2334.6038 669.64252 4814.4897 1792
-2305.1411 669.37103 4812.5381 1792
-2264.9448 665.93695 4787.8481 1792
-2234.8225 665.41516 4784.0967 1792
-2211.2537 666.85626 4794.458 1792
-2183.4717 667.04785 4795.835 1792
-2160.979 668.88165 4809.0195 1792
-2135.4897 669.82458 4815.7988 1792
-2109.3179 670.57599 4821.2012 1792
-2081.1726 670.71216 4822.1802 1792
-2065.1143 674.80151 4851.5815 1792
-2036.9481 674.9942 4852.9668 1792
-2014.5775 677.14038 4868.397 1792
-1993.522 679.79736 4887.4995 1792
-1968.5657 681.18292 4897.4614 1792
-1946.472 683.6153 4914.9492 1792
-1930.051 688.1441 4947.5098 1792
-1899.6277 687.74323 4944.6274 1792
-1882.6564 692.27625 4977.2183 1792
-1869.3414 698.3194 5020.6665 1792
-1856.5355 704.75122 5066.9092 1792
-1835.0873 708.06 5090.6978 1792
-1797.7693 705.25366 5070.5215 1792
-1773.9905 707.7536 5088.4951 1792
-1759.191 713.98425 5133.2915 1792
-1734.9711 716.5437 5151.6924 1792
-1713.9933 720.55762 5180.5513 1792
-1693.4631 724.90955 5211.8403 1792
-1674.4982 730.10565 5249.1982 1792
-1653.1855 734.45551 5280.4722 1792
-1631.8298 738.95361 5312.812 1792
-1587.1053 732.83832 5268.8452 1536
-1582.0114 745.14398 5357.3184 1536
-1540.1096 740.26172 5322.2168 1536
-1534.3658 752.91815 5413.2119 1536
-1525.9064 764.75397 5498.3076 1536
-1516.1486 776.44141 5582.3359 1536
-1465.7812 767.38965 5517.2568 1536
-1445.6345 774.10736 5565.5547 1792
-1432.1031 784.76379 5642.1709 1792
-1402.0778 786.67529 5655.9136 1792
-1365.9631 785.18005 5645.1636 1792
-1353.536 797.56775 5734.2266 1792
-1336.9592 808.08508 5809.8423 1792
-1434.5021 889.95764 6398.4771 1792
-1396.5181 889.91272 6398.1543 1792
-1239.1331 811.65552 5835.5122 1792
-1287.382 867.46582 6236.7686 1792
-1348.1465 935.25769 6724.168 1792
-1336.6121 955.49469 6869.665 1536
-1259.9778 929.00378 6679.2046 1536
-1187.0961 903.65125 6496.9292 1536
-1163.6169 915.46637 6581.8755 1536
-1058.7485 861.84808 6196.3789 1536
-1181.2756 996.13275 7161.8384 1536
-1062.8501 929.66608 6683.9663 1536
-1058.3256 961.53845 6913.1172 1536
-1035.094 978.29706 7033.6055 1536
-1014.1702 998.73431 7180.542 1536
-942.15924 968.44873 6962.7998 1536
-922.40265 991.56158 7128.9731 1536
-900.81104 1014.8257 7296.2334 1536
-855.38135 1012.2264 7277.5454 1536
-832.16162 1037.0289 7455.8662 1536
-787.94086 1036.9738 7455.4702 1536
-749.60742 1045.1206 7514.043 1536
-703.01996 1042.0615 7492.0498 1536
-668.54443 1057.7533 7604.8682 1536
-640.6958 1086.9562 7814.8252 1536
-591.591 1081.838 7778.0278 1536
-549.88403 1090.5261 7840.4932 1536
-504.41907 1092.6775 7855.96 1536
-458.80267 1094.9049 7871.9741 1536
-412.62622 1096.1484 7880.915 1536
-366.16641 1096.8607 7886.0361 1536
-317.49979 1090.2039 7838.1753 1536
-273.55261 1100.2477 7910.3867 1536
-226.46623 1099.2081 7902.9126 1536
-181.15494 1108.4884 7969.6348 1536
-133.49872 1104.9052 7943.8726 1536
-86.899002 1110.9255 7987.1567 1536
-39.783585 1116.8685 8029.8843 1536
7.6938157 1102.13 7923.9199 768
54.759979 1104.4243 7940.4155 768
102.38991 1110.7136 7985.6333 723458
150.51706 1116.7163 8028.7905 1774855
200.4534 1130.0347 8124.5454 1970953
249.78697 1135.455 8163.5146 1839368
306.21594 1166.1373 8384.1094 1905160
355.07788 1163.4594 8364.8564 1904904
403.12033 1159.0813 8333.3799 1970696
453.21591 1160.9177 8346.583 2036233
509.47501 1176.6274 8459.5303 1970183
565.12738 1188.2471 8543.0713 2167562
611.77277 1180.5748 8487.9102 1970183
667.53754 1190.3297 8558.0439 2101769
718.67828 1191.0437 8563.1777 2298633
769.75269 1191.5609 8566.8965 2429962
811.83392 1178.9542 8476.2588 2495755
871.09949 1191.3179 8565.1484 2495755
925.52808 1196.0692 8599.3096 2627084
981.04645 1201.6595 8639.502 2561291
1033.941 1203.641 8653.748 2627084
1104.0254 1224.5007 8803.7217 2495498
1154.203 1222.3954 8788.585 2495497
1207.4756 1223.6079 8797.3027 2429703
1248.2605 1212.5895 8718.084 2560776
1309.0829 1221.1379 8779.5449 2692361
1367.6244 1226.9868 8821.5957 2889226
1416.6042 1224.1425 8801.1455 2823431
1473.3058 1227.9357 8828.418 3020297
1537.8468 1237.7786 8899.1846 3020298
1605.7909 1249.6171 8984.2998 3151113
1644.5917 1238.7445 8906.1299 3348235
1690.7722 1233.9337 8871.542 3610637
1759.8711 1245.6346 8955.667 3676173
1855.8491 1275.1188 9167.6475 3872522
1917.1254 1279.761 9201.0234 3938051
1959.2909 1271.7421 9143.3701 5779731
1976.0272 1248.0931 8973.3428 9462844
2026.6753 1246.5415 8962.1875 9791035
2087.5466 1251.1967 8995.6562 10120001
2174.4307 1270.8228 9136.7607 10119744
2220.7632 1266.3712 9104.7559 10053951
2277.7327 1268.0527 9116.8447 10054207
2333.488 1268.9958 9123.626 10317123
2398.1707 1274.6412 9164.2139 10317379
2451.3567 1274.0613 9160.0449 10317380
2513.4243 1278.0228 9188.5264 10119746
2531.6968 1260.0194 9059.0889 10251332
2582.9824 1258.8531 9050.7031 10251331
2619.4468 1250.6578 8991.7822 10316868
2664.1475 1246.6434 8962.9199 10316614
2728.1445 1251.6387 8998.834 10316870
2826.2583 1271.7948 9143.749 10382663
2870.4082 1267.3661 9111.9082 10251077
2891.5474 1253.1285 9009.5459 9988420
2969.8547 1263.7334 9085.791 9923138
2973.8455 1242.9005 8936.0098 9922882
2891.3911 1187.2993 8536.2568 9923139
2933.626 1183.9312 8512.041 9725505
2914.5696 1156.3594 8313.8105 4201224
2960.4839 1155.0531 8304.418 6110741
2910.2551 1116.8917 8030.0518 8281392
2962.5574 1118.6746 8042.8691 8085040
3117.217 1158.4395 8328.7646 7559986
3054.8762 1117.5785 8034.9893 3153931
3153.4028 1135.9194 8166.8545 1510148
3190.9924 1132.0873 8139.3018 393728
3233.1436 1129.963 8124.0298 721408
3266.0649 1124.723 8086.356 1641472
3283.6865 1114.4418 8012.4375 9464907
3452.4224 1155.0089 8304.1006 9923399
3545.321 1169.4214 8407.7207 10054468
3587.2158 1166.8436 8389.1885 10119748
3746.2871 1201.9305 8641.4502 10053698
3763.4985 1191.1716 8564.0977 9987905
3829.5488 1195.9512 8598.4609 9856319
3851.4451 1186.9972 8534.085 9790782
3963.4336 1205.6814 8668.418 9856575
4026.9128 1209.3197 8694.5762 9922368
4049.9546 1200.8757 8633.8672 10053698
4161.3882 1218.5253 8760.7607 9987905
4224.2881 1221.7032 8783.6094 9987905
4298.6387 1228.0754 8829.4229 9527610
4360.4907 1230.7665 8848.7705 9527611
4424.7949 1234.0775 8872.5752 9396540
4441.5571 1224.2069 8801.6094 9330748
4532.4736 1234.7672 8877.5342 9264955
4581.5703 1233.823 8870.7451 9396540
4600.8521 1224.9619 8807.0381 9396541
4588.8105 1208.0536 8685.4727 9199162
4633.4854 1206.2858 8672.7627 9002040
4658.1494 1199.4043 8623.2881 9331005
4709.9976 1199.5958 8624.665 8607282
4764.4766 1200.446 8630.7773 8673075
4809.6533 1198.9592 8620.0879 8475696
4826.9023 1190.615 8560.0957 8607282
4861.8589 1186.7668 8532.4287 8475953
4895.7505 1182.7405 8503.4805 8409903
4942.2954 1181.8218 8496.876 8410158
4939.8584 1169.327 8407.043 8475952
4908.7285 1150.3578 8270.6602 8344366
4973.6758 1154.0563 8297.252 8541489
5082.6543 1167.7992 8396.0586 8344108
5215.1958 1186.6372 8531.4971 8344619
5306.3813 1195.7939 8597.3301 8344362
5335.9473 1191.0223 8563.0244 5842440
5349.2168 1182.7375 8503.46 11040837
5435.6943 1190.6432 8560.2979 11763787
5362.981 1163.8553 8367.7031 11895114
5386.6401 1158.2812 8327.627 11960658
5442.354 1159.6384 8337.3848 12092244
5520.8706 1165.7861 8381.585 12487001
5661.5532 1184.8341 8518.5332 13342056
5865.7466 1216.7195 8747.7773 12553311
5983.9307 1230.3617 8845.8604 11895382
6150.0332 1253.5342 9012.4619 10974026
6275.1094 1268.0173 9116.5908 8803628
6285.521 1259.2806 9053.7773 8408872
6265.0737 1244.5618 8947.9531 8673585
6222.9932 1225.8285 8813.2676 7752226
6343.3379 1239.1359 8908.9434 8345135
6332.6641 1226.8411 8820.5479 10187082
6471.6001 1243.4945 8940.2803 10187337
6443.1372 1227.9735 8828.6904 9331772
6482.1714 1225.4633 8810.6416 9989188
6515.1104 1221.8496 8784.6611 9331259
6546.2319 1217.9552 8756.6621 8080935
6627.7544 1223.4257 8795.9932 7883556
6660.1152 1219.8069 8769.9746 7883813
6712.0801 1219.8069 8769.9746 8212009
6784.6338 1223.5197 8796.668 8146729
6782.7314 1213.851 8727.1543 7817249
7068.519 1255.4247 9026.0537 8278056
7386.7529 1302.0933 9361.585 8737314
7466.7764 1306.389 9392.4697 11237445
7517 1305.4459 9385.6895 13473373
7399.854 1275.6638 9171.5664 12617808
7488.8359 1281.5913 9214.1826 12222797
7620.8359 1294.7416 9308.7285 10446647
7562.2095 1275.5491 9170.7412 7882267
7391.1729 1237.8051 8899.375 7093523
7481.5898 1244.0714 8944.4277 6830611
7639.9619 1261.47 9069.5176 7225112
7514.9824 1232.1667 8858.8379 7751455
7491.4902 1219.7948 8769.8877 7685919
7479.6665 1209.4799 8695.7275 7488284
7459.4404 1197.9569 8612.8809 8540972
7467.7725 1191.1455 8563.9102 9396279
7407.2935 1173.5245 8437.2217 8935217
7715.8462 1214.213 8729.7568 6961683
7772.2129 1214.9382 8734.9707 6895894
8297.7021 1288.5011 9263.8613 10582870
8266.6914 1275.2495 9168.5869 10516562
8223.333 1260.2784 9060.9512 10581584
8144.8843 1240.1588 8916.2979 10778703
8068.4268 1220.5996 8775.6738 10251846
8063.9033 1212.1035 8714.5908 8539689
8050.6919 1202.4181 8644.9551 7882017
7851.3706 1165.234 8377.6152 7684123
8325.5996 1227.8519 8827.8154 8407848
8161.3267 1196.1101 8599.6035 8605740
7859.1392 1144.6752 8229.8047 7882017
0 0 0 0
0 0 0 0
0 0 0 0
0 0 0 0
-5178.145 823.776 5680.6504 1536
-5152.4878 825.05756 5689.4873 1536
-5122.7363 825.69598 5693.8901 1536
-5060.5435 821.07922 5662.0537 1280
-5019.9526 819.9292 5654.1235 1280
-4973.4658 817.79419 5639.4009 1280
-4933.9507 816.78455 5632.438 1280
-4893.082 815.53552 5623.8247 1280
-4863.1113 816.09814 5627.7046 1280
-4826.4751 815.54218 5623.8711 1280
-4787.6206 814.60114 5617.3818 1280
-4745.6392 813.11108 5607.1064 1280
-4691.7515 809.54578 5582.5205 1280
-4581.1206 796.0694 5489.5889 1280
-4609.7856 806.77905 5563.4419 1280
-4561.1885 804.02356 5544.4404 1280
-4518.519 802.2807 5532.4214 1280
-4457.3286 797.19971 5497.3838 1280
-4403.9136 793.44489 5471.4907 1280
-4373.6509 793.83661 5474.1919 1280
-4311.2075 788.34961 5436.3545 1536
-4248.9058 782.80609 5398.127 1280
-4208.291 781.20422 5387.0811 1280
-4131.0132 772.71997 5328.5747 1280
-3989.2793 751.95557 5185.3857 1280
-3930.3408 746.59619 5148.4287 1280
-3895.3264 745.73328 5142.478 1280
-3842.1033 741.34326 5112.2051 1280
-3826.437 744.18768 5131.8198 1280
-3792.6555 743.52631 5127.2593 1280
-3758.1123 742.70386 5121.5874 1280
-3725.3025 742.2132 5118.2041 1280
-3693.6245 741.94196 5116.3335 1280
-3647.2373 738.68701 5093.8882 1280
-3755.3884 766.93817 5288.7041 1280
-4142.834 853.18311 5883.438 1280
-4121.8047 856.05603 5903.249 1280
-4053.3464 849.04327 5854.8901 1280
-4012.3894 847.71973 5845.7632 1280
-3949.3572 841.66864 5804.0356 1280
-3947.8733 848.74335 5852.8213 1280
-3888.333 843.35132 5815.6392 1280
-3420.281 748.46747 5161.3325 1280
-3777.7539 834.15265 5752.2065 1280
-3243.6492 722.73975 4983.9175 1536
-3206.2192 720.96375 4971.6704 1536
-3164.0073 718.06946 4951.7119 1536
-3100.5652 710.25769 4897.8433 1536
-3057.5969 707.03278 4875.6045 1536
-3047.9927 711.53491 4906.6504 1536
-3008.3264 709.03839 4889.4346 1536
-3151.634 750.03815 5172.1636 1536
-3122.0188 750.28613 5173.8735 1536
-3077.688 746.96747 5150.9888 1536
-3048.7957 747.36688 5153.7432 1536
-3003.1191 743.61841 5127.894 1536
-2970.7344 743.1181 5124.4438 1536
-2918.1484 737.50201 5085.7163 1536
-2890.397 738.11072 5089.9136 1792
-2812.7551 725.85754 5005.4175 1792
-2769.2893 722.25659 4980.5859 1792
-2686.5576 708.22687 4883.8389 1792
-2631.6206 701.29865 4836.0625 1792
-2564.3203 690.88684 4764.2642 1792
-2531.6008 689.66382 4755.8306 1792
-2488.4529 685.54041 4727.396 1792
-2464.6431 686.71118 4735.4692 1792
-2443.0422 688.53149 4748.022 1792
-2412.8035 687.93127 4743.8833 1792
-2386.8838 688.56299 4748.2393 1792
-2356.3018 687.84875 4743.314 1792
-2327.7554 687.71863 4742.4165 1792
-2299.7781 687.75555 4742.6714 1792
-2268.6414 686.83685 4736.3359 1792
-2242.8801 687.54297 4741.2051 1792
-2211.946 686.66119 4735.1245 1792
-2186.9873 687.6355 4741.8433 1536
-2161.5764 688.49109 4747.7437 1792
-2137.9238 689.93683 4757.7129 1792
-2113.8496 691.2832 4766.9976 1792
-2085.1836 691.14417 4766.0386 1792
-2057.3948 691.29596 4767.0854 1792
-2036.9003 693.93713 4785.2983 1792
-2007.9138 693.71887 4783.7935 1792
-1997.5375 700.01605 4827.2183 1792
-1971.0887 700.7821 4832.5005 1792
-1948.7627 703.05798 4848.1948 1792
-1921.2213 703.49231 4851.1899 1792
-1905.1805 708.2149 4883.7563 1792
-1875.2615 707.84473 4881.2036 1792
-1859.1757 712.76624 4915.1416 1792
-1844.5635 718.41833 4954.1177 1792
-1835.4946 726.44727 5009.4839 1792
-1809.1216 727.77881 5018.6665 1792
-1787.3298 731.02881 5041.0776 1792
-1763.387 733.49432 5058.0801 1792
-1743.8354 737.90344 5088.4844 1792
-1722.0498 741.50562 5113.3247 1792
-1698.507 744.46667 5133.7437 1792
-1674.1418 747.16876 5152.377 1792
-1665.2438 757.00238 5220.188 1792
-1643.7992 761.39673 5250.4912 1792
-1616.2216 763.06506 5261.9956 1792
-1600.2627 770.39246 5312.5244 1792
-1583.5825 777.65973 5362.6387 1792
-1556.3849 779.95404 5378.4595 1792
-1520.5498 777.92523 5364.4692 1536
-1511.9971 790.06561 5448.188 1536
-1477.0638 788.65051 5438.4292 1536
-1444.2169 788.31097 5436.0879 1536
-1421.6671 793.70465 5473.2822 1792
-1387.7512 792.85663 5467.4341 1792
-1369.2507 800.9856 5523.4907 1792
-1335.272 800.23657 5518.3257 1792
-1322.4731 812.46179 5602.6289 1792
-1398.9983 881.60577 6079.437 1792
-1269.6445 821.23724 5663.1436 1792
-1259.3387 836.68469 5769.6665 1792
-1211.0847 827.07831 5703.4224 1792
-1283.3992 901.62317 6217.4741 1792
-1162.1691 840.58545 5796.5659 1536
-1206.163 898.97424 6199.2075 1536
-1160.3304 891.979 6150.9692 1536
-1103.7655 876.01221 6040.8643 1536
-1083.1749 888.4834 6126.8643 1536
-1089.0592 924.28888 6373.7734 1536
-1067.099 938.18622 6469.6079 1536
-1026.7596 936.35834 6457.0029 1536
-999.51038 946.78864 6528.9292 1536
-997.15576 982.58978 6775.8091 1536
-971.2525 997.21686 6876.6753 1536
-927.49744 993.99316 6854.4453 1536
-896.46271 1004.7309 6928.4912 1536
-856.77832 1006.3397 6939.5854 1536
-816.03955 1006.8098 6942.8271 1536
-775.13281 1007.1116 6944.9087 1536
-726.38519 996.68866 6873.0332 1536
-705.48505 1025.5072 7071.7617 1536
-684.78613 1058.2762 7297.7329 1536
-620.50024 1023.5627 7058.3525 1536
-598.45514 1058.5469 7299.5991 1536
-553.32104 1054.9604 7274.8677 1536
-509.18338 1052.8284 7260.165 1536
-480.12921 1084.3688 7477.6636 1536
-439.27316 1092.9579 7536.8931 1536
-398.17371 1102.8171 7604.8809 1536
-349.75247 1092.3257 7532.5332 1536
-304.91855 1091.6074 7527.5801 1280
-260.82233 1093.7363 7542.2612 1280
-214.33212 1084.6311 7479.4727 1024
-173.93483 1109.6497 7651.9971 768
-126.86121 1094.6998 7548.9058 512
-82.972939 1105.9231 7626.2998 263168
-38.011585 1112.583 7672.2251 1972494
7.4706202 1115.7478 7694.0488 1708296
53.283981 1120.4376 7726.3896 1773832
99.91259 1130.0132 7792.4219 2036234
146.88562 1136.1998 7835.0835 2035976
198.05405 1164.0736 8027.2979 2035975
244.85464 1160.451 8002.3169 1838597
293.76413 1166.3771 8043.1821 2035720
342.73959 1170.8743 8074.1938 2166792
390.5845 1170.8805 8074.2368 2232328
440.23233 1175.7001 8107.4727 2232328
492.42471 1185.6986 8176.4204 2363914
544.39648 1193.4221 8229.6807 2232328
598.89355 1204.9565 8309.2207 2298378
646.7796 1202.4478 8291.9209 2298377
684.91473 1183.4449 8160.8799 2495498
737.82422 1190.7931 8211.5518 2561291
791.97382 1199.1099 8268.9023 2627083
839.73755 1197.3519 8256.7803 2561291
894.71008 1205.5005 8312.9717 2692107
943.5202 1204.929 8309.0303 2560778
1002.1721 1216.3591 8387.8516 2560778
1047.9645 1211.8389 8356.6807 2626314
1095.9004 1210.0934 8344.6436 2626571
1144.7798 1209.4955 8340.5205 2626568
1212.9381 1228.4728 8471.3857 2560776
1254.6133 1220.1854 8414.2373 2757640
1301.4609 1217.3699 8394.8213 2691592
1353.8406 1219.7456 8411.2041 2691335
1395.3934 1212.5446 8361.5469 2822921
1446.7825 1214.0916 8372.2148 2888712
1503.4902 1219.8514 8411.9336 3019528
1558.1904 1223.6649 8438.2314 3216650
1614.0355 1228.1125 8468.9014 3347978
1662.5907 1226.9121 8460.624 3479051
1741.1848 1247.3008 8601.2207 3610123
1805.3624 1256.496 8664.6299 3807241
1853.0117 1253.9974 8647.4004 4266501
1901.8004 1252.3837 8636.2715 6436377
1892.4521 1213.5729 8368.6377 9791553
1970.463 1231.3346 8491.1201 9856572
2034.9009 1239.9412 8550.4697 10119745
2094.4893 1245.2465 8587.0547 10185537
2139.2036 1241.6667 8562.3691 10053951
2193.3647 1243.6089 8575.7627 10185537
2241.0488 1241.874 8563.7988 10119744
2299.052 1245.8077 8590.9248 9988158
2348.5166 1245.0443 8585.6602 9856573
2393.9856 1242.2397 8566.3213 10119745
2435.3855 1237.4843 8533.5273 10053953
2487.8 1238.4052 8539.8779 10316868
2584.0779 1260.6888 8693.543 10251077
2597.0295 1242.2438 8566.3486 10251077
2644.7307 1240.8092 8556.4561 10251334
2691.5745 1239.0338 8544.2129 10053955
2764.0286 1248.8958 8612.2197 10053955
2795.9612 1240.423 8553.792 10119748
2826.8862 1231.8126 8494.417 9922626
2816.562 1205.8438 8315.3389 9857601
2817.0837 1185.3315 8173.8892 10185797
2816.3616 1164.998 8033.6719 10055236
2976.251 1210.6737 8348.6455 8937011
2945.9292 1178.7473 8128.4854 6701076
3014.571 1186.809 8184.0776 5845264
3107.395 1203.985 8302.5215 6437653
3210.0088 1224.3597 8443.0225 6174994
3163.7297 1188.1898 8193.5996 6109460
3150.5 1165.3381 8036.0171 5386512
3172.771 1156.1025 7972.3301 5190419
3272.1702 1174.8298 8101.4712 6111266
3232.2522 1143.7189 7886.9341 8807752
3350.2332 1168.5703 8058.3062 9660999
3469.5623 1193.1868 8228.0586 10054467
3512.5151 1191.2192 8214.4902 10382920
3581.1682 1197.9022 8260.5752 10316868
3671.1462 1211.442 8353.9434 10251075
3682.4412 1199.0023 8268.1611 10316611
3763.0015 1209.146 8338.1104 10251075
3834.8762 1216.2719 8387.25 10382918
3906.4216 1223.1125 8434.4219 10448711
3984.7871 1231.8885 8494.9404 10514248
3993.4451 1219.1647 8407.1982 10514504
4100.5659 1236.4437 8526.3525 10514506
4137.8984 1232.5151 8499.2607 10317127
4240.3521 1247.8448 8604.9727 10251077
4302.9248 1251.2135 8628.2021 10251336
4303.1108 1236.5751 8527.2578 10251335
4394.6724 1248.23 8607.6289 10251079
4455.7788 1251.0667 8627.1904 10316872
4506.6704 1251.0034 8626.7539 10317129
4547.394 1248.1505 8607.0811 10251335
4569.2427 1240.2379 8552.5166 10251336
4534.5479 1217.3195 8394.4736 10119748
4560.0405 1210.8806 8350.0723 10251335
4606.1357 1209.9921 8343.9453 10119748
4641.0298 1206.2112 8317.873 10185028
4686.73 1205.2889 8311.5127 10185284
4720.2715 1201.2914 8283.9463 10119493
4758.5698 1198.5743 8265.21 10053699
4758.6172 1186.3762 8181.0933 9922369
4777.8145 1179.1501 8131.2632 9922112
4872.8623 1190.6014 8210.2295 9658683
4920.9951 1190.4766 8209.3682 9527353
5036.6016 1206.5175 8319.9844 9462072
5040.6108 1195.7733 8245.8945 9592888
5132.623 1205.9119 8315.8086 9000750
5259.7104 1224.0203 8440.6816 5710336
5268.4121 1214.4966 8375.0078 9328686
5389.0273 1230.7087 8486.8047 10709818
5465.1353 1236.5509 8527.0918 10184241
5521.4727 1237.8538 8536.0752 10380339
5551.0996 1233.199 8503.9766 10511669
5625.5083 1238.4869 8540.4424 9195810
5709.5811 1245.7893 8590.7979 9919535
5706.4658 1234.1068 8510.2373 10710080
5770.9971 1237.1305 8531.0879 9592628
5648.686 1200.3959 8277.7715 9592887
5743.3882 1210.014 8344.0967 9329459
5810.2529 1213.6532 8369.1924 9001008
5916.6919 1225.4272 8450.3848 8869679
5871.3281 1205.8271 8315.2246 5316868
5740.9067 1169.2299 8062.8545 10449223
6086.8965 1229.4648 8478.2266 10515272
6112.6904 1224.568 8444.459 11962203
6161.9268 1224.4089 8443.3623 13212011
6324.0664 1246.5063 8595.7432 11501135
6378.5605 1247.2026 8600.5449 10515269
6391.0869 1239.7469 8549.1309 8804399
6470.7822 1245.3356 8587.6689 8343847
6563.1479 1253.2565 8642.29 8344104
6597.314 1250.0271 8620.0215 9461813
6615.7227 1243.8849 8577.665 10777927
6792.1069 1267.3121 8739.2168 11567949
6808.8633 1260.8262 8694.4902 13410408
6961.6528 1279.4381 8822.8359 11369027
7087.4478 1292.8484 8915.3115 8868389
7297.3647 1321.2917 9111.4531 8867617
7160.5898 1287.0051 8875.0166 8999460
