# .PCD v0.7 - Point Cloud Data file format
VERSION 0.7
FIELDS x y z rgb
SIZE 4 4 4 4
TYPE F F F U
COUNT 1 1 1 1
WIDTH 1329
HEIGHT 1
VIEWPOINT 0 0 0 1 0 0 0
POINTS 1329
DATA ascii
250.85231 1140.2977 8198.332 2626569
299.58331 1140.8788 8202.5098 2692105
350.68381 1149.0616 8261.3418 2757641
401.01068 1153.0154 8289.7676 2888971
459.98166 1178.2483 8471.1836 3086091
501.08298 1157.2461 8320.1855 3085834
550.34125 1157.1575 8319.5479 3085576
605.15619 1167.8065 8396.1104 3216905
668.64594 1192.306 8572.2539 3479564
724.01135 1199.8821 8626.7227 3545356
771.49921 1194.2646 8586.335 3939083
830.81354 1206.5166 8674.4229 4201477
861.3277 1177.9539 8469.0664 7029793
903.44763 1167.5344 8394.1543 9725757
962.49347 1178.9343 8476.1162 9922879
1015.3815 1182.0352 8498.4102 9988929
1071.8663 1188.8324 8547.2793 9988929
1116.3542 1182.3104 8500.3887 10054466
1171.8044 1187.4602 8537.4141 10120515
1216.2462 1181.49 8494.4902 10120258
1267.2308 1182.0977 8498.8584 10251588
1315.4104 1180.1421 8484.7998 10316870
1375.9014 1188.9694 8548.2646 10382663
1433.8127 1195.0199 8591.7656 10382919
1486.3717 1196.3474 8601.3096 10120261
1549.5752 1205.8704 8669.7764 10185541
1609.8727 1212.5934 8718.1123 10251845
1649.6953 1203.9556 8656.0098 10317382
1702.353 1204.9233 8662.9678 10316868
1754.3779 1205.3998 8666.3926 10448710
1792.4734 1196.5505 8602.7705 10185794
1845.8013 1198.0779 8613.751 10317380
1881.9349 1188.6628 8546.0605 10383173
1931.9545 1188.2819 8543.3213 10185791
1993.0905 1194.5833 8588.626 10251586
2017.3665 1179.0283 8476.792 10251330
2058.4561 1173.817 8439.3242 10317124
2111.7925 1175.6708 8452.6523 9988930
2150.5256 1169.4973 8408.2676 10383433
2210.2263 1174.7477 8446.0156 10515019
2264.4656 1176.927 8461.6846 10515275
2319.9954 1179.6683 8481.3926 10448455
2373.2478 1181.1598 8492.1162 10316868
2420.8745 1179.8475 8482.6816 10316868
2472.9583 1180.7167 8488.9307 10382661
2512.6262 1175.7415 8453.1602 10448710
2572.7854 1180.3618 8486.3789 10317124
2629.3037 1183.1667 8506.5449 10316868
2724.3696 1202.886 8648.3193 10119489
2790.4578 1209.3186 8694.5684 10382150
2715.385 1155.4514 8307.2822 10185027
2882.1379 1204.5718 8660.4404 10316614
2905.2625 1192.9952 8577.209 10316614
2973.8313 1200.1569 8628.6982 10316357
3040.3623 1206.2678 8672.6338 10382406
3108.1458 1212.6643 8718.6221 10579786
3157.9387 1211.9471 8713.4668 10645578
3213.9182 1213.5894 8725.2734 10711371
3270.7058 1215.4797 8738.8643 10645579
3304.2595 1208.8114 8690.9219 10579786
3365.4136 1212.29 8715.9316 10579785
3361.4648 1192.5667 8574.127 10645322
3415.6533 1193.7491 8582.6289 10645322
3468.6816 1194.4973 8588.0078 10645579
3518.99 1194.3009 8586.5957 10645834
3571.4028 1194.8138 8590.2842 10711625
3620.1152 1194.0922 8585.0947 10645832
3652.1997 1187.9816 8541.1621 10579783
3718.7527 1193.0967 8577.9375 10580039
3782.135 1197.0702 8606.5059 10514247
3754.8789 1172.6321 8430.8047 10513219
3767.3274 1161.0724 8347.6953 10447426
3829.4441 1164.9215 8375.3691 10513476
3922.4458 1177.9474 8469.0195 11302733
3918.3833 1161.8628 8353.3779 12026201
4062.3335 1189.5204 8552.2256 11631956
4106.752 1187.7107 8539.2148 11434321
4133.2036 1180.8124 8489.6182 10710854
4213.8984 1189.3903 8551.29 10908746
4284.8525 1195.0474 8591.9629 11434835
4339.7803 1196.1547 8599.9238 10513989
4370.9053 1190.7517 8561.0781 10185281
4499.9814 1211.851 8712.7744 9724730
4569.395 1216.5865 8746.8223 11434322
4588.1953 1207.8916 8684.3086 11697493
4749.418 1236.4678 8889.7607 11631444
4660.2554 1199.9465 8627.1865 12487262
4801.1978 1222.8237 8791.665 10579523
4840.5649 1219.6171 8768.6104 10382658
4940.7461 1231.6384 8855.0391 10448707
4965.606 1224.828 8806.0752 10317634
5098.3765 1244.5001 8947.5107 10514500
5067.4458 1224.2194 8801.6992 10514501
5150.5078 1231.6104 8854.8379 10513988
5316.9287 1258.5845 9048.7715 8803625
5316.9604 1246.0265 8958.4844 11237965
5344.1128 1240.0099 8915.2275 11040328
5503.0391 1264.3876 9090.4941 11829326
5889.1826 1339.9926 9634.0664 8342815
5662.7144 1276.0936 9174.6562 7619352
5781.876 1290.557 9278.6426 6631690
5777.0405 1277.3315 9183.5566 8934181
5702.7163 1249.1321 8980.8125 13277028
5708.7261 1238.8877 8907.1592 10382389
5632.7861 1211.2096 8708.1631 10514234
5702.083 1214.9806 8735.2754 10579774
5815.3867 1227.9761 8828.708 10448963
5864.436 1227.293 8823.7969 10317122
5927.583 1229.5461 8839.9961 10317123
6066.0386 1247.244 8967.2383 10317123
6032.4282 1229.5634 8840.1201 6632719
6157.1787 1244.1869 8945.2588 8409641
6227.8169 1247.7198 8970.6592 9330228
6174.4927 1226.5677 8818.583 10646345
6476.3809 1275.7417 9172.126 11699024
6688.9556 1306.6503 9394.3477 10580295
6771.083 1311.7769 9431.2061 9527608
6893.5957 1324.5795 9523.252 8804656
6870.5068 1309.4243 9414.292 8212524
6968.9937 1317.4974 9472.335 9133880
7068.4419 1325.6219 9530.7471 7752230
7084.9492 1318.1862 9477.2861 9331518
7208.9956 1330.7178 9567.3848 10383947
7385.2051 1352.6079 9724.7666 10515786
7321.8745 1330.6265 9566.7285 10449223
7343.5796 1324.3181 9521.373 10449480
7456.8921 1334.5 9594.5771 10777672
7588.3647 1347.7533 9689.8643 10975310
7526.9888 1326.8132 9539.3125 9067572
7786.2139 1362.278 9794.291 10318153
7727.0918 1341.9318 9648.0088 9726016
7859.8667 1354.9657 9741.7178 10581067
7828.0693 1339.6456 9631.5723 12620393
7735.6968 1314.256 9449.0293 12093792
8042.9214 1356.6328 9753.7041 11961948
7916.0322 1325.7035 9531.334 11106639
7784.7554 1294.4832 9306.8701 10645316
7415.0913 1224.3406 8802.5703 10383169
0 0 0 0
0 0 0 0
0 0 0 0
0 0 0 0
0 0 0 0
8183.5195 1296.5007 9321.376 11900273
0 0 0 0
0 0 0 0
0 0 0 0
0 0 0 0
0 0 0 0
0 0 0 0
13425.849 2031.0758 14602.708 6309429
0 0 0 0
0 0 0 0
17633.578 2617.0266 18815.484 9140583
16520.336 2436.4043 17516.875 9734253
0 0 0 0
0 0 0 0
0 0 0 0
0 0 0 0
0 0 0 0
0 0 0 0
0 0 0 0
-4245.5454 679.83063 4688.022 1280
-4216.0537 679.55457 4686.1182 1280
-4188.2988 679.55652 4686.1318 1280
-4160.5317 679.55652 4686.1318 1280
-4132.1274 679.45172 4685.4092 1280
-4104.8999 679.54041 4686.0205 1280
0 0 0 0
0 0 0 0
0 0 0 0
0 0 0 0
-4422.8721 757.80865 5225.748 1280
-4393.3794 758.06268 5227.5 1280
-4363.5381 758.25977 5228.8589 1280
-4333.9121 758.49719 5230.4961 1280
-4360.0317 768.5647 5299.9204 1536
-4318.8564 766.82977 5287.9565 1536
-4284.6963 766.32416 5284.4702 1536
-4258.665 767.2757 5291.0317 1536
-4227.7139 767.34833 5291.5327 1536
-4154.436 759.68225 5238.6685 1536
-4127.2129 760.38568 5243.519 1536
-4137.0186 767.97363 5295.8447 1536
-4103.3975 767.55432 5292.9531 1536
-4070.7915 767.32013 5291.3379 1536
-4051.9436 769.69556 5307.7188 1536
-4029.1238 771.34784 5319.1128 1536
-3971.1309 766.23944 5283.8857 1536
-3908.9434 760.23401 5242.4731 1536
-3535.4131 693.09558 4779.4956 1536
-3584.8984 708.47205 4885.5298 1536
-3561.7529 709.6283 4893.5029 1536
-3531.6555 709.4071 4891.9775 1536
-3510.0806 710.90826 4902.3291 1536
-3481.4109 710.98553 4902.8623 1536
-3446.8572 709.85242 4895.0483 1536
-3412.9751 708.83948 4888.0635 1792
-3388.5083 709.78149 4894.5591 1792
-3350.8179 707.94592 4881.9014 1792
-3321.4795 707.85822 4881.2969 1792
-3276.9548 704.50421 4858.168 1792
-3242.9485 703.37213 4850.3613 1792
-3217.2791 704.04413 4854.9951 1792
-3208.3806 708.4314 4885.249 1792
-3176.7717 707.83832 4881.1592 1792
-3347.8547 752.81244 5191.2949 1792
-3317.5356 752.91266 5191.9858 1792
-3141.0654 719.53534 4961.8203 1792
-2918.4807 674.86377 4653.7715 1792
-2907.0608 678.63525 4679.7788 1792
-2879.6133 678.70172 4680.2373 1792
-2844.2942 676.89624 4667.7866 1792
-2825.8105 679.10114 4682.9912 1792
-2793.2219 677.92639 4674.8906 1792
-2761.4761 676.93475 4668.0527 1792
-2742.3225 679.04114 4682.5776 1792
-2724.0808 681.41864 4698.9727 1792
-2795.9805 706.62653 4872.8032 1792
-2765.947 706.33038 4870.7607 1792
-2737.0403 706.31854 4870.6792 1792
-2617.9221 682.77856 4708.3506 1792
-2595.1492 684.12994 4717.6694 1536
-2569.1299 684.64551 4721.2246 1536
-2546.459 686.07458 4731.0796 1536
-2528.6396 688.85718 4750.2681 1536
-2518.1841 693.73108 4783.8774 1536
-2495.936 695.43011 4795.5942 1536
-2471.0283 696.41895 4802.4126 1536
-2448.2319 698.03253 4813.54 1536
-2461.3857 710.05511 4896.4463 1536
-2436.4722 711.25201 4904.6997 1536
-2411.5874 712.48627 4913.2109 1536
-2397.0586 716.8476 4943.2861 1536
-2382.7954 721.39728 4974.6602 1536
-2357.8032 722.77203 4984.1401 1536
-2339.717 726.3255 5008.6445 1536
-2320.4077 729.58575 5031.127 1536
-2304.5149 734.01898 5061.6978 1792
-2279.6201 735.66412 5073.0425 1792
-2269.6619 742.23785 5118.374 1536
-2255.1555 747.48218 5154.5381 1536
-2224.4561 747.4295 5154.1748 1536
-2208.9844 752.56317 5189.5762 1792
-2183.9749 754.54663 5203.2534 1792
-2181.3018 764.41437 5271.3003 1792
-2133.7976 758.63007 5231.4126 1792
-2117.5022 763.93445 5267.9907 1536
-2116.7886 775.10309 5345.0083 1536
-2092.4607 777.83282 5363.832 1536
-2087.0225 787.77698 5432.4058 1536
-1999.0858 766.40472 5285.0254 1536
-2025.4763 788.88013 5440.0127 1536
-2148.7725 850.43549 5864.4907 1536
-1985.17 798.60016 5507.041 1536
-2043.4622 835.78845 5763.4863 1536
-2151.3633 894.8761 6170.9473 1536
-2167.1223 917.01721 6323.6289 1536
-2026.6962 872.68481 6017.9189 1536
-1964.6565 861.12177 5938.1816 1536
-1953.9834 872.06189 6013.6235 1536
-2013.5526 915.33984 6312.0625 1536
-1978.4677 916.41296 6319.4624 1536
-1950.9041 921.07831 6351.6343 1536
-1962.2062 944.638 6514.0986 1536
-1820.041 893.77887 6163.3809 1536
-1810.7222 907.41064 6257.3833 1536
-1774.2545 907.72253 6259.5347 1536
-1770.3411 925.05853 6379.0811 1536
-1748.149 933.3913 6436.543 1536
-1715.493 936.38416 6457.1812 1536
-1737.9312 970.27228 6690.8691 1536
-1691.1959 966.22198 6662.939 1536
-1622.4612 949.10895 6544.9297 1536
-1556.9824 933.10901 6434.5962 1536
-1585.8093 974.24249 6718.2471 1280
-1546.8041 974.74854 6721.7368 1024
-1611.3589 1042.2666 7187.332 1024
-1581.8813 1050.9767 7247.3965 1024
-1462.0499 998.46838 6885.3057 768
-1421.0353 998.31641 6884.2573 512
-1441.5801 1042.6805 7190.1875 197888
-1388.1583 1034.6185 7134.5928 394497
-1341.1509 1030.9808 7109.5073 985860
-1314.5348 1043.2909 7194.396 1380101
-1283.2516 1052.598 7258.5767 1576966
-1242.5693 1054.5735 7272.1992 1642503
-1204.1768 1058.7041 7300.6831 1707782
-1165.9907 1063.3309 7332.5889 1708038
-1122.8115 1063.5859 7334.3481 1773831
-1086.6798 1070.8063 7384.1382 1707782
-1040.6437 1068.463 7367.9795 1838855
-1005.4685 1077.5543 7430.6714 1838855
-960.31592 1076.2959 7421.9937 1838599
-926.94 1088.7489 7507.8682 1904391
-896.76825 1106.4109 7629.6631 1970184
-846.82776 1100.2632 7587.269 1969928
-806.87897 1107.1359 7634.6626 1969928
-766.22284 1113.7968 7680.5952 1969671
-712.68378 1101.3895 7595.0366 2034950
-671.99756 1108.5115 7644.1484 2035207
-628.57391 1111.8209 7666.9697 1903364
-588.70422 1122.4219 7740.0728 2232329
-545.79315 1128.5256 7782.1636 2298378
-494.73599 1117.358 7705.1528 2298378
-450.20697 1120.1624 7724.4912 2298377
-405.43143 1122.9188 7743.499 2232585
-359.51239 1122.8071 7742.7295 2232586
-313.06766 1120.7811 7728.7583 2232585
-265.71054 1114.2346 7683.6147 2232585
-221.25786 1119.6788 7721.1572 2363658
-176.95958 1128.9465 7785.0659 2429448
-130.65501 1127.4371 7774.6572 2495497
-84.57431 1127.2673 7773.4868 2429705
-38.54948 1128.327 7780.7935 2429705
7.5367837 1125.6295 7762.1919 2495498
53.765572 1130.5645 7796.2222 2298119
101.33454 1146.0956 7903.3232 2363912
147.52153 1141.1189 7869.0044 2363400
194.00938 1140.3009 7863.3643 2429192
241.76439 1145.8053 7901.3218 2494985
290.63242 1153.9427 7957.4365 2494729
338.7215 1157.1475 7979.5361 2691848
381.2088 1142.7743 7880.4204 2757384
430.2128 1148.9418 7922.9502 2757128
482.4213 1161.6116 8010.3193 2888457
533.71765 1170.0121 8068.2485 3085321
576.21466 1159.3273 7994.5674 3085321
622.63696 1157.5635 7982.4048 3151114
696.75262 1203.8992 8301.9297 3282699
747.49884 1206.4072 8319.2246 3610894
784.51764 1187.8204 8191.0522 3741962
838.9762 1196.2662 8249.2939 3938051
901.55542 1214.7236 8376.5732 7819309
910.80719 1163.1526 8020.9458 9725762
970.27026 1177.6392 8120.8438 9791294
1017.5742 1176.6963 8114.3423 10053695
1066.0574 1177.1409 8117.4072 10251075
1117.1021 1180.2531 8138.8691 10053953
1157.1525 1171.9727 8081.7686 10119746
1205.6865 1172.6013 8086.1035 10119746
1273.7759 1191.4735 8216.2441 10317127
1323.2314 1192.1682 8221.0342 10251845
1374.3739 1194.2794 8235.5928 10120516
1433.1652 1202.6646 8293.415 10251844
1490.8315 1209.5808 8341.1094 10382661
1534.6873 1205.2076 8310.9521 10251588
1579.0553 1201.4962 8285.3584 10251844
1632.8274 1204.9482 8309.1641 10448966
1683.8766 1206.2479 8318.126 10317122
1728.783 1203.1982 8297.0957 10316865
1778.3434 1203.4668 8298.9473 10317121
1811.5265 1192.9359 8226.3281 10316865
1842.8325 1181.7533 8149.2144 10382657
1901.7399 1188.3896 8194.9775 10382914
1959.3405 1193.8993 8232.9717 10448709
2002.6515 1190.6458 8210.5352 10515016
2042.6587 1185.6287 8175.9385 10383175
2088.0986 1183.9244 8164.186 10448967
2135.5798 1183.4285 8160.7661 10580810
2174.6943 1178.4208 8126.2339 10449224
2251.5342 1193.6299 8231.1143 10316868
2269.1501 1177.4628 8119.627 10382918
2311.7744 1174.6742 8100.3979 10382661
2378.6462 1184.0693 8165.1851 10316868
2425.2363 1183.1951 8159.1567 10053953
2483.0337 1187.7159 8190.3315 10119489
2515.5825 1180.2177 8138.625 10185282
2600.3853 1197.0559 8254.7393 10119746
2666.3347 1204.7539 8307.8232 10119748
2733.0278 1212.5026 8361.2568 10317385
2761.6345 1203.3793 8298.3438 10186314
2823.3767 1208.7612 8335.458 10251851
2794.2102 1175.707 8107.52 10120264
2914.4309 1205.5648 8313.415 10185544
2971.5864 1208.7764 8335.5615 10317128
3041.979 1217.1793 8393.5078 10448199
3080.9543 1212.9435 8364.2979 10579785
3143.5273 1217.9847 8399.0615 10579786
3177.301 1211.8843 8356.9932 10579786
3203.1379 1202.9904 8295.6621 10513736
3223.8159 1192.4568 8223.0244 10579786
3249.9844 1184.2377 8166.3462 10579783
3322.9878 1193.0753 8227.2891 10776907
3359.1453 1188.6195 8196.5625 10711371
3406.6753 1188.2573 8194.0654 10711369
3453.3232 1187.6023 8189.5483 10777162
3477.4231 1179.3184 8132.4233 10711626
3516.7417 1176.3516 8111.9648 10777162
3495.5623 1153.501 7954.3901 10514246
3534.8293 1150.9399 7936.729 10448197
3628.3787 1165.8882 8039.811 10842697
3760.8521 1192.7943 8225.3516 10776391
3762.3904 1178.0159 8123.4414 10710340
3732.6689 1153.9468 7957.4644 3938817
3921.5173 1197.2057 8255.7725 10644795
3909.2119 1178.7449 8128.4683 9065508
3951.2678 1176.9253 8115.9209 9591851
3998.4451 1176.6567 8114.0688 9328425
3865.7676 1124.0959 7751.6167 6960393
4005.2793 1150.9878 7937.0596 8341791
4059.9375 1153.1544 7952.0005 8671527
4287.1777 1203.7278 8300.748 10053695
4364.2417 1211.4666 8354.1133 11171920
4378.0732 1201.6761 8286.5996 11632984
4518.8838 1226.5688 8458.2568 10908748
4616.4414 1239.3041 8546.0771 10711881
4664.6411 1238.6565 8541.6113 11040333
4690.5732 1232.1731 8496.9023 10646088
4757.4868 1236.4786 8526.5928 10317123
4771.5718 1227.1078 8461.9727 10382916
4837.8696 1231.2197 8490.3281 10251330
4875.6865 1228.0732 8468.6309 10317121
4939.2788 1231.4171 8491.6895 10383171
5043.4209 1244.701 8583.2939 10186049
5052.1978 1234.4189 8512.3896 13607799
5067.7534 1225.98 8454.1953 11765852
5090.2705 1219.3737 8408.6396 11304019
5179.1548 1228.6398 8472.5371 10513987
5207.0728 1223.4039 8436.4316 10250814
5408.0938 1258.5514 8678.8037 9987898
5469.3081 1260.8081 8694.3652 10316862
5516.4497 1259.8086 8687.4736 9922361
5508.2949 1246.3164 8594.4326 10185532
5507.3906 1234.6967 8514.3047 12555109
5543.4355 1231.4963 8492.2363 13542515
5586.8169 1229.9689 8481.7021 13937785
5592.5542 1220.2548 8414.7158 11436369
5551.4341 1200.579 8279.0332 10185279
5552.7886 1190.353 8208.5166 10250553
5837.0483 1240.4246 8553.8037 10183477
5913.9609 1245.9503 8591.9082 9656359
5968.6987 1246.7496 8597.4209 9787946
6000.0176 1242.6852 8569.3926 10380339
6114.3018 1255.7279 8659.334 11565386
6402.3237 1303.9384 8991.7861 11434061
6394.3247 1291.5608 8906.4326 10645316
6435.3394 1289.2051 8890.1875 10316611
6516.2383 1294.8126 8928.8564 10317123
6581.3696 1297.222 8945.4717 10251074
6650.9531 1300.4636 8967.8252 10119488
6656.1353 1291.1613 8903.6768 10251842
6918.1665 1331.4368 9181.4121 10186308
6969.5723 1330.8645 9177.4648 10384199
6917.6943 1310.7312 9038.6289 10975825
7036.4834 1322.996 9123.2051 10976081
7046.2974 1314.7405 9066.2764 10778445
7089.4702 1312.7874 9052.8076 10251845
6914.1431 1270.7065 8762.624 7817509
7244.4824 1321.4937 9112.8457 7027995
7231.1392 1309.3007 9028.7646 4397063
7186.4023 1291.6444 8907.0088 1769984
7212.0225 1286.799 8873.5947 7425567
7189.2129 1273.4449 8781.5078 11305294
6918.125 1216.6207 8389.6553 12292705
7077.9165 1235.8412 8522.1973 11699028
7188.6172 1246.2786 8594.1719 10448707
7455.2964 1283.4207 8850.2988 7882782
7540.8174 1289.0753 8889.293 8671789
7572.4268 1285.4996 8864.6357 5976347
7522.5005 1268.2269 8745.5254 3278848
7500.8516 1255.9254 8660.6953 3477248
7710.7935 1282.3046 8842.6025 6439455
7761.0435 1281.9501 8840.1582 10319697
8053.2461 1321.2976 9111.4932 7687975
8055.6724 1312.894 9053.543 8147755
7891.1367 1277.5704 8809.957 8475952
7743.5327 1245.4346 8588.3516 10646867
0 0 0 0
0 0 0 0
0 0 0 0
0 0 0 0
0 0 0 0
0 0 0 0
0 0 0 0
0 0 0 0
0 0 0 0
0 0 0 0
0 0 0 0
0 0 0 0
0 0 0 0
0 0 0 0
-4157.0303 692.85614 4590.2817 1280
-4127.5049 692.46588 4587.6963 1280
-4112.9136 694.59259 4601.7856 1280
-4074.1858 692.64417 4588.8774 1280
-4047.3301 692.7016 4589.2578 1280
-4020.3799 692.74347 4589.5352 1280
0 0 0 0
0 0 0 0
0 0 0 0
0 0 0 0
-4344.978 774.88177 5133.7144 1280
-4315.6484 775.07745 5135.0112 1280
-4228.1973 764.76337 5066.6787 1280
-4025.5613 733.31903 4858.355 1280
-4168.2461 764.7804 5066.7915 1536
-4124.7324 762.28717 5050.2734 1536
-4145.0063 771.6322 5112.1855 1536
-4126.6436 773.86926 5127.0063 1536
-4067.7451 768.48151 5091.3115 1536
-4022.8806 765.6842 5072.7793 1536
-3989.5059 765.04828 5068.5659 1536
-3959.291 765.01318 5068.3335 1536
-3964.0547 771.78778 5113.2163 1536
-3933.4026 771.71826 5112.7559 1536
-3932.1484 777.46021 5150.7969 1536
-3902.332 777.60052 5151.7266 1536
-3872.3281 777.70532 5152.4209 1536
-3838.1189 776.96057 5147.4868 1536
-3760.9539 767.4386 5084.4023 1536
-3384.9534 696.29175 4613.043 1536
-3510.729 728.04309 4823.4009 1536
-3483.1335 728.24908 4824.7656 1536
-3454.6724 728.276 4824.9438 1536
-3422.7161 727.56036 4820.2026 1536
-3396.748 728.11627 4823.8857 1536
-3370.8655 728.70013 4827.7539 1536
-3346.7058 729.66968 4834.1772 1536
-3316.926 729.41998 4832.5229 1536
-3276.3574 726.77277 4814.9849 1536
-3282.6565 734.56677 4866.6211 1536
-3270.9153 738.42609 4892.1899 1536
-3275.0579 745.97241 4942.1855 1536
-3217.0261 739.36542 4898.4131 1536
-3219.6628 746.70844 4947.062 1536
-3250.0356 760.67822 5039.6138 1792
-3182.9382 751.88232 4981.3394 1536
-3157.7905 752.92395 4988.2402 1536
-2884.9233 694.36243 4600.2612 1536
-2860.4629 695.04236 4604.7656 1536
-2833.4346 695.10529 4605.1826 1536
-2807.1235 695.34723 4606.7856 1536
-2787.9619 697.3822 4620.2676 1792
-2761.5767 697.63269 4621.9272 1792
-2733.3 697.4057 4620.4233 1536
-2715.676 699.91962 4637.0781 1792
-2692.6167 701.0697 4644.6978 1792
-2670.3884 702.46222 4653.9233 1792
-2645.0364 703.05334 4657.8398 1792
-2620.4692 703.86792 4663.2363 1792
-2602.4167 706.46826 4680.4644 1536
-2583.751 708.95642 4696.9487 1536
-2558.1082 709.56348 4700.9702 1536
-2531.4312 709.89386 4703.1592 1536
-2516.3108 713.50854 4727.1069 1536
-2493.9504 715.12854 4737.8398 1536
-2478.9226 718.91187 4762.9053 1792
-2448.3279 718.21588 4758.2939 1792
-2434.376 722.44269 4786.2974 1792
-2446.7471 734.6731 4867.3257 1792
-2405.7656 730.98419 4842.8862 1792
-2388.9209 734.62872 4867.0317 1792
-2372.719 738.56226 4893.0923 1536
-2355.1274 742.1554 4916.897 1536
-2335.9463 745.33118 4937.937 1536
-2317.8069 748.92426 4961.7417 1536
-2301.3596 753.16333 4989.8267 1536
-2279.0552 755.57098 5005.7773 1536
-2257.032 758.1366 5022.7749 1536
-2229.8892 759.02814 5028.6816 1536
-2209.7969 762.37622 5050.8633 1536
-2193.1775 767.03082 5081.7007 1536
-2189.2166 776.30383 5143.1357 1536
-2159.6514 776.63092 5145.3032 1536
-2146.499 782.95435 5187.1968 1536
-2118.0535 783.802 5192.8125 1536
-2077.1677 780.00317 5167.645 1536
-2093.0601 797.73071 5285.0923 1536
-2078.7676 804.3175 5328.731 1536
-2051.0017 805.81396 5338.6455 1280
-1973.407 787.47363 5217.1377 1536
-2261.7852 916.91229 6074.6895 1536
-2244.4348 924.59302 6125.5752 1536
-2210.0356 925.38739 6130.8379 1536
-2171.9392 924.63446 6125.8496 1536
-2153.655 932.43359 6177.5205 1536
-2105.8186 927.48663 6144.7456 1536
-2095.1973 939.04486 6221.3208 1536
-2059.3801 939.52234 6224.4844 1536
-2041.7245 948.45392 6283.6577 1536
-2003.7698 948.11249 6281.3955 1536
-1968.7906 949.19275 6288.5522 1536
-1931.1295 948.99664 6287.2534 1536
-1898.5081 951.3183 6302.6348 1536
-1879.8035 960.84644 6365.7603 1280
-1850.871 965.43005 6396.127 1280
-1815.7789 966.92511 6406.0317 1280
-1744.0685 948.56793 6284.4126 1536
-1747.3176 971.0683 6433.4814 1536
-1722.9171 978.86359 6485.1265 1536
-1684.0192 978.58978 6483.3125 1280
-1596.0436 949.11841 6288.0601 1280
-1580.7079 962.46735 6376.4985 1280
-1560.5582 973.4671 6449.374 1280
-1572.7621 1005.7078 6662.9731 1024
-1506.1146 987.88849 6544.918 768
-1499.1654 1009.3196 6686.9023 512
-1473.1299 1018.7155 6749.1514 460289
-1398.9688 994.4267 6588.2349 854274
-1403.256 1026.1075 6798.125 1446151
-1352.5822 1018.2838 6746.2915 1511174
-1324.9281 1027.8417 6809.6138 1576453
-1300.6796 1040.7249 6894.9668 1642245
-1263.4796 1043.7446 6914.9736 1707782
-1235.6903 1055.0012 6989.5508 1642246
-1200.8519 1060.8118 7028.0464 1576453
-1165.8798 1066.9172 7068.4956 1642246
-1135.2441 1077.5942 7139.2324 1576453
-1078.8951 1063.7451 7047.48 1707525
-1043.8922 1070.6747 7093.3896 1839110
-1001.7695 1070.577 7092.7422 1838855
-962.39911 1073.5408 7112.3774 1904648
-926.4248 1080.7377 7160.0586 1838855
-892.09338 1090.634 7225.6235 1838855
-855.17535 1098.2065 7275.7925 1904648
-814.40009 1101.3667 7296.729 2035721
-775.63275 1107.7488 7339.0117 1969928
-733.02454 1109.0779 7347.8164 1903878
-681.60394 1096.3994 7263.8203 2101000
-641.47504 1101.3995 7296.9468 1969414
-606.29547 1116.2345 7395.2305 2035207
-561.77789 1114.8496 7386.0552 2166793
-517.21545 1113.134 7374.6899 2166792
-474.30261 1114.9799 7386.918 2364171
-430.06839 1113.7788 7378.9609 2298377
-386.0845 1113.0276 7373.9844 2298377
-342.97357 1114.9225 7386.5376 2166792
-298.85172 1113.6046 7377.8071 2166792
-252.95294 1104.0792 7314.7002 2166792
-212.01503 1116.7452 7398.6143 2231815
-168.32076 1117.7113 7405.0142 2297608
-124.62272 1119.3248 7415.7046 2166279
-80.951035 1123.0614 7440.46 2100486
-36.934311 1125.2242 7454.7886 2232071
7.2511988 1127.2283 7468.0654 2363912
51.437279 1125.801 7458.6099 2363912
97.150246 1143.6677 7576.9795 2429705
142.0284 1143.5188 7575.9932 2429192
185.27394 1133.4536 7509.3096 2692363
230.35806 1136.3564 7528.541 2494983
277.82986 1148.1848 7606.9062 2494727
319.99619 1137.8458 7538.4087 2626055
366.90234 1144.8291 7584.6743 2691591
415.38724 1154.6768 7649.9165 2888713
462.23465 1158.4829 7675.1323 2822664
507.21524 1157.3473 7667.6094 2953735
558.68896 1169.9963 7751.4106 3019528
603.20178 1167.2534 7733.2393 3019271
651.992 1172.5908 7768.5996 3282443
708.3092 1189.8684 7883.0669 3413515
747.02124 1177.2635 7799.5576 3413514
812.9953 1206.5878 7993.835 3610632
871.21411 1221.807 8094.6646 3938307
889.77155 1182.7185 7835.6973 7819053
922.30847 1165.1676 7719.4199 9791810
971.12274 1168.8671 7743.9297 10119490
1019.5737 1171.8152 7763.4614 10053696
1068.5059 1175.0377 7784.8115 10185282
1115.9943 1176.4717 7794.3115 10119745
1164.302 1178.6212 7808.5527 10185538
1220.433 1188.2231 7872.166 10251333
1269.2788 1190.2863 7885.835 10316868
1319.2335 1193.2059 7905.1782 10316868
1360.6991 1188.5104 7874.0698 10317125
1413.345 1193.568 7907.5771 10251331
1461.6093 1194.7195 7915.2056 10382918
1513.9634 1199.0385 7943.8193 10382661
1564.3115 1201.5562 7960.5 10251075
1614.8708 1204.0839 7977.2461 10383173
1644.874 1191.5767 7894.3843 10514758
1695.0094 1193.9419 7910.0547 10514501
1740.8577 1193.2415 7905.4136 10515013
1786.3521 1192.3416 7899.4517 10185791
1837.85 1195.3923 7919.6636 10185793
1876.0002 1189.8257 7882.7837 10251330
1925.3223 1191.4427 7893.4976 10317380
1967.1315 1188.4446 7873.6333 10251330
2014.4751 1188.8513 7876.3281 10382661
2059.2888 1187.7804 7869.2334 10514503
2088.179 1177.7756 7802.9497 10448454
2132.3157 1176.6173 7795.2764 10316867
2174.8713 1174.6544 7782.272 10316868
2210.9214 1169.3323 7747.0112 10382661
2269.8894 1176.1011 7791.8555 10448197
2343.5825 1190.0775 7884.4517 10316867
2379.1296 1184.5155 7847.6025 10382404
2434.9478 1189.0656 7877.748 10382660
2483.6108 1190.0164 7884.0469 10448197
2545.2761 1197.047 7930.626 10120005
2619.0444 1209.4116 8012.5439 10251848
2659.8271 1206.375 7992.4258 10449486
2688.7122 1198.1431 7937.8877 10317903
2716.3345 1189.641 7881.5601 10186317
2785.1206 1199.1497 7944.5571 10251853
2827.7935 1197.286 7932.2095 10251595
2868.5603 1194.6895 7915.0068 10382663
2944.1787 1206.4578 7992.9736 10579529
2978.0679 1201.0244 7956.9775 10513737
3039.6758 1206.765 7995.0093 10513993
3086.0959 1206.3923 7992.54 10711116
3109.2944 1197.0903 7930.9131 10579785
3146.8494 1193.5104 7907.1953 10316868
3178.9058 1187.9807 7870.5605 10448454
3219.9124 1185.9073 7856.8242 10448454
3280.2178 1190.8995 7889.8979 10514247
3245.1243 1161.603 7695.8042 10646089
3302.5933 1165.7925 7723.5601 10514760
3304.5349 1150.5345 7622.4736 10252614
3339.7598 1147.1198 7599.8506 10384204
3309.3372 1121.548 7430.4331 9138250
3315.0808 1108.7435 7345.6016 8746321
3264.4971 1077.6761 7139.7749 10852982
3348.665 1091.3188 7230.1602 11247737
3724.917 1198.6035 7940.9385 10318920
3691.7058 1173.0983 7771.9619 10317894
3750.3452 1177.0488 7798.1348 10251329
3776.2803 1170.7639 7756.4961 10250558
3868.5166 1184.9384 7850.4043 9526833
3780.6892 1144.2772 7581.0176 9593142
3844.8284 1150.0256 7619.1021 9528119
3784.9128 1118.9653 7413.3228 10976081
3863.9778 1129.2344 7481.3564 10845526
3997.6956 1155.0613 7652.4644 11306848
4109.3516 1174.0061 7777.9766 10977372
4363.877 1232.8947 8168.1221 10779988
4398.3677 1229.0081 8142.373 11239767
4434.0688 1225.5405 8119.4004 10844751
4523.8882 1236.9448 8194.9551 11305045
4544.0435 1229.2611 8144.0498 9265206
4643.0952 1242.858 8234.1309 9527863
4658.1035 1233.9092 8174.8438 9461557
4711.9302 1235.3215 8184.2007 10842955
4792.1016 1243.5416 8238.6602 10448453
4646.1646 1193.5128 7907.2114 10251074
4784.8193 1216.8594 8061.8862 10514247
4867.6694 1225.6927 8120.4087 10974541
4868.4614 1213.8929 8042.2329 10843211
4872.4619 1203.114 7970.8208 10448196
5154.8076 1260.6117 8351.752 10250815
5239.7471 1269.199 8408.6445 10251072
5312.0342 1274.5887 8444.3525 10316610
5355.7417 1273.0844 8434.3857 10317123
5492.8345 1293.6008 8570.3105 8343592
5350.8062 1248.6084 8272.2285 6304787
5509.4805 1273.9648 8440.2188 11106380
5510.7236 1262.7893 8366.1797 10777930
5469.8628 1242.2512 8230.1113 10314814
5023.5205 1130.8014 7491.7388 3014656
5099.0317 1137.7451 7537.7417 9655338
5331.1489 1179.2084 7812.4419 11694909
5403.9897 1185.0302 7851.0122 12485450
5450.0776 1184.9362 7850.3896 10511151
5492.7793 1184.1136 7844.9404 10971707
5671.8462 1212.4554 8032.71 11169861
5967.6372 1265.0697 8381.2871 11631441
6149.5845 1292.8811 8565.542 11697747
6152.0747 1282.8173 8498.8672 11303759
6236.2261 1289.8063 8545.1709 11040587
6298.7539 1292.2465 8561.3379 11566925
6166.7109 1255.0487 8314.8965 11369290
6374.0708 1286.9684 8526.3691 11237703
6335.1104 1269.0432 8407.6123 11041098
6534.5552 1298.7823 8604.6387 8146208
6690.9834 1319.5774 8742.4092 10186308
6546.6191 1281.1871 8488.0684 9989186
6390.6514 1241.1289 8222.6758 9856831
6264.6714 1207.4565 7999.5913 9725244
6389.8574 1222.3364 8098.1724 10053952
6173.5176 1172.1497 7765.6777 9791035
6203.9438 1169.2119 7746.2139 11369808
6289.6206 1176.6533 7795.5146 12685925
6419.4541 1192.1869 7898.4272 12423008
6546.5864 1206.9976 7996.5498 12423004
6540.2065 1197.1565 7931.3511 13475438
6552.2866 1190.8108 7889.3105 13672560
6801.8027 1227.4009 8131.7256 12685666
6758.6543 1211.0358 8023.3042 12026966
6783.6411 1207.0226 7996.7158 12224603
6844.603 1209.4218 8012.6108 11370322
7310.5166 1282.8489 8499.0771 9199158
7466.4624 1301.2501 8620.9883 7555879
7101.5654 1229.2461 8143.9507 7756339
7917.2222 1361.183 9018.0527 11901293
8239.1299 1407.031 9321.8027 12097646
8583.7529 1456.1218 9647.0381 11504738
8155.5508 1374.3308 9105.1592 9924684
7784.8369 1303.2385 8634.1621 11041881
7685.8369 1278.2646 8468.7061 10120779
7823.6309 1292.7416 8564.6172 10054730
7683.6001 1261.4211 8357.1152 9988166
0 0 0 0
0 0 0 0
0 0 0 0
0 0 0 0
0 0 0 0
0 0 0 0
0 0 0 0
0 0 0 0
0 0 0 0
0 0 0 0
0 0 0 0
-4069.2314 704.84741 4493.3325 1280
-4040.1672 704.42212 4490.6211 1280
-4013.0986 704.34137 4490.1064 1280
-3986.5339 704.34869 4490.1528 1280
-3959.5623 704.28357 4489.7378 1280
0 0 0 0
0 0 0 0
0 0 0 0
0 0 0 0
0 0 0 0
-3898.4783 722.54657 4606.1626 1280
-4172.9048 778.86182 4965.1665 1280
-4151.769 780.41901 4975.0938 1280
-3584.3486 678.57776 4325.8657 1280
-3581.4126 682.90552 4353.4551 1536
-3541.5911 680.21173 4336.2822 1536
-3611.8311 698.77191 4454.6016 1536
-3745.1775 729.90424 4653.0669 1536
-3934.6255 772.51318 4924.6948 1536
-3663.9006 724.73468 4620.1118 1536
-3409.3201 679.45447 4331.4546 1536
-3385.6067 679.84644 4333.9536 1536
-3447.9519 697.65753 4447.4976 1536
-3802.3286 775.28766 4942.3818 1536
-3820.436 785.02588 5004.4624 1536
-3794.1592 785.72528 5008.9204 1536
-3766.9436 786.23956 5012.1992 1536
-3732.5171 785.24506 5005.8594 1536
-3398.8423 720.77466 4594.8667 1536
-3444.6226 736.38177 4694.3608 1536
-3482.1096 750.45569 4784.0806 1536
-3460.0024 751.81165 4792.7246 1536
-3431.2246 751.72864 4792.1953 1536
-3404.9067 752.18774 4795.1221 1536
-3374.4717 751.73724 4792.2505 1280
-3343.7244 751.20898 4788.8828 1536
-3324.9094 753.37543 4802.6934 1536
-3290.2393 751.95557 4793.6421 1536
-3265.8564 752.88269 4799.5522 1536
-3186.0203 740.92993 4723.355 1536
-3155.0078 740.2204 4718.8315 1536
-3131.6633 741.31311 4725.7974 1536
-3096.8318 739.68195 4715.3989 1536
-3097.2939 746.52777 4759.0405 1536
-3045.4343 740.77252 4722.3516 1536
-3034.1106 744.86212 4748.4219 1536
-2982.4626 739.03601 4711.2812 1536
-2875.0417 719.14911 4584.5044 1536
-2900.5527 732.45099 4669.3022 1536
-2942.0493 750.08453 4781.7144 1536
-2899.707 746.47827 4758.7246 1536
-2865.781 744.98901 4749.231 1536
-2846.3369 747.27234 4763.7871 1536
-2820.9753 748.03223 4768.6313 1792
-2793.3296 748.19568 4769.6733 1792
-2768.918 749.23761 4776.3154 1792
-2746.9363 750.96545 4787.3301 1792
-2720.8528 751.59613 4791.3506 1792
-2716.5828 758.32935 4834.2744 1792
-2705.6147 763.31641 4866.0664 1792
-2669.5471 761.25354 4852.9155 1792
-2651.7749 764.41962 4873.0991 1792
-2626.1372 765.36316 4879.1143 1536
-2604.71 767.56842 4893.1724 1792
-2590.4104 771.94739 4921.0879 1792
-2564.4248 772.90399 4927.186 1792
-2531.3662 771.72626 4919.6782 1792
-2507.1084 773.23547 4929.2993 1792
-2500.7622 780.36957 4974.7783 1536
-2451.0376 773.97595 4934.02 1536
-2425.0342 775.00916 4940.6064 1536
-2431.7451 786.65027 5014.8174 1536
-2402.2056 786.7077 5015.1836 1536
-2382.561 790.04767 5036.4756 1536
-2372.864 796.81281 5079.6025 1536
-2353.8513 800.58331 5103.6392 1536
-2299.4866 792.27167 5050.6533 1536
-2282.676 796.85052 5079.8428 1536
-2279.2878 806.29987 5140.0815 1536
-2240.2847 803.23578 5120.5483 1536
-2213.8809 804.66687 5129.6714 1536
-2191.543 807.63629 5148.6011 1536
-2171.2859 811.46716 5173.0225 1536
-2148.8218 814.57117 5192.8101 1536
-2125.2629 817.34418 5210.4878 1536
-2092.446 816.58606 5205.6553 1536
-2082.2378 824.76038 5257.7651 1536
-2052.7285 825.42188 5261.9824 1536
-2072.4495 846.20502 5394.4731 1536
-2008.5667 832.96826 5310.0898 1536
-2217.9077 934.42151 5956.8442 1536
-2183.0457 934.60754 5958.0303 1536
-2159.437 939.69666 5990.4731 1536
-2122.4082 939.01855 5986.1499 1536
-2103.2888 946.37561 6033.0508 1536
-2083.4919 953.67706 6079.5967 1536
-2043.8706 952.00153 6068.915 1536
-2020.0771 957.77032 6105.6909 1536
-1986.5646 959.05743 6113.896 1536
-1958.3986 963.02155 6139.1665 1536
-1926.0829 965.05634 6152.1387 1280
-1907.9025 974.38898 6211.6328 1280
-1875.3655 976.6123 6225.8066 1280
-1829.3486 971.76428 6194.9009 1280
-1792.6952 971.79346 6195.0869 1024
-1779.9049 985.03003 6279.4688 1024
-1753.5959 991.1908 6318.7432 1024
-1730.131 999.26288 6370.2017 1024
-1702.7567 1005.3868 6409.2412 1024
-1686.6387 1018.588 6493.3975 768
-1658.6256 1025.0543 6534.6191 66048
-1597.2213 1010.7001 6443.1128 394241
-1553.5686 1007.1509 6420.4873 722945
-1487.802 988.72778 6303.0415 1314822
-1471.6056 1003.1461 6394.957 1511175
-1486.8154 1040.3011 6631.8164 1445382
-1396.8324 1003.8736 6399.5942 1379588
-1384.7058 1022.9282 6521.0654 1444867
-1350.3665 1026.1963 6541.8994 1642246
-1325.7045 1037.2292 6612.2334 1642246
-1301.6418 1049.4174 6689.9316 1510660
-1261.7125 1049.1771 6688.4004 1641476
-1222.8926 1049.8739 6692.8423 1641476
-1186.5116 1052.7814 6711.377 1707269
-1154.5057 1059.9071 6756.8027 1707269
-1122.4475 1067.4951 6805.1753 1773062
-1084.2111 1069.5538 6818.2993 1838598
-1042.3514 1068.0593 6808.7725 1838855
-1000.4302 1066.379 6798.0601 1904391
-965.33673 1072.1406 6834.79 1903878
-926.70343 1074.3035 6848.5776 1969928
-889.31262 1078.1705 6873.23 1706500
-858.91486 1091.2938 6956.8896 1509121
-818.84125 1092.8271 6966.6641 1574914
-771.2572 1083.9674 6910.1846 1640963
-738.47473 1096.0836 6987.4238 1772549
-703.40222 1106.0381 7050.8833 2034950
-659.35028 1102.239 7026.6646 2166793
-617.82635 1102.4386 7027.9365 2166793
-573.68573 1097.6604 6997.4761 2232586
-536.09717 1105.6508 7048.4141 2298379
-496.16425 1109.7478 7074.5322 2364171
-454.44211 1110.2299 7077.605 2166792
-413.8916 1113.9633 7101.4053 2166792
-371.28226 1112.3734 7091.27 2298121
-328.89355 1111.1232 7083.2998 2298377
-287.84076 1114.6804 7105.9771 2298378
-244.80443 1110.4594 7079.0679 2166792
-203.06456 1111.5894 7086.272 2297865
-161.30251 1113.1558 7096.2573 2429195
-119.76488 1117.9214 7126.6377 2363658
-77.560951 1118.2711 7128.8677 2297865
-35.340141 1118.923 7133.0229 2166280
6.9386735 1120.9889 7146.1934 2231816
49.745651 1131.5184 7213.3174 2232072
93.620682 1145.3826 7301.7007 2297866
137.25439 1148.4635 7321.3408 2494985
178.69896 1136.1464 7242.8198 2560778
221.45515 1135.3239 7237.5767 2691594
267.23911 1147.7723 7316.9346 2626057
308.12515 1138.6458 7258.7534 2691594
351.74194 1140.61 7271.2754 2757131
395.91672 1143.7576 7291.3413 2822667
443.44632 1155.0239 7363.1626 2888459
488.93283 1159.4271 7391.2329 2822921
534.52704 1163.3407 7416.1812 3019530
577.87689 1162.1461 7408.5664 3151116
622.66309 1163.8048 7419.1401 3216650
667.74866 1165.7675 7431.6514 3348235
710.25104 1163.2565 7415.6445 3413515
767.27124 1183.4301 7544.2495 3610379
822.0191 1198.0707 7637.5815 3610119
848.80164 1172.5515 7474.8994 4004101
905.16156 1188.3958 7575.9053 8081716
946.92426 1184.4836 7550.9653 10120521
982.39069 1173.4039 7480.3335 9856829
1022.9362 1169.0856 7452.8047 10053953
1073.5861 1176.1949 7498.1255 10119489
1129.1654 1187.9249 7572.9033 10185538
1172.1691 1186.0341 7560.8491 10119746
1221.5989 1190.5452 7589.6074 10251331
1263.2804 1187.4526 7569.8926 10316868
1304.6592 1184.2975 7549.7788 10316868
1358.6246 1192.3981 7601.4194 10382660
1396.7858 1186.5535 7564.1602 10448453
1450.3805 1193.7751 7610.1982 10579782
1500.184 1197.5349 7634.166 10579782
1530.2396 1185.7721 7559.1797 10185280
1588.1571 1195.6543 7622.1772 10448451
1613.1204 1180.8663 7527.9058 10579780
1658.8663 1181.6783 7533.0825 10513987
1694.7994 1175.6411 7494.5952 10448452
1752.7423 1184.7898 7552.9175 10382916
1788.9551 1179.1599 7517.0273 10053695
1857.9354 1194.8772 7617.2236 9856572
1896.0656 1190.4789 7589.1851 9987902
1936.0811 1187.4409 7569.8179 9922365
1968.2479 1179.8356 7521.335 10119489
1994.8687 1169.3163 7454.2754 10185282
2051.5752 1176.5057 7500.1074 9724474
2059.5366 1156.0294 7369.5732 9724474
2133.6875 1172.7847 7476.3857 9987902
2186.9031 1177.5852 7506.9888 10382404
2245.5745 1185.0734 7554.7251 10645833
2293.6184 1186.7701 7565.542 10251075
2339.2522 1187.1787 7568.1465 10448197
2386.8052 1188.5275 7576.7446 10448197
2464.5066 1204.5619 7678.9624 10316614
2473.8169 1187.194 7568.2437 10251334
2542.1267 1198.2544 7638.7524 10449739
2433.1709 1126.8337 7183.4531 10054215
2605.5742 1185.9298 7560.1851 9922629
2526.1243 1130.3345 7205.77 9922628
2711.7202 1193.2129 7606.6138 10119748
2761.6333 1195.3081 7619.9707 10447944
2810.9678 1197.0895 7631.3271 10513990
2860.4033 1198.8569 7642.5942 10580039
2906.4153 1199.1566 7644.5049 10316868
2914.293 1183.955 7547.5952 10580039
2961.0476 1184.7681 7552.7783 10513990
3011.9836 1187.2051 7568.314 10316611
3047.5662 1183.6075 7545.3804 10448197
3060.9321 1171.6105 7468.9004 10382660
3122.6453 1178.1969 7510.8887 10448197
3122.5166 1161.593 7405.0405 10316868
3112.9875 1142.0007 7280.1411 10186309
3117.1704 1127.9055 7190.2852 9922881
3005.75 1072.9248 6839.7891 7034420
2881.0481 1014.7293 6468.7983 4930845
2865.6208 996.04407 6349.6821 8024404
2982.0371 1023.0759 6522.0078 7893076
3195.6821 1082.3466 6899.8516 8879455
3168.0134 1059.4215 6753.707 9668196
3379.9983 1116.2119 7115.7397 10056781
3530.9802 1151.7053 7342.0068 10251588
3581.6157 1154.0029 7356.6538 10185536
3699.2307 1177.5668 7506.8711 10513990
3678.2241 1156.9678 7375.5552 10316865
3616.2307 1124.1119 7166.1021 12489316
3627.0125 1114.3783 7104.0513 12555367
3833.9778 1164.4529 7423.2715 10713684
3904.4404 1172.4031 7473.9536 3345664
3894.0237 1156.1614 7370.4141 8872509
3994.3535 1172.7969 7476.4634 8477998
4181.8638 1214.3837 7741.5752 7819553
4184.0303 1201.8296 7661.5444 9529145
4318.894 1227.2522 7823.6113 8805680
4378.1416 1230.8761 7846.7129 8936753
4454.4399 1239.167 7899.5664 11305045
4373.5225 1204.0049 7675.4111 9397048
4504.7642 1227.3715 7824.3716 9461812
4489.0947 1210.6425 7717.7256 9461814
4498.1587 1200.8538 7655.3232 10185538
4444.0142 1174.5544 7487.668 10316867
4582.8101 1199.2651 7645.1963 10382660
4780.8022 1238.8315 7897.4277 10316867
4846.2217 1243.6108 7927.895 10448196
4952.7104 1258.736 8024.3169 10382658
5008.7207 1260.8663 8037.8979 10251071
5077.0869 1266.0378 8070.8652 10119486
5152.2466 1272.7909 8113.9155 10119486
5221.8384 1278.0564 8147.4824 10119485
5290.6797 1283.0435 8179.2744 10185023
5386.7231 1294.4768 8252.1611 9987902
5157.2373 1228.1808 7829.5303 8474669
4422.1216 1043.7261 6653.6499 3015936
5015.5679 1173.3326 7479.8789 3737088
5125.4951 1188.5459 7576.8618 6764302
4952.436 1138.4434 7257.4634 12090174
5136.0537 1170.4889 7461.7505 12615745
5279.7837 1192.9746 7605.0947 11233843
5404.0688 1210.7235 7718.2422 10444845
5378.2295 1194.8229 7616.8774 10314293
5446.293 1199.8746 7649.082 11039558
5629.8428 1230.0759 7841.6118 10185021
5793.9712 1255.5742 8004.1606 10119228
6037.0415 1297.6263 8272.2393 9856570
5799.4634 1236.5206 7882.6968 9987899
5840.124 1235.2416 7874.542 10514242
5970.124 1252.729 7986.0234 10120254
5907.835 1229.9103 7840.5557 9988155
6065.1655 1252.8118 7986.5513 10186049
5885.4023 1206.2683 7689.8408 10251586
6104.4639 1241.5548 7914.7886 10514502
6042.5054 1219.5837 7774.7251 11304019
5929.3125 1187.6826 7571.3584 11369555
5974.7944 1187.8055 7572.1426 11500881
5927.5269 1169.6252 7456.2451 11763792
5823.0303 1140.5051 7270.6069 12026429
6044.9941 1175.2839 7492.3184 12092472
6125.6992 1182.292 7536.9937 12223546
6218.811 1191.5758 7596.1777 12617795
6342.4922 1206.5414 7691.5815 12815435
6487.689 1225.3572 7811.5308 13210709
6572.1235 1232.5115 7857.1387 12750934
6563.6831 1222.27 7791.8496 12093522
6634.1235 1226.7581 7820.4604 11829841
6789.5933 1246.7981 7948.2144 11369808
6680.3726 1218.2906 7766.4824 9790522
6992.2612 1266.4452 8073.4624 6831901
7217.7495 1298.4027 8277.1885 5715733
7338.2329 1311.1669 8358.5586 5844500
7535.1777 1337.3303 8525.3477 10713682
7523.7222 1326.4049 8455.6992 11437404
7517.6792 1316.572 8393.0156 10778959
7421.1875 1291.1321 8230.8389 10581583
7257.7095 1254.4462 7996.9702 10120775
7313.3862 1255.8701 8006.0469 9660226
7315.6406 1248.1609 7956.9019 9725761
7500.5015 1271.5062 8105.7266 9528641
7394.938 1245.6345 7940.7964 9396543
7063.3223 1182.2533 7536.7476 8213562
7146.4863 1188.6578 7577.5757 11372912
7454.5381 1232.1541 7854.8594 10648932
7392.563 1214.3285 7741.2231 11438961
0 0 0 0
0 0 0 0
0 0 0 0
0 0 0 0
0 0 0 0
-4026.094 723.71802 4445.6992 1280
-3961.4458 716.78687 4403.1226 1280
-3937.7385 717.22095 4405.7891 1280
-3913.1519 717.49963 4407.5005 1280
-3886.0986 717.3266 4406.438 1280
-3738.9338 694.8302 4268.2456 1280
0 0 0 0
0 0 0 0
0 0 0 0
0 0 0 0
-3863.3884 743.09064 4564.7026 1280
-3845.0017 744.76819 4575.0078 1280
-4031.8503 786.50562 4831.3945 1280
-3648.3257 716.77966 4403.0781 1280
-3973.5139 786.29169 4830.0811 1536
-3674.6904 732.43512 4499.2476 1536
-3921.1245 787.26569 4836.064 1536
-3460.3774 699.87372 4299.2271 1536
-3436.2549 700.14911 4300.9189 1536
-3405.448 699.05664 4294.208 1536
-3561.417 736.57697 4524.6899 1536
-3554.074 740.63379 4549.6104 1536
-3564.1506 748.41046 4597.3813 1536
-3534.9102 747.98749 4594.7832 1536
-3485.802 743.32123 4566.1191 1536
-3412.3318 733.34631 4504.8447 1536
-3377.0215 731.4798 4493.3789 1536
-3365.8037 734.84357 4514.042 1536
-3391.5798 746.40277 4585.0488 1536
-3396.3987 753.49915 4628.6406 1536
-3364.5645 752.51331 4622.585 1536
-3338.7383 752.86609 4624.752 1280
-3310.5007 752.67651 4623.5874 1280
-3286.2014 753.3866 4627.9492 1280
-3260.8696 753.86993 4630.9185 1280
-3233.7761 753.95068 4631.4146 1536
-3207.4133 754.20465 4632.9746 1536
-3180.7156 754.38367 4634.0742 1536
-3154.9985 754.80035 4636.6338 1280
-3130.4785 755.51331 4641.0132 1280
-3102.7292 755.45258 4640.6401 1536
-3077.8494 756.09558 4644.5903 1280
-3060.5442 758.62781 4660.1455 1280
-3030.344 757.98071 4656.1704 1536
-3032.6851 765.53619 4702.5825 1536
-3016.9624 768.62952 4721.5845 1536
-2986.9849 768.11517 4718.4248 1536
-2960.187 768.4165 4720.2759 1536
-2945.2385 771.82886 4741.2373 1536
-2910.1724 769.98401 4729.9048 1536
-2883.354 770.30676 4731.8877 1536
-2848.3174 768.41882 4720.29 1536
-2822.8132 769.09058 4724.4165 1792
-2798.9285 770.22131 4731.3628 1792
-2765.2019 768.63928 4721.6445 1792
-2744.8828 770.78992 4734.8555 1792
-2741.001 777.64832 4776.9858 1792
-2724.1716 780.93823 4797.1948 1792
-2689.7668 779.20593 4786.5542 1792
-2667.0779 780.867 4796.7578 1792
-2660.575 787.35382 4836.6055 1792
-2605.8953 779.56946 4788.7871 1792
-2609.9177 789.36829 4848.98 1536
-2589.1152 791.79333 4863.8765 1536
-2537.3293 784.69104 4820.248 1536
-2519.2656 787.97461 4840.4189 1536
-2424.9719 767.21613 4712.9023 1536
-2485.5405 795.54022 4886.8936 1536
-2475.9919 801.8255 4925.5029 1536
-2367.1042 775.70685 4765.0596 1536
-2372.8486 786.97638 4834.2866 1536
-2342.9072 786.54126 4831.6138 1536
-2314.6919 786.68188 4832.4775 1536
-2305.7275 793.45081 4874.0581 1536
-2306.2744 803.70593 4937.0537 1536
-2291.6824 808.8811 4968.8442 1536
-2275.3384 813.56451 4997.6138 1536
-2255.3047 817.03473 5018.9312 1536
-2234.1624 820.19073 5038.3179 1536
-2213.4006 823.57385 5059.1001 1536
-2191.5916 826.65491 5078.0264 1280
-2170.8384 830.22552 5099.96 1280
-2155.7051 836.07635 5135.9014 1280
-2122.9355 835.15704 5130.2539 1280
-2099.429 837.90771 5147.1509 1280
-2074.8789 840.31702 5161.9507 1536
-2059.0115 846.36743 5199.1177 1536
-2037.8015 850.37213 5223.7183 1536
-2014.9506 853.80518 5244.8066 1536
-2184.2388 940.03717 5774.5181 1536
-2178.3782 952.435 5850.6758 1536
-2149.8022 955.14142 5867.3013 1536
-2104.8535 950.54303 5839.0537 1536
-2089.917 959.5708 5894.5103 1536
-2058.7515 961.32733 5905.3003 1536
-1971.5305 936.51715 5752.895 1536
-1620.4159 783.27356 4811.5405 1280
-1920.4401 944.92395 5804.5371 1280
-1899.511 951.67023 5845.978 1280
-1930.0026 984.90765 6050.1509 1280
-1885.8998 980.61627 6023.7896 1024
-1844.7764 977.73828 6006.1108 768
-1829.7816 988.8678 6074.4775 768
-1802.6874 993.7738 6104.6147 768
-1772.9915 997.41718 6126.9956 512
-1749.6691 1004.8734 6172.7979 512
-1706.941 1001.2648 6150.6309 328448
-1667.2056 999.29266 6138.5161 657409
-1576.2971 965.87622 5933.2432 1183490
-1646.8009 1032.0967 6340.0264 1314054
-1582.3877 1014.8787 6234.2593 1444869
-1517.4758 996.51013 6121.4233 1379074
-1537.8903 1034.647 6355.6929 1444867
-1486.4225 1025.1244 6297.1968 1576453
-1454.3806 1028.8536 6320.105 1445124
-1420.7482 1031.6249 6337.1289 1510660
-1387.2395 1034.639 6355.6445 1576453
-1356.598 1040.0195 6388.6958 1642246
-1313.1931 1035.6432 6361.812 1641989
-1275.7885 1035.8798 6363.2661 1642246
-1243.824 1040.6829 6392.7705 1576197
-1203.6445 1038.6982 6380.5791 1641476
-1174.8374 1046.717 6429.8379 1641476
-1148.1064 1057.1853 6494.1421 1773062
-1109.869 1057.4167 6495.564 1773062
-1075.1884 1061.1753 6518.6523 1838855
-1042.0232 1066.7654 6552.9922 1773062
-1007.4406 1071.2809 6580.73 1707269
-963.76489 1066.1016 6548.9141 1575427
-921.53113 1062.1495 6524.6372 1377792
-889.58527 1070.2284 6574.2646 1575170
-848.026 1066.952 6554.1377 1706756
-818.37067 1079.0569 6628.4971 1772549
-776.8432 1075.9393 6609.3462 1838342
-745.60754 1087.5018 6680.3726 1903878
-713.15424 1098.4851 6747.8418 2101513
-671.6557 1096.0132 6732.6572 2166793
-630.81378 1094.3682 6722.5518 2166793
-589.0083 1090.717 6700.1235 2166793
-551.2262 1094.5271 6723.5283 2101000
-516.48706 1105.4437 6790.5874 2035207
-475.69873 1104.1639 6782.7261 1969413
-433.9046 1100.0978 6757.7485 1969414
-394.14508 1100.8878 6762.6016 1969414
-353.75424 1099.8938 6756.4951 1969413
-313.53757 1099.2567 6752.5815 2166791
-274.83112 1104.5027 6784.8062 2232328
-234.52483 1104.0149 6781.8105 2166792
-195.6671 1111.5547 6828.1265 2231816
-155.41386 1113.031 6837.1953 2232072
-114.79168 1111.9746 6830.7061 2363658
-74.332237 1112.2026 6832.106 2363913
-34.112309 1120.8456 6885.1987 2429448
6.7003212 1123.3711 6900.7129 2561290
47.923954 1131.2585 6949.1641 2298119
90.128792 1144.3136 7029.3594 2298375
131.97726 1146.0216 7039.8516 2494985
171.85564 1133.9104 6965.4541 2494984
212.82722 1132.3063 6955.6001 2560521
255.07983 1136.9321 6984.0166 2626314
296.43927 1136.8416 6983.4595 2757387
340.23599 1144.9749 7033.4219 2823180
382.15018 1145.6895 7037.8115 2888203
426.89548 1153.916 7088.3462 3020044
469.76779 1156.0596 7101.5132 3085580
514.89282 1162.9386 7143.7705 2887944
557.24487 1162.9852 7144.0571 3085323
597.38757 1158.7399 7117.978 3084810
640.61523 1160.6437 7129.6729 3216648
685.98621 1165.9548 7162.2983 3413514
738.51031 1182.0966 7261.4556 3348234
783.24127 1184.674 7277.2876 3610378
837.17047 1200.1688 7372.4702 4070156
873.54315 1190.2059 7311.2695 4397831
944.06561 1225.5153 7528.1704 3806208
977.14319 1211.2234 7440.377 8475438
977.38696 1159.2231 7120.9468 9725500
1031.83 1173.1492 7206.4927 10053953
1080.0634 1179.1888 7243.5938 10119746
1119.6377 1175.6746 7222.0059 10251332
1164.4139 1177.6802 7234.3262 10316868
1206.7535 1177.1663 7231.1694 10251331
1247.6327 1175.3121 7219.7793 10382661
1293.4076 1178.0398 7236.5347 10382660
1330.3442 1172.8008 7204.3521 10185024
1385.8716 1183.7671 7271.7173 10251073
1429.5798 1184.281 7274.874 10119486
1458.6545 1172.9972 7205.5591 10251072
1505.098 1175.9252 7223.5454 10251072
1546.9636 1175.2136 7219.1738 10316608
1591.8555 1176.7773 7228.7798 10250815
1633.8678 1176.1862 7225.1484 10382402
1673.9603 1174.2786 7213.4302 10316865
1725.0958 1180.0197 7248.6968 10316866
1768.2485 1180.1541 7249.522 10251330
1811.7872 1180.5334 7251.853 10251330
1852.2257 1178.9221 7241.9546 10251073
1890.7186 1176.1735 7225.0698 10317123
1909.0356 1161.2733 7133.541 10317123
1926.9791 1146.7965 7044.6118 10185280
1975.2124 1150.5776 7067.8389 9987645
1943.3064 1108.4893 6809.2954 9987645
2104.3953 1175.9607 7223.7632 10119487
2144.0808 1174.2531 7213.2734 10251074
2190.9299 1176.4586 7226.8218 10316868
2242.6724 1181.157 7255.6831 10250818
2283.0356 1179.7981 7247.3359 10185282
