# .PCD v0.7 - Point Cloud Data file format
VERSION 0.7
FIELDS x y z rgb
SIZE 4 4 4 4
TYPE F F F U
COUNT 1 1 1 1
WIDTH 1277
HEIGHT 1
VIEWPOINT 0 0 0 1 0 0 0
POINTS 1277
DATA ascii
-460.07068 1101.6987 3126.2429 2034693
-443.02759 1105.3944 3136.73 1968900
-426.44174 1110.6046 3151.5146 1837314
-408.25873 1111.9418 3155.3091 1771521
-389.24857 1111.0464 3152.7683 1902594
-371.12631 1112.7229 3157.5256 1837314
-351.81628 1110.8271 3152.1462 2100229
-333.6846 1112.6478 3157.3127 2034436
-313.35651 1106.9261 3141.0764 2100229
-295.6875 1110.468 3151.1272 2231815
-275.23779 1103.3407 3130.9021 1968644
-257.64529 1107.4644 3142.6038 1968387
-239.591 1110.0908 3150.0569 2296580
-220.75246 1109.2206 3147.5874 2494215
-202.36137 1110.6456 3151.6311 2560008
-183.66617 1110.5215 3151.2791 2428422
-164.9845 1110.4606 3151.1057 2165250
-146.6313 1112.8767 3157.9622 2493958
-128.08583 1114.3273 3162.0784 2428422
-109.89307 1119.8693 3177.8044 2691337
-91.517776 1125.458 3193.6636 2691081
-72.615013 1125.7832 3194.5864 2559494
-53.711212 1126.316 3196.0984 2625542
-34.948017 1131.9835 3212.1807 2822921
-15.842542 1126.8611 3197.6448 3020043
3.1161671 1130.9911 3209.3643 2493956
22.160301 1132.3892 3213.3318 2691335
41.215622 1132.8025 3214.5046 2625542
60.814018 1143.1631 3243.9045 2559748
79.96981 1142.2255 3241.2439 3150859
99.46299 1145.5369 3250.6404 3085322
120.10339 1158.8429 3288.3984 2821634
138.55795 1150.2876 3264.1216 5254166
157.79436 1149.524 3261.9546 7094821
174.38216 1131.7375 3211.4827 8212520
193.47839 1132.1292 3212.594 8804909
212.89679 1134.1667 3218.376 9462070
232.9715 1139.0782 3232.3132 10053951
252.42181 1140.4226 3236.1279 9264180
274.15125 1151.1471 3266.5603 9264435
294.99374 1156.9785 3283.1079 9264178
314.38095 1156.7336 3282.4131 9461558
337.06049 1167.9253 3314.1714 9263919
355.19717 1163.0104 3300.2244 9329713
375.29401 1164.6915 3304.9946 10184508
397.32013 1171.8961 3325.439 9526834
417.02466 1171.8961 3325.439 9789750
436.59576 1171.538 3324.4226 9658164
458.33276 1176.7719 3339.2744 9855800
478.51767 1177.7523 3342.0566 9987385
496.67337 1173.8589 3331.0085 9723957
517.39197 1176.0887 3337.3364 9790007
538.64758 1179.3306 3346.5352 9921336
557.33679 1176.9224 3339.7017 9790006
579.61145 1181.9911 3354.0852 9723957
604.21851 1191.3228 3380.5649 9855543
621.81451 1186.6753 3367.3772 9789237
643.5224 1189.92 3376.5847 9789494
661.71527 1186.6656 3367.3499 9855030
680.97949 1185.4668 3363.948 9855030
701.90979 1187.1541 3368.7356 9855287
725.18237 1192.6 3384.1892 9986616
746.69971 1194.9438 3390.8403 10052665
768.08014 1196.9515 3396.5374 9920823
786.21411 1193.9266 3387.9541 9789237
807.24884 1195.3478 3391.9868 9789493
824.63062 1191.4221 3380.8472 9723700
851.52301 1201.0977 3408.3027 9986616
874.91608 1205.5034 3420.8049 9920823
888.76947 1196.863 3396.2864 9789492
914.72375 1204.54 3418.071 9657906
937.55988 1207.8674 3427.5129 9921078
965.02106 1216.8856 3453.1038 9789234
977.22345 1206.6877 3424.1655 9789235
1003.9073 1214.4229 3446.1152 9920564
1030.0619 1221.2222 3465.4094 9788978
1047.3999 1217.5072 3454.8674 9591599
1067.2211 1216.7657 3452.7634 10052150
1092.6293 1222.3024 3468.4746 9526063
1111.012 1219.9203 3461.7151 9723186
1128.462 1216.6191 3452.3474 9920309
1153.5682 1221.5427 3466.3191 9986358
1169.0404 1216.2708 3451.3589 10117945
1188.1959 1214.9465 3447.6013 10183992
1210.7654 1217.0988 3453.7085 9920821
1243.9175 1229.6406 3489.2981 9657649
1263.1882 1228.2747 3485.4219 9920564
1282.1218 1226.6301 3480.7554 9788978
1292.292 1216.7863 3452.8218 9657648
1312.3879 1216.4495 3451.866 9854771
1348.083 1230.3599 3491.3391 9920820
1365.4426 1227.3683 3482.8501 9855028
1392.5052 1233.058 3498.9954 10052406
1401.1858 1222.5422 3469.1553 9657392
1438.3691 1236.8398 3509.7271 9789234
1456.6774 1234.7306 3503.7417 9657649
1478.1969 1235.3645 3505.5403 10117943
1498.5085 1234.9852 3504.4644 10183992
1527.4984 1241.6709 3523.4358 9854773
1555.1002 1247.0629 3538.7363 9657395
1562.5597 1236.374 3508.405 8999979
1594.5658 1245.1332 3533.2605 9328945
1607.3596 1238.8578 3515.4531 9000492
1649.8727 1255.3556 3562.2683 9198904
1643.3965 1234.6324 3503.4634 6042650
1652.551 1226.0229 3479.0322 1966080
1655.8152 1213.3092 3442.9551 2951680
1642.2682 1188.7363 3373.2258 3018240
1676.6884 1199.0575 3402.5137 3215616
1646.0123 1163.134 3300.5752 4992276
1671.0359 1166.9513 3311.4072 4926479
1669.8197 1152.5685 3270.5938 3083520
1608.5908 1097.568 3114.5212 10255160
1666.8784 1124.4385 3190.7703 10319150
1724.4574 1150.2333 3263.9673 10515497
1754.447 1157.2577 3283.9001 10646060
1803.4788 1176.5508 3338.6472 10250794
1823.3693 1176.6202 3338.8442 9987374
1882.5173 1201.7491 3410.1516 10118708
1937.069 1223.4414 3471.7068 9986871
1970.5232 1231.4927 3494.5535 10184249
2026.8947 1253.5499 3557.1443 10579007
2054.4937 1257.5416 3568.4714 9657649
2112.4771 1279.8607 3631.8054 9657906
2160.9055 1295.9991 3677.6006 10183995
2203.1592 1308.1489 3712.0776 10052409
2177.97 1280.4094 3633.3623 9986873
2205.0029 1283.6133 3642.4539 10118458
2224.6667 1282.5068 3639.3142 10052665
2286.6924 1305.6086 3704.8691 9789492
2307.1936 1304.7877 3702.5396 10249787
2321.9204 1300.7474 3691.0747 10118456
2334.3296 1295.4962 3676.1736 10118456
2368.21 1302.1481 3695.0493 10052665
2388.4553 1301.2495 3692.4993 9789236
2402.6829 1297.1185 3680.7771 9920821
2438.9656 1304.8613 3702.7485 9855029
2478.0813 1313.9685 3728.5913 9855031
2507.2837 1317.7046 3739.1934 10249788
2525.1292 1315.4589 3732.8208 9723700
2536.2288 1309.7684 3716.6733 9855287
2561.4919 1311.4276 3721.3813 10315837
2585.8933 1312.6207 3724.7671 9855030
2634.7126 1326.0836 3762.9702 9855030
2650.0583 1322.6143 3753.1252 9723701
2681.5569 1327.1973 3766.1304 9789494
2684.1489 1317.5159 3738.6577 9723701
2738.9207 1333.3958 3783.7192 10052409
2739.3633 1322.7832 3753.6047 9986616
2813.4661 1347.6243 3824.095 9986616
2808.5769 1334.5342 3786.95 9920823
2848.8215 1342.9276 3810.7676 9921079
2879.6323 1346.7769 3821.6904 9921080
2913.0645 1351.7826 3835.895 10052666
2935.4834 1351.6396 3835.4895 10315838
2926.7209 1337.252 3794.6621 10183995
2957.7483 1341.1252 3805.6533 10250044
2980.2983 1341.1252 3805.6533 9789494
3013.5371 1345.8992 3819.1997 9920823
3042.3745 1348.6506 3827.0076 9921080
3075.5166 1353.2555 3840.0747 9986873
3112.0073 1359.2555 3857.1003 9855543
3107.676 1347.4677 3823.6509 9920823
3133.105 1348.661 3827.0371 9855030
3204.4387 1369.4552 3886.0437 9789237
3217.9202 1365.4052 3874.551 9855287
3214.9519 1354.4821 3843.5552 9789493
3254.2068 1361.3767 3863.1196 9394992
3303.9077 1372.5142 3894.7241 9591858
3346.3745 1380.5129 3917.4219 9197358
3398.637 1392.4148 3951.1953 8868393
3453.5918 1405.2493 3987.615 7815453
3501.6516 1415.1227 4015.6326 8210980
3518.323 1412.2637 4007.5195 8803117
3534.3506 1409.1862 3998.7866 8934960
3522.0815 1394.9426 3958.3682 9067058
3506.1709 1379.4546 3914.4187 9329462
3416.7021 1335.4202 3789.4641 8870196
3311.4172 1285.8193 3648.7141 5972743
3243.3459 1251.2183 3550.5278 4460800
3225.6401 1236.3677 3508.3872 3802368
3204.9834 1220.5839 3463.5979 2490368
3193.6667 1208.535 3429.4077 2621440
3208.4761 1206.4626 3423.5271 2490368
3214.2207 1201.0293 3408.1089 2228224
3215.3237 1193.9399 3387.9919 3019523
3160.4167 1166.2699 3309.4734 12158548
0 0 0 0
0 0 0 0
0 0 0 0
0 0 0 0
0 0 0 0
0 0 0 0
0 0 0 0
0 0 0 0
-2347.4155 947.40875 2643.9646 788736
-2400.1743 975.21045 2721.5518 788480
-2408.8416 985.35242 2749.8552 722688
-2396.6821 987.05524 2754.6074 788480
-2389.894 991.00867 2765.6404 657152
-2378.1189 992.93457 2771.0149 656896
-2380.5796 1000.8723 2793.167 657152
-2352.7048 996.07794 2779.7874 853504
-2327.7786 992.47321 2769.7273 721920
-2314.0918 993.64325 2772.9927 656128
-2298.5701 994.0365 2774.0901 655872
-2297.6121 1000.7789 2792.9065 787200
-2289.7971 1004.6109 2803.6006 787200
-2268.3594 1002.4785 2797.6494 852992
-2240.6025 997.50134 2783.7595 852736
-2231.0808 1000.6288 2792.4873 1050368
-2221.1802 1003.6317 2800.8677 984576
-2209.0232 1005.6526 2806.5078 1050368
-2198.6465 1008.5209 2814.5125 852992
-2189.4412 1011.9744 2824.1501 787200
-2179.9619 1015.3536 2833.5803 787200
-2160.2864 1013.9993 2829.8008 852992
-2147.7095 1015.9818 2835.3335 852992
-2131.8503 1016.4305 2836.5859 721408
-2115.1531 1016.4838 2836.7344 984576
-2105.5625 1019.9803 2846.4924 918784
-2090.6602 1020.9396 2849.1694 852992
-2071.7188 1019.926 2846.3406 852992
-2061.481 1023.2156 2855.5212 984576
-2049.1909 1025.5328 2861.988 1115648
-2030.0337 1024.4232 2858.8914 1181184
-2020.3099 1028.0955 2869.1396 1115648
-2002.9591 1027.9158 2868.6382 984320
-1986.6974 1028.2969 2869.7017 1115648
-1972.1835 1029.5968 2873.3296 984064
-1953.7086 1028.8337 2871.2 918016
-1937.5537 1029.2897 2872.4722 1115392
-1922.0631 1030.1095 2874.7603 1115136
-1903.5607 1029.3156 2872.5447 1114880
-1889.3427 1030.8448 2876.8125 1115136
-1870.3121 1029.7524 2873.7637 1312513
-1852.0803 1029.0836 2871.8975 1180928
-1836.2015 1029.722 2873.679 1180928
-1826.0177 1033.5959 2884.49 1180928
-1805.5483 1031.666 2879.104 1180928
-1788.8784 1031.8909 2879.7317 1180928
-1773.5396 1032.8954 2882.5349 1180928
-1754.4325 1031.7034 2879.2085 1312513
-1743.0597 1035.0811 2888.6343 1312256
-1723.2714 1033.4785 2884.1624 1246721
-1711.5831 1036.7504 2893.2932 1246720
-1690.8423 1034.5496 2887.1514 1246720
-1676.5699 1036.3021 2892.042 1312513
-1658.7097 1035.8501 2890.7808 1246721
-1644.9141 1037.9535 2896.6509 1180928
-1630.7278 1039.8521 2901.9492 1246464
-1612.2437 1039.0215 2899.6311 1378050
-1595.2231 1039.1263 2899.9238 1312513
-1576.9392 1038.4015 2897.9009 1312513
-1558.1818 1037.3455 2894.9539 1180928
-1543.4005 1038.9426 2899.4111 1180928
-1524.6198 1037.853 2896.3704 1180672
-1506.1681 1036.9653 2893.8928 983552
-1490.5226 1038.0112 2896.8118 1180928
-1473.4606 1038.0836 2897.0139 1312256
-1459.1588 1040.1252 2902.7117 1180672
-1446.1573 1043.1537 2911.1631 1180672
-1428.2449 1042.6699 2909.8127 1311744
-1414.486 1045.2435 2916.9954 1114880
-1393.9781 1042.832 2910.2656 1246208
-1379.9025 1045.2324 2916.9644 1246208
-1361.866 1044.6554 2915.3538 1180416
-1347.0359 1046.5546 2920.6541 1377793
-1332.1125 1048.4298 2925.8875 1443586
-1316.0402 1049.4382 2928.7017 1509379
-1296.8254 1047.9344 2924.5051 1377793
-1280.4663 1048.7288 2926.7217 1312000
-1263.7653 1049.2609 2928.2065 1443584
-1247.4104 1050.0994 2930.5466 1246208
-1231.3013 1051.1713 2933.5378 1246208
-1216.5055 1053.411 2939.7886 1377792
-1198.36 1052.7732 2938.0083 1377792
-1176.8385 1049.1069 2927.7769 1377792
-1161.1472 1050.6061 2931.9607 1575170
-1146.2267 1052.8589 2938.2476 1509377
-1126.5845 1050.7771 2932.438 1640963
-1112.5845 1053.9751 2941.3628 1574913
-1096.157 1054.9388 2944.0522 1443585
-1082.1696 1058.3199 2953.488 1377792
-1065.2141 1058.8618 2955.0002 1509377
-1046.7773 1057.9247 2952.385 1377792
-1028.8037 1057.4318 2951.0093 1377792
-1009.6355 1055.6727 2946.1003 1509378
-999.82214 1063.8055 2968.7966 1377792
-979.49554 1060.843 2960.5291 1509377
-961.45178 1060.2899 2958.9858 1575170
-943.90973 1060.2799 2958.9578 1443328
-928.21265 1062.3813 2964.8223 1640706
-911.73541 1063.6536 2968.3728 1574656
-896.08698 1065.9617 2974.8142 1509120
-879.03259 1066.6565 2976.7532 1246208
-860.42145 1065.452 2973.3918 1574656
-844.15161 1067.1571 2978.1501 1574657
-827.21057 1068.0682 2980.6929 1508864
-809.50543 1068.011 2980.5332 1443072
-793.24414 1069.8988 2985.8015 1574400
-776.76471 1071.5715 2990.4697 1574657
-759.90564 1072.7866 2993.8606 1508864
-744.01001 1075.4524 3001.3 1574656
-725.93719 1075.0245 3000.1062 1574656
-708.37311 1075.3474 3001.0073 1640449
-692.27094 1077.9636 3008.3081 1903621
-674.57318 1078.1676 3008.8774 1640449
-657.8894 1080.0472 3014.1233 1771522
-640.78522 1081.3225 3017.6821 1508864
-622.92346 1081.356 3017.7754 1574656
-604.91608 1081.1311 3017.1479 1705986
-591.3031 1088.9855 3039.0674 1640449
-574.03491 1090.3901 3042.9873 1837828
-556.63702 1091.6316 3046.4521 1837828
-540.45587 1095.4225 3057.0312 1837828
-520.86426 1092.324 3048.3843 1837058
-506.2847 1099.8915 3069.5029 1903107
-489.29651 1102.5953 3077.0486 1968643
-469.38745 1098.6716 3066.0986 2100229
-453.45404 1104.1122 3081.282 2166022
-434.63602 1102.691 3077.3159 2165765
-417.72012 1106.1824 3087.0593 1902850
-398.71277 1104.2015 3081.5312 2034436
-381.52518 1107.312 3090.2117 2231558
-360.83224 1100.0496 3069.9441 2034436
-345.95697 1110.6936 3099.6487 1968643
-328.69669 1114.4447 3110.1172 2363399
-306.67172 1101.5273 3074.0684 2625800
-290.71979 1110.1697 3098.1868 2494214
-272.36179 1110.1697 3098.1868 2428166
-252.42128 1103.2529 3078.884 2231043
-234.6656 1105.5518 3085.2996 2428422
-215.64047 1101.7533 3074.6987 2494215
-198.25537 1106.4059 3087.6831 2691337
-180.17975 1107.7594 3091.4602 2493958
-162.72675 1113.6803 3107.9839 2559495
-144.56346 1115.631 3113.4277 2559751
-126.06355 1115.1746 3112.1541 2625288
-108.13657 1120.4983 3127.0112 2625288
-89.403069 1117.9385 3119.8674 2559748
-71.129066 1121.2878 3129.2146 2493956
-52.681877 1123.3063 3134.8474 2559492
-34.173534 1125.5092 3140.9951 2428163
-15.62775 1130.2736 3154.2915 2822408
3.0662322 1131.5796 3157.936 2822407
21.772663 1131.2881 3157.1228 2822407
40.672543 1136.6724 3172.1487 2953734
59.735199 1141.7643 3186.3591 3151368
78.692085 1142.8743 3189.4565 3150594
98.283829 1150.989 3212.1028 3741956
117.59442 1153.7125 3219.7034 5845786
136.8862 1155.517 3224.7388 7489319
151.8714 1124.9785 3139.5142 9067828
169.04128 1115.5219 3113.1233 9330743
187.85051 1117.6801 3119.1462 9790266
208.25418 1128.0886 3148.1936 9790263
230.19591 1144.432 3193.804 9658677
249.11775 1144.4196 3193.769 10251072
268.83481 1147.8038 3203.2139 9132336
289.79498 1155.6996 3225.2485 9593141
309.91251 1159.4657 3235.7585 9329713
328.85806 1158.6638 3233.5208 9132077
348.03268 1158.7126 3233.6572 8934698
369.70236 1166.6299 3255.7522 9263662
389.85379 1169.2085 3262.9482 9263406
405.83603 1159.6305 3236.2188 9526578
429.96033 1173.1321 3273.8979 9658164
447.31741 1167.8008 3259.0198 9987385
468.24847 1171.8552 3270.3347 9526578
489.03635 1175.2434 3279.79 9658421
507.23312 1172.3834 3271.8088 9855799
526.92877 1173.071 3273.7275 9790006
546.96295 1174.4368 3277.5391 9987385
567.04803 1175.8143 3281.3835 9921592
586.77118 1176.375 3282.948 10250301
610.54803 1184.7657 3306.3647 10249788
629.52069 1183.6022 3303.1172 9789237
649.70331 1184.7151 3306.2231 9920823
667.87482 1182.2031 3299.2126 9855287
690.85602 1188.1053 3315.6843 10052666
707.51233 1183.1046 3301.7288 10118459
728.29114 1185.0813 3307.2449 9855030
747.36029 1184.2452 3304.9119 9723444
769.41913 1188.0682 3315.5811 9921080
788.91925 1187.8485 3314.9675 9986873
808.69226 1188.0402 3315.5024 10052665
832.34711 1193.7903 3331.5496 9921079
855.64502 1198.7739 3345.4575 9789234
875.4682 1198.7739 3345.4575 9855028
895.89478 1199.5819 3347.7124 9723698
914.47046 1197.9302 3343.103 9789235
937.11206 1201.5618 3353.2378 9854771
959.92041 1205.2521 3363.5364 9526063
978.47357 1203.5581 3358.8091 9920820
1002.8333 1208.9316 3373.8049 10118199
1019.5167 1205.0219 3362.894 10644287
1034.8085 1199.649 3347.8997 9920820
1057.0724 1202.4088 3355.6016 9723185
1088.2666 1215.0375 3390.8447 9723185
1110.7336 1217.6409 3398.1101 9394476
1120.9968 1207.0114 3368.446 9788978
1139.6432 1205.6223 3364.5696 10249785
1155.7786 1201.6704 3353.5408 10381372
1177.0924 1203.1451 3357.6562 9855027
1212.517 1218.7542 3401.2168 9328429
1239.0275 1225.0393 3418.7571 9328427
1250.7406 1216.7272 3395.5603 9723185
1276.6584 1222.2781 3411.0513 9920564
1297.6161 1222.981 3413.0129 9789235
1307.6849 1213.5573 3386.7139 9723185
1335.4539 1220.5962 3406.3577 10118199
1360.7285 1225.1797 3419.1489 9920564
1373.4984 1218.5349 3400.605 9723442
1393.9457 1218.7948 3401.3303 9920564
1422.0745 1225.668 3420.5115 9788978
1442.3456 1225.6707 3420.519 10052150
1474.6653 1235.77 3448.7036 10117943
1504.8778 1243.8517 3471.2576 9986613
1522.821 1241.7108 3465.283 10447163
1547.8849 1245.3561 3475.4558 10052406
1553.0514 1233.1072 3441.2725 9855028
1570.7928 1231.0309 3435.478 9526320
1593.9821 1233.2224 3441.594 9460272
1611.2511 1230.8361 3434.9343 9460274
1658.3036 1250.9772 3491.1428 9197361
1654.4683 1232.7064 3440.1543 3609094
1635.7125 1203.8992 3359.7605 3607808
1648.3118 1198.5845 3344.929 3411456
1654.8713 1189.0566 3318.3391 3346432
1657.7272 1177.1226 3285.0342 3413249
1642.1997 1152.5632 3216.4958 3280896
1644.475 1140.9189 3183.9998 10057011
1660.4017 1138.9025 3178.3723 10319149
1710.6757 1160.2264 3237.8818 10515499
1737.7784 1165.5365 3252.7007 10514731
1767.5051 1172.4705 3272.0518 10448174
1809.134 1187.0637 3312.7776 10250288
1841.616 1195.4064 3336.0596 10184501
1893.7843 1216.2145 3394.1296 10118454
1935.285 1229.8066 3432.0615 10250042
1972.8405 1240.635 3462.2808 10118456
2021.4071 1258.0936 3511.0032 9855284
2077.7986 1280.0171 3572.1855 9328940
2113.2017 1288.699 3596.4143 9986873
2098.8132 1267.146 3536.2659 9921079
2158.105 1290.0636 3600.2227 10184251
2171.3115 1285.2535 3586.7991 10118459
2190.4226 1283.9978 3583.2947 10118458
2224.3857 1291.3888 3603.9209 10118202
2267.0906 1303.666 3638.1833 9921079
2281.3298 1299.4972 3626.5491 10052665
2288.8862 1291.6351 3604.6084 10118459
2309.4788 1291.2067 3603.4126 10250045
2336.2856 1294.2286 3611.8462 10183995
2372.1267 1302.1552 3633.9668 10249788
2391.3755 1300.9126 3630.4993 10118202
2416.7478 1302.9938 3636.3074 10118202
2444.6252 1306.377 3645.7488 9986872
2467.9209 1307.2738 3648.2517 9789237
2488.0227 1306.478 3646.0308 9723444
2500.3215 1301.6337 3632.5117 10052409
2529.6892 1305.6821 3643.8098 9855287
2552.0461 1306.0741 3644.9038 9986616
2580.6929 1309.6515 3654.8872 9855030
2615.635 1316.3374 3673.5459 9920823
2649.7427 1322.4967 3690.7346 9262896
2670.5405 1321.9663 3689.2546 9592115
2718.4297 1334.7465 3724.9204 9789237
2742.2341 1335.5905 3727.2759 10381374
2758.3135 1332.6885 3719.1772 10052665
2780.136 1332.5853 3718.8894 9723700
2828.8254 1345.2605 3754.2625 9789494
2825.7068 1333.2926 3720.8633 9789494
2850.6887 1334.6664 3724.6973 9921079
2854.7996 1326.3226 3701.4119 10381630
2886.5781 1330.8622 3714.0806 10315581
2921.5549 1336.7966 3730.6418 9789494
2954.3027 1341.6294 3744.1292 9855029
2977.6785 1342.1659 3745.6265 9921081
3003.2358 1343.6707 3749.8254 9855030
3020.2578 1341.3624 3743.3838 9723701
3070.2561 1353.6266 3777.6099 9920823
3079.948 1348.0714 3762.1069 8276254
3142.0012 1365.3495 3810.3254 7354900
3134.1223 1352.2091 3773.6543 9460527
3144.9331 1347.2615 3759.8464 9855029
3188.082 1356.1392 3784.6218 9657908
3214.2485 1357.7194 3789.0317 9526322
3239 1358.6842 3791.7244 9395247
3265.8054 1360.4913 3796.7673 9131819
3385.2615 1400.6067 3908.7188 8999728
3538.304 1453.9783 4057.6648 4593928
3603.1575 1470.6351 4104.1494 2490368
3666.9365 1486.6329 4148.7949 2621696
3692.2451 1486.925 4149.6104 2359552
3515.6685 1406.4487 3925.0225 2295810
3431.1301 1363.6083 3805.4661 3346697
3353.7881 1324.1686 3695.4004 3673859
3278.6609 1286.1094 3589.1875 2228224
3244.9807 1264.6941 3529.4231 2031616
3228.1802 1250.0898 3488.6665 1835008
3192.6216 1228.4535 3428.2854 2097152
3213.5598 1228.6921 3428.9512 2228224
3197.0835 1214.7125 3389.9377 1835008
3167.9622 1196.1329 3338.0872 1638400
3191.0891 1197.3889 3341.5925 10648650
0 0 0 0
0 0 0 0
0 0 0 0
0 0 0 0
0 0 0 0
0 0 0 0
0 0 0 0
0 0 0 0
-2409.0977 988.38159 2713.4387 721920
-2385.2627 985.17792 2704.6436 853504
-2397.1367 996.7793 2736.4934 787712
-2357.1138 986.81201 2709.1299 853504
-2344.3379 988.1933 2712.9219 787712
-2327.1697 987.72925 2711.6479 787712
-2316.5403 990.05359 2718.0291 787712
-2307.3926 993.04797 2726.2495 852992
-2288.0078 991.64789 2722.4058 852992
-2284.031 996.95306 2736.9705 787200
-2271.3562 998.51062 2741.2463 852992
-2260.7141 1000.9906 2748.0547 787200
-2245.0439 1001.264 2748.8052 918784
-2244.1619 1008.1849 2767.8054 918785
-2230.0364 1009.2144 2770.6318 918784
-2204.8555 1005.2189 2759.6628 918784
-2193.0452 1007.3051 2765.3901 1050368
-2181.7847 1009.6771 2771.9021 852992
-2170.4028 1012.0284 2778.3572 984576
-2158.8054 1014.3145 2784.6333 984576
-2141.3171 1013.8467 2783.3489 984576
-2125.9578 1014.3873 2784.833 787200
-2109.5435 1014.429 2784.9478 852736
-2099.5256 1017.5717 2793.5754 852736
-2087.22 1019.6466 2799.2717 918272
-2071.4275 1020.0377 2800.3455 852736
-2058.8215 1022.017 2805.7793 918272
-2039.7906 1020.8132 2802.4744 852480
-2026.8114 1022.643 2807.4978 918016
-2015.4122 1025.307 2814.8113 918272
-1994.1802 1022.9713 2808.3989 852736
-1983.9139 1026.2688 2817.4519 1115136
-1966.4265 1025.8552 2816.3164 1115392
-1947.156 1024.4963 2812.5857 1180672
-1931.7135 1025.1455 2814.3679 1115136
-1915.6029 1025.4482 2815.1992 1246720
-1898.8787 1025.425 2815.1353 1180928
-1880.75 1024.6362 2812.97 1312256
-1870.5712 1028.2031 2822.7622 1246721
-1850.1737 1026.1667 2817.1719 1115136
-1838.262 1028.8427 2824.5181 1312513
-1827.7354 1032.3501 2834.1472 1180928
-1813.8068 1033.9833 2838.6309 1246720
-1799.2189 1035.2677 2842.157 1246720
-1781.2075 1034.5879 2840.2905 1049344
-1762.7283 1033.6206 2837.6353 1115136
-1744.6554 1032.8755 2835.5894 1180928
-1729.079 1033.6082 2837.6008 1115136
-1707.0453 1030.4573 2828.9504 1115136
-1692.9485 1032.0825 2833.4124 1180928
-1675.3541 1031.5865 2832.051 1180928
-1651.2601 1027.0381 2819.564 1115136
-1644.0077 1032.9786 2835.8728 1049344
-1626.0967 1032.2758 2833.9431 1115136
-1611.7075 1033.8173 2838.1748 1180928
-1598.1628 1035.9386 2843.9988 1444099
-1580.101 1035.1458 2841.8223 1444099
-1562.7299 1034.7936 2840.855 1444099
-1545.8187 1034.7413 2840.7117 1115136
-1531.2616 1036.2811 2844.939 1180928
-1514.3785 1036.2635 2844.8909 1246464
-1499.2422 1037.4543 2848.1599 1180928
-1483.6998 1038.3881 2850.7231 1115136
-1466.4751 1038.1522 2850.0759 1180928
-1453.0216 1040.6118 2856.8281 1115136
-1432.0109 1037.6533 2848.7061 1115136
-1419.8986 1041.1489 2858.303 1312256
-1401.3649 1039.9637 2855.0493 1377792
-1389.2585 1043.5778 2864.9707 1509376
-1372.3517 1043.6304 2865.1152 1312000
-1354.1351 1042.6758 2862.4946 1443584
-1335.4418 1041.3254 2858.7874 1377794
-1319.6162 1042.2051 2861.2024 1575169
-1302.8976 1042.3933 2861.719 1640963
-1284.609 1041.3137 2858.7554 1575170
-1270.7538 1043.847 2865.7102 1377793
-1254.5121 1044.4622 2867.3989 1377792
-1241.3225 1047.6702 2876.2058 1443585
-1228.1924 1051.0183 2885.3975 1377792
-1210.4905 1050.4934 2883.9565 1443328
-1196.8867 1053.5609 2892.3779 1377792
-1176.2605 1050.4463 2883.8271 1443584
-1161.5608 1052.6104 2889.7683 1443585
-1146.6885 1054.6805 2895.4517 1312000
-1125.1335 1050.5739 2884.1772 1574913
-1109.8469 1052.2837 2888.8713 1575170
-1092.1974 1051.7715 2887.4653 1509377
-1080.2979 1056.8683 2901.4578 1772549
-1064.6213 1058.3752 2905.5947 1377792
-1043.8389 1054.7722 2895.7034 1377792
-1028.6382 1056.7832 2901.2241 1574913
-1015.581 1061.1022 2913.0813 1640963
-995.23529 1057.8239 2904.0808 1509377
-977.81488 1057.5939 2903.4497 1575170
-963.6748 1060.9673 2912.7107 1575170
-944.19702 1058.4799 2905.8821 1312256
-925.65533 1056.969 2901.7341 1377792
-912.14233 1061.2517 2913.4917 1640962
-898.00433 1064.9584 2923.6677 1443328
-877.93323 1061.6364 2914.5476 1509377
-864.50757 1066.3782 2927.5657 1246208
-841.88171 1059.7334 2909.3235 1574400
-828.52393 1064.7209 2923.0159 1443072
-810.05682 1063.2155 2918.8828 1443072
-794.71271 1065.8325 2926.0676 1574656
-778.0484 1066.7563 2928.6038 1443072
-760.43115 1066.386 2927.5872 1508864
-744.22681 1068.026 2932.0896 1574657
-727.50604 1068.9856 2934.7239 1772035
-711.0575 1070.402 2938.6123 1706242
-694.48767 1071.7023 2942.1821 1903621
-681.0199 1077.9799 2959.416 1903621
-660.72656 1073.4995 2947.116 1640193
-645.12659 1076.6083 2955.6506 1705986
-626.97601 1075.5153 2952.6499 1706242
-612.8985 1081.5471 2969.2092 1772035
-593.91302 1079.0186 2962.2676 1903364
-581.82141 1089.2422 2990.335 1772035
-567.03674 1094.908 3005.8896 1706242
-546.91443 1090.3007 2993.2407 1640449
-530.22754 1092.4624 2999.1755 1705473
-513.93121 1095.6068 3007.8081 1771521
-493.40625 1089.6388 2991.4236 1771521
-477.65833 1094.1686 3003.8594 2099972
-462.11148 1099.5273 3018.571 1968643
-443.5296 1097.8054 3013.844 2166022
-428.56171 1105.2596 3034.3083 1968643
-407.62244 1097.2922 3012.4351 1968643
-391.7244 1102.7871 3027.5203 2100229
-378.63431 1117.0938 3066.7969 2100229
-357.26294 1107.1787 3039.5767 2099972
-336.66675 1098.7407 3016.4116 2166022
-321.74487 1108.9136 3044.3396 2362631
-304.00067 1109.9896 3047.2937 2428423
-283.2254 1099.4355 3018.3193 2428422
-265.62222 1100.6023 3021.5222 2099457
-248.51442 1104.1387 3031.2307 2362629
-230.89352 1105.7687 3035.7056 2362628
-213.0576 1106.5574 3037.8708 2296836
-194.94231 1105.9067 3036.0847 2297092
-177.53104 1109.5238 3046.0146 2296580
-160.01852 1113.2551 3056.2585 2493701
-141.67465 1111.417 3051.2122 2691334
-123.98639 1114.9365 3060.8745 2756871
-105.62521 1112.5743 3054.3894 2757128
-88.080269 1119.6105 3073.7061 2822664
-70.017853 1122.0226 3080.3281 2691335
-51.936562 1125.7268 3090.4973 2559749
-33.731976 1129.3376 3100.4104 2757127
-15.381998 1130.8961 3104.689 2625029
3.0030043 1126.5718 3092.8171 2690565
21.471399 1134.0831 3113.4382 2624772
40.17392 1141.3032 3133.26 2953736
59.007584 1146.5074 3147.5471 3413252
78.029938 1151.9976 3162.6194 4793355
97.897957 1165.4286 3199.4919 6699547
116.61517 1163.0243 3192.8916 8475951
134.22218 1151.7649 3161.9805 9264694
149.38341 1124.8469 3088.082 9659194
167.57579 1124.1376 3086.1345 9527609
185.89169 1124.3148 3086.6211 9724473
204.17265 1124.2679 3086.4924 9527094
222.92393 1126.6057 3092.9104 9329715
242.02937 1130.2421 3102.8936 9658680
265.46588 1152.1627 3163.0728 9658937
284.17459 1152.0259 3162.697 9198127
304.63068 1158.5514 3180.6118 9198127
322.20224 1153.9854 3168.0767 9658934
342.19397 1158.113 3179.4084 9658934
363.37177 1165.6145 3200.0024 9263406
382.73889 1166.8517 3203.3989 9263662
398.88104 1158.6047 3180.7583 9000234
419.21313 1162.7229 3192.0642 9592371
439.71878 1166.9462 3203.6584 9855543
457.78311 1164.6091 3197.2424 9658421
479.30374 1170.9014 3214.5168 9723957
494.37552 1161.5607 3188.8733 10118972
513.69159 1162.5128 3191.4873 9723957
536.09399 1170.1339 3212.4097 9790006
555.53406 1170.988 3214.7546 9855800
575.14575 1172.1354 3217.9045 9855543
590.80981 1165.422 3199.4741 9723700
610.77008 1167.3373 3204.7322 10184252
634.57465 1176.2629 3229.2361 10315582
651.66217 1172.5797 3219.1243 9986873
673.52008 1177.4454 3232.4824 9855030
694.13647 1179.9316 3239.3079 10249788
711.78058 1177.3677 3232.2688 10052665
736.34943 1186.0922 3256.2207 10118202
757.00543 1188.2294 3262.0879 9921080
772.11786 1181.7754 3244.3696 10118202
794.54254 1186.5549 3257.491 9986616
818.32025 1193.0804 3275.4058 9657907
834.23053 1188.0989 3261.7297 9789494
852.17004 1186.1675 3256.4275 10052663
874.34753 1190.0901 3267.196 9855284
891.54816 1187.2153 3259.304 9526063
916.79407 1194.9486 3280.5344 9723185
935.75781 1194.3428 3278.8713 9525806
960.35834 1200.8096 3296.6248 9986357
982.67676 1204.2219 3305.9927 9855028
1000.5282 1202.1339 3300.2605 9855027
1022.3419 1204.7953 3307.5669 9723441
1038.0948 1200.3485 3295.3589 9394221
1060.9658 1204.1444 3305.7803 8669728
1079.4971 1202.9667 3302.5469 8932900
1100.9132 1204.9886 3308.0977 9591856
1116.1178 1200.2599 3295.1157 9854771
1135.3817 1199.984 3294.3584 9855027
1155.3008 1200.3982 3295.4956 10052150
1178.116 1203.7578 3304.7188 9920820
1206.4222 1212.5265 3328.7917 9920564
1223.9998 1210.4034 3322.9631 9986613
1245.6407 1212.3024 3328.1763 10183993
1262.9618 1210.0033 3321.8647 10117943
1295.3297 1221.9694 3354.7156 9920820
1314.0648 1220.9075 3351.8003 9855028
1329.8442 1217.172 3341.5452 9855027
1349.6443 1217.172 3341.5452 9986613
1370.5946 1218.1945 3344.3521 9854771
1393.0652 1220.5195 3350.7354 9789235
1415.5371 1222.7806 3356.9426 9986614
1435.1538 1222.5469 3356.3008 10052406
1469.4521 1234.6552 3389.542 10117943
1479.772 1226.5614 3367.3223 10249785
1512.6592 1237.1399 3396.3638 9855027
1528.8809 1233.9896 3387.7151 9920820
1547.9138 1233.1606 3385.4392 10184250
1561.6633 1228.1974 3371.8137 9657906
1576.465 1224.1769 3360.7759 9789491
1608.8795 1233.7629 3387.0928 9394734
1658.4271 1256.0894 3448.3862 9263149
1658.6812 1240.9917 3406.9385 9066285
1629.4131 1204.4349 3306.5779 2295552
1643.9995 1200.7783 3296.5391 3738880
1646.3738 1188.3925 3262.5356 3346432
1658.54 1183.2803 3248.501 3280128
1648.5522 1162.6608 3191.8938 9727793
1663.2808 1159.7432 3183.8835 10319148
1695.4033 1168.8828 3208.9751 10449708
1722.9586 1174.7059 3224.9617 10514474
1761.9789 1188.1323 3261.8215 10317101
1793.2683 1196.111 3283.7253 9987119
1832.6317 1209.2457 3319.7847 10118453
1858.7079 1213.4271 3331.2642 10118456
1890.7512 1221.3754 3353.0847 10118457
1938.6212 1239.2755 3402.2268 10118456
1975.645 1249.9452 3431.5186 10184250
1999.5327 1252.1711 3437.6294 9986870
2049.0491 1270.2399 3487.2341 9394736
2100.3442 1289.0394 3538.8455 9460015
2102.6343 1277.6891 3507.6848 9657652
2109.4595 1269.2896 3484.6252 10052409
2138.7495 1274.4392 3498.7629 9789493
2165.5989 1278.0498 3508.675 9986616
2178.9626 1273.7085 3496.7568 10183995
2225.0398 1288.3916 3537.0669 10052409
2230.8506 1279.7023 3513.2117 9986872
2258.958 1283.8457 3524.5867 9921080
2286.0908 1287.3641 3534.2461 10184252
2315.7476 1292.2272 3547.5967 10184252
2330.1724 1288.5795 3537.5828 9986616
2354.9712 1290.6826 3543.3564 10118202
2372.4495 1288.7719 3538.1108 10249788
2409.1841 1297.2633 3561.4229 9986873
2395.2791 1278.5765 3510.1213 9921079
2447.0239 1294.9529 3555.0798 9855030
2480.0239 1301.2148 3572.271 9855287
2503.5354 1302.4346 3575.6194 10052666
2533.0771 1306.7445 3587.4517 9986616
2557.5862 1308.4081 3592.0188 9789237
2590.3386 1314.2267 3607.9927 9986616
2632.4346 1324.6516 3636.6125 9855286
2667.6296 1331.4629 3655.312 9592115
2683.3538 1328.5244 3647.2449 9657907
2689.0234 1320.6947 3625.7498 9723701
2713.7078 1322.2542 3630.0308 9657908
2717.8926 1313.8792 3607.0386 9855030
2755.7278 1321.775 3628.7156 9657908
2809.2522 1337.0157 3670.5564 9723444
2803.4568 1324.007 3634.8428 9921079
2849.9854 1335.7195 3666.9978 10184251
2850.3135 1325.7655 3639.6709 10052409
2873.7341 1326.6215 3642.0208 9789237
2919.1133 1337.5259 3671.957 9986875
2922.9934 1329.395 3649.635 10052667
2969.6016 1340.6738 3680.5991 9986874
2977.9858 1334.6572 3664.0813 9723702
2979.2827 1325.5742 3639.1458 9526067
3045.2661 1345.196 3693.0142 9723445
3078.8367 1350.3223 3707.0872 9592627
3094.636 1347.6368 3699.7148 9526835
3110.9814 1345.2253 3693.0945 9592371
3114.4456 1337.3163 3671.3816 9526578
3155.7649 1345.6591 3694.2852 9329199
3191.3171 1351.4447 3710.1689 10118460
3215.9255 1352.5482 3713.1985 9527095
3252.4888 1358.6309 3729.8972 9001526
3522.7908 1461.6096 4012.6084 9593407
3535.0227 1456.8519 3999.5469 5515024
3499.698 1432.6891 3933.2119 1770755
3491.5645 1419.9038 3898.1118 1835008
3454.8958 1395.7584 3831.8247 1638400
3368.5837 1352.0037 3711.7034 1703936
3275.0291 1305.9285 3585.2114 1769472
3250.0647 1287.6215 3534.9526 1638400
3233.7861 1272.9683 3494.7246 1572864
3213.4875 1256.929 3450.6914 1638400
3216.0879 1249.9927 3431.6489 1966080
3208.54 1239.224 3402.0854 1703936
3214.6553 1233.8337 3387.2874 1835008
3222.3508 1229.1135 3374.3286 2496266
0 0 0 0
0 0 0 0
0 0 0 0
0 0 0 0
0 0 0 0
0 0 0 0
0 0 0 0
0 0 0 0
-2374.7283 990.1297 2674.7275 721920
-2361.9707 991.42719 2678.2327 721920
-2405.1941 1016.399 2745.6914 787712
-2379.8918 1012.556 2735.3096 853504
-2320.8862 994.22223 2685.783 787712
-2304.5264 994.02991 2685.2637 853504
-2294.2839 996.49231 2691.9153 985088
-2278.0215 996.3559 2691.5469 852992
-2271.8611 1000.6671 2703.1931 918784
-2252.553 999.20752 2699.2502 787200
-2248.3132 1004.4589 2713.4363 852992
-2228.6262 1002.8348 2709.0493 918784
-2198.3628 996.3938 2691.6492 721664
-2189.688 999.71497 2700.6211 655872
-2186.6592 1005.6816 2716.7393 786688
-2172.9207 1006.7748 2719.6924 852480
-2161.4453 1008.9406 2725.5432 786688
-2149.0271 1010.6957 2730.2842 852480
-2135.2922 1011.8534 2733.4119 918272
-2123.5771 1013.9933 2739.1926 1049856
-2109.0234 1014.8002 2741.3723 984064
-2091.7026 1014.278 2739.9617 984064
-2078.4038 1015.7131 2743.8384 1181440
-2062.0637 1015.6729 2743.7297 1049856
-2051.4834 1018.4915 2751.3438 1115648
-2039.698 1020.7521 2757.4507 984064
-2024.3779 1021.2662 2758.8394 918272
-2013.0056 1023.7963 2765.6743 918272
-1994.2927 1022.6041 2762.4536 1049856
-1983.7024 1025.5916 2770.5239 1181441
-1968.0389 1025.9841 2771.5845 1247234
-1950.3181 1025.3018 2769.741 1049856
-1936.2454 1026.5417 2773.0908 984064
-1914.5619 1023.7336 2765.5049 984064
-1895.301 1022.1835 2761.3174 1115136
-1886.0204 1026.0359 2771.7241 1115136
-1871.649 1027.1621 2774.7666 1246721
-1852.5248 1025.6769 2770.7544 1378306
-1840.7638 1028.2783 2777.7817 1444099
-1819.6918 1025.6783 2770.7585 1312513
-1808.9343 1028.8979 2779.4558 1312256
-1798.0184 1032.0858 2788.0674 1180928
-1781.4988 1032.0863 2788.0686 1312513
-1764.3077 1031.694 2787.009 1049344
-1745.0408 1030.0691 2782.6194 1049088
-1721.6869 1025.9778 2771.5671 1115136
-1703.6229 1024.9902 2768.8994 983552
-1690.7922 1027.1626 2774.7681 1246720
-1678.6407 1029.7946 2781.8779 1115136
-1662.7487 1030.161 2782.8679 1049344
-1642.3661 1027.7252 2776.2876 1115136
-1629.5253 1030.0068 2782.4512 851968
-1615.4767 1031.564 2786.6577 1049344
-1600.046 1032.2616 2788.5422 983552
-1583.7407 1032.4037 2788.926 1180928
-1572.6742 1035.9998 2798.6406 1180928
-1554.5063 1034.9446 2795.7903 1115136
-1537.3643 1034.5571 2794.7434 1246464
-1519.1271 1033.4161 2791.6611 1378049
-1507.646 1036.8967 2801.0635 1246720
-1490.476 1036.4984 2799.9878 1115136
-1472.5798 1035.5807 2797.5085 1115136
-1458.5177 1037.3689 2802.3391 1180672
-1440.5057 1036.3567 2799.6047 1115136
-1424.3318 1036.6586 2800.4202 1180928
-1404.2645 1034.1006 2793.5103 1246720
-1394.4545 1039.1251 2807.0833 1312256
-1374.7683 1036.8225 2800.863 1509120
-1362.2196 1039.9125 2809.2102 1509377
-1343.9563 1038.6622 2805.833 1509378
-1327.1132 1038.4921 2805.3733 1509377
-1311.1168 1038.9886 2806.7148 1443586
-1301.0807 1044.2819 2821.0137 1575172
-1275.6472 1037.1936 2801.8655 1509379
-1262.1897 1039.7841 2808.8635 1640708
-1248.5024 1042.2522 2815.5308 1509378
-1235.8766 1045.6851 2824.8042 1574913
-1217.2666 1044.0793 2820.4668 1509378
-1204.3369 1047.3691 2829.3538 1575170
-1186.6047 1046.5162 2827.0496 1246208
-1172.5138 1048.8961 2833.4788 1443584
-1154.8927 1048.1414 2831.4399 1377792
-1136.7351 1046.8704 2828.0063 1377792
-1120.9901 1047.8164 2830.562 1312000
-1104.2715 1047.8673 2830.6992 1246208
-1088.974 1049.2889 2834.54 1443584
-1073.1028 1050.1937 2836.9841 1377792
-1058.8496 1052.7362 2843.8523 1443328
-1047.4039 1058.1971 2858.6042 1509377
-1027.3981 1055.0471 2850.095 1706756
-1014.7478 1059.4716 2862.0471 1575170
-997.17993 1058.8248 2860.3 1641220
-979.76062 1058.3163 2858.926 1706756
-963.84802 1059.4458 2861.9775 1772549
-947.06897 1059.6465 2862.5195 1575170
-928.44904 1057.7571 2857.4158 1575170
-911.14893 1057.3292 2856.2598 1443585
-893.48657 1056.4567 2853.9028 1180416
-879.77814 1060.316 2864.3281 1377792
-864.57117 1062.4854 2870.1885 1312000
-841.81146 1055.2739 2850.7075 1312000
-828.69525 1060.1036 2863.7546 1640449
-813.34851 1062.2222 2869.4773 1574657
-794.2973 1059.4897 2862.0962 1574656
-780.69696 1064.0677 2874.4629 1508864
-765.39789 1066.4828 2880.9871 1574400
-748.14917 1066.2295 2880.3027 1640449
-732.18915 1067.8439 2884.6638 1640449
-715.82526 1068.9324 2887.6042 1640193
-699.96906 1070.8508 2892.7869 1508864
-683.22498 1071.473 2894.4678 1640449
-666.33008 1071.8849 2895.5803 1508864
-650.39209 1073.8984 2901.0198 1706242
-634.6507 1076.3547 2907.6553 1771779
-620.38409 1081.5192 2921.6062 1837828
-601.20447 1078.1693 2912.5569 1706241
-585.85742 1081.6978 2922.0886 1772034
-566.91388 1078.5984 2913.7161 1706241
-552.56445 1084.3197 2929.1716 1837570
-533.20081 1080.2533 2918.1868 1837571
-517.0199 1082.5786 2924.468 1903364
-499.86151 1082.9474 2925.4646 1837314
-481.66043 1081.0027 2920.2109 1968900
-467.85208 1089.139 2942.1904 2034436
-450.05179 1088.2524 2939.7957 2099972
-432.62515 1088.2345 2939.7468 2099972
-416.70053 1092.1517 2950.3289 1837057
-400.69162 1096.1813 2961.2144 1705472
-385.21075 1102.0908 2977.1782 1705473
-368.94919 1106.2267 2988.3511 1705473
-349.96103 1102.1923 2977.4524 1770496
-331.07803 1098.0782 2966.3389 2099459
-313.50128 1098.0782 2966.3389 2362631
-295.44388 1096.2947 2961.5208 2231045
-278.88708 1100.2058 2972.0862 2362631
-261.30203 1100.3143 2972.3792 2231045
-243.67003 1100.2264 2972.1418 2296838
-226.34082 1101.5985 2975.8484 2362629
-209.23759 1104.3953 2983.4036 2428422
-192.0063 1106.97 2990.3586 2560007
-174.85365 1110.5674 3000.0769 2560008
-157.01979 1110.1631 2998.9846 2559493
-138.6515 1105.3947 2986.1033 2691334
-121.3456 1108.9401 2995.6809 2822151
-103.87306 1111.9167 3003.7222 2756358
-86.793716 1121.2037 3028.8098 2624515
-68.676651 1118.4327 3021.3245 2691078
-50.849579 1120.0955 3025.8162 2756871
-33.061867 1124.9088 3038.8186 2887687
-15.105645 1128.6445 3048.9104 2756356
2.9818995 1136.8518 3071.0813 2690306
21.169256 1136.3132 3069.6265 3478788
39.36594 1136.5417 3070.2437 4596237
58.304272 1151.2704 3110.0315 6174747
77.687439 1165.5985 3148.7375 7950380
93.487656 1131.0302 3055.355 9133622
111.45152 1129.6079 3051.5127 10251073
129.17038 1126.4459 3042.9709 9658677
147.44058 1128.2777 3047.9192 9592885
165.17027 1126.0248 3041.8335 9395506
183.42719 1127.4559 3045.6995 9658934
201.38591 1126.9619 3044.365 9264177
219.196 1125.7859 3041.188 9790518
239.1357 1134.8953 3065.7959 9461553
257.09387 1133.9781 3063.3186 9527092
280.36304 1155.0629 3120.2766 9132334
299.62042 1158.033 3128.3 9790779
316.27652 1151.1891 3109.8118 9724727
335.06076 1152.4181 3113.1321 9263920
355.36563 1158.4761 3129.4971 9526578
373.94791 1158.5962 3129.8213 9263406
392.5874 1158.8738 3130.5713 9000234
413.42331 1165.3174 3147.978 9395248
433.19366 1168.3308 3156.1184 9724213
452.08508 1168.8224 3157.4465 10052922
468.46985 1163.0518 3141.8577 9855543
490.18246 1170.444 3161.8269 9855799
505.79956 1163.2729 3142.4553 9790007
527.67712 1170.4982 3161.9734 9395249
545.08374 1167.6506 3154.281 9987129
563.55853 1167.2041 3153.0747 9790007
578.19043 1159.0825 3131.1353 9986872
598.87183 1163.2161 3142.3015 9855287
619.58441 1167.1592 3152.9536 10052666
644.67236 1178.8724 3184.5955 10118202
662.97534 1177.865 3181.874 9921079
683.15588 1180.1569 3188.0652 9855287
700.8399 1178.1287 3182.5862 9723444
716.6593 1173.1543 3169.1487 9789493
738.62329 1178.2358 3182.8757 9723701
762.47198 1185.9958 3203.8384 9460528
778.5965 1181.6559 3192.1147 9920823
798.92883 1183.7567 3197.7898 9855030
816.41895 1181.6464 3192.0889 9723698
841.26508 1190.0372 3214.7561 9657649
860.36249 1190.1046 3214.938 9131562
874.82922 1183.9023 3198.1833 9328684
897.14929 1188.3657 3210.2405 9196842
918.2085 1191.0082 3217.3787 9591601
935.51001 1188.7682 3211.3279 9854773
958.86523 1194.1569 3225.8845 9657393
977.45709 1193.5183 3224.1599 9657394
993.56451 1189.929 3214.4636 9525808
1010.0502 1186.9192 3206.3328 9196587
1039.4108 1198.8706 3238.6184 8407071
1063.5717 1204.5001 3253.8257 9130279
1073.6796 1194.2972 3226.2639 9262635
1088.3099 1189.3942 3213.0188 9855028
1105.8525 1187.7874 3208.6782 9920821
1127.897 1190.9886 3217.3262 9854771
1151.6376 1195.845 3230.4448 10052407
1172.9458 1198.0577 3236.4226 9591856
1200.093 1206.0676 3258.0603 10118199
1216.9032 1203.5997 3251.3936 10118199
1236.2446 1203.6735 3251.5928 10052406
1259.5049 1207.5017 3261.9343 9986357
1279.0726 1207.7279 3262.5454 10052150
1300.5219 1209.6974 3267.8657 9657649
1318.9265 1208.8187 3265.4919 9854771
1342.7007 1212.8153 3276.2886 9789234
1360.8511 1211.6909 3273.251 10052150
1390.0642 1220.3098 3296.5339 10052406
1400.8792 1212.7621 3276.1448 9920821
1421.9454 1214.1742 3279.9595 10052150
1458.535 1228.6248 3318.9958 10052150
1482.4777 1232.1791 3328.5974 10052406
1498.6473 1229.2642 3320.7234 9986357
1520.842 1231.3029 3326.2307 10052663
1534.4854 1226.4546 3313.1335 9789236
1548.5393 1222.0529 3301.2427 9723443
1572.6842 1225.625 3310.8923 10052408
1604.6327 1235.1158 3336.5308 9789748
1633.3733 1241.9363 3354.9556 9789491
1644.9419 1235.6931 3338.0906 9066799
1648.9943 1224.0193 3306.5547 5451023
1656.0349 1214.8115 3281.6809 3213568
1681.6925 1219.3157 3293.8486 3214080
1657.015 1187.6398 3208.2793 9333293
1669.2803 1182.8601 3195.3677 10253355
1697.2422 1189.1858 3212.4558 10449708
1721.3943 1192.7313 3222.0337 10646313
1743.2118 1194.5992 3227.0796 10316585
1754.2659 1189.1304 3212.3062 9921582
1804.5027 1210.0541 3268.8293 10184244
1830.1205 1214.1998 3280.0286 9986870
1870.8959 1228.2091 3317.873 10052407
1888.8241 1227.0842 3314.8342 9986872
1919.6107 1234.25 3334.1919 10052665
1953.491 1243.2386 3358.4739 10184252
1979.1465 1246.8645 3368.2686 9986872
2005.1622 1250.6426 3378.4746 9657651
2030.6512 1254.0206 3387.6001 9460529
2077.729 1270.5342 3432.2097 9921079
2103.6963 1273.9435 3441.4197 9855287
2121.7122 1272.5186 3437.5701 9855286
2146.7874 1275.3143 3445.1226 9855286
2168.6331 1276.157 3447.3992 9855030
2167.874 1263.8059 3414.0342 9855030
2212.0767 1277.6525 3451.439 9986616
2234.645 1278.8641 3454.7122 9855287
2254.2932 1278.3978 3453.4524 10052409
2277.5791 1279.9841 3457.7378 9921079
2289.6082 1275.2723 3445.0093 10381630
2317.8557 1279.5974 3456.6931 9986872
2343.7888 1282.5804 3464.7512 9789237
2356.9365 1278.5756 3453.9326 9855287
2383.2031 1281.6952 3462.3601 9723700
2425.1628 1293.1294 3493.248 9920823
2456.4468 1298.7257 3508.3662 9262893
2487.6169 1304.1683 3523.0688 10118202
2517.3953 1308.7969 3535.5723 10052409
2531.7068 1305.3743 3526.3262 9921079
2554.2012 1306.1923 3528.5361 10052666
2597.8838 1317.7444 3559.7429 9723444
2596.1626 1306.2654 3528.7336 9855030
2622.6582 1309.0537 3536.2661 9855286
2681.8833 1328.0048 3587.4604 9789494
2701.6069 1327.2513 3585.425 9789493
2698.5469 1315.4039 3553.4204 9855286
2719.5088 1315.3586 3553.2981 9657907
2737.616 1313.944 3549.4766 9723444
2770.1016 1319.3993 3564.2134 9789237
2789.2917 1318.4872 3561.7498 9789237
2827.1248 1326.3353 3582.9504 9920823
2829.6526 1317.6265 3559.4243 10118460
2867.3374 1325.2961 3580.1433 9921080
2880.6211 1321.6577 3570.3145 10249788
2932.9565 1335.8591 3608.678 10381630
2962.8833 1339.7224 3619.114 10052665
2973.2615 1334.7545 3605.6938 9789494
2989.6741 1332.5471 3599.7307 9789750
3006.5317 1330.5679 3594.384 9592371
3020.6443 1327.41 3585.8538 9395248
3038.7466 1326.0376 3582.146 9592371
3069.5886 1330.2048 3593.4036 9658164
3105.0623 1336.308 3609.8904 9789750
3115.1541 1331.4788 3596.845 9264179
3169.7468 1345.6068 3635.0103 9461558
3203.7097 1350.8453 3649.1614 9132595
3187.0703 1334.8201 3605.8711 9066802
3243.6182 1349.457 3645.4111 9067579
3345.5166 1382.6426 3735.0583 7226664
3244.7751 1332.1951 3598.78 1704448
3304.7483 1347.9595 3641.3657 1441792
3290.0439 1333.257 3601.6484 1376256
3248.3755 1307.8875 3533.1157 1310720
3232.3979 1293.1206 3493.2244 1376256
3205.6445 1274.2581 3442.2695 1638400
3218.4814 1271.2721 3434.2029 1638400
3199.7612 1255.937 3392.7771 1703936
3201.7437 1248.8688 3373.6829 2097152
3155.0105 1223.004 3303.812 3016192
0 0 0 0
0 0 0 0
0 0 0 0
0 0 0 0
0 0 0 0
0 0 0 0
0 0 0 0
0 0 0 0
-2344.3784 993.12183 2640.5437 590592
-2323.0444 990.69623 2634.0945 721664
-2315.0029 993.94489 2642.7322 853248
-2296.9133 992.89429 2639.9387 984832
-2278.6011 991.73236 2636.8494 918784
-2264.4146 992.36267 2638.5251 1181954
-2262.741 998.52338 2654.9055 721408
-2247.2766 998.64191 2655.2207 787200
-2239.6035 1002.249 2664.8113 852992
-2220.9236 1000.9464 2661.3481 918784
-2199.0442 998.17316 2653.9744 852992
-2195.5454 1003.7632 2668.8374 721408
-2177.2793 1002.634 2665.835 655360
-2168.146 1005.7246 2674.0525 655360
-2154.2859 1006.652 2676.5183 720896
-2143.7473 1009.1569 2683.1782 1115648
-2128.927 1009.6683 2684.5381 1050112
-2114.6938 1010.4682 2686.6648 918528
-2107.4358 1014.6382 2697.7524 918528
-2089.4302 1013.6581 2695.1462 984064
-2079.0562 1016.3939 2702.4202 1115648
-2064.002 1016.8662 2703.676 1049856
-2049.1562 1017.4493 2705.2266 1181441
-2035.786 1018.7802 2708.7649 1115648
-2021.8762 1019.86 2711.6362 1115648
-2007.6503 1020.7964 2714.1257 984064
-1997.583 1023.8794 2722.323 1115648
-1979.1539 1022.6919 2719.1655 1049856
-1966.1399 1024.3059 2723.457 1180928
-1950.3253 1024.4756 2723.9082 1180928
-1936.4761 1025.6891 2727.1345 1246720
-1919.7744 1025.3994 2726.3643 1246464
-1903.1483 1025.1455 2725.6892 1180672
-1882.7638 1022.8454 2719.5737 1049344
-1868.6056 1023.9174 2722.4241 1049344
-1851.0116 1023.109 2720.2747 1312513
-1835.9683 1023.7087 2721.8691 1378306
-1819.6316 1023.5914 2721.5571 1180928
-1807.7124 1025.9792 2727.906 1246720
-1795.9427 1028.4957 2734.5969 1312513
-1781.1101 1029.288 2736.7034 1312513
-1766.3657 1030.1462 2738.9854 1246720
-1747.7999 1028.7712 2735.3293 1312513
-1731.2695 1028.5796 2734.8201 1509635
-1711.8389 1026.6449 2729.676 1246464
-1695.1343 1026.324 2728.8228 1180928
-1678.7251 1026.1775 2728.4331 1246720
-1657.0483 1022.7766 2719.3909 1114880
-1648.3842 1027.4197 2731.7361 1115136
-1632.465 1027.588 2732.1836 1115136
-1618.5173 1029.0132 2735.9729 1049344
-1604.1206 1030.179 2739.0723 917760
-1587.5919 1029.9851 2738.5571 917760
-1571.1617 1029.8521 2738.2031 983552
-1555.0945 1029.9564 2738.4807 983552
-1540.3771 1030.9666 2741.1665 1049344
-1526.6855 1032.692 2745.7544 1246720
-1507.311 1030.5693 2740.1104 1115136
-1490.3496 1030.0681 2738.7776 1246464
-1477.6653 1032.5446 2745.3621 1180672
-1463.2357 1033.843 2748.8145 1246464
-1446.2606 1033.3519 2747.509 1378049
-1432.1809 1034.942 2751.7366 1378049
-1414.121 1033.6594 2748.3262 1312256
-1401.2701 1036.1987 2755.0781 1180672
-1386.1559 1037.1046 2757.4866 1114880
-1367.4225 1035.2919 2752.667 1443840
-1351.4866 1035.5791 2753.4304 1640963
-1335.2976 1035.677 2753.6907 1575170
-1320.358 1036.7583 2756.5659 1443584
-1303.9036 1036.6625 2756.3108 1377792
-1286.3414 1035.6721 2753.678 1574915
-1274.6687 1039.4591 2763.7468 1640965
-1257.4598 1038.7714 2761.9182 1574916
-1243.5288 1040.809 2767.3359 1640708
-1227.2928 1040.9462 2767.7004 1509379
-1210.6759 1040.7593 2767.2039 1509377
-1206.6008 1051.4972 2795.7539 1640963
-1181.0778 1043.5828 2774.7109 1509377
-1165.484 1044.3422 2776.73 1443585
-1160.6425 1054.896 2804.7908 1443584
-1133.3768 1045.0792 2778.6897 1443328
-1113.967 1042.3237 2771.3633 1377536
-1100.9158 1045.5243 2779.8733 1377792
-1083.995 1045.0916 2778.7224 1575170
-1069.7324 1047.2477 2784.4553 1509378
-1054.136 1048.1451 2786.8413 1443585
-1036.5305 1047.0417 2783.9077 1443328
-1023.9129 1051.0226 2794.4922 1377792
-1009.5059 1053.2675 2800.4607 1443585
-994.58875 1055.0459 2805.1895 1640963
-974.77441 1051.6018 2796.0322 1706756
-960.02228 1053.5942 2801.3298 1706756
-943.53003 1053.7135 2801.6467 1706242
-927.81622 1054.7219 2804.3281 1706242
-909.69244 1052.9775 2799.6902 1509120
-893.14728 1053.0295 2799.8284 1443328
-879.66022 1056.7574 2809.74 1312000
-865.23578 1059.4811 2816.9817 1575169
-849.49176 1060.6644 2820.1282 1509376
-828.93323 1055.7633 2807.0969 1443584
-813.04895 1056.7368 2809.6851 1377280
-799.13208 1060.3612 2819.322 1640193
-782.258 1060.1329 2818.7151 1574657
-765.60785 1060.2048 2818.906 1443072
-749.9798 1061.7267 2822.9526 1443072
-733.00336 1061.3657 2821.9927 1443072
-717.14722 1062.6479 2825.4021 1443072
-701.18872 1063.8362 2828.5613 1574656
-685.20593 1065.0447 2831.7747 1771778
-669.59497 1066.9064 2836.7246 1706242
-653.4472 1067.9867 2839.5969 1903365
-636.13971 1067.1786 2837.4482 1772035
-622.57184 1072.7704 2852.3159 1771779
-605.81006 1073.0172 2852.9719 1772034
-590.3739 1075.6935 2860.0879 1903620
-573.46411 1075.7635 2860.2744 1772034
-556.01031 1074.7865 2857.6763 1837314
-543.08002 1082.7667 2878.8943 1903107
-526.2124 1083.1598 2879.9395 1968900
-505.03128 1074.4026 2856.6558 2034693
-489.45969 1077.3857 2864.5874 1837314
