# .PCD v0.7 - Point Cloud Data file format
VERSION 0.7
FIELDS x y z rgb
SIZE 4 4 4 4
TYPE F F F U
COUNT 1 1 1 1
WIDTH 1299
HEIGHT 1
VIEWPOINT 0 0 0 1 0 0 0
POINTS 1299
DATA ascii
-2895.4553 818.77637 4255.2051 1536
-2875.9585 820.40723 4263.6807 1536
-2851.592 820.66553 4265.0234 1536
-2830.4529 821.86554 4271.2598 1536
-2783.9192 815.64697 4238.9419 1536
-2787.5479 824.14587 4283.1108 1536
-2777.948 828.85394 4307.5786 1536
-2744.9749 826.61072 4295.9209 1536
-2713.6501 824.82654 4286.6484 1536
-2693.377 826.39966 4294.8237 1792
-2652.9429 821.75781 4270.7002 1792
-2577.7158 806.14563 4189.563 1792
-2537.2219 801.19769 4163.8486 1792
-2513.1384 801.38556 4164.8247 1792
-2490.4626 802.03052 4168.1763 1792
-2948.3716 959.00635 4983.9844 1536
-2504.6016 822.90533 4276.6636 1536
-2491.24 826.88153 4297.3281 1536
-2477.6628 830.86749 4318.043 1536
-2484.2251 841.76068 4374.6553 1536
-2468.49 845.24872 4392.7827 1536
-2470.2083 854.85114 4442.6865 1536
-2469.0806 863.66479 4488.4917 1536
-2466.0115 871.98395 4531.7266 1536
-2447.0896 874.81897 4546.4604 1536
-2674.2107 966.65521 5023.7358 1536
-2672.5366 976.92456 5077.106 1280
-2658.8032 982.9693 5108.521 1024
-2699.6506 1009.5645 5246.7368 462339
-2637.1445 997.67883 5184.9668 857100
-2684.5911 1027.6003 5340.4697 1120273
-2672.3499 1035.1161 5379.5293 1054481
-2640.4822 1035.1194 5379.5459 1448984
-2592.6233 1028.7771 5346.5854 1712158
-2548.0129 1023.583 5319.5918 1712671
-2530.1619 1029.1432 5348.4878 1251863
-2532.4038 1043.1208 5421.1304 1844514
-2493.9966 1040.4989 5407.5034 2173479
-2482.394 1049.1371 5452.3965 2766127
-2450.21 1049.1899 5452.6714 2831920
-2424.7637 1052.168 5468.1479 2634540
-2389.3589 1050.8469 5461.2827 2108452
-2392.9788 1066.8883 5544.6504 2240036
-2371.7769 1072.1556 5572.0249 768
-2192.3203 1005.0233 5223.1362 1536
-2059.012 957.42706 4975.7769 1536
-2008.6859 947.59454 4924.6772 1536
-1973.8038 944.8653 4910.4932 1536
-1967.5698 955.97339 4968.2222 1536
-1949.6504 961.65527 4997.751 1536
-1866.4208 934.80164 4858.1919 1536
-1881.9965 957.36871 4975.4736 1280
-1863.6951 963.14655 5005.5015 1536
-1842.6011 967.64484 5028.8789 1536
-1806.2007 964.12073 5010.564 1536
-1774.0085 962.76251 5003.5054 1536
-1764.4851 973.86975 5061.23 1536
-1739.0713 976.43896 5074.5825 1536
-1705.7593 974.586 5064.9526 1536
-1676.3269 974.92297 5066.7041 1792
-1651.9116 978.24341 5083.9604 1536
-1633.2111 985.13422 5119.772 1536
-1603.4814 985.50745 5121.7114 1536
-1588.7931 995.31769 5172.6958 1792
-1566.0825 1000.3895 5199.0542 1792
-1538.1475 1002.2605 5208.7778 1792
-1506.0206 1001.4208 5204.4141 1536
-1476.6564 1002.4215 5209.6143 1536
-1429.8934 991.40161 5152.3438 1536
-1372.024 972.03229 5051.6812 1536
-1402.3549 1015.6797 5278.5176 1536
-1413.3055 1046.9617 5441.0913 1536
-1405.7297 1065.6597 5538.2651 1280
-1396.4443 1083.9247 5633.1885 1280
-1372.5868 1091.4961 5672.5376 1280
-1341.0624 1093.1978 5681.3818 1024
-1281.473 1071.5205 5568.7241 1024
-1236.4955 1061.2379 5515.2852 1024
-1220.1206 1075.6122 5589.9888 768
-1201.6969 1088.932 5659.2124 263936
-1180.7968 1100.708 5720.4126 65536
-1116.6151 1071.6421 5569.356 919552
-1098.7391 1086.5997 5647.0908 1708038
-1072.1833 1093.6434 5683.6973 1970438
-1055.2539 1111.2814 5775.3623 2035974
-1018.3076 1108.3156 5759.9487 2101510
-984.17761 1108.3156 5759.9487 2034947
-940.11725 1096.731 5699.7432 2166533
-923.31079 1117.2618 5806.4429 2232069
-896.85681 1127.2561 5858.3833 2363912
-865.36267 1131.4651 5880.2578 2363912
-830.0047 1130.7633 5876.6108 2232069
-805.75793 1145.8004 5954.7593 2363912
-770.98065 1146.5544 5958.6777 2363911
-728.80566 1135.8516 5903.0542 2232326
-696.40094 1140.0641 5924.9473 2363909
-665.71417 1147.6857 5964.5566 2429190
-625.88702 1139.5205 5922.1226 2494983
-597.57379 1152.5934 5990.062 2691591
-561.1651 1150.7168 5980.3096 2625798
-525.3407 1149.866 5975.8882 2626055
-493.42365 1158.0629 6018.4873 2691848
-457.35757 1157.0405 6013.1743 2757641
-423.37268 1161.5554 6036.6377 2888970
-387.34732 1160.7886 6032.6528 2756871
-352.7579 1164.6066 6052.4951 2888714
-316.27713 1162.3379 6040.7046 2888455
-281.20795 1165.3398 6056.3062 2888199
-244.58391 1161.8344 6038.0879 2953735
-211.42085 1176.3849 6113.7075 3151369
-175.95831 1181.5125 6140.3555 3216649
-139.30794 1179.2582 6128.6396 3085063
-102.66525 1175.5021 6109.1196 3150856
-66.118942 1169.3596 6077.1968 3216649
-30.349455 1178.694 6125.7075 3281672
5.9150882 1172.207 6091.9946 3216136
42.551434 1187.2411 6170.1274 3282182
79.010422 1185.7179 6162.2114 3413769
116.96947 1200.5541 6239.3154 3544585
152.80482 1191.7015 6193.3086 3675910
189.37196 1190.8796 6189.0371 3740676
221.28514 1165.8058 6058.7271 4002560
248.43633 1126.1462 5852.6152 6107154
290.73578 1156.4575 6010.1445 8540974
328.78036 1165.0759 6054.9346 9527094
366.67276 1171.5122 6088.3838 9460530
401.76013 1168.6361 6073.437 9591858
439.42102 1173.1033 6096.6528 9920823
475.10468 1172.0143 6090.9932 9789750
510.06842 1169.4286 6077.5552 9461041
545.4212 1168.017 6070.2188 9723957
585.34521 1175.9635 6111.5176 9921336
620.50885 1173.9778 6101.1978 9921336
654.55023 1170.2045 6081.5874 10052668
694.35205 1176.5859 6114.752 10052923
731.65009 1178.3021 6123.6714 10052922
765.65051 1174.7963 6105.4517 9855544
804.52521 1178.7484 6125.9912 9987386
836.48523 1172.6659 6094.3794 9855799
887.10101 1192.1577 6195.6792 9855543
912.95233 1178.1425 6122.8413 9724214
959.10669 1190.3976 6186.5317 9987129
985.22839 1177.8021 6121.0732 9987385
1024.1521 1180.8622 6136.9761 10052922
1061.2313 1181.6584 6141.1143 9921336
1095.402 1179.2709 6128.7056 10118717
1129.582 1177.046 6117.1436 9987388
1173.0221 1184.309 6154.8887 9922109
1194.3352 1169.4673 6077.7563 9922108
1240.83 1179.4303 6129.5347 9658937
1260.8369 1164.3655 6051.2422 9658937
1301 1168.233 6071.3418 9527094
1339.6302 1170.553 6083.3989 9724473
1366.0597 1162.3699 6040.8706 9526580
1396.8871 1158.2512 6019.4663 9527352
1432.4143 1158.1376 6018.876 8870711
1448.7477 1142.8879 5939.6226 3872774
1423.5303 1096.3602 5697.8169 1572864
1471.9615 1107.3965 5755.1729 8347444
1514.6921 1113.7412 5788.1465 8018731
1539.6005 1106.9906 5753.0635 8018473
1564.2122 1100.3237 5718.4155 8018729
1597.5607 1099.9552 5716.5 8018732
1588.7322 1071.165 5566.8765 7558954
1630.644 1077.0607 5597.5161 7361843
1644.8418 1064.7808 5533.6973 6243879
1671.3809 1060.8136 5513.0801 4929055
1712.4379 1066.0365 5540.2236 3285007
1694.9186 1035.2834 5380.3989 2298376
1718.8501 1030.5175 5355.6304 1050371
1781.7211 1048.8467 5450.8877 6112292
1881.6063 1087.9244 5653.9761 9264954
1925.4982 1093.8267 5684.6499 9461814
1973.3445 1101.7338 5725.7432 9855289
2013.1565 1104.9637 5742.5293 9855289
2057.3508 1110.4517 5771.0503 9921082
2090.8767 1110.0959 5769.2017 9657910
2136.415 1116.0269 5800.0244 10052925
2147.25 1103.9285 5737.1489 9789753
2212.2373 1119.6136 5818.6655 9921082
2235.9529 1114.2505 5790.793 10250304
2265.8149 1112.066 5779.4404 10184511
2300.0059 1112.0397 5779.3032 10184510
2345.7615 1117.5234 5807.8027 10118461
2386.9194 1120.6899 5824.2593 10184510
2389.4438 1105.8859 5747.3218 9987132
2456.2783 1120.8436 5825.0581 10052925
2491.8269 1121.3085 5827.4736 10184511
2535.0576 1125.1702 5847.543 9921339
2568.104 1124.4685 5843.896 9789752
2606.2043 1125.9689 5851.6938 10184254
2625.3013 1119.3275 5817.1787 9986875
2647.8584 1114.3145 5791.1255 10052924
2693.6633 1119.0881 5815.9346 9987131
2733.9397 1121.4734 5828.3306 10052668
2776.1301 1124.5743 5844.4463 9986875
2808.4246 1123.6396 5839.5889 10118717
2833.2385 1119.7712 5819.4844 10052411
2865.6838 1118.9756 5815.3496 9920825
2916.1292 1125.1439 5847.4067 9921081
2956.5261 1127.3359 5858.7988 10184254
2935.5005 1106.3282 5749.6211 10184254
3011.3384 1121.8895 5830.4932 10052925
3030.0127 1116.0427 5800.1074 10118204
3044.4858 1108.7971 5762.4517 10315583
3099.8604 1116.4431 5802.1885 10118204
3135.5525 1116.9105 5804.6172 10250046
3187.1338 1122.9661 5836.0884 10052667
3225.9668 1124.448 5843.79 10052411
3317.0305 1143.9109 5944.939 10052667
3266.9587 1114.8041 5793.6704 9921081
3299.3354 1114.1445 5790.2427 10052667
3327.9541 1112.2427 5780.3584 9920569
3373.2852 1115.908 5799.4072 9788726
3479.8755 1139.5602 5922.3281 9788724
3449.6672 1118.3896 5812.3042 9920310
3486.219 1119.0674 5815.8267 10052408
3514.4648 1117.0919 5805.5601 10380861
3611.3904 1136.7732 5907.8442 10250043
3590.0583 1119.2096 5816.5654 10117429
3582.6597 1106.2823 5749.3828 9919794
3647.9475 1115.8322 5799.0132 10051637
3673.7305 1113.2327 5785.5034 10248759
3669.6978 1101.7299 5725.7227 11038533
3780.7537 1124.6736 5844.9619 9854773
3786.7148 1116.2217 5801.0376 11433036
3854.5251 1125.9893 5851.7998 11302220
3925.252 1136.427 5906.0454 10512705
3963.8044 1137.4476 5911.3496 9920311
3993.4492 1135.9167 5903.3931 9657140
4029.2197 1136.1396 5904.5518 9591349
4035.241 1128.0424 5862.4702 9657909
4053.6414 1123.5143 5838.9375 9723703
4072.0793 1119.0732 5815.8574 9855033
4084.7759 1113.1421 5785.0332 9789495
4264.2959 1152.3926 5989.0186 9789751
4176.6519 1119.3918 5817.5132 9987127
4205.7632 1117.967 5810.1084 9724980
4220.3975 1112.7485 5782.9873 9789746
4203.1724 1099.2816 5712.9995 9920564
4168.1973 1081.4248 5620.1968 5182978
3979.1038 1024.1824 5322.7061 8869674
4223.8945 1078.6394 5605.7217 11433543
4202.106 1064.7029 5533.2925 11631436
4300.0879 1081.0936 5618.4761 11763022
4315.3882 1076.6051 5595.1489 12091990
4281.9316 1060.114 5509.4438 9460526
4457.1709 1095.1499 5691.5269 9459759
4457.4053 1086.9829 5649.0825 9525552
4657.9609 1127.424 5859.2559 9722933
4649.6748 1117.092 5805.561 9657909
4707.252 1122.6195 5834.2871 9723703
4670.623 1105.7632 5746.6841 9723191
4695.8594 1103.6913 5735.9165 9526580
4697.2749 1096.0907 5696.416 9460787
4666.2832 1081.0905 5618.4595 9131823
4664.3853 1072.9955 5576.3896 6170886
4676.9067 1068.3081 5552.0288 9856313
4768.8159 1081.6934 5621.5928 10119482
4796.6357 1080.4567 5615.165 10448704
4823.1338 1078.9413 5607.29 9921591
4835.4624 1074.2986 5583.1616 11763792
5122.2529 1130.2821 5874.1099 11303244
5388.73 1181.0579 6137.9927 9263148
5397.667 1175.0856 6106.9546 9526063
5417.9766 1171.6521 6089.1108 9460525
5357.4658 1150.9022 5981.2734 9328682
5221.7622 1114.3781 5791.4561 10513212
5309.6494 1125.736 5850.4834 9394480
5209.7197 1097.3844 5703.1392 9131051
5268.8013 1102.6768 5730.644 9328944
5352.3501 1112.9891 5784.2383 9460532
5378.3965 1111.2893 5775.4038 9592117
5430.6177 1114.9849 5794.6094 9328948
5426.8218 1107.2052 5754.1782 9263411
5568.9111 1129.101 5867.9712 9328949
5574.2241 1123.1655 5837.1245 9197878
0 0 0 0
0 0 0 0
0 0 0 0
0 0 0 0
0 0 0 0
-3811.3423 834.73956 4208.5659 1536
-3787.293 834.9353 4209.5527 1536
-3760.0122 834.41663 4206.9375 1536
-3727.4297 832.7066 4198.3159 1536
-3735.1372 840.03485 4235.2632 1536
-3672.7324 831.58716 4192.6719 1536
-3646.8044 831.33984 4191.4253 1536
-3619.4705 830.76648 4188.5347 1536
-3588.304 829.2995 4181.1382 1536
-3558.405 828.10699 4175.126 1536
-4026.4741 943.59558 4757.3931 1536
-3502.634 826.62201 4167.6392 1536
-3474.7285 825.85889 4163.7915 1536
-3448.0522 825.37921 4161.373 1536
-3422.7397 825.22131 4160.5771 1536
-3845.9641 933.98792 4708.9531 1536
-3369.9592 824.3714 4156.292 1536
-3318.365 817.72614 4122.7881 1536
-3294.8113 817.94354 4123.8843 1536
-3733.9792 933.89404 4708.48 1536
-3258.3254 821.06458 4139.6196 1536
-3236.5781 821.77081 4143.1802 1536
-3205.1812 820.0191 4134.3486 1536
-3161.0095 814.94696 4108.7759 1536
-3152.3682 819.02716 4129.3477 1536
-3090.2422 809.16663 4079.6328 1536
-3106.106 819.73285 4132.9053 1536
-3103.0173 825.4256 4161.6069 1536
-3081.5137 826.27167 4165.8726 1536
-3060.1455 827.16809 4170.3921 1536
-3039.2449 828.20642 4175.6274 1536
-3017.3987 829.0022 4179.6392 1536
-2995.9478 829.92047 4184.269 1536
-2970.4905 829.73511 4183.3345 1536
-2927.0552 824.48248 4156.8521 1536
-2895.3223 822.46521 4146.6812 1536
-2895.959 829.68707 4183.0923 1536
-2859.6851 826.36749 4166.356 1536
-2849.719 830.65851 4187.9902 1536
-2643.9856 777.46002 3919.7751 1536
-2808.7749 833.23553 4200.9829 1536
-2912.0239 871.58923 4394.3535 1536
-2763.5583 834.6153 4207.9395 1536
-2729.6333 831.87518 4194.124 1536
-2727.0103 838.71179 4228.5928 1792
-2690.6399 835.19971 4210.8857 1792
-2670.593 836.73633 4218.6328 1792
-2646.0786 836.88898 4219.4028 1792
-2614.3608 834.74463 4208.5913 1792
-2575.24 830.17236 4185.5391 1792
-2543.5161 827.91907 4174.1782 1792
-2535.8997 833.54541 4202.5449 1792
-2926.7715 971.5647 4898.4067 1792
-2876.0698 964.29688 4861.7642 1536
-2876.3237 974.13934 4911.3877 1536
-2835.166 970.01465 4890.5918 1536
-2809.5054 971.16156 4896.3745 1536
-2787.8391 973.7276 4909.312 1536
-2435.2173 859.53387 4333.5728 1536
-2430.5503 867.02893 4371.3613 1536
-2429.5542 876.00903 4416.6372 1536
-2682.0535 977.5813 4928.7412 1536
-2655.2104 978.45166 4933.1294 1536
-2644.123 985.21198 4967.2134 1536
-2621.7195 987.86053 4980.5669 1024
-2602.0486 991.61084 4999.4751 1024
-2636.0293 1016.129 5123.0898 66817
-2657.9443 1036.5132 5225.8623 659209
-2677.5894 1056.4823 5326.5415 790797
-2640.6631 1054.3403 5315.7427 988176
-2592.8337 1047.741 5282.4702 922383
-2576.2747 1053.7708 5312.8706 1185813
-2546.7847 1054.5951 5317.0273 1580571
-2497.3191 1047.0651 5279.062 1844257
-2500.9382 1061.8831 5353.7715 1976099
-2453.4473 1055.1023 5319.584 1383962
-2417.2185 1053.0511 5309.2432 1187096
-2390.1926 1055.0082 5319.1094 1384473
-2385.1003 1066.828 5378.7026 1516315
-2334.4102 1058.2964 5335.688 1450265
-2313.2166 1063.0862 5359.8374 398086
-2304.1868 1073.6774 5413.2358 1280
-2078.813 982.33502 4952.7085 1024
-2047.6992 981.48816 4948.4385 1536
-1991.4766 968.40674 4882.4849 1536
-1954.8135 964.59119 4863.248 1792
-1915.1483 959.15802 4835.855 1792
-1873.2067 952.40228 4801.7944 1792
-1890.5277 976.03418 4920.9409 1792
-1857.5084 974.00964 4910.7339 1792
-1817.9097 968.41589 4882.5312 1792
-1790.177 969.06464 4885.8018 1792
-1781.3142 980.11719 4941.5264 1536
-1754.7531 981.63843 4949.1963 1536
-1723.1265 980.32953 4942.5972 1536
-1700.208 984.01532 4961.1802 1536
-1673.1804 985.41083 4968.2158 1536
-1655.7745 992.62439 5004.585 1536
-1630.704 995.4223 5018.6914 1536
-1607.5675 999.52686 5039.3853 1536
-1588.7405 1006.5168 5074.627 1536
-1563.2841 1009.4955 5089.645 1536
-1536.4907 1011.711 5100.8154 1536
-1512.2609 1015.7374 5121.1152 1536
-1483.7383 1016.9863 5127.4121 1536
-1461.3102 1022.552 5155.4731 1536
-1407.7791 1006.1263 5072.6587 1536
-1401.2479 1023.3073 5159.2812 1536
-1405.0734 1048.9866 5288.75 1280
-1390.8165 1062.0297 5354.5107 1280
-1364.8497 1066.5314 5377.207 1280
-1345.9894 1076.9342 5429.6558 1280
-1321.2729 1083.0461 5460.4707 1280
-1282.3048 1077.4897 5432.4565 768
-1242.7292 1071.1235 5400.3599 512
-1210.7574 1071.1479 5400.4829 394240
-1189.0688 1080.5179 5447.7246 1445890
-1165.5378 1088.6902 5488.9268 1576450
-1154.4969 1109.3329 5593.0029 2035975
-1124.5448 1112.4874 5608.9067 1970182
-1093.4191 1114.6376 5619.7476 1904388
-1076.5006 1131.8607 5706.583 2035974
-1042.6868 1131.8607 5706.583 1904131
-988.40918 1108.9023 5590.8315 1969667
-956.38086 1110.1787 5597.2671 2232583
-930.29248 1118.6898 5640.1777 2363912
-903.21332 1126.5992 5680.0552 2232069
-874.58148 1133.1094 5712.8779 2297862
-844.03949 1137.5691 5735.3633 2363655
-808.3396 1135.16 5723.2168 2298119
-774.4726 1135.2264 5723.5522 2232326
-744.87207 1141.8394 5756.8926 2232326
-712.69952 1144.9548 5772.6006 2232326
-677.32043 1142.9736 5762.6113 2298117
-644.79443 1145.8521 5777.1235 2363398
-611.48102 1147.5756 5785.8135 2494982
-577.04065 1147.2633 5784.2388 2494469
-544.51648 1150.9618 5802.8857 2428676
-512.92444 1157.262 5834.6499 2494469
-481.20245 1164.1586 5869.4209 2494469
-444.84244 1160.0348 5848.6299 2626055
-412.32086 1166.0696 5879.0562 2560262
-378.25772 1168.4562 5891.0889 2625542
-341.57178 1162.4025 5860.5674 2625542
-308.18719 1167.485 5886.1919 2888457
-271.9126 1161.5193 5856.1147 2822406
-236.3456 1157.2732 5834.7065 2887685
-202.86279 1163.5259 5866.2314 3019527
-169.37091 1172.3018 5910.4771 2953477
-134.53667 1173.9396 5918.7349 3084806
-99.377075 1172.8927 5913.4565 3150599
-64.046043 1167.5798 5886.6704 3216649
-29.13517 1166.3794 5880.6177 3216135
5.7364078 1171.8046 5907.9702 3347722
40.994789 1179.0317 5944.4077 3479305
76.589897 1184.7878 5973.4292 3282183
111.37638 1178.3502 5940.9717 3544841
146.2234 1175.4913 5926.5581 3544072
181.22076 1174.7142 5922.6406 3478533
215.94615 1172.7123 5912.5474 3806468
249.76437 1167.0306 5883.9014 4397828
281.34106 1153.5502 5815.9355 6633496
310.18808 1133.0408 5712.5322 8935472
352.84995 1162.0647 5858.8643 9461298
383.63531 1150.2788 5799.4424 9461041
419.85812 1155.3939 5825.2319 9855800
454.18161 1154.9022 5822.7529 9855543
489.28772 1156.3296 5829.9492 9855543
524.50989 1157.8248 5837.4878 9855543
559.6167 1158.8962 5842.8896 9592371
600.85541 1171.8013 5907.9541 9658420
635.15698 1170.5013 5901.3999 9723702
667.31787 1165.5979 5876.6777 9789495
698.22791 1159.1042 5843.9385 9921338
738.31805 1167.7439 5887.4976 9789753
773.26233 1167.8322 5887.9429 9789497
810.20831 1170.8055 5902.9336 9790006
844.42889 1169.7574 5897.6489 9658420
879.60913 1170.0691 5899.2202 9789750
916.242 1172.2153 5910.0415 9724213
949.19073 1169.6637 5897.1768 9921336
979.90356 1164.6359 5871.8276 9921592
1013.1616 1162.8741 5862.9453 9921336
1049.6344 1164.7968 5872.6387 9921338
1081.3796 1161.5182 5856.1084 9790009
1124.1969 1169.9661 5898.7012 9592630
1151.2639 1162.0073 5858.5747 9658936
1188.2091 1164.193 5869.5947 9856315
1224.5043 1165.6356 5876.8682 9790266
1251.7631 1158.6344 5841.5693 9592887
1282.998 1155.5912 5826.2261 9790522
1320.8492 1158.5105 5840.9448 9724470
1349.5594 1153.4681 5815.522 9658936
1375.6763 1146.5153 5780.4678 9856058
1402.8499 1140.7596 5751.4487 9659192
1418.8906 1126.4388 5679.2466 9330484
1486.3344 1152.6442 5811.3682 6700319
1529.2029 1159.0366 5843.5972 4400392
1554.9821 1152.48 5810.54 4199424
1562.5139 1132.9763 5712.207 5713423
1590.1948 1128.6 5690.1431 6701344
1603.5616 1114.4572 5618.8384 6965030
1639.9906 1116.5918 5629.6006 6373408
1679.7141 1120.8396 5651.0166 5123856
1700.8969 1112.7913 5610.439 4663309
1719.6019 1103.4617 5563.4009 2429189
1733.0269 1091.1586 5501.3716 2627330
1770.7676 1094.3368 5517.3955 2233093
1791.8359 1087.2831 5481.8325 5389331
1859.0051 1107.9565 5586.063 7494457
1902.486 1114.0353 5616.7109 8610106
1935.3217 1113.7789 5615.4185 9790264
1981.8054 1121.2528 5653.1001 9856055
2002.511 1114.1361 5617.2192 9855545
2034.4683 1113.41 5613.5581 9920825
2078.9124 1119.4309 5643.9141 9789495
2103.7412 1114.8662 5620.8999 9920823
2135.3848 1113.9988 5616.5269 9987129
2172.7227 1116.0831 5627.0356 9986873
2208.6167 1117.374 5633.5439 10118461
2237.4773 1115.1211 5622.1855 10052924
2282.0996 1120.6746 5650.1846 10118718
2302.5466 1114.3672 5618.3838 9921081
2332.3296 1112.6934 5609.9453 10052667
2368.907 1114.2627 5617.8574 9921338
2409.5774 1117.687 5635.1221 10052411
2439.489 1116.0953 5627.0972 10118204
2485.9719 1122.0261 5656.9985 10052410
2490.1887 1108.9763 5591.2046 10183997
2552.6472 1121.866 5656.1909 10183997
2597.4136 1126.7465 5680.7979 10184253
2616.2026 1120.3777 5648.688 9986618
2632.1995 1112.989 5611.436 9921082
2674.5366 1116.7834 5630.5669 9986618
2695.9434 1111.8523 5605.7051 9986874
2736.6321 1114.8967 5621.0542 10118461
2780.762 1119.2529 5643.0171 10184253
2836.1201 1127.9713 5686.9731 9986874
2828.7354 1111.824 5605.562 10052411
2857.0049 1109.9026 5595.875 9855288
2878.0193 1105.2394 5572.3638 10184253
2927.4045 1111.4532 5603.6929 10118204
2949.3633 1107.2316 5582.4082 10052667
2992.1411 1110.8326 5600.564 10052667
3031.3076 1113.0287 5611.6362 10118204
3080.5752 1118.8458 5640.9644 9986874
3116.3606 1119.6938 5645.2397 10052411
3124.4338 1110.6729 5599.7583 10052411
3190.3132 1122.1743 5657.7461 10118204
3207.9897 1116.658 5629.9336 10052667
3240.5002 1116.3655 5628.459 10052667
3272.9363 1116.0535 5626.8862 10051898
3315.1333 1119.0426 5641.957 9854773
3347.5701 1118.7103 5640.2817 10051896
3384.1306 1119.7493 5645.5195 10052152
3411.5737 1117.7804 5635.5933 10117688
3459.8835 1122.6205 5659.9956 9855027
3479.0659 1118.0073 5636.7368 9920050
3545.8677 1128.6392 5690.3398 9919794
3561.1257 1122.8188 5660.9951 9788208
3608.9492 1127.2792 5683.4834 9722672
3617.7375 1119.5769 5644.6509 9196329
3655.6309 1120.9404 5651.5249 11433805
3677.4795 1117.4039 5633.6948 11696979
3730.7087 1123.3804 5663.8262 11499601
3769.1157 1124.8267 5671.1187 10973256
3856.4065 1140.7072 5751.1841 11104843
3838.0144 1125.3225 5673.6187 11368014
3876.5647 1126.756 5680.8462 10183739
3971.6848 1144.4658 5770.1348 9788981
3961.7634 1131.8632 5706.5952 9789492
3953.4172 1119.9202 5646.3809 9855028
3966.2371 1114.1232 5617.1538 9723442
4008.4841 1116.62 5629.7422 9920821
4082.7588 1127.9235 5686.7324 9592368
4116.27 1127.8729 5686.4771 9657391
4101.9868 1114.8336 5620.7358 7749145
4206.3843 1133.9994 5717.3652 4525826
3960.6694 1059.2263 5340.3765 4459777
3960.8691 1050.8835 5298.3145 9986868
3965.1218 1043.7389 5262.293 10183992
4021.0759 1050.2091 5294.9141 11631183
4205.9561 1089.9907 5495.4834 11761999
4200.7246 1080.2714 5446.481 12090965
4275.1353 1091.0253 5500.6992 9854773
4327.0366 1095.9152 5525.3535 9722930
4429.8828 1113.5377 5614.2021 9657138
4458.1938 1112.3015 5607.9692 9657396
4545.8809 1125.7878 5675.9644 9723446
4573.5366 1124.3186 5668.5566 9723702
4562.9775 1113.5448 5614.2378 9591860
4543.6196 1100.7954 5549.9585 9657653
4527.7554 1089.0693 5490.8384 9526323
4489.3027 1072.1163 5405.3652 9065773
4680.9893 1109.9751 5596.2402 8079139
4677.0371 1101.2367 5552.1836 9000492
4628.3032 1082.15 5455.9531 9987898
4744.8755 1101.7106 5554.5723 10185534
4686.2788 1080.6093 5448.1846 10316350
4706.7163 1077.8966 5434.5078 10250557
4884.6475 1111.0437 5601.6279 11303246
4886.604 1103.9871 5566.0498 9920823
4899.6074 1099.5038 5543.4468 9789238
4989.2197 1112.1575 5607.2432 9526321
5031.5737 1114.179 5617.4351 9262893
5104.2769 1122.8501 5661.1533 9460529
5131.5483 1121.4791 5654.2412 9657908
5188.2944 1126.5258 5679.6851 9592115
5246.5317 1131.8289 5706.4224 9526322
5180.8223 1110.4966 5598.8696 9526067
5226.6113 1113.1831 5612.4141 9592374
5343.521 1130.8872 5701.6748 9592118
5422.2373 1140.3368 5749.3169 9657911
5480.3604 1145.3644 5774.665 9592118
5490.1123 1140.283 5749.0459 9461556
0 0 0 0
0 0 0 0
0 0 0 0
0 0 0 0
0 0 0 0
-3771.252 850.63428 4164.2969 1536
-4142.1187 940.43939 4603.9395 1536
-3676.3765 840.22961 4113.3608 1536
-3689.5757 848.87402 4155.6797 1536
-3659.312 847.56787 4149.2852 1536
-3629.9973 846.46521 4143.8872 1536
-3602.9949 845.89044 4141.0732 1536
-3574.5974 844.97803 4136.6064 1536
-3544.7083 843.69794 4130.3398 1536
-3516.1826 842.72681 4125.5859 1536
-3488.0244 841.83081 4121.1992 1536
-3869.9268 940.58771 4604.6655 1536
-3499.1851 856.51746 4193.0981 1536
-3407.811 840.11639 4112.8066 1536
-3784.4409 939.68573 4600.25 1536
-3758.3833 939.98596 4601.7202 1536
-3333.6809 839.8595 4111.5488 1536
-3266.7935 829.06726 4058.7151 1536
-3210.394 820.79633 4018.2249 1536
-3244.033 835.59393 4090.6667 1536
-3217.5989 835.02423 4087.8777 1536
-3194.5132 835.32147 4089.3328 1536
-3165.5649 834.07849 4083.2478 1536
-3138.2964 833.26245 4079.2527 1536
-3074.8271 822.74719 4027.7751 1536
-3051.8513 822.98724 4028.9504 1536
-3061.0442 831.97443 4072.9473 1536
-3051.865 836.07141 4093.0039 1536
-3034.7656 838.04675 4102.6743 1536
-2996.5093 834.16431 4083.6682 1536
-2993.9705 840.24268 4113.4248 1536
-3331.5596 942.65955 4614.8086 1536
-3309.595 944.1944 4622.3223 1536
-2904.2092 835.45581 4089.9905 1536
-2874.7595 833.94305 4082.5847 1536
-2843.9094 831.99487 4073.0476 1536
-2849.939 840.89502 4116.6182 1536
-2827.9644 841.61462 4120.1411 1536
-3180.0078 954.62543 4673.3877 1536
-2788.999 844.60107 4134.7612 1536
-3098.0935 946.51984 4633.7065 1536
-2746.2747 846.53564 4144.2319 1536
-3081.1719 958.33643 4691.5547 1536
-2706.0635 849.32941 4157.9087 1536
-3032.8372 960.63721 4702.8184 1536
-3008.9983 961.9245 4709.1206 1792
-2630.6208 848.83533 4155.4902 1536
-2933.7795 955.60175 4678.167 1536
-2936.519 965.61768 4727.2007 1536
-2903.2578 963.87445 4718.6665 1536
-2875.2766 963.86737 4718.6318 1536
-2846.561 963.61157 4717.3794 1536
-2824.9998 965.79651 4728.0757 1536
-2832.8389 978.17712 4788.6855 1536
-2765.9729 964.75177 4722.9614 1024
-2768.9917 975.67633 4776.4429 1536
-2780.5024 989.84961 4845.8286 1536
-2760.2117 992.87933 4860.6606 1536
-2739.4329 995.79559 4874.937 1536
-2711.7744 996.24664 4877.145 1536
-2684.6279 996.89746 4880.3311 1536
-2657.1318 997.43109 4882.9438 1536
-2637.7385 1001.0516 4900.668 1536
-2609.2581 1001.2659 4901.7168 1280
-2587.083 1003.9316 4914.7671 1024
-2561.6257 1005.3698 4921.8081 1024
-2650.365 1052.1765 5150.9512 790794
-2669.7437 1072.2173 5249.061 526854
-2685.3362 1091.192 5341.9521 527879
-2620.8337 1077.6843 5275.8252 198402
-2555.8325 1063.6432 5207.0864 330246
-2550.1582 1074.2501 5259.0127 461833
-2484.2556 1059.4346 5186.4829 1054482
-2448.9111 1057.4429 5176.7324 791053
-2363.9192 1033.6908 5060.4541 397065
-2365.3589 1047.6089 5128.5898 198660
-2317.7485 1039.8823 5090.7646 768
-2291.7295 1041.7668 5099.9902 1024
-2253.1897 1037.9341 5081.2271 1280
-2213.0017 1033.2281 5058.1885 1280
-2198.2993 1040.4551 5093.5684 1280
-2122.6506 1018.6359 4986.752 1280
-2045.6163 995.52625 4873.6187 1536
-2016.5736 995.44495 4873.2207 1536
-1966.7557 984.95721 4821.8774 1536
-1867.854 949.21637 4646.9077 1792
-1853.9528 956.24841 4681.333 1792
-1834.4325 960.55188 4702.4004 1792
-1817.9744 966.61615 4732.0884 1792
-1787.3947 965.24432 4725.3726 1792
-1778.3413 975.63873 4776.2588 1792
-1754.5295 978.1416 4788.5117 1792
-1755.5087 994.77472 4869.9395 1536
-1736.0745 1000.2032 4896.5142 1536
-1720.7648 1008.2326 4935.8228 1536
-1692.5981 1008.8765 4938.9746 1536
-1656.5485 1004.7615 4918.8301 1536
-1627.3007 1004.6987 4918.5225 1536
-1605.3429 1009.2166 4940.6396 1536
-1595.7781 1021.8379 5002.4277 1536
-1572.59 1026.0483 5023.04 1536
-1541.7313 1025.3202 5019.4751 1536
-1517.9984 1029.3953 5039.4248 1536
-1492.4187 1032.3566 5053.9219 1536
-1461.5613 1031.7135 5050.7739 1536
-1474.3909 1062.5269 5201.6216 1280
-1437.4175 1057.999 5179.4551 1280
-1407.0858 1058.2688 5180.7759 1280
-1392.4033 1070.5828 5241.0591 1024
-1355.8962 1066.2955 5220.0708 1024
-1329.6498 1070.0656 5238.5269 768
-1278.5342 1053.5233 5157.5444 512
-1254.9456 1059.4089 5186.3574 197120
-1223.2572 1058.5807 5182.3027 1182722
-1205.494 1070.0707 5238.5522 1576195
-1203.5073 1096.5422 5368.144 1707524
-1180.0818 1104.3873 5406.5503 1838341
-1156.8147 1112.8229 5447.8462 2035206
-1132.2949 1120.5029 5485.4438 2166535
-1091.213 1111.7631 5442.6577 2034948
-1058.9939 1111.7952 5442.8154 2034947
-1027.1581 1112.2448 5445.0161 2100997
-998.76849 1116.5759 5466.2197 2363912
-971.18469 1122.1287 5493.4033 2298118
-939.77417 1123.4916 5500.0752 2363655
-906.67719 1122.8639 5497.0024 2297606
-868.95734 1116.251 5464.6289 2231557
-843.01947 1124.847 5506.7109 2231813
-808.95294 1122.8523 5496.9458 2297606
-779.10199 1126.7871 5516.2085 2494985
-750.85126 1133.4822 5548.9844 2429192
-721.53351 1139.106 5576.5156 2494985
-687.90094 1138.1306 5571.7412 2363399
-658.98328 1145.2511 5606.5996 2363397
-625.71094 1145.1577 5606.1426 2560262
-595.48413 1150.9404 5634.4517 2494469
-562.62274 1152.0151 5639.7134 2625542
-528.36475 1150.1859 5630.7578 2625542
-490.80658 1140.4414 5583.0532 2428163
-455.99878 1136.141 5562.001 2625542
-431.35104 1158.457 5671.2495 2493699
-399.16843 1162.5983 5691.5225 2625542
-368.73868 1173.0801 5742.8369 2428163
-333.12939 1167.5402 5715.7158 2691335
-299.88019 1169.9541 5727.5332 2691334
-263.44415 1158.9642 5673.7324 2691076
-232.14853 1170.6813 5731.0933 2822149
-198.09036 1170.0957 5728.2266 2822149
-163.26378 1163.7904 5697.3589 3019270
-128.95992 1158.8951 5673.394 3085063
-95.116386 1156.1434 5659.9229 3019269
-61.901894 1162.2043 5689.5947 3150856
-28.348354 1168.7843 5721.8071 3216136
5.5386801 1165.2142 5704.3291 3281672
39.65448 1174.5551 5750.0576 3347722
73.885345 1177.0955 5762.4941 3347722
108.88676 1186.4259 5808.1719 3544584
141.5351 1171.7932 5736.5371 3478792
176.96887 1181.4232 5783.6807 3544072
211.56235 1183.2288 5792.52 3609863
247.4156 1190.5925 5828.5693 3806467
279.21884 1179.0503 5772.064 4660743
305.79385 1150.3593 5631.6064 7159583
336.11105 1140.0066 5580.9248 9329715
371.58105 1147.4199 5617.2173 9592369
404.88745 1147.4827 5617.5244 9658421
437.30414 1145.2059 5606.3784 9526835
472.78964 1150.7198 5633.3716 9789750
505.78149 1149.8374 5629.0518 9855799
536.90552 1145.0806 5605.7646 9724214
574.22449 1153.3207 5646.104 9723957
601.71942 1142.0081 5590.7231 9987385
634.79437 1141.9141 5590.2627 10316350
674.33337 1152.8805 5643.9492 9855799
711.77441 1159.3933 5675.833 9461041
751.40552 1168.7249 5721.5156 9526578
777.19623 1156.653 5662.4175 9592371
815.97961 1164.1162 5698.9541 9855543
850.90314 1165.6984 5706.6992 9855799
874.50763 1152.2457 5640.8418 9724213
912.76031 1158.3735 5670.8403 9987129
946.36237 1158.3735 5670.8403 9987386
978.56061 1156.7142 5662.7173 9921336
1018.6703 1164.2067 5699.3965 9987132
1045.4724 1156.4974 5661.6558 9856315
1080.3041 1157.8737 5668.3936 9724729
1120.4724 1164.7144 5701.8823 9527351
1155.5627 1166.0305 5708.3257 9592888
1176.9883 1153.8755 5648.8203 9724729
1215.6301 1158.8041 5672.9482 9922109
1244.1201 1154.0505 5649.6772 9724729
1267.2524 1144.7067 5603.9341 9987130
1306.9835 1150.4506 5632.0537 10118971
1339.2637 1149.5133 5627.4648 9921591
1362.8064 1141.3042 5587.2773 10119227
1398.7645 1143.6355 5598.6899 10053176
1428.7378 1141.0787 5586.1738 9987127
1442.7467 1126.1764 5513.2188 10118198
1532.4762 1169.7311 5726.4419 10250298
1531.1744 1143.4203 5597.6367 10447164
1564.109 1143.2496 5596.8008 10579007
1587.1957 1136.0371 5561.4922 10382398
1649.2905 1156.4705 5661.5239 10185790
1677.4142 1152.7437 5643.2793 9265462
1695.8772 1142.6532 5593.8813 8739376
1712.1246 1131.4855 5539.21 8739633
1711.9091 1110.0627 5434.3345 7358236
1755.8119 1117.5109 5470.7964 7028756
1808.0641 1129.9066 5531.48 9264693
1818.2198 1116.0222 5463.5088 9528122
1821.8916 1098.7133 5378.7725 9856832
1894.8247 1123.0503 5497.915 10184511
1919.7311 1118.5806 5476.0332 10184510
1948.6093 1116.5353 5466.0205 10184508
1966.5217 1108.3762 5426.0781 9987129
2007.4459 1113.2411 5449.894 9855287
2051.4089 1119.6106 5481.0757 10052408
2076.0732 1115.4127 5460.5249 10052665
2104.4062 1113.2844 5450.106 10118458
2149.9622 1120.1942 5483.9331 10052409
2180.0842 1118.9767 5477.9722 9789493
2213.2224 1119.3199 5479.6528 9723700
2238.6165 1115.7936 5462.3896 9855030
2277.4426 1118.9673 5477.9263 9921080
2298.825 1113.6013 5451.6577 9723702
2328.9043 1112.5391 5446.457 9855289
2360.6851 1112.3074 5445.3228 9789239
2394.2852 1112.9276 5448.3594 9986618
2432.1797 1115.5011 5460.9575 10184252
2459.0325 1113.009 5448.7578 9986617
2468.1812 1102.6722 5398.1538 9986873
2516.1431 1109.7181 5432.6475 9723703
2544.1099 1107.8789 5423.6431 9921081
2577.9014 1108.5902 5427.1255 10052667
2624.4172 1114.6886 5456.98 10118460
2639.8816 1107.6104 5422.3281 10118204
2639.064 1093.9529 5355.4683 10118204
2665.8738 1091.9363 5345.5957 10052411
2694.7759 1090.814 5340.1011 10052411
2771.4412 1108.8273 5428.2856 10052668
2768.2415 1094.8406 5359.814 9855288
2828.5391 1105.9996 5414.4429 9986874
2868.8484 1109.1802 5430.0137 9986618
2890.9309 1105.3214 5411.123 10052411
2929.5356 1107.7952 5423.2334 9921081
2972.459 1111.8304 5442.9883 9789494
3003.1538 1111.2544 5440.168 9920824
3027.8376 1108.4897 5426.6338 9723445
3056.9529 1107.3887 5421.2432 9723445
3091.0566 1108.0988 5424.7192 10052666
3132.6238 1111.4423 5441.0874 10052666
3167.8726 1112.4985 5446.2588 10052409
3188.1853 1108.3413 5425.9067 10052409
3241.5798 1115.6527 5461.7002 9986103
3260.5188 1111.0785 5439.3066 10051895
3283.9604 1108.1129 5424.7886 9854773
3342.7961 1117.0322 5468.4531 9920311
3383.5669 1119.8015 5482.0107 9986360
3401.5356 1115.0437 5458.7188 9920311
3467.302 1125.8962 5511.8472 9855030
3477.0771 1118.5344 5475.8076 9986359
3505.4431 1117.2339 5469.4409 9723186
3602.1545 1137.5404 5568.8516 9920567
3623.5764 1133.918 5551.1182 10117945
3662.4763 1135.781 5560.2383 10380862
3714.3091 1141.5856 5588.6548 10709828
3734.6172 1137.6842 5569.5557 10841670
3771.8591 1138.9646 5575.8237 10315068
3804.4019 1138.816 5575.0962 10051639
3781.1621 1122.1157 5493.3398 9920567
3789.696 1115.0493 5458.7461 9855285
3825.8491 1116.1602 5464.1846 9723700
3778.8889 1093.2084 5351.8232 9855285
3824.356 1097.1545 5371.1421 9855284
3865.2239 1099.7272 5383.7358 9920820
3911.0376 1103.6532 5402.9561 9854770
3991.6509 1117.2559 5469.5483 9131562
3906.9805 1084.7494 5310.4121 3804930
4007.1216 1103.6643 5403.0103 2491392
3906.915 1067.5358 5226.1421 7487002
3989.4258 1081.5088 5294.5479 9526322
3973.2415 1068.717 5231.9258 10578751
4055.6482 1082.437 5299.0918 10907715
4115.3623 1089.936 5335.8037 9920053
4277.188 1124.1584 5503.3398 10315067
4247.5117 1107.9119 5423.8047 10117432
4262.0889 1103.3657 5401.5488 9986359
4249.8501 1091.9971 5345.8931 9788980
4309.3833 1099.1017 5380.6743 9592115
4308.0908 1090.7026 5339.5566 9526065
4362.4521 1096.4135 5367.5137 9460275
4392.6968 1096.0242 5365.6084 9131563
4373.1504 1083.3064 5303.3481 9262893
4412.3408 1085.2166 5312.6992 9394479
4419.0869 1079.1763 5283.1289 9526322
4474.1709 1084.9426 5311.3579 9460785
4465.4272 1075.2588 5263.9507 9526834
4473.6694 1069.7711 5237.0859 9461042
4512.2432 1071.5621 5245.8535 9329200
4482.0049 1057.0991 5175.0498 9657909
4544.4561 1064.5453 5211.5024 9592885
4601.5923 1070.6543 5241.4092 11170634
4702.021 1086.6866 5319.896 11631699
4777.2319 1096.7163 5368.9961 9657653
4860.5703 1108.4667 5426.5205 9657653
4901.5254 1110.4604 5436.2812 9328688
5048.2769 1136.2405 5562.4878 8999979
5031.98 1125.2258 5508.5654 8868393
5074.9883 1127.5294 5519.8423 8802857
5068.3428 1118.8422 5477.314 9131566
5052.1006 1108.1605 5425.022 9197358
5190.8828 1131.4031 5538.8062 9131566
5305.6855 1149.1598 5625.7344 9263409
5312.6699 1143.4883 5597.9692 9723449
5472.8462 1170.6552 5730.9653 8803371
0 0 0 0
0 0 0 0
0 0 0 0
0 0 0 0
0 0 0 0
-3681.6357 854.50946 4065.3408 1536
-3655.4192 854.01227 4062.9758 1536
-3637.8718 855.54742 4070.2793 1536
-3598.5964 851.95898 4053.207 1536
-3570.8774 851.07666 4049.009 1536
-3544.7219 850.5575 4046.5396 1536
-3514.0293 848.93524 4038.8215 1536
-3482.9878 847.20575 4030.5935 1536
-3459.918 847.40491 4031.541 1536
-3430.4331 846.02466 4024.9746 1536
-3423.3401 850.18622 4044.7729 1536
-3376.2983 844.41516 4017.3171 1536
-3345.4858 842.64996 4008.9192 1536
-3321.4832 842.58704 4008.6196 1536
-3294.5137 841.76514 4004.7095 1536
-3261.7039 839.42822 3993.5918 1536
-3246.4138 841.59894 4003.9189 1536
-3223.0532 841.69415 4004.3716 1536
-3189.5637 839.12592 3992.1533 1536
-3144.0237 833.32526 3964.5566 1536
-3134.8655 837.15295 3982.7671 1536
-3111.6365 837.25256 3983.241 1536
-3083.1782 835.93604 3976.9775 1536
-3057.0496 835.2356 3973.6455 1536
-3032.0642 834.83911 3971.759 1536
-3009.4836 835.10376 3973.0183 1536
-3164.8828 885.14984 4211.1128 1536
-3351.2886 944.73187 4494.5752 1536
-3365.4377 956.32019 4549.707 1536
-3338.3889 956.29456 4549.585 1536
-2932.9167 846.98499 4029.543 1536
-2895.0188 842.90265 4010.1211 1536
-2864.1484 840.81567 4000.1926 1536
-2869.4275 849.39484 4041.0078 1536
-3179.1567 948.99854 4514.874 1536
-2907.9976 875.42236 4164.8345 1536
-2801.8547 850.68854 4047.1626 1536
-2763.9897 846.43665 4026.9346 1536
-2743.665 847.52905 4032.1318 1536
-2749.2009 856.6994 4075.7595 1536
-3027.6907 951.84326 4528.4077 1536
-2694.6892 854.72937 4066.3872 1536
-2667.7214 853.80994 4062.0129 1536
-2646.6897 854.79095 4066.6799 1536
-2621.9492 854.58112 4065.6819 1536
-2608.6755 858.1394 4082.6104 1536
-2569.8179 853.26959 4059.4421 1536
-2551.7129 855.26355 4068.9285 1536
-2875.7534 973.06702 4629.3804 1536
-2810.0251 959.98364 4567.1357 1536
-2794.5073 963.96582 4586.0811 1536
-2761.9971 962.10706 4577.2383 1536
-2736.8274 962.79395 4580.5059 1536
-2722.8726 967.47931 4602.7964 1536
-2690.0283 965.47986 4593.2842 1536
-2409.9263 873.789 4157.0635 1536
-2391.8491 876.19031 4168.4878 1536
-2371.8811 877.94183 4176.8208 1536
-2589.6692 968.6626 4608.4263 1536
-2557.886 966.97046 4600.3755 1536
-2567.9019 981.21344 4668.1367 1536
-2543.832 982.60034 4674.7354 1536
-2523.6055 985.5188 4688.6196 1536
-2506.6033 989.77539 4708.8706 1280
-2481.9248 991.06256 4714.9941 1280
-2436.3049 983.92175 4681.0215 1024
-2465.4094 1007.142 4791.4922 768
-2388.1145 986.93176 4695.3418 768
-2457.1313 1027.4238 4887.9834 768
-2381.4478 1007.6551 4793.9336 1024
-2336.0837 1000.3931 4759.3843 1024
-2294.041 994.39331 4730.8403 1024
-2249.0305 986.94269 4695.3936 1024
-2218.0454 985.53723 4688.7075 1280
-2226.9458 1002.0431 4767.2344 1536
-2209.1365 1006.8005 4789.8677 1536
-2222.1118 1025.8939 4880.7051 1536
-2202.0662 1030.0453 4900.4551 1536
-2109.9934 1000.1656 4758.3018 1536
-1991.7251 956.89117 4552.4233 1536
-1942.5413 946.07483 4500.9644 1280
-1874.7112 925.74957 4404.2666 1280
-1866.2643 934.5885 4446.3179 1536
-1886.3461 958.17151 4558.5146 1536
-1848.0359 952.34875 4530.813 1792
-1812.7178 947.91888 4509.7378 1792
-1853.5902 983.79468 4680.4175 1792
-1812.4575 976.57507 4646.0698 1792
-1823.9396 997.91931 4747.6152 1792
-1784.4716 991.61975 4717.645 1792
-1753.5903 989.96722 4709.7832 1792
-1740.5669 998.50555 4750.4043 1792
-1724.8228 1005.7382 4784.814 1536
-1711.5483 1014.6768 4827.3394 1536
-1678.7666 1012.158 4815.356 1536
-1665.1595 1021.3126 4858.9092 1536
-1622.1512 1012.4391 4816.6934 1536
-1608.481 1021.8866 4861.6401 1536
-1582.3481 1023.6166 4869.8706 1536
-1552.1941 1022.7612 4865.8013 1280
-1517.5907 1018.8863 4847.3662 1280
-1494.6316 1022.8304 4866.1304 1280
-1476.5112 1030.3063 4901.6968 1280
-1473.9225 1049.1376 4991.2866 1280
-1450.3777 1053.5179 5012.1265 1280
-1407.9558 1044.0831 4967.2402 1280
-1401.7272 1061.6578 5050.8521 1280
-1377.4229 1066.0103 5071.5591 1024
-1345.5679 1064.583 5064.769 512
-1332.8236 1078.5555 5131.2437 262912
-1279.4242 1059.5133 5040.6494 985345
-1257.8568 1066.5514 5074.1333 1510914
-1239.8594 1077.0352 5124.0103 1838851
-1245.5586 1109.147 5276.7822 1838597
-1214.2915 1109.147 5276.7822 2101253
-1190.2058 1115.8798 5308.814 2166790
-1164.1656 1121.0962 5333.6309 2100740
-1127.2864 1115.874 5308.7866 2100740
-1087.2184 1107.1053 5267.0693 2166790
-1058.6249 1109.8478 5280.1167 2100997
-1022.5457 1104.6705 5255.4858 2035204
-993.40979 1106.9045 5266.1143 2166790
-966.55957 1111.913 5289.9419 2298375
-944.11145 1122.4908 5340.2661 2166276
-917.20312 1128.3156 5367.9771 2100227
-887.04742 1130.4204 5377.9912 2231813
-849.54907 1122.9763 5342.5762 2231813
-826.18921 1134.3683 5396.7729 2363142
-793.05994 1132.7239 5388.9502 2494984
-760.59033 1131.9235 5385.1421 2363399
-730.2016 1134.2852 5396.3779 2429192
-696.63422 1131.6995 5384.0762 2429192
-665.84174 1133.5898 5393.0698 2429192
-637.14642 1139.4213 5420.8125 2494983
-610.44971 1149.6355 5469.4072 2560262
-606.93842 1207.1077 5742.8315 2626055
-543.36902 1144.8657 5446.7148 2691591
-512.90344 1148.9166 5465.9873 2625541
-480.39972 1148.6404 5464.6729 2560006
-447.80057 1148.0793 5462.0039 2691335
-416.63086 1151.3816 5477.7139 2625542
-391.17245 1172.3585 5577.5122 2691335
-354.95135 1161.9742 5528.1089 2559749
-317.63489 1145.5283 5449.8672 2625542
-283.27228 1137.2181 5410.3315 2559748
-254.94987 1154.1306 5490.7925 2625540
-222.25082 1153.2802 5486.7466 2624770
-188.62477 1146.5037 5454.5073 2822149
-159.04694 1166.6187 5550.2051 3019270
-125.42588 1159.8325 5517.9199 3019270
-93.17543 1165.4039 5544.4258 2953477
-60.094273 1160.9951 5523.4507 2887683
-27.374767 1161.3837 5525.2993 3018757
5.3673229 1161.9192 5527.8472 3084550
38.240883 1165.5415 5545.0801 3216136
70.901535 1162.3254 5529.7798 3150343
104.34469 1169.9159 5565.8916 3281413
136.64784 1164.1483 5538.4526 3347206
169.96187 1167.559 5554.6782 3412999
204.20802 1175.2272 5591.1602 3609608
237.78305 1177.4315 5601.6475 3740678
271.16998 1178.2786 5605.6768 4200453
299.43195 1159.1019 5514.4438 5515279
325.62277 1136.4702 5406.7729 7948835
356.2146 1131.8771 5384.9214 9790007
395.00162 1151.9388 5480.3652 9460784
417.88367 1126.0927 5357.4019 9789750
454.4046 1138.0547 5414.311 9724214
484.9502 1134.4606 5397.2119 9658164
526.99335 1156.5438 5502.2734 9592371
549.09418 1134.8381 5399.0083 9461041
584.22443 1140.9683 5428.1729 9658421
620.57312 1148.7142 5465.0244 9790006
652.99237 1148.7789 5465.3325 9789750
692.86365 1161.3281 5525.0347 9723957
709.28094 1135.2067 5400.7617 9329201
756.90601 1159.1326 5514.5894 9460785
787.46857 1156.0295 5499.8271 9658420
819.96088 1155.8937 5499.1807 9658164
854.09924 1158 5509.2017 9723957
885.01361 1155.7411 5498.4546 9790007
914.03809 1151.262 5477.1455 9855543
941.68622 1145.416 5449.333 9987385
981.21472 1153.9293 5489.835 9789497
1012.1661 1152.1329 5481.2891 9527351
1051.3073 1159.4807 5516.2461 9724986
1083.8527 1159.3303 5515.5308 9593144
1110.1532 1152.7046 5484.0083 9461557
1149.8621 1159.9819 5518.6309 9395765
1169.3634 1147.0353 5457.0366 9527094
1200.7434 1146.1235 5452.6992 9658164
1248.7021 1160.6696 5521.9023 9789750
1261.9921 1143.071 5438.1768 9658421
1304.0133 1151.7246 5479.3462 9790006
1339.2279 1154.092 5490.6094 10118970
1367.6758 1150.6544 5474.2544 10184506
1388.6476 1141.2318 5429.4263 10053177
1420.9241 1141.316 5429.8271 10052407
1446.0616 1135.7896 5403.5347 10184249
1471.1956 1130.4994 5378.3672 10118200
1497.7521 1126.5038 5359.3579 10052664
1529.2812 1126.3365 5358.562 9855541
1557.2397 1123.5997 5345.5415 9986871
1587.8723 1122.8628 5342.0356 9986616
1612.4995 1117.9912 5318.8589 9789494
1651.9738 1123.4028 5344.605 9855288
1671.2075 1115.1053 5305.1299 9526322
1694.467 1109.7512 5279.6572 10250304
1712.4034 1101.1678 5238.8218 10184509
1751.9187 1106.5195 5264.2822 10184509
1806.465 1121.0115 5333.228 9855545
1824.061 1112.4698 5292.5908 9855031
1868.1271 1120.0876 5328.833 9921080
1886.6492 1112.3912 5292.2168 10052665
1929.5015 1119.0574 5323.9312 10118458
1965.0702 1121.3525 5334.8506 10052409
1965.8297 1104.0261 5252.4199 9986873
2014.0281 1113.4664 5297.3325 10184251
2032.9316 1106.6698 5264.9971 10118458
2071.1531 1110.4358 5282.9141 10052665
2096.4985 1107.2891 5267.9434 9921079
2117.0481 1101.7388 5241.5376 9855030
2150.6855 1103.0616 5247.8315 9723700
2184.1599 1104.2643 5253.5532 9657651
2211.4534 1102.3523 5244.4565 9657394
2253.1643 1107.5802 5269.3286 9920310
2279.6145 1105.2662 5258.3198 9591345
2320.7212 1110.0249 5280.9595 9854517
2361.3142 1114.4147 5301.8433 9460528
2384.6665 1110.6592 5283.9766 9657907
2390.9143 1099.1379 5229.1641 9657651
2436.7905 1105.896 5261.3159 9789494
2468.7466 1106.2458 5262.98 9920823
2493.6135 1103.45 5249.6787 9723701
2519.0359 1100.9657 5237.8599 9855289
2550.0725 1100.9657 5237.8599 9986874
2570.4839 1096.4336 5216.2983 9789239
2594.0364 1093.3331 5201.5479 9855032
2626.6868 1094.0951 5205.1729 10183997
2674.6116 1101.1277 5238.6304 10184252
2674.4939 1088.4469 5178.3018 10052409
2748.0173 1105.6838 5260.3066 10118202
2739.2666 1089.8018 5184.7476 10118459
2789.7671 1097.5834 5221.7686 9921080
2828.5649 1100.6406 5236.3135 9723444
2849.5259 1096.7661 5217.8804 10052409
2898.2258 1103.5369 5250.0923 9921079
2919.7517 1099.9269 5232.9175 9986619
2955.8335 1101.8184 5241.9165 10118205
2989.4519 1102.762 5246.4058 10249790
3027.8645 1105.4364 5259.1294 10118461
3054.4006 1103.7646 5251.1758 10184251
3088.4016 1104.7969 5256.0869 10118458
3121.1172 1105.3533 5258.7339 10118202
3152.9688 1105.5958 5259.8877 9921079
3181.9094 1104.8228 5256.21 9986103
3237.0327 1113.0677 5295.436 10052152
3258.9539 1109.8473 5280.1143 10117945
3322.7629 1120.8176 5332.3057 9788725
3329.3447 1112.4594 5292.541 9854517
3376.3528 1117.639 5317.1836 10051897
3421.6265 1122.1542 5338.6641 9854517
3445.3484 1119.5833 5326.4331 9788725
3499.5774 1126.8823 5361.1587 9920566
3519.9822 1123.2565 5343.9087 9986103
3562.7041 1126.7534 5360.5454 9789494
3565.7852 1117.7625 5317.771 9855287
3586.6067 1114.4413 5301.9702 9723444
3618.4866 1114.5841 5302.6494 9723444
3641.4089 1111.989 5290.3037 9789491
3664.7239 1109.5571 5278.7339 10447421
3677.7063 1104.0646 5252.603 10184248
3704.4492 1102.7605 5246.3984 9986870
3709.0017 1094.9271 5209.1318 10315836
3661.9534 1072.1161 5100.6074 10907973
3670.6162 1065.8555 5070.8228 9921332
3780.8262 1088.944 5180.666 10315834
3689.292 1054.0227 5014.5278 9789490
3917.5315 1110.2881 5282.2109 9987382
3807.613 1070.582 5093.3091 10776644
3723.0647 1038.5776 4941.0479 10710851
3830.5989 1060.2375 5044.0952 9920567
3928.3799 1078.8835 5132.8037 9789237
3957.1213 1078.4277 5130.6353 9591858
3994.7458 1080.3812 5139.9292 9657138
4071.4839 1092.8036 5199.0283 9328430
4130.186 1100.2346 5234.3823 9525808
4176.9766 1104.4056 5254.2256 9854517
4156.0527 1090.7434 5189.2271 9855540
4193.938 1092.6025 5198.0723 9526064
4209.978 1088.7853 5179.9116 9262895
4198.8623 1078.0509 5128.8423 9789493
4239.0977 1080.5605 5140.7817 9592627
4254.7104 1076.8025 5122.9033 9526834
4242.293 1066.0541 5071.7676 9592627
4205.7886 1049.4465 4992.7568 9526578
4264.605 1056.6898 5027.2168 9066284
4321.8452 1063.4448 5059.3535 9329199
4418.166 1079.6566 5136.4814 9461042
4448.6958 1079.6793 5136.5898 10054206
4466.959 1076.7451 5122.6299 9989442
4405.7051 1054.8124 5018.2852 12294258
4550.8394 1082.256 5148.8481 12951680
4498.2642 1062.6289 5055.4722 12490101
4701.3677 1103.2611 5248.7808 11040853
4769.1982 1111.8239 5289.5176 10973778
4908.7954 1136.896 5408.7988 10250046
4913.0791 1130.5072 5378.4038 9328945
4925.3354 1126.0232 5357.0713 9526321
4955.4907 1125.6626 5355.356 9394995
4930.8013 1112.9276 5294.769 9394995
4992.4121 1119.7094 5327.0332 9394739
5159.3887 1149.8889 5470.6128 9065521
5210.6523 1154.0635 5490.4731 7223838
5244.6694 1154.39 5492.0269 4199172
0 0 0 0
0 0 0 0
0 0 0 0
0 0 0 0
0 0 0 0
-3591.2415 857.02631 3965.5259 1536
-3563.8931 856.1012 3961.2454 1536
-3539.3796 855.84937 3960.0801 1536
-3506.3657 853.52496 3949.3247 1536
-3481.532 853.17383 3947.7004 1536
-3455.2612 852.46362 3944.4141 1536
-3425.5579 850.89111 3937.1377 1536
-3397.1948 849.63202 3931.312 1536
-3393.5894 854.59021 3954.2539 1536
-3382.905 857.82245 3969.2095 1536
-3355.2983 856.77863 3964.3799 1536
-3300.4482 848.71454 3927.0667 1536
-3266.4746 845.94238 3914.2397 1536
-3245.3494 846.48175 3916.7356 1536
-3255.1887 855.16357 3956.907 1536
-3222.1985 852.63818 3945.2217 1536
-3174.4309 846.13696 3915.1401 1536
-3152.8398 846.5686 3917.1375 1536
-3128.198 846.18152 3915.3462 1536
-3522.0916 959.84875 4441.2935 1536
-3066.3779 841.94751 3895.7551 1536
-3057.8015 845.96106 3914.3264 1536
-3036.6484 846.53009 3916.959 1536
-3386.6455 951.37054 4402.064 1536
-3393.3889 960.664 4445.0654 1536
-3367.0503 960.664 4445.0654 1536
-3311.9248 952.38599 4406.7627 1536
-3287.45 952.86047 4408.958 1536
-2904.937 848.73468 3927.1602 1536
-2883.2837 849.21088 3929.3635 1536
-2870.4314 852.30798 3943.6941 1536
-2847.7505 852.51373 3944.6458 1536
-2826.4197 853.13031 3947.499 1536
-2791.0962 849.49841 3930.6938 1536
-2768.4702 849.70251 3931.6382 1536
-2914.0107 901.96204 4173.4468 1536
-2731.241 852.62573 3945.1641 1536
-2724.6736 857.91846 3969.6538 1536
-2704.2568 858.90466 3974.217 1536
-2687.9563 861.22705 3984.9629 1536
-2665.9448 861.74451 3987.3574 1536
-2650.6838 864.47284 3999.9817 1536
-2606.3191 857.67297 3968.5183 1536
-2605.1609 865.09717 4002.8704 1536
-2585.3494 866.40649 4008.9287 1536
-2569.9429 869.23004 4021.9937 1536
-2533.6096 864.96216 4002.2456 1536
-2536.6309 874.17596 4044.8789 1536
-2531.7546 880.81799 4075.6118 1536
-2483.3389 872.29431 4036.1719 1536
-2479.0715 879.26312 4068.4175 1536
-2461.2756 881.5235 4078.8762 1536
-2663.6821 963.47791 4458.0854 1536
-2416.7502 882.91638 4085.3213 1536
-2396.1987 884.26544 4091.5635 1536
-2379.917 887.23383 4105.2983 1536
-2362.124 889.6944 4116.6836 1536
