# .PCD v0.7 - Point Cloud Data file format
VERSION 0.7
FIELDS x y z rgb
SIZE 4 4 4 4
TYPE F F F U
COUNT 1 1 1 1
WIDTH 1294
HEIGHT 1
VIEWPOINT 0 0 0 1 0 0 0
POINTS 1294
DATA ascii
1768.8605 1211.704 5315.1904 9920822
1797.3217 1209.6624 5306.2349 9987129
1830.5082 1210.8164 5311.2974 9987129
1871.1259 1216.7642 5337.3872 9855030
1887.403 1206.9489 5294.3315 9920823
1926.1256 1211.5731 5314.6162 9920823
1950.8965 1207.4137 5296.3711 9855030
1966.9512 1198.0773 5255.416 9855030
1991.3896 1194.0587 5237.7886 9592115
1992.1235 1176.168 5159.3101 9920826
2050.6997 1192.4525 5230.7432 10052411
2077.7659 1190.2025 5220.873 9987129
2108.6104 1190.1511 5220.6475 9855800
2135.6777 1187.9998 5211.2109 9987385
2183.0378 1197.0374 5250.8545 10118971
2184.127 1180.8052 5179.6519 9658420
2278.9062 1214.9729 5329.5298 9987129
2287.3696 1202.8171 5276.208 9855290
2306.9663 1196.7649 5249.6597 9922109
2360.3833 1208.1848 5299.7534 10053438
2369.4111 1196.8821 5250.1733 10053695
2422.1189 1207.651 5297.4116 9789753
2450.5601 1206.1997 5291.0459 9592116
2489.2935 1209.7874 5306.7827 9592115
2527.0483 1212.8158 5320.0674 9657651
2552.9858 1210.168 5308.4521 9986616
2572.4973 1204.5754 5283.9209 10184251
2602.6643 1204.047 5281.6025 10184252
2641.5 1207.4937 5296.7217 10184251
2678.5532 1210.0543 5307.9541 10249788
2727.9316 1218.0588 5343.0659 10052409
2755.6699 1216.3279 5335.4731 10118458
2761.3381 1205.0051 5285.8057 10250044
2795.8767 1206.3937 5291.8965 10184251
2838.9001 1211.3721 5313.7344 10118202
2884.2678 1217.2303 5339.4321 9855287
2915.3369 1216.9929 5338.3901 10118202
2960.9512 1222.7668 5363.7183 9921080
2984.6631 1219.4696 5349.2544 10118458
3043.0776 1230.2714 5396.6367 9986873
3076.2227 1230.7385 5398.686 10052665
3115.5562 1233.6466 5411.4424 9986872
3119.3052 1222.5486 5362.7607 10052666
3181.6499 1234.4083 5414.7842 10052665
3204.7019 1230.939 5399.5654 9526321
3220.7275 1224.8657 5372.9253 9657908
3241.2961 1220.6223 5354.311 9921080
3288.6028 1226.4326 5379.7983 9921077
3301.4067 1219.3878 5348.896 10052406
3339.353 1221.6752 5358.9292 10118457
3324.4402 1204.7634 5284.7451 9986870
3361.1819 1206.7118 5293.292 9986613
3433.8608 1221.4071 5357.7534 9986870
3415.1863 1203.6366 5279.8027 10052406
3423.1792 1195.5023 5244.1211 9723699
3465.179 1199.2838 5260.7085 9723957
3447.8037 1182.6317 5187.6636 9855800
3438.6768 1169.078 5128.21 10185278
3508.2659 1182.2893 5186.1616 9527350
3526.2124 1178.0187 5167.4282 8737578
3530.5225 1169.3052 5129.2061 9462584
3538.7627 1162.0309 5097.2974 8738606
3744.3423 1219.1322 5347.7744 7160348
3695.4873 1193.1282 5233.7065 12094561
3620.5747 1159.2139 5084.9399 12424553
3733.5027 1185.5048 5200.2661 11173717
3868.7744 1218.4019 5344.5708 7095325
3826.9551 1195.4459 5243.874 8608049
3864.7483 1197.5287 5253.0098 8279339
3948.6033 1213.7366 5324.1064 8344874
3973.9661 1211.8506 5315.8335 7489559
4028.3865 1218.7856 5346.2544 9002286
4016.2954 1205.6465 5288.6187 7818013
4027.824 1199.7461 5262.7368 8936494
4139.4702 1223.5289 5367.061 9396533
4101.8979 1203.1799 5277.7993 9067570
4113.9717 1197.5909 5253.2832 10975568
4143.4419 1197.1121 5251.1821 9330742
4173.1221 1196.7004 5249.3765 9067056
4179.4224 1189.6401 5218.4062 7750940
4208.6963 1189.1746 5216.3643 8934957
4295.8086 1204.9393 5285.5166 9394994
4353.2866 1212.2235 5317.4692 9328945
4474.6401 1237.0623 5426.4258 9329202
4495.7534 1234.0317 5413.1318 9526324
4567.627 1244.8787 5460.7124 9592117
4599.2603 1244.6827 5459.853 9921082
4700.0117 1263.0642 5540.4844 9855289
4783.5103 1276.5864 5599.7998 9658422
4864.1777 1289.172 5655.0068 9592374
4898.7764 1289.459 5656.2656 9460530
4971.0508 1299.5918 5700.7139 9395250
4990.0117 1295.744 5683.8354 9394994
5000.6108 1289.791 5657.7227 9460531
5058.2007 1295.957 5684.7695 9328946
4977.7168 1266.8994 5557.3076 9065778
4779.3032 1208.4062 5300.7251 7947300
4553.1479 1143.7085 5016.9253 4201992
4376.8584 1092.2948 4791.397 2952449
4462.2368 1106.4249 4853.3794 2097920
4541.2139 1118.7971 4907.6504 2950400
4572.9741 1119.4532 4910.5288 2753536
4666.5444 1135.1365 4979.3237 2490368
4691.8188 1134.1139 4974.8384 2097152
4760.7886 1143.6003 5016.4507 10381357
4756.9033 1135.577 4981.2563 11825467
0 0 0 0
0 0 0 0
0 0 0 0
0 0 0 0
0 0 0 0
-2519.3582 650.68048 2781.9292 1536
-2503.1248 650.74561 2782.2078 1536
-2492.1648 652.19171 2788.3904 1536
-2478.6243 652.97723 2791.749 1536
-2465.9133 653.99335 2796.093 1536
-2462.9221 657.61841 2811.5918 1536
-2456.5974 660.39679 2823.4705 1536
-2450.1597 663.18262 2835.3811 1536
-2440.7383 665.19385 2843.9797 1536
-2437.1399 668.83093 2859.53 1536
-3648.3215 1008.2285 4310.5952 1536
-3619.7354 1007.3811 4306.9727 1536
-2663.8271 746.61359 3192.083 1536
-3490.9871 985.44574 4213.1899 1536
-2523.9858 717.60968 3068.0793 1536
-2631.4651 753.59576 3221.9348 1536
-2584.0125 745.41425 3186.9556 1536
-2482.9924 721.54596 3084.9087 1536
-2471.5188 723.53833 3093.4268 1536
-2413.0564 711.70172 3042.8203 1536
-2553.0127 758.64862 3243.5378 1536
-2323.2476 695.60858 2974.0156 1536
-2270.6096 685.04431 2928.8489 1536
-2281.0078 693.48181 2964.9229 1536
-2332.6433 714.68488 3055.5745 1536
-2255.6213 696.49255 2977.7949 1536
-2428.3965 755.75403 3231.1624 1536
-2346.1448 735.95856 3146.5283 1536
-2333.2158 737.76581 3154.2551 1536
-2363.9314 753.5141 3221.5857 1536
-2384.9597 766.40582 3276.7031 1536
-2214.9133 717.60352 3068.053 1536
-2198.3804 718.1413 3070.3523 1536
-2166.5601 713.65265 3051.1614 1536
-2101.9583 698.1994 2985.0923 1536
-2110.8958 707.11853 3023.2253 1536
-2094.2 707.53003 3024.9846 1536
-2107.1875 718.06384 3070.021 1536
-2125.8335 730.72601 3124.1572 1536
-2098.5278 727.67676 3111.1204 1536
-2105.0513 736.40778 3148.4492 1536
-2079.8157 734.08539 3138.52 1536
-2057.6721 732.82239 3133.1199 1536
-2102.7058 755.67871 3230.8401 1536
-2023.5839 733.92554 3137.8364 1536
-2001.7571 732.74176 3132.7754 1536
-1990.4427 735.41998 3144.2258 1536
-1989.3323 741.95447 3172.1636 1536
-1981.8625 746.21924 3190.3972 1536
-2081.0476 791.1109 3382.3276 1536
-1955.2867 750.53094 3208.8315 1536
-1918.6575 743.70282 3179.6384 1536
-1936.9927 758.25574 3241.8582 1536
-2021.7379 799.35742 3417.585 1536
-2027.485 809.74036 3461.9766 1536
-2001.7358 807.62805 3452.9453 1536
-2032.182 828.37891 3541.6641 1536
-1977.4502 814.47949 3482.238 1536
-1964.2584 817.57703 3495.4812 1536
-1947.5245 819.25055 3502.6362 1536
-1987.7732 845.18866 3613.5325 1536
-1937.0579 832.59326 3559.6821 1536
-1977.1182 859.1676 3673.2981 1536
-1947.0889 855.53662 3657.7742 1536
-1889.0056 839.35852 3588.6062 1536
-1842.9802 828.23077 3541.0305 1536
-1847.9058 840.00763 3591.3813 1536
-1826.3972 839.90283 3590.9331 1536
-1807.5569 841.03687 3595.7817 1536
-1743.5096 820.91272 3509.7429 1536
-1757.5187 837.4986 3580.6541 1536
-1741.3826 839.9491 3591.1313 1536
-1709.2886 834.66797 3568.5522 1536
-1720.302 850.56818 3636.532 1536
-1686.2231 844.29388 3609.707 1536
-1708.3344 866.35425 3704.0244 1536
-1736.0095 891.84729 3813.0173 1024
-1728.0558 899.46753 3845.5972 1280
-1598.3531 843.07324 3604.4883 1280
-1602.9542 856.95111 3663.822 1280
-1590.5798 862.01031 3685.4521 1280
-1589.6466 873.49725 3734.5635 1280
-1618.7533 902.04803 3856.6301 1280
-1566.8762 885.6424 3786.4888 1280
-1566.4454 898.26135 3840.4402 1024
-1600.9607 931.5871 3982.9219 1024
-1576.3164 930.97058 3980.2859 1024
-1699.3292 1018.8661 4356.0757 768
-1679.9408 1022.7766 4372.7944 768
-1661.1912 1027.2046 4391.7261 512
-1644.3312 1032.9604 4416.335 512
-1654.6342 1056.2423 4515.8745 65536
-1653.1987 1072.6731 4586.1226 722945
-1625.8242 1072.5413 4585.5591 1247745
-1634.2418 1096.4178 4687.6416 1445380
-1612.9475 1100.8417 4706.5552 1576453
-1582.2 1098.856 4698.0654 1641989
-1565.4198 1106.6732 4731.4873 1510660
-1529.5948 1101.0663 4707.5156 1707269
-1459.4807 1070.1099 4575.1641 1707269
-1434.9012 1072.0002 4583.2461 1772549
-1414.1384 1076.8699 4604.0659 1640962
-1410.0955 1094.9138 4681.2109 1706755
-1355.5601 1073.6885 4590.4644 1838341
-1334.5194 1078.6672 4611.7505 1640962
-1312.4639 1083.0167 4630.3462 1706755
-1290.8627 1087.9349 4651.3735 1706500
-1266.7139 1090.8737 4663.938 1707011
-1245.1215 1096.1941 4686.6851 1903877
-1221.8517 1100.2469 4704.0122 1969413
-1182.595 1089.757 4659.1636 1903620
-1170.937 1104.8057 4723.5029 1969413
-1142.7588 1104.6223 4722.7192 1903620
-1118.9833 1108.7926 4740.5488 1969413
-1095.0297 1112.9965 4758.522 1903363
-1067.8013 1114.0061 4762.8384 1837827
-1040.2743 1114.7505 4766.0215 1903620
-1015.8997 1119.0089 4784.228 2100229
-985.50763 1116.6934 4774.3276 1968900
-963.59906 1124.1377 4806.1558 2034693
-941.84918 1132.2262 4840.7373 1837314
-899.82611 1115.6864 4770.0229 1837314
-894.34833 1144.8555 4894.7324 1771521
-862.42108 1140.9869 4878.1934 1903107
-833.93738 1141.5641 4880.6606 1968900
-809.22198 1147.5262 4906.1514 1968899
-776.883 1142.7191 4885.5991 1903107
-745.98267 1139.7382 4872.854 1903364
-712.284 1132.0695 4840.0669 2231813
-683.80713 1132.4047 4841.5005 2363142
-658.39655 1138.0697 4865.7202 2232069
-632.19171 1142.8176 4886.02 2166021
-609.39758 1154.4828 4935.8931 2166022
-581.49902 1157.1664 4947.3667 2165765
-550.18726 1152.9822 4929.4775 2100483
-522.62231 1156.621 4945.0352 1969154
-491.60413 1152.5958 4927.8257 2166020
-461.98306 1151.5444 4923.3311 2099970
-432.7131 1151.2858 4922.2251 2099970
-403.93564 1152.3948 4926.9663 2231556
-376.48434 1157.7546 4949.8818 2231813
-347.2692 1158.1378 4951.52 2166020
-317.04642 1154.921 4937.7671 2100226
-287.13123 1152.2847 4926.4956 1837056
-259.30771 1158.3956 4952.6226 2165250
-229.65057 1156.83 4945.9282 2165250
-199.84299 1153.9371 4933.5605 2296836
-170.62543 1154.0437 4934.0161 2362629
-142.2316 1160.918 4963.4062 2296579
-113.7788 1170.7692 5005.5244 2362629
-84.301056 1173.3022 5016.3545 2362629
-54.556046 1172.8486 5014.415 2428165
-24.660547 1164.2057 4977.4629 2625801
4.8007789 1156.4629 4944.3589 2560008
34.62986 1174.4983 5021.4678 2362629
64.017555 1167.8121 4992.8818 2296836
94.612511 1180.4149 5046.7637 2362115
122.70413 1163.2325 4973.3022 2493955
154.35161 1179.8865 5044.5049 2559492
183.91437 1177.7864 5035.5259 2822664
212.8737 1172.9476 5014.8379 2887943
243.981 1179.6798 5043.6211 2887944
272.34863 1173.1417 5015.668 2756358
304.99725 1184.5161 5064.2983 2821894
334.91809 1184.208 5062.981 2821892
368.81946 1196.8678 5117.1069 2887428
397.11765 1190.8024 5091.1748 2953478
427.9931 1192.7761 5099.6133 3019014
464.02158 1207.9034 5164.2886 3216136
497.12582 1214.0177 5190.4302 3216136
526.56329 1210.9868 5177.4717 3347720
554.29138 1204.5748 5150.0576 3413255
592.30029 1220.0083 5216.042 3478279
623.04309 1219.6864 5214.666 3741190
649.73523 1211.8402 5181.1201 4068609
685.7373 1221.2827 5221.4907 6567702
694.88062 1184.1401 5062.6909 9527350
731.37592 1194.7532 5108.0659 9855800
770.49506 1208.6385 5167.4316 9526578
800.01837 1206.9854 5160.3633 9855799
829.18097 1204.9297 5151.5747 9790007
862.25537 1208.5026 5166.8501 10052922
890.26483 1204.9751 5151.7686 9987386
919.99164 1203.9288 5147.2959 9855799
958.41333 1213.9629 5190.1958 9987129
984.38666 1208.0959 5165.1118 9855800
1014.2538 1207.2173 5161.3555 9855543
1044.1991 1206.4802 5158.2041 9987128
1073.7388 1205.33 5153.2861 9921591
1111.4564 1213.1696 5186.8037 10250301
1137.3833 1208.0638 5164.9746 9921593
1166.0273 1206.0361 5156.3052 10052407
1196.2765 1205.7297 5154.9951 9855028
1220.9834 1199.9916 5130.4624 10184249
1253.5728 1202.0909 5139.438 10315579
1278.6656 1197.0726 5117.9824 10118200
1315.6508 1203.1622 5144.0181 9921078
1337.8881 1195.7947 5112.519 9657906
1364.1647 1192.2837 5097.5078 10118457
1411.5842 1207.0035 5160.4414 10118459
1420.4376 1188.8217 5082.7061 10381631
1476.4052 1210.0077 5173.2852 9855286
1500.7734 1204.9612 5151.7095 10118458
1516.3458 1193.1943 5101.4014 10052407
1562.2245 1205.269 5153.0259 10118457
1594.8717 1206.8683 5159.8633 9789235
1622.3861 1204.5964 5150.1499 9131305
1646.1984 1199.7104 5129.2603 9065511
1674.9292 1198.5211 5124.1753 9526064
1695.0319 1191.3101 5093.3452 9460271
1737.1437 1199.5491 5128.5708 9460528
1746.2675 1185.1176 5066.8696 9460528
1797.0668 1198.9791 5126.1333 9723701
1824.3395 1196.944 5117.4326 9789493
1855.771 1197.6594 5120.4917 9657394
1874.6095 1190.3556 5089.2646 9262890
1871.7028 1169.6935 5000.9253 9328683
1940.2354 1193.6246 5103.2412 9789234
1964.6915 1190.1218 5088.2651 9723443
1976.9554 1179.451 5042.6431 10118459
2016.3712 1185.0555 5066.6045 10382144
2032.9296 1177.259 5033.2715 9987385
2084.585 1189.7186 5086.541 9987385
2117.6121 1191.3429 5093.4858 10052922
2147.4634 1191.1602 5092.7041 10052921
2199.27 1202.9918 5143.2896 9987129
2199.0227 1186.416 5072.4214 10118971
2236.9067 1190.5823 5090.2339 9724214
2293.2905 1204.3533 5149.1104 10118972
2304.9375 1194.5768 5107.312 10447937
2353.842 1204.113 5148.0835 9790006
2384.6311 1204.2567 5148.6978 9986873
2409.0815 1201.2362 5135.7837 9921849
2447.1882 1205.0156 5151.9419 10118458
2469.4802 1201.0103 5134.8179 10052665
2508.7842 1205.2755 5153.0537 9921080
2534.2285 1202.8597 5142.7251 10052666
2554.2444 1197.9556 5121.7573 10052665
2605.0369 1207.4312 5162.27 10315837
2627.0437 1203.4998 5145.4614 9921080
2680.6995 1213.9913 5190.3169 9855030
2708.2725 1212.5668 5184.2266 10052665
2738.8821 1212.5184 5184.02 10184251
2768.9651 1212.2407 5182.8325 9921080
2797.4707 1211.286 5178.751 9921079
2821.53 1208.4478 5166.6162 9921080
2869.9158 1215.9775 5198.8091 10052665
2907.8994 1218.9869 5211.6753 9855287
2933.4746 1216.7859 5202.2651 9920823
2975.0938 1221.2164 5221.2075 9789493
3019.0532 1226.5066 5243.8252 9855030
3060.834 1230.813 5262.2363 9789494
3064.3386 1219.796 5215.1348 9657651
3098.5503 1221.1005 5220.7114 9657651
3132.0007 1222.082 5224.9082 10118458
3141.3198 1213.7207 5189.1602 9986872
3143.063 1202.6227 5141.7114 9723700
3185.7439 1207.2515 5161.501 9723700
3189.7288 1197.2673 5118.8149 9986615
3165.5542 1177.0013 5032.1694 9921079
3184.3997 1172.9598 5014.8901 9789493
3196.2556 1166.4423 4987.0249 9658938
3181.6162 1150.4635 4918.709 9528123
2989.178 1071.0667 4579.2549 9200959
2961.9863 1051.7762 4496.7798 8873025
3038.4753 1069.3175 4571.7764 7888698
3010.0708 1049.9602 4489.0161 8482122
3136.259 1084.3942 4636.2354 8878423
2989.2087 1024.5754 4380.4854 10984055
3148.8042 1069.9871 4574.6392 11509112
3210.5674 1081.6632 4624.5591 11704944
3387.5962 1131.6466 4838.2593 11570527
3465.8784 1148.0814 4908.5244 12226915
3514.6057 1154.5338 4936.1113 12358242
3541.7385 1153.8446 4933.1646 11634006
3644.8987 1177.7323 5035.2949 12422753
3758.593 1204.6084 5150.2012 13014892
3803.6924 1209.2444 5170.022 7949347
3956.3381 1247.7234 5334.5356 8146723
4003.249 1252.5109 5355.0044 9067822
3978.405 1234.9495 5279.9219 9331250
3969.5217 1222.5779 5227.0278 9462068
4032.3154 1232.3026 5268.6055 8607273
4041.5063 1225.6226 5240.0454 8869932
4021.5366 1210.2684 5174.4004 9001521
4067.6853 1214.8943 5194.1777 10909774
4065.6494 1205.1675 5152.5918 8869934
3987.1804 1173.0979 5015.4805 8869164
4021.6633 1174.4893 5021.4292 8935213
4102.3091 1189.2426 5084.5059 9131566
4092.2117 1177.6664 5035.0127 9460787
4163.0718 1189.3873 5085.125 9657910
4275.4478 1212.7158 5184.8638 9723959
4329.6895 1219.3394 5213.1821 9723703
4398.2603 1229.876 5258.2305 9592374
4420.0913 1227.2864 5247.1592 9592374
4466.4395 1231.493 5265.144 10118718
4474.4478 1225.1434 5237.9971 11105613
4610.3022 1253.6455 5359.8555 11500370
4740.9639 1280.3553 5474.0508 11368784
4863.7559 1304.5914 5577.6699 10381888
4904.3325 1306.5966 5586.2427 9723699
4908.1216 1298.8398 5553.0796 9394736
4945.2432 1299.9484 5557.8193 8868136
4882.4614 1274.9546 5450.9604 9197616
4835.7183 1254.45 5363.2949 9066032
4743.6846 1222.5409 5226.8701 9000238
4730.4238 1211.2155 5178.4487 9328947
4378.4775 1113.875 4762.2783 9526583
4498.9243 1137.1874 4861.9482 9132336
4553.9409 1143.7698 4890.0908 7487770
4653.8184 1161.4647 4965.7441 5449224
4668.7642 1157.8741 4950.3931 3672577
4707.2163 1160.1217 4960.002 10183987
4815.7949 1179.5171 5042.9253 11431990
0 0 0 0
0 0 0 0
0 0 0 0
0 0 0 0
0 0 0 0
-2499.8936 662.01001 2760.436 1536
-2483.5676 662.01825 2760.4702 1536
-2465.2605 661.49487 2758.2881 1536
-2459.0125 664.22198 2769.6594 1536
-2452.4644 666.90411 2780.8435 1536
-2442.5491 668.70068 2788.3347 1536
-2438.9041 672.25006 2803.1348 1536
-2512.1633 697.19098 2907.1331 1536
-2571.3892 718.55487 2996.2158 1536
-2499.2585 703.25403 2932.4146 1536
-2480.8811 702.97028 2931.2312 1536
-2471.3479 705.20618 2940.5544 1536
-2630.1628 755.85345 3151.7427 1536
-2493.4736 721.69623 3009.3145 1536
-2514.4778 733.01758 3056.522 1536
-2590.8328 760.75604 3172.1851 1536
-2477.7288 732.86169 3055.8721 1536
-2409.2161 717.84308 2993.2476 1536
-2402.1912 721.05823 3006.6541 1536
-2286.6372 691.50122 2883.408 1536
-2294.2715 699.0329 2914.8135 1536
-2258.511 693.35681 2891.1455 1536
-2257.2231 698.25781 2911.5815 1536
-2260.0396 704.51385 2937.6677 1536
-3087.3049 969.8642 4044.1201 1536
-2210.7305 699.92456 2918.5315 1536
-2182.0078 696.27753 2903.324 1536
-2196.302 706.4082 2945.5669 1536
-2209.6978 716.40997 2987.272 1536
-2189.3364 715.54047 2983.6462 1536
-2123.2324 699.58496 2917.1155 1536
-2137.5017 710.0672 2960.824 1536
-2143.9268 718.09546 2994.3 1536
-2120.5708 716.19952 2986.3945 1536
-2124.8977 723.70001 3017.6697 1536
-2111.8145 725.3479 3024.541 1536
-2100.3379 727.58051 3033.8506 1536
-2103.364 734.91901 3064.4504 1536
-2080.1904 733.15131 3057.0796 1536
-2092.7205 744.04663 3102.5107 1536
-2090.8198 749.95892 3127.1636 1536
-2038.8577 737.8598 3076.7129 1536
-2036.1229 743.51843 3100.3081 1536
-1976.5137 728.32233 3036.9438 1536
-1961.3715 729.3833 3041.3677 1536
-1952.8202 732.93762 3056.1885 1536
-2022.7034 766.27228 3195.1868 1536
-2116.792 809.49329 3375.4089 1536
-2070.3835 799.29828 3332.8977 1536
-2063.3347 804.24847 3353.5391 1536
-2050.9873 807.20959 3365.8862 1536
-2011.657 799.50482 3333.7593 1536
-2101.4788 843.48602 3517.1509 1536
-2333.0229 945.80225 3943.7871 1536
-2100.7429 860.25311 3587.0662 1536
-2068.1436 855.56006 3567.4971 1536
-2052.9988 858.06519 3577.9431 1536
-2002.9675 845.88959 3527.1736 1536
-1963.8636 838.12067 3494.7788 1536
-1962.5667 846.49304 3529.6897 1536
-1916.3151 835.44708 3483.6304 1536
-2155.1055 949.78204 3960.3823 1536
-2137.4246 952.36017 3971.1323 1536
-1899.4487 855.74744 3568.2783 1536
-1867.259 850.71478 3547.2935 1536
-1842.0463 848.78247 3539.2361 1536
-1851.6256 863.02179 3598.6108 1536
-1867.2319 880.43488 3671.2195 1536
-2001.6428 954.93713 3981.8779 1536
-1969.4191 950.77106 3964.5061 1536
-1963.028 959.12616 3999.345 1536
-1915.4865 947.33386 3950.1736 1536
-1894.9762 948.78394 3956.22 1536
-1891.0243 958.66461 3997.4204 1280
-1745.0706 895.89423 3735.6819 1280
-1845.3756 959.56104 4001.1582 1280
-1740.104 916.59766 3822.0105 1280
-1860.6106 992.99799 4140.583 1280
-1837.7977 993.9292 4144.4658 1280
-1823.4307 999.51514 4167.7583 1280
-1596.0575 886.89191 3698.144 1280
-1579.6783 890.00977 3711.145 1280
-1582.5079 904.1908 3770.2769 1280
-1621.6511 939.82349 3918.8572 1280
-1636.7572 962.35834 4012.8228 768
-1574.3458 939.30829 3916.7087 768
-1710.215 1035.639 4318.3872 512
-1591.6389 978.474 4080.0212 256
-1678.48 1047.7753 4368.9922 262912
-1657.6324 1050.9709 4382.3174 1183235
-1663.759 1071.6428 4468.5146 1445380
-1658.676 1085.6461 4526.9053 1313282
-1641.585 1092.1211 4553.9048 1510918
-1630.2758 1102.7235 4598.1143 1445124
-1614.5331 1110.6362 4631.1089 1576710
-1537.2648 1075.7677 4485.7144 1510660
-1504.0071 1071.0122 4465.8853 1707269
-1488.1766 1078.7188 4498.0195 1773062
-1463.8406 1080.4285 4505.1489 1707269
-1431.5684 1076.2355 4487.665 1641476
-1396.5593 1069.7872 4460.7773 1706756
-1382.0065 1079.0624 4499.4526 1706243
-1355.7717 1079.4017 4500.8677 1838340
-1329.573 1079.7841 4502.4619 1838084
-1306.6605 1082.9055 4515.4775 1706497
-1288.6775 1090.3282 4546.4287 1640705
-1258.5341 1087.5594 4534.8833 1706497
-1227.0165 1083.4564 4517.7749 1838083
-1210.8682 1093.0444 4557.7544 1706498
-1188.9877 1097.777 4577.4888 1837827
-1162.6083 1098.4801 4580.4204 1837827
-1141.0164 1103.8483 4602.8042 1969156
-1117.2803 1107.3542 4617.4233 1969413
-1089.6282 1107.0576 4616.1865 1969413
-1063.3369 1108.1638 4620.7993 2100743
-1035.8752 1108.0765 4620.4351 2100742
-1008.8165 1108.4272 4621.8975 2166279
-982.64526 1109.7998 4627.6211 2034693
-964.25153 1120.2874 4671.3516 1903107
-935.05115 1118.4683 4663.7666 1771522
-908.48718 1119.7881 4669.27 2034693
-885.48541 1125.7194 4694.002 2100486
-858.00201 1126.1531 4695.8105 2100229
-836.33569 1134.507 4730.644 2166279
-811.15338 1138.5051 4747.3159 2100486
-782.74219 1138.0959 4745.6099 2166276
-750.62225 1132.0627 4720.4526 2100740
-727.93451 1140.3386 4754.9609 2166533
-701.54089 1143.2416 4767.0659 2100227
-671.57361 1140.3202 4754.8843 2100227
-642.38928 1138.5306 4747.4224 2099971
-615.32343 1140.5038 4755.6499 2100227
-589.44775 1144.9783 4774.3071 1968901
-561.7038 1146.0916 4778.9497 2034947
-532.90405 1145.0548 4774.6265 2034947
-504.70154 1145.2568 4775.4692 1968897
-479.11368 1151.7687 4802.6216 2165763
-451.7121 1154.4672 4813.874 2034434
-422.4079 1152.3391 4805.0005 2166020
-393.90802 1152.2562 4804.6553 2165763
-368.73639 1162.6547 4848.0142 2166020
-337.44897 1153.8976 4811.499 2165763
-308.74985 1153.1914 4808.5542 2100227
-280.67026 1154.8909 4815.6406 2034434
-253.65376 1161.8445 4844.6357 2362372
-224.16418 1157.7994 4827.769 2362372
-196.57175 1163.8031 4852.8027 2428422
-167.9048 1164.4124 4855.3433 2362629
-138.64267 1160.2925 4838.1646 2428165
-110.60731 1166.9679 4865.9995 2362372
-81.72583 1166.2761 4863.1147 2560008
-52.840919 1164.7551 4856.7725 2560008
-24.134426 1168.2323 4871.2715 2560008
4.7200742 1165.8267 4861.2407 2625801
33.742168 1173.3829 4892.7485 2757130
62.500801 1169.0273 4874.5869 2560007
92.007454 1176.9941 4907.8062 2493955
120.17597 1168.1273 4870.834 2493956
149.40706 1171.0228 4882.9077 2493699
177.17436 1163.3673 4850.9858 2427906
208.24583 1176.5166 4905.8154 2822151
238.33484 1181.5737 4926.9023 2756358
265.78436 1173.8695 4894.7778 2756358
297.10355 1183.0908 4933.228 2953479
326.80786 1184.8054 4940.3779 2887685
353.03418 1174.6656 4898.0972 3150856
384.55759 1182.3528 4930.1509 3150856
417.07083 1191.7828 4969.4722 2953478
445.51929 1189.12 4958.3687 3085064
476.07263 1192.0573 4970.6162 3348236
502.41687 1184.7268 4940.0503 3085063
534.65094 1191.3274 4967.5732 3216136
568.62628 1200.9169 5007.5591 3215877
594.47064 1193.2344 4975.5244 3281413
644.99512 1233.4755 5143.3213 3478532
657.56146 1200.7703 5006.9478 4201222
705.19434 1232.1594 5137.8335 6896667
718.86713 1204.0688 5020.7021 9264438
743.49188 1195.8259 4986.3311 9395763
778.27179 1203.9224 5020.0913 9657908
804.84131 1199.1895 5000.356 9526065
834.66278 1199.4659 5001.5088 9789493
867.55713 1203.9878 5020.3643 9921080
899.15552 1206.4711 5030.7188 9921336
926.1615 1202.8306 5015.5391 9724213
953.24323 1199.512 5001.7012 9724214
981.73303 1198.1118 4995.8628 9855543
1016.4904 1204.2188 5021.3271 9921079
1044.9363 1202.7139 5015.0522 10118459
1072.1819 1199.9489 5003.5225 9855286
1107.562 1206.1915 5029.5532 10118201
1133.3296 1201.9128 5011.7119 9855285
1164.6759 1203.6179 5018.8218 10183993
1191.8083 1200.9917 5007.8711 10052407
1222.3314 1201.8269 5011.3535 10315835
1238.7784 1189.1107 4958.3301 10118200
1273.892 1194.4868 4980.7471 10052663
1307.0402 1197.8182 4994.6387 9986870
1330.7755 1192.567 4972.7422 9986871
1365.311 1197.0121 4991.2769 10118203
1396.8464 1198.6941 4998.2905 10250043
1421.6622 1194.6597 4981.4678 10118458
1450.6302 1194.2075 4979.5825 10118458
1482.9027 1196.4396 4988.8896 10118456
1515.4381 1198.7924 4998.7002 10052408
1544.4128 1198.2922 4996.6147 10052664
1570.0426 1195.2643 4983.9893 9986615
1604.0223 1198.5878 4997.8472 9789492
1625.8645 1192.8855 4974.0698 9986616
1668.5344 1202.3953 5013.7236 9789494
1690.2101 1196.708 4990.0088 9855287
1716.2489 1194.2523 4979.7695 9855030
1744.8315 1193.6199 4977.1323 9986616
1782.2021 1198.9203 4999.2339 10052408
1796.4349 1188.7366 4956.77 9328684
1811.7346 1179.5752 4918.5693 8736548
1836.0613 1176.4882 4905.6968 8473376
1874.0203 1182.0963 4929.0815 8736548
1882.9178 1169.4822 4876.4834 9657650
1927.1752 1178.8795 4915.668 9921079
1934.454 1165.7134 4860.7686 9921080
1981.012 1176.2562 4904.73 9986616
2037.9957 1192.5953 4972.8599 9986873
2052.7397 1184.103 4937.4487 9986616
2085.29 1185.9763 4945.2603 9986872
2139.2114 1199.7838 5002.8345 10118715
2172.9006 1202.0217 5012.166 10118971
2192.0154 1196.2455 4988.0806 10052922
2229.6335 1200.5865 5006.1816 10250301
2265.2495 1203.7496 5019.3711 9987386
2292.5171 1202.4518 5013.9595 10184508
2324.269 1203.5093 5018.3691 10250045
2356.7092 1204.892 5024.1343 10118202
2387.7136 1205.5151 5026.7329 10052409
2418.7151 1206.1215 5029.2612 9986873
2444.6284 1204.2068 5021.2773 10381374
2475.4314 1204.7178 5023.4077 10118202
2500.0278 1202.2319 5013.0425 10249788
2533.188 1203.8743 5019.8906 10052409
2594.3665 1218.6394 5081.458 10052665
2588.9536 1202.145 5012.6802 9986872
2614.6357 1200.2996 5004.9849 9657908
2619.6951 1189.1344 4958.4287 10052409
2676.6143 1201.4961 5009.9741 9657907
2729.5527 1211.8192 5053.0195 9920823
2725.4741 1196.8796 4990.7246 9263149
2765.6553 1201.4885 5009.9429 9855286
2774.8977 1192.7015 4973.3027 10118202
2827.1899 1202.4084 5013.7783 10118202
2850.7478 1199.8197 5002.9839 9986616
2908.042 1211.3369 5051.0088 9855286
2897.4556 1194.6322 4981.353 10381374
2981.4478 1216.8662 5074.0645 9986616
3011.2942 1216.7776 5073.6948 10052409
3027.3152 1211.1594 5050.2681 9986873
3029.4827 1200.163 5004.4155 10052666
3054.7451 1198.4404 4997.2329 9987128
3083.9255 1198.2733 4996.5361 9855286
3091.4717 1189.7831 4961.1338 10513214
3052.0881 1163.5618 4851.7964 10052664
2959.2065 1117.6248 4660.249 9658933
3012.2817 1127.152 4699.9756 9659964
2769.5608 1026.8359 4281.6802 8676159
2835.9604 1041.9098 4344.5342 7363643
2702.687 984.01385 4103.1211 6246706
2731.6636 985.69678 4110.1387 6116407
2764.0659 988.5752 4122.1411 7102791
2841.2437 1007.2769 4200.123 7366732
2943.3062 1034.3995 4313.2183 7103560
2910.5645 1014.0871 4228.52 8090455
2986.4592 1031.649 4301.7495 8878940
2945.658 1008.9431 4207.0708 10061671
3341.5022 1134.9226 4732.3774 11308130
3517.7927 1184.8557 4940.5874 11699289
3519.6072 1175.6827 4902.3384 11107150
3581.0957 1186.4303 4947.1533 12159579
3665.1543 1204.4202 5022.167 12817764
3662.0718 1193.7152 4977.5298 12883556
3892.3889 1258.6539 5248.3101 10580288
3931.4446 1261.2067 5258.9541 9593395
3846.0427 1224.1072 5104.2578 9527859
3905.5662 1233.3533 5142.8115 9264687
3920.3796 1228.4463 5122.3506 9461811
3856.5803 1199.1707 5000.2778 9527861
3910.7114 1206.7314 5031.8047 9725239
3947.1926 1208.7727 5040.3164 9593141
3993.5474 1213.7843 5061.2134 9527092
3934.0952 1186.8024 4948.7046 9658421
3978.2949 1191.257 4967.2793 9527092
3996.8157 1188.0134 4953.7544 9658165
4025.2886 1187.7537 4952.6714 9723703
4040.4365 1183.5945 4935.3281 9723703
4097.2471 1191.6117 4968.7583 9723703
4149.4971 1198.1976 4996.2207 9657910
4203.1152 1205.0826 5024.9292 9658166
4151.4517 1181.8975 4928.2524 9789239
4258.6704 1203.9536 5020.2212 9789495
4312.0239 1210.5809 5047.856 9394738
4482.6064 1249.8018 5211.3984 9197358
4531.2046 1254.7081 5231.8569 10052667
4823.4683 1326.5613 5531.4688 10711109
4994.0088 1364.1938 5688.3882 12619361
4993.2358 1354.8385 5649.3784 12751201
5063.9155 1364.8662 5691.1919 13276774
4986.8828 1335.2122 5567.5405 12158294
4657.4707 1238.8185 5165.6006 10250041
4560.2554 1205.0413 5024.7568 9592112
4609.2559 1210.089 5045.8047 9460784
4487.707 1170.5851 4881.082 9592373
4511.4634 1169.2462 4875.4995 9197358
4519.5049 1163.8774 4853.1128 9197100
4549.1309 1164.0999 4854.04 9723441
4672.0894 1188.0527 4953.9185 9723443
4668.4922 1179.726 4919.1978 9657648
4718.9072 1185.0668 4941.4678 9986354
0 0 0 0
0 0 0 0
0 0 0 0
0 0 0 0
0 0 0 0
-2471.2319 670.58911 2728.7871 1280
-2466.5352 673.72278 2741.5388 1280
-2458.8469 676.07538 2751.1121 1280
-2456.5383 679.94849 2766.8728 1280
-2447.8376 682.09253 2775.5972 1536
-2440.2727 684.58411 2785.7361 1536
-2471.1453 697.96613 2840.1909 1536
-2486.6858 707.17163 2877.6501 1536
-2437.0728 697.84766 2839.7087 1536
-2507.6833 723.05902 2942.2998 1536
-3463.9387 1005.7757 4092.7415 1536
-2395.0464 700.31927 2849.7664 1536
-2375.1653 699.43726 2846.1772 1536
-2332.1887 691.69287 2814.6633 1536
-3292.4749 983.53314 4002.2312 1536
-3295.825 991.6767 4035.3691 1536
-3265.1204 989.61761 4026.9905 1536
-3238.3445 988.72791 4023.3696 1536
-3206.5625 986.28503 4013.4294 1536
-3180.7271 985.6485 4010.8391 1536
-3153.6628 984.61871 4006.6484 1536
-3127.998 984.01337 4004.1855 1536
-3102.9634 983.59882 4002.4983 1536
-2229.0051 712.00745 2897.3284 1536
-2197.4067 707.36218 2878.4255 1536
-2174.1943 705.36481 2870.2979 1536
-2167.6799 708.7959 2884.2598 1536
-2245.1821 739.97186 3011.1223 1536
-2325.5247 772.59113 3143.8577 1536
-2191.4009 733.91119 2986.4597 1536
-2157.0242 728.27917 2963.5417 1536
-2190.0691 745.50525 3033.6389 1536
-2152.9829 738.94617 3006.9485 1536
-2180.7373 754.71777 3071.127 1536
-2221.5437 775.31006 3154.9216 1536
-2212.3079 778.63885 3168.4675 1536
-2209.8071 784.41559 3191.9744 1536
-2201.0371 788.04742 3206.7529 1536
-2170.3772 783.83685 3189.6194 1536
-2208.8542 804.74066 3274.6819 1536
-2177.9138 800.50037 3257.4272 1536
-2179.1519 808.11719 3288.4219 1536
-2095.4189 784.07666 3190.595 1536
-2108.2493 796.05994 3239.3579 1536
-2086.5303 795.0979 3235.4431 1536
-2159.113 830.38617 3379.0396 1536
-2104.5713 816.98578 3324.51 1536
-2083.9285 816.61597 3323.0054 1536
-2005.806 793.50006 3228.9412 1536
-2057.0984 821.62866 3343.4031 1536
-2064.3989 832.56262 3387.8962 1536
-2045.024 832.84772 3389.0559 1536
-2058.7483 846.75183 3445.6353 1536
-2308.5632 959.00989 3902.4399 1536
-2260.3486 948.48114 3859.5964 1536
-2029.3649 860.26038 3500.6047 1536
-2249.7747 963.54193 3920.8821 1536
-2220.5659 960.95581 3910.3586 1536
-2195.7981 960.25726 3907.5161 1536
-1962.0162 867.16455 3528.6997 1536
-1902.8965 850.09442 3459.2371 1536
-1870.985 844.93976 3438.2615 1536
-1770.355 808.29663 3289.1519 1536
-1878.7269 867.32452 3529.3506 1536
-1873.4252 874.61261 3559.0073 1536
-1781.7384 841.2785 3423.363 1536
-1809.4441 864.19897 3516.6318 1536
-1803.0916 871.19763 3545.1111 1536
-1763.0574 861.89539 3507.2583 1280
-1725.7363 853.71362 3473.9646 1280
-1756.0294 879.18646 3577.6196 1280
-1743.0704 883.3623 3594.6121 1280
-1710.1744 877.41266 3570.4016 1280
-1672.9313 869.05566 3536.395 1280
-1687.4359 887.70978 3612.303 1280
-1656.9341 882.86237 3592.5776 1024
-1642.6555 886.64551 3607.9724 1024
-1634.6185 893.94183 3637.6626 1024
-1641.4965 909.69873 3701.7815 1024
-1611.752 905.31213 3683.9309 768
-1570.8369 894.44415 3639.707 512
-1579.403 911.84088 3710.4983 512
-1583.0736 926.86243 3771.6245 512
-1726.8483 1025.5175 4173.0752 256
-1717.1792 1034.5897 4209.9927 263168
-1760.61 1076.3937 4380.1025 722945
-1731.5875 1074.4895 4372.354 1380356
-1699.845 1070.814 4357.3975 1444867
-1700.6017 1087.8137 4426.5737 1313281
-1681.1016 1092.1855 4444.3638 1247488
-1672.1018 1103.6268 4490.9214 1247488
-1651.8959 1107.9224 4508.4009 1510147
-1628.37 1110.0958 4517.2451 1378305
-1563.7968 1083.8915 4410.6133 1641476
-1533.6932 1081.0939 4399.229 1575683
-1503.0691 1077.8262 4385.9321 1575683
-1482.3181 1081.6479 4401.4834 1903878
-1450.701 1077.5355 4384.7495 1509377
-1429.4729 1081.1305 4399.3784 1706756
-1398.0844 1077.0319 4382.6997 1772549
-1377.7117 1081.4248 4400.5757 1772293
-1350.6328 1080.6218 4397.3081 1772804
-1326.912 1082.5267 4405.0596 1706242
-1299.5325 1081.4633 4400.7324 1706241
-1276.3186 1083.8942 4410.624 1903620
-1255.9436 1088.8876 4430.9438 1903620
-1232.5308 1091.4045 4441.1855 1772034
-1205.1897 1090.4768 4437.4106 1837827
-1179.4725 1091.0099 4439.5796 1837827
-1157.5454 1095.1531 4456.4395 1837827
-1128.514 1092.6113 4446.0967 1772034
-1100.2968 1090.7552 4438.5435 1837827
-1074.2706 1091.0337 4439.6763 1903620
-1054.6556 1098.0005 4468.0259 1837827
-1033.0625 1103.2136 4489.2397 1706242
-1006.282 1103.0165 4488.4375 1443072
-993.08441 1118.1013 4549.8213 1377024
-959.45361 1110.3806 4518.4038 1771521
-944.64911 1124.6299 4576.3872 1903107
-905.55054 1109.9437 4516.626 2034693
-898.62592 1135.0002 4618.5869 1968900
-872.77209 1136.9716 4626.6084 2100486
-841.22247 1131.4099 4603.9771 2166279
-811.63947 1128.2092 4590.9526 2231815
-783.06238 1126.2332 4582.9116 2100486
-754.97729 1124.8484 4577.2764 2166533
-732.867 1132.5939 4608.7949 2166277
-707.13245 1135.1212 4619.0791 2231813
-679.61383 1134.8729 4618.0688 2166020
-647.78851 1127.1104 4586.481 2231813
-622.29852 1130.1738 4598.9468 2166020
-595.17041 1130.4062 4599.8931 2100227
-573.12097 1140.77 4642.0659 2034436
-547.45056 1144.6083 4657.6841 2100227
-518.44104 1141.5018 4645.0435 2100227
-490.82651 1141.2908 4644.1846 2166533
-465.1525 1145.8347 4662.6748 2231556
-433.86636 1136.255 4623.6929 2297606
-409.66852 1145.1986 4660.0869 2166020
-380.84763 1141.5776 4645.3521 2297349
-354.41626 1145.113 4659.7383 2297606
-326.36075 1143.5549 4653.3979 2363399
-299.02637 1144.4692 4657.1182 2166020
-272.35193 1148.3518 4672.9175 2231813
-245.2327 1151.0258 4683.7983 2296836
-216.367 1145.1388 4659.8433 2362629
-190.28094 1154.3929 4697.5005 2230786
-162.80836 1156.9655 4707.9683 2428422
-134.96254 1157.4009 4709.7402 2428422
-107.54411 1162.6838 4731.2383 2428422
-79.479546 1162.2441 4729.4492 2428165
-51.616219 1165.8708 4744.2065 2428422
-23.662601 1173.6934 4776.0386 2560008
4.6375766 1173.7517 4776.2759 2494215
33.069332 1178.3986 4795.1851 2493958
61.551991 1179.7261 4800.5869 2494213
89.766357 1176.6974 4788.2627 2625542
117.89312 1174.251 4778.3076 2691078
146.01006 1172.6732 4771.8872 2625542
172.53073 1160.8669 4723.8447 2691334
202.39635 1171.7214 4768.0142 2756358
231.02441 1173.6299 4775.7803 2822151
257.54095 1165.5656 4742.9644 2624772
288.55762 1177.4507 4791.3281 2690565
313.64908 1165.1947 4741.4556 2690306
345.33548 1177.4397 4791.2832 3019271
375.4075 1182.7382 4812.8438 3019270
403.25381 1180.7711 4804.8398 2821892
429.32446 1174.2073 4778.1299 2953478
463.55283 1189.3867 4839.8984 3282443
490.29114 1184.6991 4820.8232 3084550
516.35522 1178.988 4797.5835 3215879
548.58423 1187.2147 4831.0601 3215620
580.58411 1194.1542 4859.2988 3412999
619.58441 1214.1561 4940.6914 3478534
652.4057 1220.7909 4967.6899 3740933
673.13934 1205.2108 4904.2905 4463623
706.60913 1212.7797 4935.0898 6107157
728.39557 1200.4912 4885.0854 8212009
750.27765 1189.2938 4839.5205 9132592
771.42297 1177.796 4792.7329 9329201
804.99707 1185.417 4823.7446 9855799
850.24799 1209.1206 4920.2002 9724213
878.75781 1208.2346 4916.5947 9921592
908.64679 1209.241 4920.6899 9855799
930.12781 1199.3431 4880.4136 10052922
960.18024 1200.7612 4886.1841 10118201
983.95679 1194.4778 4860.6152 9921079
1018.6998 1201.486 4889.1328 9789493
1049.0605 1203.0807 4895.6226 9789493
1070.527 1194.6641 4861.3735 10118200
1092.6351 1187.3859 4831.7563 10118200
1132.3586 1199.1334 4879.5601 9921078
1159.2053 1196.9994 4870.876 9789491
1185.8182 1194.7334 4861.6558 9855287
1209.2251 1189.4215 4840.04 9986616
1237.2944 1188.8356 4837.6558 9986872
1274.0247 1196.4094 4868.4756 10052665
1288.9803 1183.6526 4816.5649 9986872
1327.8662 1192.9471 4854.3867 10315837
1350.3016 1187.382 4831.7407 10052664
1383.1636 1191.0261 4846.5693 10052663
1415.3535 1193.955 4858.4878 10052663
1445.9967 1195.4884 4864.7275 9986871
1470.5428 1192.0197 4850.6123 9986614
1490.4347 1184.9833 4821.98 9855284
1533.2617 1196.1036 4867.231 9723442
1556.1464 1191.5433 4848.6743 9855285
1570.0405 1180.3892 4803.2852 9723699
1603.9532 1184.4147 4819.666 9723699
1639.1918 1189.2611 4839.3877 9789235
1661.1324 1184.4591 4819.8467 9920564
1697.9664 1190.2594 4843.4497 9920821
1714.0925 1181.5922 4808.1807 9920821
1737.7877 1178.3406 4794.9492 10052664
1762.95 1176.1724 4786.1265 10118458
1788.2742 1174.1793 4778.0161 10052410
1817.3418 1174.668 4780.0044 9789237
1843.598 1173.3524 4774.6509 9855287
1872.4843 1173.725 4776.1675 9789237
1896.8097 1171.2704 4766.1787 9855030
1922.9526 1169.9934 4760.9824 9723444
1983.3774 1189.3103 4839.5874 9920823
2023.8617 1196.2897 4867.9883 9855030
2041.0022 1189.4686 4840.2319 9591858
2073.9307 1191.9102 4850.167 9657907
2082.7849 1180.6382 4804.2988 9657651
2137.0266 1195.0515 4862.9497 9921593
2162.5852 1193.2548 4855.6387 9921592
2188.2671 1191.5723 4848.792 10053178
2213.2068 1189.5345 4840.5 10118715
2258.0339 1198.1011 4875.3594 10118715
2290.7881 1200.1263 4883.6006 10776388
2306.4258 1193.2458 4855.6021 9855286
2341.6584 1196.5472 4869.0366 9789493
2363.7988 1193.1599 4855.2529 9986616
2415.7473 1204.7194 4902.2905 10052666
2436.6765 1200.7186 4886.0107 9921079
2462.665 1199.2758 4880.1392 9789237
2497.7607 1202.2498 4892.2412 9855030
2516.467 1197.3574 4872.333 9789493
2544.3616 1196.8982 4870.4648 9986872
2557.5544 1189.6112 4840.812 10118202
2602.9385 1197.293 4872.0708 10118202
2632.4446 1197.5828 4873.2505 9986873
2641.9597 1188.8705 4837.7979 10118202
2696.7046 1200.48 4885.0396 9789493
2745.4414 1209.1967 4920.5098 9657907
2744.8289 1196.2233 4867.7183 9789493
2776.2192 1197.3218 4872.1885 9789237
2826.9192 1206.6398 4910.1055 9986616
2855.283 1206.3312 4908.8496 10052409
2907.2114 1215.8843 4947.7231 10052665
2933.0813 1214.4568 4941.9146 10052921
2965.9678 1215.9342 4947.9263 9986872
2991.2043 1214.2772 4941.1836 9986616
3010.3145 1210.1893 4924.5493 9987129
3006.8057 1197.1742 4871.5874 9592116
2993.5354 1180.5569 4803.9678 9723702
3033.0396 1184.8693 4821.5156 9461297
2979.7214 1153.1781 4692.5566 9197870
0 0 0 0
2677.6462 1017.2866 4139.582 4533267
2720.3318 1024.1222 4167.3975 5719337
2709.8821 1011.0108 4114.0444 5522732
2689.1689 994.33832 4046.2 4076056
2714.4319 994.81018 4048.1201 4207898
2747.2192 998.00726 4061.1296 7366990
2788.5593 1004.2289 4086.447 7630162
2806.4861 1001.9842 4077.313 7761749
2889.3982 1022.7812 4161.9409 7893334
2906.6292 1020.1734 4151.3291 8286288
2927.7158 1018.9511 4146.3555 9337686
3235.9099 1116.8417 4544.6953 10254160
3499.4656 1197.8368 4874.2837 10842953
3544.0737 1203.1755 4896.0088 10908999
3546.7996 1194.3246 4859.9917 12026453
3607.0459 1204.8292 4902.7378 12750434
3738.0129 1238.5995 5040.1567 10316606
3688.7947 1212.6028 4934.3701 9856568
3704.2329 1208.1021 4916.0557 10053946
3734.2622 1208.3932 4917.2402 9593654
3769.8442 1210.4626 4925.6616 9659446
3806.4062 1212.8127 4935.2246 9658934
3798.1936 1200.9694 4887.0312 9593141
3847.7573 1207.4357 4913.3438 9461812
3859.8276 1202.1276 4891.7441 9461300
3878.1765 1198.8396 4878.3643 9131823
3916.1667 1201.6268 4889.7065 9460787
3933.4619 1198.0698 4875.2319 9592117
3912.0198 1182.8519 4813.3066 9329202
3938.6003 1182.2695 4810.937 9657910
3973.2673 1184.1053 4818.4072 9789496
3982.0935 1178.2689 4794.6577 9921338
4033.78 1185.1073 4822.4849 10052411
3928.8313 1146.1545 4663.9766 10975053
4141.2222 1199.6765 4881.77 10646087
4128.8442 1187.7941 4833.4175 11567187
4107.501 1173.5138 4775.3076 11961433
4320.8066 1226.0095 4988.9253 10448194
4348.1177 1225.3755 4986.3452 9724215
4652.5381 1302.3169 5299.4385 9855799
4804.0752 1335.7194 5435.3608 9723701
4920.6108 1359.0099 5530.1357 9263152
4975.9136 1365.1925 5555.2944 10184254
4647.5615 1266.7258 5154.6099 10908234
4469.7568 1210.3101 4925.0405 10579269
4322.728 1162.9053 4732.1392 9592374
4397.6089 1175.4253 4783.0864 9592373
4457.999 1183.9368 4817.7212 9328945
4406.9819 1162.9408 4732.2837 9592117
4472.1226 1172.6691 4771.8706 9789239
4511.6182 1175.5928 4783.7676 9592114
4537.4976 1174.9542 4781.1689 9526321
4584.8286 1179.8438 4801.0659 9657646
0 0 0 0
0 0 0 0
0 0 0 0
0 0 0 0
0 0 0 0
0 0 0 0
-3617.8921 1012.0382 4021.2649 1536
-2459.1042 692.44934 2751.4001 1536
-2425.4421 687.52863 2731.8481 1536
-2408.2549 687.24329 2730.7144 1536
-3507.5703 1007.7255 4004.1284 1536
-3482.3159 1007.2834 4002.3718 1536
-3437.1243 1001.0287 3977.5195 1536
-3428.7021 1005.4704 3995.168 1536
-3398.5029 1003.5432 3987.5107 1536
-3405.3113 1012.5936 4023.4714 1536
-2356.2356 705.58325 2803.5869 1536
-3314.8545 999.69336 3972.2134 1536
-2287.271 694.72784 2760.4536 1536
-3261.2644 997.69989 3964.2925 1536
-2325.4844 716.5835 2847.2957 1536
-3208.5193 995.91046 3957.1824 1536
-3183.5427 995.4325 3955.2832 1536
-3158.5261 994.93481 3953.3057 1536
-2272.2612 721.10968 2865.28 1536
-2238.2646 715.66809 2843.6584 1536
-2280.8376 734.81213 2919.7261 1536
-2260.9487 733.97192 2916.3875 1536
-2264.7439 740.86646 2943.7825 1536
-2226.7266 734.08374 2916.8318 1536
-2194.6003 729.15234 2897.2371 1536
-2218.4788 742.89716 2951.8513 1536
-2280.3464 769.68304 3058.2832 1536
-2235.1367 760.46667 3021.6626 1536
-2283.5374 783.20813 3112.0239 1536
-2281.5483 788.89642 3134.626 1536
-2238.3328 780.30615 3100.4932 1536
-2231.906 784.50464 3117.1758 1536
-2209.8987 783.25104 3112.1948 1536
-2186.3989 781.44305 3105.0107 1536
-2149.0461 774.61108 3077.8643 1536
-2133.4512 775.57172 3081.6814 1536
-2121.9749 778.05908 3091.5649 1536
-2113.2839 781.62012 3105.7141 1536
-2148.9597 801.7973 3185.8867 1536
-2120.3625 798.13861 3171.3496 1536
-2155.9231 818.7807 3253.3691 1536
-2033.0256 779.07257 3095.5918 1536
-1975.8352 764.05023 3035.9014 1536
-2001.7122 781.16895 3103.9214 1536
-2074.209 816.96722 3246.1638 1536
-1992.7224 792.21869 3147.8269 1536
-1980.5608 794.82349 3158.1768 1280
-1988.0146 805.42487 3200.3005 1280
-1996.7113 816.73877 3245.2559 1536
-1946.0459 803.75519 3193.6663 1536
-1879.9783 784.09265 3115.5386 1536
-2020.2277 850.94324 3381.1648 1536
-2043.8118 869.5 3454.8989 1536
-2236.2761 961.00604 3818.4919 1536
-1897.6718 823.83124 3273.4373 1536
-1963.561 861.2384 3422.0723 1536
-2204.2798 976.90845 3881.6792 1536
-1951.3962 873.95294 3472.5925 1536
-1942.6512 879.30829 3493.8716 1536
-1706.3253 780.65869 3101.8943 1536
-1787.3589 826.6366 3284.584 1536
-1656.8441 774.71051 3078.2595 1280
-1706.5164 806.81842 3205.8381 1280
-1755.7379 839.43384 3335.4333 1280
-1733.0864 838.03754 3329.8848 1280
-1762.0699 861.86475 3424.5608 1280
-1758.2279 870.00439 3456.9033 1280
-1749.3997 875.8396 3480.0891 1280
-1716.7566 869.74896 3455.8882 1280
-1693.4568 868.30188 3450.1384 1280
-1689.1572 876.68054 3483.4307 1280
-1999.2952 1050.48 4174.0107 1280
-1663.7576 885.12982 3517.0032 1280
-1627.6984 876.93018 3484.4224 1280
-1641.8368 895.91162 3559.8438 1024
-1858.6918 1027.4443 4082.48 768
-1646.0243 921.88446 3663.0452 768
-1827.1624 1037.0083 4120.4819 512
-1852.2347 1065.4756 4233.5947 256
-1792.8408 1045.4694 4154.1011 66048
-1768.2421 1045.4786 4154.1382 1117445
-1748.0836 1048.1509 4164.7559 1511173
-1738.5862 1057.3833 4201.4404 1379331
-1762.1526 1087.2852 4320.2534 1575939
-1694.5798 1061.0049 4215.8306 1641732
-1730.3706 1099.624 4369.2812 1707012
-1710.23 1103.333 4384.0186 1575426
-1678.179 1099.3541 4368.2085 1444610
-1657.9716 1103.1306 4383.2144 1378561
-1625.7388 1098.8989 4366.3999 1510147
-1574.9532 1081.787 4298.4067 1707525
-1556.6154 1086.7662 4318.1914 1575683
-1515.3021 1075.6034 4273.8364 1509890
-1492.847 1077.6746 4282.0664 1444097
-1466.7141 1077.1165 4279.8486 1378304
-1485.7932 1110.3253 4411.8022 1575170
-1431.8712 1089.1935 4327.8359 1509121
-1401.0481 1085.1823 4311.8975 1509377
-1377.4705 1086.738 4318.0796 1509377
-1340.689 1077.7386 4282.3208 1903621
-1329.705 1089.5298 4329.1724 1772034
-1301.5145 1087.4091 4320.7456 1771777
-1276.0427 1087.52 4321.187 1772034
-1247.2506 1084.748 4310.1724 1772034
-1225.5654 1088.1703 4323.7705 1837827
-1200.8193 1088.9629 4326.9199 1903620
-1177.4425 1091.0587 4335.2476 1837827
-1155.2419 1094.3625 4348.375 1903620
-1130.5188 1095.3728 4352.3892 1837827
-1110.66 1101.2535 4375.7559 1772034
-1086.7281 1103.2802 4383.8086 1640448
-1054.7349 1097.0215 4358.9399 1443072
-1031.4247 1099.7064 4369.6084 1311488
-1011.5501 1106.2871 4395.7563 1377280
-985.53204 1106.3191 4395.8838 1640448
-966.57428 1114.4937 4428.3647 1771777
-943.43372 1118.167 4442.9604 1837314
-914.76801 1115.3147 4431.627 1837314
-891.54962 1119.1317 4446.7935 1968900
-870.53442 1126.031 4474.2075 1903107
-841.78558 1123.0461 4462.3472 2034693
-818.72394 1127.701 4480.8433 1968900
-792.38562 1128.0035 4482.0449 1903107
-766.96918 1129.6848 4488.7256 2100486
-742.60773 1133.0967 4502.2822 2166019
-716.45465 1133.9272 4505.5825 2231813
-691.62109 1136.9912 4517.7573 2165763
-661.68018 1131.5676 4496.207 2034178
-629.96912 1122.5349 4460.3159 2231556
-610.52386 1135.5243 4511.9287 2034434
-586.40106 1140.6053 4532.1177 2165763
-555.95807 1133.2906 4503.0532 2297352
-532.25922 1139.6791 4528.437 2297606
-505.13721 1139.0269 4525.8457 2363399
-480.54788 1144.3328 4546.9282 2231813
-447.50504 1128.9427 4485.7773 2165763
-426.45041 1143.7622 4544.6611 2100227
-397.70428 1138.5601 4523.9907 2165763
-371.49844 1140.4037 4531.3164 2231556
-348.14969 1151.9886 4577.3481 2231813
-319.81473 1147.6382 4560.062 2297606
-293.05682 1148.6663 4564.147 2363399
-267.87128 1156.6929 4596.0405 2297606
-239.37347 1150.6151 4571.8906 2362372
-212.10495 1149.649 4568.0522 2362629
-185.75485 1154.1066 4585.7637 2296836
-158.02097 1150.0209 4569.5298 2428165
-131.17401 1152.0352 4577.5332 2362629
-105.31862 1166.078 4633.3315 2362372
-77.70195 1163.6472 4623.6729 2428422
-50.372799 1165.2194 4629.9199 2296836
-22.91045 1163.7861 4624.2251 2362629
4.4930763 1164.5988 4627.4541 2296836
31.82456 1161.386 4614.688 2296579
59.738945 1172.5841 4659.1831 2494215
87.505714 1174.7219 4667.6772 2559748
115.26929 1175.8002 4671.9619 2691335
141.38773 1162.9293 4620.8203 2625542
170.80275 1176.9507 4676.5332 2691335
197.69981 1172.1289 4657.3745 2756358
225.05971 1170.8962 4652.4766 2822151
252.55804 1170.5743 4651.1973 2822150
282.18384 1179.2061 4685.4951 2756100
309.00699 1175.6288 4671.2808 2953221
338.88043 1183.2905 4701.7241 2558721
361.90665 1167.6954 4639.7583 2756099
396.52011 1189.0493 4724.6064 2821892
422.57117 1183.604 4702.9697 2887685
449.66397 1181.5697 4694.8867 2887685
482.61777 1194.2759 4745.374 2953478
506.71188 1184.8662 4707.9849 3084550
538.328 1193.1096 4740.7397 3216136
576.14508 1213.5972 4822.1455 3478536
607.6731 1219.5272 4845.708 3478792
620.73584 1189.5364 4726.542 3478792
658.53973 1207.5007 4797.9219 3806471
693.02136 1218.1385 4840.1904 3740676
703.55212 1187.5048 4718.4692 4199938
730.14948 1185.2947 4709.6875 5448715
749.84497 1172.4556 4658.6719 8014630
789.47504 1190.5911 4730.7324 9198386
813.84204 1185.2542 4709.5269 9592116
862.64636 1214.681 4826.4521 9461041
875.21637 1192.8354 4739.6504 9855799
903.17297 1192.6669 4738.9805 9921592
930.80902 1192.0979 4736.7197 9790007
963.91406 1198.3613 4761.6069 9920823
992.88733 1199.278 4765.249 10183993
1020.3689 1198.3917 4761.728 9921077
1044.1641 1193.3405 4741.6567 10250043
1066.8651 1187.3359 4717.7983 10184249
1100.2935 1193.272 4741.3848 10052407
1127.3943 1192.2209 4737.209 9921077
1154.4906 1191.2166 4733.2178 9855028
1186.2809 1194.988 4748.2036 9855028
1211.1068 1191.7319 4735.2656 9591856
1239.8199 1192.3616 4737.7676 9723698
1268.7333 1193.1517 4740.9072 9723441
1282.3397 1179.8245 4687.9521 9723701
1325.3652 1193.5555 4742.5117 9723699
1350.9331 1191.3213 4733.6343 9855028
1377.3417 1189.9045 4728.0044 9789235
1405.5226 1190.0447 4728.5615 9723698
1433.7371 1190.2073 4729.2075 9723442
1459.4235 1188.3052 4721.6499 9789491
1484.1008 1185.6686 4711.1733 9986614
1520.7549 1192.521 4738.4009 10052407
1542.8285 1187.8988 4720.0347 9986614
1571.0167 1188.0652 4720.6958 9986870
1599.2848 1188.2852 4721.5698 9921077
1623.616 1185.6227 4710.9907 9921078
1645.3229 1181.1664 4693.2842 10249788
1684.5623 1189.2352 4725.3452 9986872
1715.8837 1191.5421 4734.5112 10118458
1731.8395 1183.2761 4701.667 9921080
1762.8486 1185.3942 4710.083 9921077
1792.3247 1186.4313 4714.2041 9855284
1806.4188 1177.411 4678.3623 9592113
1852.5012 1189.1978 4725.1963 9394735
1882.2 1190.2728 4729.4678 9723701
1885.2234 1174.6948 4667.5698 9789494
1928.3361 1184.1859 4705.2822 10118202
